# .PCD v0.7 - Point Cloud Data file format
VERSION 0.7
FIELDS x y z
SIZE 4 4 4
TYPE F F F
COUNT 1 1 1
WIDTH 1485
HEIGHT 1
VIEWPOINT 0 0 0 1 0 0 0
POINTS 1485
DATA ascii
-405.66074 811.32153 24.356668
-378.26157 283.69641 -251.25774
-373.771 249.18079 -296.42978
-370.60788 216.18802 -328.24811
-367.9473 183.97389 -355.01172
-366.30524 152.62723 -371.52921
-364.73062 121.57706 -387.36902
-364.03928 91.01004 -394.32318
-363.38052 60.563702 -400.94977
-363.31314 30.276274 -401.62766
-363.24725 3.14928e-05 -402.29007
-363.18143 -30.264885 -402.95258
-363.11557 -60.519062 -403.61475
-363.06772 -90.7668 -404.09589
-363.03784 -121.01241 -404.39682
-363.00647 -151.25256 -404.71255
-362.987 -181.49341 -404.90793
-363.01096 -211.75612 -404.66763
-363.03485 -242.0231 -404.42697
-363.08868 -272.31638 -403.88556
-363.15897 -302.63235 -403.17819
-363.25027 -332.97928 -402.25992
-363.36404 -363.36401 -401.11542
-363.4689 -393.75784 -400.06061
-363.4075 -423.97516 -400.6785
-362.72415 -453.40497 -407.5524
-361.86057 -482.48065 -416.2392
-360.9213 -511.30518 -425.68738
-359.9281 -539.89203 -435.67828
-358.88483 -568.23419 -446.17276
-357.81561 -596.35931 -456.92825
-356.71524 -624.25159 -467.99722
-355.59146 -651.91748 -479.30148
-354.47476 -679.40997 -490.53445
-353.35797 -706.71576 -501.76874
-352.24539 -733.84436 -512.96057
-351.14117 -760.80579 -524.06793
-350.04248 -787.59558 -535.11993
-348.952 -814.22125 -546.08911
-347.86697 -840.67841 -557.00403
-346.78998 -866.97491 -567.83746
-345.71829 -893.10547 -578.61798
-344.65457 -919.0788 -589.31805
-343.59604 -944.8891 -599.96619
-342.54529 -970.54492 -610.53589
-341.49966 -996.04059 -621.05402
-340.4617 -1021.3849 -631.4953
-339.42871 -1046.5718 -641.88629
-338.40329 -1071.6102 -652.20142
-337.38275 -1096.4938 -662.46722
-336.3696 -1121.2318 -672.65857
-335.36127 -1145.8175 -682.8017
-334.36023 -1170.2607 -692.87122
-333.36389 -1194.5537 -702.89386
-332.37469 -1218.7073 -712.84393
-331.39014 -1242.713 -722.74792
-330.52908 -1267.0282 -731.40948
-330.58612 -1294.7954 -730.83606
-304.7308 1274.329 -712.25153
-300.35211 1228.7133 -760.30225
-301.13333 1204.5334 -751.72925
-300.22824 1173.6196 -761.6615
-300.24161 1146.3773 -761.51453
-300.25946 1119.1492 -761.3186
-300.27063 1091.8936 -761.19629
-300.31192 1064.7424 -760.74323
-300.44366 1037.8964 -759.29749
-301.50073 1014.139 -747.69745
-303.83942 994.38367 -722.03369
-306.68881 975.82819 -690.76508
-372.11081 913.36304 27.156384
-371.71713 878.60419 22.836138
-371.65219 844.66425 22.123386
-371.77701 811.15015 23.492985
-374.60339 783.26178 54.509235
-354.92551 322.65982 -161.43001
-345.90121 283.01025 -260.45999
-341.80457 248.5854 -305.41516
-339.12369 215.80611 -334.83463
-336.82248 183.72141 -360.08719
-335.32001 152.41829 -376.5748
-333.98953 121.45087 -391.17499
-333.35855 90.915993 -398.09967
-332.82303 60.513294 -403.97562
-332.75726 30.25078 -404.69772
-332.69699 0.00020809176 -405.35913
-332.63672 -30.239664 -406.0202
-332.57785 -60.468563 -406.66635
-332.52859 -90.68959 -407.20691
-332.49988 -120.90882 -407.52231
-332.4725 -151.12381 -407.82245
-332.452 -181.33734 -408.04764
-332.47113 -211.57242 -407.83768
-332.49304 -241.81291 -407.59732
-332.53406 -272.07321 -407.147
-332.59976 -302.36331 -406.42584
-332.67371 -332.67355 -405.61453
-332.77783 -363.03018 -404.47195
-332.85873 -393.37845 -403.58453
-332.77921 -423.53714 -404.45691
-332.13361 -452.90936 -411.54147
-331.33423 -481.94052 -420.31369
-330.47247 -510.73001 -429.77063
-329.56137 -539.28204 -439.76852
-328.59784 -567.578 -450.34186
-327.61469 -595.6629 -461.13101
-326.60837 -623.52478 -472.17416
-325.58063 -651.16113 -483.452
-324.55936 -678.6239 -494.65924
-323.54446 -705.91504 -505.7963
-322.53464 -733.03314 -516.87793
-321.53235 -759.98541 -527.87665
-320.53119 -786.75824 -538.86304
-319.53369 -813.3584 -549.80896
-318.54117 -839.79022 -560.70087
-317.55603 -866.06177 -571.51147
-316.57571 -892.16785 -582.2691
-315.60269 -918.11676 -592.94702
-314.63437 -943.90302 -603.57288
-313.67322 -969.53534 -614.1203
-312.71667 -995.00751 -624.61688
-311.76721 -1020.3289 -635.0365
-310.82227 -1045.4928 -645.40594
-309.88422 -1070.5089 -655.69989
-308.95062 -1095.3704 -665.94452
-308.02383 -1120.0865 -676.11505
-307.10138 -1144.6505 -686.23737
-306.18564 -1169.0724 -696.28662
-305.27417 -1193.3444 -706.28888
-304.36926 -1217.4771 -716.21899
-303.46857 -1241.4623 -726.10291
-302.6525 -1265.6377 -735.05811
-302.63324 -1293.0691 -735.26971
-272.98343 1283.0222 -761.07397
-272.84756 1255.0991 -762.71381
-272.99966 1228.4987 -760.87787
-273.75552 1204.5245 -751.75385
-275.41098 1184.2675 -731.771
-275.46466 1156.9517 -731.12299
-275.28094 1128.652 -733.34076
-275.36658 1101.4663 -732.30695
-275.20358 1073.2942 -734.27429
-275.19635 1045.7462 -734.36145
-275.28506 1018.5547 -733.29089
-276.14081 994.10699 -722.96106
-278.16928 973.59271 -698.47498
-280.6882 954.34009 -668.06909
-283.5965 935.86865 -632.96283
-338.69431 914.47479 32.126625
-337.92935 878.61633 22.89254
-337.84073 844.60199 21.823074
-337.91843 811.00433 22.761078
-338.9725 779.63696 35.484474
-319.68152 319.68155 -197.37822
-313.69699 282.32748 -269.61795
-310.0665 248.05324 -313.44156
-307.75052 215.42552 -341.39813
-305.78165 183.46921 -365.16437
-304.42078 152.21045 -381.59158
-303.31219 121.32513 -394.97333
-302.74225 90.822723 -401.85345
-302.31616 60.463318 -406.99677
-302.25397 30.225443 -407.74734
-302.198 3.9548391e-05 -408.42282
-302.14456 -30.214224 -409.06808
-302.0899 -60.417854 -409.72791
-302.04395 -90.613113 -410.2825
-302.01538 -120.80596 -410.62747
-301.98929 -150.99457 -410.94211
-301.97318 -181.18369 -411.13699
-301.98434 -211.38895 -411.00192
-302.00421 -241.60321 -410.76239
-302.03525 -271.83163 -410.38757
-302.09485 -302.09476 -409.66788
-302.15326 -332.3685 -408.96292
-302.24774 -362.69708 -407.8226
-302.30743 -392.99963 -407.10172
-302.21292 -423.09799 -408.24274
-301.60867 -452.41287 -415.53668
-300.87494 -481.39978 -424.3938
-300.09079 -510.15427 -433.85907
-299.26318 -538.67358 -443.84937
-298.38193 -566.92548 -454.48688
-297.48541 -594.97052 -465.30923
-296.57147 -622.79993 -476.34119
-295.63934 -650.40656 -487.59286
-294.71304 -677.83997 -498.77417
-293.79138 -705.09924 -509.89969
-292.87662 -732.19153 -520.94165
-291.96756 -759.1156 -531.91522
-291.06412 -785.87299 -542.82092
-290.16507 -812.46222 -553.6731
-289.27274 -838.89075 -564.44476
-288.38361 -865.1507 -575.17749
-287.49539 -891.2356 -585.89911
-286.61154 -917.15686 -596.56805
-285.73422 -942.92279 -607.15839
-284.86115 -968.52771 -617.69739
-283.99448 -993.98041 -628.15894
-283.13199 -1019.275 -638.57019
-282.27469 -1044.4164 -648.91827
-281.42371 -1069.4099 -659.19092
-280.57672 -1094.249 -669.41473
-279.7359 -1118.9434 -679.56464
-278.89902 -1143.486 -689.66632
-278.06824 -1167.8865 -699.69501
-277.2413 -1192.1375 -709.67688
-276.42032 -1216.2493 -719.5871
-275.60315 -1240.214 -729.45129
-274.83603 -1264.2455 -738.71118
-274.75378 -1291.3428 -739.70361
-276.72226 -1328.2668 -715.94214
-246.68611 1288.2498 -747.64825
-246.68518 1260.8354 -747.66058
-246.68518 1233.4261 -747.66058
-246.71465 1206.1606 -747.26526
-252.07426 1036.3054 -675.38062
-251.77765 1007.1108 -679.35889
-251.8774 979.52338 -678.02081
-252.743 954.80713 -666.41132
-254.76674 934.14484 -639.26819
-257.27185 914.74457 -605.6687
-260.24298 896.39258 -565.81909
-304.18118 878.74573 23.492842
-304.04688 844.57495 21.691904
-304.08047 810.88135 22.142109
-304.57352 778.35461 28.755108
-286.59216 318.43582 -212.41573
-281.65018 281.65036 -278.6994
-278.56134 247.61014 -320.12772
-276.48785 215.0462 -347.9382
-274.82715 183.21831 -370.21216
-273.60455 152.00273 -386.60977
-272.69839 121.19935 -398.76349
-272.18869 90.729752 -405.59964
-271.85965 60.413296 -410.01276
-271.80377 30.200514 -410.76227
-271.75128 4.330197e-05 -411.4664
-271.70215 -30.188921 -412.12564
-271.65302 -60.36718 -412.78421
-271.61395 -90.537926 -413.30814
-271.5816 -120.70277 -413.7421
-271.5582 -150.86555 -414.0563
-271.54593 -181.03053 -414.22073
-271.55035 -211.20566 -414.1611
-271.56824 -241.39388 -413.92178
-271.59055 -271.59045 -413.62244
-271.64297 -301.82535 -412.91901
-271.68762 -332.06253 -412.32034
-271.77139 -362.36176 -411.19669
-271.81497 -392.62152 -410.61234
-271.70773 -422.65634 -412.05072
-271.14944 -451.91571 -419.53815
-270.48392 -480.86011 -428.46487
-269.77756 -509.57971 -437.93863
-269.03329 -538.06641 -447.92093
-268.23434 -566.27228 -458.63675
-267.42822 -594.28479 -469.44855
-266.60437 -622.07678 -480.49854
-265.7674 -649.65344 -491.72427
-264.93564 -677.05762 -502.87973
-264.10806 -704.28796 -513.97961
-263.28668 -731.35181 -524.99622
-262.47037 -758.24756 -535.94489
-261.65912 -784.97717 -546.82562
-260.85184 -811.53894 -557.65302
-260.05054 -837.94049 -568.40027
-259.25415 -864.18048 -579.08142
-258.46262 -890.26019 -589.69757
-257.67493 -916.17749 -600.26257
-256.89301 -941.94092 -610.74994
-256.10886 -967.5224 -621.26697
-255.33049 -992.95184 -631.70679
-254.55586 -1018.2233 -642.09674
-253.78688 -1043.3459 -652.41022
-253.02156 -1068.3131 -662.67505
-252.26181 -1093.1344 -672.86499
-251.50565 -1117.8027 -683.0069
-250.75496 -1142.328 -693.07532
-250.00778 -1166.7029 -703.09668
-249.26599 -1190.9375 -713.04578
-248.52765 -1215.024 -722.94861
-247.79463 -1238.9729 -732.7804
-247.09175 -1262.9131 -742.20758
-246.94592 -1289.6064 -744.16327
-248.43988 -1325.0125 -724.12598
-220.28087 1266.6152 -732.49371
-220.2883 1239.1219 -732.38171
-220.37254 1212.0492 -731.11041
-228.40526 1027.8237 -609.90643
-227.99942 997.49768 -616.02979
-227.89685 968.56177 -617.57733
-228.01535 940.56335 -615.78967
-228.88916 915.55682 -602.60455
-230.91173 894.78314 -572.08655
-233.56848 875.88196 -531.99939
-236.80403 858.41473 -483.17841
-270.4343 878.91168 24.2628
-270.27383 844.60596 21.841822
-270.28256 810.8479 21.973286
-270.44299 777.5238 24.394009
-253.76085 317.20114 -227.32008
-249.75566 280.97534 -287.75366
-247.16856 247.1687 -326.78992
-245.33606 214.6691 -354.43991
-243.95717 182.968 -375.24594
-242.87239 151.79549 -391.61435
-242.14886 121.07465 -402.53116
-241.69775 90.636803 -409.33807
-241.45447 60.363754 -413.00879
-241.40388 30.175529 -413.77203
-241.35431 9.7196047e-05 -414.51996
-241.31071 -30.163647 -415.17807
-241.26813 -60.316883 -415.8208
-241.23346 -90.46241 -416.34357
-241.1998 -120.59978 -416.85168
-241.17999 -150.73738 -417.1503
-241.1701 -180.8774 -417.29968
-241.1691 -211.02287 -417.31467
-241.18495 -241.18472 -417.07571
-241.20377 -271.35406 -416.79178
-241.24632 -301.55783 -416.14944
-241.28395 -331.7652 -415.58163
-241.35036 -362.02539 -414.5798
-241.38109 -392.2442 -414.11606
-241.25822 -422.20178 -415.97
-240.75319 -451.41211 -423.59042
-240.16191 -480.3237 -432.51208
-239.53252 -509.00647 -442.00897
-238.87146 -537.46075 -451.98349
-238.15709 -565.62286 -462.7626
-237.44121 -593.60303 -473.56409
-236.70676 -621.3551 -484.64636
-235.96451 -648.90228 -495.84616
-235.22597 -676.27441 -506.98996
-234.49297 -703.47876 -518.05005
-233.7645 -730.51392 -529.0415
-233.04057 -757.38159 -539.96503
-232.32018 -784.08057 -550.83466
-231.60513 -810.6178 -561.6239
-230.89449 -836.99237 -572.34674
-230.18819 -863.20557 -583.00391
-229.48531 -889.25543 -593.60974
-228.78758 -915.15033 -604.13721
-228.09412 -940.88806 -614.60126
-227.40482 -966.47034 -625.00183
-226.71878 -991.89453 -635.35315
-226.03777 -1017.1698 -645.62885
-225.35651 -1042.2737 -655.90851
-224.67761 -1067.2185 -666.1521
-224.00366 -1092.0177 -676.32129
-223.3329 -1116.6643 -686.44244
-222.66698 -1141.1681 -696.49048
-222.00417 -1165.5217 -706.49133
-221.34613 -1189.7355 -716.42017
-220.69116 -1213.8013 -726.3031
-220.04086 -1237.7297 -736.11523
-219.40669 -1261.5883 -745.68414
-219.21111 -1287.8651 -748.63538
-220.30067 -1321.804 -732.19482
-203.37985 987.84503 -549.11578
-203.06743 957.31805 -554.50305
-203.134 928.61273 -553.35498
-203.30746 900.36182 -550.36353
-204.39435 875.97595 -531.62115
-206.64151 856.08636 -492.87021
-209.4518 837.80737 -444.40848
-236.66377 879.03699 24.84506
-236.49722 844.63318 21.973442
-236.49071 810.82544 21.860508
-236.61584 777.45215 24.018629
-234.84262 402.58749 -6.5594387
-234.76437 368.91559 -7.9091043
-221.19833 315.99777 -241.84659
-218.01459 280.3046 -296.74863
-215.88751 246.7287 -333.42865
-214.29245 214.29247 -360.9343
-213.1714 182.71846 -380.26627
-212.22479 151.58929 -396.59009
-211.66138 120.94945 -406.30579
-211.2692 90.543983 -413.06863
-211.09834 60.313976 -416.01501
-211.05502 30.150881 -416.76196
-211.01085 2.0270892e-05 -417.52356
-210.97015 -30.138412 -418.22531
-210.93382 -60.266804 -418.85193
-210.90355 -90.387047 -419.3743
-210.87328 -120.49885 -419.89618
-210.85252 -150.60873 -420.254
-210.8456 -180.72459 -420.37329
-210.84215 -210.842 -420.43277
-210.85423 -240.97612 -420.22406
-210.87068 -271.1192 -419.94092
-210.90355 -301.29065 -419.37424
-210.93555 -331.47003 -418.82205
-210.98488 -361.6882 -417.97162
-211.00566 -391.86761 -417.61316
-210.87498 -421.74988 -419.86612
-210.42458 -450.90958 -427.63376
-209.90665 -479.7865 -436.56509
-209.35544 -508.43445 -446.07007
-208.77832 -536.85846 -456.02222
-208.14874 -564.97498 -466.87906
-207.52213 -592.9201 -477.68478
-206.87845 -620.63519 -488.78461
-206.23048 -648.15271 -499.95828
-205.58572 -675.49591 -511.07642
-204.94583 -702.67133 -522.11121
-204.30991 -729.67816 -533.07739
-203.67789 -756.5177 -543.97614
-203.049 -783.18878 -554.82111
-202.42476 -809.69897 -565.58551
-201.80434 -836.04645 -576.28418
-201.18771 -862.23297 -586.91742
-200.57407 -888.25659 -597.49927
-199.96495 -914.12531 -608.00354
-199.3595 -939.83752 -618.44403
-198.75771 -965.39447 -628.82153
-198.15877 -990.7937 -639.14972
-197.56421 -1016.0444 -649.40271
-196.97319 -1041.1438 -659.59448
-196.38496 -1066.0896 -669.73828
-195.80096 -1090.891 -679.80884
-195.21747 -1115.5282 -689.87085
-194.63597 -1140.0106 -699.89832
-194.05717 -1164.343 -709.87903
-193.48256 -1188.5356 -719.78815
-192.91061 -1212.5809 -729.65094
-192.34276 -1236.4891 -739.44318
-191.78038 -1260.2711 -749.14105
-191.55035 -1286.1237 -753.10785
-192.35066 -1318.9761 -739.3067
-177.51935 946.77002 -484.86206
-177.40858 916.61127 -487.09018
-177.54794 887.73987 -484.28671
-177.80363 859.3844 -479.14282
-179.37814 837.09827 -447.46573
-181.95277 818.7876 -395.66833
-185.24475 802.72736 -329.43896
-202.71936 844.66425 22.123386
-202.70354 810.81421 21.804329
-202.79958 777.39844 23.736927
-201.29367 402.58749 -6.5594387
-201.22659 368.91559 -7.9091043
-188.88199 314.80347 -256.26346
-186.42389 279.63608 -305.71664
-184.71764 246.29037 -340.04376
-183.35757 213.91733 -367.40591
-182.46948 182.46953 -385.27289
-181.65958 151.38313 -401.56732
-181.2368 120.8247 -410.07278
-180.90282 90.4515 -416.79193
-180.79225 60.264168 -419.01605
-180.7552 30.126024 -419.76202
-180.71739 7.7907171e-05 -420.52231
-180.68111 -30.113293 -421.25262
-180.64999 -60.216591 -421.87817
-180.62408 -90.311897 -422.39954
-180.59819 -120.39854 -422.92075
-180.57747 -150.48106 -423.33755
-180.5723 -180.57213 -423.44153
-180.56932 -210.66408 -423.50119
-180.57672 -240.76889 -423.35217
-180.59004 -270.88483 -423.08447
-180.61372 -301.02267 -422.60812
-180.64111 -331.1752 -422.0571
-180.6759 -361.35168 -421.35681
-180.69221 -391.49976 -421.02899
-180.55602 -421.29709 -423.76907
-180.16339 -450.40833 -431.66788
-179.71971 -479.25244 -440.59412
-179.24612 -507.8638 -450.12204
-178.75182 -536.25525 -460.06662
-178.21338 -564.34229 -470.89896
-177.67175 -592.23901 -481.7959
-177.11916 -619.91687 -492.91309
-176.56503 -647.40503 -504.06119
-176.01367 -674.71906 -515.1535
-175.46645 -701.86566 -526.16315
-174.92262 -728.84406 -537.10431
-174.38214 -755.65588 -547.97772
-173.8443 -782.29926 -558.79822
-173.31044 -808.78192 -569.53857
-172.77988 -835.1026 -580.21289
-172.25186 -861.25928 -590.83545
-171.72774 -887.25989 -601.38013
-171.2068 -913.10284 -611.86072
-170.68901 -938.78937 -622.27789
-170.17368 -964.31732 -632.64563
-169.66209 -989.69543 -642.93781
-169.15358 -1014.9214 -653.16815
-168.64812 -1039.9967 -663.33722
-168.14503 -1064.9183 -673.45874
-167.64555 -1089.6962 -683.50726
-167.14903 -1114.3268 -693.49634
-166.65546 -1138.8123 -703.42639
-166.16417 -1163.1493 -713.3103
-165.67514 -1187.3385 -723.1488
-165.18651 -1211.3676 -732.97943
-164.70012 -1235.251 -742.76477
-164.21721 -1258.9985 -752.48035
-163.98262 -1284.5304 -757.19995
-164.563 -1316.5039 -745.52338
-202.95145 1298.8896 843.40631
-151.04929 936.50574 -409.62305
-150.73007 904.3808 -417.32947
-150.81053 874.70117 -415.38733
-151.00334 845.6189 -410.73221
-151.79962 819.71814 -391.50815
-153.89137 800.23535 -341.00906
-156.85652 784.28265 -269.4238
-168.92036 810.81799 21.823362
-168.99344 777.37012 23.586815
-167.7455 402.58936 -6.5408797
-167.68883 368.91559 -7.9091043
-156.86859 313.73724 -269.13266
-154.98355 278.97046 -314.64172
-153.65834 245.85345 -346.63504
-152.53085 213.54326 -373.85504
-151.85109 182.2215 -390.26602
-151.17735 151.1776 -406.53122
-150.87495 120.70007 -413.83185
-150.59845 90.359161 -420.50739
-150.53673 60.214844 -421.9975
-150.50526 30.101141 -422.75693
-150.47444 3.8326591e-05 -423.5011
-150.44301 -30.088398 -424.26007
-150.41713 -60.166752 -424.88467
-150.39496 -90.236732 -425.42001
-150.37341 -120.29861 -425.94
-150.3531 -150.353 -426.43051
-150.35002 -180.41998 -426.50476
-150.34756 -210.48647 -426.56427
-150.35065 -240.56093 -426.48981
-150.36234 -270.65216 -426.20758
-150.37773 -300.75537 -425.83609
-150.40051 -330.88092 -425.28619
-150.4239 -361.01718 -424.72107
-150.43747 -391.13739 -424.39377
-150.30264 -420.84744 -427.64841
-149.96944 -449.90814 -435.69302
-149.60051 -478.72156 -444.59955
-149.2043 -507.29459 -454.16489
-148.79271 -535.65363 -464.10165
-148.34503 -563.711 -474.90976
-147.8905 -591.56189 -485.88312
-147.42868 -619.20032 -497.03229
-146.96739 -646.65637 -508.16867
-146.50957 -673.94403 -519.22137
-146.0546 -701.06195 -530.20551
-145.60243 -728.01208 -541.12183
-145.15248 -754.79279 -551.9845
-144.70589 -781.41162 -562.76648
-144.26201 -807.86719 -573.4823
-143.82086 -834.16095 -584.13257
-143.38185 -860.29108 -594.73138
-142.94606 -886.26544 -605.25238
-142.51289 -912.08252 -615.70959
-142.08237 -937.74353 -626.10358
-141.65388 -963.2464 -636.448
-141.22852 -988.59955 -646.71735
-140.80569 -1013.801 -656.92511
-140.38541 -1038.8518 -667.07202
-139.96709 -1063.7498 -677.17114
-139.55177 -1088.5037 -687.19788
-139.13892 -1113.1112 -697.16492
-138.72798 -1137.5693 -707.08588
-138.31998 -1161.8876 -716.93597
-137.91437 -1186.0635 -726.72803
-137.51114 -1210.0979 -736.46307
-137.10973 -1233.9874 -746.15375
-136.71118 -1257.7428 -755.77557
-136.48918 -1282.9983 -761.13507
-136.87981 -1314.0461 -751.70441
-163.07025 1263.7947 864.80481
-123.70393 927.77966 -323.17886
-123.1291 892.68604 -340.52625
-123.08681 861.6076 -341.80264
-123.13374 831.15302 -340.38614
-123.58739 803.31836 -326.69601
-125.23067 782.69171 -277.10568
-127.88874 767.33252 -196.89131
-135.19661 777.38074 23.643377
-136.51051 750.80804 63.293926
-134.14066 435.95718 -8.2231112
-134.0972 402.29163 -9.5347824
-134.05254 368.64456 -10.882412
-125.31665 313.29178 -274.51074
-123.82853 278.61429 -319.4191
-122.81775 245.63562 -349.92212
-121.9472 213.40778 -376.19312
-121.40408 182.10635 -392.58337
-120.86578 151.0824 -408.82809
-120.64149 120.64162 -415.59644
-120.42049 90.315399 -422.26547
-120.38103 60.190647 -423.45648
-120.35638 30.089256 -424.20047
-120.33124 0.00022661439 -424.95908
-120.3066 -30.076475 -425.7023
-120.28396 -60.141861 -426.38589
-120.26672 -90.199776 -426.90601
-120.24901 -120.24889 -427.44067
-120.23179 -150.28961 -427.96017
-120.22933 -180.34387 -428.03433
-120.22687 -210.39687 -428.10883
-120.22835 -240.45662 -428.06418
-120.23769 -270.53482 -427.78204
-120.24852 -300.62125 -427.45538
-120.26672 -330.73334 -426.90601
-120.28445 -360.85327 -426.37119
-120.29922 -390.97223 -425.92535
-120.18557 -420.64941 -429.35522
-119.91728 -449.68973 -437.45129
-119.62243 -478.48965 -446.34909
-119.30819 -507.05963 -455.83218
-118.98404 -535.4281 -465.61444
-118.62619 -563.47424 -476.41336
-118.26145 -591.30719 -487.4205
-117.89185 -618.93213 -498.57425
-117.52502 -646.38751 -509.64429
-117.16046 -673.67255 -520.64575
-116.79862 -700.79169 -531.56506
-116.43856 -727.74084 -542.43115
-116.0807 -754.52441 -553.23047
-115.7255 -781.14703 -563.94958
-115.372 -807.60388 -574.61731
-115.02067 -833.89966 -585.21991
-114.67191 -860.03918 -595.74451
-114.32481 -886.01721 -606.21893
-113.97981 -911.83832 -616.63043
-113.63689 -937.50427 -626.979
-113.29646 -963.01978 -637.25238
-112.95763 -988.37921 -647.47742
-112.62081 -1013.5873 -657.64154
-112.28643 -1038.6494 -667.73248
-111.95361 -1063.5593 -677.77637
-111.62276 -1088.3217 -687.76093
-111.29427 -1112.9426 -697.67365
-110.96729 -1137.4146 -707.54126
-110.64223 -1161.7433 -717.35083
-110.31948 -1185.9342 -727.0907
-109.99819 -1209.9801 -736.78619
-109.67878 -1233.8862 -746.4256
-109.36121 -1257.6538 -756.00903
-109.19135 -1282.9983 -761.13507
-109.4912 -1313.8943 -752.08612
-94.388405 880.95856 -258.37918
-94.232628 848.09387 -264.64722
-94.323776 817.47284 -260.97989
-94.494438 787.4538 -254.11263
-95.870247 766.96204 -198.7547
-98.618378 756.07422 -88.178307
-102.1125 748.82513 52.41399
-100.51923 435.58353 -11.69429
-100.48669 401.9469 -13.003626
-100.45417 368.33209 -14.312076
-94.005127 313.35056 -273.80109
-92.888222 278.66486 -318.74194
-92.125626 245.66844 -349.4263
-91.47065 213.43172 -375.78091
-91.061714 182.12347 -392.23505
-90.657906 151.09668 -408.48297
-90.486694 120.649 -415.37225
-90.320557 90.320656 -422.05704
-90.287987 60.19207 -423.3671
-90.269135 30.089787 -424.1261
-90.250648 0.00024820204 -424.86981
-90.231804 -30.07723 -425.62796
-90.214073 -60.142483 -426.34146
-90.200417 -90.200279 -426.89114
-90.1875 -120.24989 -427.41092
-90.174583 -150.29088 -427.93057
-90.171631 -180.34311 -428.04941
-90.170151 -210.39687 -428.10883
-90.170891 -240.45555 -428.07907
-90.177902 -270.53363 -427.79684
-90.18602 -300.6199 -427.47046
-90.199677 -330.73196 -426.92075
-90.212967 -360.85181 -426.38583
-90.224419 -390.97223 -425.92535
-90.138443 -420.64587 -429.38489
-89.937225 -449.68597 -437.48083
-89.716461 -478.48776 -446.36386
-89.480782 -507.05759 -455.84686
-89.237671 -535.42596 -465.62903
-88.969284 -563.47198 -476.42789
-88.696083 -591.30719 -487.4205
-88.418884 -618.93213 -498.57425
-88.143761 -646.38751 -509.64429
-87.870346 -673.67255 -520.64575
-87.598976 -700.79169 -531.56506
-87.328926 -727.74084 -542.43115
-87.060524 -754.52441 -553.23047
-86.793785 -781.14386 -563.9635
-86.529007 -807.60388 -574.61731
-86.265503 -833.89966 -585.21991
-86.003593 -860.03583 -595.75806
-85.743607 -886.01721 -606.21893
-85.484856 -911.83832 -616.63043
-85.227661 -937.50427 -626.979
-84.972336 -963.01978 -637.25238
-84.718216 -988.37921 -647.47742
-84.465607 -1013.5873 -657.64154
-84.214508 -1038.6455 -667.74524
-83.96521 -1063.5593 -677.77637
-83.717064 -1088.3217 -687.76093
-83.47039 -1112.9384 -697.68658
-83.225471 -1137.4146 -707.54126
-82.981674 -1161.7433 -717.35083
-82.739296 -1185.9298 -727.10315
-82.498642 -1209.9801 -736.78619
-82.259087 -1233.8862 -746.4256
-82.020905 -1257.6538 -756.00903
-81.893509 -1282.9983 -761.13507
-82.118706 -1313.8992 -752.07397
-67.495209 1079.9233 17.420744
-67.421806 1045.0381 12.990514
-67.266235 1008.9937 3.6007087
-67.245911 975.06586 2.374362
-67.23053 941.22736 1.4458369
-64.273048 867.6864 -177.05385
-64.185165 834.4071 -182.35809
-64.20816 802.60223 -180.96985
-64.379791 772.55762 -170.61147
-65.502312 753.27679 -102.86149
-67.735115 745.08649 31.900349
-67.735115 711.21887 31.900444
-67.735115 677.35144 31.900253
-67.735115 643.48376 31.900316
-67.735428 609.61902 31.919167
-67.735428 575.75128 31.919182
-67.736366 541.89105 31.975657
-68.033073 476.23154 49.883911
-67.009453 435.56152 -11.897138
-66.987457 401.92499 -13.224951
-66.965782 368.31186 -14.533098
-62.682117 313.41074 -273.07507
-61.936707 278.71536 -318.06445
-61.425045 245.70024 -348.94592
-60.987015 213.45476 -375.38373
-60.713577 182.14088 -391.88687
-60.444324 151.11096 -408.13785
-60.327927 120.65603 -415.16312
-60.217403 90.326256 -421.83359
-60.194462 60.194664 -423.21848
-60.180897 30.090487 -424.03677
-60.168331 0.00018536877 -424.79541
-60.156013 -30.07793 -425.53873
-60.144196 -60.144165 -426.25214
-60.134098 -90.201111 -426.8613
-60.125244 -120.25037 -427.39603
-60.116634 -150.29147 -427.91577
-60.114418 -180.34311 -428.04941
-60.11319 -210.3961 -428.12354
-60.113926 -240.45555 -428.07907
-60.118351 -270.53256 -427.81174
-60.123768 -300.61871 -427.48526
-60.132622 -330.72931 -426.95056
-60.141487 -360.84869 -426.41574
-60.149364 -390.97079 -425.94
-60.092045 -420.6441 -429.39972
-59.957905 -449.6842 -437.49567
-59.810726 -478.48572 -446.37854
-59.653854 -507.05759 -455.84686
-59.491539 -535.42365 -465.64355
-59.312618 -563.46967 -476.44238
-59.130726 -591.30719 -487.4205
-58.945923 -618.93213 -498.57425
-58.762508 -646.38751 -509.64429
-58.580231 -673.67255 -520.64575
-58.399311 -700.79169 -531.56506
-58.21928 -727.74084 -542.43115
-58.040352 -754.52441 -553.23047
-57.862518 -781.14386 -563.9635
-57.686001 -807.60388 -574.61731
-57.510334 -833.89966 -585.21991
-57.335732 -860.03583 -595.75806
-57.162182 -886.01379 -606.23242
-56.989906 -911.83832 -616.63043
-56.818443 -937.50427 -626.979
-56.64801 -963.01605 -637.26562
-56.478813 -988.37921 -647.47742
-56.310406 -1013.5873 -657.64154
-56.143005 -1038.6455 -667.74524
-55.976807 -1063.5593 -677.77637
-55.811378 -1088.3217 -687.76093
-55.646923 -1112.9384 -697.68658
-55.483437 -1137.4104 -707.55389
-55.321117 -1161.7433 -717.35083
-55.159534 -1185.9298 -727.10315
-54.99889 -1209.9756 -736.79858
-54.83939 -1233.8862 -746.4256
-54.680607 -1257.6538 -756.00903
-54.595673 -1282.9983 -761.13507
-54.745804 -1313.8992 -752.07397
-33.552166 1073.6696 -6.1710324
-33.533325 1039.5333 -8.4450083
-33.520779 1005.6236 -9.9594164
-33.510689 971.81012 -11.177674
-33.502586 938.07269 -12.15527
-33.505493 904.6485 -11.80487
-32.837528 853.77582 -92.435097
-32.822124 820.55322 -94.29483
-32.857357 788.57654 -90.041763
-33.012836 759.29535 -71.273712
-33.650524 740.31165 5.7021384
-33.650524 706.66101 5.7022305
-33.650524 673.01062 5.7021208
-33.650372 639.35718 5.6834316
-33.650372 605.70679 5.6837096
-33.650372 572.05652 5.6836381
-33.652527 538.44061 5.9440684
-33.761719 506.42596 19.124439
-33.683079 471.56323 9.6320601
-33.504726 435.56152 -11.897138
-33.493729 401.92499 -13.224951
-33.482891 368.31186 -14.533098
-31.347076 313.47098 -272.34857
-30.973969 278.76572 -317.38669
-30.716633 245.7332 -348.45004
-30.496799 213.47775 -374.98621
-30.35955 182.15738 -391.55371
-30.225021 151.12521 -407.79239
-30.165821 120.66337 -414.9386
-30.11043 90.331512 -421.62518
-30.098709 60.197491 -423.03967
-30.09119 30.091217 -423.94745
-30.084904 0.00019397652 -424.70615
-30.078623 -30.078396 -425.46457
-30.072714 -60.145191 -426.17798
-30.067295 -90.201813 -426.8317
-30.062868 -120.25136 -427.3663
-30.058563 -150.29259 -427.88611
-30.057209 -180.34311 -428.04941
-30.056595 -210.3961 -428.12354
-30.056841 -240.4545 -428.09396
-30.059053 -270.53137 -427.82657
-30.06176 -300.6174 -427.5
-30.066189 -330.72797 -426.9653
-30.070621 -360.84732 -426.43048
-30.074558 -390.96918 -425.95496
-30.0459 -420.64249 -429.41464
-29.97883 -449.68234 -437.51041
-29.905121 -478.48181 -446.40796
-29.826807 -507.0556 -455.86157
-29.745649 -535.42145 -465.65811
-29.656189 -563.46741 -476.45688
-29.565363 -591.30719 -487.4205
-29.472961 -618.93213 -498.57425
-29.381254 -646.38751 -509.64429
-29.290115 -673.67255 -520.64575
-29.199656 -700.79169 -531.56506
-29.10964 -727.74084 -542.43115
-29.020176 -754.52441 -553.23047
-28.931259 -781.14386 -563.9635
-28.843 -807.60388 -574.61731
-28.755167 -833.89966 -585.21991
-28.667866 -860.03583 -595.75806
-28.581091 -886.01379 -606.23242
-28.494843 -911.83478 -616.6438
-28.409222 -937.50427 -626.979
-28.324005 -963.01605 -637.26562
-28.239298 -988.37537 -647.4906
-28.155203 -1013.5873 -657.64154
-28.071503 -1038.6455 -667.74524
-27.988297 -1063.5552 -677.78937
-27.905689 -1088.3217 -687.76093
-27.823462 -1112.9384 -697.68658
-27.741718 -1137.4104 -707.55389
-27.660559 -1161.7433 -717.35083
-27.579767 -1185.9298 -727.10315
-27.499445 -1209.9756 -736.79858
-27.419695 -1233.8862 -746.4256
-27.340303 -1257.6538 -756.00903
-27.297836 -1282.9983 -761.13507
-27.373005 -1313.9041 -752.06146
-1.5372545e-21 1075.1869 -0.44709793
-9.5279746e-22 1041.1157 -2.2827876
-1.026724e-21 1007.0941 -4.0426855
-8.6163382e-22 973.09277 -5.8380637
-1.3494278e-21 939.12201 -7.6317377
-9.5823543e-22 905.16449 -9.4978819
-6.3646636e-22 871.51654 -10.07018
7.9760376e-23 838.0235 -9.9408302
-3.6974241e-22 804.63092 -9.2946033
-1.8786413e-21 771.46381 -7.4101548
-1.7230358e-21 740.67822 7.7126813
-4.251673e-22 707.01093 7.7128568
-6.3021166e-22 673.34381 7.712779
-1.7670442e-21 639.6767 7.7126951
-5.9617866e-22 606.0094 7.7128448
-8.0122302e-22 572.34222 7.7127347
-1.5959652e-21 538.70215 7.9175167
-6.7830628e-22 506.7659 21.860712
-1.8066004e-21 472.18686 15.00803
-6.0994705e-22 435.56152 -11.897138
-1.2608764e-21 401.92499 -13.224951
-9.7697684e-22 368.31186 -14.533098
-8.2104633e-22 313.53107 -271.62186
-2.5887562e-22 278.81635 -316.70874
-1.6000171e-21 245.76826 -347.92279
-1.7463404e-21 213.50079 -374.58902
-1.4790319e-21 182.17628 -391.17502
-1.2388019e-21 151.13953 -407.4473
-1.0173104e-21 120.67184 -414.68445
-1.0903958e-21 90.336952 -421.40146
-1.9802829e-21 60.200298 -422.87613
-1.1438131e-21 30.092737 -423.78394
-9.1013556e-22 0.00013114324 -424.63174
-1.1750966e-21 -30.07921 -425.37546
-2.1085294e-21 -60.146717 -426.0889
-1.1071438e-21 -90.203697 -426.75732
-9.0491691e-22 -120.25236 -427.33652
-1.3952816e-21 -150.29324 -427.87128
-1.2467094e-21 -180.34464 -428.01962
-1.3729048e-21 -210.39516 -428.13852
-1.5950236e-21 -240.4545 -428.09396
-1.3278593e-21 -270.5303 -427.84146
-7.0042892e-22 -300.61618 -427.51483
-1.516356e-21 -330.72528 -426.99512
-5.3164464e-22 -360.84442 -426.46014
-1.5399367e-21 -390.96756 -425.96988
-2.0150746e-21 -420.64072 -429.42947
-1.3602485e-21 -449.67862 -437.53998
-4.7857816e-22 -478.47989 -446.4227
-2.1152026e-21 -507.05341 -455.87613
-1.4608088e-21 -535.41931 -465.67273
-1.0519497e-21 -563.46527 -476.47113
-1.590651e-21 -591.30475 -487.43491
-1.2095337e-21 -618.93213 -498.57425
-7.431094e-22 -646.38751 -509.64429
-1.1448089e-21 -673.67255 -520.64575
-4.3709185e-22 -700.79169 -531.56506
-6.8674348e-22 -727.74084 -542.43115
-1.1232066e-21 -754.52441 -553.23047
-1.5246795e-21 -781.14386 -563.9635
-1.2471545e-21 -807.60388 -574.61731
-1.1297309e-21 -833.89966 -585.21991
-2.8012951e-22 -860.03583 -595.75806
-9.112175e-22 -886.01379 -606.23242
-1.9377338e-21 -911.83478 -616.6438
-1.181493e-21 -937.50427 -626.979
-7.9661113e-22 -963.01605 -637.26562
-1.0342904e-21 -988.37537 -647.4906
-7.6692467e-22 -1013.5833 -657.65466
-4.9398748e-22 -1038.6455 -667.74524
-2.1054481e-21 -1063.5552 -677.78937
-1.2704548e-21 -1088.3176 -687.77356
-1.2887126e-21 -1112.9384 -697.68658
-1.2390428e-21 -1137.4104 -707.55389
-7.0660601e-22 -1161.739 -717.36334
-1.6811365e-21 -1185.9298 -727.10315
-8.4440827e-22 -1209.9756 -736.79858
-1.4917381e-21 -1233.8816 -746.43793
-1.9011347e-21 -1257.6538 -756.00903
-1.1797403e-21 -1282.9983 -761.13507
-5.9361134e-22 -1313.9041 -752.06146
33.782364 1081.0358 21.616919
33.742332 1046.0125 16.784416
33.72963 1011.8892 15.251038
33.717556 977.8092 13.793546
33.707653 943.81451 12.598085
33.713531 910.26544 13.307598
33.313442 866.14966 -34.987358
33.295475 832.38708 -37.156364
33.302418 799.25818 -36.318306
33.337173 766.75507 -32.122463
34.000793 748.0177 47.983246
36.340725 508.7702 330.43814
33.504726 435.56152 -11.897138
33.493729 401.92499 -13.224951
33.482891 368.31186 -14.533098
31.358986 313.59003 -270.91098
30.985203 278.86694 -316.03049
30.725368 245.80304 -347.39542
30.503382 213.52379 -374.19147
30.36595 182.1958 -390.78113
30.230619 151.15331 -407.11694
30.170158 120.68068 -414.41528
30.114008 90.342186 -421.19302
30.101423 60.203041 -422.71219
30.094025 30.094152 -423.60526
30.086506 0.00018185798 -424.51285
30.079977 -30.079836 -425.30106
30.074066 -60.147919 -426.01447
30.068649 -90.205795 -426.66824
30.063238 -120.25283 -427.32166
30.058929 -150.29465 -427.84143
30.057579 -180.34526 -428.00482
30.056471 -210.39516 -428.13852
30.056841 -240.4545 -428.09396
30.058807 -270.52911 -427.85626
30.061514 -300.61499 -427.52963
30.065819 -330.72394 -427.00986
30.07025 -360.8429 -426.47513
30.074436 -390.96756 -425.96988
30.045654 -420.63898 -429.44434
29.978464 -449.67676 -437.55475
29.904877 -478.47784 -446.43738
29.826563 -507.05139 -455.89081
29.745529 -535.41931 -465.67273
29.656069 -563.46527 -476.47113
29.565125 -591.30237 -487.44934
29.472961 -618.93213 -498.57425
29.381254 -646.38751 -509.64429
29.290115 -673.67255 -520.64575
29.199656 -700.79169 -531.56506
29.10964 -727.74084 -542.43115
29.020176 -754.52441 -553.23047
28.931259 -781.14386 -563.9635
28.843 -807.60388 -574.61731
28.755167 -833.89966 -585.21991
28.667866 -860.03583 -595.75806
28.581091 -886.01379 -606.23242
28.494843 -911.83478 -616.6438
28.409222 -937.50427 -626.979
28.324005 -963.01605 -637.26562
28.239298 -988.37537 -647.4906
28.155094 -1013.5833 -657.65466
28.071503 -1038.6455 -667.74524
27.988297 -1063.5552 -677.78937
27.905582 -1088.3176 -687.77356
27.823357 -1112.9342 -697.69916
27.741718 -1137.4104 -707.55389
27.660452 -1161.739 -717.36334
27.579662 -1185.9254 -727.11566
27.499445 -1209.9756 -736.79858
27.419592 -1233.8816 -746.43793
27.3402 -1257.649 -756.0213
27.297836 -1282.9983 -761.13507
27.373106 -1313.9089 -752.04926
66.173462 860.25519 -62.353493
66.153503 826.91895 -63.558292
66.150223 793.80292 -63.756268
66.277344 762.1897 -56.083946
68.631157 754.94312 85.981346
67.034523 435.72455 -10.384206
67.012512 402.07523 -11.712884
66.990814 368.44962 -13.02209
62.730022 313.65024 -270.18381
61.981647 278.91754 -315.3522
61.459732 245.8391 -346.85242
61.013607 213.54767 -373.77856
60.738678 182.21605 -390.37195
60.466965 151.16756 -406.77145
60.344776 120.68965 -414.14606
60.231724 90.347786 -420.96957
60.205807 60.205887 -422.53342
60.190762 30.095383 -423.44156
60.175972 0.00019907349 -424.33432
60.161434 -30.080521 -425.21185
60.149612 -60.149426 -425.92542
60.138531 -90.207695 -426.5939
60.127705 -120.25526 -427.24759
60.118107 -150.29514 -427.82654
60.11565 -180.34682 -427.97507
60.112942 -210.39516 -428.13852
60.113434 -240.45372 -428.10867
60.117615 -270.52911 -427.85626
60.122784 -300.6138 -427.54446
60.131393 -330.72244 -427.02487
60.140007 -360.83994 -426.50479
60.148624 -390.96588 -425.98477
60.091061 -420.63721 -429.45917
59.956684 -449.67499 -437.56958
59.809513 -478.47598 -446.45215
59.652645 -507.04736 -455.9198
59.490814 -535.4173 -465.68701
59.311901 -563.46295 -476.48563
59.130013 -591.29993 -487.46375
58.945923 -618.93213 -498.57425
58.762508 -646.38751 -509.64429
58.580231 -673.67255 -520.64575
58.399311 -700.79169 -531.56506
58.21928 -727.74084 -542.43115
58.040352 -754.52441 -553.23047
57.862518 -781.14386 -563.9635
57.686001 -807.60388 -574.61731
57.510334 -833.89966 -585.21991
57.335732 -860.03583 -595.75806
57.162182 -886.01379 -606.23242
56.989685 -911.83478 -616.6438
56.818443 -937.50427 -626.979
56.64801 -963.01605 -637.26562
56.478596 -988.37537 -647.4906
56.310188 -1013.5833 -657.65466
56.143005 -1038.6455 -667.74524
55.976593 -1063.5552 -677.78937
55.811165 -1088.3176 -687.77356
55.646713 -1112.9342 -697.69916
55.483437 -1137.4104 -707.55389
55.320904 -1161.739 -717.36334
55.159325 -1185.9254 -727.11566
54.99889 -1209.9756 -736.79858
54.839184 -1233.8816 -746.43793
54.680401 -1257.649 -756.0213
54.595673 -1282.9983 -761.13507
54.746212 -1313.9089 -752.04926
98.785027 889.06549 -81.472984
98.561043 854.19586 -90.485184
98.539894 821.16577 -91.336349
98.590584 788.72498 -89.296738
98.986908 758.89972 -73.349991
103.44589 758.60333 106.06574
100.63765 436.09659 -6.929234
100.60457 402.41846 -8.2601385
100.57106 368.76074 -9.6088114
94.113121 313.71054 -269.45621
92.990128 278.97046 -314.64172
92.202713 245.87413 -346.32483
91.530296 213.57082 -373.38098
91.117813 182.2357 -389.97797
90.709038 151.18182 -406.42599
90.523857 120.69862 -413.87683
90.352768 90.352882 -420.76089
90.312775 60.208675 -422.36984
90.290581 30.097118 -423.26306
90.268021 0.00015782786 -424.17065
90.245476 -30.081556 -425.07803
90.226257 -60.150631 -425.85095
90.210014 -90.209923 -426.50491
90.193771 -120.25822 -427.15829
90.177902 -150.29639 -427.79697
90.173843 -180.34758 -427.96033
90.170151 -210.39687 -428.10883
90.170151 -240.45372 -428.10867
90.176056 -270.52805 -427.87119
90.183807 -300.61261 -427.5593
90.196724 -330.72113 -427.03958
90.209641 -360.83847 -426.51981
90.222206 -390.96283 -426.01434
90.135849 -420.63397 -429.48865
89.934296 -449.6712 -437.59909
89.713898 -478.47394 -446.4668
89.4786 -507.04535 -455.93448
89.235863 -535.41516 -465.70163
88.967491 -563.46069 -476.50015
88.694656 -591.29761 -487.47791
88.418884 -618.93213 -498.57425
88.143761 -646.38751 -509.64429
87.870346 -673.67255 -520.64575
87.598976 -700.79169 -531.56506
87.328926 -727.74084 -542.43115
87.060524 -754.52441 -553.23047
86.793785 -781.14386 -563.9635
86.529007 -807.60388 -574.61731
86.265503 -833.89966 -585.21991
86.003593 -860.03583 -595.75806
85.743279 -886.01379 -606.23242
85.484528 -911.83478 -616.6438
85.227661 -937.50427 -626.979
84.972015 -963.01605 -637.26562
84.717888 -988.37537 -647.4906
84.465286 -1013.5833 -657.65466
84.214508 -1038.6455 -667.74524
83.96489 -1063.5552 -677.78937
83.716751 -1088.3176 -687.77356
83.47007 -1112.9342 -697.69916
83.225159 -1137.4104 -707.55389
82.981361 -1161.739 -717.36334
82.738983 -1185.9254 -727.11566
82.498032 -1209.9711 -736.81097
82.258774 -1233.8816 -746.43793
82.020599 -1257.649 -756.0213
81.893509 -1282.9983 -761.13507
82.119621 -1313.9138 -752.03711
130.65396 881.91455 -113.4433
130.54369 848.53418 -116.77122
130.50716 815.66974 -117.87363
130.59184 783.55127 -115.31818
131.81795 757.95331 -78.31694
138.70325 762.86786 129.46539
134.1964 402.58936 -6.5408797
134.15106 368.91559 -7.9091043
125.59249 313.98129 -266.18677
124.10098 279.22742 -311.19711
123.01775 246.03563 -343.88623
122.11494 213.70123 -371.1312
121.55675 182.3353 -387.97614
121.01112 151.26405 -404.44189
120.75155 120.75169 -412.27521
120.52322 90.392616 -419.16525
120.47134 60.235752 -420.73096
120.44024 30.110197 -421.66986
120.40965 5.668298e-05 -422.59299
120.37856 -30.094442 -423.53091
120.35884 -60.179253 -424.12613
120.33666 -90.252449 -424.79532
120.31498 -120.31483 -425.44965
120.29282 -150.36583 -426.11847
120.29233 -180.43849 -426.13324
120.28692 -210.50197 -426.29681
120.28987 -240.57959 -426.20764
120.29774 -270.66977 -425.96997
120.31055 -300.77618 -425.5834
120.32779 -330.90118 -425.06317
120.3475 -361.04239 -424.46814
120.36427 -391.18375 -423.96246
120.25787 -420.90244 -427.17316
119.98975 -449.96136 -435.26443
119.68918 -478.75659 -444.3349
119.37314 -507.33582 -453.87222
119.05057 -535.72736 -463.6069
118.69231 -563.78833 -474.41791
118.32526 -591.62628 -485.49481
117.95147 -619.24512 -496.77481
117.57957 -646.68744 -507.99826
117.2128 -673.97345 -519.06622
116.84925 -701.09546 -530.03729
116.48749 -728.04663 -540.95465
116.12841 -754.83453 -551.79071
115.77109 -781.45471 -562.57385
115.41641 -807.91473 -573.27728
115.0639 -834.21307 -583.91516
114.71309 -860.34802 -594.50177
114.36485 -886.32751 -605.0108
114.01829 -912.14624 -615.4693
113.67425 -937.8125 -625.85144
113.33185 -963.32068 -636.18433
112.99194 -988.67944 -646.44196
112.65406 -1013.8865 -656.63837
112.31777 -1038.9392 -666.78687
111.9839 -1063.8469 -676.8623
111.65159 -1088.603 -686.89038
111.32167 -1113.2167 -696.84674
110.99328 -1137.6809 -706.75708
110.66723 -1162.0057 -716.59637
110.34309 -1186.1881 -726.37805
110.02043 -1210.2246 -736.11511
109.70007 -1234.1256 -745.7829
109.38116 -1257.8831 -755.4071
109.20758 -1283.189 -760.6452
109.53119 -1314.3744 -750.87915
162.1581 875.65387 -141.43275
162.02005 842.50421 -144.76546
162.08797 810.44019 -143.12561
162.25049 778.80255 -139.20184
173.93242 800.08942 142.8244
174.34769 767.12994 152.84978
167.7455 402.58936 -6.5408797
167.68883 368.91559 -7.9091043
157.31941 314.63904 -258.24908
155.31908 279.57449 -306.54132
153.91396 246.26236 -340.46402
152.78336 213.8968 -367.75894
152.06923 182.4832 -384.9993
151.38609 151.38625 -401.49207
151.03935 120.83167 -409.86292
150.75359 90.452187 -416.76187
150.68494 60.274006 -418.41922
150.65714 30.131567 -419.09085
150.61821 0.00015248558 -420.03043
150.5793 -30.11577 -420.96936
150.55276 -60.220947 -421.61017
150.54413 -90.326378 -421.81851
150.51698 -120.41337 -422.47403
150.48923 -150.48904 -423.14401
150.4991 -180.59879 -422.90579
150.49232 -210.68913 -423.06964
150.49663 -240.79442 -422.96536
150.51329 -270.92374 -422.56335
150.52625 -301.0524 -422.25055
150.55647 -331.22415 -421.52069
150.58424 -361.40201 -420.85016
150.60771 -391.57999 -420.28378
150.49294 -421.38022 -423.05457
150.15948 -450.47833 -431.10486
149.78535 -479.31308 -440.13715
149.38756 -507.91757 -449.74084
148.98462 -536.3446 -459.46854
148.53879 -564.44714 -470.23193
148.08009 -592.32031 -481.30579
147.61176 -619.96918 -492.61246
147.1458 -647.44135 -503.86182
146.68216 -674.73779 -515.05475
146.22147 -701.86298 -526.177
145.76479 -728.82373 -537.20215
145.31442 -755.63483 -548.07513
144.86739 -782.28381 -558.86719
144.42253 -808.76611 -569.60693
143.98097 -835.08948 -580.2674
143.54153 -861.24902 -590.87616
143.10533 -887.25305 -601.40704
142.67177 -913.09937 -611.87408
142.24028 -938.78577 -622.2912
141.81194 -964.32111 -632.63239
141.38562 -989.69916 -642.92456
140.9624 -1014.9293 -653.14191
140.54118 -1040.0046 -663.31134
140.12299 -1064.9346 -673.40729
139.70729 -1089.7167 -683.4433
139.2935 -1114.3481 -693.4325
138.88271 -1138.8381 -703.35022
138.4738 -1163.1799 -713.22223
138.06781 -1187.3831 -723.02374
137.66368 -1211.4402 -732.78021
137.26242 -1235.3617 -742.46765
136.86349 -1259.144 -752.09839
136.67303 -1284.7264 -756.69666
137.17117 -1316.8431 -744.67047
193.49545 902.97882 -163.44753
193.25198 869.63403 -168.34599
193.18675 837.14276 -169.65784
193.24605 805.19208 -168.46524
193.9433 775.77319 -154.438
209.95467 804.82642 167.68634
210.49811 771.82648 178.61928
189.1795 315.29941 -250.27792
186.61488 279.92245 -301.87384
184.86017 246.48035 -337.17569
183.50795 214.09282 -364.38052
182.63129 182.63139 -382.01782
181.81018 151.50856 -398.53732
181.36656 120.91128 -407.46231
181.02391 90.512024 -414.35535
180.90654 60.302158 -416.71707
180.91618 30.152836 -416.52301
180.86942 0.00015857452 -417.46387
180.82341 -30.137199 -418.38937
180.78485 -60.261463 -419.16528
180.8019 -90.400902 -418.82211
180.76852 -120.51224 -419.49338
180.73592 -150.61308 -420.14963
180.7552 -180.75511 -419.76178
180.75148 -210.87668 -419.83646
180.75148 -241.00188 -419.8363
180.78485 -271.17709 -419.16525
180.79671 -301.32764 -418.92673
180.84418 -331.54758 -417.9715
180.87535 -361.7507 -417.34433
180.91173 -391.97522 -416.61267
180.79745 -421.86057 -418.91159
180.39787 -450.99466 -426.95044
179.95229 -479.87274 -435.91473
179.47163 -508.50281 -445.58493
178.987 -536.96088 -455.33514
178.45511 -565.10773 -466.03595
177.90482 -593.01593 -477.10699
177.34151 -620.69507 -488.44019
176.78102 -648.19702 -499.7157
176.22339 -675.52295 -510.9346
175.66925 -702.67682 -522.08313
175.11928 -729.66345 -533.14758
174.57205 -756.47876 -544.15686
174.02824 -783.12689 -555.09766
173.49055 -809.6225 -565.91528
172.95885 -835.96777 -576.61182
172.43109 -862.15546 -587.22949
171.9059 -888.18024 -597.79614
171.38452 -914.05078 -608.28485
170.86566 -939.76105 -618.72375
170.35059 -965.31982 -629.08649
169.83861 -990.7251 -639.38654
169.32904 -1015.9741 -649.63818
168.82318 -1041.076 -659.81561
168.31969 -1066.0244 -669.94507
167.81981 -1090.8285 -680.00171
167.32227 -1115.4817 -690.01141
166.82831 -1139.9934 -699.94916
166.33725 -1164.3606 -709.82843
165.84843 -1188.5804 -719.66241
165.36313 -1212.6627 -729.42633
164.88002 -1236.6001 -739.14545
164.40587 -1260.4448 -748.68475
164.21294 -1286.3346 -752.56628
164.91457 -1319.3165 -738.4505
224.07544 896.30182 -192.23323
223.92615 863.71533 -194.80754
223.91444 831.68231 -195.00916
224.0276 800.09863 -193.05789
226.55725 776.76807 -149.43558
246.33047 809.37177 191.54132
247.36491 777.43268 209.37968
221.17267 315.96103 -242.28964
217.98779 280.27014 -297.21063
215.83949 246.67378 -334.25662
214.28888 214.28912 -360.996
213.20763 182.74956 -379.64154
212.28349 151.63129 -395.57788
211.70494 120.97437 -405.5545
211.33344 90.571693 -411.96082
211.1564 60.33046 -415.01337
211.17809 30.168465 -414.63971
211.16422 5.0297334e-05 -414.87885
211.1096 -30.158321 -415.82068
211.05762 -60.302132 -416.71719
211.07928 -90.46241 -416.34357
211.07062 -120.61161 -416.49307
211.03163 -150.73688 -417.16516
211.04636 -180.89671 -416.91125
211.06454 -211.06432 -416.59772
211.05762 -241.20859 -416.71716
211.11307 -271.43103 -415.76086
211.12692 -301.60989 -415.52167
211.1911 -331.87164 -414.41525
211.22493 -362.09961 -413.83197
211.27701 -392.37143 -412.93396
211.17029 -422.34045 -414.77429
210.70479 -451.51022 -422.80148
210.1889 -480.43164 -431.69736
209.62427 -509.08746 -441.43423
209.05841 -537.57861 -451.19229
208.44151 -565.76959 -461.83035
207.79884 -593.71088 -472.9126
207.14095 -621.42279 -484.25787
206.4847 -648.95172 -495.57449
205.83344 -676.30969 -506.80511
205.18542 -703.49274 -517.97943
204.54149 -730.50525 -529.08356
203.9024 -757.35168 -540.10431
203.26649 -784.02789 -551.07019
202.63454 -810.53802 -561.96796
202.00728 -836.88715 -572.78467
201.38312 -863.07031 -583.54803
200.76672 -889.10962 -594.17737
200.1572 -915.00415 -604.68829
199.55136 -940.74207 -615.13544
198.94841 -966.32074 -625.53302
198.34987 -991.74927 -635.85449
197.75414 -1017.0212 -646.12732
197.16273 -1042.146 -656.32544
196.57413 -1067.1166 -666.47614
195.98976 -1091.9427 -676.5531
195.40886 -1116.6219 -686.57037
194.83066 -1141.1508 -696.54126
194.25658 -1165.5393 -706.4408
193.68515 -1189.7802 -716.29449
193.11781 -1213.8833 -726.07788
192.55307 -1237.8411 -735.81665
192.01239 -1261.7957 -745.14014
191.83907 -1288.0621 -748.12939
192.82816 -1322.2501 -731.07281
254.82042 923.72406 -211.33241
254.30658 890.07318 -219.08549
254.25926 858.12524 -219.7993
254.28897 826.43921 -219.35127
254.91545 796.6109 -209.89839
283.13449 849.4035 215.89423
283.24503 814.32965 217.56201
253.2709 316.58875 -234.71236
249.4006 280.57584 -293.11111
246.8685 246.86864 -331.31741
245.12631 214.48557 -357.6051
243.81548 182.86174 -377.38412
242.80615 151.75403 -392.61362
242.07407 121.03722 -403.65979
241.68385 90.631538 -409.548
241.43564 60.358978 -413.29324
241.45944 30.182581 -412.93399
241.48325 0.00012150317 -412.57483
241.4386 -30.179634 -413.24838
241.37711 -60.344242 -414.1759
241.39595 -90.523361 -413.89169
241.42075 -120.71015 -413.51776
241.37711 -150.86058 -414.17581
241.38605 -181.03934 -414.04138
241.43166 -211.25262 -413.35315
241.42075 -241.42068 -413.51761
241.48523 -271.67081 -412.54474
241.515 -301.89349 -412.09561
241.58847 -332.18402 -410.98694
241.63316 -362.44968 -410.31256
241.70471 -392.76996 -409.23303
241.60535 -422.8092 -410.7323
241.08107 -452.02679 -418.64313
240.49704 -480.99399 -427.45544
239.85219 -509.6857 -437.18561
239.1991 -538.19788 -447.03967
238.49921 -566.43549 -457.60022
237.76302 -594.40753 -468.70853
237.01031 -622.15186 -480.06607
236.25856 -649.71088 -491.40903
235.51251 -677.09833 -502.66602
234.77022 -704.31067 -513.86621
234.03261 -731.35181 -524.99622
233.30052 -758.2265 -536.04254
232.57208 -784.93054 -547.03381
231.84818 -811.46857 -557.95654
231.12967 -837.84503 -568.79791
230.41472 -864.05511 -579.58575
229.70416 -890.10345 -590.30731
228.99887 -915.99548 -600.94928
228.297 -941.72504 -611.53973
227.60559 -967.32373 -621.97198
226.92012 -992.77545 -632.31519
