# .PCD v0.7 - Point Cloud Data file format
VERSION 0.7
FIELDS x y z
SIZE 4 4 4
TYPE F F F
COUNT 1 1 1
WIDTH 1507
HEIGHT 1
VIEWPOINT 0 0 0 1 0 0 0
POINTS 1507
DATA ascii
-15.344581 18.247612 2.1874588
-15.322289 17.806984 2.1147275
-15.31372 17.383144 2.0867748
-15.024945 18.363825 2.5062788
-14.944288 17.850124 2.2358265
-14.892138 17.374163 2.0609636
-14.86491 16.929482 1.9696661
-14.832021 16.480024 1.8593841
-14.792233 16.02492 1.7259754
-14.75266 15.572253 1.5932838
-14.733739 15.143011 1.5298404
-14.726007 14.726007 1.5039147
-14.40257 15.63708 1.7992034
-14.360302 15.180894 1.6534264
-14.3262 14.73552 1.5358105
-14.287953 14.287954 1.4039042
-14.249976 13.842834 1.2729243
-14.2122 13.400078 1.1426405
-14.174623 12.959658 1.013046
-14.158739 12.540598 0.95825851
-14.153474 12.13155 0.94010103
-13.826791 13.013451 1.2159693
-13.790243 12.573458 1.086213
-13.753761 12.135674 0.95669025
-13.717535 11.700253 0.82807541
-13.681499 11.267117 0.70013648
-13.645653 10.836253 0.57286584
-13.609992 10.407642 0.4462629
-13.596891 9.997716 0.39975253
-13.593866 9.5956717 0.38901398
-13.263104 10.44972 0.64162207
-13.228757 10.021786 0.51597893
-13.194587 9.5960636 0.39098793
-13.160295 9.172327 0.26555035
-13.126121 8.7507477 0.14054514
-13.092124 8.3313522 0.016187381
-13.058244 7.9140892 -0.10774069
-13.049098 7.5131178 -0.14119412
-13.046756 7.1164122 -0.14976579
-12.710565 7.9441051 0.07341893
-12.679914 7.5287008 -0.042197924
-12.647538 7.1142416 -0.16432618
-12.615328 6.7018938 -0.28583303
-12.583281 6.2916412 -0.40672463
-12.551172 5.8833632 -0.52784359
-12.519059 5.4770889 -0.64897579
-12.513947 5.0837927 -0.66826826
-12.511724 4.6918988 -0.67665017
-12.220771 5.9132771 -0.28711376
-12.165177 5.4939532 -0.50358558
-12.124607 5.0845137 -0.6615575
-12.096782 4.6826262 -0.76990789
-12.069405 4.282692 -0.87651438
-12.04215 3.8845661 -0.98264235
-12.014859 3.4881878 -1.088907
-12.002131 3.0973258 -1.1384701
-11.674547 3.5023642 -0.89873254
-11.618337 3.0982244 -1.1249044
-11.569246 2.6994917 -1.3224294
-11.560794 2.3121593 -1.3564408
-11.137473 2.304306 -1.5144496
-11.134706 1.9197793 -1.5259688
-10.784318 2.3109274 -1.3812599
-10.701441 1.9109714 -1.738548
-10.291158 1.9057703 -1.8641282
-10.338672 1.5316554 -1.6516999
-10.312937 1.1458836 -1.7667596
-10.422818 0.77206236 -1.2755029
-10.50505 0.38907596 -0.90786302
-10.565303 7.9683707e-07 -0.63848466
-10.614442 -0.3931261 -0.41880193
-10.652861 -0.78909987 -0.24703559
-10.687186 -1.187463 -0.09357471
-10.715985 -1.5875518 0.035179414
-10.7413 -1.9891292 0.14835168
-10.763176 -2.3918159 0.24615878
-10.784311 -2.7959313 0.3406451
-10.807837 -3.2023206 0.44582599
-10.831219 -3.6104069 0.55036193
-10.873911 -4.0273733 0.74122655
-9.8843813 1.9008436 -1.9830828
-9.7069426 1.4933761 -2.806885
-9.8690033 1.1387322 -2.0544796
-9.999404 0.76918471 -1.4490634
-10.091633 0.38814133 -1.0208691
-10.157569 1.9287168e-06 -0.71475065
-10.209694 -0.39267972 -0.47275102
-10.253212 -0.78870714 -0.27070835
-10.2903 -1.1873401 -0.09851189
-10.32305 -1.5881606 0.05353675
-10.351796 -1.9907291 0.18699265
-10.37802 -2.394927 0.30874473
-10.401968 -2.8005292 0.41992676
-10.42446 -3.2075253 0.52435088
-10.446286 -3.6160219 0.6256851
-10.46744 -4.0259356 0.72389191
-10.487862 -4.4371705 0.81870735
-10.508075 -4.8498793 0.91254938
-10.527107 -5.2635527 1.0009109
-10.545868 -5.6785421 1.0880151
-10.564843 -6.0950999 1.1761079
-10.584474 -6.5135202 1.2672465
-10.603341 -6.9329524 1.3548461
-10.624496 -7.3554192 1.4530568
-10.648011 -7.7812371 1.5622326
-10.67178 -8.2090588 1.6725817
-10.695704 -8.6388378 1.7836611
-10.724757 -9.0747948 1.918546
-10.762054 -9.520277 2.091706
-9.0747948 1.8149602 -4.0564952
-9.2411919 1.4785917 -3.2530634
-9.4386616 1.1326407 -2.2995925
-9.5755091 0.76604062 -1.6388359
-9.676034 0.38704264 -1.1534606
-9.7453661 1.237926e-07 -0.8186903
-9.8083544 -0.39233446 -0.51455623
-9.8658819 -0.78926861 -0.23679398
-9.9124708 -1.1894959 -0.01183738
-9.9480743 -1.5916896 0.16006769
-9.979002 -1.9957998 0.30939943
-10.013354 -2.403204 0.47526917
-10.034116 -2.8095503 0.57551676
-10.05965 -3.2190869 0.69880497
-10.079728 -3.6287005 0.79575002
-10.099377 -4.0397501 0.89062184
-10.117986 -4.451911 0.98047328
-10.137084 -4.8657999 1.0726892
-10.159066 -5.2827125 1.1788259
-10.179308 -5.7004113 1.2765598
-10.200575 -6.1203442 1.3792491
-10.222738 -6.5425515 1.4862651
-10.244236 -6.9660802 1.5900624
-10.265249 -7.3909764 1.6915226
-10.286108 -7.8174419 1.7922438
-10.307198 -8.2457571 1.8940732
-10.33099 -8.678031 2.0089524
-10.354845 -9.1122627 2.1241312
-10.378613 -9.5483236 2.2388988
-10.401755 -9.9856834 2.3506351
-10.422681 -10.422679 2.4516685
-10.447407 -10.865301 2.571058
-10.473146 -11.310998 2.6953452
-10.499915 -11.759904 2.8245928
-10.526066 -12.210235 2.9508607
-8.5097914 1.7728738 -5.0725336
-8.7607985 1.4601352 -3.8100677
-8.9886389 1.1235801 -2.6641154
-9.1693211 0.76411223 -1.7553601
-9.3446331 0.38936058 -0.87360781
-9.4420128 8.5189015e-07 -0.38382435
-9.5077963 -0.39615718 -0.052955963
-9.5679178 -0.79732621 0.24942583
-9.6115522 -1.2014427 0.46889269
-9.6510468 -1.6085068 0.66753769
-9.6779118 -2.0162303 0.80265653
-9.7049713 -2.4262416 0.93875444
-9.7273006 -2.8371289 1.0510662
-9.7477112 -3.2492363 1.1537164
-9.7674389 -3.6627886 1.2529429
-9.7861137 -4.0775476 1.3468723
-9.8036785 -4.493351 1.4352139
-9.8213062 -4.9106517 1.5238734
-9.8389978 -5.3294554 1.6128522
-9.8569822 -5.7499056 1.703313
-9.875679 -6.1722975 1.7973472
-9.8927336 -6.5951543 1.8831235
-9.911705 -7.0207891 1.9785457
-9.9314499 -7.4485869 2.0778573
-9.9530544 -7.8795009 2.186517
-9.9737644 -8.31147 2.2906795
-9.9935694 -8.7443705 2.3902869
-10.0172 -9.1824322 2.5091426
-10.038226 -9.6199665 2.6148963
-10.062213 -10.062212 2.7355437
-10.089011 -10.509386 2.8703251
-10.117018 -10.960101 3.0111856
-10.141043 -11.408671 3.1320224
-10.168947 -11.86377 3.2723756
-10.197843 -12.322392 3.4177053
-7.9847236 1.7358118 -5.9673371
-8.2627926 1.4370093 -4.5079494
-8.5282393 1.1123793 -3.1148062
-8.8915968 0.77318299 -1.2078018
-9.0504141 0.39349768 -0.37427869
-9.1459885 9.3258876e-07 0.12732118
-9.2140036 -0.4006083 0.4842872
-9.2620287 -0.80539346 0.73633677
-9.3033733 -1.2134825 0.95332623
-9.3381548 -1.6240246 1.1358615
-9.3645296 -2.0357654 1.2742873
-9.3905754 -2.4497149 1.4109844
-9.4081078 -2.8633361 1.5029972
-9.4266701 -3.2788403 1.6004176
-9.4445572 -3.6956942 1.6942955
-9.4601707 -4.1131153 1.776238
-9.4760132 -4.5320034 1.8593829
-9.4931536 -4.9529476 1.9493431
-9.5104008 -5.3754439 2.0398672
-9.5278015 -5.7995296 2.1311848
-9.5443659 -6.2245855 2.2181196
-9.5609875 -6.6511207 2.3053572
-9.5784378 -7.0797124 2.3969402
-9.5986795 -7.5120106 2.5031772
-9.6182766 -7.9455314 2.6060252
-9.6379538 -8.3808289 2.7092979
-9.6575727 -8.8177834 2.8122666
-9.6790304 -9.2582026 2.9248786
-9.702301 -9.702302 3.047013
-9.7256842 -10.14854 3.1697354
-9.7498846 -10.597699 3.2967446
-9.7770367 -11.0523 3.439244
-9.8044825 -11.509608 3.5832851
-9.8320818 -11.96949 3.7281387
-9.8495302 -12.418973 3.8197134
-7.4863043 1.7014343 -6.7972603
-7.7634196 1.4115317 -5.2767706
-8.2485657 1.1248058 -2.6148477
-8.6162682 0.78329778 -0.59731853
-8.7531986 0.39787272 0.1539928
-8.8429985 2.0226569e-06 0.64671296
-8.904891 -0.40476719 0.98631293
-8.9461269 -0.81328297 1.2125676
-8.9850798 -1.2252386 1.4262971
-9.0138788 -1.6388862 1.5843074
-9.0386868 -2.0542469 1.7204251
-9.0626135 -2.4716194 1.8517075
-9.0801954 -2.8891513 1.9481769
-9.0975466 -3.3081973 2.0433819
-9.1136341 -3.7283044 2.1316566
-9.1290064 -4.1495476 2.2159972
-9.1444292 -4.5722136 2.3006213
-9.1584768 -4.9955311 2.3776948
-9.1725664 -5.4201512 2.4550054
-9.1884432 -5.8471899 2.5421138
-9.2048111 -6.2760057 2.6319246
-9.2211933 -6.7063227 2.7218153
-9.2377234 -7.1382389 2.8125079
-9.2564335 -7.5734439 2.9151719
-9.2756195 -8.0107603 3.020443
-9.2948856 -8.4498959 3.1261532
-9.314187 -8.8908148 3.2320571
-9.3364916 -9.3364906 3.3544385
-9.3591299 -9.784544 3.4786499
-9.3818779 -10.234775 3.6034656
-9.4047375 -10.6872 3.7288866
-9.4311028 -11.145847 3.8735564
-9.457756 -11.607244 4.0197954
-9.4845133 -12.071198 4.1666112
-7.7934117 2.2266903 -3.075958
-7.0043774 1.6677099 -7.6114259
-7.262917 1.3834134 -6.1253071
-8.0656996 1.1522446 -1.51081
-8.3202581 0.79240751 -0.047578115
-8.4479446 0.40228364 0.68638045
-8.5271626 3.5246072e-07 1.1417391
-8.5855455 -0.40883368 1.477326
-8.6209202 -0.82103962 1.680666
-8.6563854 -1.2366266 1.8845228
-8.6810055 -1.6535245 2.0260444
-8.7038002 -2.0723321 2.1570702
-8.7241621 -2.4926167 2.2741153
-8.741025 -2.9136736 2.3710437
-8.7582016 -3.3364577 2.4697819
-8.771451 -3.7591934 2.5459399
-8.7846575 -4.1831703 2.6218503
-8.7978621 -4.6084027 2.6977489
-8.8111477 -5.0349393 2.7741151
-8.8249369 -5.4630551 2.8533778
-8.8392334 -5.8928213 2.9355588
-8.8538733 -6.3241949 3.0197124
-8.8697948 -6.7579374 3.1112339
-8.886116 -7.193522 3.2050495
-8.9036541 -7.6317029 3.3058608
-8.9213486 -8.0716944 3.4075649
-8.9400196 -8.5143032 3.5148892
-8.9589853 -8.9589853 3.6239116
-8.9815216 -9.4092112 3.7534444
-9.0041256 -9.861661 3.8833809
-9.0262718 -10.315739 4.0106797
-9.048439 -10.771948 4.1380963
-9.075922 -11.236856 4.2960773
-9.1037083 -11.704765 4.45579
-9.1309423 -12.174589 4.6123395
-7.3170714 2.1951227 -3.7110496
-6.5573282 1.6393321 -8.2965059
-6.7749496 1.3549902 -6.9830456
-7.8115745 1.1717376 -0.72646075
-8.0162973 0.80162966 0.5091542
-8.1287909 0.40644038 1.1881061
-8.2002707 5.9705127e-07 1.6195337
-8.2492723 -0.41246292 1.9152814
-8.2836037 -0.82836014 2.1224854
-8.317317 -1.2475958 2.3259699
-8.3393679 -1.6678712 2.4590545
-8.361496 -2.0903716 2.5926068
-8.3801918 -2.5140557 2.7054462
-8.3954077 -2.9383907 2.7972894
-8.4106808 -3.36427 2.8894653
-8.4226646 -3.7901969 2.9617953
-8.4345217 -4.2172585 3.0333571
-8.4463711 -4.6455021 3.104877
-8.4582949 -5.074976 3.1768436
-8.4717999 -5.5066681 3.2583542
-8.4855938 -5.9399147 3.341608
-8.4994726 -6.3746033 3.4253781
-8.5133581 -6.8106837 3.5091758
-8.5289803 -7.2496319 3.6034656
-8.5459442 -7.6913495 3.705857
-8.5629778 -8.1348267 3.8086569
-8.5800772 -8.5800753 3.9118671
-8.5987988 -9.028738 4.0248637
-8.6205969 -9.4826546 4.1564236
-8.6425056 -9.938879 4.2886529
-8.6644831 -10.39738 4.4213004
-8.6876011 -10.859501 4.5608306
-8.7128239 -11.326671 4.7130656
-8.7381945 -11.796563 4.8661895
-8.7645855 -12.270419 5.0254722
-6.8263698 2.1556976 -4.5042362
-6.132802 1.6138952 -8.9106016
-6.3110523 1.3286446 -7.7781439
-7.5261259 1.1883377 -0.058548059
-7.6983356 0.8103525 1.0355349
-7.7996259 0.41050768 1.6790488
-7.8633218 1.326268e-06 2.0837233
-7.9038773 -0.41599154 2.3413811
-7.9364138 -0.83541107 2.5480912
-7.9663363 -1.2578429 2.7381933
-7.9857235 -1.6812035 2.8613651
-8.0059338 -2.1068249 2.9897652
-8.0220909 -2.5332906 3.0924129
-8.0354576 -2.9604304 3.1773317
-8.049758 -3.3893714 3.268193
-8.0613146 -3.8185167 3.3416066
-8.0726299 -4.2487531 3.413502
-8.0838213 -4.6801066 3.4846046
-8.095006 -5.1126347 3.5556567
-8.1070843 -5.5469503 3.6323929
-8.1199474 -5.9831185 3.7141163
-8.1334047 -6.4211097 3.7996154
-8.1469078 -6.8605537 3.885397
-8.1615286 -7.3024201 3.9782915
-8.1772814 -7.7468977 4.078373
-8.193697 -8.193696 4.1826639
-8.2102194 -8.6423349 4.2876287
-8.228548 -9.0947104 4.4040723
-8.2490301 -9.5515089 4.5342059
-8.2699842 -10.011032 4.6673274
-8.2910032 -10.472846 4.8008657
-8.3139877 -10.939457 4.9468923
-8.3393021 -11.411675 5.1077166
-8.3638096 -11.885411 5.2634168
-8.3924999 -12.367893 5.4456935
-6.3529577 2.1176546 -5.2696028
-5.7239966 1.5899997 -9.4875078
-5.8677607 1.3039478 -8.523406
-7.227396 1.2045677 0.5945096
-7.3742027 0.81935835 1.5790168
-7.4633851 0.41463396 2.1770878
-7.5181017 1.3954093e-06 2.5440273
-7.5514765 -0.41952598 2.7678459
-7.5825734 -0.84250766 2.9763861
-7.6070228 -1.2678345 3.1403437
-7.6247301 -1.6943817 3.2590909
-7.6431828 -2.1231065 3.3828418
-7.6572847 -2.5524275 3.477411
-7.6700659 -2.9828019 3.5631194
-7.6825171 -3.4144509 3.6466191
-7.6930671 -3.8465326 3.7173693
-7.7036834 -4.2798233 3.7885673
-7.7144423 -4.7143798 3.8607142
-7.725193 -5.150126 3.9328098
-7.7369552 -5.5878 4.011693
-7.7488298 -6.0268664 4.0913239
-7.7607784 -6.4673138 4.1714501
-7.7737546 -6.9100027 4.2584724
-7.7881517 -7.3554759 4.3550215
-7.8030243 -7.8030224 4.4547606
-7.8179927 -8.2523251 4.5551419
-7.8337154 -8.7041264 4.6605768
-7.852067 -9.1607437 4.7836466
-7.8717165 -9.620985 4.9154177
-7.8914642 -10.083537 5.047853
-7.9115486 -10.548731 5.1825399
-7.9345536 -11.020213 5.3368168
-7.9588518 -11.496119 5.4997625
-7.9833393 -11.975008 5.6639776
-5.8966155 2.0811605 -6.003809
-5.3305912 1.5678222 -10.022937
-5.4476748 1.2818073 -9.1915693
-6.9036098 1.2182842 1.1464844
-7.0377202 0.82796812 2.0987515
-7.1129436 0.41841051 2.6328835
-7.1607027 2.3178468e-06 2.9720066
-7.1931424 -0.42312521 3.2023473
-7.2201977 -0.84943384 3.3944581
-7.2404127 -1.2777197 3.5379999
-7.2566247 -1.7074397 3.6531122
-7.272697 -2.1390281 3.7672389
-7.284905 -2.5711417 3.8539188
-7.2969756 -3.0046351 3.9396267
-7.3085513 -3.4393177 4.0218239
-7.3186607 -3.8745847 4.0936079
-7.3287988 -4.3110566 4.1655922
-7.3389645 -4.7487388 4.2377744
-7.3486538 -5.187283 4.3065739
-7.3599596 -5.6282043 4.3868556
-7.3713732 -6.0705423 4.4679008
-7.3827858 -6.5142231 4.5489373
-7.3942342 -6.9592781 4.6302257
-7.4079161 -7.4079161 4.7273765
-7.4220905 -7.8586822 4.8280206
-7.4362822 -8.3111362 4.9287896
-7.4505649 -8.7653694 5.0302081
-7.4685521 -9.2258577 5.1579285
-7.4871502 -9.6892529 5.289989
-7.5058036 -10.154908 5.4224372
-7.5245881 -10.622947 5.5558186
-7.5476875 -11.09954 5.719841
-7.5706611 -11.578656 5.8829689
-7.5936217 -12.060458 6.046001
-5.4556293 2.045862 -6.7139339
-4.9550557 1.5484551 -10.490475
-5.0507059 1.262678 -9.7688513
-5.2579389 0.98586512 -8.2053967
-6.6821551 0.83527058 2.5394845
-6.7482634 0.42176625 3.0382347
-6.7927613 5.9770014e-07 3.3739462
-6.8248692 -0.42655337 3.6161785
-6.8468537 -0.85585463 3.7820404
-6.8640623 -1.2870116 3.9118676
-6.8786364 -1.7196587 4.0218229
-6.8934755 -2.1542106 4.1337714
-6.9042153 -2.5890791 4.214797
-6.9148865 -3.0252619 4.2953086
-6.9255228 -3.4627607 4.3755565
-6.9345202 -3.900667 4.4434314
-6.9433351 -4.3395839 4.5099344
-6.9521723 -4.7796192 4.5766091
-6.961307 -5.2209806 4.6455269
-6.9720182 -5.6647649 4.726336
-6.9827967 -6.1099463 4.8076525
-6.9936781 -6.556572 4.8897467
-7.0046983 -7.0046978 4.9728851
-7.0176044 -7.4562025 5.0702529
-7.0306282 -7.9094567 5.1685119
-7.0441933 -8.3649788 5.2708521
-7.0579171 -8.8223963 5.3743925
-7.0757427 -9.286912 5.508873
-7.093658 -9.7537785 5.6440358
-7.1115208 -10.222809 5.7787981
-7.1297622 -10.694641 5.9164209
-7.1522698 -11.175422 6.0862284
-7.1749201 -11.659245 6.2571101
-7.1973462 -12.14552 6.4263005
-5.0291233 2.0116506 -7.4022241
-4.598475 1.5328264 -10.867813
-4.6753001 1.2467474 -10.249573
-4.839345 0.96786952 -8.9294405
-6.3169985 0.84226811 2.9617972
-6.3755279 0.42503595 3.4328048
-6.4149981 2.3341067e-06 3.7504361
-6.4445066 -0.42963263 3.9879005
-6.4666185 -0.86221468 4.1658459
-6.4811478 -1.2962276 4.2827673
-6.4939861 -1.7317276 4.3860841
-6.5066514 -2.1688826 4.4880047
-6.5159259 -2.6063688 4.5626397
-6.5256777 -3.0453157 4.641118
-6.5349412 -3.485301 4.7156687
-6.5432916 -3.9259732 4.7828636
-6.5516315 -4.3677521 4.8499746
-6.5600243 -4.8106823 4.9175148
-6.5688634 -5.2550898 4.9886489
-6.5790691 -5.7018576 5.0707793
-6.5892744 -6.1499887 5.1529021
-6.5995107 -6.5995092 5.2352805
-6.6102428 -7.0509238 5.3216391
-6.6225023 -7.5055017 5.420301
-6.6348076 -7.9617677 5.5193262
-6.6471591 -8.419733 5.6187229
-6.6606984 -8.880929 5.7276759
-6.6776319 -9.3486843 5.8639498
-6.6946521 -9.8188229 6.0009189
-6.7117591 -10.291364 6.1385875
-6.7296395 -10.767423 6.282474
-6.7500634 -11.250103 6.4468312
-6.7705765 -11.735664 6.6119094
-6.7925415 -12.226574 6.7886715
-4.6166468 1.9785641 -8.0678711
-4.2587948 1.520999 -11.153341
-4.3205428 1.2344416 -10.620935
-4.4587908 0.95545632 -9.4289331
-5.9473648 0.84962553 3.4058321
-5.9975533 0.42839849 3.8385687
-6.031702 1.6516947e-06 4.133008
-6.0563502 -0.43259603 4.3455291
-6.0751185 -0.86787307 4.5073557
-6.0886178 -1.3047026 4.623744
-6.1011496 -1.7431842 4.7317986
-6.1124616 -2.1830211 4.8293266
-6.1213217 -2.6234224 4.905725
-6.1300554 -3.0650258 4.9810262
-6.1382947 -3.5075948 5.0520663
-6.1461577 -3.9510994 5.119864
-6.1540098 -4.3957205 5.1875715
-6.1612673 -4.8409944 5.2501426
-6.1690655 -5.2877698 5.3173842
-6.1783695 -5.7370567 5.3976026
-6.1878881 -6.1878877 5.4796729
-6.1974049 -6.6400747 5.561727
-6.2075758 -7.0943704 5.6494212
-6.2190347 -7.5516834 5.7482219
-6.2305355 -8.0106869 5.8473849
-6.2420478 -8.4713488 5.9466467
-6.2549667 -8.9356661 6.0580354
-6.2704887 -9.4057322 6.1918697
-6.2862163 -9.8783379 6.3274784
-6.3020229 -10.353324 6.4637685
-6.3194962 -10.833421 6.6144218
-6.3393145 -11.320204 6.7852979
-6.3592572 -11.810048 6.9572525
-6.3788309 -12.302031 7.1260204
-4.2114224 1.9437344 -8.7685814
-3.9280584 1.5107913 -11.399744
-3.9791818 1.2243636 -10.925042
-4.0968709 0.94543368 -9.8322506
-5.5649343 0.8561433 3.7993639
-5.6092076 0.4314777 4.2104602
-5.6389871 7.2731194e-07 4.4869752
-5.661068 -0.43546447 4.6920047
-5.6779399 -0.87352902 4.8486671
-5.6892529 -1.3129029 4.9537153
-5.700469 -1.7539899 5.0578637
-5.7109895 -2.1965327 5.1555486
-5.7193761 -2.6397114 5.2334232
-5.7276444 -3.0841155 5.3101988
-5.7349887 -3.529223 5.3783917
-5.741632 -3.9749746 5.4400764
-5.7482905 -4.4217606 5.5019031
-5.7549644 -4.8695836 5.5638752
-5.7624369 -5.319171 5.6332598
-5.7710047 -5.7710032 5.7128153
-5.7795982 -6.2241797 5.7926097
-5.788568 -6.6791162 5.8759046
-5.7983298 -7.136405 5.9665408
-5.8090963 -7.5965095 6.066515
-5.8199329 -8.0583668 6.1671376
-5.8307505 -8.5218649 6.2675824
-5.8433375 -8.989748 6.3844576
-5.8579264 -9.4628019 6.5199213
-5.8725576 -9.9381733 6.6557832
-5.8873234 -10.416033 6.7928872
-5.904294 -10.900234 6.9504662
-5.9226489 -11.389709 7.1208992
-5.9410872 -11.882174 7.2921095
-3.3094769 13.789488 -14.582716
-3.3147495 13.535229 -14.529678
-3.320039 13.280155 -14.47647
-3.325335 13.024228 -14.423198
-3.3306582 12.767524 -14.369648
-3.3359985 12.509996 -14.315928
-3.3413563 12.251641 -14.262035
-3.3467205 11.992415 -14.208075
-3.3521125 11.732396 -14.153834
-3.3575222 11.471536 -14.09942
-3.3629489 11.209831 -14.044828
-3.3685868 10.947907 -13.988116
-3.3749547 10.687358 -13.924059
-3.3813467 10.42582 -13.859762
-3.387763 10.16329 -13.795219
-3.3939748 9.8990936 -13.732735
-3.4000998 9.6336184 -13.671119
-3.4062471 9.3671799 -13.609282
-3.4124279 9.0998096 -13.54711
-3.4186199 8.8314342 -13.484822
-3.4248345 8.562088 -13.422309
-3.4310718 8.2917557 -13.359567
-3.4373426 8.0204678 -13.296484
-3.4436255 7.7481589 -13.233284
-3.4499314 7.4748521 -13.169852
-3.4562719 7.2005668 -13.106073
-3.4626241 6.9252501 -13.042174
-3.4689999 6.6489172 -12.978038
-3.475399 6.3715672 -12.913668
-3.4818335 6.0932093 -12.848943
-3.4888558 5.8147612 -12.778302
-3.4959528 5.5352602 -12.70691
-3.6564949 1.8282493 -11.091983
-3.6052084 1.5021703 -11.607887
-3.6526408 1.2175486 -11.130753
-3.7486372 0.93716049 -10.165103
-5.1744599 0.86241192 4.1775646
-5.2120724 0.43434015 4.5559177
-5.237721 9.3776708e-07 4.8139191
-5.2579145 -0.43815771 5.0170488
-5.2741284 -0.87902015 5.1801567
-5.2837257 -1.3209292 5.2766976
-5.2932787 -1.764424 5.3727903
-5.3021479 -2.2092276 5.4620094
-5.3093662 -2.6546822 5.534615
-5.3168178 -3.1014767 5.6095753
-5.3238344 -3.5492215 5.6801567
-5.330493 -3.9978678 5.747139
-5.3371959 -4.4476614 5.8145623
-5.3438611 -4.8985372 5.8816099
-5.3509498 -5.3509483 5.9529128
-5.358953 -5.8055315 6.0334229
-5.366981 -6.2614765 6.1141763
-5.3750052 -6.7187543 6.1948953
-5.3840408 -7.1787205 6.2857857
-5.3938222 -7.6412477 6.3841834
-5.4036674 -8.1055002 6.4832144
-5.4135203 -8.5714064 6.5823302
-5.4252472 -9.042079 6.7002892
-5.4383955 -9.5171909 6.8325496
-5.4516072 -9.9946117 6.9654527
-5.4650536 -10.474684 7.100709
-5.4814639 -10.962928 7.2657881
-5.4986315 -11.455482 7.4384799
-5.5157051 -11.950693 7.6102257
-3.0271277 13.759672 -14.654696
-3.0317314 13.504987 -14.604177
-3.0363493 13.249526 -14.553505
-3.0409808 12.993283 -14.502676
-3.0456269 12.736258 -14.451694
-3.0502868 12.478448 -14.400556
-3.0549612 12.219847 -14.349259
-3.0594859 11.959809 -14.299607
-3.064024 11.699001 -14.249811
-3.0687501 11.438071 -14.197946
-3.0734911 11.176333 -14.145919
-3.0782566 10.91382 -14.093625
-3.0830269 10.650457 -14.041276
-3.0878124 10.386278 -13.988763
-3.0926125 10.121279 -13.936089
-3.0974371 9.855484 -13.883142
-3.1022675 9.588829 -13.830138
-3.1071126 9.3213377 -13.776968
-3.1119728 9.0530128 -13.723631
-3.1168485 8.7838478 -13.67013
-3.1217494 8.5138626 -13.616348
-3.1266556 8.2430019 -13.562507
-3.1315775 7.9712892 -13.508497
-3.1364944 7.698669 -13.454542
-3.1414371 7.4252152 -13.400303
-3.1463952 7.1508989 -13.345893
-3.1513586 6.8756924 -13.291425
-3.1563482 6.5996385 -13.23667
-3.1613436 6.3226876 -13.181855
-3.1663647 6.0448794 -13.126753
-3.171433 5.766242 -13.071135
-3.1766219 5.4868941 -13.014194
-3.181838 5.2066445 -12.956951
-3.1870608 4.9254589 -12.899638
-3.1923115 4.643363 -12.842019
-3.1975689 4.3603215 -12.784326
-3.2028544 4.0763607 -12.726326
-3.2081466 3.7914467 -12.66825
-3.2134564 3.505589 -12.609983
-3.2187943 3.2187946 -12.551405
-3.2262974 2.9329989 -12.46907
-3.2373798 2.648766 -12.347453
-3.2521155 2.3651757 -12.185751
-3.2720609 2.0822215 -11.966873
-3.3023639 1.80129 -11.634342
-3.2911122 1.4959614 -11.757812
-3.3340702 1.2123896 -11.286404
-3.4102459 0.93006825 -10.450473
-4.7752132 0.86822087 4.5282664
-4.8077483 0.43706873 4.885294
-4.8313875 2.1308367e-06 5.1447048
-4.849112 -0.44082692 5.3392124
-4.86201 -0.88399911 5.4807434
-4.8711524 -1.3284951 5.5810709
-4.8798618 -1.7744945 5.676651
-4.8877401 -2.2216973 5.7630992
-4.8940606 -2.6694868 5.8324628
-4.9006705 -3.1186082 5.904995
-4.9069252 -3.5686727 5.9736323
-4.9130459 -4.019763 6.0408049
-4.9191332 -4.4719372 6.1075964
-4.9251842 -4.9251823 6.1740055
-4.9312758 -5.3795729 6.2408519
-4.938314 -5.8361893 6.3180861
-4.9455485 -6.2943325 6.3974748
-4.9528556 -6.753891 6.4776554
-4.9609199 -7.2158837 6.5661569
-4.969954 -7.6808367 6.6652932
-4.9790726 -8.1475725 6.7653565
-4.9888153 -8.6170435 6.8722687
-4.9993954 -9.0898085 6.9883742
-5.0113425 -9.5671072 7.1194782
-5.0237112 -10.047421 7.2552066
-5.0367174 -10.531318 7.3979349
-5.0525298 -11.023701 7.571456
-5.067832 -11.5178 7.7393775
-5.0840812 -12.016918 7.9176865
-2.774508 13.872541 -14.382209
-2.7784817 13.614562 -14.334241
-2.7824669 13.355843 -14.286139
-2.7864542 13.096335 -14.238003
-2.7904623 12.836128 -14.189623
-2.794482 12.57517 -14.141104
-2.7985041 12.313418 -14.09255
-2.8025465 12.050952 -14.043752
-2.806601 11.787725 -13.994809
-2.8106582 11.523701 -13.945836
-2.8147361 11.258945 -13.896611
-2.8188262 10.993423 -13.847243
-2.8229187 10.727093 -13.797841
-2.8270321 10.460022 -13.748185
-2.8311577 10.192169 -13.698386
-2.8352954 9.9235353 -13.648438
-2.8394361 9.6540852 -13.598456
-2.8435981 9.3838739 -13.548218
-2.8477724 9.1128731 -13.497831
-2.8519492 8.8410435 -13.447409
-2.8561943 8.5685835 -13.396168
-2.8604705 8.2953663 -13.344548
-2.8647597 8.0213289 -13.292772
-2.8690617 7.7464681 -13.240844
-2.8733671 7.4707551 -13.188872
-2.8776951 7.1942401 -13.13663
-2.8820264 6.9168649 -13.084344
-2.8863807 6.6386757 -13.031786
-2.8907478 6.3596454 -12.979071
-2.8951187 6.0797501 -12.926309
-2.8995123 5.7990255 -12.873273
-2.9039099 5.5174298 -12.820189
-2.9083304 5.2349963 -12.76683
-2.9127545 4.9516835 -12.713425
-2.9172022 4.6675243 -12.659739
-2.9216533 4.3824816 -12.606006
-2.9261279 4.09658 -12.551994
-2.9306068 3.8097906 -12.497931
-2.9351089 3.5221312 -12.443585
-2.9397426 3.2337186 -12.387651
-2.9502692 2.9502711 -12.260584
-2.9607322 2.6646597 -12.134286
-2.9777687 2.3822155 -11.928634
-3.0015144 2.1010613 -11.641997
-3.0466366 1.8279823 -11.097328
-2.9808323 1.4904164 -11.891652
-3.0205576 1.2082235 -11.412127
-3.0840597 0.92521852 -10.645589
-4.3680787 0.87361753 4.8538966
-4.3964233 0.43964332 5.1960454
-4.4168835 1.1285106e-06 5.4430165
-4.4327106 -0.44326898 5.6340671
-4.4449697 -0.8889938 5.7820482
-4.4528799 -1.3358634 5.8775339
-4.4606829 -1.7842715 5.9717231
-4.4678788 -2.2339382 6.0585804
-4.4735518 -2.6841295 6.1270633
-4.4791942 -3.1354346 6.1951685
-4.4845304 -3.5876241 6.2595887
-4.4904289 -4.0413847 6.3307943
-4.4959993 -4.4959989 6.3980317
-4.5015597 -4.951715 6.4651556
-4.5071349 -5.4085612 6.5324478
-4.5127926 -5.8666291 6.6007433
-4.5194387 -6.3272119 6.6809645
-4.5262437 -6.7893624 6.7631083
-4.5337224 -7.2539544 6.8533874
-4.5416708 -7.72084 6.9493351
-4.5505404 -8.1909723 7.0564022
-4.5598459 -8.6637068 7.1687298
-4.569593 -9.139185 7.2863865
-4.5798812 -9.6177511 7.4105802
-4.591485 -10.101267 7.5506449
-4.6036763 -10.588454 7.6978083
-4.61724 -11.081374 7.8615294
-4.6315403 -11.578851 8.0341578
-4.6461258 -12.079927 8.2102222
-3.6654487 2.8509057 1.2886062
-2.7907808 1.8605208 -10.442699
-2.6751261 1.4861825 -11.993895
-2.7110822 1.2049273 -11.511639
-2.765409 0.92180306 -10.782996
-3.9534461 0.87854421 5.1513157
-3.9789863 0.44211012 5.4938669
-3.9961975 1.1054584e-06 5.7247052
-4.0095582 -0.4455061 5.9039068
-4.0205808 -0.89346176 6.051744
-4.02771 -1.3425686 6.1473656
-4.0347013 -1.7931989 6.241127
-4.0419016 -2.2454991 6.3377013
-4.0473909 -2.6982613 6.4113321
-4.0519633 -3.151526 6.4726539
-4.0565667 -3.6058359 6.5343947
-4.0615549 -4.0615535 6.6013012
-4.0665975 -4.5184398 6.6689324
-4.0719242 -4.9767947 6.7403755
-4.0775795 -5.43677 6.8162265
-4.0825567 -5.8970261 6.8829832
-4.0881362 -6.3593211 6.9578176
-4.0941539 -6.8235874 7.038528
-4.1008468 -7.2903929 7.1282959
-4.1080303 -7.7596121 7.2246399
-4.1158795 -8.2317572 7.3299165
-4.1240597 -8.7063465 7.4396296
-4.1326594 -9.1836872 7.554976
-4.1426373 -9.6661539 7.6888051
-4.1529031 -10.15154 7.8264918
-4.1639414 -10.641183 7.9745402
-4.1768422 -11.138247 8.1475744
-4.1898241 -11.638397 8.3216801
-4.2028856 -12.14167 8.4968758
-3.2795286 2.8695889 1.6107789
-2.4834483 1.8625869 -10.401142
-2.3719265 1.4824544 -12.083878
-2.4039066 1.2019541 -11.60133
-2.4507711 0.91904056 -10.894201
-3.5323024 0.88307762 5.4248433
-3.5528381 0.44410607 5.734704
-3.5706439 2.2858133e-06 6.0033746
-3.5819888 -0.44774833 6.1745567
-3.5925999 -0.89815015 6.3346639
-3.5984709 -1.3494266 6.4232526
-3.6044166 -1.8022072 6.5129671
-3.6103079 -2.2564418 6.6018591
-3.6152909 -2.7114675 6.6770473
-3.6198599 -3.167377 6.7459888
-3.6241796 -3.6241777 6.8111639
-3.6288643 -4.0824714 6.881855
-3.6329432 -4.5411768 6.9433975
-3.6370499 -5.0009413 7.0053644
-3.6411471 -5.4617209 7.0671887
-3.6459141 -5.9246101 7.139111
-3.6511281 -6.3894739 7.2177882
-3.656471 -6.8558812 7.2984066
-3.6626294 -7.3252587 7.3913274
-3.6694195 -7.7975154 7.493782
-3.676254 -8.2715702 7.596911
-3.6834226 -8.7481289 7.7050724
-3.6919143 -9.229785 7.8332038
-3.701009 -9.7151489 7.9704337
-3.7101488 -10.202909 8.1083403
-3.719805 -10.694438 8.2540417
-3.7308743 -11.192622 8.4210644
-3.7418902 -11.693404 8.5872803
-3.7530115 -12.197287 8.7550879
-2.8891666 2.8891678 1.9484112
-2.1754246 1.8646514 -10.359626
-2.0720179 1.480013 -12.142814
-2.1012893 1.2007371 -11.638046
-2.1403604 0.91729778 -10.964293
-3.1060865 0.88745511 5.6890602
-3.1255014 0.44650134 6.0238581
-3.1384842 8.2809601e-07 6.2477417
-3.1496112 -0.44994298 6.4396181
-3.1577413 -0.90220946 6.5798173
-3.1632335 -1.3556718 6.6745286
-3.1686635 -1.8106647 6.7681642
-3.173573 -2.2668362 6.8528223
-3.1779406 -2.7239478 6.9281416
-3.1821887 -3.1821864 7.0013981
-3.1858885 -3.6410141 7.0652008
-3.1895308 -4.1008244 7.1280103
-3.1931486 -4.5616407 7.1903968
-3.1967745 -5.0235009 7.2529202
-3.2007742 -5.4870405 7.3218932
-3.2053838 -5.9528537 7.4013815
-3.2100067 -6.420013 7.4811001
-3.2146428 -6.8885183 7.5610471
-3.2204864 -7.3611102 7.6618166
-3.2263002 -7.8353014 7.7620769
-3.2320848 -8.3110743 7.8618212
-3.2379746 -8.7887869 7.9633946
-3.2455769 -9.273077 8.094491
-3.2532151 -9.7596445 8.226203
-3.2608719 -10.248454 8.3582401
-3.2690673 -10.74122 8.4995661
-3.2789252 -11.242026 8.6695557
-3.2888248 -11.745803 8.8402739
-3.2986963 -12.252299 9.0105028
-1.8667048 1.8667052 -10.318282
-1.7741908 1.478493 -12.179521
-1.7992593 1.1995083 -11.675181
-1.8331435 0.91657174 -10.993484
-2.6741478 0.89138377 5.9262204
-2.6905403 0.44842464 6.2560048
-2.7024 1.5220961e-06 6.4946094
-2.7117326 -0.45195386 6.6823659
-2.7185962 -0.90619701 6.820446
-2.7234156 -1.3617072 6.917408
-2.7282665 -1.8188447 7.0149984
-2.7324984 -2.2770813 7.100142
-2.7360637 -2.7360618 7.171865
-2.7396238 -3.1962259 7.2434916
-2.7427521 -3.6570003 7.3064246
-2.7458301 -4.1187439 7.3683534
-2.7489154 -4.5815253 7.4304237
-2.7519212 -5.0451884 7.4909
-2.7555947 -5.5111871 7.5648041
-2.7593935 -5.9786849 7.6412268
-2.7632167 -6.447505 7.7181473
-2.7672105 -6.918026 7.7984924
-2.7721603 -7.3924255 7.8980775
-2.7771428 -7.8685699 7.998312
-2.7820697 -8.3462086 8.097436
-2.7872052 -8.826148 8.2007551
-2.793777 -9.3125896 8.3329725
-2.8003502 -9.8012247 8.4652138
-2.8069544 -10.292165 8.5980778
-2.8141742 -10.787665 8.7433271
-2.8225913 -11.290363 8.9126711
-2.8306649 -11.794436 9.0750952
-2.8380377 -12.298162 9.2234268
-1.5573092 1.868771 -10.276714
-1.4785073 1.4785086 -12.179161
-1.4993675 1.1994945 -11.675551
-1.5264758 0.91588718 -11.021097
-2.2367759 0.89471191 6.1270647
-2.2508721 0.45017731 6.4673762
-2.2613206 1.9276431e-06 6.7196221
-2.2689052 -0.45377979 6.9027286
-2.2746944 -0.90987623 7.0424967
-2.2788024 -1.3672802 7.1416717
-2.2829251 -1.8263382 7.2412052
-2.2865522 -2.2865522 7.3287725
-2.2895479 -2.7474575 7.4010954
-2.2925515 -3.2095726 7.473608
-2.2951443 -3.672231 7.5362015
-2.2976589 -4.1357846 7.59691
-2.3001792 -4.6003566 7.6577539
-2.3027048 -5.065949 7.718729
-2.3058033 -5.533927 7.7935367
-2.3090556 -6.0035434 7.8720517
-2.312402 -6.4747257 7.9528408
-2.3157945 -6.9473815 8.0347433
-2.3199546 -7.4238539 8.1351786
-2.3240807 -7.9018717 8.2347879
-2.3282092 -8.3815527 8.3344574
-2.3325992 -8.8638744 8.440443
-2.3380854 -9.3523397 8.5728912
-2.3434854 -9.8426352 8.7032547
-2.3488474 -10.334929 8.8327112
-2.3547125 -10.831676 8.974308
-2.3614931 -11.335165 9.1380043
-2.3683128 -11.841563 9.3026495
-1.247241 1.8708622 -10.234655
-1.1829487 1.4786872 -12.174846
-1.2003808 1.200382 -11.648787
-1.2219133 0.91643649 -10.998985
-1.7956223 0.89781231 6.3142171
-1.8073117 0.45183018 6.6669726
-1.8159754 2.1950007e-06 6.9284234
-1.8220613 -0.45551503 7.112082
-1.8267094 -0.91335279 7.2523503
-1.830116 -1.3725867 7.355154
-1.8334781 -1.8334768 7.4566145
-1.8363642 -2.2954533 7.5437102
-1.8386835 -2.7580242 7.6137028
-1.8412011 -3.2221014 7.6896777
-1.843388 -3.6867745 7.755671
-1.845551 -4.1524887 7.8209457
-1.8477192 -4.6192975 7.8863792
-1.8497661 -5.0868564 7.9481506
-1.8523726 -5.557117 8.0268097
-1.8550744 -6.0289917 8.1083422
-1.8575979 -6.5015903 8.184494
-1.8601873 -6.9756999 8.2626343
-1.8633257 -7.4533019 8.3573465
-1.8664848 -7.9325585 8.4526768
-1.8696841 -8.413578 8.5492287
-1.8733726 -8.8985186 8.6605349
-1.8776459 -9.3882275 8.7894936
-1.8819387 -9.8801765 8.9190388
-1.8861603 -10.37388 9.0464392
-1.8909385 -10.872895 9.1906347
-1.8963941 -11.378365 9.3552771
-1.9015017 -11.884383 9.509407
-0.93647844 1.8729582 -10.1925
-0.88751256 1.4791887 -12.162735
-0.90097326 1.2012985 -11.621119
-0.91698205 0.91698223 -10.976974
-1.351131 0.90075541 6.491828
-1.3603127 0.45343938 6.8612757
-1.3665884 7.9144519e-07 7.1137867
-1.3714116 -0.45713547 7.307857
-1.3750228 -0.91668022 7.4531574
-1.3775675 -1.3775671 7.5555577
-1.3801218 -1.8401599 7.6583323
-1.3823602 -2.3039317 7.748394
-1.3841778 -2.7683549 7.8215308
-1.386022 -3.2340503 7.8957381
-1.387616 -3.7003083 7.9598775
-1.3891991 -4.1675963 8.0235748
-1.3907859 -4.6359534 8.0874214
-1.3923762 -5.1053777 8.1514101
-1.3942571 -5.5770288 8.2270918
-1.3961651 -6.0500479 8.3038673
-1.3980933 -6.5244346 8.3814459
-1.4000934 -7.0004663 8.4619284
-1.402464 -7.4798079 8.557313
-1.4049323 -7.9612827 8.6566286
-1.4075817 -8.4454899 8.7632341
-1.4103917 -8.9324799 8.876298
-1.4135985 -9.4239883 9.0053301
-1.4167744 -9.9174185 9.1331129
-1.4199644 -10.413071 9.2614746
-1.4234986 -10.913488 9.4036808
-1.4272817 -11.418253 9.5558996
-1.4310772 -11.925644 9.708622
-0.62505662 1.8751714 -10.147978
-0.59187382 1.4796857 -12.150737
-0.60163969 1.2032801 -11.561316
-0.6122818 0.91842413 -10.919007
-0.90348434 0.90348566 6.656621
-0.90949255 0.45474797 7.0192485
-0.91394234 3.5414195e-07 7.2878156
-0.91728801 -0.45864165 7.4897466
-0.91983622 -0.91983473 7.6435442
-0.92155415 -1.3823301 7.747232
-0.92321563 -1.8464293 7.8475089
-0.92470831 -2.3117692 7.9376006
-0.92595756 -2.7778721 8.0129986
-0.92721987 -3.2452674 8.0891876
-0.92829484 -3.7131782 8.1540689
-0.92935765 -4.1821094 8.2182112
-0.93042278 -4.652112 8.2825003
-0.93149048 -5.1231952 8.3469391
-0.93276304 -5.5965772 8.4237442
-0.93406385 -6.0714135 8.5022564
-0.93537319 -6.5476117 8.5812864
-0.93671614 -7.0253711 8.6623402
-0.93841279 -7.5073009 8.76474
-0.94018078 -7.9915366 8.8714504
-0.94187492 -8.4768734 8.9736986
-0.94363582 -8.9645395 9.079978
-0.94563675 -9.4563665 9.2007456
-0.94765127 -9.9503365 9.3223314
-0.94970518 -10.446756 9.4462957
-0.95201486 -10.948171 9.5856962
-0.95455295 -11.454636 9.7388887
-0.95695913 -11.961987 9.8841085
-0.31298366 1.8779025 -10.093012
-0.2962943 1.4814717 -12.107594
-0.30139631 1.2055863 -11.49173
-0.30679458 0.92038482 -10.840099
-0.45282447 0.90565044 6.7872648
-0.45609561 0.45609722 7.1821275
-0.45830512 7.7808102e-07 7.4488387
-0.46006706 -0.46006566 7.6615233
-0.46130562 -0.92261028 7.8110313
-0.4622013 -1.3866022 7.9191489
-0.46306396 -1.8522532 8.0232801
-0.46384677 -2.3192337 8.117775
-0.4644607 -2.7867637 8.1918869
-0.46509841 -3.2556887 8.2688618
-0.46566889 -3.7253487 8.3377228
-0.46623829 -4.1961446 8.4064608
-0.46680665 -4.668066 8.4750652
-0.46737885 -5.1411662 8.544136
-0.4679873 -5.6158462 8.6175814
-0.4685998 -6.091795 8.6915159
-0.4692114 -6.5689592 8.7653456
-0.46991485 -7.0487213 8.8502569
-0.47074366 -7.5318975 8.9503059
-0.47157541 -8.0167809 9.050703
-0.47239488 -8.5031061 9.149622
-0.47327062 -8.9921408 9.2553358
-0.47427982 -9.4855957 9.3771563
-0.47531128 -9.9815359 9.5016651
-0.47635499 -10.479808 9.6276484
-0.47752491 -10.98307 9.7688732
-0.47872663 -11.489439 9.9139338
-0.47992656 -11.998161 10.058777
5.6535216e-24 1.8806367 -10.038024
5.0716436e-24 1.4837034 -12.053733
6.6749623e-25 1.2076474 -11.429499
8.1203606e-25 0.92219979 -10.767074
3.4510535e-25 0.90776396 6.9148664
8.1540671e-24 0.45720631 7.316164
-8.0517692e-24 2.3683731e-06 7.6050148
-1.5975277e-23 -0.46137083 7.8191953
-8.543254e-24 -0.92518175 7.9663267
-1.0856902e-23 -1.3906749 8.0830011
-2.0953992e-24 -1.8578125 8.191
-9.7099406e-24 -2.3262632 8.2875433
1.880332e-24 -2.7951651 8.3609152
3.1613538e-24 -3.2656379 8.4404449
-3.9996147e-24 -3.7366703 8.5085344
1.9653065e-24 -4.2087541 8.5755911
-7.9722804e-24 -4.681787 8.6407022
1.6093441e-24 -5.1559415 8.7062664
-1.5088942e-23 -5.6320043 8.7801313
-1.8924489e-24 -6.1093488 8.854497
-4.9504603e-24 -6.589108 8.9390697
-7.7775753e-24 -7.0706773 9.0269413
-1.2736095e-23 -7.5553985 9.1276112
-3.6249342e-24 -8.0415812 9.2268019
-3.4888746e-24 -8.5293646 9.325717
-1.067919e-23 -9.0199604 9.4320812
-9.3726173e-24 -9.5154676 9.5574522
-4.3322363e-24 -10.012876 9.6818113
3.0557142e-24 -10.511644 9.8023338
-3.8167441e-24 -11.014663 9.9346695
8.9229461e-24 -11.522255 10.07899
-5.2375237e-24 -12.03219 10.223076
0.31407407 1.884445 -9.9613905
0.29720214 1.486012 -11.998013
0.3026973 1.2107905 -11.334686
0.30823651 0.92471027 -10.666044
0.45479089 0.90958458 7.0246325
0.45824552 0.45824757 7.4416423
0.4607144 1.2867422e-06 7.739666
0.46242452 -0.46242347 7.9460969
0.46377105 -0.92754096 8.1086369
0.46474499 -1.3942337 8.2262039
0.46564674 -1.862586 8.3350506
0.46648031 -2.3323998 8.4356718
0.46716321 -2.8029785 8.5181036
0.46787789 -3.2751431 8.6043768
0.46844277 -3.7475412 8.6725636
0.46898404 -4.2208557 8.7378998
0.46952656 -4.6952643 8.8033876
0.47007284 -5.1708012 8.8693314
0.47069082 -5.6482887 8.9439278
0.47140375 -6.1282477 9.0299883
0.47212142 -6.6096973 9.1166105
0.47285393 -7.0928078 9.2050362
0.47364983 -7.5783973 9.3011122
0.47442031 -8.0651445 9.3941174
0.47519332 -8.5534792 9.4874268
0.47608206 -9.045557 9.5947046
0.47707745 -9.5415487 9.71486
0.47807181 -10.039508 9.8348923
0.4790521 -10.539144 9.9532213
0.48015419 -11.043546 10.086256
0.48132446 -11.551786 10.227521
0.48243704 -12.060924 10.36182
0.63033736 1.8910136 -9.8292542
0.59575921 1.4893993 -11.916233
0.60706574 1.2141327 -11.233824
0.61855763 0.9278366 -10.540224
0.9112286 0.91122878 7.1240287
0.91845977 0.45923069 7.5604682
0.92339951 2.0380949e-06 7.8586087
0.926503 -0.46325126 8.0459185
0.92953902 -0.92953837 8.2291641
0.93178111 -1.3976711 8.3644867
0.93353415 -1.8670665 8.4702864
0.93533844 -2.3383443 8.5791855
0.93669122 -2.8100717 8.6608353
0.93808293 -3.2832882 8.7448339
0.93929344 -3.7571738 8.8178949
0.94046187 -4.2320786 8.8884172
0.94163829 -4.7081904 8.9594183
0.94279742 -5.1853852 9.0293779
0.94408089 -5.6644826 9.1068382
0.94536775 -6.1448879 9.1845112
0.94667345 -6.6267133 9.2633171
0.94811547 -7.1108646 9.3503485
0.94965392 -7.5972304 9.4432039
0.95121801 -8.0853519 9.5376034
0.9529109 -8.5761976 9.639781
0.95469785 -9.0696297 9.7476301
0.9566837 -9.5668354 9.8674841
0.95864642 -10.065786 9.9859524
0.96061736 -10.56679 10.104902
0.96271205 -11.071188 10.231332
0.9649111 -11.578933 10.364054
0.96707767 -12.088471 10.49482
0.94881302 1.8976274 -9.6961966
0.89584148 1.4930706 -11.827607
0.91320753 1.2176102 -11.128848
1.350468 1.3504685 6.4651566
1.3682159 0.91214418 7.1792765
1.3800858 0.46002981 7.6568813
1.387514 9.5291961e-07 7.955771
1.3926258 -0.4642081 8.1614494
1.3970731 -0.93138164 8.3403997
1.4006426 -1.4006416 8.4840269
1.4036039 -1.8714694 8.6031752
1.4063681 -2.3439457 8.7143984
1.4083545 -2.8167083 8.7943249
1.4104369 -3.2910187 8.8781137
1.4122385 -3.7659671 8.9506073
1.413954 -4.2418618 9.0196342
1.4157115 -4.7190366 9.0903521
1.4174812 -5.1974311 9.1615543
1.4194076 -5.6776304 9.2390709
1.4214005 -6.1594005 9.3192558
1.4235446 -6.6432076 9.4055328
1.425703 -7.1285138 9.4923782
1.428084 -7.6164465 9.5881824
1.4306278 -8.1068897 9.6905375
1.4331731 -8.5990372 9.7929459
1.4356805 -9.0926418 9.8938398
1.4384394 -9.5895939 10.004849
1.441209 -10.088462 10.116288
1.4440207 -10.589485 10.229426
1.4472795 -11.095809 10.360545
1.4504334 -11.603467 10.487451
1.4535052 -12.112541 10.611048
1.2696614 1.904493 -9.5580597
1.1977974 1.4972472 -11.726747
1.2219218 1.2219222 -10.998729
1.8014343 1.3510758 6.4896073
1.8264158 0.91320741 7.2434921
1.8419327 0.46048388 7.7117558
1.8530352 1.3576624e-06 8.0468016
1.8602756 -0.46506676 8.2653017
1.8661782 -0.93308681 8.4434271
1.8712333 -1.4034244 8.5959778
1.8750676 -1.8750653 8.7116861
1.8790077 -2.3487577 8.8305931
1.8818682 -2.8228016 8.9169178
1.8847274 -3.2982726 9.0031986
1.887302 -3.7746031 9.0808954
1.8896505 -4.2517118 9.1517639
1.8920047 -4.7300105 9.2228127
1.8943752 -5.2095299 9.2943459
1.8970478 -5.6911421 9.3749981
1.8999122 -6.1747146 9.461442
1.9026518 -6.6592803 9.5441141
1.9053787 -7.1451697 9.6264067
1.9085888 -7.6343536 9.72328
1.9117477 -8.1249266 9.8186073
1.914917 -8.6171246 9.9142475
1.9183264 -9.1120501 10.017141
1.9218845 -9.6094208 10.124514
1.9255924 -10.109359 10.236413
1.9295896 -10.612741 10.357037
1.9336777 -11.118647 10.480404
1.9378577 -11.627145 10.606545
1.941831 -12.136443 10.726452
1.5931166 1.9117408 -9.4122438
1.5022726 1.502274 -11.605414
1.5328302 1.2262638 -10.867684
2.251931 1.3511602 6.4929409
2.2844291 0.91377252 7.2775164
2.3053567 0.46107119 7.7827549
2.319417 7.8257091e-07 8.1221981
2.3290956 -0.46581721 8.3558598
2.3364108 -0.93456179 8.5324631
2.3431859 -1.4059095 8.6960316
2.3479707 -1.8783742 8.8115463
2.3529639 -2.3529625 8.9320879
2.3564389 -2.8277242 9.0159798
2.3603539 -3.3044934 9.1105032
2.3636477 -3.7818363 9.1900244
2.3666711 -4.260006 9.2630091
2.3695998 -4.7391982 9.3337183
2.3727789 -5.2201128 9.4104691
2.3761973 -5.7028728 9.4929962
2.3794842 -6.186657 9.5723457
2.3827798 -6.6717839 9.6519175
2.386447 -7.1593404 9.7404499
2.3906443 -7.6500616 9.8417826
2.3946874 -8.1419363 9.9393845
2.3986526 -8.635149 10.035114
2.4030504 -9.1315899 10.141284
2.4074249 -9.6296978 10.246896
2.4122117 -10.131289 10.36246
2.4172959 -10.636102 10.485209
2.4224155 -11.14311 10.608799
1.9190432 1.9190445 -9.265316
1.8092445 1.5077045 -11.474293
1.8467176 1.2311457 -10.720394
2.7023172 1.3511602 6.4929409
2.7428231 0.91427457 7.3078566
2.7688632 0.4614791 7.8317442
2.7865145 9.6909139e-07 8.186862
2.7986593 -0.46644211 8.4311991
2.8074911 -0.93582982 8.6088781
2.8160336 -1.408017 8.7807379
2.8220184 -1.8813431 8.9011459
2.827893 -2.3565753 9.0193281
2.8324249 -2.832423 9.1105042
2.836956 -3.3097808 9.201664
2.8408296 -3.7877705 9.2795944
2.8444993 -4.266748 9.353426
2.8483937 -4.7473226 9.4317751
2.852314 -5.2292409 9.5106449
2.8563533 -5.7127061 9.5919104
2.8607447 -6.1982799 9.6802549
2.8647146 -6.6843328 9.7601252
2.8694432 -7.1736073 9.8552599
2.8744533 -7.6652069 9.9560518
2.8799517 -8.1598625 10.066671
2.8861959 -8.6585875 10.192299
2.8926418 -9.1600323 10.321975
2.899991 -9.6666374 10.469837
2.2475352 1.926459 -9.116127
2.1184442 1.5131755 -11.34222
2.1637285 1.2364173 -10.561318
3.1486783 1.3494339 6.4235287
3.2007246 0.91449445 7.3210335
3.2327795 0.46182662 7.8738041
3.2541251 1.3344774e-06 8.2418957
3.2694659 -0.46706516 8.5064411
3.2793262 -0.93694872 8.6764746
3.2893689 -1.4097277 8.8496504
3.2962801 -1.8835884 8.9688358
3.303628 -2.3597333 9.0955429
3.3092844 -2.8365288 9.1930885
3.3145864 -3.3145852 9.2845125
3.3196013 -3.7938275 9.3709898
3.3241832 -4.2739501 9.4500046
3.3288317 -4.7554736 9.5301657
3.3335114 -5.2383738 9.6108608
3.3381317 -5.7225113 9.6905384
3.3448687 -6.2118974 9.8067131
3.3532188 -6.7064357 9.9507055
3.3612075 -7.2025867 10.088466
3.3682036 -7.6987491 10.209111
2.5847428 1.938558 -8.8727264
2.4298542 1.5186604 -11.209818
2.4834046 1.241703 -10.401802
3.5960286 1.3485118 6.3863974
3.6574769 0.91437054 7.3135858
3.6952834 0.46191126 7.884038
3.7211409 7.4984098e-07 8.2741985
3.73915 -0.46739361 8.5459347
3.7514131 -0.93785119 8.7309675
3.7629526 -1.4111055 8.9050894
3.7716339 -1.8858168 9.0360794
3.7798078 -2.3623784 9.1594114
3.7865515 -2.8399127 9.2611666
3.7927475 -3.3186531 9.3546591
3.7987182 -3.7987161 9.4447498
3.8077507 -4.2837186 9.5810394
3.8189776 -4.7737217 9.7504406
3.8291888 -5.2651343 9.9045134
3.8389313 -5.7583957 10.051519
4.6590405 18.636166 14.614956
4.6453071 18.065086 14.430763
4.6326294 17.501045 14.26072
4.623631 16.953318 14.140033
4.6146951 16.407806 14.02018
4.6058464 15.864585 13.901501
4.6063819 15.354608 13.90868
3.8953195 2.5968802 4.3717036
2.7447262 1.5248485 -11.060398
2.8055575 1.2469156 -10.244514
4.0338182 1.3446068 6.2292886
4.1148324 0.91440791 7.3158784
4.1590042 0.46211356 7.9083185
4.1888275 8.0205695e-07 8.3083172
4.208241 -0.46758217 8.5686989
4.2242303 -0.93871695 8.7831516
4.2368741 -1.4122895 8.952734
4.2472715 -1.8876752 9.0921831
4.2630548 -2.3683627 9.3038769
4.2819839 -2.8546541 9.5577621
4.2960238 -3.3413517 9.7460709
5.1233525 15.882395 13.970854
5.0957561 15.287271 13.637735
5.0810285 14.734982 13.459956
5.0664148 14.185962 13.283553
5.051827 13.639935 13.107464
5.0396862 13.103187 12.960914
5.0301881 12.575472 12.84626
5.0207543 12.049809 12.732386
5.0133815 11.530779 12.643382
5.017951 11.039494 12.698545
3.0640287 1.5320147 -10.887382
3.1318843 1.252755 -10.068295
4.4757342 1.3427211 6.1534061
4.5717273 0.91434526 7.3121538
4.6238327 0.46238345 7.9411168
4.6567135 2.0494176e-07 8.3380232
4.6776114 -0.46776056 8.5902786
4.7072606 -0.94145006 8.9481783
4.7536259 -1.4260869 9.5078592
5.507885 11.516487 12.568379
5.4875135 10.975028 12.344831
5.4720168 10.446579 12.17478
5.4566073 9.9211073 12.005679
5.4411626 9.3983707 11.836191
5.4302444 8.8858576 11.716382
5.4202194 8.3767052 11.606366
5.4102917 7.8695149 11.497421
5.409174 7.3761492 11.485156
3.3847857 1.5385399 -10.729868
3.4630017 1.2592746 -9.8715467
4.9022822 1.3369859 5.9226823
5.025744 0.91377252 7.2775164
5.0878453 0.46253186 7.9589968
5.1508708 2.076695e-06 8.6506166
5.9066219 7.8754969 11.542546
5.8794818 7.3493538 11.269537
5.863174 6.8403716 11.105491
5.846827 6.334065 10.941051
5.8304744 5.8304753 10.776558
5.8160362 5.3313699 10.631324
5.805398 4.8378329 10.524313
5.7947989 4.3460994 10.417696
5.7842383 3.8561602 10.311465
5.7897201 3.3773377 10.366604
3.7088325 1.5453486 -10.565509
3.7974608 1.2658223 -9.6739769
5.3295527 1.3323892 5.7376776
5.4808955 0.91348356 7.2600698
6.2920847 4.3560591 10.55127
6.2628994 3.854094 10.280273
6.2376857 3.3587534 10.046154
6.2030482 2.8629456 9.7245283
4.0364852 1.5524963 -10.392953
4.134356 1.2721105 -9.4841833
5.7472229 1.326283 5.4919915
5.9281683 0.91202706 7.1721482
4.3684211 1.5601515 -10.208118
4.4735761 1.2781656 -9.3014517
6.1476283 1.3173497 5.1325474
4.7008185 1.5669399 -10.044216
4.8135147 1.2836058 -9.137311
6.5132918 1.3026586 4.5414419
5.0389309 1.5746676 -9.8576851
5.1611738 1.2902949 -8.9354324
6.8621573 1.2866553 3.8974938
5.3825216 1.5830956 -9.6542015
5.517087 1.298138 -8.6987
7.204495 1.2713821 3.2829564
5.7250504 1.590294 -9.4804401
5.8713031 1.3047351 -8.4996529
7.5009923 1.2501665 2.4292862
6.0741467 1.5984608 -9.2832508
6.2288127 1.3113291 -8.3006306
7.7671533 1.2263935 1.4727477
6.432127 1.6080338 -9.0521622
6.5897326 1.3179469 -8.1009274
7.2032824 1.080493 -4.3978281
6.7895074 1.6165488 -8.8465271
6.9572701 1.3251954 -7.8822074
7.373373 1.0533409 -5.4903922
7.1548128 1.6260951 -8.6161032
7.3282065 1.3324026 -7.6647205
7.5654864 1.0316594 -6.3628001
7.5284562 1.6366212 -8.3619576
7.7005644 1.339231 -7.458684
7.8937159 1.0296166 -6.4449692
7.9045444 1.6467816 -8.1166925
8.0791979 1.3465345 -7.2382603
8.2884998 1.036063 -6.1855478
8.2929764 1.6585964 -7.8314495
8.4707394 1.3553195 -6.9731355
8.6905565 1.0428679 -5.9117627
8.6867914 1.6705382 -7.5431576
8.8682823 1.3643523 -6.7005439
9.1009665 1.0501121 -5.6202593
9.0972328 1.6846733 -7.2018828
9.2720642 1.3736407 -6.4202552
9.5332565 1.0592512 -5.2525225
9.5261459 1.701099 -6.8053541
9.6885691 1.3840827 -6.1051345
9.9834328 1.069654 -4.8339486
9.9768152 1.7201402 -6.345612
10.11562 1.3952602 -5.7678499
10.456004 1.0816555 -4.3510194
11.3597 1.893283 -2.1655765
10.569246 1.4092335 -5.3461194
11.003305 1.1003324 -3.5996017
11.692813 2.2631266 -2.3429196
11.705997 1.8880643 -2.2915804
11.037313 1.4241717 -4.8953652
12.009621 2.6271067 -2.5706875
12.022633 2.2542455 -2.5216024
11.625175 1.4531467 -4.0208921
12.397441 4.5081615 -2.5248902
12.339493 4.1131649 -2.7368591
12.332164 3.7370207 -2.7636724
12.324842 3.3613222 -2.7904494
12.333942 2.9900484 -2.757163
12.352813 2.6202955 -2.6881337
12.724005 6.3620028 -2.6992688
12.661759 5.9584765 -2.9202616
12.654268 5.5827665 -2.9468548
12.646787 5.2075019 -2.973417
12.648389 4.8361487 -2.9677279
12.656782 4.4671011 -2.9379323
12.665133 4.0975442 -2.9082828
12.681115 3.7297421 -2.8515415
12.713902 3.3654456 -2.7351325
13.048121 8.2016783 -2.8721232
12.981361 7.7888193 -3.1023698
12.973714 7.4135509 -3.1287477
12.965693 7.0385213 -3.1564124
12.967928 6.6692204 -3.1486993
12.976553 6.3028979 -3.1189513
12.98508 5.936038 -3.0895448
12.99981 5.5713496 -3.0387433
13.03499 5.2139983 -2.9174109
13.298442 9.6044312 -3.2828186
13.290638 9.2296114 -3.3089855
13.28301 8.85534 -3.3345611
13.284903 8.4875774 -3.3282151
13.293758 8.1239634 -3.2985208
13.302459 7.759768 -3.2693498
13.316146 7.3978596 -3.223455
13.352989 7.0474124 -3.0999157
13.614113 11.406422 -3.4581072
13.60502 11.031099 -3.4877779
13.59781 10.657744 -3.5112989
13.599285 10.291353 -3.5064859
13.608429 9.9304752 -3.4766541
13.617299 9.5689135 -3.447716
13.629828 9.2093468 -3.4068394
13.665722 8.864254 -3.2897372
13.928297 13.19523 -3.628896
13.916888 12.818187 -3.6651413
13.910063 12.445848 -3.686821
13.91122 12.080796 -3.6831486
