# .PCD v0.7 - Point Cloud Data file format
VERSION 0.7
FIELDS x y z
SIZE 4 4 4
TYPE F F F
COUNT 1 1 1
WIDTH 1525
HEIGHT 1
VIEWPOINT 0 0 0 1 0 0 0
POINTS 1525
DATA ascii
-8.3928661 2.1894422 -8.1236877
-9.6379604 -6.2856288 -1.5890688
-9.0588551 -6.3018141 -4.6283865
-8.6522045 -6.3951097 -6.7626061
-8.4517746 18.440233 -5.7982774
-8.5648394 18.297613 -5.1779065
-8.7251463 18.24349 -4.2983255
-8.9580803 18.323343 -3.020256
-7.5132394 4.7811513 -10.947877
-7.5401826 4.4555621 -10.800044
-7.5674281 4.127687 -10.65055
-7.6093683 3.804683 -10.420432
-7.6538024 3.4789996 -10.176628
-7.7123857 3.1550655 -9.8551912
-7.7954011 2.8346901 -9.3997011
-7.94524 2.5280299 -8.5775566
-8.4008694 2.2911446 -6.0775867
-9.8629217 -6.2764063 1.9444723
-9.2263803 -6.2907157 -1.5481288
-8.7056971 -6.3314171 -4.4050431
-8.6490011 -6.6833205 -4.716126
-8.4518795 18.513638 -3.5894067
-8.5554733 18.333155 -2.9939363
-8.713829 18.257544 -2.0836897
-8.9372406 18.300064 -0.79948932
-7.1717286 4.7811513 -10.947877
-7.1974216 4.4555449 -10.800192
-7.2234802 4.1277013 -10.6504
-7.263514 3.8046963 -10.420282
-7.3059292 3.4790115 -10.176475
-7.3618231 3.1550655 -9.8551912
-7.4410372 2.8346803 -9.3998575
-7.5840354 2.5280097 -8.5778828
-8.3987741 2.3996484 -3.8946595
-8.7916536 2.0932481 -1.6363442
-9.3940897 -6.2627263 1.8265373
-8.8135166 -6.2953711 -1.5106721
-8.6542664 -6.593729 -2.4260654
-8.4650564 18.623123 -1.0807514
-8.5426817 18.366764 -0.61224401
-8.7019262 18.274044 0.34888434
-8.926507 18.299339 1.7043512
-6.8301935 4.7811332 -10.948023
-6.8546867 4.4555449 -10.800192
-6.8795543 4.1277313 -10.650105
-6.9176579 3.8047104 -10.420133
-6.9580784 3.4790387 -10.176171
-7.01126 3.1550655 -9.8551912
-7.0867023 2.8346803 -9.3998575
-7.2228365 2.5279915 -8.5782137
-8.0768766 2.4230618 -3.4236255
-8.4249563 2.1062379 -1.3227788
-9.4084578 -6.1154995 4.6131797
-8.9579134 -6.2705412 1.893903
-8.662138 -6.4966068 0.10874254
-8.5286274 18.403879 2.0121324
-8.6881456 18.290833 3.0255809
-8.9182091 18.305798 4.4872227
-6.4886837 4.7811332 -10.948023
-6.5119295 4.4555297 -10.80034
-6.5356002 4.1277471 -10.649955
-6.5718217 3.8047371 -10.419832
-6.6101985 3.4790509 -10.176019
-6.660697 3.1550655 -9.8551912
-6.732367 2.8346803 -9.3998575
-6.8616686 2.5279822 -8.5783787
-7.6730328 2.4230618 -3.4236255
-8.4135866 2.2141001 1.2812597
-9.0129614 1.8974638 5.0891967
-9.0278378 1.4254467 5.1837125
-9.0444698 0.95204723 5.2893786
-9.0611629 0.47690323 5.3954353
-9.0754309 -1.8961059e-06 5.4860797
-9.0891085 -0.47837606 5.5729742
-9.1008253 -0.95798314 5.6474171
-9.1096106 -1.4383614 5.7032309
-9.1187315 -1.9197338 5.7611809
-9.1265001 -2.4017115 5.8105316
-9.1338224 -2.8843663 5.8570561
-9.1423044 -3.3682184 5.9109411
-9.1516752 -3.853339 5.970479
-9.1541138 -4.3361597 5.9859676
-9.1457014 -4.8135281 5.9325247
-9.1141691 -5.2766261 5.7321906
-9.0554867 -5.7192554 5.3593721
-8.9431257 -6.1189828 4.6455231
-8.6821814 -6.3973985 2.987695
-8.9547338 -7.0695291 4.7192717
-9.0669365 -7.6353164 5.4321165
-9.1787014 -8.2125244 6.1421847
-9.2329082 -8.7469673 6.4865685
-9.243639 -9.2436409 6.5547442
-9.2562761 -9.7434502 6.6350269
-9.2671556 -10.242648 6.7041473
-9.27773 -10.742636 6.7713237
-9.2899389 -11.245718 6.8488922
-9.3069334 -11.756128 6.9568629
-9.3198862 -12.263011 7.0391574
-9.3521891 -12.797734 7.2443843
-8.5142002 18.447432 4.9256015
-8.6728411 18.30933 5.9894743
-8.909008 18.312963 7.573246
-9.0956373 9.0956345 8.8248081
-9.0363331 8.5343151 8.4271069
-8.9776573 7.9801397 8.033618
-8.9239368 7.4366112 7.6733613
-6.1471519 4.781116 -10.948172
-6.1691742 4.4555125 -10.800488
-6.1916432 4.1277614 -10.649806
-6.2259593 3.8047521 -10.419681
-6.2622933 3.4790509 -10.176019
-6.3101339 3.1550655 -9.8551912
-6.3780317 2.8346803 -9.3998575
-6.5004797 2.527962 -8.5787048
-7.2691894 2.4230618 -3.4236255
-8.4221077 2.3394723 4.3080196
-8.5432024 1.8984872 5.1201015
-8.5561237 1.4260203 5.2067471
-8.5699768 0.95221919 5.2996526
-8.5832777 0.47684762 5.3888474
-8.5945644 -1.5092265e-06 5.4645405
-8.6048508 -0.47804937 5.533524
-8.6149473 -0.95721853 5.6012297
-8.624507 -1.4374199 5.6653352
-8.6342173 -1.9187168 5.7304549
-8.6429958 -2.4008336 5.7893319
-8.6500149 -2.8833404 5.8364029
-8.6576099 -3.3668506 5.8873377
-8.6647835 -3.851016 5.9354429
-8.6676559 -4.3338304 5.9547095
-8.6602612 -4.8112569 5.9051104
-8.633914 -5.2762828 5.7284255
-8.5794363 -5.7196259 5.3630915
-8.547308 -6.1730571 5.1476283
-8.5539598 -6.6530809 5.1922421
-8.5607929 -7.133996 5.2380638
-8.5906277 -7.636116 5.4381413
-8.6859827 -8.2034283 6.0776014
-8.7361612 -8.7361631 6.4141049
-8.7468767 -9.2328176 6.4859757
-8.7565098 -9.7294569 6.5505691
-8.7662973 -10.227347 6.6162052
-8.7762403 -10.726517 6.6828823
-8.7863846 -11.227049 6.750917
-8.7970009 -11.729335 6.8221102
-8.8081827 -12.23359 6.8970981
-8.8230009 -12.744335 6.9964676
-8.8433495 -13.265025 7.1329274
-8.8759203 -13.806991 7.3513565
-8.5142498 18.531012 8.2846308
-8.6568117 18.332071 9.2969112
-8.8987951 18.321051 11.015149
-9.0886288 14.969502 12.363087
-9.0257568 14.335024 11.916657
-8.9643402 13.710166 11.480562
-8.9103746 13.103494 11.097378
-8.8574896 12.50469 10.721851
-8.8065119 11.914693 10.35988
-8.7589893 11.335161 10.022437
-8.7114649 10.761218 9.6849785
-8.6643143 10.193309 9.3501806
-8.6216831 9.6359959 9.0474777
-8.5816841 9.0864868 8.7634573
-8.5420094 8.5420094 8.481741
-8.5119371 8.0112343 8.2682142
-8.4988422 7.4989786 8.1752262
-5.8056436 4.781116 -10.948172
-5.8264422 4.4555125 -10.800488
-5.8477049 4.12779 -10.649508
-5.880115 3.8047779 -10.419378
-5.9143882 3.4790509 -10.176019
-5.9595714 3.1550655 -9.8551912
-6.0236745 2.8346682 -9.4000139
-6.1392956 2.5279434 -8.5790348
-6.8653455 2.4230618 -3.4236255
-8.1144209 2.3865943 5.4455981
-8.1758938 -2.8856106 5.8820939
-8.1831608 -3.369539 5.9336939
-8.1909342 -3.8545599 5.9888911
-8.1982279 -4.3402405 6.0406795
-8.205328 -4.8266649 6.0910945
-8.2119436 -5.313612 6.1380696
-8.2184038 -5.801229 6.1839442
-8.2249165 -6.2896433 6.230186
-8.2314386 -6.7788343 6.2764997
-8.2378883 -7.2687283 6.3222966
-8.2445574 -7.7595849 6.3696432
-8.2509851 -8.250988 6.4152904
-8.2585535 -8.7443533 6.4690313
-8.2677717 -9.2404509 6.5344806
-8.2767153 -9.7373142 6.5979924
-8.2860165 -10.235667 6.6640296
-8.2954216 -10.735252 6.7308168
-8.3050184 -11.236202 6.7989602
-8.314765 -11.738492 6.8681655
-8.3239803 -12.24115 6.9336052
-8.3342409 -12.746487 7.0064554
-8.3530369 -13.26659 7.1399202
-8.3825121 -13.80649 7.3492103
-8.4348373 -14.388841 7.7207546
-8.5750942 18.222076 12.522202
-8.6290789 17.797474 12.929489
-8.6557665 17.311535 13.130824
-8.6618767 16.782385 13.176923
-8.641283 16.202404 13.02155
-8.5992289 15.586103 12.704288
-8.5568676 14.974517 12.38469
-8.523201 14.382903 12.130697
-5.4641161 4.7810993 -10.948317
-5.4836907 4.4554973 -10.800635
-5.5037422 4.1278043 -10.64936
-5.534246 3.8047924 -10.41923
-5.5664825 3.4790509 -10.176019
-5.6090078 3.1550655 -9.8551912
-5.6692986 2.8346472 -9.4003315
-5.7781386 2.5279346 -8.5792007
-6.4615011 2.4230618 -3.4236255
-7.6535654 2.3917363 5.5698056
-7.6949587 -2.8856106 5.8820939
-7.7018366 -3.369554 5.9339843
-7.7090759 -3.8545392 5.9885993
-7.7159405 -4.34022 6.0403876
-7.7226615 -4.8266649 6.0910945
-7.7289267 -5.3136382 6.1383629
-7.7350073 -5.8012571 6.1842365
-7.7411757 -6.2897081 6.2307754
-7.7472758 -6.7788682 6.2767925
-7.753346 -7.268764 6.3225927
-7.759583 -7.7595849 6.3696432
-7.7657118 -8.2510691 6.4158826
-7.7728748 -8.7444849 6.4699211
-7.7815504 -9.240591 6.5353751
-7.7900081 -9.7375126 6.599185
-7.7987618 -10.235876 6.6652288
-7.8076549 -10.735528 6.7323194
-7.8167272 -11.236546 6.8007636
-7.8261399 -11.739211 6.8717804
-7.8367367 -12.244903 6.9517236
-7.8496513 -12.755686 7.0491595
-7.8684978 -13.278092 7.1913452
-7.8957586 -13.817579 7.3970103
-7.9390812 -14.389585 7.7238517
-5.1225905 4.7810826 -10.948465
-5.1409602 4.4554973 -10.800635
-5.1597953 4.1278353 -10.649062
-5.188374 3.8048055 -10.419079
-5.2185774 3.4790509 -10.176019
-5.2584257 3.1550543 -9.8553457
-5.3149481 2.8346353 -9.4004879
-5.4169641 2.5279143 -8.5795269
-6.0576577 2.4230618 -3.4236255
-7.1932726 2.3977571 5.7151008
-7.2139516 -2.8855822 5.8815126
-7.2204356 -3.369539 5.9336939
-7.2272224 -3.8545201 5.988307
-7.2336574 -4.3401952 6.0400939
-7.2399583 -4.8266401 6.0908003
-7.2458324 -5.313612 6.1380696
-7.2515326 -5.801229 6.1839442
-7.2573156 -6.2896752 6.2304802
-7.2630343 -6.7788343 6.2764997
-7.2686882 -7.2686901 6.3220005
-7.2745357 -7.7595077 6.3690529
-7.2802811 -8.250988 6.4152904
-7.2869959 -8.7443972 6.4693284
-7.2951293 -9.2404985 6.5347795
-7.3030586 -9.7374115 6.5985889
-7.3111906 -10.235667 6.6640296
-7.3195648 -10.735364 6.7314205
-7.3281069 -11.236433 6.8001618
-7.3369689 -11.739153 6.8714781
-7.3468657 -12.244776 6.9511199
-7.358973 -12.755555 7.0485544
-7.3764896 -13.277681 7.1895161
-7.4021974 -13.817437 7.3963976
-7.4728665 -14.447543 7.965096
-4.7810845 4.7810826 -10.948465
-4.7982297 4.4554973 -10.800635
-4.8158264 4.1278501 -10.648912
-4.8425174 3.8048337 -10.418777
-4.8706722 3.4790509 -10.176019
-4.9078641 3.1550543 -9.8553457
-4.9605818 2.8346159 -9.4008055
-5.0557947 2.5278976 -8.5798559
-5.6538138 2.4230618 -3.4236255
-6.7322111 2.4043593 5.8745232
-6.7329879 -2.8855689 5.8812208
-6.7390056 -3.3695028 5.9331079
-6.7453399 -3.8544822 5.9877214
-6.7513795 -4.3401742 6.0398021
-6.7572269 -4.826591 6.0902123
-6.7627087 -5.3135567 6.1374807
-6.7680287 -5.801168 6.1833529
-6.7734604 -6.2896433 6.230186
-6.7787976 -6.7787981 6.2762022
-6.7840405 -7.2686162 6.3214083
-6.789566 -7.7595077 6.3690529
-6.7948942 -8.2509441 6.4149933
-6.801127 -8.7443066 6.4687319
-6.808753 -9.2404509 6.5344806
-6.816153 -9.7373629 6.5982909
-6.8235354 -10.235305 6.6619387
-6.831315 -10.734924 6.7290196
-6.8395314 -11.236376 6.7998629
-6.8477678 -11.739032 6.8708768
-6.8569694 -12.244591 6.9502144
-6.8683391 -12.755488 7.0482478
-6.8846531 -13.277548 7.1889081
-6.9087181 -13.817437 7.3963976
-7.006866 -14.514225 8.2426529
-7.0756526 -15.162115 8.8357449
-4.4395623 4.7810664 -10.94861
-4.4555306 4.4555297 -10.80034
-4.4718547 4.1278639 -10.648764
-4.4966397 3.8048472 -10.418626
-4.5227671 3.4790509 -10.176019
-4.5573025 3.1550543 -9.8553457
-4.6062202 2.834595 -9.401123
-4.6946316 2.5278773 -8.580183
-5.24997 2.4230618 -3.4236255
-6.2705579 2.4117513 6.0529814
-6.2520285 -2.8855538 5.8809309
-6.2575536 -3.3694534 5.9322338
-6.2634668 -3.8544421 5.9871368
-6.2691069 -4.3401513 6.0395069
-6.2745047 -4.8265438 6.0896277
-6.2795949 -5.3135056 6.1368933
-6.2845669 -5.8011403 6.1830621
-6.2895784 -6.2895784 6.2295928
-6.2945342 -6.7787304 6.2756119
-6.2994347 -7.268579 6.3211126
-6.3045654 -7.7594657 6.3687549
-6.3095131 -8.2509022 6.4146948
-6.3153005 -8.7442627 6.4684348
-6.322381 -9.2404041 6.5341854
-6.3292208 -9.7372656 6.5976944
-6.3360753 -10.235199 6.6613369
-6.3432994 -10.734817 6.7284188
-6.3509288 -11.236261 6.7992625
-6.3586087 -11.738972 6.8705754
-6.3671856 -12.244591 6.9502144
-6.3777113 -12.755423 7.0479455
-6.3928266 -13.27741 7.1882973
-6.4151721 -13.817295 7.3957844
-6.5309606 -14.569068 8.4709368
-6.5701451 -15.161873 8.8347778
-4.0980577 4.7810664 -10.94861
-4.1128125 4.4555449 -10.800192
-4.1278954 4.1278944 -10.648465
-4.150774 3.8048749 -10.418323
-4.1748624 3.4790509 -10.176019
-4.2067409 3.1550543 -9.8553457
-4.251864 2.8345754 -9.4014387
-4.3334894 2.5278683 -8.580348
-4.8461261 2.4230618 -3.4236255
-5.8052077 2.4188349 6.2239952
-5.7710743 -2.8855383 5.8806357
-5.7761455 -3.3694196 5.9316511
-5.7815747 -3.8543835 5.9862599
-5.7868099 -4.3401098 6.0389237
-5.791821 -4.826519 6.0893335
-5.7965198 -5.3134789 6.1366005
-5.8010798 -5.8010812 6.1824694
-5.8057356 -6.289547 6.2292986
-5.8103099 -6.7786965 6.2753186
-5.8148332 -7.2685428 6.3208156
-5.8195691 -7.7594285 6.3684597
-5.8241067 -8.2508202 6.4141035
-5.8294787 -8.7442198 6.4681377
-5.8358374 -9.2400761 6.5320978
-5.8423281 -9.737216 6.5973964
-5.8486552 -10.235148 6.6610398
-5.8553238 -10.734762 6.7281189
-5.8623662 -11.236202 6.7989602
-5.8694553 -11.738913 6.8702731
-5.8773723 -12.244527 6.9499111
-5.8868465 -12.754837 7.0452185
-5.9010401 -13.277344 7.187995
-5.9216671 -13.817225 7.3954802
-6.0448942 -14.608497 8.6350536
-6.0689406 -15.172354 8.8769407
-3.7565396 4.7810493 -10.948759
-3.7700913 4.4555621 -10.800044
-3.7839179 4.1279087 -10.648316
-3.8048899 3.804889 -10.418174
-3.826957 3.4790509 -10.176019
-3.8561788 3.1550543 -9.8553457
-3.8975277 2.8345637 -9.4015961
-3.9723356 2.5278478 -8.5806751
-4.4422822 2.4230618 -3.4236255
-5.3354149 2.4251885 6.3773441
-5.2900987 -2.88551 5.8800545
-5.2947736 -3.3694024 5.9313574
-5.2997231 -3.8543456 5.9856749
-5.3045492 -4.3400869 6.0386286
-5.3091426 -4.8264942 6.0890393
-5.3134499 -5.3134527 6.1363072
-5.3176298 -5.801053 6.1821775
-5.3218703 -6.2894845 6.2287092
-5.3260636 -6.7786283 6.2747273
-5.3302364 -7.2685051 6.3205204
-5.3345513 -7.7593484 6.3678656
-5.3387375 -8.2507763 6.4138064
-5.3436613 -8.744174 6.4678421
-5.3492999 -9.2397032 6.5297189
-5.3554401 -9.7371645 6.5970941
-5.3612399 -10.235095 6.6607385
-5.367353 -10.734707 6.7278199
-5.3738079 -11.236146 6.7986617
-5.3802791 -11.738792 6.8696718
-5.3875365 -12.244403 6.9493074
-5.3961382 -12.754511 7.043705
-5.4092593 -13.277273 7.1876898
-5.4281945 -13.817225 7.3954802
-5.5527668 -14.639113 8.7624931
-5.5649571 -15.177158 8.8962755
-3.4150357 4.7810493 -10.948759
-3.4273801 4.4555926 -10.799749
-3.4399502 4.1279387 -10.648017
-3.4590034 3.8049023 -10.418023
-3.4790518 3.4790509 -10.176019
-3.5056171 3.1550543 -9.8553457
-3.5431807 2.8345442 -9.4019127
-3.6112006 2.5278385 -8.5808401
-4.0384383 2.4230618 -3.4236255
-4.8618903 2.4309452 6.5163188
-4.8091321 -2.8854814 5.8794727
-4.8133821 -3.3693681 5.9307742
-4.8179059 -3.8543265 5.9853821
-4.8222685 -4.3400416 6.0380425
-4.8264689 -4.8264694 6.0887451
-4.8303847 -5.3134241 6.1360106
-4.8341846 -5.8010225 6.1818824
-4.8380151 -6.2894206 6.2281208
-4.8418269 -6.7785602 6.2741361
-4.8456454 -7.2684689 6.3202233
-4.8495674 -7.7593093 6.3675714
-4.8533731 -8.2507372 6.4135122
-4.8578253 -8.7440882 6.4672484
-4.8629265 -9.2395611 6.5288253
-4.8685079 -9.7370157 6.5962005
-4.873805 -10.234992 6.660141
-4.8793864 -10.734653 6.7275205
-4.8851557 -11.235859 6.7971578
-4.8911376 -11.738732 6.8693705
-4.8977351 -12.24434 6.9490075
-4.90553 -12.754378 7.0430965
-4.9174829 -13.277205 7.1873841
-4.9346972 -13.817153 7.3951716
-5.0554233 -14.660729 8.8524714
-5.0595326 -15.1786 8.9020767
-3.0735214 4.7810307 -10.948905
-3.0846531 4.4556084 -10.799599
-3.0959663 4.127954 -10.64787
-3.1131256 3.8049288 -10.417722
-3.1311352 3.4790387 -10.176171
-3.1550555 3.1550543 -9.8553457
-3.1888392 2.8345232 -9.4022303
-3.2500682 2.5278296 -8.5810051
-3.6345792 2.4230525 -3.4238291
-4.3852654 2.4362578 6.6445904
-4.3281755 -2.8854527 5.8788905
-4.3320003 -3.369334 5.930191
-4.3360715 -3.8542867 5.9847975
-4.3400197 -4.3400207 6.0377512
-4.3438001 -4.826447 6.0884547
-4.3473244 -5.3133979 6.1357179
-4.3507223 -5.8009644 6.1812954
-4.3541694 -6.2893577 6.2275305
-4.3576221 -6.7785263 6.2738433
-4.3610592 -7.2684336 6.3199315
-4.3645887 -7.7592716 6.3672752
-4.3679914 -8.2506523 6.4129171
-4.3720202 -8.7440405 6.466949
-4.3766112 -9.2395134 6.5285263
-4.3816347 -9.7369671 6.595902
-4.3864021 -10.234941 6.6598439
-4.3913364 -10.734379 6.7260213
-4.3964386 -11.235346 6.7944546
-4.401979 -11.738613 6.8687677
-4.407939 -12.244276 6.9487042
-4.4149318 -12.754249 7.0424905
-4.4257121 -13.27714 7.1870818
-4.4412041 -13.817083 7.3948674
-4.5552382 -14.677993 8.9243259
-4.5535798 -15.1786 8.9020767
-2.7320092 4.7810144 -10.949051
-2.7419336 4.4556413 -10.799304
-2.7519798 4.1279683 -10.647721
-2.7672226 3.8049288 -10.417722
-2.7832313 3.4790387 -10.176171
-2.8044939 3.1550543 -9.8553457
-2.8345027 2.8344996 -9.402544
-2.8889279 2.5278094 -8.5813322
-3.230737 2.4230525 -3.4238291
-3.9056563 2.4410343 6.7599163
-3.8472285 -2.8854222 5.8783054
-3.8506477 -3.369319 5.9299011
-3.8542473 -3.8542488 5.9842119
-3.8577762 -4.3400002 6.0374599
-3.8610976 -4.8263731 6.0875731
-3.8642492 -5.313345 6.1351318
-3.8672891 -5.8009338 6.1809998
-3.8703535 -6.2893257 6.2272363
-3.8734031 -6.7784581 6.273252
-3.8764575 -7.2683597 6.3193393
-3.8795953 -7.759192 6.3666821
-3.8826201 -8.2505693 6.4123259
-3.8862009 -8.7439537 6.4663548
-3.8902819 -9.2394209 6.5279307
-3.8947666 -9.7369175 6.5956039
-3.8989844 -10.234837 6.659246
-3.9033308 -10.73416 6.7248235
-3.9078655 -11.235115 6.7932529
-3.9128306 -11.738492 6.8681655
-3.918128 -12.244151 6.9480996
-3.9243639 -12.754184 7.0421863
-3.9339461 -13.277071 7.1867766
-3.9477167 -13.817011 7.3945589
-4.0532737 -14.69312 8.9872932
-4.0436139 -15.163553 8.8415346
-2.3905079 4.7810144 -10.949051
-2.3992004 4.4556565 -10.799157
-2.4079995 4.1279988 -10.647422
-2.4213111 3.8049157 -10.417872
-2.4353275 3.4790387 -10.176171
-2.453932 3.1550543 -9.8553457
-2.4801807 2.834492 -9.4027033
-2.5278025 2.5278001 -8.5814972
-2.8268948 2.4230525 -3.4238291
-3.4234471 2.445318 6.8633451
-3.3663082 -2.885407 5.878015
-3.3692999 -3.3693018 5.9296074
-3.3724494 -3.854228 5.9839206
-3.37552 -4.3399563 6.0368729
-3.3783412 -4.8262048 6.0855217
-3.3811157 -5.3131819 6.1333671
-3.3838611 -5.8009076 6.180707
-3.3865421 -6.2892938 6.2269425
-3.3892107 -6.7784224 6.2729554
-3.3918662 -7.2682862 6.3187466
-3.3946114 -7.7591147 6.3660917
-3.3972752 -8.2505274 6.4120274
-3.4004085 -8.7439079 6.4660587
-3.4039619 -9.2393274 6.5273366
-3.407886 -9.7368202 6.5950074
-3.4115939 -10.234784 6.6589456
-3.4153969 -10.734105 6.7245235
-3.4193649 -11.235057 6.7929511
-3.4237092 -11.738434 6.8678632
-3.4283271 -12.244026 6.947495
-3.4337833 -12.754053 7.0415807
-3.4421675 -13.276933 7.1861658
-3.4542344 -13.816941 7.3942542
-3.5497293 -14.706024 9.0410023
-3.5391138 -15.167632 8.8579435
-2.0489995 4.7809973 -10.9492
-2.0564649 4.4556737 -10.799008
-2.064007 4.1280127 -10.647273
-2.0754097 3.8049157 -10.417872
-2.0874236 3.4790387 -10.176171
-2.1033704 3.1550543 -9.8553457
-2.1258535 2.8344684 -9.403017
-2.1666794 2.5277908 -8.5816622
-2.423053 2.4230525 -3.4238291
-2.9390016 2.4491677 6.9562554
-2.8853924 -2.8853939 5.8777242
-2.8879569 -3.3692827 5.9293146
-2.8906565 -3.8542089 5.9836278
-2.8932886 -4.3399358 6.036581
-2.8956771 -4.826129 6.0846405
-2.8980553 -5.3131046 6.1324873
-2.900423 -5.8008471 6.1801162
-2.9027359 -6.2892618 6.2266483
-2.9050229 -6.778389 6.2726626
-2.907299 -7.2682481 6.3184505
-2.9096522 -7.7590733 6.3657932
-2.9119353 -8.2504835 6.4117303
-2.9146211 -8.743865 6.4657617
-2.9176669 -9.2392797 6.5270371
-2.9210157 -9.736722 6.5944104
-2.9241936 -10.23468 6.6583471
-2.9274533 -10.733997 6.7239227
-2.9308693 -11.235002 6.7926512
-2.9345927 -11.738374 6.8675628
-2.9384758 -12.243651 6.945683
-2.9432275 -12.753987 7.0412784
-2.9504142 -13.276867 7.1858635
-2.960757 -13.816869 7.3939457
-3.0443966 -14.714585 9.0766439
-3.0345504 -15.172754 8.8785543
-1.7074996 4.7809973 -10.9492
-1.713733 4.4557042 -10.798714
-1.7200183 4.1280413 -10.646975
-1.7295079 3.8049157 -10.417872
-1.7395196 3.4790387 -10.176171
-1.7528021 3.1550436 -9.8555002
-1.7715315 2.8344491 -9.4033346
-1.8055526 2.5277703 -8.5819883
-2.0192106 2.4230525 -3.4238291
-2.4524009 2.4524004 7.0343099
-2.4044816 -2.8853786 5.8774333
-2.4066186 -3.3692675 5.9290242
-2.4088681 -3.8541901 5.983335
-2.4110615 -4.3399124 6.0362859
-2.4130523 -4.8261046 6.0843463
-2.4150219 -5.3130498 6.1318979
-2.4169948 -5.8007879 6.1795282
-2.4189343 -6.2892313 6.2263522
-2.4208403 -6.7783542 6.2723641
-2.4227245 -7.2681746 6.3178582
-2.4246979 -7.7590356 6.3654981
-2.4265883 -8.2504034 6.4111381
-2.4288263 -8.7437763 6.4651694
-2.4313769 -9.239233 6.5267377
-2.4341674 -9.7366724 6.5941119
-2.4368157 -10.234628 6.6580467
-2.4395318 -10.733943 6.7236238
-2.4423788 -11.234944 6.7923498
-2.4454691 -11.738255 6.8669591
-2.4486299 -12.243151 6.9432669
-2.4526896 -12.753987 7.0412784
-2.4586661 -13.276797 7.1855588
-2.4672849 -13.816796 7.3936372
-2.5383005 -14.722144 9.1081057
-2.5297396 -15.17844 8.9014311
-1.3660046 4.7810144 -10.949051
-1.3709913 4.4557199 -10.798564
-1.3760196 4.1280575 -10.646825
-1.3836064 3.8049157 -10.417872
-1.3916156 3.4790387 -10.176171
-1.4022367 3.1550307 -9.8556547
-1.4172148 2.8344276 -9.4036512
-1.4444367 2.5277615 -8.5821543
-1.6153685 2.4230525 -3.4238291
-1.9640514 2.4550629 7.0986023
-1.9235854 -2.8853786 5.8774333
-1.9252852 -3.3692503 5.9287305
-1.9270849 -3.8541729 5.9830456
-1.9288396 -4.33989 6.0359955
-1.9304321 -4.8260818 6.0840559
-1.9320078 -5.3130236 6.1316047
-1.9335861 -5.8007603 6.1792374
-1.9351377 -6.2891989 6.226058
-1.9366623 -6.7783208 6.2720714
-1.93817 -7.2681389 6.3175664
-1.9397388 -7.758956 6.3649039
-1.9412608 -8.2503595 6.410841
-1.943061 -8.7437763 6.4651694
-1.9450916 -9.2391872 6.5264416
-1.9472845 -9.7364235 6.592618
-1.949403 -10.234367 6.6565547
-1.9516156 -10.733889 6.7233243
-1.9538929 -11.234887 6.7920508
-1.9563653 -11.738194 6.8666582
-1.9588538 -12.242839 6.9417577
-1.9621416 -12.753922 7.0409756
-1.9669226 -13.276729 7.1852527
-1.9738177 -13.816727 7.393333
-2.0316517 -14.729476 9.1386261
-2.024529 -15.183969 8.9236813
-1.024507 4.7810307 -10.948905
-1.0282508 4.4557528 -10.798268
-1.0320183 4.1280727 -10.646678
-1.0377048 3.8049157 -10.417872
-1.0437118 3.4790387 -10.176171
-1.0516697 3.1550069 -9.8559647
-1.0629071 2.8344159 -9.4038086
-1.0833235 2.5277524 -8.5823193
-1.2115265 2.4230525 -3.4238291
-1.4742467 2.4570773 7.1472168
-1.4426817 -2.8853655 5.8771424
-1.4439566 -3.3692334 5.928441
-1.4453064 -3.8541522 5.9827542
-1.4466224 -4.3398671 6.0357003
-1.4478241 -4.8260818 6.0840559
-1.4490058 -5.3130236 6.1316047
-1.4501896 -5.8007603 6.1792374
-1.4513459 -6.2891674 6.2257638
-1.4524895 -6.7782845 6.2717743
-1.4536201 -7.2681031 6.3172703
-1.4547672 -7.7587605 6.3634262
-1.4559456 -8.2503595 6.410841
-1.4572884 -8.7437315 6.464869
-1.4588112 -9.2391386 6.5261436
-1.460404 -9.7360296 6.5902324
-1.4620373 -10.234263 6.6559563
-1.4637042 -10.733833 6.7230244
-1.4654124 -11.234828 6.7917485
-1.4672664 -11.738133 6.8663578
-1.4691329 -12.242775 6.9414544
-1.4715987 -12.753857 7.0406728
-1.475192 -13.276729 7.1852527
-1.4803557 -13.816654 7.3930244
-1.5240133 -14.73213 9.1496725
-1.5187898 -15.187899 8.9394903
-0.68300718 4.7810493 -10.948759
-0.68550301 4.4557681 -10.798121
-0.68801719 4.1281013 -10.646379
-0.69180322 3.8049157 -10.417872
-0.69580781 3.4790387 -10.176171
-0.70110804 3.154985 -9.8562727
-0.70859945 2.8343968 -9.4041252
-0.72221017 2.5277357 -8.5826473
-0.80768424 2.4230525 -3.4238291
-0.98335534 2.4583883 7.1788602
-0.96178782 -2.8853655 5.8771424
-0.96263289 -3.3692162 5.9281473
-0.96353763 -3.8541522 5.9827542
-0.96441007 -4.3398466 6.0354085
-0.96521115 -4.8260574 6.0837617
-0.96599907 -5.3129969 6.1313119
-0.96678817 -5.8007312 6.1789403
-0.9675591 -6.289135 6.2254696
-0.96832144 -6.7782521 6.2714801
-0.96908009 -7.2681031 6.3172703
-0.9698301 -7.7586432 6.3625369
-0.97061568 -8.2502346 6.4099512
-0.97152066 -8.7436876 6.464572
-0.97253591 -9.2390938 6.5258474
-0.97359776 -9.73598 6.5899343
-0.97469163 -10.234263 6.6559563
-0.97580284 -10.733833 6.7230244
-0.97693652 -11.234772 6.7914505
-0.97817767 -11.738133 6.8663578
-0.97942197 -12.242775 6.9414544
-0.9810608 -12.753793 7.0403695
-0.98345625 -13.276663 7.1849504
-0.98690379 -13.816654 7.3930244
-1.0161058 -14.733536 9.1555204
-1.0126762 -15.190145 8.9485264
-0.34150603 4.7810826 -10.948465
-0.34275272 4.4557853 -10.797973
-0.34400982 4.1281171 -10.64623
-0.34590161 3.8049157 -10.417872
-0.34790391 3.4790387 -10.176171
-0.35055146 3.1549611 -9.8565826
-0.35429713 2.8343754 -9.4044428
-0.36110374 2.5277245 -8.5828094
-0.40384212 2.4230525 -3.4238291
-0.49180886 2.4590428 7.194695
-0.4808915 -2.8853502 5.876852
-0.48131645 -3.3692162 5.9281473
-0.48176637 -3.8541334 5.9824615
-0.48220503 -4.3398466 6.0354085
-0.48260558 -4.8260574 6.0837617
-0.48299953 -5.3129969 6.1313119
-0.48339409 -5.8007312 6.1789403
-0.48377711 -6.2891049 6.2251744
-0.48415828 -6.7782164 6.271184
-0.4845376 -7.268065 6.3169742
-0.48491505 -7.7586432 6.3625369
-0.48530784 -8.2502346 6.4099512
-0.48576033 -8.7436876 6.464572
-0.48626795 -9.2390938 6.5258474
-0.48679888 -9.73598 6.5899343
-0.48734581 -10.234263 6.6559563
-0.48789892 -10.733779 6.7227249
-0.48846579 -11.234714 6.7911477
-0.48908636 -11.738073 6.8660564
-0.48970848 -12.242712 6.9411545
-0.4905304 -12.753793 7.0403695
-0.49172813 -13.276663 7.1849504
-0.49345189 -13.816654 7.3930244
-0.50806904 -14.734005 9.1574726
-0.5063675 -15.191026 8.9520807
3.5418198e-24 4.7810826 -10.948465
5.4796834e-24 4.4557853 -10.797973
8.7839378e-24 4.1281171 -10.64623
1.1187138e-23 3.8049157 -10.417872
1.0434096e-23 3.4790387 -10.176171
8.5262674e-24 3.1549611 -9.8565826
4.702392e-24 2.8343754 -9.4044428
1.577553e-23 2.5277245 -8.5828094
2.7515397e-24 2.4230525 -3.4238291
7.9635327e-24 2.4590316 7.1943884
9.9141491e-24 -2.8853502 5.876852
-6.4674919e-25 -3.3692162 5.9281473
9.627507e-24 -3.8541334 5.9824615
2.63807e-24 -4.3398466 6.0354085
1.4419486e-23 -4.8260574 6.0837617
1.5461035e-23 -5.3129969 6.1313119
7.7382064e-24 -5.8007312 6.1789403
1.4032791e-23 -6.2891049 6.2251744
-2.505853e-24 -6.7782164 6.271184
7.7450064e-24 -7.268065 6.3169742
7.0853846e-24 -7.7586432 6.3625369
1.3250607e-24 -8.2501917 6.4096541
-3.5564895e-24 -8.7436876 6.464572
1.9705608e-23 -9.2390938 6.5258474
1.3756862e-23 -9.73598 6.5899343
1.4350132e-23 -10.234263 6.6559563
6.1457787e-24 -10.733779 6.7227249
2.883995e-24 -11.234714 6.7911477
1.2562342e-23 -11.738073 6.8660564
1.0236065e-23 -12.242712 6.9411545
8.9737866e-24 -12.753793 7.0403695
1.6950186e-23 -13.276663 7.1849504
9.1462048e-24 -13.816654 7.3930244
-3.3140047e-26 -14.734005 9.1574726
-6.8984671e-24 -15.191026 8.9520807
0.34150359 4.7810493 -10.948759
0.3427515 4.4557681 -10.798121
0.34400859 4.1281013 -10.646379
0.34590161 3.8049157 -10.417872
0.34790391 3.4790387 -10.176171
0.35055402 3.154985 -9.8562727
0.35429972 2.8343968 -9.4041252
0.36110649 2.527745 -8.5824833
0.40384212 2.4230525 -3.4238291
0.49167767 2.4583883 7.1788602
0.48089391 -2.8853655 5.8771424
0.48131645 -3.3692162 5.9281473
0.48176882 -3.8541522 5.9827542
0.48220503 -4.3398466 6.0354085
0.48260558 -4.8260574 6.0837617
0.48300195 -5.3130236 6.1316047
0.48339653 -5.8007603 6.1792374
0.48377955 -6.289135 6.2254696
0.48416072 -6.7782521 6.2714801
0.4845376 -7.268065 6.3169742
0.48491505 -7.7586432 6.3625369
0.48530784 -8.2502346 6.4099512
0.48576033 -8.7436876 6.464572
0.48626795 -9.2390938 6.5258474
0.48679888 -9.73598 6.5899343
0.48734581 -10.234263 6.6559563
0.48790142 -10.733833 6.7230244
0.48846826 -11.234772 6.7914505
0.48908883 -11.738133 6.8663578
0.48971099 -12.242775 6.9414544
0.4905304 -12.753793 7.0403695
0.49172813 -13.276663 7.1849504
0.49345189 -13.816654 7.3930244
0.50805289 -14.733536 9.1555204
0.50633812 -15.190145 8.9485264
0.68300474 4.7810307 -10.948905
0.68550056 4.4557528 -10.798268
0.68801224 4.1280727 -10.646678
0.69180322 3.8049157 -10.417872
0.69580781 3.4790387 -10.176171
0.70111316 3.1550069 -9.8559647
0.70860475 2.8344159 -9.4038086
0.72221565 2.5277524 -8.5823193
0.80768424 2.4230525 -3.4238291
0.98283106 2.4570773 7.1472168
0.96178782 -2.8853655 5.8771424
0.96263772 -3.3692334 5.928441
0.96353763 -3.8541522 5.9827542
0.96441495 -4.3398671 6.0357003
0.96521604 -4.8260818 6.0840559
0.96600389 -5.3130236 6.1316047
0.96679306 -5.8007603 6.1792374
0.96756399 -6.2891674 6.2257638
0.96832627 -6.7782845 6.2717743
0.96908009 -7.2681031 6.3172703
0.96983987 -7.7587223 6.3631301
0.97063041 -8.2503595 6.410841
0.97152066 -8.7436876 6.464572
0.97254086 -9.2391386 6.5261436
0.97360271 -9.7360296 6.5902324
0.97469658 -10.234314 6.6562533
0.97580779 -10.733889 6.7233243
0.97694153 -11.234828 6.7917485
0.97817767 -11.738133 6.8663578
0.97942197 -12.242775 6.9414544
0.9810608 -12.753793 7.0403695
0.98346132 -13.276729 7.1852527
0.98690379 -13.816654 7.3930244
1.0160089 -14.73213 9.1496725
1.0125318 -15.187979 8.9398136
1.0244998 4.7809973 -10.9492
1.0282434 4.4557199 -10.798564
1.0320146 4.1280575 -10.646825
1.0377048 3.8049157 -10.417872
1.0437118 3.4790387 -10.176171
1.0516775 3.1550307 -9.8556547
1.062911 2.8344276 -9.4036512
1.0833275 2.5277615 -8.5821543
1.2115265 2.4230525 -3.4238291
1.4730386 2.4550629 7.0986023
1.4426891 -2.8853786 5.8774333
1.4439639 -3.3692503 5.9287305
1.4453137 -3.8541729 5.9830456
1.4466296 -4.33989 6.0359955
1.4478241 -4.8260818 6.0840559
1.4490132 -5.3130498 6.1318979
1.4501896 -5.8007603 6.1792374
1.4513532 -6.2891989 6.226058
1.4524968 -6.7783208 6.2720714
1.4536347 -7.2681746 6.3178582
1.4548113 -7.758996 6.3652034
1.4559456 -8.2503595 6.410841
1.4572958 -8.7437763 6.4651694
1.4588261 -9.239233 6.5267377
1.4604633 -9.7364235 6.592618
1.4620597 -10.234418 6.6568518
1.4637191 -10.733943 6.7236238
1.4654198 -11.234887 6.7920508
1.467274 -11.738194 6.8666582
1.4691404 -12.242839 6.9417577
1.4715987 -12.753857 7.0406728
1.475192 -13.276729 7.1852527
1.480371 -13.816796 7.3936372
1.5237306 -14.729399 9.1383018
1.5183967 -15.183969 8.9236813
1.3659949 4.7809811 -10.949345
1.3709863 4.4557042 -10.798714
1.3760097 4.128027 -10.647124
1.3836064 3.8049157 -10.417872
1.3916156 3.4790387 -10.176171
1.4022418 3.1550436 -9.8555002
1.4172251 2.8344491 -9.4033346
1.4444476 2.5277817 -8.5818272
1.6153685 2.4230525 -3.4238291
1.9619209 2.4524004 7.0343099
1.923595 -2.8853939 5.8777242
1.9252949 -3.3692675 5.9290242
1.9270946 -3.8541901 5.983335
1.9288492 -4.3399124 6.0362859
1.9304417 -4.8261046 6.0843463
1.9320176 -5.3130498 6.1318979
1.9335959 -5.8007879 6.1795282
1.9351475 -6.2892313 6.2263522
1.9366721 -6.7783542 6.2723641
1.9381896 -7.2682123 6.3181543
1.9397682 -7.7590733 6.3657932
1.9412707 -8.2504034 6.4111381
1.9430709 -8.7438221 6.4654655
1.9451113 -9.2392797 6.5270371
1.9473437 -9.736722 6.5944104
1.9494625 -10.23468 6.6583471
1.9516355 -10.733997 6.7239227
1.953903 -11.234944 6.7923498
1.9563653 -11.738194 6.8666582
1.9589039 -12.243151 6.9432669
1.9621416 -12.753922 7.0409756
1.9669327 -13.276797 7.1855588
1.9738381 -13.816869 7.3939457
2.0306511 -14.722221 9.1084299
2.0238025 -15.178521 8.9017534
1.7074996 4.7809973 -10.9492
1.7137208 4.4556737 -10.799008
1.7200059 4.1280127 -10.647273
1.7295142 3.8049288 -10.417722
1.7395196 3.4790387 -10.176171
1.7528086 3.1550543 -9.8553457
1.7715446 2.8344684 -9.403017
1.8055662 2.5277908 -8.5816622
2.0192106 2.4230525 -3.4238291
2.449168 2.4491677 6.9562554
2.4045057 -2.885407 5.878015
2.4066305 -3.3692827 5.9293146
2.4088802 -3.8542089 5.9836278
2.4110737 -4.3399358 6.036581
2.4130645 -4.826129 6.0846405
2.4150462 -5.3131046 6.1324873
2.4170191 -5.8008471 6.1801162
2.4189465 -6.2892618 6.2266483
2.4208524 -6.778389 6.2726626
2.4227493 -7.2682481 6.3184505
2.4247224 -7.7591147 6.3660917
2.4266131 -8.2504835 6.4117303
2.4288509 -8.743865 6.4657617
2.4314015 -9.2393274 6.5273366
2.4341919 -9.7367706 6.5947084
2.4368405 -10.234734 6.6586485
2.4395568 -10.734051 6.7242241
2.4423912 -11.235002 6.7926512
2.4454691 -11.738255 6.8669591
2.4487424 -12.243715 6.9459867
2.4526896 -12.753987 7.0412784
2.4586785 -13.276867 7.1858635
2.4672976 -13.816869 7.3939457
2.5370107 -14.714664 9.0769672
2.5288055 -15.172832 8.8788738
2.0490069 4.7810144 -10.949051
2.0564575 4.4556565 -10.799157
2.0639923 4.1279826 -10.647572
2.075417 3.8049288 -10.417722
2.0874312 3.4790509 -10.176019
2.1033704 3.1550543 -9.8553457
2.1258693 2.834492 -9.4027033
2.1666877 2.5278001 -8.5814972
2.423053 2.4230525 -3.4238291
2.9343832 2.445318 6.8633451
2.8854215 -2.8854222 5.8783054
2.8879712 -3.3693018 5.9296074
2.8906856 -3.8542488 5.9842119
2.8933029 -4.3399563 6.0368729
2.895721 -4.8262048 6.0855217
2.8980994 -5.3131819 6.1333671
2.9004524 -5.8009076 6.180707
2.9027505 -6.2892938 6.2269425
2.9050376 -6.7784224 6.2729554
2.9073138 -7.2682862 6.3187466
2.9096816 -7.7591529 6.3663878
2.9119649 -8.2505693 6.4123259
2.9146507 -8.7439537 6.4663548
2.9176965 -9.2393723 6.5276327
2.9210453 -9.7368202 6.5950074
2.9242234 -10.234784 6.6589456
2.9274831 -10.734105 6.7245235
2.9308844 -11.235057 6.7929511
2.9345927 -11.738374 6.8675628
2.938581 -12.244089 6.9477992
2.9432576 -12.754117 7.0418844
2.9504294 -13.276933 7.1861658
2.9607723 -13.816941 7.3942542
3.0426252 -14.706024 9.0410023
3.0335259 -15.167632 8.8579435
2.3905079 4.7810144 -10.949051
2.3991833 4.4556241 -10.799453
2.4079823 4.1279683 -10.647721
2.42132 3.8049288 -10.417722
2.4353361 3.4790509 -10.176019
2.453932 3.1550543 -9.8553457
2.4801898 2.8344996 -9.402544
2.5278213 2.5278206 -8.5811701
2.8268948 2.4230525 -3.4238291
3.4174669 2.441046 6.7602186
3.3663588 -2.8854527 5.8788905
3.3693335 -3.369334 5.930191
3.3724663 -3.8542488 5.9842119
3.3755372 -4.3399773 6.0371642
3.3784604 -4.8263731 6.0875731
3.381218 -5.313345 6.1351318
3.383878 -5.8009338 6.1809998
3.3865764 -6.2893577 6.2275305
3.3892448 -6.7784905 6.2735467
3.3918831 -7.268322 6.3190432
3.3946459 -7.759192 6.3666821
3.3973098 -8.2506104 6.4126186
3.4004259 -8.7439537 6.4663548
3.4039965 -9.2394209 6.5279307
3.4079037 -9.7368689 6.5953059
3.4116113 -10.234837 6.659246
3.4154143 -10.73416 6.7248235
3.4193997 -11.235172 6.7935519
3.4237266 -11.738492 6.8681655
3.4283445 -12.244089 6.9477992
3.4338181 -12.754184 7.0421863
3.4422028 -13.277071 7.1867766
3.4542522 -13.817011 7.3945589
3.5465961 -14.693041 8.986969
3.5381622 -15.163553 8.8415346
2.7320189 4.7810307 -10.948905
2.7419138 4.4556084 -10.799599
2.7519698 4.127954 -10.64787
2.7672226 3.8049288 -10.417722
2.7832413 3.4790509 -10.176019
2.8044939 3.1550543 -9.8553457
2.8345237 2.8345232 -9.4022303
2.8889496 2.5278296 -8.5810051
3.230737 2.4230525 -3.4238291
3.8980134 2.4362578 6.6445904
3.8472862 -2.8854661 5.8791823
3.8507056 -3.3693681 5.9307742
3.854286 -3.8542867 5.9847975
3.8577955 -4.3400207 6.0377512
3.8611364 -4.8264227 6.088161
3.8642685 -5.3133712 6.1354246
3.8673086 -5.8009644 6.1812954
3.8703926 -6.2893882 6.2278256
3.8734422 -6.7785263 6.2738433
3.8764575 -7.2683597 6.3193393
3.8796148 -7.7592301 6.3669777
3.882679 -8.2506952 6.4132142
3.8862205 -8.7439966 6.4666519
3.890321 -9.2395134 6.5285263
3.8947666 -9.7369175 6.5956039
3.8990042 -10.234887 6.659543
3.9033904 -10.734324 6.7257223
3.9079452 -11.235346 6.7944546
3.9128704 -11.738613 6.8687677
3.918128 -12.244151 6.9480996
3.9244039 -12.754314 7.0427928
3.9339664 -13.27714 7.1870818
3.9477372 -13.817083 7.3948674
4.0491009 -14.677993 8.9243259
4.047626 -15.1786 8.9020767
3.0735214 4.7810307 -10.948905
3.0846312 4.4555774 -10.799896
3.0959439 4.127923 -10.648167
3.1131141 3.8049157 -10.417872
3.1311467 3.4790509 -10.176019
3.1550555 3.1550543 -9.8553457
3.1888628 2.8345442 -9.4019127
3.2500806 2.5278385 -8.5808401
3.6345792 2.4230525 -3.4238291
4.375679 2.4309328 6.5160213
4.3282189 -2.8854814 5.8794727
4.3320656 -3.3693871 5.931067
4.3360939 -3.8543055 5.9850903
4.3400416 -4.3400416 6.0380425
4.3438225 -4.8264694 6.0887451
4.3473458 -5.3134241 6.1360106
4.3507662 -5.8010225 6.1818824
4.3542352 -6.2894526 6.228415
4.3576665 -6.7785921 6.2744303
4.3610592 -7.2684336 6.3199315
4.3646107 -7.7593093 6.3675714
4.3680139 -8.2506952 6.4132142
4.3720646 -8.7441311 6.4675455
4.3766336 -9.2395611 6.5288253
4.3816566 -9.7370157 6.5962005
4.3864245 -10.234992 6.660141
4.3914261 -10.734597 6.7272201
4.3966403 -11.235859 6.7971578
4.4020019 -11.738673 6.8690681
4.407939 -12.244276 6.9487042
4.4149771 -12.754378 7.0430965
4.4257345 -13.277205 7.1873841
4.4412274 -13.817153 7.3951716
4.5498815 -14.660729 8.8524714
4.5536032 -15.178679 8.9023962
3.4150357 4.7810493 -10.948759
3.4273558 4.4555621 -10.800044
3.4399252 4.1279087 -10.648316
3.4589911 3.804889 -10.418174
3.4790518 3.4790509 -10.176019
3.5056171 3.1550543 -9.8553457
3.5432069 2.8345637 -9.4015961
3.6112278 2.527859 -8.580513
4.0384212 2.4230525 -3.4238291
4.8503523 2.4251747 6.3770504
4.8091564 -2.8854947 5.8797636
4.8134308 -3.3694024 5.9313574
4.8179059 -3.8543265 5.9853821
4.8222928 -4.3400664 6.0383368
4.8264933 -4.8264942 6.0890393
4.830409 -5.3134527 6.1363072
4.834209 -5.801053 6.1821775
4.8380637 -6.2894845 6.2287092
4.8418765 -6.7786283 6.2747273
4.8456697 -7.2685051 6.3205204
4.8495922 -7.7593484 6.3678656
4.8533731 -8.2507372 6.4135122
4.8578739 -8.744174 6.4678421
4.8630004 -9.2397032 6.5297189
4.8685818 -9.7371645 6.5970941
4.8738546 -10.235095 6.6607385
4.8794117 -10.734707 6.7278199
4.8852553 -11.236089 6.7983584
4.8911376 -11.738732 6.8693705
4.8977604 -12.244403 6.9493074
4.9055552 -12.754446 7.0434017
4.9175081 -13.277273 7.1876898
4.9347224 -13.817225 7.3954802
5.0479698 -14.639113 8.7624931
5.0590525 -15.177158 8.8962755
3.7565529 4.7810664 -10.94861
3.7700779 4.4555449 -10.800192
3.7838905 4.1278801 -10.648614
3.8048763 3.8048749 -10.418323
3.826957 3.4790509 -10.176019
3.8561928 3.1550655 -9.8551912
3.897542 2.8345754 -9.4014387
3.9723656 2.5278683 -8.580348
4.4422636 2.4230525 -3.4238291
5.3214135 2.4188244 6.2236991
5.2901249 -2.8855231 5.8803453
5.2947998 -3.3694196 5.9316511
5.2997499 -3.8543646 5.9859672
5.3045759 -4.3401098 6.0389237
5.3091693 -4.826519 6.0893335
5.3134766 -5.3134789 6.1366005
5.3176832 -5.8011098 6.182766
5.321897 -6.2895145 6.2290044
5.3260908 -6.7786622 6.2750206
5.3302641 -7.2685428 6.3208156
5.3345785 -7.7593884 6.368165
5.3387647 -8.2508202 6.4141035
5.3437161 -8.7442627 6.4684348
5.3495173 -9.2400761 6.5320978
5.3554673 -9.737216 6.5973964
5.3612671 -10.235148 6.6610398
5.3673801 -10.734762 6.7281189
5.3738356 -11.236202 6.7989602
5.3803062 -11.738853 6.8699722
5.3875637 -12.244465 6.9496121
5.3962765 -12.754837 7.0452185
5.4093146 -13.27741 7.1882973
5.4282222 -13.817295 7.3957844
5.5411534 -14.608497 8.6350536
5.5631957 -15.172354 8.8769407
4.0980577 4.7810664 -10.94861
4.112783 4.4555125 -10.800488
4.1278658 4.1278639 -10.648764
4.150744 3.8048472 -10.418626
4.1748624 3.4790509 -10.176019
4.2067561 3.1550655 -9.8551912
4.2518954 2.834595 -9.401123
4.3335223 2.5278862 -8.580018
4.8461061 2.4230525 -3.4238291
5.7882075 2.4117513 6.0529814
5.7711034 -2.8855538 5.8809309
5.7762036 -3.3694534 5.9322338
5.7816324 -3.8544233 5.9868441
5.7868385 -4.3401308 6.0392151
5.7918501 -4.8265438 6.0896277
5.7965784 -5.3135304 6.1371875
5.8011384 -5.8011403 6.1830621
5.8057356 -6.289547 6.2292986
5.8103099 -6.7786965 6.2753186
5.8148623 -7.268579 6.3211126
5.8195987 -7.7594657 6.3687549
5.8241367 -8.2508612 6.414402
5.8295379 -8.7443066 6.4687319
5.8360443 -9.2404041 6.5341854
5.8423576 -9.7372656 6.5976944
5.8487148 -10.235251 6.6616373
5.8553834 -10.734869 6.7287192
5.8624258 -11.236318 6.7995615
5.8694854 -11.738972 6.8705754
5.8773723 -12.244527 6.9499111
5.8871179 -12.755423 7.0479455
5.9011011 -13.277477 7.1886029
5.9217277 -13.817367 7.3960934
6.0285788 -14.569068 8.4709368
6.0647488 -15.161873 8.8347778
4.4395785 4.7810826 -10.948465
4.4554987 4.4554973 -10.800635
4.4718227 4.1278353 -10.649062
4.496623 3.8048337 -10.418777
4.5227671 3.4790509 -10.176019
4.5573192 3.1550655 -9.8551912
4.6062541 2.8346159 -9.4008055
4.6946845 2.5279067 -8.5796909
5.249948 2.4230525 -3.4238291
6.2513385 2.4043593 5.8745232
6.2520599 -2.8855689 5.8812208
6.257617 -3.3694878 5.932817
6.2635293 -3.8544822 5.9877214
6.2691069 -4.3401513 6.0395069
6.2745361 -4.8265686 6.089922
6.2796583 -5.3135567 6.1374807
6.2846303 -5.801199 6.1836491
6.2896104 -6.2896113 6.2298875
6.2945662 -6.7787662 6.275908
6.2994981 -7.2686543 6.3217044
6.3045654 -7.7594657 6.3687549
6.3095131 -8.2509022 6.4146948
6.3153644 -8.7443533 6.4690313
6.322381 -9.2404041 6.5341854
6.3292851 -9.7373629 6.5982909
6.3361077 -10.235251 6.6616373
6.3433642 -10.734924 6.7290196
6.3509936 -11.236376 6.7998629
6.3586416 -11.739032 6.8708768
6.3672185 -12.244652 6.9505157
6.3777437 -12.755488 7.0482478
6.3928919 -13.277548 7.1889081
6.4152379 -13.817437 7.3963976
6.5064096 -14.514299 8.2429695
6.5702143 -15.162035 8.8354225
4.7810845 4.7810826 -10.948465
4.7982125 4.4554815 -10.800785
4.8157921 4.12782 -10.649209
4.8425002 3.8048205 -10.418927
4.8706903 3.4790628 -10.175866
4.9078817 3.1550655 -9.8551912
4.960618 2.8346353 -9.4004879
5.0558333 2.5279143 -8.5795269
5.6537895 2.4230525 -3.4238291
6.713788 2.3977804 5.7156806
6.7330213 -2.8855822 5.8815126
6.7390394 -3.3695219 5.9334002
6.7454076 -3.8545201 5.988307
6.7513795 -4.3401742 6.0398021
6.7572608 -4.8266153 6.0905061
6.762743 -5.3135853 6.1377769
6.7680974 -5.801229 6.1839442
6.7734604 -6.2896433 6.230186
6.778832 -6.7788343 6.2764997
6.7841096 -7.2686901 6.3220005
6.7896352 -7.7595849 6.3696432
6.794929 -8.250988 6.4152904
6.8011966 -8.7443972 6.4693284
6.8087873 -9.2404985 6.5347795
6.8161879 -9.7374115 6.5985889
6.8237777 -10.235667 6.6640296
6.8316283 -10.735418 6.7317195
6.8395662 -11.236433 6.8001618
6.8478374 -11.739153 6.8714781
6.8570743 -12.244776 6.9511199
6.8684096 -12.755621 7.0488563
6.8846884 -13.277616 7.1892133
6.9087181 -13.817437 7.3963976
6.9746752 -14.447543 7.965096
8.0194235 18.711987 12.363447
8.0391512 18.222076 12.522202
8.0897169 17.797377 12.929124
8.1147346 17.311432 13.130456
8.1205091 16.782385 13.176923
8.101202 16.202404 13.02155
8.0617771 15.586103 12.704288
8.0220633 14.974517 12.38469
7.9905009 14.382903 12.130697
5.1226082 4.7810993 -10.948317
5.1409602 4.4554973 -10.800635
5.1597581 4.1278043 -10.64936
5.1883554 3.8047924 -10.41923
5.2185965 3.4790628 -10.175866
5.2584448 3.1550655 -9.8551912
5.3149676 2.8346472 -9.4003315
5.4170051 2.5279346 -8.5792007
6.057632 2.4230525 -3.4238291
7.1752181 2.3917363 5.5698056
7.2139878 -2.8855972 5.8818026
7.2204719 -3.369554 5.9339843
7.2272587 -3.8545392 5.9885993
7.2336941 -4.34022 6.0403876
7.2399583 -4.8266401 6.0908003
7.2458687 -5.3136382 6.1383629
7.2516065 -5.8012857 6.1845326
7.2573524 -6.2897081 6.2307754
7.2630711 -6.7788682 6.2767925
7.2687616 -7.268764 6.3225927
7.2746825 -7.7596641 6.3702369
7.280355 -8.2510691 6.4158826
7.2870326 -8.744441 6.4696255
7.2952032 -9.240591 6.5353751
7.3031325 -9.7375126 6.599185
7.3113389 -10.235876 6.6652288
7.3196759 -10.735528 6.7323194
7.3281817 -11.236546 6.8007636
7.3370061 -11.739211 6.8717804
7.346941 -12.244903 6.9517236
7.3590479 -12.755686 7.0491595
7.3766789 -13.278024 7.1910396
7.4022741 -13.817579 7.3970103
7.4429269 -14.38966 7.724164
8.0114861 18.52656 8.2701063
8.147934 18.33285 9.2995234
8.3754282 18.321249 11.015837
8.5540037 14.969502 12.363087
8.4948301 14.335024 11.916657
8.437027 13.710166 11.480562
8.3862352 13.103494 11.097378
8.3364601 12.50469 10.721851
8.2884827 11.914693 10.35988
8.2437544 11.335161 10.022437
8.1990252 10.761218 9.6849785
8.1546478 10.193309 9.3501806
8.1145248 9.6359959 9.0474777
8.0768785 9.0864868 8.7634573
8.0395384 8.5420094 8.481741
8.0112352 8.0112343 8.2682142
7.9989095 7.4989786 8.1752262
5.4641161 4.7810993 -10.948317
5.4836907 4.4554973 -10.800635
5.5037026 4.1277757 -10.649657
5.5342259 3.8047779 -10.419378
5.5665026 3.4790628 -10.175866
5.6090078 3.1550655 -9.8551912
5.6693411 2.8346682 -9.4000139
5.778182 2.5279527 -8.5788698
6.4614739 2.4230525 -3.4238291
7.6370645 2.3865812 5.4453144
7.6949587 -2.8856106 5.8820939
7.7018366 -3.369554 5.9339843
7.7090759 -3.8545392 5.9885993
7.7159791 -4.3402405 6.0406795
7.7226224 -4.8266401 6.0908003
7.728888 -5.313612 6.1380696
7.7350073 -5.8012571 6.1842365
7.7410975 -6.2896433 6.230186
7.7472363 -6.7788343 6.2764997
7.7533064 -7.2687283 6.3222966
7.759583 -7.7595849 6.3696432
7.7655935 -8.2509441 6.4149933
7.7727566 -8.7443533 6.4690313
7.7814322 -9.2404509 6.5344806
7.7898498 -9.7373142 6.5979924
7.7980485 -10.234941 6.6598439
7.8064227 -10.733833 6.7230244
7.8144574 -11.233283 6.783638
7.8243437 -11.736516 6.858223
7.8321347 -12.237711 6.9170036
7.8437099 -12.746031 7.0043359
7.8616815 -13.26659 7.1399202
7.8894229 -13.80649 7.3492103
7.9386292 -14.388767 7.7204437
8.0397997 18.444246 4.9157414
8.1910582 18.309423 5.9897685
8.4144106 18.313717 7.5757136
8.5903244 9.0956345 8.8248081
8.5343142 8.5343151 8.4271069
8.478899 7.9801397 8.033618
8.4281626 7.4366112 7.6733613
5.8056436 4.781116 -10.948172
5.8264422 4.4555125 -10.800488
5.8476634 4.1277614 -10.649806
5.8800726 3.8047521 -10.419681
5.9144096 3.4790628 -10.175866
5.9595714 3.1550655 -9.8551912
6.0236964 2.8346803 -9.3998575
6.1393418 2.527962 -8.5787048
6.8653164 2.4230525 -3.4238291
7.9542127 2.3394723 4.3080196
8.0685406 1.8984799 5.1198163
8.0807829 1.4260203 5.2067471
8.0939074 0.95222265 5.2999401
8.1064291 0.47684762 5.3888474
8.1170883 -1.5092265e-06 5.4645405
8.1268444 -0.47805142 5.5338125
8.1363382 -0.95721853 5.6012297
8.1453266 -1.4374123 5.6650453
8.1545382 -1.9187168 5.7304549
8.1628294 -2.4008336 5.7893319
8.1694174 -2.8833251 5.836112
8.1766729 -3.3668659 5.8876286
8.1834078 -3.851016 5.9354429
8.18612 -4.3338304 5.9547095
8.1791353 -4.8112569 5.9051104
8.154211 -5.2762566 5.7281375
8.1028013 -5.7196259 5.3630915
8.0724573 -6.1730571 5.1476283
8.0787001 -6.6530476 5.191958
8.0852337 -7.1340313 5.2383471
8.1133709 -7.636116 5.4381413
8.2034273 -8.2034283 6.0776014
8.2507763 -8.7361183 6.4138088
8.2609816 -9.2328625 6.4862719
8.2699947 -9.7294064 6.550272
8.2792387 -10.227297 6.6159077
8.2886715 -10.726517 6.6828823
8.298295 -11.227105 6.7512155
8.3083639 -11.729456 6.8227115
8.318924 -12.233713 6.8976994
8.3328342 -12.744335 6.9964676
8.3520527 -13.265025 7.1329274
8.3828135 -13.806991 7.3513565
8.079752 18.403879 2.0121324
8.230875 18.290833 3.0255809
8.4493685 18.306963 4.4908333
6.1471744 4.7811332 -10.948023
6.1691966 4.4555297 -10.80034
6.1915989 4.1277313 -10.650105
6.2259364 3.8047371 -10.419832
6.2623158 3.4790628 -10.175866
6.3101339 3.1550655 -9.8551912
6.3780317 2.8346803 -9.3998575
6.5005283 2.5279822 -8.5783787
7.2691584 2.4230525 -3.4238291
7.9707661 2.2141001 1.2812597
8.5385942 1.8974638 5.0891967
8.5526886 1.4254467 5.1837125
8.5684452 0.95204723 5.2893786
8.58426 0.47690323 5.3954353
8.5977335 -2.11464e-06 5.4857945
8.6106911 -0.4783724 5.5726867
8.6218348 -0.95798314 5.6474171
8.6300707 -1.4383463 5.702651
8.6387558 -1.9197243 5.7608919
8.6461582 -2.4017115 5.8105316
8.6530952 -2.8843663 5.8570561
8.6611748 -3.3682356 5.9112349
8.6700516 -3.853358 5.9707723
8.6722746 -4.3361392 5.9856758
8.6643057 -4.8135052 5.9322343
8.6344328 -5.2765999 5.7319026
8.5788822 -5.7192554 5.3593721
8.472394 -6.1189542 4.645246
8.2252245 -6.3973985 2.987695
8.4834328 -7.0695291 4.7192717
8.5896864 -7.6352773 5.4318309
8.6956558 -8.2125654 6.1424775
8.7469664 -8.7469673 6.4865685
8.7571316 -9.2436409 6.5547442
8.7691479 -9.7434988 6.635325
8.7794113 -10.242648 6.7041473
8.7894287 -10.742636 6.7713237
8.8009949 -11.245718 6.8488922
8.8170948 -11.756128 6.9568629
8.8293219 -12.262947 7.0388541
8.0255384 18.585457 -1.1840856
8.1155472 18.366764 -0.61224401
8.2668304 18.274044 0.34888434
8.4808922 18.300873 1.7088661
6.4886837 4.7811332 -10.948023
6.5119295 4.4555297 -10.80034
6.535553 4.127717 -10.650254
6.5717745 3.8047104 -10.420133
6.6101985 3.4790509 -10.176019
6.660697 3.1550655 -9.8551912
6.732367 2.8346803 -9.3998575
6.8617206 2.5280004 -8.5780478
7.6730003 2.4230525 -3.4238291
8.0037432 2.1062472 -1.3225555
8.9380798 -6.1155305 4.6134605
8.5100574 -6.2705698 1.8941561
8.2290316 -6.4966068 0.10874254
8.0494432 18.513716 -3.5892041
8.1480694 18.333155 -2.9939363
8.2994957 18.258888 -2.0800018
8.5116577 18.300064 -0.79948932
6.8302174 4.7811513 -10.947877
6.8546867 4.4555449 -10.800192
6.8794804 4.127687 -10.65055
6.9176326 3.8046963 -10.420282
6.9580531 3.4790237 -10.176323
7.0112858 3.155077 -9.8550339
7.0867286 2.8346901 -9.3997011
7.222918 2.5280206 -8.5777216
7.9988327 2.3996484 -3.8946595
8.373003 2.0932481 -1.6363442
8.9467516 -6.2627263 1.8265373
8.3938246 -6.2953711 -1.5106721
8.2421579 -6.593729 -2.4260654
8.0676355 18.440308 -5.7980919
8.1776876 18.302441 -5.1654987
8.3292389 18.244999 -4.2943625
8.5508947 18.323343 -3.020256
7.1717286 4.7811513 -10.947877
7.1974216 4.4555449 -10.800192
7.2234282 4.1276708 -10.6507
7.2634878 3.804683 -10.420432
7.3059292 3.4790115 -10.176475
7.3618503 3.155077 -9.8550339
7.4410648 2.8346901 -9.3997011
7.5840931 2.5280299 -8.5775566
8.0189791 2.2911355 -6.0777717
9.414607 -6.2764063 1.9444723
