# .PCD v0.7 - Point Cloud Data file format
VERSION 0.7
FIELDS x y z
SIZE 4 4 4
TYPE F F F
COUNT 1 1 1
WIDTH 1526
HEIGHT 1
VIEWPOINT 0 0 0 1 0 0 0
POINTS 1526
DATA ascii
-11.022544 11.463445 1.0496635
-11.013072 11.013071 1.0039291
-11.003869 10.563712 0.95948976
-10.996497 10.116776 0.92389649
-10.991857 9.6728315 0.90149105
-10.986012 9.2282486 0.87326884
-10.979921 8.7839365 0.84385967
-10.973285 8.339695 0.81181741
-10.975697 7.9025025 0.82346523
-10.977104 7.4644294 0.83026284
-10.977909 7.0258603 0.83414906
-11.119667 -5.7822275 1.518613
-11.145421 -6.241437 1.6429613
-11.188243 -6.7129469 1.8497295
-11.238401 -7.1925802 2.0919185
-11.295983 -7.6812701 2.3699448
-11.371559 -8.1875248 2.7348573
-11.187355 -17.899771 1.8454441
-11.134804 -18.261082 1.5917059
-10.820377 14.878016 2.2504046
-10.747839 14.330452 1.8855659
-10.703187 13.824949 1.6609874
-10.674137 13.342669 1.5148761
-10.653477 12.872949 1.4109596
-10.638844 12.411984 1.3373679
-10.624204 11.952227 1.2637299
-10.610681 11.494902 1.1957122
-10.597191 11.038738 1.1278659
-10.585245 10.585245 1.067784
-10.574056 10.133469 1.0115031
-10.563277 9.6830034 0.95729321
-10.55015 9.2313805 0.89126825
-10.49993 8.7499409 0.63868046
-10.385604 8.2219353 0.063665062
-10.22084 7.6656294 -0.7650249
-9.8229799 6.9579411 -2.766114
-10.035683 6.690454 -1.6963058
-10.245876 6.4036708 -0.63910854
-10.359136 6.0428271 -0.069459394
-10.4198 5.6440573 0.23565693
-10.448382 5.2241902 0.37941441
-10.456122 4.7923884 0.41834459
-10.454174 4.3559041 0.40854743
-10.444682 3.9167554 0.36080518
-10.435492 3.4784963 0.31457937
-10.427781 3.0414352 0.2758019
-10.420743 2.6051846 0.24040531
-10.41546 2.1698866 0.21382767
-10.412349 1.7353917 0.19818026
-10.407826 1.3009753 0.17543863
-10.404673 0.86705559 0.15957631
-10.399829 0.43332487 0.13520934
-10.391655 -1.9466554e-06 0.094100237
-10.379841 -0.43249521 0.034678135
-10.367866 -0.86398894 -0.025551876
-10.355405 -1.2944264 -0.088222027
-10.338559 -1.7230949 -0.17294748
-10.336005 -2.1533363 -0.18579692
-10.335866 -2.5839679 -0.18649651
-10.335819 -3.0146136 -0.18673143
-10.474259 -3.9278493 0.50956702
-10.505252 -4.3771906 0.66544807
-10.544928 -4.8330927 0.86500174
-10.59519 -5.2975969 1.1178017
-10.651207 -5.7694058 1.3995491
-10.724141 -6.2557516 1.7663801
-10.718596 -17.864328 1.7384851
-10.507218 -17.949833 0.67534119
-10.440383 14.97968 2.6222773
-10.357885 14.410968 2.1892998
-10.320648 13.910439 1.9938723
-10.289245 13.420753 1.8290585
-10.268448 12.947174 1.7199063
-10.247162 12.474803 1.6081957
-10.23071 12.009962 1.5218517
-10.218098 11.550891 1.4556587
-10.206083 11.093568 1.3926054
-10.192543 10.635695 1.3215386
-10.180589 10.180587 1.258795
-10.168193 9.7260971 1.1937428
-10.155828 9.2727118 1.128846
-10.107363 8.7890091 0.87448311
-9.9951019 8.2568216 0.28531328
-9.8574209 7.7145023 -0.43728071
-9.2432766 6.831986 -3.6604905
-9.6213894 6.6931396 -1.6760399
-9.8575096 6.4288096 -0.43681741
-9.9628096 6.0643177 0.11582784
-10.023366 5.6653786 0.43364617
-10.051973 5.2445064 0.58378482
-10.060367 4.8114767 0.62783748
-10.057842 4.3729739 0.61458927
-10.049819 3.9325364 0.57248265
-10.041534 3.4927058 0.52900219
-10.031621 3.0531003 0.47697133
-10.02282 2.6146479 0.43077591
-10.010304 2.1761529 0.36509764
-9.9969606 1.7386007 0.29506311
-9.9825668 1.3020711 0.21952304
-9.9678993 0.86677349 0.14254068
-9.9533195 0.43275189 0.066023186
-9.9382 -5.6516575e-07 -0.013329654
-9.9225903 -0.43141729 -0.095254332
-9.9070301 -0.8614822 -0.17691867
-9.8922729 -1.2902989 -0.25437069
-9.8030739 -1.7048845 -0.72251219
-9.8010683 -2.1306694 -0.73303258
-9.8008947 -2.5567553 -0.73394823
-9.8008509 -2.9828699 -0.73417598
-9.9746637 -3.4694505 0.17804369
-10.032123 -3.9256146 0.47960359
-10.106204 -4.3940034 0.86840612
-9.9984112 -17.823257 0.30267948
-9.8579502 -18.001476 -0.43450278
-10.06572 15.098577 3.0571969
-10.11671 14.715214 3.3369715
-9.9211979 13.979871 2.2642291
-9.89151 13.488423 2.1013374
-9.8715544 13.012505 1.991841
-9.8549023 12.542603 1.9004703
-9.8412437 12.077888 1.8255323
-9.828723 11.615764 1.7568285
-9.8170557 11.155743 1.6928135
-9.8056898 10.697116 1.6304526
-9.7945786 10.239784 1.569482
-9.7827196 9.7827177 1.5044173
-9.7705727 9.3264542 1.437771
-9.7602634 8.8729668 1.3812007
-9.752409 8.422533 1.3381118
-8.680007 7.1018205 -4.5460038
-8.6886959 6.7139916 -4.4983239
-9.2137241 6.7008891 -1.6175784
-9.7206287 6.6277008 1.1637335
-9.7105579 6.1794443 1.1084774
-9.7021151 5.7330666 1.0621492
-9.69382 5.2875361 1.016639
-9.6868296 4.8434138 0.97828162
-9.677228 4.3987389 0.92560178
-9.6671591 3.9547439 0.87035072
-9.6575518 3.5118361 0.81764191
-9.5737696 -0.43517351 0.35794407
-9.5398607 -0.86726081 0.17188573
-9.5152826 -1.2975395 0.037031163
-9.2365227 -1.6793693 -1.4924806
-9.1978502 -2.0904233 -1.70467
-9.19765 -2.5084517 -1.7057718
-9.19765 -2.9265256 -1.7057711
-9.348587 -17.847307 -0.87759644
-9.2436485 -18.067133 -1.453382
-9.6901894 15.227436 3.5285549
-9.7457333 14.85064 3.8478312
-9.5198116 14.053055 2.5492046
-9.48876 13.555371 2.3707154
-9.468586 13.075666 2.2547565
-9.4522705 12.603025 2.1609681
-9.4388857 12.13571 2.0840304
-9.4269953 11.671518 2.0156839
-9.4158401 11.209331 1.9515617
-9.4041395 10.747586 1.8843067
-9.3932133 10.287806 1.8214982
-9.3819618 9.8287201 1.7568293
-9.3706951 9.3706932 1.69206
-9.3602371 8.9145098 1.6319537
-9.3516283 8.4609966 1.5824622
-8.1197329 6.9597688 -5.4986258
-8.2606411 6.6871834 -4.6886706
-9.329957 7.1085377 1.457896
-9.3213606 6.6581135 1.4084772
-9.3124332 6.2082882 1.3571714
-9.3044281 5.7598834 1.3111511
-9.2963924 5.312223 1.2649673
-9.2879438 4.8651114 1.2163973
-9.2805357 4.419301 1.1738166
-9.2705784 3.9731023 1.1165754
-9.2620468 3.5283976 1.0675403
-8.7731085 -1.671069 -1.7429421
-8.6158552 -2.0513949 -2.6468556
-8.6156712 -2.4616206 -2.6479146
-8.6156712 -2.871892 -2.6479146
-8.7263317 -17.868204 -2.0118182
-8.6523685 -18.128773 -2.4369695
-9.3052568 15.353671 3.9903023
-9.3541079 14.966571 4.2851458
-9.1155434 14.12909 2.845284
-9.0825081 13.623762 2.6458995
-9.0620308 13.139942 2.5223041
-9.0455694 12.663794 2.4229553
-9.0329552 12.194487 2.3468165
-9.0211811 11.727535 2.2757583
-9.0104122 11.263013 2.2107596
-8.9993305 10.799195 2.1438806
-8.9869289 10.334966 2.069025
-8.9761992 9.8738174 2.0042696
-8.9672995 9.4156628 1.9505461
-8.9569931 8.9569893 1.888345
-8.9485893 8.5011597 1.8376296
-7.6009107 6.8408184 -6.2963343
-7.8844895 6.7018151 -4.5847864
-8.9262161 7.1409721 1.7025943
-8.9188251 6.6891165 1.6579834
-8.9108238 6.2375751 1.609696
-8.9029617 5.7869239 1.5622439
-8.8951139 5.3370662 1.514876
-8.8868265 4.8877525 1.4648577
-8.8792124 4.4396043 1.4188993
-8.8708725 3.99189 1.3685648
-8.8616056 3.5446408 1.3126365
-8.0551243 -2.013783 -3.5549085
-8.0550566 -2.4165173 -3.5553198
-8.0550232 -2.8192592 -3.5555232
-8.1413918 -17.911064 -3.0342379
-8.0888042 -18.199812 -3.3516374
-8.9103994 15.475956 4.4376092
-8.9456301 15.066325 4.6614299
-8.7036734 14.20073 3.1242352
-8.6736641 13.695259 2.9335821
-8.6510868 13.204288 2.7901464
-8.6350508 12.725337 2.6882629
-8.6224184 12.252909 2.6080105
-8.611249 11.783813 2.5370431
-8.6008387 11.316893 2.4709053
-8.5904131 10.851048 2.4046726
-8.57868 10.384716 2.3301222
-8.5681067 9.9209633 2.2629502
-8.559329 9.460309 2.2071843
-8.5494452 8.9994135 2.1443882
-7.0969253 7.0969234 -7.0837483
-7.1021829 6.7283835 -7.0503454
-7.4852166 6.6972976 -4.6168594
-8.5196114 7.174407 1.9548507
-8.5124836 6.7203798 1.9095693
-8.5053682 6.2671118 1.8643612
-8.498106 5.8144922 1.8182248
-8.4906187 5.362493 1.7706548
-8.4827099 4.9110422 1.7204076
-8.4742241 4.4601169 1.6664988
-8.4667788 4.0105782 1.6191977
-8.4583254 3.5613995 1.5654887
-7.5168505 -1.9781199 -4.4158826
-7.516788 -2.3737228 -4.4162793
-7.516788 -2.769345 -4.4162774
-7.517067 -3.1650827 -4.414505
-7.7169871 -17.870918 -3.1443746
-7.5817466 -17.95677 -4.0035844
-7.5581498 -18.298681 -4.1534977
-8.5182343 15.61676 4.9526629
-8.5240841 15.153926 4.9918895
-8.2891178 14.275702 3.416172
-8.2593603 13.765597 3.21661
-8.2359428 13.269016 3.0595679
-8.2212667 12.788634 2.9611495
-8.2085552 12.312833 2.8759081
-8.1971684 11.840353 2.7995446
-8.1871338 11.371017 2.7322509
-8.1775122 10.903348 2.6677237
-8.1666355 10.435145 2.5947859
-8.1563673 9.9688911 2.5259228
-8.1475477 9.5054722 2.4667809
-8.1379023 9.0421124 2.4020989
-6.5967064 6.9631882 -7.9333949
-6.686173 6.686172 -7.3334169
-7.0903254 6.6964178 -4.6231108
-8.1096373 7.2085638 2.2125499
-8.1028595 6.7523818 2.1670918
-8.0960913 6.2969589 2.121707
-8.0891838 5.8421874 2.075381
-8.0821362 5.3880892 2.0281229
-8.0746098 4.934484 1.9776466
-8.0663052 4.4812789 1.9219565
-8.0593357 4.0296669 1.8752152
-8.0510626 3.5782478 1.8197351
-6.9973655 -1.9437163 -5.2465124
-6.9973092 -2.332437 -5.2468939
-6.9974222 -2.7212222 -5.2461314
-6.9975643 -3.1100304 -5.2451797
-7.1378407 -17.844604 -4.3044653
-7.0434952 -18.000048 -4.9371567
-8.1337805 15.789102 5.5830631
-8.0949926 15.237633 5.3076477
-7.8713408 14.353621 3.7195723
-7.8405514 13.836264 3.5009525
-7.8170452 13.334961 3.334043
-7.8032708 12.852447 3.2362347
-7.7910709 12.374052 3.1496136
-7.7792816 11.897724 3.0658977
-7.7691936 11.425283 2.9942651
-7.7598705 10.955112 2.9280701
-7.7510133 10.486664 2.8651726
-7.7411084 10.017901 2.7948463
-7.7316332 9.5508394 2.727562
-7.723352 9.086297 2.6687598
-6.1234932 6.8439026 -8.6912413
-6.3168483 6.688426 -7.3182936
-7.7026896 7.7026854 2.5220463
-7.6962504 7.2435274 2.4763248
-7.6898952 6.7852001 2.4311986
-7.6834779 6.3275676 2.3856318
-7.6768899 5.870563 2.3388538
-7.6690865 5.4134707 2.2834435
-7.661983 4.9577527 2.2330048
-7.6545334 4.5026636 2.1801083
-7.6475649 4.0487089 2.1306241
-7.639606 3.5951076 2.0741093
-7.6437626 3.1474307 2.1036243
-6.4943228 -1.9100956 -6.0581164
-6.4943228 -2.292115 -6.058116
-6.494556 -2.6742322 -6.0564609
-6.4947629 -3.0563602 -6.0549908
-6.603107 -17.867233 -5.2856808
-6.5310998 -18.05657 -5.7969775
-7.6584954 15.316992 5.606998
-7.4176359 13.908066 3.7898529
-7.3944626 13.402462 3.6150224
-7.3806205 12.916083 3.510597
-7.3689189 12.435049 3.4223111
-7.3578191 11.956454 3.3385718
-7.3475266 11.480509 3.260921
-7.3385973 11.007893 3.1935532
-7.3301096 10.53703 3.1295166
-7.3215017 10.067064 3.0645792
-7.3126006 9.5977869 2.9974239
-5.676475 7.0955911 -9.3461943
-5.6743536 6.7382932 -9.3621969
-5.9431729 6.6860685 -7.3341131
-7.2849188 7.7402267 2.788579
-7.2789035 7.2789025 2.7431955
-7.2728629 6.8183074 2.6976247
-7.2668328 6.3584776 2.6521306
-7.2596784 5.8984871 2.5981572
-7.2519212 5.4389405 2.5396304
-7.2452412 4.981101 2.4892337
-7.239325 4.5245771 2.4445987
-7.2317128 4.0678368 2.3871732
-7.2240491 3.6120231 2.3293538
-7.2266703 3.1616676 2.3491285
-6.0076323 -1.8773865 -6.8478022
-6.0077262 -2.2528982 -6.8470955
-6.0081029 -2.628545 -6.8442535
-6.0084324 -3.0042176 -6.8417659
-6.0891056 -17.886749 -6.2331343
-6.038332 -18.114998 -6.6161909
-7.2178988 15.398183 5.9132762
-6.990478 13.980954 4.0831361
-6.9681878 13.471827 3.9037547
-6.9536638 12.980172 3.7868779
-6.9422493 12.496046 3.6950178
-6.9322419 12.015883 3.6144857
-6.9232302 11.538715 3.5419655
-6.9135766 11.061723 3.4642813
-6.9054093 10.588292 3.398551
-6.8972273 10.115933 3.3327148
-6.8889337 9.6445055 3.2659655
-5.2228045 6.963737 -10.142002
-5.2708006 6.6763468 -9.7557602
-5.567884 6.6814599 -7.365015
-6.8626633 7.7776833 3.0545616
-6.8568053 7.3139253 3.0074224
-6.851088 6.8510852 2.9614115
-6.845315 6.3889608 2.9149532
-6.8387384 5.9269052 2.8620334
-6.8313637 5.4650888 2.8026788
-6.8250079 5.0050039 2.7515371
-6.8195057 4.5463362 2.7072542
-6.8123655 4.087419 2.6497929
-6.8049822 3.629324 2.59038
-6.8021817 3.1743512 2.5678418
-5.5403376 -1.8467802 -7.5866914
-5.537735 -2.2150953 -7.6076379
-5.5381827 -2.5844874 -7.604033
-5.5383105 -2.9537687 -7.6030035
-5.6000423 -17.920137 -7.1062269
-5.5621982 -18.169849 -7.4107718
-6.7703166 15.475009 6.2030783
-6.5588517 14.054681 4.3797841
-6.5371904 13.541322 4.193018
-6.5226703 13.04534 4.0678263
-6.5116253 12.558133 3.9725893
-6.5018454 12.074856 3.8882709
-6.4935403 11.595608 3.8166595
-6.4844103 11.11613 3.737937
-6.4767742 10.640413 3.6720986
-6.4690318 10.165621 3.6053429
-6.4611835 9.6917744 3.5376742
-4.7952805 6.8503995 -10.826062
-4.9229145 6.6810961 -9.7255754
-6.4418001 8.2823143 3.3705437
-6.4362082 7.8153939 3.3223295
-6.4306879 7.3493567 3.2747343
-6.4252076 6.884151 3.2274833
-6.4197059 6.419704 3.1800442
-6.4135394 5.9554281 3.1268778
-6.4068651 5.4915962 3.0693269
-6.4008751 5.0292578 3.0176864
-6.3955374 4.5682387 2.9716606
-6.3890824 4.1072669 2.916003
-6.3820643 3.6468914 2.8554897
-6.378727 3.1893632 2.8267186
-6.4952688 -1.8557928 3.8315651
-5.0864735 -1.8165991 -8.3153419
-5.0848546 -2.1792259 -8.329298
-5.0855098 -2.5427563 -8.3236504
-5.0837374 -2.9049942 -8.338933
-5.2139745 -17.876486 -7.2160039
-5.1320472 -17.962168 -7.9223962
-6.3164849 15.548269 6.4794302
-6.3452373 15.13095 6.7464156
-6.1237321 14.131689 4.6896391
-6.1009173 13.609739 4.4777927
-6.0875058 13.111548 4.3532658
-6.0768785 12.621207 4.2545877
-6.0678244 12.135648 4.1705117
-6.0587382 11.651418 4.0861459
-6.0510893 11.171242 4.015121
-6.044075 10.693363 3.9499905
-6.0369892 10.216444 3.8841972
-4.3995633 7.1069851 -11.32002
-4.3892274 6.7526565 -11.41599
-4.5681782 6.6765666 -9.7543612
-6.0101452 8.3217402 3.6349351
-6.0049324 7.852603 3.5865304
-5.9997573 7.384316 3.5384774
-5.9947062 6.9169683 3.4915798
-5.9895773 6.4503155 3.4439566
-5.9838834 5.983882 3.3910801
-5.9783716 5.518497 3.3399007
-5.9727836 5.0538931 3.2880201
-5.9676642 4.5905094 3.2404792
-5.9618115 4.1274071 3.1861341
-5.9553156 3.6648097 3.1258185
-5.9505949 3.2041652 3.081986
-6.0708098 -1.8679428 4.1982365
-4.6464424 -1.7870953 -9.0276365
-4.6464257 -2.1445053 -9.0277996
-4.6472397 -2.5023623 -9.020236
-4.6452646 -2.8586261 -9.0385723
-4.7390137 -17.862438 -8.1680756
-5.858634 15.623022 6.7614174
-5.8821511 15.195553 6.9979806
-5.6837339 14.209332 5.0020556
-5.6615224 13.682013 4.7786312
-5.6477079 13.177985 4.6396666
-5.6373014 12.683927 4.5349846
-5.6289153 12.195983 4.4506297
-5.6205544 11.709488 4.3665214
-5.6133137 11.226626 4.2936869
-5.6067472 10.746263 4.227634
-5.6003327 10.267274 4.1631083
-5.593389 9.7884274 4.0932574
-4.0625558 6.7709241 -11.305737
-4.2147403 6.6733365 -9.7748756
-5.574604 8.3619051 3.9042978
-5.5697184 7.8904314 3.8551545
-5.5648146 7.4197531 3.8058262
-5.560081 6.950099 3.7582037
-5.5553012 6.4811831 3.710129
-5.5505567 6.0131021 3.6624012
-5.5458202 5.5458179 3.6147554
-5.540585 5.0788665 3.5620906
-5.5350928 4.6125741 3.5068467
-5.53017 4.1476269 3.4573247
-5.5240884 3.6827238 3.3961496
-5.5188408 3.219322 3.3433638
-5.6412821 -1.8804281 4.5750289
-4.2221656 -1.7592376 -9.7001801
-4.2211742 -2.1105886 -9.7101536
-4.2207713 -2.4621172 -9.7142067
-4.2196569 -2.8131053 -9.725421
-4.2206011 -3.1654518 -9.7159204
-5.3965249 15.69898 7.0479474
-5.416873 15.265735 7.2712417
-5.2386394 14.287197 5.3153577
-5.218133 13.756894 5.090332
-5.2033019 13.244765 4.9275756
-5.1933079 12.747207 4.8178988
-5.1853395 12.256257 4.7304626
-5.178566 11.769467 4.6561275
-5.1714797 11.283228 4.5783687
-5.1649442 10.79943 4.5066509
-5.1589046 10.31781 4.4403787
-5.1525774 9.8367376 4.370945
-3.7411325 6.8020577 -11.117829
-3.8652537 6.6763468 -9.7557602
-5.1359639 8.4043045 4.1886258
-5.1313653 7.9302874 4.1381621
-5.1262012 7.4562917 4.0814962
-5.1215949 6.9839931 4.0309496
-5.1171956 6.5127926 3.9826708
-5.1127791 6.0423722 3.9342077
-5.1083703 5.5727663 3.8858273
-5.1035738 5.1035733 3.8331885
-5.0984907 4.6349888 3.7774074
-5.0938849 4.1677227 3.7268631
-5.0882807 3.7005672 3.665364
-5.0832763 3.234812 3.6104519
-5.2050486 -1.8927468 4.946743
-3.8118773 -1.7326727 -10.341496
-3.8086696 -2.0774589 -10.376698
-3.8076515 -2.4230516 -10.38787
-3.8082156 -2.7696135 -10.381681
-3.8090961 -3.1165361 -10.372018
-4.9601026 15.872329 7.701849
-4.9460783 15.332844 7.5325565
-4.7886395 14.365921 5.6321101
-4.7689857 13.83006 5.3948631
-4.7546515 13.313021 5.2218328
-4.7450724 12.811694 5.1062026
-4.7377558 12.318165 5.0178823
-4.7316289 11.82907 4.9439211
-4.7252378 11.340569 4.8667793
-4.7188411 10.853335 4.7895656
-4.7132959 10.36925 4.7226291
-4.7075095 9.8857679 4.6527791
-3.4165208 6.8330398 -10.930834
-4.6963701 8.9231024 4.518312
-4.6925306 8.4465523 4.4719706
-4.6882396 7.970006 4.420166
-4.6836119 7.4937787 4.3643107
-4.6788573 7.0182843 4.3069172
-4.6748414 6.5447755 4.2584395
-4.6707869 6.0720224 4.2094965
-4.6666484 5.599978 4.1595411
-4.6622453 5.128468 4.1063933
-4.6576018 4.6576014 4.0503378
-4.6533961 4.1880546 3.9995728
-4.6482964 3.7186344 3.9380171
-4.6435905 3.2505136 3.8812084
-4.7614532 -1.9045813 5.3039346
-3.4496303 -1.7248166 -10.531166
-3.4088786 -2.0453296 -11.023082
-3.4087698 -2.3861418 -11.024397
-3.408685 -2.7269497 -11.025424
-3.4094486 -3.0685048 -11.016204
-4.4696894 15.395594 7.7769165
-4.3151217 13.90428 5.7038102
-4.3014174 13.382188 5.5200024
-4.2923861 12.877154 5.3988729
-4.2857337 12.381006 5.3096447
-4.280014 11.888927 5.2329354
-4.2742467 11.397989 5.1555777
-4.2683678 10.908052 5.0767317
-4.2633686 10.421567 5.0096846
-4.2581506 9.9356833 4.9396935
-3.090255 6.8672318 -10.724467
-4.2478147 8.9676056 4.801065
-4.243865 8.4877291 4.748096
-4.239944 8.0087833 4.6955047
-4.2358017 7.5303144 4.6399455
-4.2320199 7.0533633 4.5892243
-4.2284112 6.577528 4.5408216
-4.2247462 6.1024098 4.4916635
-4.221005 5.6280036 4.4414859
-4.2170434 5.1541629 4.3883572
-4.212822 4.6809115 4.3317361
-4.2082601 4.2082591 4.2705507
-4.2043023 3.7371552 4.2174659
-4.1999021 3.2665906 4.1584458
-4.3100772 -1.9155909 5.6361532
-3.0941119 -1.7189525 -10.672741
-3.0222182 -2.0148153 -11.636996
-3.0214984 -2.3500569 -11.64665
-3.0227902 -2.6869247 -11.629329
-3.0232348 -3.0232368 -11.623363
-3.9902778 15.462326 8.0367508
-3.8565152 13.979865 6.0184307
-3.8438926 13.453622 5.8279681
-3.8355296 12.94491 5.7017813
-3.8293817 12.445487 5.6090164
-3.8241491 11.950466 5.5300684
-3.8187792 11.456335 5.4490409
-3.8135192 10.963865 5.3696733
-3.8089545 10.474624 5.300797
-3.8040609 9.9856586 5.2269545
-3.7991421 9.4978552 5.1527424
-3.7946117 9.0122004 5.0843821
-3.7911224 8.5300245 5.0317316
-3.7875276 8.0484943 4.9774895
-3.7841263 7.568253 4.9261651
-3.7807682 7.0889401 4.8754973
-3.777509 6.6106405 4.8263206
-3.7741442 6.1329813 4.7755485
-3.7708406 5.6562619 4.7257051
-3.7673211 5.1800656 4.6725993
-3.7634943 4.7043667 4.6148524
-3.7591958 4.2290936 4.549994
-3.7558265 3.7558248 4.4991565
-3.7518759 3.2828894 4.4395461
-3.8511698 -1.9255881 5.9377789
-3.2223339 -2.0139611 -3.5506208
-2.647876 -1.9859071 -12.218524
-2.6478302 -2.3168542 -12.219213
-2.6480134 -2.6480148 -12.216452
-2.6471906 -2.9780915 -12.228868
-2.647346 -3.3091848 -12.226521
-3.5060325 15.526712 8.2874765
-3.3930664 14.05699 6.3394523
-3.3812864 13.525145 6.1363068
-3.3738229 13.013315 6.0076036
-3.3682005 12.510458 5.9106531
-3.3631866 12.011382 5.824192
-3.3582551 11.514017 5.7391458
-3.3541591 11.020809 5.6685143
-3.3495715 10.527224 5.5894041
-3.3452299 10.035689 5.5145345
-3.340966 9.5456161 5.4410071
-3.3373437 9.0585012 5.3785439
-3.3341267 8.5734653 5.3230681
-3.3310814 8.0897684 5.2705503
-3.3280909 7.6070623 5.2189841
-3.3251555 7.1253333 5.168364
-3.3221428 6.6442866 5.1164122
-3.318758 6.1634073 5.058044
-3.3158553 5.6843233 5.0079908
-3.3127778 5.2057905 4.9549198
-3.3094282 4.7277517 4.897162
-3.3057275 4.2502179 4.8333421
-3.3025711 3.7743661 4.7789121
-3.2991612 3.299159 4.7201109
-3.3869011 -1.9353743 6.2331314
-2.8200283 -2.0143065 -3.5422418
-2.3211231 -1.9895378 -12.145552
-2.2842627 -2.2842662 -12.781184
-2.2833612 -2.6095576 -12.796732
-2.2830117 -2.9353011 -12.802764
-2.2837265 -3.2624671 -12.790436
-2.283742 -3.5887382 -12.790168
-2.2831979 -3.9140568 -12.799546
-3.0176265 15.591068 8.5380669
-3.0307927 15.153961 8.8029528
-2.9246695 14.1359 6.6679187
-2.913558 13.596602 6.4443746
-2.9067554 13.080397 6.3075147
-2.9019449 12.575094 6.2107344
-2.8975589 12.073162 6.1224985
-2.8932011 11.572802 6.0348234
-2.8896687 11.077065 5.9637589
-2.8857689 10.581153 5.8852992
-2.881937 10.086779 5.8082056
-2.8783314 9.5944366 5.7356687
-2.8751948 9.104784 5.672564
-2.8721941 8.6165791 5.6121917
-2.8698151 8.1311436 5.5643315
-2.8672397 7.6459732 5.5125222
-2.864655 7.1616364 5.4605227
-2.8618755 6.6777077 5.4046001
-2.8589027 6.1942892 5.3447886
-2.8563895 5.7127776 5.2942309
-2.8537109 5.2318029 5.2403417
-2.8507829 4.7513037 5.1814351
-2.8480022 4.2720022 5.1254921
-2.8448186 3.7930892 5.0614429
-2.8419087 3.3155608 5.0029035
-2.9162762 -1.9441849 6.4990606
-2.4175735 -2.0146451 -3.5340664
-1.9964677 -1.9964705 -12.00606
-1.9629982 -2.2901659 -12.679415
-1.939787 -2.5863855 -13.146385
-1.9298549 -2.8947845 -13.346208
-1.9289488 -3.2149153 -13.364437
-1.9286383 -3.5358381 -13.370684
-1.9284378 -3.8568766 -13.374716
-1.9287806 -4.1790271 -13.367817
-1.9273845 -4.4972329 -13.395905
-1.9278173 -4.8195453 -13.387198
-2.5246229 15.65266 8.7778978
-2.5350783 15.210471 9.0303154
-2.4509213 14.215343 6.9985843
-2.4411969 13.670699 6.7638197
-2.4350207 13.149111 6.6147122
-2.4307601 12.639952 6.5118566
-2.4270799 12.135399 6.4230061
-2.4234107 11.632371 6.3344216
-2.4204369 11.134008 6.2626243
-2.4172142 10.635741 6.1848254
-2.4139757 10.138699 6.106648
-2.4109766 9.6439037 6.0342379
-2.4082632 9.1513987 5.9687281
-2.4056642 8.6603918 5.9059858
-2.403758 8.1727743 5.8599668
-2.40153 7.684896 5.8061743
-2.3989937 7.196979 5.744945
-2.3967865 6.710999 5.6916547
-2.3945711 6.2258816 5.6381726
-2.3924198 5.7418075 5.5862341
-2.3901887 5.2584133 5.532372
-2.3877952 4.7755885 5.4745898
-2.3853948 4.2937078 5.4166369
-2.3826911 3.812305 5.3513632
-2.380218 3.3323045 5.2916632
-2.4405754 -1.9524623 6.7488165
-2.0149834 -2.0149858 -3.5258873
-1.7176697 -2.0612054 -10.703671
-1.6645724 -2.3304031 -11.985555
-1.6242734 -2.5988379 -12.958459
-1.6093842 -2.8968949 -13.317916
-1.5975827 -3.1951673 -13.602832
-1.5876288 -3.492785 -13.843138
-1.5848465 -3.8036332 -13.910309
-1.5839823 -4.1183567 -13.93117
-1.5833702 -4.4334383 -13.945951
-1.5906056 -4.7718201 -13.77127
-1.5899144 -5.087728 -13.787959
-1.5892239 -5.4033642 -13.804628
-1.5886286 -5.7190652 -13.818999
-1.5908009 -6.0450444 -13.766557
-2.035394 15.774303 9.2515574
-2.0352101 15.264076 9.2460146
-1.9720311 14.297225 7.3394175
-1.9637998 13.746599 7.0910149
-1.9585638 13.220303 6.9330006
-1.9546101 12.704966 6.8136888
-1.9516752 12.19797 6.7251215
-1.9490265 11.694158 6.6451912
-1.9462664 11.191031 6.5618958
-1.9437013 10.690357 6.484489
-1.9412117 10.191359 6.4093556
-1.9386305 9.6931496 6.3314624
-1.9363298 9.197566 6.2620344
-1.9343177 8.7044277 6.2013097
-1.9327382 8.2141342 6.153646
-1.9309764 7.7239051 6.1004839
-1.9290626 7.2339859 6.0427294
-1.9272108 6.7452364 5.9868431
-1.9255463 6.2580252 5.9366093
-1.9236336 5.7709012 5.878891
-1.9218403 5.2850604 5.8247733
-1.9200504 4.8001246 5.7707558
-1.9180813 4.3156829 5.7113361
-1.9158292 3.8316574 5.6433735
-1.9138784 3.3492856 5.5845032
-1.9602158 -1.9602158 6.9828563
-1.6124136 -2.0155184 -3.5129991
-1.3795791 -2.0693703 -10.539404
-1.3377253 -2.3410208 -11.802454
-1.3213739 -2.6427505 -12.2959
-1.2933179 -2.9099655 -13.14257
-1.2838991 -3.209748 -13.426809
-1.276203 -3.5095582 -13.659057
-1.2691404 -3.8074219 -13.87219
-1.2633573 -4.1059141 -14.046708
-1.2582457 -4.403862 -14.200965
-1.2703682 -4.7638822 -13.835138
-1.2689136 -5.0756574 -13.879032
-1.2674665 -5.386735 -13.922702
-1.2660227 -5.697103 -13.966273
-1.2645823 -6.0067677 -14.009742
-1.2632908 -6.3164563 -14.048717
-1.2622095 -6.6266007 -14.081348
-1.2611384 -6.9362626 -14.11367
-1.2600691 -7.2454 -14.145936
-1.2590017 -7.5540137 -14.178148
-1.2579361 -7.862103 -14.210306
-1.2568723 -8.1696711 -14.242413
-1.2558514 -8.4769983 -14.273221
-1.2553662 -8.7875662 -14.28786
-1.2548363 -9.0975647 -14.303854
-1.2543026 -9.4072714 -14.319957
-1.2537655 -9.7166843 -14.336169
-1.2532285 -10.025829 -14.35237
-1.254356 -10.348437 -14.318348
-1.2560818 -10.676698 -14.266266
-1.5317166 15.317164 9.4596252
-1.487446 14.378641 7.6783142
-1.481019 13.822844 7.4197135
-1.4768056 13.291247 7.2501793
-1.4736121 12.771302 7.1216841
-1.471373 12.26144 7.0315866
-1.4694932 11.755945 6.955956
-1.4674237 11.250247 6.8726802
-1.4654496 10.746631 6.7932525
-1.4636372 10.245458 6.7203269
-1.4614282 9.7428551 6.6314402
-1.4597887 9.2453279 6.565475
-1.4584043 8.7504253 6.5097723
-1.4568971 8.2557497 6.4491267
-1.4555845 7.7631168 6.3963108
-1.4543184 7.2715926 6.3453689
-1.4530032 6.7806778 6.2924452
-1.4517269 6.2908154 6.2410903
-1.4501457 5.8005834 6.1774688
-1.4486774 5.3118181 6.1183877
-1.4472775 4.8242564 6.0620656
-1.4460405 4.3381205 6.0122843
-1.4441235 3.8509939 5.9351511
-1.4428699 3.3666949 5.8847165
-1.4755553 -1.9674091 7.199873
-1.209702 -2.0161719 -3.4972377
-1.0387993 -2.077599 -10.373833
-1.0078897 -2.3517454 -11.617534
-0.99551433 -2.6547065 -12.115487
-0.98372835 -2.9511874 -12.589713
-0.97721004 -3.2573676 -12.851994
-0.97077096 -3.5594957 -13.111083
-0.95627701 -3.825109 -13.694275
-0.95182693 -4.1245852 -13.873329
-0.94854933 -4.4265652 -14.00521
-0.95595914 -6.054409 -13.707065
-0.95349008 -6.3566017 -13.806411
-0.95103371 -6.6572385 -13.905246
-0.94927573 -6.9613566 -13.975985
-0.9477272 -7.2659097 -14.038292
-0.94613385 -7.5690732 -14.1024
-0.94454598 -7.8712187 -14.166293
-0.94297564 -8.1724577 -14.229478
-0.94187933 -8.4769163 -14.273591
-0.94080395 -8.780839 -14.31686
-0.93973404 -9.0840979 -14.359908
-0.93867278 -9.3867302 -14.402611
-0.93761694 -9.6887102 -14.445096
-0.93656343 -9.9900122 -14.487485
-0.93550932 -10.290605 -14.529899
-0.93454862 -10.591553 -14.568556
-0.93375969 -10.893866 -14.600301
-0.93297511 -11.195703 -14.631871
-0.93218881 -11.496997 -14.663507
-0.93140686 -11.797822 -14.69497
-0.93062317 -12.098104 -14.726502
-0.92984688 -12.397961 -14.757739
-0.92907184 -12.697315 -14.788926
-0.92861283 -13.000582 -14.807394
-0.92823815 -13.304749 -14.822471
-0.9278518 -13.608496 -14.838013
-0.9274658 -13.911988 -14.853547
-0.92708009 -14.21523 -14.869066
-0.92717874 -14.525802 -14.865098
-0.92867279 -14.858766 -14.804981
-1.0245003 15.367503 9.6621714
-0.99288368 13.90037 7.7539401
-0.98981315 13.362476 7.5686207
-0.98762572 12.839133 7.4365993
-0.98604596 12.325576 7.3412514
-0.98478478 11.817419 7.2651358
-0.98341084 11.309225 7.1822066
-0.98206586 10.802726 7.1010308
-0.98088515 10.299293 7.029768
-0.97941196 9.794117 6.9408522
-0.97830242 9.2938738 6.873889
-0.97731006 8.7957878 6.8139915
-0.97627985 8.2983761 6.7518139
-0.97540069 7.8032036 6.6987529
-0.97454298 7.309073 6.6469831
-0.97361255 6.8152847 6.5908289
-0.9726938 6.3225069 6.535377
-0.97166348 5.829977 6.4731913
-0.97073853 5.3390594 6.417366
-0.96978593 4.8489265 6.3598709
-0.96893805 4.3602195 6.3086982
-0.96767628 3.8707027 6.232543
-0.96690035 3.38415 6.1857076
-0.98701555 -1.9740319 7.3997731
-0.80673265 -2.0168333 -3.4812636
-0.69529808 -2.0858958 -10.206936
-0.67501616 -2.3625576 -11.431058
-0.66669261 -2.6667714 -11.93343
-0.65893847 -2.9652245 -12.401432
-0.65455163 -3.2727597 -12.666203
-0.65021837 -3.5762024 -12.927739
-0.64658695 -3.8795235 -13.146914
-0.64387691 -4.1851997 -13.31048
-0.64118946 -4.488327 -13.472678
-0.62705904 -10.660005 -14.32553
-0.62541032 -10.944682 -14.425037
-0.62425572 -11.236605 -14.494723
-0.62327749 -11.530636 -14.553761
-0.62230444 -11.823785 -14.612497
-0.62133229 -12.115983 -14.671165
-0.62031108 -12.406225 -14.732801
-0.61947125 -12.699163 -14.78349
-0.61876148 -12.993993 -14.826325
-0.61805737 -13.288235 -14.868826
-0.61736482 -13.582026 -14.910628
-0.61667174 -13.875115 -14.952456
-0.61598027 -14.167547 -14.99419
-0.61529034 -14.459325 -15.03583
-0.6146512 -14.751632 -15.074404
-0.61414129 -15.046462 -15.105183
-0.51381516 15.414454 9.8510876
-0.4992601 13.979281 8.0941362
-0.49764019 13.436285 7.898602
-0.49645981 12.907953 7.7561135
-0.49567428 12.391856 7.661293
-0.49501646 11.880393 7.5818868
-0.49432981 11.369585 7.4989958
-0.49363488 10.859967 7.4151096
-0.49301034 10.353216 7.3397231
-0.49230391 9.8460779 7.2544508
-0.49172309 9.3427353 7.18434
-0.49118891 8.8414001 7.119863
-0.49067101 8.3414078 7.0573425
-0.49022937 7.8436675 7.0040331
-0.48980105 7.3470135 6.9523273
-0.48934099 6.8507729 6.8967938
-0.48879704 6.3543582 6.8311338
-0.4883289 5.8599467 6.7746286
-0.48787907 5.3666673 6.7203259
-0.48741025 4.8741012 6.6637335
-0.48690024 4.3821001 6.6021695
-0.48635185 3.8908124 6.5359721
-0.48594502 3.4016125 6.4868674
-0.49501646 -1.9800658 7.5818849
-0.40349707 -2.0174866 -3.4654825
-0.349044 -2.0942662 -10.038548
-0.33906841 -2.3734806 -11.242713
-0.33486709 -2.6789365 -11.749853
-0.33104396 -2.9793978 -12.21135
-0.32882959 -3.2882984 -12.478647
-0.32664239 -3.5930679 -12.742665
-0.32486132 -3.8983369 -12.957661
-0.32349423 -4.2054272 -13.12268
-0.32213753 -4.5099282 -13.286448
-0.3095246 -14.857184 -14.808962
-0.30857113 -15.119986 -14.924061
7.6310002e-24 15.460196 10.03514
1.9377595e-23 15.008029 10.298101
1.4567642e-23 14.0602 8.4429808
9.8603282e-24 13.511123 8.2331924
1.1607611e-23 12.978668 8.0844097
1.3571956e-23 12.45931 7.9869843
-2.7632938e-24 11.942436 7.8939219
2.8223461e-25 11.428639 7.8089223
1.699967e-24 10.918326 7.7353258
2.2154936e-24 10.40717 7.6498461
8.7077267e-24 9.8986921 7.5720143
7.7989195e-24 9.3914423 7.4937673
9.6843373e-24 8.8869371 7.4252386
1.4089559e-24 8.3844938 7.363296
4.5485061e-24 7.8839884 7.3082147
1.0329727e-23 7.3847485 7.2559786
1.2741401e-23 6.8860292 7.2007885
-2.7275244e-24 6.3878465 7.1420484
1.0496052e-23 5.8911271 7.0882826
9.5772557e-24 5.3951697 7.0330977
1.5546468e-23 4.8998613 6.9746947
1.3018192e-23 4.405035 6.9097657
5.110635e-24 3.911412 6.8467836
1.6080772e-23 3.41905 6.7875433
3.0389659e-24 -1.9857883 7.7545629
6.9780419e-24 -2.0181406 -3.4496925
7.4781024e-24 -2.1026952 -9.8689585
1.5393314e-23 -2.3844962 -11.052762
1.3935078e-23 -2.6912258 -11.56445
1.5898789e-23 -2.993695 -12.019577
9.497636e-24 -3.3039844 -12.289303
1.1479108e-23 -3.6100938 -12.555835
3.8505879e-25 -3.9173472 -12.766432
6.8675012e-24 -4.2258339 -12.933194
-1.116041e-24 -4.531734 -13.098421
0.51752114 15.525636 10.298438
0.51862711 15.040186 10.43194
0.50511879 14.143325 8.8013468
0.50312251 13.584306 8.5603704
0.50185293 13.048174 8.4071217
0.50102669 12.525668 8.3073845
0.50028145 12.006754 8.2174282
0.4995437 11.489502 8.1283703
0.49893266 10.976518 8.054616
0.49821439 10.462501 7.9679093
0.49754983 9.9509945 7.8876891
0.496887 9.4408522 7.8076787
0.49629018 8.9332209 7.7356381
0.49578196 8.4282904 7.6742892
0.49531063 7.9249687 7.6173897
0.49487081 7.4230599 7.564302
0.49443689 6.9221168 7.5119219
0.49399099 6.4218807 7.4580994
0.49354082 5.9224901 7.4037604
0.49306867 5.4237537 7.3467612
0.49257964 4.925796 7.2877355
0.49204868 4.4284372 7.2236433
0.49147856 3.9318254 7.1548223
0.49094239 3.4365964 7.0901036
0.4977074 -1.9908314 7.9067101
0.40375879 -2.0187957 -3.4338884
0.35186523 -2.1111937 -9.6979971
0.34223145 -2.3956203 -10.860898
0.33795312 -2.7036271 -11.377337
0.33423775 -3.0081429 -11.825818
0.33198175 -3.3198183 -12.098145
0.32975256 -3.6272805 -12.36723
0.32804301 -3.9365184 -12.573597
0.32665017 -4.2464542 -12.741723
0.32526693 -4.5537391 -12.908695
0.5573023 -14.48986 15.100447
0.55824023 -15.072488 15.213667
0.5607022 -15.699663 15.510853
0.56209946 -16.300888 15.679525
0.56154305 -16.846294 15.612353
0.55920088 -17.335228 15.329627
0.55722451 -17.831186 15.091061
1.0456209 15.684314 10.936923
1.0386759 15.060799 10.51775
1.0160681 14.224953 9.1532488
1.0117997 13.659295 8.8956299
1.0092006 13.119608 8.7387571
1.0074241 12.5928 8.6315384
1.0059229 12.071074 8.5409317
1.0044421 11.551083 8.4515533
1.0031965 11.03516 8.3763742
1.0017759 10.518645 8.290638
1.0004272 10.004271 8.2092333
0.99906659 9.4911318 8.1271105
0.99781346 8.9803209 8.0514812
0.99681216 8.4729004 7.9910479
0.99586463 7.9669156 7.9338608
0.994955 7.4621596 7.8789601
0.99406254 6.958437 7.8250947
0.99320251 6.4558167 7.773191
0.99227726 5.9536629 7.7173419
0.99117941 5.4514861 7.6510835
0.9901557 4.9507761 7.589294
0.98926669 4.4516993 7.5356359
0.98809397 3.9523771 7.46486
0.987041 3.4546432 7.4013042
0.99783939 -1.9956814 8.0530481
0.80777955 -2.0194497 -3.4180789
0.70658857 -2.1197691 -9.5254917
0.68766922 -2.4068437 -10.667379
0.67903507 -2.7161417 -11.188498
0.67171699 -3.0227268 -11.630181
0.66716123 -3.3358076 -11.905145
0.66266006 -3.6446328 -12.176817
0.65931237 -3.9558749 -12.378865
0.65650386 -4.2672768 -12.548376
0.65371019 -4.575973 -12.716984
1.1004719 -12.655428 14.247461
1.1009585 -13.211501 14.27683
1.105268 -13.815852 14.536939
1.1127996 -14.466394 14.991506
1.1081429 -17.730286 14.710445
1.1000992 -18.151638 14.224976
1.558588 15.066351 10.540855
1.5331945 14.309815 9.5190973
1.5262942 13.73665 9.2414494
1.5224401 13.194478 9.0863676
1.5193434 12.661193 8.9617682
1.517011 12.136089 8.8679247
1.5146461 11.612288 8.7727642
1.5128692 11.094373 8.7012691
1.5107235 10.575063 8.6149254
1.5086787 10.057857 8.5326519
1.5066789 9.5423002 8.4521894
1.5046372 9.0278225 8.3700361
1.5031666 8.5179424 8.3108625
1.5017143 8.0091429 8.2524328
1.5003433 7.5017166 8.1972647
1.4989825 6.9952497 8.1425142
1.4976789 6.4899421 8.0900564
1.4961828 5.9847279 8.0298615
1.4944956 5.4798141 7.9619699
1.4929206 4.9763994 7.8985996
1.4917281 4.4751844 7.8506145
1.4898193 3.9728508 7.7738109
1.4883697 3.4728622 7.7154822
1.4998583 -1.9998127 8.1777449
1.2120677 -2.0201144 -3.4020488
1.0642011 -2.1284053 -9.3517399
1.0363623 -2.4181798 -10.47189
1.0232896 -2.7287719 -10.997897
1.0124816 -3.0374472 -11.432778
1.005585 -3.3519521 -11.710276
0.99876773 -3.6621504 -11.984578
0.99385601 -3.975426 -12.182209
0.98960501 -4.2882905 -12.353258
0.98537666 -4.5984263 -12.523394
1.6296514 -11.407561 13.400222
1.6344491 -11.985962 13.593268
1.6427776 -12.594627 13.928372
1.6297808 -17.927591 13.405428
2.077847 15.064391 10.532695
2.0566828 14.396777 9.8940039
2.0467365 13.81547 9.5938492
2.0411797 13.267664 9.4261618
2.036886 12.730537 9.2965822
2.0338285 12.202971 9.2043152
2.0305436 11.675624 9.1051846
2.0279875 11.153933 9.0280504
2.0252991 10.63282 8.9469137
2.0224466 10.112235 8.8608408
2.0198472 9.5942717 8.7823954
2.016777 9.0754967 8.689743
2.0148695 8.5631914 8.6321774
2.0129867 8.0519438 8.5753565
2.0111284 7.5417295 8.5192814
2.0093052 7.0325675 8.464263
2.0075378 6.5244956 8.4109278
2.0055742 6.0167193 8.3516722
2.0032272 5.5088725 8.2808409
2.001199 5.0029964 8.2196379
1.999498 4.4988685 8.1683054
1.9969468 3.9938917 8.0913124
1.9950038 3.4912543 8.0326805
2.0035622 -2.0035639 8.2909517
1.6166149 -2.0207703 -3.3862166
1.4247396 -2.13711 -9.1765661
1.3883506 -2.4296155 -10.274705
1.370756 -2.7415133 -10.805665
1.3565855 -3.0523205 -11.233299
1.3473001 -3.3682504 -11.513514
1.3381221 -3.6798382 -11.790479
1.3317227 -3.9951692 -11.9836
1.3260075 -4.3095264 -12.156074
1.3222352 -4.6278248 -12.269912
2.1445529 -9.6504898 12.54572
2.1493976 -10.20964 12.691921
2.1591525 -10.795764 12.986309
2.1565299 -17.791372 12.907156
2.145813 -18.239412 12.583751
2.6096828 15.136159 10.831433
2.6028521 14.575969 10.66652
2.5736279 13.897592 9.96099
2.5655005 13.340602 9.7647724
2.5602381 12.801191 9.6377296
2.5561147 12.269349 9.5381804
2.5522628 11.74041 9.4451857
2.5485175 11.213476 9.354763
2.5451071 10.689449 9.2724304
2.541827 10.167307 9.1932478
2.5381122 9.644824 9.1035614
2.5348504 9.1254606 9.0248156
2.5321586 8.6093378 8.9598312
2.53002 8.0960627 8.9081993
2.5276585 7.5829763 8.8511858
2.5253811 7.0710659 8.7962027
2.5226164 6.5588026 8.7294617
2.5200171 6.0480399 8.6667023
2.5175946 5.5387063 8.6082239
2.5150714 5.0301414 8.5473061
2.5125532 4.5225964 8.4865112
2.5093043 4.0148854 8.4080706
2.50685 3.5095899 8.3488207
2.4609003 -1.9687213 7.2395024
2.0214248 -2.0214272 -3.3703749
1.7882402 -2.1458902 -8.9999495
1.7436899 -2.4411681 -10.075489
1.7214885 -2.7543843 -10.611478
1.7040758 -3.0673389 -11.031857
1.6923549 -3.384711 -11.314828
1.6807706 -3.6976967 -11.594498
1.6729622 -4.0151114 -11.783007
1.6657584 -4.3309736 -11.956923
1.6653416 -4.6629586 -11.966985
2.6477711 -7.9433165 11.750969
2.6503923 -8.4812565 11.814238
2.6610899 -9.0477076 12.072505
2.6794174 -9.6459045 12.514972
2.6474788 -18.002859 11.743907
3.1204739 14.562211 10.607202
3.1066363 13.979861 10.328807
3.096184 13.416794 10.118525
3.089515 12.872976 9.9843512
3.0837834 12.335133 9.8690443
3.0795896 11.805092 9.7846718
3.0751932 11.275706 9.6962242
3.0706456 10.747259 9.6047306
3.0661604 10.220534 9.5144958
3.0622587 9.6971502 9.4360008
3.0587249 9.1761732 9.3649044
3.0549071 8.6555681 9.2880974
3.0519569 8.1385527 9.2287416
3.049077 7.6226902 9.1708002
3.0463798 7.1082191 9.1165447
3.0433335 6.5938878 9.0552521
3.04055 6.0810995 8.999259
3.0376756 5.5690694 8.9414282
3.0345986 5.0576625 8.8795176
3.031224 4.5468364 8.8116302
3.0274744 4.0366297 8.7361956
3.0241952 3.5282269 8.6702213
2.9524286 -1.9682884 7.2263885
2.4262521 -2.0218775 -3.3594656
2.1547475 -2.1547475 -8.8217182
2.102417 -2.4528203 -9.874527
2.0755293 -2.7673743 -10.415461
2.0550027 -3.0825078 -10.828424
2.0407987 -3.4013333 -11.114187
2.0267613 -3.7157304 -11.396601
2.0176251 -4.0352526 -11.580404
2.0089009 -4.3526201 -11.755922
2.0142829 -4.6999965 -11.647644
3.1666024 -7.9165068 11.53523
3.1471958 -17.834112 11.144804
3.1481087 -18.36397 11.163172
3.6416988 14.046554 10.62696
3.6293097 13.480292 10.413317
3.621006 12.932161 10.270123
3.6147249 12.393343 10.161811
3.6091645 11.85868 10.065926
3.6037953 11.326214 9.9733362
3.5997162 10.799145 9.9029922
3.5967448 10.276411 9.8517542
3.5923545 9.7506771 9.7760458
3.5878408 9.225872 9.6982088
3.5834913 8.7027636 9.6232042
3.5797062 8.1821852 9.5579348
3.576272 7.6634378 9.4987125
3.5730727 7.1461468 9.4435463
3.5698602 6.6297383 9.3881464
3.5666156 6.1141982 9.3321962
3.5632632 5.5994134 9.2743893
3.559634 5.0851893 9.2118053
3.555654 4.5715561 9.1431732
3.5512695 4.0585909 9.067565
3.5471959 3.5471954 8.9973164
3.4437222 -1.967841 7.2129736
2.8301141 -2.0215132 -3.3683162
2.5242839 -2.1636734 -8.6421719
2.4645855 -2.4645863 -9.6716347
2.4329257 -2.7804892 -10.217587
2.409409 -3.0978138 -10.623118
2.3926816 -3.4181175 -10.91157
2.3761432 -3.733942 -11.196769
2.3657634 -4.0555959 -11.375757
2.355499 -4.3745003 -11.552762
3.6148419 -18.074209 10.163825
4.1647892 13.014968 10.669935
4.1549063 12.46472 10.520807
4.1480517 11.925647 10.417378
4.1419129 11.390261 10.324759
4.1362615 10.857682 10.239474
4.1303353 10.325838 10.150063
4.1241384 9.7948275 10.056555
4.1177382 9.2649107 9.9599886
4.0874076 8.6857424 9.5023298
4.074573 8.1491432 9.3086672
4.0739236 7.6386046 9.2988672
4.0729065 7.1275849 9.2835274
4.0720196 6.6170311 9.2701464
4.0719767 6.1079621 9.269495
4.0737071 5.6013455 9.2956047
4.079493 5.0993638 9.3829098
4.0802746 4.5903072 9.394701
4.0763922 4.0763893 9.3361187
4.0723228 3.563282 9.2747135
4.0690598 3.051795 9.2254829
4.0663195 2.5414493 9.1841383
4.0678725 2.0339353 9.207572
4.0703988 1.5263984 9.2456884
4.0721493 1.0180358 9.2721062
4.0715876 0.50894737 9.2636232
4.0684123 -9.1990256e-07 9.2157106
4.0655866 -0.50819939 9.1730785
4.0633893 -1.0158479 9.139925
4.0577993 -1.5216751 9.0555754
3.934814 -1.9674091 7.199873
3.2338161 -2.021136 -3.3773715
2.8968942 -2.1726718 -8.4611282
2.8302555 -2.4764762 -9.466629
2.7937253 -2.7937279 -10.017827
2.7673626 -3.1132848 -10.41561
2.748055 -3.4350698 -10.706944
2.7292092 -3.7526641 -10.991303
2.7174299 -4.076148 -11.169036
2.7055993 -4.3966002 -11.347548
4.0897837 -17.892805 9.5381804
4.5649519 8.115469 9.0546055
4.5483942 7.5806537 8.8325262
4.545949 7.0714765 8.7997379
4.5466204 6.5673413 8.8087368
4.5709982 6.0946631 9.1357031
4.6001234 5.6223707 9.5263367
4.6148376 5.1275964 9.72369
4.6168137 4.6168122 9.7501869
4.6130366 4.1004777 9.6995306
4.6061649 3.5825729 9.6073723
4.6021848 3.0681229 9.5539808
4.5960798 2.5533786 9.4721022
4.5898447 2.0399292 9.3884773
4.5819225 1.5273058 9.2822189
4.5738578 1.0164126 9.1740532
4.5663052 0.50736666 9.072751
4.559114 9.1513698e-08 8.9763041
4.5522823 -0.50580895 8.8846722
4.5456619 -1.0101482 8.7958851
4.5395627 -1.5131881 8.7140789
4.4256897 -1.9669739 7.1867752
3.6373837 -2.0207703 -3.3862166
3.2726293 -2.1817546 -8.2784119
3.1994588 -2.4884679 -9.259798
3.1579659 -2.8070822 -9.8163128
3.1289093 -3.128911 -10.206023
3.1069708 -3.4521921 -10.500272
3.0860655 -3.7718613 -10.780656
3.0726786 -4.0969062 -10.960209
3.0592444 -4.41891 -11.140394
4.5760169 -17.795624 9.2030144
4.5374618 -18.149847 8.6859007
5.0289817 7.5434718 8.5332909
5.007257 7.0101609 8.2710543
5.0365119 6.5474634 8.6241903
5.0690575 -1.5207168 9.017046
4.9160709 -1.9664295 7.1703377
4.0408049 -2.0204029 -3.3950605
3.651505 -2.1909034 -8.0943241
3.5722687 -2.5005894 -9.0507898
3.5257185 -2.8205755 -9.6127052
3.4941041 -3.1446939 -9.994319
3.4694819 -3.4694831 -10.291535
3.4465916 -3.7912517 -10.567847
3.4315641 -4.1178784 -10.749248
3.4165087 -4.441463 -10.930981
4.9861608 -17.95018 8.0163975
5.5573902 7.5782561 8.8132362
5.4478259 6.9335961 7.6109056
5.5565119 6.5667839 8.8035946
5.4053221 -1.9655727 7.1444798
4.4434614 -2.0197568 -3.4106815
4.0335722 -2.2001314 -7.9086871
3.9487133 -2.5128176 -8.8399
3.8970234 -2.8342006 -9.4071293
3.862988 -3.1606293 -9.7806225
3.8356295 -3.486938 -10.08085
3.8108442 -3.8108459 -10.352836
3.7941427 -4.1390667 -10.53611
3.7774384 -4.4642472 -10.719419
5.4437757 -17.815994 7.5664616
5.4199357 -18.230694 7.3048511
5.8774624 6.8570361 6.9508181
5.8366365 -1.9455469 6.5401425
4.8456769 -2.0190334 -3.4281397
4.4188881 -2.2094455 -7.7213101
4.3288746 -2.5251777 -8.6267719
4.2719331 -2.8479571 -9.1995573
4.2356448 -3.176734 -9.5645943
4.2054949 -3.5045815 -9.8678751
4.1788812 -3.8306429 -10.135591
4.1604719 -4.1604743 -10.320768
4.1420755 -4.4872494 -10.505826
5.8439603 -18.018879 6.6138158
6.299562 6.7841411 6.3222966
6.2501788 -1.9231344 5.86375
5.2475824 -2.0183039 -3.445792
4.8074613 -2.2188292 -7.5325117
4.7127762 -2.5376506 -8.4117031
4.6504998 -2.8618484 -8.9899607
4.6121187 -3.1930072 -9.3463497
4.5791225 -3.5224028 -9.6527386
4.5507622 -3.8506458 -9.9160748
4.5306101 -4.1821032 -10.103191
4.5105062 -4.5105085 -10.289865
6.276432 -17.863693 6.1075249
6.2696743 -18.326742 6.0447798
6.7086873 7.1878767 5.6716962
6.7370772 6.7370763 5.916481
6.6548615 -1.9013903 5.2076006
5.6491966 -2.0175714 -3.4634328
5.199007 -2.2281475 -7.3450546
5.1005077 -2.5502546 -8.1943321
5.0327592 -2.8758643 -8.7784739
4.9924688 -3.209446 -9.125865
4.9565506 -3.540396 -9.4355574
4.9265471 -3.8708608 -9.6942558
4.9046173 -4.2039595 -9.883338
4.8827758 -4.5340066 -10.071661
6.6622949 -18.083372 5.2716918
7.1015439 7.1015439 4.9769254
7.2249708 6.7433028 5.9701881
7.0517759 -1.8804741 4.5764208
6.0505462 -2.01685 -3.4808533
5.5937247 -2.2374914 -7.1570678
5.4921532 -2.5630057 -7.974453
5.4188018 -2.8900285 -8.5647411
5.3767366 -3.2260425 -8.9032545
5.3378749 -3.5585849 -9.2159901
5.3062983 -3.8912878 -9.4700975
5.2825546 -4.2260466 -9.6611729
5.2589259 -4.5577359 -9.8513222
7.0726562 -17.917398 4.7444582
7.4912906 7.0230851 4.3455348
7.6984348 6.7361283 5.9083176
7.4400163 -1.8600039 3.9587009
6.451581 -2.0161216 -3.4984679
5.9917669 -2.2469151 -6.9674959
5.8877792 -2.5759053 -7.7520223
5.8087091 -2.904355 -8.3485613
5.7650208 -3.2428243 -8.6781673
5.7231369 -3.5769639 -8.9941521
5.6900792 -3.9119301 -9.2435598
5.6644831 -4.2483654 -9.4366617
5.6390548 -4.5817332 -9.6285048
7.500669 -17.814091 4.4162922
7.4454703 -18.148333 3.999845
7.8730898 6.9468446 3.7319953
8.1691723 6.7275538 5.8343649
7.8198209 -1.839958 3.3537524
6.852355 -2.0154004 -3.5158644
6.3934269 -2.256505 -6.7745433
6.2874074 -2.5889342 -7.5273466
6.2030454 -2.919081 -8.1263695
6.1574121 -3.2598093 -8.4503937
6.1124225 -3.5955446 -8.7698479
6.07793 -3.932781 -9.0147629
6.0504675 -4.2709193 -9.2097683
6.0345597 -4.6146646 -9.3227234
7.8327885 -17.969339 3.4458296
8.2472401 6.8726988 3.1353357
8.1910982 -1.8202463 2.7588375
7.2528119 -2.0146708 -3.5334542
6.7988782 -2.2662952 -6.5775967
6.6910996 -2.6020954 -7.3003798
6.6027646 -2.9345629 -7.892766
6.5539103 -3.2769563 -8.2203903
6.5057735 -3.6143215 -8.5432014
6.469914 -3.9538369 -8.7836828
6.4405241 -4.2936854 -8.980773
6.4403796 -4.6513882 -8.981741
8.2346458 -17.841734 3.0508718
8.2007923 -18.223984 2.8238451
8.6139374 6.8004761 2.5541208
8.5544643 -1.8009418 2.1762795
7.6529794 -2.0139425 -3.5510299
7.2078347 -2.2761583 -6.3791199
7.0989165 -2.6153934 -7.0710959
7.0067196 -2.9501984 -7.6568422
6.9546022 -3.2942877 -7.9879546
6.903254 -3.6332948 -8.3141775
6.866118 -3.9751234 -8.5501099
6.8347611 -4.3166924 -8.7493277
6.8526592 -4.688663 -8.6356182
8.5654068 -18.032436 2.2457981
8.9842749 6.7382059 2.0530119
8.910203 -1.7820419 1.6059449
8.0554628 -2.0138674 -3.5528681
7.6203976 -2.2861207 -6.1787229
7.510952 -2.628835 -6.8392816
7.4150019 -2.9660013 -7.4183917
7.3595548 -3.3118014 -7.753046
7.3049302 -3.6524675 -8.0827341
7.2666106 -3.9966376 -8.3140106
7.2332463 -4.3399501 -8.5153837
8.9444981 -17.888998 1.8129328
8.926465 -18.299257 1.7040989
9.3230867 7.1033025 1.4184059
9.4147825 6.724844 1.9454855
9.2576599 -1.7633648 1.0423201
8.4607248 -2.0144613 -3.538563
8.039443 -2.2969844 -5.9601417
7.9272146 -2.6424062 -6.6052465
7.827682 -2.9819767 -7.177371
7.7688661 -3.3295145 -7.5154576
7.7108674 -3.6718431 -7.8488364
7.6714625 -4.0183873 -8.0753403
7.6360483 -4.3634586 -8.2789078
9.3710442 -17.849607 1.6940655
9.2662678 -18.091286 1.0917996
9.6640568 7.0284038 0.85333598
9.8648129 6.7260079 1.9548506
9.5977335 -1.7450426 0.48942715
8.8702526 -2.0159688 -3.5021527
8.4666023 -2.3090754 -5.7169185
8.3477964 -2.6561189 -6.3687859
8.2448635 -2.9981332 -6.9335675
8.1825476 -3.3474076 -7.2754822
8.1211042 -3.6914117 -7.612617
8.0807133 -4.0403585 -7.8342319
8.0432377 -4.3872218 -8.0398579
9.6255941 -17.93861 0.64229685
9.6415691 -18.406633 0.72994465
9.9985018 6.9554791 0.30315328
10.303478 6.7196598 1.9037551
9.9306803 -1.7270768 -0.052798085
9.2833242 -2.0181165 -3.4503057
8.8982811 -2.3212926 -5.4711246
8.7726278 -2.6699331 -6.1305904
8.6665564 -3.014456 -6.6872811
8.6006994 -3.3654938 -7.0329194
8.5357695 -3.7112057 -7.3736906
8.4944973 -4.0625887 -7.5902963
8.4549522 -4.4112811 -7.7978458
10.005989 -17.836765 0.34245047
9.9379759 -18.14761 -0.014504978
10.327422 6.8849468 -0.22897001
10.258028 -1.7096721 -0.57799178
9.6972361 -2.0202575 -3.3985565
9.3345528 -2.3336389 -5.2227144
9.2018995 -2.683888 -5.8899064
9.0928669 -3.030957 -6.438302
9.0233946 -3.383775 -6.7877178
8.95508 -3.7312851 -7.1313114
8.9128599 -4.0850616 -7.3436651
8.871172 -4.4355879 -7.5533385
10.277733 -17.986034 -0.4788827
10.654425 6.8188305 -0.72777301
10.583704 -1.6933932 -1.0692455
10.11839 -2.0236795 -3.3159783
9.7755299 -2.3461292 -4.9714551
9.6356831 -2.6979921 -5.6466899
9.5238695 -3.0476403 -6.1865797
9.4507065 -3.4022551 -6.5398412
9.3803482 -3.7521417 -6.8795581
9.3358765 -4.1077862 -7.0942893
9.2920399 -4.4601803 -7.3059478
10.633294 -17.863935 -0.82980442
10.591937 -18.218134 -1.0294915
10.979027 6.7563219 -1.1993569
10.985704 -1.6901089 -1.1683542
10.57124 -2.032933 -3.0925939
10.22121 -2.358743 -4.7176857
10.074092 -2.7122562 -5.4007163
9.9596825 -3.0645182 -5.9318891
9.8827124 -3.4209404 -6.2892399
9.8103971 -3.773231 -6.6249771
9.7636261 -4.1307659 -6.842123
9.7175636 -4.4850316 -7.0559726
10.910014 -18.043486 -1.5197668
11.288764 7.107738 -1.7024683
11.343384 6.7220035 -1.4582728
11.367248 -1.6840383 -1.3515888
11.028251 -2.0422714 -2.8671598
10.67171 -2.3714912 -4.4611731
10.517118 -2.7266614 -5.1523175
10.400308 -3.0815759 -5.6745458
10.319448 -3.4398184 -6.0360513
10.245307 -3.7945592 -6.3675179
10.196229 -4.1540217 -6.5869379
10.147896 -4.5101771 -6.8030233
11.246529 -17.91114 -1.8912904
11.22244 -18.288422 -1.9989866
11.761498 7.1409092 -1.4669415
11.788722 6.7364116 -1.3495774
11.490364 -2.051852 -2.6358294
11.127106 -2.3843801 -4.2018719
10.964873 -2.741221 -4.9012685
10.845866 -3.0988212 -5.4143219
10.761073 -3.4589176 -5.7798729
10.685163 -3.8161299 -6.107131
10.633771 -4.1775556 -6.3286819
10.58308 -4.5356078 -6.5472159
