# .PCD v0.7 - Point Cloud Data file format
VERSION 0.7
FIELDS x y z
SIZE 4 4 4
TYPE F F F
COUNT 1 1 1
WIDTH 1522
HEIGHT 1
VIEWPOINT 0 0 0 1 0 0 0
POINTS 1522
DATA ascii
-10.263288 11.818332 -10.33141
-10.271338 11.516351 -10.301958
-10.278421 11.212825 -10.27605
-10.289775 10.9134 -10.234522
-10.305755 10.618052 -10.176068
-10.321822 10.321823 -10.117297
-10.338049 10.024776 -10.057941
-10.354327 9.7267933 -9.9983959
-10.372952 9.4299564 -9.9302711
-10.407681 9.1461449 -9.803236
-10.44328 8.8609657 -9.6730137
-10.05037 10.992595 -9.9613905
-10.039701 10.667185 -10.001635
-10.038379 10.352078 -10.006624
-10.045177 10.045177 -9.9809828
-10.052449 9.7383108 -9.9535484
-10.059769 9.4310341 -9.9259367
-10.066775 9.1230164 -9.8995066
-10.075556 8.8161125 -9.8663845
-10.091356 8.5145836 -9.8067799
-10.107279 8.2121649 -9.7467155
-10.123325 7.9088483 -9.6861858
-10.139422 7.6045675 -9.6254654
-10.155534 7.2992916 -9.5646868
-10.191191 7.0064454 -9.4301853
-10.226393 6.711071 -9.2973957
-9.8409395 8.8885918 -9.5539169
-9.8301687 8.5617619 -9.5958586
-9.8229542 8.2386084 -9.6239519
-9.8296738 7.9271579 -9.5977869
-9.837039 7.6157737 -9.5691042
-9.8439207 7.3035541 -9.5423126
-9.8508453 6.9909234 -9.5153465
-9.8577805 6.6778517 -9.4883404
-9.872715 6.3694949 -9.4301853
-9.888484 6.0606842 -9.3687849
-9.9043388 5.7509074 -9.3070488
-9.9201717 5.4400959 -9.2453966
-9.9360924 5.1283073 -9.1834049
-9.9683418 4.8233919 -9.0578299
-10.005161 4.5184603 -8.9144573
-9.6272049 6.7390442 -9.1366034
-9.6163073 6.4108729 -9.1804476
-9.6057854 6.0836654 -9.2227869
-9.6098375 5.7659035 -9.2064819
-9.616868 5.4495606 -9.178195
-9.6236973 5.1326394 -9.150713
-9.6305027 4.8152533 -9.123332
-9.637352 4.4974318 -9.0957718
-9.6497412 4.1815562 -9.0459232
-9.665308 3.8661242 -8.9832888
-9.6808882 3.5496604 -8.9205952
-9.6965561 3.2321866 -8.8575554
-9.718811 2.9156439 -8.7680073
-9.3977547 4.2127872 -8.7559223
-9.3872547 3.884382 -8.7996254
-9.3854609 3.5600033 -8.8070917
-9.3927774 3.2388892 -8.7766361
-9.4068909 2.9193809 -8.7178888
-9.4230633 2.5994666 -8.6505737
-9.4691753 2.2856631 -8.4586334
-9.7560987 1.34567 -7.2643352
-9.17838 2.6223967 -8.3046093
-9.1761608 2.2940416 -8.3141766
-9.2063389 1.9727889 -8.1840725
-9.233017 1.3190036 -8.0690632
-8.9424715 1.9872171 -7.8937874
-8.740757 1.6186601 -8.7956066
-8.7883053 1.3019716 -8.5830269
-8.8082809 2.0326827 -6.9791155
-8.3222904 1.6004432 -9.2354298
-8.4077234 1.2934974 -8.8387909
-8.6942778 1.0031869 -7.5083981
-12.019056 18.749731 10.159652
-11.984841 18.216963 9.9944525
-11.950887 17.687315 9.8305073
-11.91706 17.160566 9.6671724
-11.883423 16.636795 9.5047617
-11.849977 16.115967 9.3432646
-11.81678 15.59815 9.1829805
-11.786609 15.086859 9.0372972
-11.757845 14.579729 8.8984175
-11.725788 14.070945 8.7436275
-11.693842 13.564858 8.5893812
-11.662131 13.061587 8.4362669
-11.630592 12.561041 8.2839832
-11.599163 12.063129 8.1322269
-11.567963 11.567965 7.9815822
-11.53687 11.075398 7.8314514
-11.506063 10.585581 7.6827083
-11.475362 10.098321 7.5344672
-11.444883 9.6137028 7.3873034
-11.414566 9.1316538 7.2409191
-11.384351 8.6521082 7.0950255
-11.354353 8.1751375 6.9501815
-11.324512 7.7006683 6.8061023
-11.294771 7.2286558 6.6624975
-11.265243 6.7591457 6.5199203
-11.232487 6.2901959 6.361762
-11.199465 5.8237257 6.2023201
-11.166581 5.3599601 6.0435381
-11.133945 4.8989367 5.8859582
-11.101499 4.4406013 5.7292976
-11.072359 3.9860513 5.5885954
-11.0416 3.5333123 5.4400783
-11.002207 3.0806193 5.249877
-8.7215366 2.0931699 -5.7621789
-7.9458933 1.589179 -9.5073175
-8.0357571 1.2857221 -9.0734129
-8.2456179 0.98947465 -8.0601177
-8.3576126 2.0894039 -5.8379354
-7.5799975 1.5791669 -9.7490396
-7.6812215 1.280206 -9.2399235
-7.8581753 0.98227316 -8.3499155
-8.0329456 2.0955513 -5.7142529
-7.228498 1.5714129 -9.9362268
-7.3271966 1.2742958 -9.4182262
-7.4868875 0.97655255 -8.5801239
-9.9487896 0.86511409 4.3406572
-7.7540064 2.1147287 -5.3284202
-6.8865461 1.5651257 -10.088045
-6.990418 1.2709857 -9.5181131
-7.1338716 0.97280008 -8.7310066
-9.3426142 0.84932947 3.3880301
-9.5463333 0.43392515 4.505805
-9.6440668 8.7392903e-07 5.042057
-9.7093525 -0.44133285 5.4002743
-9.7551546 -0.88683063 5.6515789
-7.6968327 2.1990962 -3.6311059
-6.5492907 1.5593549 -10.227324
-6.6554089 1.267698 -9.6173439
-6.7841282 0.96916282 -8.8774481
-8.9350958 0.85096294 3.4865885
-9.0509186 0.43099669 4.1523499
-9.1195526 2.744371e-07 4.5468698
-9.1943054 -0.43782264 4.9765606
-9.2522554 -0.88116443 5.3096652
-9.2943783 -1.3277682 5.5517926
-9.3272343 -1.7766137 5.7406492
-9.3545952 -2.227284 5.897922
-9.3787384 -2.6796384 6.0367036
-9.4001408 -3.1333785 6.1597233
-7.7242289 2.3172688 -1.2536383
-6.2204156 1.5551045 -10.329953
-6.3244662 1.2648934 -9.701952
-6.4445281 0.96668094 -8.977314
-8.5490971 0.85491168 3.7248802
-8.6570311 0.43285283 4.3763247
-8.7217112 1.3312738e-06 4.7667012
-8.7635822 -0.43817785 5.0194163
-8.8008423 -0.88008237 5.2443023
-8.8289413 -1.3243395 5.4138908
-8.8517895 -1.770358 5.5517931
-8.8745327 -2.2186325 5.6890597
-8.9021597 -2.6706467 5.8558035
-8.9252081 -3.1238227 5.9949121
-8.9474211 -3.578968 6.1289854
-8.9675093 -4.035378 6.2502213
-8.9857149 -4.492857 6.3601041
-9.0027981 -4.9515367 6.4632111
-9.0190697 -5.4114399 6.5614181
-9.0450039 -5.879251 6.7179422
-5.8978362 1.5520636 -10.403388
-5.9972186 1.2625724 -9.7719927
-6.1065292 0.96418989 -9.0775166
-8.1638784 0.85935712 3.9932153
-8.2588005 0.4346745 4.596282
-8.3197327 6.0663785e-07 4.9833922
-8.3625965 -0.44013476 5.2557144
-8.3934679 -0.88352191 5.4518433
-8.4191837 -1.3293445 5.6152248
-8.4402027 -1.7768841 5.7487631
-8.4586325 -2.2259541 5.86585
-8.4756832 -2.6765311 5.9741778
-8.4900455 -3.1279094 6.0654206
-8.5033331 -3.5803499 6.1498399
-8.5164013 -4.0340848 6.2328682
-8.5291195 -4.4890089 6.3136654
-8.5413084 -4.9449673 6.3911061
-8.5594387 -5.4059601 6.5062904
-8.5771627 -5.8685822 6.6188908
-8.5941648 -6.3325424 6.7269135
-8.6101274 -6.7974687 6.8283267
-8.625617 -7.2636747 6.9267278
-8.6408033 -7.731245 7.0232162
-8.6656818 -8.2095909 7.1812706
-7.263855 2.4212852 0.83900893
-5.5763788 1.5489955 -10.477457
-5.6711698 1.2602608 -9.8417749
-5.7722845 0.96204913 -9.1636848
-7.7714682 0.86349851 4.2431402
-7.8588395 0.4366028 4.8290668
-7.9140363 1.0882731e-06 5.1992264
-7.9535017 -0.44185966 5.4638801
-7.9802446 -0.88669318 5.6432276
-8.005187 -1.3341959 5.8104949
-8.024312 -1.7831787 5.9387455
-8.0424261 -2.234005 6.0602217
-8.0576315 -2.6858759 6.1621947
-8.0705109 -3.1385314 6.2485676
-8.0830612 -3.5924699 6.332727
-8.0944519 -4.047224 6.4091134
-8.1055422 -4.5030789 6.4834924
-8.1167059 -4.9602084 6.5583525
-8.1278572 -5.41857 6.6331401
-8.1394577 -5.8784966 6.7109346
-8.1518459 -6.3403225 6.7940111
-8.1636 -6.8029995 6.8728328
-8.1759777 -7.2675343 6.9558377
-8.1898298 -7.7348385 7.0487385
-8.2059813 -8.2059803 7.1570506
-8.2222385 -8.6790276 7.2660723
-8.237319 -9.1525745 7.3672056
-8.2527132 -9.6281633 7.4704394
-8.2681646 -10.105532 7.5740557
-8.2930765 -10.596706 7.7411203
-6.8922329 2.4325552 1.0657026
-5.2562823 1.5459653 -10.550579
-5.3494835 1.2587031 -9.8887892
-5.4432187 0.96056819 -9.2232084
-7.3700671 0.86706859 4.4586229
-7.4545712 0.4385041 5.0586557
-7.5048633 1.2315343e-06 5.4157581
-7.5408454 -0.44357798 5.6712551
-7.5643888 -0.88992745 5.8384309
-7.5880032 -1.3390577 6.0061049
-7.6048832 -1.7893839 6.1259675
-7.6207914 -2.2414076 6.238925
-7.6344304 -2.6945035 6.3357668
-7.646204 -3.1484361 6.4193707
-7.6576223 -3.603586 6.5004497
-7.6670332 -4.0590172 6.5672708
-7.677176 -4.5159841 6.6392879
-7.6877394 -4.9744182 6.7142978
-7.6983328 -5.4341154 6.7895155
-7.7098284 -5.8957496 6.8711395
-7.7205219 -6.3580761 6.947073
-7.7312856 -6.8217225 7.0235004
-7.7430396 -7.2875652 7.1069632
-7.7561555 -7.7561545 7.2000952
-7.7684288 -8.2253942 7.2872443
-7.7817116 -8.6972055 7.3815603
-7.7955675 -9.1712542 7.4799452
-7.8097992 -9.647398 7.5809975
-7.824532 -10.125866 7.6856127
-7.8391981 -10.605972 7.7897472
-7.8563499 -11.091316 7.9115381
-7.8713427 -11.575501 8.0179911
-7.8870978 -12.062619 8.1298666
-7.9031253 -12.552022 8.2436733
-6.5199714 2.4449911 1.3159
-4.9396667 1.5436474 -10.606571
-5.0294175 1.2573558 -9.9294577
-5.1180615 0.95963585 -9.2606869
-6.9702597 0.87128431 4.7130647
-7.0434189 0.44021416 5.2650099
-7.0895543 1.2430843e-06 5.6130714
-7.1210079 -0.44506338 5.8503733
-7.1431704 -0.89289427 6.0175757
-7.1652522 -1.3434844 6.1841736
-7.1797085 -1.7949263 6.2932363
-7.1950679 -2.2484562 6.409112
-7.2068424 -2.7025635 6.4979448
-7.218286 -3.1579993 6.5842829
-7.22895 -3.6144731 6.6647348
-7.2382326 -4.0715051 6.7347674
-7.2475019 -4.5296879 6.8046961
-7.2564583 -4.9888129 6.8722672
-7.2665234 -5.4498916 6.948204
-7.2766166 -5.9122491 7.0243497
-7.2867379 -6.375895 7.1007113
-7.2968493 -6.840795 7.1769943
-7.3082018 -7.3082004 7.2626433
-7.3197794 -7.7772651 7.3499894
-7.3315463 -8.2479887 7.4387655
-7.3435426 -8.7204552 7.5292706
-7.3567305 -9.1959114 7.6287622
-7.3705435 -9.6738377 7.732975
-7.3846416 -10.15388 7.8393345
-7.3991036 -10.636211 7.9484444
-7.4150267 -11.122538 8.0685749
-7.4294124 -11.608456 8.1771069
-7.4454274 -12.098819 8.2979307
-6.140799 2.456321 1.5438473
-4.6248913 1.5416319 -10.655233
-4.7102208 1.25606 -9.9685535
-4.797451 0.9594903 -9.2665758
-6.5622725 0.87497073 4.9356084
-6.6252255 0.44168255 5.4422154
-6.6684642 2.0453717e-06 5.7901735
-6.6973672 -0.44648999 6.0227656
-6.7182102 -0.89575934 6.1904955
-6.7378078 -1.3475617 6.3482099
-6.7515121 -1.8004023 6.4584904
-6.7654796 -2.2551591 6.5708947
-6.7762022 -2.7104802 6.6571832
-6.786087 -3.1668403 6.7367291
-6.795651 -3.6243467 6.8136969
-6.8040857 -4.0824494 6.8815713
-6.812366 -4.5415764 6.948204
-6.8206658 -5.0018206 7.0149984
-6.8292332 -5.4633861 7.0839429
-6.8387427 -5.926909 7.1604686
-6.8487754 -6.392189 7.2412062
-6.8588018 -6.8588014 7.3218937
-6.8693938 -7.3273516 7.4071288
-6.8809857 -7.7984495 7.5004153
-6.8922215 -8.2706633 7.5908318
-6.9033136 -8.7441969 7.6800966
-6.9157443 -9.2209921 7.7801332
-6.9289832 -9.7005758 7.8866696
-6.9422364 -10.181946 7.9933224
-6.9555769 -10.665218 8.1006794
-6.9705868 -11.152938 8.221467
-6.9856615 -11.642767 8.3427792
-7.0003557 -12.133948 8.4610329
-5.7570472 2.4673059 1.7648809
-4.3114185 1.5397925 -10.699607
-4.3928227 1.2550939 -9.9977226
-6.0581951 1.2981863 4.3614345
-6.1503267 0.87862051 5.1558123
-6.2067628 0.44334027 5.6424184
-6.244102 7.4017134e-07 5.9643612
-6.2688947 -0.44777671 6.1781268
-6.2890701 -0.89843667 6.3520794
-6.3068581 -1.351469 6.5054545
-6.3192697 -1.8055047 6.6124706
-6.3320227 -2.2614348 6.7224269
-6.340879 -2.7175183 6.7987909
-6.3498912 -3.1749451 6.8764963
-6.3583722 -3.633353 6.9496169
-6.3658891 -4.0923548 7.0144305
-6.3736219 -4.5525846 7.0811014
-6.3814392 -5.0139861 7.1485047
-6.3895078 -5.4767189 7.2180724
-6.3977952 -5.9408078 7.2895336
-6.4065371 -6.4065356 7.3649101
-6.4159713 -6.8742542 7.446249
-6.4259014 -7.3438854 7.531868
-6.4363327 -7.8155456 7.6218109
-6.4472365 -8.2893038 7.7158251
-6.4581771 -8.7646675 7.8101559
-6.4703426 -9.2433453 7.91505
-6.483202 -9.7248011 8.0259266
-6.4961467 -10.20823 8.137537
-6.5091434 -10.693591 8.2495966
-6.5233307 -11.182852 8.3719225
-6.5373378 -11.673816 8.492691
-6.5514393 -12.166958 8.6142788
-5.3682113 2.4776368 1.9727045
-4.0002289 1.5385504 -10.729608
-4.0759134 1.2541285 -10.026846
-5.6504521 1.3039508 4.5934324
-5.7345867 0.88224494 5.3746595
-5.7835684 0.44489023 5.8294783
-5.8164735 5.5435061e-07 6.1350203
-5.8375583 -0.44904119 6.3307934
-5.8560987 -0.9009369 6.5029521
-5.8713837 -1.3549331 6.6448793
-5.8826957 -1.8100587 6.7499161
-5.8944459 -2.2670929 6.8590217
-5.9022851 -2.7241294 6.9318128
-5.9106641 -3.1826644 7.0096149
-5.9183936 -3.6420884 7.0813875
-5.925622 -4.1023536 7.1485076
-5.932868 -4.5637436 7.2157879
-5.9400706 -5.0262122 7.2826648
-5.9475989 -5.4900913 7.3525724
-5.9553323 -5.9553313 7.4243827
-5.9630861 -6.4217839 7.496377
-5.9711404 -6.8897772 7.571166
-5.9804969 -7.360611 7.6580448
-5.9901962 -7.8333325 7.7481036
-5.999927 -8.3075876 7.8384571
-6.0100994 -8.7839899 7.9329157
-6.0215721 -9.263957 8.0394506
-6.0334396 -9.7463245 8.1496391
-6.0454812 -10.230814 8.2614517
-6.0576029 -10.717297 8.3740063
-6.0718012 -11.209477 8.5058422
-6.0858397 -11.703538 8.636198
-6.0990009 -12.198002 8.7584076
-4.9735532 2.4867792 2.1565976
-3.692132 1.5383902 -10.733501
-3.7603204 1.2534407 -10.047581
-5.2389927 1.3097507 4.826714
-5.3121948 0.88536799 5.5630684
-5.3555861 0.44629988 5.9995518
-5.3846717 1.0832661e-06 6.2921314
-5.4026451 -0.45021948 6.4729319
-5.4202113 -0.90336764 6.6496315
-5.4331675 -1.3582908 6.7799611
-5.4436612 -1.8145523 6.8855209
-5.4537454 -2.2723927 6.9869571
-5.4608464 -2.7304225 7.0583887
-5.4679651 -3.1896441 7.1300025
-5.475018 -3.6500101 7.2009497
-5.4812651 -4.1109467 7.2637854
-5.487412 -4.5728416 7.3256178
-5.4936013 -5.0358005 7.3878789
-5.5002909 -5.5002894 7.4551725
-5.5076575 -5.9666276 7.5292702
-5.5153022 -6.4345183 7.6061745
-5.5229392 -6.9036736 7.6829987
-5.531611 -7.3754807 7.7702303
-5.541007 -7.8497586 7.8647437
-5.550406 -8.3256092 7.95929
-5.5598369 -8.8030739 8.0541573
-5.5707965 -9.2846584 8.164402
-5.5818291 -9.7681999 8.2753839
-5.592876 -10.253605 8.386507
-5.6040854 -10.741165 8.4992676
-5.6173997 -11.234797 8.633194
-5.6307769 -11.730783 8.7677584
-5.644248 -12.229202 8.9032679
-4.5769887 2.4965417 2.3530047
-3.3820679 1.5373052 -10.75969
-3.4460163 1.2530984 -10.05794
-4.8216252 1.3149903 5.0375805
-4.8836007 0.88792926 5.7176776
-4.9228573 0.44753459 6.1484656
-4.9487567 2.1445551e-06 6.4326811
-4.9661074 -0.4514623 6.6230807
-4.9805822 -0.90555769 6.7819262
-4.9911284 -1.3612163 6.8976502
-5.0003242 -1.8182993 6.9985685
-5.0093212 -2.2769623 7.0972986
-5.0156231 -2.7357922 7.16645
-5.0223312 -3.1960268 7.2400622
-5.0281959 -3.6568685 7.3044186
-5.0337338 -4.1185088 7.3651962
-5.0394158 -4.5812845 7.4275446
-5.045084 -5.045083 7.4897485
-5.0512915 -5.510499 7.5578671
-5.057673 -5.9772491 7.6278973
-5.064415 -6.4456191 7.7018762
-5.0714397 -6.9155989 7.7789669
-5.0794697 -7.3883181 7.8670826
-5.0877652 -7.8629084 7.958118
-5.0964098 -8.3395796 8.0529785
-5.1051102 -8.8179188 8.1484594
-5.1155963 -9.3010817 8.2635241
-5.1260705 -9.7861338 8.3784704
-5.1365337 -10.273067 8.493288
-5.1473131 -10.762564 8.6115789
-5.1598959 -11.257953 8.7496586
-5.1720438 -11.754643 8.8829613
-5.18472 -12.254793 9.0220699
-4.1739326 2.5043595 2.5103385
-3.0747683 1.5373852 -10.757747
-3.1323855 1.2529563 -10.062243
-4.3991685 1.3197522 5.2291789
-4.4537129 0.89074409 5.8875895
-4.486815 0.44868284 6.2871661
-4.5092344 1.0009993e-06 6.557795
-4.5251274 -0.45251074 6.7496343
-4.5377169 -0.90754122 6.9016013
-4.546946 -1.3640829 7.0130134
-4.5550351 -1.8220123 7.1106606
-4.5624208 -2.2812088 7.1998067
-4.5682893 -2.7409735 7.2706504
-4.5742207 -3.2019539 7.342247
-4.5795722 -3.6636569 7.4068441
-4.5847692 -4.1262903 7.469573
-4.5898337 -4.5898323 7.5307155
-4.5949101 -5.0544004 7.5919914
-4.6006227 -5.5207448 7.660944
-4.6064453 -5.988378 7.7312312
-4.6122828 -6.4571943 7.8016977
-4.6183777 -6.9275656 7.8752661
-4.625751 -7.4012017 7.9642758
-4.6333189 -7.8766413 8.055625
-4.6409116 -8.3536406 8.1472769
-4.6488485 -8.8328104 8.2430782
-4.6585116 -9.3170214 8.359725
-4.6682153 -9.8032494 8.4768572
-4.6778598 -10.291289 8.5932779
-4.6878686 -10.782097 8.714098
-4.6996751 -11.279219 8.8566132
-4.7112637 -11.778158 8.9965048
-4.7232647 -12.280489 9.1413689
-3.7680745 2.5120518 2.665055
-2.7663159 1.5368434 -10.77083
-2.8186457 1.2527324 -10.068965
-3.9706151 1.3235395 5.3815932
-4.0183387 0.89296508 6.0216737
-4.0462961 0.44958955 6.3966432
-4.0662427 1.5586094e-06 6.664176
-4.0808539 -0.45342758 6.8601508
-4.0915756 -0.9092381 7.0039496
-4.0991502 -1.3663815 7.1055408
-4.1062217 -1.8249854 7.2003779
-4.1128044 -2.2848902 7.2886734
-4.1179752 -2.7453151 7.3580203
-4.1232014 -3.2069342 7.4281216
-4.1280107 -3.6693416 7.4926295
-4.1325302 -4.1325293 7.5532446
-4.13693 -4.5965877 7.6122518
-4.1413174 -5.0616083 7.6710987
-4.1463428 -5.5284557 7.7385015
-4.1517501 -5.9969711 7.8110285
-4.1572375 -6.4668121 7.8846221
-4.1627388 -6.9378967 7.9584107
-4.1694827 -7.4124122 8.0488615
-4.1765122 -7.8889666 8.1431456
-4.1835442 -8.3670864 8.2374525
-4.1907539 -8.8471479 8.3341608
-4.199635 -9.3325214 8.4532728
-4.2085981 -9.8200617 8.5734911
-4.217443 -10.309304 8.6921167
-4.2267756 -10.801759 8.8172913
-4.2374406 -11.299839 8.9603291
-4.2481589 -11.80044 9.1040907
-4.2582231 -12.301532 9.239069
-3.3579872 2.5184915 2.7946334
-2.4590077 1.5368804 -10.769923
-2.5050087 1.2525065 -10.075821
-3.5403066 1.3276161 5.5456195
-3.5798414 0.89496243 6.1421528
-3.6040294 0.45050451 6.5071235
-3.621125 2.7684237e-06 6.7650738
-3.633374 -0.45417127 6.9499002
-3.6429546 -0.91073871 7.0944567
-3.6493695 -1.3685112 7.1912503
-3.6555986 -1.8277967 7.2852397
-3.6611068 -2.2881911 7.3683529
-3.6654873 -2.7491131 7.4344487
-3.6701648 -3.2113931 7.5050297
-3.6742413 -3.6742406 7.5665393
-3.6781731 -4.1379447 7.6258674
-3.6820943 -4.6026173 7.6850314
-3.6860237 -5.0682807 7.7443213
-3.6905026 -5.5357528 7.8119054
-3.6950896 -6.0045204 7.881115
-3.699882 -6.4747915 7.9534254
-3.7047648 -6.9464331 8.0271015
-3.7107742 -7.4215469 8.1177731
-3.7168813 -7.8983717 8.2099276
-3.723166 -8.3771219 8.3047543
-3.7296498 -8.8579178 8.4025898
-3.7375236 -9.3438082 8.5213957
-3.7454705 -9.8318586 8.641304
-3.7534912 -10.3221 8.7623272
-3.7621491 -10.816177 8.8929634
-3.7719972 -11.315992 9.041563
-3.7814913 -11.817158 9.1848164
-3.7908702 -12.320329 9.326334
-2.9447365 2.5240617 2.9066813
-2.1516993 1.5369296 -10.768756
-2.1918671 1.2524968 -10.076089
-3.1046944 1.3305845 5.6650553
-3.1387076 0.89677471 6.2515979
-3.1590843 0.45130011 6.6029754
-3.1731482 1.4889715e-06 6.8455
-3.1838651 -0.4548355 7.030303
-3.1921732 -0.91204643 7.1735735
-3.1976864 -1.3704342 7.2686462
-3.2031689 -1.8303797 7.3631864
-3.2078187 -2.291297 7.4433703
-3.2116451 -2.7528386 7.5093589
-3.215498 -3.2154958 7.5757904
-3.2190402 -3.6789024 7.636879
-3.2225399 -4.1432652 7.6972294
-3.2260301 -4.608614 7.7574191
-3.2295113 -5.0749454 7.8174458
-3.2334578 -5.5430689 7.8854985
-3.2374818 -6.012465 7.9548912
-3.2415159 -6.4830317 8.0244579
-3.2456796 -6.9550266 8.0962591
-3.2509849 -7.4308228 8.187748
-3.2563422 -7.9082584 8.2801275
-3.2616999 -8.3872261 8.3725166
-3.2674215 -8.8687143 8.4711847
-3.274328 -9.3552208 8.5902796
-3.2812634 -9.8437891 8.7098808
-3.2882636 -10.334541 8.8305931
-3.2959454 -10.829533 8.9630632
-3.304584 -11.330002 9.112031
-3.3132858 -11.833162 9.2620888
-3.3246312 -12.34863 9.4577303
-2.5289638 2.5289643 3.005342
-1.8440883 1.5367405 -10.773289
-1.8791506 1.2527674 -10.067891
-2.6684227 1.3342122 5.811039
-2.6948483 0.89828521 6.342679
-2.7123032 0.45205286 6.6938453
-2.7236962 2.7673152e-06 6.9230552
-2.7324419 -0.45540431 7.0990024
-2.7392828 -0.91309243 7.2366328
-2.7438626 -1.3719293 7.3287716
-2.7484434 -1.8322946 7.4209304
-2.7524228 -2.293684 7.5009909
-2.7556379 -2.7556372 7.5656729
-2.758918 -3.2187359 7.6316628
-2.761946 -3.6825933 7.6925826
-2.7648795 -4.1473174 7.751596
-2.7676888 -4.6128116 7.8081126
-2.7705035 -5.0792546 7.8647451
-2.7739356 -5.5478716 7.9337931
-2.7774785 -6.0178676 8.0050659
-2.7810447 -6.4891033 8.0768175
-2.7846498 -6.9616227 8.1493425
-2.789206 -7.437881 8.2410069
-2.7938805 -7.9159942 8.3350515
-2.7985559 -8.3956652 8.4291096
-2.8034997 -8.8777475 8.528574
-2.8094912 -9.3649693 8.6491137
-2.8155534 -9.8544369 8.7710772
-2.8216269 -10.345963 8.8932648
-2.828377 -10.842112 9.0290737
-2.8356469 -11.342585 9.1753254
-2.8429387 -11.845576 9.3220243
-2.1105909 2.5327091 3.0806906
-1.5364079 1.5364085 -10.781313
-1.5662261 1.252982 -10.061438
-2.227566 1.3365415 5.9047217
-2.2491822 0.8996731 6.426579
-2.2626333 0.45252657 6.7513204
-2.272347 6.2008291e-07 6.9858265
-2.2795336 -0.45590672 7.1593289
-2.2849743 -0.91398817 7.2906766
-2.2887151 -1.3732283 7.3809862
-2.2924323 -1.8339437 7.470726
-2.2956347 -2.2956336 7.5480433
-2.2983065 -2.7579672 7.6125436
-2.3010323 -3.2214432 7.6783533
-2.3034878 -3.6855805 7.7376313
-2.3058517 -4.1505308 7.7947011
-2.3082085 -4.616416 7.8515983
-2.3105578 -5.0832257 7.908318
-2.3134222 -5.5522137 7.9774752
-2.3163428 -6.0224886 8.0479774
-2.3193071 -6.4940586 8.119544
-2.3223405 -6.9670191 8.1927719
-2.3261306 -7.4436164 8.2842808
-2.3299336 -7.921772 8.3760872
-2.3338478 -8.4018507 8.4705868
-2.3380108 -8.8844414 8.5710955
-2.3429615 -9.3718443 8.6906137
-2.3479581 -9.8614254 8.8112459
-2.353039 -10.353373 8.9339104
-2.3586979 -10.85001 9.0705223
-2.3650312 -11.352149 9.2234259
-2.3714118 -11.857059 9.3774643
-1.6907091 2.5360641 3.1481786
-1.2288991 1.5361251 -10.788171
-1.252776 1.252776 -10.067621
-1.7850597 1.3387953 5.9954581
-1.8015816 0.90079218 6.4940534
-1.8120525 0.45301393 6.8100381
-1.8195394 5.9918438e-07 7.035975
-1.8252237 -0.45630473 7.2075133
-1.8294793 -0.91473836 7.3359394
-1.8324291 -1.3743218 7.4249578
-1.8353789 -1.8353771 7.5139723
-1.8378971 -2.2973702 7.5899658
-1.8399895 -2.7599816 7.6531124
-1.8420771 -3.2236338 7.716114
-1.8440441 -3.6880865 7.7754717
-1.8459958 -4.1534886 7.834372
-1.8479518 -4.6198773 7.8933954
-1.8498924 -5.0872035 7.9519596
-1.8521974 -5.556591 8.0215178
-1.8545374 -6.027245 8.0921316
-1.8568832 -6.4990911 8.1629276
-1.8593234 -6.9724622 8.2365646
-1.8623605 -7.44944 8.3282146
-1.8654075 -7.9279799 8.420166
-1.8684644 -8.4080896 8.5124216
-1.8718199 -8.8911438 8.613678
-1.8757864 -9.3789291 8.7333775
-1.8797698 -9.8687897 8.8535891
-1.88377 -10.360732 8.9743061
-1.8883338 -10.857918 9.112031
-1.8933673 -11.360203 9.2639313
-1.8983868 -11.864916 9.4154091
-1.269305 2.5386109 3.1994042
-0.92152649 1.5358788 -10.794121
-0.93943167 1.2525765 -10.07367
-1.3401935 1.3401955 6.0517426
-1.3523896 0.90159404 6.5424728
-1.3600537 0.45335144 6.8508534
-1.3654515 9.8823875e-07 7.0680389
-1.3695776 -0.45652467 7.2340636
-1.3728009 -0.91520011 7.3637614
-1.3750442 -1.3750432 7.4540224
-1.3772445 -1.8363246 7.5425553
-1.3790917 -2.2984846 7.6168866
-1.3806411 -2.7612815 7.6792264
-1.3822156 -3.2251685 7.7425756
-1.3836849 -3.6898239 7.8016973
-1.3851355 -4.155406 7.8600688
-1.3865675 -4.6218915 7.9176874
-1.3880024 -5.0893407 7.9754195
-1.3895426 -5.5581675 8.0373898
-1.3913205 -6.0290532 8.1089306
-1.3931103 -6.5011792 8.1809483
-1.3949858 -6.9749269 8.2564125
-1.3972284 -7.4518838 8.3466425
-1.3995447 -7.9307523 8.439847
-1.4018688 -8.4112101 8.5333605
-1.4044245 -8.8946896 8.636198
-1.4074242 -9.3828259 8.756897
-1.4104369 -9.8730564 8.8781128
-1.4134624 -10.365388 8.9998512
-1.4170023 -10.863684 9.1422853
-1.4208273 -11.366616 9.2961922
-1.4246806 -11.872335 9.4512386
-0.84666693 2.5400019 3.2273896
-0.61425245 1.5356313 -10.800068
-0.62645483 1.25291 -10.063589
-0.89367092 1.3405077 6.0643282
-0.90205938 0.90206164 6.5706158
-0.90697324 0.45348778 6.8671932
-0.91071039 1.3241992e-06 7.0927496
-0.91339254 -0.4566955 7.2546368
-0.91548598 -0.91548449 7.3809867
-0.91696334 -1.3754442 7.4701505
-0.91838318 -1.8367647 7.5558438
-0.91969699 -2.2992418 7.635139
-0.9207353 -2.7622039 7.6978073
-0.92174703 -3.2261138 7.758873
-0.92271751 -3.6908677 7.8174462
-0.92376274 -4.15693 7.8805289
-0.92471796 -4.623589 7.9381871
-0.92567533 -5.0912118 7.9959636
-0.92662966 -5.5597773 8.053566
-0.92772281 -6.0301986 8.1195459
-0.92892629 -6.5024819 8.1921797
-0.93020171 -6.976512 8.2691574
-0.93162346 -7.4529853 8.3549662
-0.93316817 -7.9319277 8.4482002
-0.93474782 -8.4127302 8.54354
-0.93650699 -8.8968153 8.6497145
-0.93843782 -9.3843765 8.7662487
-0.94044685 -9.874691 8.8875065
-0.94254524 -10.367995 9.0141535
-0.94496715 -10.867121 9.1603298
-0.94750345 -11.370041 9.3134117
-0.95003295 -11.875411 9.4660788
-0.423421 2.5405266 3.2379534
-0.30708659 1.5354344 -10.80485
-0.31329763 1.2531914 -10.055117
-0.44687852 1.3406361 6.0695271
-0.45086804 0.9017365 6.5511084
-0.45335823 0.45335847 6.851697
-0.45545644 1.5408295e-06 7.1049738
-0.4565874 -0.45658517 7.2414904
-0.45772636 -0.91545057 7.378974
-0.45856759 -1.3757012 7.4805241
-0.45922029 -1.8368791 7.5593123
-0.4598749 -2.2993731 7.6383257
-0.46041819 -2.7625062 7.7039075
-0.46090969 -3.226367 7.7632413
-0.46139982 -3.6911976 7.8224058
-0.46188378 -4.1569533 7.8808217
-0.4623687 -4.6236844 7.9393578
-0.46288386 -5.0917215 8.001544
-0.46342698 -5.5611215 8.0671034
-0.46396649 -6.0315628 8.1322279
-0.46457094 -6.503993 8.2051935
-0.46520895 -6.9781327 8.2822046
-0.46591276 -7.4546027 8.3671637
-0.46666321 -7.9332738 8.4577494
-0.46746323 -8.4143372 8.5543184
-0.46836555 -8.8989439 8.6632423
-0.46930641 -9.3861275 8.7768135
-0.47033641 -9.8770638 8.9011459
-0.47139114 -10.370604 9.0284643
-0.4725647 -10.868985 9.1701221
-0.47384349 -11.372244 9.3244886
-0.47514459 -11.878613 9.4815454
8.3825054e-24 2.5400372 3.2281263
-5.8521378e-24 1.5357397 -10.797483
1.2347043e-23 1.2528034 -10.066813
-1.0016816e-23 1.3405362 6.0654206
-1.182116e-25 0.90213436 6.5750785
-7.5578515e-24 0.45350143 6.8688846
-9.6127032e-24 2.2985109e-06 7.0941706
-5.2750561e-24 -0.45671523 7.2572088
2.1752792e-24 -0.91551459 7.3827095
-6.9768278e-24 -1.3754294 7.4695735
-6.1906104e-24 -1.8367559 7.5555563
5.4940202e-24 -2.2992778 7.6360092
3.0116564e-24 -2.7622616 7.6989713
8.5983172e-24 -3.2261479 7.7594562
-9.6390125e-24 -3.6909063 7.8180299
6.5630451e-24 -4.1569533 7.8808217
-3.6985538e-24 -4.6238065 7.9408231
1.7710022e-24 -5.0914536 7.9986067
-3.2691516e-24 -5.5600395 8.0562143
-4.114872e-25 -6.0303569 8.1210194
4.7704076e-24 -6.5026894 8.1939564
-1.1978163e-23 -6.9767318 8.270936
-7.8866259e-24 -7.453105 8.3558598
-2.8928287e-24 -7.9320545 8.4490948
-4.8763989e-24 -8.4129534 8.5450354
-5.8143088e-24 -8.8971004 8.6515188
-4.2071782e-24 -9.3845768 8.7674561
-7.3734245e-24 -9.8749542 8.8890219
-5.6219182e-24 -10.368384 9.016284
-8.3823082e-24 -10.867589 9.1627789
-5.4703749e-24 -11.370041 9.3134117
-5.4698353e-25 -11.875795 9.4679365
0.42311791 2.5387089 3.201365
0.30718514 1.5359274 -10.792956
0.31315616 1.2526264 -10.072192
0.44674024 1.3402208 6.0528374
0.45081729 0.90163434 6.54498
0.45337221 0.45337233 6.8533883
0.45516223 8.9374552e-08 7.0694594
0.45654714 -0.45654604 7.2366347
0.45762172 -0.91524321 7.3663459
0.45837188 -1.3751144 7.4568996
0.4591102 -1.8364404 7.5460224
0.45972607 -2.2986286 7.6203632
0.46024254 -2.7614529 7.6827078
0.46076503 -3.225354 7.7457781
0.46125486 -3.690037 7.8049049
0.46173364 -4.1556025 7.8627009
0.46221101 -4.6221085 7.9203191
0.4626869 -5.0895557 7.9777689
0.46319059 -5.5582857 8.0385685
0.46378568 -6.029213 8.1104031
0.46438235 -6.5013514 8.1824265
0.46500754 -6.975111 8.2578917
0.4657526 -7.4520416 8.3478317
0.46652478 -7.9309192 8.44104
0.46729702 -8.4113445 8.5342598
0.46815643 -8.8949718 8.6379986
0.46915144 -9.383028 8.7581034
0.47015816 -9.8733206 8.8796282
0.4711743 -10.365833 9.002284
0.47235686 -10.864208 9.1450377
0.47363201 -11.367167 9.2989588
0.47491401 -11.87285 9.4537134
0.84541136 2.5362368 3.1516068
0.61448389 1.5362103 -10.7861
0.62641919 1.252839 -10.065741
0.89262027 1.3389305 6.0009189
0.90092444 0.9009248 6.5021186
0.90609151 0.45304734 6.8139749
0.90981668 8.06961e-07 7.0388126
0.91267323 -0.45633593 7.2112241
0.91480619 -0.91480535 7.3399525
0.91627645 -1.3744148 7.4286966
0.91775155 -1.835502 7.5177269
0.91900599 -2.2975137 7.5934381
0.92005724 -2.760169 7.6568818
0.92110604 -3.2238686 7.7201829
0.92208964 -3.6883578 7.7795496
0.92307049 -4.1538157 7.8387485
0.9240486 -4.6202412 7.8977842
0.92503369 -5.0876822 7.9572358
0.92619121 -5.5571465 8.0271015
0.92736137 -6.0278482 8.0977306
0.92853463 -6.4997411 8.1685381
0.92975491 -6.9731612 8.2421932
0.93127376 -7.4501886 8.3338623
0.93279266 -7.9287357 8.4255342
0.93432146 -8.4088917 8.5178051
0.9360044 -8.8920403 8.6193819
0.93799806 -9.3799791 8.7397099
0.94000018 -9.8700008 8.860549
0.94201094 -10.36212 8.9819069
0.94429338 -10.859373 9.1196661
0.94679052 -11.361485 9.270381
0.94929063 -11.866132 9.4212742
1.2664396 2.5328794 3.0841084
0.92189944 1.5364997 -10.779114
0.93971568 1.2529563 -10.062243
1.3367966 1.336798 5.915062
1.3496403 0.89976114 6.4318509
1.3577335 0.45257887 6.7574935
1.3635701 2.4007611e-06 6.9923368
1.3678901 -0.45596161 7.1661644
1.3711411 -0.9140932 7.2969751
1.3733647 -1.3733643 7.3864441
1.3755953 -1.8341254 7.4761996
1.3775101 -2.2958484 7.5532436
1.379099 -2.7581964 7.6171746
1.3807348 -3.2217128 7.6829996
1.3822082 -3.6858883 7.7422857
1.3836486 -4.1509438 7.8002405
1.3850558 -4.6168509 7.8568578
1.3864729 -5.0837321 7.9138794
1.3881919 -5.5527658 7.9830489
1.3899446 -6.0230927 8.0535669
1.3917161 -6.4946742 8.1248512
1.3935438 -6.9677196 8.1983919
1.3958185 -7.444366 8.2899189
1.3981006 -7.9225707 8.3817444
1.4004347 -8.402607 8.4756613
1.4029481 -8.8853359 8.5767899
1.4059341 -9.3728924 8.6969337
1.4089402 -9.8625803 8.817893
1.4120045 -10.354699 8.9411936
1.4154083 -10.851461 9.078145
1.419217 -11.353735 9.2314024
1.4230386 -11.858655 9.3851728
1.6860001 2.529002 3.0060713
1.2295467 1.5369339 -10.768627
1.2526824 1.2526834 -10.070445
1.7792269 1.3344227 5.8194418
1.7970146 0.89850813 6.3562307
1.8085178 0.45213026 6.7033687
1.8161533 1.419875e-06 6.9337912
1.8219012 -0.45547453 7.1072493
1.8264158 -0.91320717 7.2434931
1.8294697 -1.3721004 7.3356509
1.832534 -1.8325323 7.4281187
1.8351877 -2.2939832 7.5082035
1.8373315 -2.7559972 7.5729012
1.8395091 -3.2191391 7.6386156
1.8415284 -3.6830559 7.6995525
1.8434266 -4.1477084 7.756834
1.8453094 -4.6132722 7.8136535
1.8471863 -5.079762 7.870297
1.8494651 -5.5483947 7.9390655
1.8518274 -6.0184379 8.0103531
1.8542055 -6.4897165 8.0821171
1.8566092 -6.9622831 8.1546574
1.8596473 -7.4385872 8.2463388
1.8627543 -7.9167037 8.3401012
1.8658718 -8.3964214 8.4341803
1.8691881 -8.8786421 8.5342598
1.8731933 -9.3659639 8.6551237
1.8772457 -9.8555393 8.7774162
1.8813256 -10.34729 8.9005394
1.8858372 -10.843563 9.0366879
1.8907863 -11.344716 9.1860409
1.8956596 -11.847871 9.333106
2.1036243 2.5243506 2.9125035
1.536912 1.536913 -10.769147
1.5655136 1.2524124 -10.078643
2.2180743 1.3308454 5.6755719
2.2423339 0.89693421 6.2612433
2.2568357 0.45136887 6.611352
2.2669544 1.0476911e-06 6.8556418
2.2745888 -0.45491624 7.0399466
2.2804899 -0.91219401 7.1824121
2.2844291 -1.3706553 7.2775145
2.288275 -1.830618 7.3703613
2.2915852 -2.2915843 7.4502797
2.2943311 -2.7531955 7.516571
2.2970717 -3.2158995 7.5827336
2.2996027 -3.679363 7.6438351
2.302115 -4.143806 7.7044921
2.3046329 -4.6092649 7.7652798
2.3071563 -5.0757413 7.8261986
2.3099883 -5.5439711 7.8945665
2.3128636 -6.0134425 7.9639807
2.3157458 -6.4840875 8.0335703
2.3186965 -6.9560885 8.1048031
2.3224995 -7.4319973 8.1966171
2.3263152 -7.9094701 8.2887306
2.3301556 -8.3885593 8.3814487
2.3342435 -8.8701239 8.4801435
2.3392279 -9.3569126 8.6004772
2.3442338 -9.8457813 8.7213268
2.3492484 -10.336692 8.8423901
2.3547502 -10.83185 8.9752178
2.3609488 -11.332553 9.1248627
2.3671799 -11.835898 9.2752953
2.5186586 2.5186598 2.7980144
1.8440949 1.5367464 -10.773159
1.8788633 1.2525765 -10.07367
2.6557903 1.3278968 5.5568938
2.6854949 0.89516467 6.1545062
2.7034233 0.45057061 6.5151925
2.7162206 9.9137355e-07 6.7726564
2.7255507 -0.45425785 6.960361
2.7327247 -0.91090667 7.1046901
2.7375236 -1.3687601 7.2012339
2.7421968 -1.8281305 7.2952595
2.7463295 -2.2886069 7.3784018
2.7495589 -2.749558 7.4433699
2.7530682 -3.2119131 7.5139756
2.7561266 -3.6748331 7.5755014
2.7590907 -4.1386347 7.6351385
2.7620182 -4.603363 7.6940327
2.7649662 -5.0691023 7.7533422
2.7683265 -5.5366511 7.8209457
2.7717679 -6.0054955 7.8901787
2.7753341 -6.4757771 7.9619279
2.779012 -6.9475303 8.0359211
2.7835205 -7.4227195 8.1266212
2.7880874 -7.8995795 8.2185059
2.7928026 -8.3784056 8.3133659
2.7976668 -8.8592787 8.4112291
2.8036335 -9.3454437 8.5312672
2.8096256 -9.8336878 8.6518192
2.8156285 -10.32397 8.7725868
2.822139 -10.818199 8.9035749
2.8295584 -11.318233 9.0528383
2.8367581 -11.819822 9.1976805
2.8443463 -12.3255 9.3503466
2.9309616 2.5122533 2.6691403
2.1519547 1.5371109 -10.764355
2.1924047 1.2528034 -10.066813
3.0893087 1.3239909 5.3997397
3.1259291 0.89312375 6.0312386
3.1478424 0.44969305 6.4091134
3.1630714 2.4148026e-06 6.6717291
3.1746516 -0.45351949 6.8714209
3.1830595 -0.90944439 7.0164146
3.1889207 -1.3666781 7.1174841
3.194406 -1.8253736 7.2120776
3.1994953 -2.2853527 7.2998395
3.2035184 -2.7458701 7.3692136
3.2075684 -3.2075675 7.4390535
3.2113106 -3.6700685 7.5035872
3.2147267 -4.1332188 7.5624938
3.218133 -4.597331 7.621232
3.2215633 -5.0624537 7.6803846
3.2254562 -5.5293517 7.7475209
3.2296467 -5.9979129 7.8197799
3.2339158 -6.4678307 7.8933973
3.238179 -6.9389539 7.9669137
3.2434087 -7.4135046 8.0570974
3.248878 -7.8901305 8.1514091
3.2543654 -8.3683681 8.2460423
3.2599752 -8.8485031 8.3427763
3.266902 -9.3340054 8.4622259
3.2738583 -9.8215733 8.5821838
3.2808444 -10.311224 8.7026529
3.2882285 -10.804177 8.8299875
3.2964742 -11.302197 8.9721794
3.3047614 -11.802717 9.1150856
3.3126094 -12.303977 9.2504215
3.3397474 2.5048115 2.5194139
2.4600122 1.5375084 -10.754767
2.5059886 1.2529966 -10.061034
3.5201788 1.3200678 5.2419133
3.5636191 0.89090633 5.8973784
3.5902383 0.4487797 6.2990332
3.6079974 1.2660182e-06 6.5669909
3.621032 -0.45262632 6.7636695
3.6311271 -0.9077791 6.9159961
3.6383646 -1.3643867 7.0252013
3.6447637 -1.8223799 7.1217518
3.6506741 -2.2816715 7.210937
3.6553519 -2.7415125 7.2815199
3.6600988 -3.2025855 7.3531442
3.6643815 -3.6643806 7.417768
3.6685216 -4.1270857 7.4802356
3.6726902 -4.5908623 7.5431333
3.6767914 -5.0555868 7.6050143
3.681344 -5.5220146 7.6737108
3.6860046 -5.9897556 7.744029
3.690696 -6.4587164 7.8148189
3.6955159 -6.9290905 7.887547
3.7014174 -7.4028335 7.976593
3.7074745 -7.8783817 8.0679855
3.713551 -8.3554888 8.1596766
3.7198639 -8.8346767 8.2549314
3.7276175 -9.3190432 8.3719215
3.7353837 -9.8053799 8.4891052
3.7431028 -10.29353 8.6055765
3.7511532 -10.784565 8.7270517
3.7606027 -11.281809 8.8696346
3.769959 -11.78112 9.0108061
3.7793212 -12.282794 9.152071
3.7452333 2.4968233 2.3587024
2.7673783 1.5374326 -10.75658
2.8195682 1.2531414 -10.056595
3.9467537 1.3155864 5.061554
3.9971039 0.88824624 5.736865
4.0290823 0.44767761 6.1657643
4.0498104 3.4929968e-07 6.4437809
4.0646377 -0.45162499 6.6426415
4.0758605 -0.90574557 6.793169
4.0844922 -1.3614962 6.9089375
4.0922518 -1.8187776 7.0130153
4.0995741 -2.27754 7.1112304
4.104733 -2.7364869 7.1804166
4.1101599 -3.1967902 7.2532091
4.1149397 -3.657722 7.3173094
4.1194515 -4.1194506 7.3778272
4.1241026 -4.5823345 7.4402032
4.1287637 -5.0462646 7.5027213
4.1338234 -5.511765 7.5705881
4.1390686 -5.9786534 7.6409354
4.1445007 -6.447 7.713789
4.1502724 -6.91712 7.7912068
4.1568232 -7.3899055 7.8790669
4.1636133 -7.8646011 7.9701395
4.1706672 -8.3413343 8.0647488
4.1777887 -8.8197756 8.1602688
4.1863723 -9.3030481 8.2753849
4.1949902 -9.7883091 8.390975
4.2035322 -10.2753 8.5055437
4.212378 -10.764964 8.6241846
4.2227898 -11.260772 8.763835
4.2327342 -11.757593 8.8972073
4.2432017 -12.258137 9.0376005
4.1453495 2.4872112 2.1653099
3.0768735 1.5384384 -10.732333
3.1338792 1.2535528 -10.044216
4.3676891 1.3103088 4.8491893
4.4286985 0.88574117 5.5856385
4.4642549 0.44642717 6.0148425
4.488461 1.7897421e-06 6.3070378
4.5035167 -0.45035064 6.4887738
4.5184412 -0.90368664 6.668932
4.5288033 -1.3586401 6.7940116
4.5375528 -1.8150204 6.8996272
4.5459137 -2.2729549 7.0005479
4.552022 -2.7312114 7.0742855
4.5579586 -3.1905694 7.1459441
4.5636263 -3.6508987 7.2143607
4.5687633 -4.1118865 7.27637
4.5739121 -4.5739098 7.3385177
4.5790482 -5.0369525 7.4005194
4.5846496 -5.5015783 7.4681315
4.5906954 -5.9679022 7.5411105
4.5970688 -6.435894 7.6180453
4.6034598 -6.905189 7.6951962
4.610641 -7.3770251 7.7818818
4.6184745 -7.8514051 7.8764353
4.6263103 -8.3273573 7.9710207
4.6341724 -8.804925 8.0659256
4.6434565 -9.286911 8.1779928
4.6528268 -9.770936 8.2911043
4.6620378 -10.256481 8.4022903
4.6713843 -10.744183 8.5151148
4.6824851 -11.237963 8.6491137
4.6936393 -11.734097 8.7837553
4.7047715 -12.232405 8.9181309
4.5431209 2.4780662 1.9813532
3.3849156 1.5385993 -10.72844
3.449599 1.2544004 -10.018624
4.7831345 1.3044922 4.6151915
4.8538985 0.88252687 5.3917332
4.8949261 0.4449946 5.841958
4.9229074 5.733533e-07 6.1490154
4.9411349 -0.44919229 6.3490386
4.9568591 -0.90124547 6.5215926
4.9696736 -1.3553655 6.6622181
4.9791489 -1.8105991 6.7661977
4.9890718 -2.2677598 6.8750877
4.9956059 -2.7248747 6.9467912
5.0026994 -3.1835353 7.0246353
5.0092177 -3.6430662 7.0961604
5.0153375 -4.1034565 7.1633172
5.021472 -4.5649738 7.2306352
5.0276217 -5.0276208 7.298121
5.0341005 -5.4917445 7.3692136
5.0406747 -5.957159 7.4413567
5.0472393 -6.423758 7.5133977
5.0539265 -6.8917165 7.5867834
5.0618749 -7.3627262 7.6740012
5.070086 -7.8355865 7.7641115
5.0783248 -8.3099852 7.8545198
5.0868568 -8.7863884 7.9481511
5.0965977 -9.2665396 8.0550375
5.1066442 -9.7490482 8.1652908
5.1168118 -10.233624 8.2768669
5.1270742 -10.720245 8.3894844
5.139122 -11.212628 8.5216923
5.1512542 -11.707395 8.6548243
5.1628656 -12.203136 8.7822485
4.9347267 2.4673643 1.7660404
3.6969235 1.540385 -10.685306
3.766149 1.2553836 -9.9889488
5.194066 1.2985193 4.374783
5.2736287 0.87893933 5.1751294
5.3214216 0.44345355 5.655889
5.3542833 1.7618734e-06 5.9864521
5.3752789 -0.44793883 6.1976438
5.3925562 -0.89875853 6.371449
5.4078422 -1.3519596 6.525208
5.4184885 -1.8061613 6.6322989
5.4293437 -2.2622252 6.741498
5.4368844 -2.7184424 6.8173532
5.4444742 -3.1759417 6.8936992
5.4517479 -3.6344962 6.9668665
5.4581952 -4.0936465 7.0317225
5.4647708 -4.5539742 7.0978665
5.4714475 -5.0154929 7.1650276
5.4783669 -5.4783649 7.2346344
5.4855042 -5.9426274 7.3064227
5.4928875 -6.4083681 7.3806996
5.500978 -6.8762217 7.4620843
5.5095234 -7.3460293 7.5480428
5.5184412 -7.8177915 7.6377487
5.5277343 -8.2916012 7.7312346
5.5371175 -8.7671003 7.8256149
5.5475507 -9.2459164 7.9305692
5.5585504 -9.7274618 8.041213
5.5696516 -10.211026 8.1528864
5.5807977 -10.696527 8.2650061
5.5934091 -11.186816 8.3918657
5.6059284 -11.679018 8.5178051
5.6185341 -12.17349 8.6446095
5.3214316 2.456048 1.5383369
4.0096569 1.5421767 -10.642069
4.0833993 1.2564319 -9.9573336
4.1594219 0.95986843 -9.2514315
5.6898184 0.87535775 4.9589643
5.7445412 0.44188839 5.467093
5.7805905 1.0502648e-06 5.8018246
5.8056793 -0.44658872 6.0347905
5.8242254 -0.89603269 6.206995
5.8415489 -1.3480487 6.3678498
5.8533444 -1.8010285 6.4773788
5.8654885 -2.2559566 6.5901389
5.8745465 -2.7113273 6.6742482
5.8834214 -3.1679959 6.7566538
5.8914738 -3.6255193 6.8314219
5.8986669 -4.0836906 6.8982143
5.9058471 -4.5429568 6.9648852
5.9130449 -5.0033431 7.0317206
5.9204745 -5.4650521 7.1007094
5.9285979 -5.928597 7.1761394
5.9372673 -6.3939776 7.2566371
5.9459929 -6.8607602 7.3376579
5.9551463 -7.3294096 7.4226542
5.965199 -7.8006444 7.5159945
5.9752846 -8.2734699 7.6096478
5.9849358 -8.7472124 7.6992617
5.9957166 -9.2241783 7.7993665
6.0071983 -9.7039347 7.9059777
6.018692 -10.185477 8.012702
6.030262 -10.668922 8.1201334
6.0435667 -11.157352 8.2436743
6.056994 -11.648066 8.3683538
6.0695806 -12.139159 8.4852228
5.7056346 2.4452734 1.3215894
4.324316 1.5443997 -10.588406
4.4021544 1.2577583 -9.9172659
4.4808269 0.96017838 -9.2389402
6.1014819 0.87164187 4.7346611
6.1643782 0.44031501 5.2769632
6.20542 1.9126157e-06 5.6308374
6.2330546 -0.44521618 5.8691101
6.2522707 -0.89318115 6.0347905
6.2720513 -1.3440094 6.2053447
6.2847428 -1.7956399 6.3147702
6.2980318 -2.2492959 6.4293518
6.3082457 -2.7035322 6.5174165
6.3181367 -3.1590679 6.6026978
6.3274412 -3.6156809 6.6829262
6.3356009 -4.0728846 6.753283
6.3437824 -4.5312719 6.8238235
6.3518867 -4.9907675 6.8937001
6.3603725 -5.4517455 6.966866
6.3691444 -5.9142027 7.0424972
6.3779731 -6.3779712 7.1186228
6.3868265 -6.8430276 7.1949611
6.3968658 -7.3107014 7.2815189
6.4070368 -7.7799706 7.3692141
6.4173069 -8.2508211 7.4577646
6.4276099 -8.7231827 7.5465989
6.439291 -9.1989851 7.6473145
6.4514527 -9.6771784 7.7521796
6.4637966 -10.157393 7.8586097
6.47646 -10.639898 7.9677949
6.490778 -11.127047 8.0912485
6.5033073 -11.61305 8.1992798
6.5172625 -12.103488 8.3196039
6.0812421 2.4324992 1.0645757
4.6400623 1.5466892 -10.533146
4.7215834 1.2590892 -9.8771133
4.8044472 0.96089077 -9.2102776
6.5049858 0.86733258 4.4745979
6.5793972 0.43862823 5.0734167
6.6243286 1.7748346e-06 5.4349976
6.6558657 -0.44372231 5.6887889
6.6769228 -0.89025551 5.8582449
6.6981483 -1.3396275 6.0290508
6.713089 -1.7901571 6.1492896
6.7270355 -2.2423444 6.2615199
6.738667 -2.6954653 6.3551226
6.7488909 -3.1494799 6.437397
6.7593532 -3.6049867 6.5215902
6.7676635 -4.060596 6.5884657
6.7763062 -4.5175376 6.658021
6.78546 -4.9760022 6.731679
6.7946377 -5.435708 6.8055382
6.804647 -5.8973594 6.8860846
6.8140521 -6.3597817 6.9617772
6.8234839 -6.8234839 7.0376778
6.834568 -7.2902036 7.1268725
6.8460069 -7.7588072 7.2189298
6.8568797 -8.2282553 7.3064256
6.8678942 -8.6993303 7.3950596
6.8806634 -9.1742163 7.4978204
6.8933001 -9.6506195 7.5995159
6.9063811 -10.129358 7.7047811
6.9196925 -10.610196 7.8119054
6.933929 -11.094285 7.9264693
6.9474931 -11.579155 8.0356264
6.9616246 -12.066813 8.1493435
6.9760709 -12.556927 8.2656012
6.4590678 2.4221523 0.85642248
4.9593282 1.5497909 -10.458243
5.0436921 1.2609245 -9.8217659
5.1331067 0.9624576 -9.1471844
6.9099703 0.863747 4.2582173
6.9875054 0.43672147 4.8431759
7.0375447 4.4677469e-07 5.220695
7.0733275 -0.44208071 5.4906516
7.0967655 -0.8870942 5.6674809
7.1189575 -1.3348024 5.8349013
7.1357193 -1.783929 5.9613624
7.151 -2.2346849 6.0766435
7.1640868 -2.6865325 6.1753807
7.1761255 -3.1395535 6.2662034
7.1877651 -3.5938809 6.3540163
7.1973834 -4.0485277 6.42658
7.2070637 -4.5044141 6.4996157
7.2167702 -4.9615297 6.5728469
7.2265034 -5.4198766 6.6462755
7.2367086 -5.8798242 6.7232661
7.2476511 -6.3416924 6.8058195
7.2582145 -6.8045759 6.8855205
7.2698975 -7.2698975 6.9736571
7.2826705 -7.7378373 7.0700283
7.2952251 -8.2071285 7.1647425
7.3097181 -8.6802893 7.2740803
7.323051 -9.1538124 7.3746686
7.3373103 -9.6302185 7.4822536
7.3509359 -10.107537 7.5850487
7.3664212 -10.58923 7.7018752
7.3941345 -11.0912 7.9109516
6.9267964 2.444752 1.311121
5.2798581 1.5529013 -10.383172
5.368876 1.2632661 -9.75109
5.4673481 0.9648276 -9.0518799
7.3069463 0.85964221 4.0104246
7.3918252 0.43481517 4.6131177
7.4466372 2.9439937e-07 5.0023208
7.4843435 -0.44025436 5.2700582
7.5121679 -0.88378316 5.467627
7.5359492 -1.3298714 5.6364927
7.5550375 -1.7776541 5.7720299
7.5708528 -2.2267196 5.8843279
7.5861192 -2.6774521 5.9927278
7.5992098 -3.1290848 6.0856791
7.6114554 -3.5818605 6.1726308
7.6226535 -4.035521 6.2521482
7.633029 -4.490015 6.3258185
7.6440182 -4.9461279 6.4038477
7.6574268 -5.4052401 6.4990578
7.6732807 -5.8678007 6.6116304
7.6888447 -6.3319883 6.7221451
7.7038779 -6.7975392 6.8288908
7.7179351 -7.2639375 6.9287057
7.7316446 -7.7316432 7.026052
7.7469254 -8.2026253 7.1345558
6.9258399 2.3086131 -1.4277681
5.6019745 1.5561048 -10.305808
5.6952705 1.2656173 -9.68015
5.8037915 0.96729815 -8.9523945
7.6963911 0.85515463 3.7396612
7.7935495 0.43297657 4.391223
7.8516393 4.0796661e-07 4.7807808
7.8893828 -0.43829766 5.0338936
7.9238858 -0.8804301 5.2652764
7.9483571 -1.3247241 5.4293852
7.9685721 -1.7707931 5.5649514
7.9868784 -2.218575 5.6877098
8.0089884 -2.6696606 5.835988
8.0313845 -3.1233153 5.9861813
8.0510435 -3.5782399 6.1180143
8.0692787 -4.0346379 6.2403016
8.0858641 -4.4921465 6.3515291
8.1016903 -4.9510312 6.4576578
8.1167059 -5.4111362 6.558351
8.1343212 -5.8747869 6.6764889
6.9264464 2.1872988 -3.8684268
5.9314923 1.5609204 -10.189562
6.0261354 1.2686611 -9.5882778
6.1433611 0.97000486 -8.8435202
8.0858145 0.85113865 3.4972608
8.1919317 0.431155 4.1714525
8.2545242 1.7096226e-06 4.5691032
8.3148136 -0.43762019 4.9521399
8.3638506 -0.8804034 5.2636814
8.4041748 -1.3269737 5.519865
8.4353533 -1.7758627 5.7179484
8.4612417 -2.2266417 5.8824272
8.4815264 -2.6783767 6.0112944
8.5013456 -3.1320729 6.1372137
8.5246439 -3.5893223 6.285234
7.0340652 2.1102209 -5.4191413
6.2674456 1.5668632 -10.0461
6.3593764 1.2718762 -9.491251
6.4913125 0.9736973 -8.6949472
8.4824476 0.84824675 3.3226168
8.6662312 0.4333145 4.4318476
8.7598343 1.3515939e-06 4.9967976
8.8212919 -0.44106233 5.3677249
8.8634138 -0.88634056 5.6219544
7.3284416 2.0938425 -5.7486644
6.6069112 1.5730752 -9.8961143
6.6974378 1.2757019 -9.3757563
6.8419223 0.97741795 -8.5452385
9.0743637 0.86422598 4.287118
7.6607513 2.0892971 -5.8400974
6.9602113 1.5818669 -9.6838541
7.0489063 1.2816212 -9.1971989
7.2142696 0.98376393 -8.289875
11.079545 18.787056 10.275186
11.045654 18.24934 10.097315
11.01197 17.714909 9.9205284
10.97849 17.183725 9.7448215
10.945154 16.65567 9.5698614
10.912079 16.130903 9.3962765
10.879203 15.609294 9.2237339
10.846524 15.09082 9.052228
10.815948 14.578017 8.8917475
10.785714 14.068323 8.733078
10.755707 13.561544 8.5755882
10.725809 13.057508 8.4186792
10.696077 12.556265 8.2626352
10.666622 12.05792 8.1080456
10.637328 11.562315 7.9543042
10.608195 11.069423 7.801405
10.579222 10.579222 7.6493435
10.550406 10.091695 7.4981084
10.521746 9.6068115 7.3476954
10.493241 9.1245604 7.1980958
10.464946 8.6449547 7.0495896
10.436748 8.1678896 6.9016013
10.408755 7.693429 6.7546854
10.380913 7.2215047 6.6085596
10.353218 6.7521009 6.4632111
10.325671 6.2851934 6.3186364
10.29827 5.8207617 6.1748281
10.271015 5.3587928 6.0317826
10.243902 4.8992581 5.8894916
10.216933 4.4421449 5.7479506
10.190106 3.9874341 5.6071534
10.161839 3.5345535 5.4587975
10.120817 3.0802491 5.2435074
10.072308 2.6275604 4.9889112
7.3228002 1.5919138 -9.4413013
7.4014864 1.2872154 -9.0283318
7.6054487 0.99201632 -7.9578805
11.547749 18.765093 10.207205
11.519807 18.239698 10.066672
11.492001 17.716837 9.9268122
11.46439 17.196585 9.78794
11.43685 16.67874 9.6494274
11.409441 16.16338 9.5115747
11.382225 15.65056 9.3746901
11.355078 15.140105 9.2381468
11.330549 14.635295 9.1147814
8.0808954 2.0202253 -7.2297168
7.698874 1.6039327 -9.1511364
7.7736473 1.2956096 -8.775054
8.0549068 1.0068645 -7.3604302
8.2675066 1.9842019 -7.9544315
8.317379 1.6634758 -7.7136254
8.1626291 1.3060218 -8.4608259
8.5029087 2.943316 -8.3968744
8.4801111 2.609266 -8.5027113
8.5084372 2.2907343 -8.3712053
8.5476904 1.9725447 -8.188962
8.5951405 1.3223304 -7.968668
8.7271566 4.8484211 -8.85641
8.7175903 4.5202336 -8.8991756
8.7138844 4.1955762 -8.9157429
8.720211 3.8756499 -8.8874559
8.7265158 3.5552478 -8.8592739
8.7331495 3.2345009 -8.8296165
8.7470589 2.9156866 -8.7674332
8.773035 2.5994179 -8.6512966
8.8165865 2.2857826 -8.4565887
9.2149725 1.3651823 -6.6754985
8.9605455 7.3604493 -9.2437115
8.9508543 7.0328155 -9.2854939
8.9408588 6.7056465 -9.3285818
8.944005 6.388576 -9.3150225
8.950367 6.0734649 -9.2875938
8.9568033 5.7579451 -9.2598457
8.9632492 5.4419732 -9.2320595
8.9697037 5.1255465 -9.2042303
8.9804821 4.8109741 -9.1577625
8.9948292 4.4974151 -9.0959139
9.0092878 4.1828847 -9.0335817
9.0238256 3.8673551 -8.9709082
9.0383768 3.5507922 -8.9081755
9.0603924 3.2358551 -8.8132648
9.1214504 2.9318964 -8.5500402
9.1795063 9.4960423 -9.6643648
9.1693563 9.1693573 -9.7066126
9.1631727 8.8472013 -9.7323523
9.169488 8.5371113 -9.7060652
9.1758785 8.2266512 -9.6794634
9.1824102 7.9158721 -9.652277
9.1889505 7.60465 -9.6250525
9.1958313 7.2932477 -9.5964088
9.2095919 6.986588 -9.539135
9.2241926 6.6795893 -9.4783592
9.2387733 6.3715687 -9.4176693
9.2534666 6.0626163 -9.3565102
9.2682734 5.7527232 -9.2948742
9.2943096 5.4483891 -9.1865025
9.3289003 5.1469812 -9.0425196
9.3937826 11.585667 -10.075821
9.3831415 11.259771 -10.118638
9.3840418 10.94805 -10.115019
9.3904104 10.642467 -10.089389
9.3968563 10.336541 -10.063454
9.4034777 10.030376 -10.036811
9.4101086 9.7237797 -10.010131
9.419467 9.4194679 -9.9724722
9.4342318 9.1197577 -9.913065
9.4490767 8.8191395 -9.8533344
9.4638996 8.5175104 -9.7936897
9.478735 8.2149048 -9.7339945
9.4936523 7.9113789 -9.673975
9.5240049 7.6192055 -9.5518456
9.5592527 7.3287621 -9.410018
9.6135359 13.955134 -10.439405
9.6022434 13.628992 -10.483376
9.5940447 13.30787 -10.515301
9.6004877 13.007114 -10.490211
9.6069736 12.705999 -10.464958
