# .PCD v0.7 - Point Cloud Data file format
VERSION 0.7
FIELDS x y z
SIZE 4 4 4
TYPE F F F
COUNT 1 1 1
WIDTH 1513
HEIGHT 1
VIEWPOINT 0 0 0 1 0 0 0
POINTS 1513
DATA ascii
-3.9747565 8.8327942 5.4371371
-3.9817045 8.4058208 5.5303245
-3.9875932 7.9751863 5.6093049
-3.9933183 7.5429368 5.6860929
-3.9991205 7.1095481 5.7639122
-4.0039082 6.6731811 5.8281202
-4.0083218 6.2351689 5.8873196
-4.0119934 5.795104 5.9365692
-4.015245 5.3536634 5.9801779
-4.0183182 4.9112782 6.0213995
-4.0206213 4.4673567 6.0522895
-4.0219679 4.0219698 6.0703478
-4.0226822 3.5757196 6.0799279
-4.0228863 3.1289122 6.0826683
-4.0231314 2.6820881 6.0859528
-4.022274 2.2345991 6.0744534
-4.0191331 1.7862829 6.0323286
-4.0152249 1.3384101 5.9799051
-4.0108566 0.89130157 5.9213209
-4.0047369 0.4449715 5.8392434
-3.9962173 2.4983165e-06 5.7249727
-3.9873323 -0.44303575 5.6058064
-3.9752946 -0.88339776 5.4443536
-3.9622796 -1.3207592 5.2697911
-3.9485033 -1.7548884 5.0850201
-3.9300625 -2.1833663 4.8376875
-3.9104812 -2.606986 4.5750546
-3.8905208 -3.0259585 4.3073416
-3.8657422 -3.4362135 3.9750013
-3.8406444 -3.8406436 3.6383841
-3.8135757 -4.2373047 3.2753263
-3.7850595 -4.6261826 2.8928609
-3.756201 -5.0082679 2.5058026
-3.7242064 -5.3794079 2.0766826
-3.6933029 -5.7451363 1.6621953
-3.6598639 -6.099772 1.2137027
-3.6261458 -6.4464812 0.76146489
-3.5905857 -6.7822151 0.2845186
-3.5583019 -7.1166019 -0.14847936
-3.5221901 -7.4357333 -0.63281876
-3.4956148 -7.7680311 -0.98925799
-3.493227 -8.1508617 -1.0212821
-3.4914885 -8.5347481 -1.044603
-3.9222453 -11.766735 4.732841
-3.9528351 -12.297709 5.1431217
-3.5351555 10.605469 5.4678946
-3.5263801 10.138343 5.335485
-3.5294182 9.7059002 5.3813243
-3.535599 9.2809477 5.4745836
-3.5417123 8.8542824 5.5668287
-3.5484188 8.427495 5.6680217
-3.5543435 7.9972749 5.7574177
-3.5599103 7.5648093 5.8414164
-3.564683 7.1293654 5.9134278
-3.5691066 6.6920767 5.9801784
-3.5735593 6.2537303 6.047368
-3.577297 5.8131094 6.1037607
-3.5805871 5.3708825 6.1534057
-3.5826809 4.9261885 6.1849995
-3.584759 4.4809518 6.216351
-3.586273 4.0345578 6.2391996
-3.5873687 3.5873702 6.2557316
-3.5878437 3.1393654 6.2628956
-3.5867844 2.6900895 6.2469125
-3.5854521 2.2409086 6.22681
-3.582936 1.7914706 6.1888452
-3.5781145 1.3417948 6.1160941
-3.5730884 0.89327389 6.0402565
-3.5661442 0.44576979 5.9354787
-3.5586877 9.0509042e-07 5.822969
-3.5483115 -0.44353896 5.6664033
-3.5374982 -0.88437456 5.5032458
-3.523541 -1.3213273 5.292645
-3.5082431 -1.7541209 5.0618186
-3.4918485 -2.1824028 4.8144383
-3.4711885 -2.6033919 4.5027099
-3.4500623 -3.0188034 4.1839366
-3.4287577 -3.4287553 3.8624754
-3.4026132 -3.82794 3.4679883
-3.3771884 -4.2214837 3.0843534
-3.3494473 -4.6054897 2.6657765
-3.320859 -4.981286 2.2344091
-3.290832 -5.3476009 1.7813412
-3.2612829 -5.7072453 1.3354816
-3.2280397 -6.0525742 0.83387667
-3.1972072 -6.3944144 0.36864889
-3.1664598 -6.7287259 -0.095291279
-3.1348891 -7.0535002 -0.57165784
-3.1042836 -7.3726726 -1.0334617
-3.0720582 -7.6801453 -1.519703
-3.0669904 -8.0508471 -1.5961736
-3.0658426 -8.4310656 -1.613489
-3.0634167 -8.8073225 -1.6500916
-3.5276513 -12.34678 5.3546662
-3.1005099 10.187392 5.5928979
-3.0948603 9.7267065 5.4954753
-3.1011338 9.3034019 5.6036558
-3.1065714 8.8759222 5.6974273
-3.1125469 8.4483442 5.800467
-3.1179619 8.0176172 5.8938432
-3.1228261 7.5840096 5.9777222
-3.1271818 7.1478462 6.0528369
-3.1318362 6.7110796 6.1330981
-3.1357865 6.2715755 6.2012196
-3.1390595 5.8296819 6.2576599
-3.1411064 5.3847566 6.2929611
-3.1437173 4.9401278 6.3379779
-3.1455777 4.4936838 6.3700619
-3.1475849 4.0468955 6.4046774
-3.1478906 3.5975895 6.409945
-3.1473923 3.1473942 6.4013553
-3.1465249 2.6970234 6.3863964
-3.1445029 2.2460737 6.3515286
-3.1411543 1.7949471 6.2937865
-3.1372385 1.3445324 6.2262588
-3.1313112 0.8946619 6.1240454
-3.1244717 0.44635525 6.006104
-3.1167324 1.0767566e-06 5.872643
-3.106149 -0.44373393 5.6901407
-3.0937886 -0.88393945 5.4769969
-3.0809104 -1.3203883 5.2549191
-3.064662 -1.7512336 4.9747219
-3.0476646 -2.1769032 4.6816134
-3.028934 -2.5962279 4.358614
-3.0081408 -3.0081396 4.0000467
-2.9858947 -3.4124494 3.6164279
-2.9633913 -3.8100734 3.2283704
-2.9376371 -4.1966233 2.7842524
-2.9121614 -4.5762525 2.3449395
-2.8858938 -4.9472442 1.891974
-2.8576567 -5.307076 1.4050455
-2.8287466 -5.6574912 0.90650451
-2.8013315 -6.002852 0.43375078
-2.7730327 -6.3383594 -0.054244973
-2.7450676 -6.6665916 -0.53648728
-2.7168825 -6.9862671 -1.0225221
-2.688637 -7.2977266 -1.5095977
-2.6619494 -7.6055689 -1.9698073
-2.6503801 -7.9511409 -2.169311
-2.6479216 -8.3220387 -2.2117083
-2.6457171 -8.6930704 -2.2497213
-3.1415067 -12.566025 6.2998595
-3.1268804 -12.954218 6.0476384
-2.673404 10.24805 5.9112492
-2.6631379 9.7648411 5.7047153
-2.6639299 9.3237562 5.7206492
-2.669245 8.8974857 5.827579
-2.6739585 8.467536 5.9224076
-2.6788518 8.0365572 6.0208549
-2.6830816 7.6020684 6.1059513
-2.6874206 7.1664562 6.1932445
-2.6911156 6.7277904 6.2675815
-2.6941891 6.2864423 6.329412
-2.6970212 5.8435459 6.3863969
-2.6993632 5.3987298 6.4335136
-2.7017646 4.9532375 6.4818244
-2.7033403 4.505568 6.5135198
-2.7041149 4.0561728 6.5291047
-2.7043638 3.6058211 6.5341167
-2.7035198 3.1541078 6.517138
-2.7019305 2.7019324 6.4851584
-2.7000253 2.2500219 6.4468336
-2.6960719 1.7973828 6.3672962
-2.6912391 1.3456211 6.2700644
-2.6856861 0.89523047 6.1583476
-2.6786072 0.44643545 6.0159359
-2.6690426 1.3022847e-06 5.8235106
-2.6592515 -0.44320855 5.6265292
-2.648324 -0.88277382 5.4066815
-2.6339231 -1.3169612 5.1169586
-2.6189899 -1.7459923 4.8165298
-2.6030326 -2.1691926 4.4954863
-2.5840671 -2.5840652 4.113935
-2.5659618 -2.9936204 3.7496841
-2.544575 -3.3927658 3.3194146
-2.5234933 -3.7852392 2.8952842
-2.4996448 -4.1660719 2.4154868
-2.4769275 -4.5410333 1.9584514
-2.4514086 -4.9028149 1.4450483
-2.426722 -5.2578959 0.94839239
-2.4024074 -5.6056166 0.45922521
-2.3775268 -5.9438157 -0.041339308
-2.3537848 -6.2767596 -0.51898509
-2.3293927 -6.599947 -1.0097166
-2.3043652 -6.913095 -1.5132349
-2.2808242 -7.2226076 -1.9868473
-2.2577589 -7.5258636 -2.4508786
-2.243468 -7.8521371 -2.7383933
-2.2414222 -8.2185469 -2.7795486
-2.2391429 -8.5833817 -2.8254056
-2.2419546 -8.9678164 -2.7688379
-2.7099111 -13.097901 6.6457167
-2.715425 -13.577126 6.7566538
-2.2308047 9.8155432 5.9829049
-2.2244942 9.3428783 5.8305626
-2.2288516 8.9154072 5.935751
-2.2330329 8.485527 6.0367017
-2.2371621 8.0537853 6.1363912
-2.2412152 7.6201329 6.2342424
-2.2443335 7.1818695 6.3095245
-2.2473342 6.7420044 6.3819652
-2.2502508 6.300705 6.4523826
-2.2527258 5.8570862 6.5121312
-2.2549288 5.4118314 6.5653176
-2.2562344 4.963716 6.5968351
-2.2573562 4.5147142 6.623919
-2.2575645 4.0636196 6.6289473
-2.2570555 3.6112885 6.6166577
-2.2562575 3.1587622 6.5973954
-2.2541442 2.7049747 6.54637
-2.2511022 2.2511032 6.4729314
-2.2476325 1.7981071 6.3891683
-2.242779 1.3456694 6.2719946
-2.2361965 0.89448041 6.1130772
-2.2294044 0.44588348 5.9490967
-2.2206357 2.5492009e-06 5.7374053
-2.2098157 -0.44196242 5.4761915
-2.1989033 -0.87956005 5.2127395
-2.1874025 -1.3124408 4.9350848
-2.1721144 -1.7376897 4.5660014
-2.1576729 -2.157671 4.2173486
-2.1409316 -2.5691168 3.8131785
-2.1226766 -2.9717469 3.3724651
-2.1050119 -3.3680177 2.9460008
-2.0851676 -3.7533011 2.4669209
-2.0643096 -4.1286178 1.963358
-2.043324 -4.4953103 1.4567196
-2.0228164 -4.8547573 0.96162373
-2.0017788 -5.2046242 0.45373267
-1.9810851 -5.5470376 -0.045857318
-1.9605443 -5.8816314 -0.54175556
-1.9405278 -6.2096877 -1.0249995
-1.9206477 -6.530201 -1.5049448
-1.9005473 -6.8419695 -1.9902132
-1.8813292 -7.1490488 -2.4541786
-1.862614 -7.4504542 -2.9060009
-1.8465412 -7.7554717 -3.2940369
-1.844507 -8.1158285 -3.3431427
-1.8422463 -8.4743319 -3.3977237
-1.8389845 -8.8271246 -3.476469
-2.2842395 -13.705435 7.2729368
-2.2926588 -14.214483 7.4762001
-1.7872783 9.3832111 6.0624123
-1.786508 8.9325418 6.0391655
-1.7901025 8.5029888 6.1476407
-1.7932279 8.0695257 6.2419543
-1.7962358 7.6340055 6.3327279
-1.7988497 7.1954007 6.4116087
-1.8016646 6.7562428 6.4965553
-1.8039523 6.3138337 6.565599
-1.8052558 5.8670835 6.6049309
-1.8062646 5.4187942 6.6353726
-1.8071356 4.969625 6.6616564
-1.8081837 4.5204606 6.693285
-1.8082206 4.0684991 6.6944065
-1.807321 3.6146436 6.6672544
-1.8056166 3.1598315 6.615818
-1.8036569 2.7054865 6.5566816
-1.8005136 2.250643 6.4618216
-1.79619 1.7961909 6.3313475
-1.7915956 1.3436985 6.1926937
-1.7855934 0.89279753 6.0115666
-1.778257 0.44456589 5.7901721
-1.7701355 5.6791578e-07 5.5450811
-1.7613301 -0.44033125 5.2793574
-1.7506611 -0.8753289 4.9573903
-1.7397597 -1.3048182 4.6284103
-1.7271708 -1.72717 4.2485075
-1.71347 -2.1418371 3.8350511
-1.6997962 -2.5496933 3.4224074
-1.6843799 -2.9476638 2.9571774
-1.6676446 -3.3352878 2.4521441
-1.6508285 -3.7143614 1.9446741
-1.6346288 -4.0865707 1.4558022
-1.6176809 -4.4486227 0.94435906
-1.6000919 -4.8002763 0.41356638
-1.5837994 -5.1473465 -0.078107573
-1.5673819 -5.4858346 -0.57355314
-1.5508163 -5.8155603 -1.0734586
-1.5353531 -6.1414123 -1.5401055
-1.520195 -6.4608283 -1.9975395
-1.5049026 -6.7720609 -2.4590275
-1.4897763 -7.0764351 -2.9155085
-1.4749447 -7.374723 -3.3630905
-1.4599758 -7.6648717 -3.8148162
-1.4570594 -8.0138273 -3.9028234
-1.4550074 -8.366291 -3.9647508
-1.4525838 -8.7155008 -4.037889
-1.8484948 -14.325832 7.9097805
-1.863799 -14.910391 8.3716249
-1.3481116 9.4367819 6.3703399
-1.3422086 8.94806 6.1328244
-1.3447019 8.5164442 6.2331419
-1.3471287 8.0827751 6.3307924
-1.3494197 7.6467118 6.4229751
-1.351684 7.208981 6.5140786
-1.3532484 6.7662425 6.5770307
-1.3544694 6.3208599 6.6261554
-1.3555464 5.8740363 6.6694918
-1.356437 5.4257507 6.7053313
-1.3571895 4.9763608 6.7356076
-1.3571129 4.5237103 6.7325206
-1.356437 4.0693135 6.7053318
-1.3555324 3.6147537 6.6689301
-1.3536435 3.1585033 6.5929284
-1.3510274 2.7020562 6.4876595
-1.3481804 2.2469687 6.373107
-1.3442913 1.7923886 6.2166266
-1.3395278 1.3395299 6.0249515
-1.3343394 0.88956016 5.8161902
-1.3282356 0.44274762 5.57059
-1.3210042 8.1957643e-07 5.2796226
-1.3128979 -0.43763185 4.9534516
-1.3048197 -0.86987948 4.6284108
-1.2953463 -1.2953447 4.2472262
-1.2851962 -1.7135932 3.8388214
-1.2738209 -2.1230335 3.3811107
-1.2625003 -2.5249982 2.9256051
-1.2500708 -2.9168303 2.4254801
-1.2370548 -3.298811 1.9017603
-1.2247839 -3.6743512 1.4080144
-1.2116807 -4.0389342 0.88078028
-1.1988167 -4.3956594 0.36317584
-1.1861326 -4.7445292 -0.14719395
-1.1741103 -5.0878096 -0.63093036
-1.16213 -5.4232736 -1.1129801
-1.1502715 -5.7513552 -1.5901299
-1.1388931 -6.0740948 -2.047962
-1.1277039 -6.3903213 -2.4981804
-1.1165342 -6.6992049 -2.9476132
-1.105431 -7.0010614 -3.3943729
-1.0942382 -7.2949209 -3.8447373
-1.0836651 -7.5856557 -4.2701612
-1.0792787 -7.9147077 -4.4466624
-1.0782657 -8.2667027 -4.487421
-1.0763024 -8.6104183 -4.5664177
-1.4037604 -14.973444 8.609477
-0.89920443 8.9920464 6.3983068
-0.89782494 8.5293388 6.3150468
-0.89949834 8.0954847 6.4160419
-0.9008553 7.6572723 6.4979448
-0.90200853 7.2160711 6.5675478
-0.90302122 6.7726612 6.6286688
-0.90392476 6.3274741 6.6832023
-0.90469545 5.8805208 6.7297182
-0.90497428 5.4298468 6.7465463
-0.90487671 4.9768229 6.7406578
-0.90461648 4.5230837 6.7249489
-0.90371609 4.0667238 6.6706104
-0.90241057 3.6096418 6.5918131
-0.9008922 3.1531241 6.5001717
-0.89865398 2.695962 6.3650837
-0.89590251 2.2397575 6.1990218
-0.89283746 1.7856759 6.0140233
-0.88926768 1.3339032 5.7985706
-0.88502771 0.88503003 5.542665
-0.88017219 0.44008625 5.2496119
-0.87514788 1.7623912e-06 4.9463649
-0.86904728 -0.43452251 4.5781608
-0.86304802 -0.86304808 4.2160745
-0.85569042 -1.283535 3.7720022
-0.84831828 -1.6966363 3.327055
-0.84031379 -2.1007838 2.84394
-0.83189678 -2.4956884 2.3359263
-0.8237468 -2.8831139 1.8440354
-0.81508684 -3.2603469 1.3213625
-0.80639303 -3.6287673 0.79664123
-0.79791152 -3.9895566 0.28473958
-0.78948623 -4.3421726 -0.22377172
-0.78135496 -4.6881294 -0.71453965
-0.77356601 -5.0281777 -1.1846452
-0.7659241 -5.3614674 -1.6458716
-0.75841546 -5.6881142 -2.0990627
-0.75097251 -6.0077806 -2.5482814
-0.74367422 -6.321229 -2.9887729
-0.73643333 -6.6278982 -3.4257987
-0.72903925 -6.9258714 -3.8720717
-0.72177148 -7.2177143 -4.3107195
-0.71510851 -7.5086398 -4.7128654
-0.71079755 -7.8187718 -4.9730554
-0.70999247 -8.1649132 -5.0216432
-0.70901799 -8.508215 -5.080461
-0.70854175 -8.8567705 -5.1092052
-0.94876909 -15.65469 9.3898001
-0.45242438 9.0484896 6.7389722
-0.4494485 8.5395231 6.3797531
-0.45016292 8.1029348 6.4659901
-0.4507896 7.6634259 6.541635
-0.45136714 7.2218747 6.611351
-0.45191371 6.7787056 6.6773272
-0.45221764 6.3310494 6.7140169
-0.45234773 5.8805208 6.7297182
-0.45239651 5.4287596 6.7356086
-0.45206681 4.9727364 6.6958075
-0.45163098 4.5163102 6.6431994
-0.45109206 4.0598292 6.5781431
-0.45009848 3.6007895 6.4582129
-0.44892392 3.1424689 6.3164277
-0.44766438 2.6859887 6.1643906
-0.44607279 2.230365 5.9722672
-0.44402415 1.7760988 5.7249727
-0.44206077 1.3261839 5.4879742
-0.43965992 0.87932128 5.1981664
-0.43679056 0.43679312 4.8518033
-0.43391997 1.0280032e-06 4.5052915
-0.43053892 -0.43053654 4.0971637
-0.42721641 -0.85443145 3.6960986
-0.42332941 -1.2699862 3.2268963
-0.41936669 -1.6774662 2.7485557
-0.41527766 -2.0763867 2.2549641
-0.41097972 -2.4658761 1.736159
-0.40686193 -2.8480322 1.2390971
-0.40260488 -3.2208383 0.72522569
-0.39814961 -3.5833461 0.1874274
-0.39407024 -3.9407017 -0.30499509
-0.38997 -4.2896686 -0.79994118
-0.38608786 -4.6330533 -1.2685567
-0.38227725 -4.9696016 -1.7285378
-0.37854275 -5.2995973 -2.1793272
-0.37487575 -5.6231365 -2.6219745
-0.37127754 -5.9404397 -3.0563185
-0.36774158 -6.251606 -3.4831445
-0.36424226 -6.5563588 -3.9055541
-0.36066407 -6.8526158 -4.3374767
-0.35710776 -7.1421537 -4.7667651
-0.35369897 -7.4276786 -5.1782408
-0.35126427 -7.7278132 -5.4721355
-0.35085988 -8.0697756 -5.5209513
-0.35030028 -8.4072056 -5.5884972
-0.34973416 -8.7433519 -5.6568351
-0.48010445 -15.843446 10.080251
-0.48088822 -16.350199 10.174863
2.4010021e-24 8.5790997 6.6311836
-3.8672024e-24 8.1092358 6.5082355
-5.8746097e-24 7.6694312 6.5842791
-6.4023352e-24 7.2254291 6.6381688
5.2935773e-24 6.7783227 6.6742482
-1.0278976e-25 6.329165 6.6977682
-2.1489904e-24 5.8753328 6.6815271
3.9441448e-24 5.4204631 6.6521497
-5.6091576e-24 4.9641504 6.6015792
4.675592e-24 4.504622 6.5021186
8.4548487e-24 4.0459862 6.3924909
-5.4268605e-24 3.5878997 6.2637224
-2.9633635e-24 3.1287234 6.079381
-2.0567765e-24 2.6716478 5.8759036
-9.4917716e-24 2.2173171 5.6572361
4.9923461e-24 1.7640554 5.3615952
-3.3228959e-24 1.3157371 5.0676146
7.5217146e-24 0.87211084 4.7630539
8.3097062e-24 0.43276548 4.3658009
-5.1150735e-24 2.2547344e-07 3.9858773
8.6120261e-24 -0.42590451 3.537751
-4.8810666e-24 -0.8442229 3.0799572
-5.3726161e-26 -1.2547176 2.6124969
-2.9510604e-24 -1.6571718 2.1361256
-3.3262738e-24 -2.0503435 1.6262167
-2.2475326e-24 -2.4346128 1.1071877
-4.6679625e-24 -2.8117166 0.6128574
-8.9186523e-25 -3.1775839 0.072556362
1.7966086e-24 -3.5377836 -0.42367065
-5.1143967e-24 -3.8915148 -0.89873368
-3.4840839e-24 -4.2385492 -1.3609196
-5.5218354e-24 -4.5786209 -1.8160937
-1.5663178e-24 -4.9121037 -2.2624443
-3.7189751e-24 -5.2391386 -2.7006137
1.8258472e-25 -5.559391 -3.1349602
-4.7059383e-24 -5.8732705 -3.5630679
-2.1138595e-25 -6.1812034 -3.9830556
-9.5667631e-24 -6.48282 -4.3987179
2.195646e-24 -6.7794657 -4.8022137
7.9797698e-25 -7.068131 -5.2135305
-3.8664104e-24 -7.3515687 -5.6157241
8.2400568e-24 -7.6410856 -5.9480009
-7.4348158e-25 -7.98101 -5.9868188
5.7248535e-24 -8.3119974 -6.0673585
-2.7396867e-24 -8.6431046 -6.1408763
-9.9527141e-24 -16.519037 10.774294
-8.4387733e-24 -17.074402 11.014023
0.45426312 8.6310015 6.9609294
0.45054516 8.1098156 6.5121326
0.45096502 7.6664076 6.5628109
0.45144582 7.223134 6.6208453
0.45151523 6.7727294 6.6292262
0.45145506 6.3203726 6.6219645
0.45112899 5.8646789 6.5826063
0.45053366 5.4064064 6.5107417
0.44982493 4.9480762 6.4251914
0.44880265 4.4880285 6.3017917
0.44753703 4.0278344 6.1490135
0.44608408 3.5686727 5.9736323
0.44440725 3.1108532 5.7712183
0.44231385 2.6538851 5.5185242
0.4400773 2.2003884 5.2485495
0.437361 1.7494459 4.9206619
0.43463299 1.3039004 4.5913591
0.43161917 0.86323971 4.2275591
0.42787433 0.42787468 3.7755167
0.42436758 2.7322371e-06 3.3522167
0.420755 -0.42075419 2.9161434
0.41689342 -0.83378476 2.450002
0.41282126 -1.2384623 1.9584514
0.40860599 -1.6344233 1.4496249
0.40449637 -2.0224807 0.95355135
0.40033573 -2.4020145 0.45131627
0.39618674 -2.7733064 -0.049515001
0.39206699 -3.1365354 -0.54681057
0.38818595 -3.4936719 -1.0152931
0.38438267 -3.8438261 -1.4743894
0.38064992 -4.1871471 -1.9249736
0.37696958 -4.523633 -2.3692281
0.37335023 -4.8535523 -2.8061211
0.36981839 -5.1774559 -3.2324538
0.36639842 -5.495976 -3.6452773
0.36295438 -5.8072686 -4.0610099
0.35953927 -6.1121674 -4.4732518
0.35616335 -6.4109387 -4.8807659
0.35289967 -6.7050924 -5.274725
0.3496967 -6.9939318 -5.6613588
0.3464545 -7.2755442 -6.0527225
0.34365633 -7.5604382 -6.3904948
0.34322375 -7.8941445 -6.4427114
0.34260696 -8.2225657 -6.5171666
0.34193128 -8.5482807 -6.5987277
0.49182269 -17.213793 11.494773
0.49620894 -17.863522 12.024235
0.91461611 8.6888533 7.3284855
0.90282685 8.1254425 6.6169376
0.90142238 7.6620917 6.5321693
0.90193462 7.2154789 6.5630879
0.90145463 6.7609086 6.5341177
0.90071714 6.3050218 6.4896049
0.89969128 5.8479943 6.4276876
0.89784324 5.3870621 6.3161516
0.89564747 4.9260612 6.1836243
0.89314526 4.4657278 6.0326028
0.8898831 4.0044751 5.8357177
0.88624328 3.5449753 5.6160307
0.88225293 3.0878863 5.3751936
0.87737966 2.6321409 5.0810633
0.87209338 2.180234 4.7620111
0.86618841 1.7323774 4.4056149
0.85970366 1.2895573 4.0142245
0.85267919 0.85267985 3.5902607
0.84547228 0.42273691 3.1552813
0.83811486 1.5469276e-06 2.7112226
0.83057487 -0.41528681 2.2561457
0.82276952 -0.8227672 1.785051
0.81473255 -1.2220976 1.2999756
0.80628967 -1.6125776 0.79040277
0.79811758 -1.9952927 0.29717347
0.78986508 -2.3695939 -0.20090853
0.78198618 -2.7369494 -0.67643946
0.77428681 -3.0971458 -1.1411384
0.76674092 -3.4503334 -1.5965768
0.75933737 -3.7966857 -2.0434172
0.75208187 -4.1364484 -2.4813273
0.74494165 -4.4696479 -2.9122772
0.73787081 -4.7961588 -3.3390398
0.73112404 -5.117867 -3.7462409
0.72446686 -5.4334998 -4.1480398
0.71782148 -5.7425709 -4.5491228
0.71114475 -6.0447292 -4.9521008
0.70455444 -6.3409896 -5.3498616
0.69819576 -6.6328578 -5.7336388
0.69193465 -6.9193454 -6.1115327
0.68565392 -7.1993647 -6.4906063
0.68058628 -7.4864473 -6.7964687
0.67953348 -7.8146334 -6.8600111
0.67823315 -8.1387968 -6.9384909
0.67711991 -8.4639978 -7.005681
0.99678683 -17.942163 12.28793
1.3598018 8.1588125 6.840714
1.3506268 7.653554 6.4715447
1.3500057 7.2000322 6.4465528
1.3487034 6.7435179 6.3941522
1.346408 6.2832375 6.3017931
1.3438538 5.8233681 6.199018
1.3404384 5.3617544 6.0615916
1.3359045 4.8983183 5.8791642
1.3309586 4.4365277 5.6801572
1.3252777 3.9758337 5.4515758
1.3183744 3.5156658 5.1738052
1.31151 3.0601897 4.8976035
1.3029217 2.6058447 4.5520363
1.29371 2.1561852 4.1813865
1.2840533 1.712073 3.7928348
1.2741158 1.2741177 3.3929727
1.2630917 0.84206289 2.9494019
1.2521975 0.41740155 2.5110531
1.2403299 1.4705452e-06 2.0335391
1.2290795 -0.40969235 1.5808583
1.2169486 -0.81129861 1.0927514
1.205066 -1.2050653 0.61462694
1.1932298 -1.5909718 0.13837641
1.1813492 -1.9689155 -0.33966202
1.1696407 -2.3392813 -0.8107748
1.158157 -2.702364 -1.2728482
1.1469014 -3.0584018 -1.7257323
1.1358577 -3.4075725 -2.1700962
1.1250294 -3.7500961 -2.6057918
1.1144058 -4.0861535 -3.0332596
1.1040637 -4.416254 -3.4493861
1.0939348 -4.7403817 -3.8569503
1.0840386 -5.058846 -4.2551351
1.074425 -5.3721247 -4.641963
1.0651089 -5.6805797 -5.0168095
1.0552826 -5.9799342 -5.412189
1.0454829 -6.2728963 -5.8064995
1.0360949 -6.5619335 -6.1842418
1.02693 -6.846199 -6.5530095
1.0176984 -7.1238894 -6.9244585
1.0117286 -7.4193411 -7.1646662
1.0099344 -7.7428284 -7.2368627
1.007758 -8.0620632 -7.3244276
1.006043 -8.3836899 -7.3934402
1.5167748 -18.706886 13.156822
1.8181401 8.1816311 6.9937534
1.7969413 7.6370025 6.3540154
1.7945431 7.1781759 6.2816482
1.7916502 6.7186904 6.1943445
1.7869792 6.2544293 6.0533862
1.7816204 5.790267 5.8916678
1.7760249 5.3280778 5.7228127
1.7686514 4.8637924 5.5002971
1.7600719 4.4001803 5.2413836
1.7506262 3.9389112 4.9563389
1.7406708 3.4813428 4.6559052
1.7294514 3.0265403 4.3173332
1.7172534 2.5758817 3.949223
1.7050282 2.1312869 3.5802963
1.6910174 1.6910204 3.1574838
1.6770196 1.2577658 2.7350619
1.6626627 0.83133233 2.3018076
1.6470007 0.41175172 1.8291583
1.6307548 5.5207164e-07 1.3388976
1.6155076 -0.40387583 0.87876904
1.6001719 -0.80008507 0.41597715
1.5845188 -1.1883885 -0.056395281
1.5690013 -1.5690008 -0.52468038
1.5535654 -1.9419558 -0.99049747
1.5386051 -2.3079057 -1.441968
1.5240619 -2.6671062 -1.8808481
1.5096681 -3.0193355 -2.3152158
1.4954232 -3.3647017 -2.7450976
1.4814881 -3.7037187 -3.1656246
1.468006 -4.0370145 -3.5724831
1.4553982 -4.3661947 -3.9529583
1.4424851 -4.6880741 -4.3426461
1.4290566 -5.001698 -4.747879
1.4159672 -5.3098764 -5.1428909
1.4037079 -5.614831 -5.5128512
1.3917414 -5.9149008 -5.8739676
1.3792965 -6.2068334 -6.2495255
1.366945 -6.4929886 -6.6222677
1.3549013 -6.7745061 -6.9857183
1.3429143 -7.0503006 -7.3474569
1.3372107 -7.3546567 -7.5195827
1.3347991 -7.6750932 -7.5923581
1.3321393 -7.992835 -7.6726241
1.3296154 -8.3100958 -7.7487869
2.0498896 -18.961477 13.987405
2.0519431 -19.493458 14.049379
2.2753172 8.191144 7.0575347
2.2377419 7.6083241 6.1503887
2.233418 7.1469402 6.0459981
2.2275999 6.6828012 5.9055371
2.2204566 6.2172794 5.7330809
2.211314 5.7494178 5.5123563
2.2022901 5.2854986 5.2945075
2.191201 4.8206434 5.0267887
2.1780124 4.3560252 4.7083836
2.1652262 3.8974078 4.399704
2.1522739 3.4436388 4.0870047
2.1368284 2.9915609 3.7141149
2.1203055 2.544368 3.315222
2.1036646 2.1036663 2.9134717
2.0866497 1.6693223 2.5026984
2.0688772 1.2413274 2.0736301
2.0503256 0.82013011 1.6257573
2.0303612 0.40607426 1.1437699
2.0105338 1.1104132e-06 0.66509974
1.9914953 -0.39829746 0.20546566
1.9726371 -0.78905499 -0.2498097
1.9534047 -1.172042 -0.71412307
1.9347305 -1.5477833 -1.1649534
1.9163685 -1.9163675 -1.6082566
1.8983352 -2.278002 -2.0436146
1.8806382 -2.632894 -2.4708583
1.8634732 -2.9815574 -2.8852608
1.8463476 -3.3234241 -3.2987084
1.8295339 -3.6590672 -3.7046244
1.8134493 -3.9895873 -4.0929432
1.797711 -4.3145056 -4.4728975
1.7820705 -4.6333823 -4.8504949
1.7659276 -4.9445972 -5.2402167
1.7501719 -5.250515 -5.6205945
1.7349136 -5.551722 -5.9889631
1.7204363 -5.8494821 -6.3384748
1.7057164 -6.1405768 -6.6938486
1.6905059 -6.4239225 -7.0610576
1.6760809 -6.7043238 -7.409308
1.6619627 -6.9802423 -7.7501516
1.6591827 -7.3004036 -7.8172679
1.6556522 -7.6159997 -7.902504
1.6522233 -7.9306703 -7.9852853
1.6487223 -8.2436104 -8.069808
2.7278719 8.1836166 7.0070629
2.6725521 7.5722332 5.894115
2.6645746 7.1055336 5.7336216
2.6554568 6.6386428 5.5501823
2.6429598 6.1669068 5.2987609
2.6298728 5.6980605 5.0354753
2.6167467 5.2334929 4.7713933
2.6024044 4.7710757 4.4828506
2.5863311 4.3105536 4.1594772
2.5694554 3.8541837 3.8199635
2.5516396 3.4021871 3.4615412
2.5317991 2.9537663 3.0623825
2.5117035 2.5117044 2.6580911
2.4908438 2.0757048 2.2384262
2.4698546 1.6465698 1.8161529
2.4481721 1.2240877 1.3799323
2.4268668 0.80895633 0.95130974
2.4032595 0.40054569 0.47636786
2.3800967 9.7812244e-07 0.010363622
2.3575442 -0.39292359 -0.44335598
2.3349609 -0.7783193 -0.89769757
2.3128672 -1.1564314 -1.3421915
2.2911873 -1.5274574 -1.7783542
2.2699592 -1.8916311 -2.2054329
2.2493982 -2.2493987 -2.6190858
2.2291405 -2.6006639 -3.0266376
2.2091153 -2.945487 -3.4295154
2.1893103 -3.2839651 -3.8279562
2.1705172 -3.6175292 -4.2060475
2.1522365 -3.9457653 -4.5738258
2.1331501 -4.2662992 -4.9578156
2.1144836 -4.5813808 -5.3333559
2.095983 -4.890626 -5.7055597
2.077934 -5.1948338 -6.0686741
2.0601454 -5.4937201 -6.426559
2.042769 -5.7878456 -6.7761416
2.025008 -6.0750227 -7.1334682
2.0074389 -6.3568892 -7.4869308
1.9907042 -6.6356788 -7.8236079
1.9810477 -6.9336662 -8.0178804
1.9772083 -7.249764 -8.0951233
1.972279 -7.5604029 -8.1942921
1.9685687 -7.8742738 -8.2689381
1.9661518 -8.1922979 -8.3175631
3.0988269 7.525723 5.5638733
3.0847025 7.0507493 5.3203082
3.0714254 6.5816259 5.0913525
3.055958 6.111917 4.824626
3.0392814 5.6443801 4.5370488
3.0214083 5.1795568 4.2288361
3.0021644 4.7176876 3.8969886
2.9822118 4.2603045 3.5529184
2.9616261 3.8078058 3.1979337
2.9393454 3.3592544 2.8137157
2.9158111 2.9158118 2.4078784
2.8906159 2.4776721 1.9734057
2.8665187 2.0475142 1.5578666
2.8417718 1.6238711 1.131119
2.8176675 1.2075733 0.7154516
2.7915018 0.79757226 0.26424158
2.7648625 0.39498165 -0.19513668
2.7393107 8.9407399e-07 -0.63575822
2.7139883 -0.3877123 -1.0724299
2.6884141 -0.76811635 -1.5134382
2.6634445 -1.1414746 -1.944031
2.6395555 -1.5083169 -2.3559792
2.6157691 -1.8684039 -2.7661591
2.5923424 -2.2220063 -3.1701379
2.5691926 -2.5691926 -3.5693429
2.5468731 -2.9107111 -3.9542286
2.5248451 -3.2462292 -4.3340874
2.502758 -3.5753679 -4.7149673
2.4817228 -3.8998487 -5.077703
2.4610975 -4.2190237 -5.4333758
2.4398751 -4.5311952 -5.7993426
2.4190822 -4.8381624 -6.1579056
2.3984165 -5.1394649 -6.5142689
2.3783946 -5.4363289 -6.8595366
2.3584337 -5.7276239 -7.2037516
2.3386805 -6.0137491 -7.5443807
2.3183661 -6.292707 -7.894691
2.3021777 -6.5776501 -8.1738462
2.2973311 -6.8919921 -8.2574282
2.2922406 -7.2041845 -8.3452091
2.2868586 -7.5139618 -8.4380207
2.281358 -7.8217978 -8.5328693
2.3078222 -8.2422209 -8.0765114
3.5120025 7.4630046 5.1185441
3.4956248 6.9912505 4.8714223
3.4766006 6.5186286 4.5843701
3.457087 6.0499058 4.2899327
3.4363661 5.5840974 3.9772792
3.4147995 5.1222014 3.6518624
3.3910847 4.6627421 3.2940366
3.3672948 4.2091203 2.9350717
3.341331 3.7590003 2.5433083
3.316139 3.3161387 2.163193
3.2881908 2.8771687 1.7414837
3.2601213 2.4450932 1.3179479
3.2322154 2.0201352 0.89688379
3.2047105 1.6023576 0.48186493
3.1752784 1.1907314 0.037767369
3.1470425 0.78676015 -0.38827834
3.1183102 0.38978863 -0.82181352
3.0896509 1.0977647e-06 -1.2542523
3.0613139 -0.38266441 -1.6818234
3.0334265 -0.7583552 -2.1026103
3.0062995 -1.1273617 -2.5119267
2.9796405 -1.4898188 -2.91418
2.9532273 -1.8457655 -3.3127205
2.9277773 -2.1958325 -3.6967351
2.9032762 -2.5403664 -4.0664248
2.8779354 -2.8779345 -4.4487891
2.8537264 -3.2104397 -4.8140774
2.8294895 -3.5368612 -5.1797843
2.804812 -3.8566163 -5.5521383
2.7814062 -4.1721077 -5.905304
2.7579885 -4.4817319 -6.2586493
2.73493 -4.7861266 -6.6065779
2.7123165 -5.0855932 -6.9477882
2.6900427 -5.380085 -7.2838678
2.6670315 -5.6674418 -7.6310835
2.645165 -5.9516201 -7.9610252
2.624162 -6.2323842 -8.2779331
2.6176012 -6.5440021 -8.3769312
2.6108797 -6.853559 -8.4783487
2.6045873 -7.1626153 -8.5732946
2.5980089 -7.4692755 -8.672554
2.5946701 -7.7840099 -8.7229338
2.6264315 -8.2075977 -8.2436924
2.6271071 -8.5380964 -8.2334986
4.0166693 8.0333385 5.9992795
3.9134929 7.3921528 4.6154504
3.8919153 6.9189615 4.3260436
3.8702343 6.4503913 4.0352526
3.8469818 5.9841938 3.7233799
3.8221996 5.5209565 3.3909974
3.7951531 5.0602055 3.0282393
3.7687373 4.6062369 2.6739447
3.7404792 4.1560893 2.2949388
3.7119291 3.7119308 1.912015
3.682049 3.2729323 1.5112553
3.6507285 2.8394568 1.0911702
3.619374 2.4129176 0.67063862
3.5880339 1.9933523 0.25029653
3.5572479 1.5810006 -0.16261682
3.5259659 1.1753232 -0.58217716
3.4942896 0.77651083 -1.0070326
3.4623451 0.38470626 -1.4354786
3.4310985 5.4756043e-07 -1.8545684
3.4010088 -0.37788868 -2.2581403
3.3707256 -0.74904978 -2.6643078
3.3409908 -1.1136625 -3.0631204
3.3119423 -1.4719734 -3.4527271
3.2840338 -1.8244616 -3.8270445
3.2556155 -2.1704087 -4.2082019
3.2278423 -2.5105438 -4.5807014
3.2008879 -2.845233 -4.9422197
3.1747868 -3.1747866 -5.2922959
3.1486578 -3.498508 -5.6427464
3.1218851 -3.8156369 -6.0018311
3.0967491 -4.1289988 -6.3389611
3.0704083 -4.4350319 -6.6922531
3.0453424 -4.7371984 -7.0284457
3.0206592 -5.0344305 -7.3595052
2.9962258 -5.3266206 -7.6872134
2.9710927 -5.6120634 -8.0243034
2.9460053 -5.8920107 -8.3607817
2.9375989 -6.2015967 -8.4735317
2.9297056 -6.510457 -8.5793953
2.9223611 -6.8188415 -8.6779041
2.9142177 -7.1236424 -8.7871284
2.9062576 -7.4271021 -8.8938904
2.9615021 -8.2263947 -8.1529341
2.9459288 -8.5104599 -8.3618116
2.9507208 -8.8521614 -8.2975359
4.4171934 7.9509511 5.4467621
4.3045263 7.317698 4.0867515
4.2771225 6.843399 3.7559514
4.2501469 6.3752203 3.4303284
4.2242794 5.9139919 3.1180813
4.195365 5.4539762 2.7690494
4.165976 4.9991736 2.4142971
4.1357918 4.5493717 2.0499449
4.104588 4.1045899 1.6732739
4.072062 3.6648562 1.2806518
4.0377688 3.230217 0.86669892
4.0032301 2.8022635 0.4497779
3.9695632 2.3817389 0.043385036
3.9360356 1.9680185 -0.36132923
3.9015481 1.5606208 -0.77762812
3.8673034 1.1601912 -1.1910013
3.8325534 0.76651192 -1.6104686
3.7982914 0.37983042 -2.0240481
3.765425 1.5696717e-06 -2.4207819
3.7327273 -0.37327075 -2.8154793
3.699877 -0.73997468 -3.2120142
3.667417 -1.1002243 -3.6038406
3.6370678 -1.454827 -3.9701886
3.6085026 -1.8042495 -4.3150015
3.5770962 -2.1462564 -4.6941099
3.5471461 -2.4830017 -5.0556426
3.5174122 -2.8139272 -5.4145641
3.4884627 -3.1396143 -5.7640138
3.4603121 -3.4603112 -6.1038208
3.4332545 -3.7765794 -6.4304342
3.4054048 -4.0864844 -6.7666087
3.3768768 -4.3899393 -7.1109724
3.3499181 -4.6898842 -7.4363961
3.3228722 -4.9843082 -7.7628651
3.2957785 -5.2732458 -8.0899134
3.26882 -5.556994 -8.4153347
3.259059 -5.8663058 -8.5331593
3.249428 -6.173913 -8.649415
3.23983 -6.4796586 -8.765276
3.2296844 -6.7823367 -8.8877439
3.2207794 -7.0857129 -8.9952354
3.2789447 -8.5252562 -8.2931175
3.2699366 -8.8288269 -8.4018574
4.7867265 7.8328238 4.6546082
4.6806955 7.2338047 3.4910543
4.6510124 6.7651105 3.1653256
4.6213288 6.3018136 2.8395848
4.5916305 5.8438945 2.5136817
4.5593481 5.3883209 2.1594255
4.5271144 4.9386702 1.8057033
4.4935613 4.4935627 1.4374986
4.4582644 4.0529685 1.0501659
4.4211564 3.6173098 0.64294946
4.3840055 3.1883683 0.23527093
4.3472986 2.7664642 -0.16753875
4.3113737 2.3516588 -0.56176496
4.2743025 1.9428663 -0.9685756
4.2370667 1.5407526 -1.3771906
4.1998 1.1454014 -1.7861465
4.1627893 0.75687182 -2.1922848
4.1267247 0.37515813 -2.5880523
4.0914173 1.2568511e-06 -2.9755049
4.056777 -0.36879763 -3.3556352
4.021533 -0.73118651 -3.7423942
3.9885864 -1.0877947 -4.1039381
3.9578562 -1.4392196 -4.4411612
3.9247003 -1.7839528 -4.8050065
3.8915794 -2.1226797 -5.1684651
3.8596582 -2.4561458 -5.5187573
3.8292706 -2.7849228 -5.8522224
3.7984192 -3.1077969 -6.1907778
3.7679288 -3.4253891 -6.5253668
3.7378812 -3.7378814 -6.8551035
3.7073436 -4.044374 -7.1902127
3.6779852 -4.3467107 -7.5123811
3.647687 -4.6425104 -7.8448687
3.6178834 -4.9334774 -8.1719189
3.5923421 -5.2252254 -8.4522028
3.580672 -5.5337634 -8.5802679
3.5687621 -5.8397913 -8.7109642
3.5580542 -6.1457305 -8.8284683
3.5466964 -6.4485373 -8.9531069
3.5363657 -6.7512436 -9.0664721
3.534018 -7.0680356 -9.0922365
3.6061814 -8.8515348 -8.3003368
3.6035659 -9.1727123 -8.3290386
5.1361136 7.7041712 3.7918274
5.0485053 7.1520519 2.9105604
5.0164452 6.6885939 2.5880547
4.9833317 6.2291675 2.2549636
4.9481964 5.7728963 1.9015281
4.9134383 5.3228922 1.5518904
4.8787374 4.8787384 1.2028269
4.8408618 4.4374595 0.82182896
4.8009739 4.000813 0.42058244
4.761394 3.5710468 0.02244284
4.7217236 3.1478171 -0.37661263
4.683331 2.7319458 -0.76281273
4.6442919 2.3221469 -1.1555121
4.6041527 1.9183987 -1.5592804
4.5640116 1.5213381 -1.9630674
4.5234027 1.1308521 -2.3715651
4.484899 0.74748445 -2.7588837
4.4471755 0.37059984 -3.1383498
4.4105606 -2.0556202e-07 -3.5066679
4.3735662 -0.36446217 -3.8788073
4.3380766 -0.72301179 -4.2358017
4.3047185 -1.0761781 -4.5713563
4.269299 -1.4230981 -4.9276547
4.2344904 -1.7643708 -5.2777939
4.2010474 -2.1005223 -5.6142135
4.167963 -2.4313123 -5.9470086
4.1346684 -2.7564459 -6.2819295
4.1027932 -3.0770934 -6.6025734
4.0695553 -3.3912954 -6.9369149
4.0366211 -3.7002347 -7.2682118
4.004746 -4.004745 -7.5888462
3.9723551 -4.3033838 -7.9146743
3.9416158 -4.5985503 -8.2238903
3.9175098 -4.8968854 -8.4663773
3.9043696 -5.2058244 -8.5985575
3.8905008 -5.5115418 -8.7380676
3.8775976 -5.8163958 -8.8678608
3.8635366 -6.1172657 -9.009304
3.8520746 -6.4201231 -9.1246052
3.8469851 -6.732223 -9.1757984
3.9420862 -9.1982002 -8.2191563
3.9518588 -9.5503254 -8.1208544
5.459435 7.5592203 2.8197591
5.4073796 7.0711913 2.3364036
5.3708553 6.6102858 1.9972521
5.3330564 6.1535287 1.6462737
5.2958593 5.7032351 1.300884
5.258646 5.2586479 0.95534456
5.2204051 4.8188367 0.60025716
5.1773491 4.3808365 0.20046528
5.1352053 3.9501574 -0.1908589
5.0929942 3.5259206 -0.5828104
5.0528979 3.1094766 -0.95511991
5.0101156 2.6977565 -1.3523726
4.9686551 2.2932279 -1.737348
4.9248023 1.8941559 -2.1445405
4.8816957 1.5020624 -2.5448046
4.841486 1.117267 -2.9181705
4.8009467 0.73860735 -3.2945955
4.7614565 0.36626738 -3.6612802
4.722611 5.5747097e-07 -4.0219779
4.6855249 -0.36042306 -4.3663387
4.6496396 -0.71532899 -4.6995454
4.6131663 -1.0645759 -5.0382195
4.5761814 -1.4080554 -5.3816414
4.5400543 -1.7461734 -5.7170959
4.5048833 -2.0791759 -6.0436745
4.4692583 -2.4065218 -6.3744659
4.4353776 -2.7294614 -6.6890616
4.4007549 -3.0466766 -7.01055
4.3649707 -3.3576696 -7.3428235
4.3302383 -3.6640468 -7.6653266
4.2965541 -3.9660487 -7.9781008
4.2637076 -4.2637062 -8.2830973
4.2436228 -4.5700541 -8.4695883
4.228281 -4.8787861 -8.6120443
4.2123365 -5.1844134 -8.7600956
4.1969585 -5.488328 -8.9028912
4.1826386 -5.7913456 -9.0358534
4.1681437 -6.0919023 -9.1704464
4.1605105 -6.4007854 -9.2413244
4.3032393 -9.2685146 -7.9160256
4.2869663 -9.5632334 -8.0671253
4.3054399 -9.9356308 -7.8955917
5.7938089 7.449183 2.0818439
5.7543874 6.987473 1.7419467
5.7141218 6.5304275 1.3947685
5.6743898 6.0797038 1.0521901
5.6346908 5.6346936 0.70990139
5.5955439 5.1958652 0.37237018
5.5519085 4.7587795 -0.003864378
5.5057507 4.3259468 -0.40184802
5.4619985 3.9014285 -0.77908999
5.419436 3.4839242 -1.146069
5.3732438 3.0704253 -1.5443455
5.3284307 2.664216 -1.9307327
5.282752 2.2640381 -2.3245864
5.2394295 1.871225 -2.6981163
5.1970315 1.4848683 -3.0636859
5.1541929 1.1044708 -3.4330461
5.1120124 0.73028821 -3.7967312
5.0708089 0.36220154 -4.1519952
5.0312495 1.0192613e-06 -4.4930849
4.9925852 -0.35661188 -4.8264542
4.9534764 -0.70763958 -5.1636624
4.9147205 -1.0531535 -5.4978223
4.8766432 -1.3933252 -5.8261323
4.8396835 -1.7284561 -6.1448078
4.8026624 -2.0582819 -6.4640107
4.7664795 -2.383239 -6.7759862
4.7289147 -2.702235 -7.0998759
4.6925268 -3.0166242 -7.413619
4.6549187 -3.3249426 -7.7378807
4.6191716 -3.6293497 -8.0460987
4.5895491 -3.933898 -8.3015146
4.5701404 -4.243701 -8.4688597
4.5527096 -4.5527091 -8.6191502
4.5359955 -4.8599935 -8.7632608
4.518096 -5.1635361 -8.9175987
4.5012565 -5.4658103 -9.0627909
4.484395 -5.7656493 -9.208169
4.4823246 -6.0831552 -9.226018
4.6427555 -9.6171341 -7.8427582
4.6345019 -9.9310732 -7.9139247
6.3096375 7.992209 2.9025598
6.1334434 7.3601336 1.4846609
6.0909715 6.9031014 1.1428679
6.0496922 6.4530058 0.81068182
6.0072751 6.0072765 0.46933398
5.9654489 5.5677533 0.13274084
5.9222884 5.1326523 -0.21458633
5.8749375 4.6999516 -0.59563756
5.8278236 4.273737 -0.97478002
5.7821422 3.8547618 -1.3423932
5.7326407 3.4395862 -1.7407511
5.6870627 3.033102 -2.1075356
5.6394582 2.6317484 -2.4906285
5.5940413 2.2376165 -2.8561153
5.5499091 1.8499705 -3.2112613
5.5054812 1.4681299 -3.5687919
5.460495 1.0920994 -3.9308126
5.4171486 0.72228742 -4.2796392
5.3753815 0.3583613 -4.6157565
5.3337793 1.9129443e-06 -4.950542
5.292541 -0.35283417 -5.282403
5.2510791 -0.70014197 -5.6160603
5.2118859 -1.0423763 -5.9314618
5.1731119 -1.3794955 -6.243494
5.1347098 -1.711568 -6.5525274
5.0961275 -2.0384505 -6.8630152
5.0555072 -2.3592353 -7.1899023
5.0179486 -2.6762383 -7.4921484
4.9782233 -2.986933 -7.8118358
4.9419851 -3.2946548 -8.1034575
4.9180331 -3.6065583 -8.2962103
4.8987393 -3.9189906 -8.4514732
4.8784256 -4.2279673 -8.6149454
4.8592801 -4.5353279 -8.7690144
4.8393803 -4.8393803 -8.9291544
4.8207512 -5.1421332 -9.0790739
4.8025432 -5.4428821 -9.2255974
4.9840264 -9.9680529 -7.7651343
4.988543 -10.309654 -7.7287889
6.6050472 7.8434954 1.957752
6.465024 7.2731543 0.90135825
6.4214249 6.8227639 0.57242662
6.3777165 6.3777184 0.24267368
6.33255 5.9367676 -0.098083131
6.2884111 5.5023613 -0.43108323
6.2391605 5.0693192 -0.80265182
6.190186 4.6426411 -1.1721348
6.1418667 4.2225337 -1.5366732
6.0916362 3.8072734 -1.9156396
6.0431528 3.3992755 -2.281419
5.9941087 2.9970555 -2.6514249
5.945303 2.6010714 -3.0196369
5.8986917 2.2120113 -3.3712876
5.8529038 1.8290333 -3.7167327
5.8071032 1.4517764 -4.0622745
5.7609534 1.0801789 -4.4104462
5.7168765 0.7146104 -4.7429829
5.6741767 0.35463777 -5.065125
5.630805 2.0672016e-06 -5.3923388
5.5881357 -0.34925672 -5.7142534
5.5458245 -0.69322658 -6.0334682
5.5049877 -1.0321836 -6.341557
5.4643664 -1.3660908 -6.6480203
5.4243407 -1.6951057 -6.949995
5.3820581 -2.01827 -7.2689881
5.3409162 -2.3366497 -7.5793805
5.3031311 -2.6515653 -7.864449
5.2726345 -2.9658558 -8.0945292
5.2500644 -3.2812879 -8.2648067
5.2267756 -3.5934079 -8.440505
5.2048841 -3.9036624 -8.6056652
5.1837277 -4.2117786 -8.765275
5.1622138 -4.5169363 -8.9275866
5.1414776 -4.8201356 -9.0840292
5.1254888 -5.1254897 -9.2046528
5.3368707 -10.340187 -7.609899
5.3515644 -10.703129 -7.4990463
6.8935027 7.7045035 1.0747137
6.7901831 7.1896071 0.34108227
6.7442451 6.7442455 0.014894727
6.6970367 6.3030949 -0.3203153
6.6502185 5.8678403 -0.65275168
6.5985794 5.4341264 -1.0194253
6.5484228 5.0076189 -1.3755661
6.4992495 4.5877075 -1.724731
6.4471693 4.1716986 -2.0945289
6.3963552 3.7625625 -2.4553416
6.3445339 3.3588731 -2.823307
6.2944713 2.9621048 -3.1787808
6.2441511 2.5711207 -3.5360873
6.1970387 2.1871905 -3.8706121
6.1510115 1.809121 -4.1974378
6.1037955 1.4361879 -4.5326967
6.0550704 1.0685432 -4.8786783
6.011096 0.70718813 -5.1909251
5.967732 0.3510443 -5.498837
5.9227624 4.7734807e-07 -5.8181472
5.8787661 -0.34580794 -6.1305542
5.8347812 -0.68644261 -6.442872
5.7925925 -1.0222217 -6.7424378
5.751164 -1.3532143 -7.0366035
5.7076468 -1.6787196 -7.3456049
5.6653619 -1.9995387 -7.6458535
5.6320333 -2.3190722 -7.8825083
5.6057396 -2.637995 -8.0692101
5.5813951 -2.9548571 -8.2420673
5.5567875 -3.2686973 -8.4168005
5.5324984 -3.5798514 -8.5892696
5.5086637 -3.8884676 -8.7585135
5.4855556 -4.1948352 -8.9225941
5.46278 -4.4987602 -9.0843124
5.4538655 -4.812233 -9.1476107
5.7128954 -10.417632 -7.3083372
5.6924572 -10.715214 -7.4534578
5.7185898 -11.100793 -7.2679009
7.1858258 7.5850396 0.31573325
7.1069055 7.1069069 -0.21351546
7.0582738 6.6661482 -0.53964686
7.0085678 6.2298384 -0.87298405
6.9569001 5.7974186 -1.2194755
6.902741 5.3687997 -1.5826716
6.8521724 4.9487934 -1.9217975
6.7981095 4.5320735 -2.284349
6.7462707 4.1227217 -2.6319878
6.6911755 3.7173214 -3.0014634
6.6415052 3.3207541 -3.3345623
6.5902376 2.9289954 -3.6783695
6.5409417 2.5437005 -4.0089512
6.491847 2.163949 -4.3381886
6.4438243 1.7899519 -4.6602383
6.3945718 1.4210182 -4.9905338
6.3469048 1.0578183 -5.310195
6.3010697 0.70011985 -5.6175709
6.2560897 0.34756306 -5.9192162
6.2102141 9.7460111e-07 -6.2268634
6.1653185 -0.34251553 -6.5279427
6.1211381 -0.68012565 -6.8242221
6.0774226 -1.012902 -7.1173806
6.0314813 -1.3403277 -7.4254732
5.9957151 -1.665475 -7.6653271
5.9671898 -1.9890617 -7.8566203
5.9399586 -2.3099825 -8.039237
5.9133062 -2.6281357 -8.2179728
5.8865414 -2.943269 -8.3974609
5.860343 -3.2557456 -8.5731497
5.8351068 -3.565897 -8.7423878
5.8098741 -3.8732493 -8.9116011
5.7897177 -4.1814618 -9.0467739
6.0602083 -10.773703 -7.2328229
6.0508642 -11.093248 -7.2954884
7.684514 8.0889626 0.94772035
7.468255 7.468257 -0.42621294
7.4145184 7.024281 -0.76761401
7.3635573 6.588448 -1.0913762
7.3118544 6.1573534 -1.4198562
7.2556157 5.7281179 -1.7771547
7.2009783 5.305985 -2.1242731
7.1484098 4.891017 -2.458252
7.0917912 4.4790273 -2.8179598
7.0389328 4.0751729 -3.1537774
6.9859533 3.6768174 -3.4903703
6.9334774 3.2842789 -3.8237588
6.8837376 2.898416 -4.1397672
6.8323898 2.5171969 -4.4659872
6.7811704 2.141423 -4.7913942
6.7309299 1.7712977 -5.11058
6.6828427 1.4069147 -5.4160881
6.6350694 1.0476418 -5.7196016
6.5876107 0.69343305 -6.0211134
6.5407243 0.3442508 -6.3189945
6.4937949 -3.1284907e-07 -6.6171451
6.4479814 -0.33936653 -6.9082084
6.4027853 -0.67397636 -7.1953478
6.3637547 -1.0048018 -7.4433146
6.3329773 -1.333258 -7.6388521
6.3035879 -1.658838 -7.8255701
6.2739058 -1.9812329 -8.0141459
6.2455969 -2.3010075 -8.1939983
6.2166643 -2.617543 -8.3778086
6.1885715 -2.9314263 -8.5562935
6.1608663 -3.2425616 -8.7323027
6.1346231 -3.5516233 -8.8990335
6.1361752 -3.875478 -8.8891745
6.4112725 -11.135368 -7.1414251
6.4186497 -11.486004 -7.0945582
7.9628124 7.9628153 0.18634106
7.7714596 7.3828878 -0.96857518
7.7154999 6.9439497 -1.3063205
7.6606069 6.5115161 -1.6376305
7.6046171 6.0836954 -1.9755569
7.5466595 5.6599956 -2.3253667
7.4933691 5.2453594 -2.6470001
7.4357066 4.8332119 -2.9950259
7.3794808 4.4276896 -3.3343737
7.3259878 4.029295 -3.6572349
7.2737455 3.6368732 -3.9725456
7.2186909 3.2484124 -4.3048263
7.1680498 2.8672209 -4.6104751
7.1160727 2.4906263 -4.9241829
7.0647302 2.119421 -5.2340631
7.0144868 1.7536232 -5.5373111
6.9650078 1.393003 -5.8359427
6.9161949 1.0374303 -6.1305532
6.8680615 0.68680704 -6.4210658
6.8205142 0.34102753 -6.7080388
6.7730474 1.9704648e-06 -6.994525
6.7354703 -0.33677185 -7.2213249
6.7034054 -0.67033833 -7.4148521
6.671771 -1.0007657 -7.6057816
6.6388569 -1.3277709 -7.8044367
6.6070833 -1.6517692 -7.9962068
6.5768404 -1.9730502 -8.1787395
6.5474086 -2.2915912 -8.3563776
6.5170088 -2.6068017 -8.5398569
6.4885864 -2.9198625 -8.7113991
6.4731598 -3.2365787 -8.8045073
6.7752881 -11.517988 -6.9810009
6.7955709 -11.892247 -6.8585868
8.2410002 7.8485732 -0.50316262
8.062747 7.294867 -1.5277885
8.0062075 6.8624659 -1.8527778
7.9490218 6.4349251 -2.1814904
7.8901224 6.0115237 -2.5200548
7.8324203 5.5945878 -2.8517332
7.7788916 5.1859293 -3.1594195
7.7185135 4.7781286 -3.5064859
7.6608729 4.3776426 -3.8378065
7.6072774 3.9847651 -4.1458812
7.5543952 3.597332 -4.4498549
7.4999013 3.2142451 -4.7630949
7.4468474 2.8368959 -5.0680561
7.3949227 2.4649751 -5.3665228
7.3440676 2.0983059 -5.6588445
7.2939067 1.7366447 -5.9471741
7.2444553 1.379898 -6.231432
7.1924515 1.0274938 -6.530354
7.1452169 0.68049788 -6.8018627
7.110579 0.33859921 -7.0009651
7.0769792 1.0896999e-06 -7.1941032
7.0429711 -0.33537856 -7.3895864
7.0084648 -0.6674726 -7.5879312
6.9747424 -0.99639076 -7.7817736
6.9420724 -1.3222996 -7.9695644
6.9101973 -1.6452839 -8.1527863
6.8784094 -1.9652596 -8.3355074
6.8472414 -2.2824135 -8.5146637
6.8277283 -2.6010389 -8.6268291
7.1662016 -11.60242 -6.6812444
7.1420994 -11.903499 -6.8197832
7.1792188 -12.307232 -6.6064157
8.5273504 7.7521381 -1.0852003
8.3574667 7.217813 -2.0173273
8.2896757 6.7824631 -2.3892789
8.2298927 6.3594632 -2.7173028
8.1725845 5.9436989 -3.0317438
8.1147432 5.5327802 -3.3491082
8.0573139 5.1273828 -3.6642196
7.9969263 4.7254567 -3.9955556
7.9419274 4.3319602 -4.2973261
7.8874226 3.9437125 -4.596386
7.8316345 3.5598342 -4.9024863
7.7766929 3.1813769 -5.2039452
7.7225471 2.8082008 -5.5010347
7.6710629 2.440794 -5.7835193
7.6186132 2.0778046 -6.0713024
7.5686784 1.7201551 -6.3452878
7.5260525 1.3683739 -6.5791698
7.4892268 1.0212585 -6.7812262
7.4542789 0.67766434 -6.97298
7.4172702 0.33715045 -7.1760406
7.3818083 -2.357301e-07 -7.3706155
7.3470454 -0.33395535 -7.5613546
7.3122225 -0.66474676 -7.7524204
7.2777553 -0.99242049 -7.9415374
7.2439632 -1.3170836 -8.1269474
7.2108865 -1.6388375 -8.3084354
7.1904168 -1.9610211 -8.4207525
7.5215535 -11.966108 -6.6038532
7.5117855 -12.292011 -6.6574502
8.8177509 7.6676102 -1.5953649
8.6624413 7.1559291 -2.4104784
8.5681696 6.7055254 -2.905241
8.5075369 6.2881813 -3.2234557
8.4470892 5.8762355 -3.5407095
8.3887424 5.4709196 -3.8469253
8.3307514 5.0708938 -4.1512794
8.2735233 4.6763411 -4.4516292
8.2168436 4.2870498 -4.7491045
8.15975 3.9024909 -5.0487437
8.104353 3.5236318 -5.3394833
8.0506306 3.150249 -5.6214342
7.9972692 2.7816601 -5.9014931
7.9495668 2.4194341 -6.1518474
7.9123383 2.0640903 -6.3472357
7.8740482 1.7117518 -6.5481906
7.8363395 1.3628427 -6.746098
7.7988701 1.0172441 -6.9427452
7.7609253 0.67486483 -7.1418967
7.7221694 0.3357487 -7.3452969
7.6862769 8.7472949e-07 -7.5336666
7.6485214 -0.33254319 -7.7318196
7.612937 -0.66199285 -7.9185796
7.5777674 -0.98840326 -8.1031599
7.5626326 -1.3152397 -8.1825895
7.8836398 -12.339609 -6.4978528
7.894485 -12.699822 -6.4409328
9.1163311 7.5969434 -2.0218737
8.9770737 7.1068497 -2.7222908
8.8643265 6.6482449 -3.289362
8.780158 6.2192788 -3.7126989
8.7158976 5.8105993 -4.0358992
8.6571074 5.4106932 -4.3315916
8.5965528 5.0146575 -4.6361623
8.5437746 4.6278791 -4.9016194
8.4846869 4.2423444 -5.1988072
8.4327297 3.8650014 -5.460125
8.3884573 3.4951916 -5.6828008
8.3463926 3.129899 -5.8943682
8.3061523 2.7687185 -6.096765
8.265069 2.4106452 -6.3033962
8.2224388 2.0556109 -6.5178103
8.183445 1.7048858 -6.7139363
8.1428423 1.3571404 -6.918149
8.1033545 1.0129197 -7.116756
8.0652018 0.67210072 -7.3086467
8.0261574 0.33442411 -7.5050249
7.9871278 9.8625787e-07 -7.701333
7.9532599 -0.33138558 -7.871675
7.9501486 -0.66251147 -7.887321
8.2592878 -12.733068 -6.3324709
8.2860632 -13.1196 -6.197803
9.4193211 7.5354576 -2.3929765
9.2931423 7.0627909 -3.0022225
9.1861382 6.6140194 -3.5188842
9.10075 6.1885114 -3.9311769
9.0296545 5.7789798 -4.2744551
8.9641485 5.3784885 -4.5907478
8.9061356 4.9874363 -4.8708534
8.8510399 4.6025434 -5.1368823
8.8007708 4.2243714 -5.3796053
8.7525635 3.8511291 -5.6123643
8.7058811 3.4823542 -5.8377714
8.6618738 3.1182775 -6.0502567
8.6156788 2.7570188 -6.2733049
8.5734777 2.4005747 -6.4770684
8.5305967 2.047344 -6.6841164
8.4886999 1.6977401 -6.8864141
8.4481516 1.3517057 -7.0821981
8.4069948 1.0088407 -7.2809262
8.3660135 0.66928244 -7.4788003
8.3379765 0.33352134 -7.6141706
8.6653509 -12.824718 -6.0334678
8.6379519 -13.129685 -6.1657605
8.6903849 -13.557 -5.9125915
9.7267323 7.4821024 -2.7150023
9.6106367 7.023159 -3.2539983
9.509903 6.5837803 -3.7216859
9.4231853 6.161315 -4.1242919
9.3521051 5.7551432 -4.4542861
9.286684 5.3577042 -4.7580233
9.2258863 4.9677863 -5.0402908
9.170064 4.5850339 -5.2994595
9.1177073 4.2081747 -5.5425353
9.0683861 3.8366251 -5.7715173
9.0187435 3.4687483 -6.0019946
8.9718552 3.1056428 -6.2196836
8.9244432 2.7459838 -6.4398026
8.8807316 2.3909686 -6.642745
8.8374128 2.0394032 -6.8438663
8.7921505 1.6908001 -7.0540085
8.7566137 1.3471715 -7.2189913
8.756278 1.0103415 -7.2205472
9.0288076 -13.195948 -5.955276
9.0195608 -13.52934 -5.9982009
9.9221878 6.9822826 -3.5137045
9.8310032 6.5540028 -3.9213645
9.7465515 6.1367188 -4.2989354
9.6705313 5.7306871 -4.6387987
9.6058826 5.3366027 -4.9278288
9.5445824 4.9490438 -5.2018905
9.4880705 4.5683312 -5.4545407
9.4327097 4.1923156 -5.7020459
9.3792858 3.8211925 -5.9408927
9.3284388 3.4549799 -6.1682143
9.2793722 3.0931246 -6.3875818
9.2320366 2.7354188 -6.5992074
9.192318 2.3831954 -6.7767797
9.1841888 2.0409324 -6.8131266
9.403244 -13.582462 -5.8337808
9.4182901 -13.953021 -5.7665143
10.478503 7.110414 -2.6996536
10.158788 6.5306501 -4.0779762
10.063977 6.1102748 -4.4867148
9.9878397 5.7073393 -4.8149486
9.9222984 5.3155174 -5.0975056
9.8582029 4.9291034 -5.3738294
9.7987432 4.5494165 -5.6301622
9.7421131 4.1751919 -5.8743005
9.6944342 3.8085291 -6.0798497
9.6574574 3.4490929 -6.2392569
9.7911577 -13.987367 -5.6628661
9.8253679 -14.387145 -5.5153823
10.842831 6.7300334 -2.7408824
10.212444 -14.08613 -5.3648229
10.182237 -14.395576 -5.4905591
11.228065 6.7368402 -2.6952386
11.280072 6.3920422 -2.4859786
10.584191 -14.46506 -5.2859864
10.577455 -14.808436 -5.3130927
11.646379 6.7624145 -2.5237293
11.650106 6.3887696 -2.5092165
10.972466 -14.865923 -5.147871
10.992522 -15.247692 -5.069777
12.061478 6.4076605 -2.3750689
12.095018 6.0475111 -2.2485483
11.373173 -15.282701 -4.971499
11.417495 -15.699055 -4.8043084
12.49277 6.0571022 -2.1761849
12.575034 5.7159262 -1.875276
11.809741 -15.388452 -4.674634
