# .PCD v0.7 - Point Cloud Data file format
VERSION 0.7
FIELDS x y z
SIZE 4 4 4
TYPE F F F
COUNT 1 1 1
WIDTH 1475
HEIGHT 1
VIEWPOINT 0 0 0 1 0 0 0
POINTS 1475
DATA ascii
-12.251888 18.786228 -2.8740933
-12.247245 18.370867 -2.8927796
-12.219404 11.404777 -3.0047998
-12.231514 11.008361 -2.9560771
-12.264899 10.629578 -2.8217428
-12.318435 10.26536 -2.6063368
-11.93097 18.513575 -2.5099692
-12.029789 18.252094 -2.098644
-11.93097 10.285319 -2.5099707
-11.953801 9.8928003 -2.4149439
-11.995789 9.5138998 -2.2401702
-12.068435 9.155364 -1.9377826
-11.640407 18.707796 -1.9889811
-11.667529 18.334686 -1.8720552
-11.629009 9.5523996 -2.0381169
-11.640055 9.1457548 -1.9905022
-11.672247 8.7541847 -1.8517133
-11.724712 8.374794 -1.6255275
-11.332407 18.467625 -1.507347
-11.327894 8.3910303 -1.5275235
-11.350149 7.9871402 -1.428028
-11.391513 7.5943398 -1.2431034
-11.463104 7.2175102 -0.92303586
-11.018098 18.646011 -1.0179621
-11.064321 18.298681 -0.8033666
-11.014884 7.6256876 -1.0328816
-11.02497 7.208632 -0.98605597
-11.055879 6.8036165 -0.84255767
-11.10702 6.4078941 -0.60511988
-11.228818 -11.228821 -0.039646532
-11.205545 -11.63653 -0.14769731
-11.183622 -12.043901 -0.24947976
-11.161535 -12.449407 -0.35202137
-11.133763 -12.846652 -0.48095879
-11.100985 -13.235791 -0.63314211
-11.055829 -13.607177 -0.8427847
-10.992876 -13.952497 -1.1350598
-10.902378 -14.256958 -1.5552151
-10.792941 -14.528963 -2.0632985
-10.719321 -14.842138 -2.4050987
-10.709226 18.419867 -0.46317309
-10.700427 6.4202547 -0.50565457
-10.722067 6.0043554 -0.40117037
-10.762562 5.5965314 -0.20563978
-10.832861 5.1997705 0.13379316
-10.906218 -5.6712341 0.48799095
-10.892536 -6.0998225 0.42193052
-10.878839 -6.5273066 0.35579887
-10.865079 -6.9536533 0.28935522
-10.851992 -7.3793573 0.22616494
-10.840406 -7.8050942 0.17022689
-10.829288 -8.2302599 0.11653742
-10.815456 -8.6523666 0.049756218
-10.800687 -9.0725794 -0.021556742
-10.785182 -9.490962 -0.096425965
-10.770011 -9.908411 -0.1696748
-10.755172 -10.324966 -0.2413228
-10.73869 -10.73869 -0.32090539
-10.722642 -11.15155 -0.39839256
-10.707407 -11.564003 -0.47195053
-10.688734 -11.971384 -0.56211126
-10.671029 -12.378397 -0.64759767
-10.650022 -12.780026 -0.74903536
-10.623677 -13.173363 -0.87623286
-10.582441 -13.545527 -1.0753381
-10.525784 -13.894036 -1.3489089
-10.430585 -14.185596 -1.8085684
-10.319734 -14.447628 -2.3438089
-10.209994 -14.702395 -2.8736713
-10.147954 -15.018973 -3.1732304
-10.371278 18.581873 -0.0083926888
-10.446152 18.280767 0.36819887
-10.375674 5.6201563 0.01372249
-10.38476 5.1923776 0.059420642
-10.414281 4.7732105 0.20790225
-10.463874 4.3599467 0.45733342
-10.536139 -0.87801325 0.82079494
-10.518123 -1.3147682 0.73018754
-10.504772 -1.7507973 0.66303712
-10.492555 -2.1859508 0.6015892
-10.481751 -2.6204398 0.54724985
-10.470875 -3.0540061 0.49254334
-10.458736 -3.4862475 0.43149352
-10.446531 -3.9174509 0.37010932
-10.431469 -4.346446 0.29434973
-10.421357 -4.7764573 0.24349314
-10.410417 -5.2052097 0.18846552
-10.399453 -5.633038 0.1333185
-10.388746 -6.0601034 0.079469509
-10.377172 -6.485733 0.021254221
-10.367819 -6.9118795 -0.025788164
-10.357969 -7.3368969 -0.075322241
-10.346744 -7.7600579 -0.13178939
-10.336005 -8.1826725 -0.18579742
-10.327515 -8.6062641 -0.22850101
-10.321167 -9.031024 -0.26042479
-10.318251 -9.4583979 -0.27509329
-10.317788 -9.8878803 -0.27742171
-10.316632 -10.316633 -0.2832377
-10.315984 -10.745819 -0.28649482
-10.315429 -11.17505 -0.28928611
-10.317973 -11.607719 -0.27649093
-10.315521 -12.034777 -0.28882244
-10.31099 -12.459117 -0.31160945
-10.291112 -12.863892 -0.41159341
-10.261369 -13.254269 -0.56119305
-10.224112 -13.632151 -0.74857563
-9.8677244 -14.390433 -2.5410678
-9.7567854 -14.63518 -3.0990489
-9.6569805 -14.887847 -3.6010282
-10.07973 18.844711 0.72945988
-10.067946 18.384943 0.66761655
-10.047117 4.3683105 0.55830079
-10.068039 3.9396656 0.66810095
-10.081066 3.5064549 0.73647594
-10.080974 3.0681231 0.73599011
-10.081251 2.6298916 0.7374413
-10.082219 2.1917853 0.742522
-10.080144 1.7530657 0.73163819
-10.077703 1.3144815 0.71882284
-10.073743 0.87597537 0.69803828
-10.069371 0.43779832 0.67509878
-10.062938 -4.3787369e-07 0.64133102
-10.05477 -0.43716472 0.59845918
-10.044645 -0.87345022 0.54532939
-10.031255 -1.3084257 0.47505093
-10.016581 -1.7420149 0.39803714
-10.002994 -2.1745658 0.32672483
-9.9933357 -2.6069589 0.27603927
-9.9929733 -3.041342 0.27413741
-9.9929733 -3.475817 0.27413607
-9.9925661 -3.9101362 0.27199811
-9.9910259 -4.3439274 0.26391882
-9.9893055 -4.7774959 0.25488946
-9.9889898 -5.2116475 0.25322726
-9.9900761 -5.6465669 0.25892922
-9.9897127 -6.0806971 0.25702897
-9.9892159 -6.5147076 0.25441492
-9.9900303 -6.9495888 0.25869071
-9.9868174 -7.3815608 0.24182816
-9.9806232 -7.8109255 0.20932512
-9.9702435 -8.23629 0.1548447
-9.9579048 -8.659049 0.090087168
-9.9447441 -9.0799847 0.021019323
-9.931262 -9.4994678 -0.049745902
-9.9175024 -9.9175043 -0.12195611
-9.9041815 -10.334799 -0.1918671
-9.8898315 -10.749819 -0.26718059
-9.8747711 -11.162787 -0.34621924
-9.8604193 -11.575274 -0.42154798
-9.8452721 -11.985551 -0.50103939
-9.8292952 -12.393461 -0.58489126
-9.8093538 -12.794811 -0.68954885
-9.7821102 -13.184586 -0.83253664
-9.7499256 -13.565116 -1.0014471
-9.7283716 -13.958101 -1.114567
-9.3195438 -14.587113 -3.2602191
-9.2104549 -14.816822 -3.8327453
-9.1496429 -15.116804 -4.1519036
-9.7097988 18.536884 1.1043088
-9.8082895 18.279083 1.6447134
-9.6540155 3.5105493 0.79823589
-9.6536617 3.0716176 0.79629678
-9.6551638 2.6332262 0.80454057
-9.6574631 2.1948776 0.81715554
-9.6629505 1.7568996 0.84726185
-9.6668043 1.3181994 0.86840659
-9.6695967 0.87905151 0.88372672
-9.6757631 0.43980503 0.91756284
-9.6857166 -8.1281604e-07 0.97217691
-9.6055155 -3.0563033 0.5321241
-9.5930195 -3.4883728 0.46355945
-9.5820789 -3.9199419 0.40352938
-9.5712938 -4.3505893 0.34435397
-9.5617466 -4.7808747 0.29197013
-9.5516129 -5.2099705 0.23636825
-9.5412416 -5.6380076 0.17946336
-9.5317106 -6.0656376 0.127174
-9.5219421 -6.4922357 0.073570125
-9.5122356 -6.9179912 0.020312799
-9.5023785 -7.3427477 -0.033776771
-9.4913864 -7.7656822 -0.094081193
-9.4819126 -8.1889267 -0.14606203
-9.4738207 -8.612566 -0.19046718
-9.4609423 -9.0309019 -0.26112294
-9.4483109 -9.4483137 -0.33042938
-9.4349537 -9.8638182 -0.4037182
-9.4221392 -10.278699 -0.47403163
-9.4084358 -10.691405 -0.54922044
-9.3938103 -11.101779 -0.62946737
-9.3802729 -11.512155 -0.70374757
-9.3662748 -11.920715 -0.78055
-9.3511572 -12.326528 -0.86349672
-9.3321228 -12.725624 -0.96793568
-9.3086853 -13.116785 -1.0965385
-9.2765417 -13.493155 -1.2729
-9.2429199 -13.86438 -1.4573858
-8.8846016 -14.538442 -3.4234171
-8.7823744 -14.770358 -3.9843273
-8.6926718 -15.014618 -4.47651
-9.3734875 18.746973 1.7081113
-9.3968954 18.346321 1.8426696
-9.1432896 3.4831569 0.38490477
-9.1433306 3.047776 0.38514102
-9.1437874 2.6125102 0.38776791
-9.352931 2.2268882 1.5899547
-9.1181917 -3.0393996 0.24064389
-9.1069717 -3.4693258 0.17614901
-9.0956974 -3.8981564 0.1113404
-9.085845 -4.3265944 0.054704797
-9.0750723 -4.7536111 -0.007213925
-9.0645704 -5.1797557 -0.067583799
-9.0558434 -5.6060009 -0.11774165
-9.0467682 -6.0311818 -0.16990887
-9.0387259 -6.4562345 -0.21614005
-9.0297251 -6.8797908 -0.26787835
-9.0204582 -7.3022771 -0.3211402
-9.0100422 -7.7228956 -0.38101327
-9.0003748 -8.1431961 -0.43658745
-8.9907274 -8.5625982 -0.49204096
-8.9807796 -8.9807806 -0.54922014
-8.966938 -9.3939371 -0.62878036
-8.9564466 -9.8094416 -0.68909347
-8.9430771 -10.220661 -0.76593959
-8.9301043 -10.631078 -0.84051037
-8.9180374 -11.041383 -0.90986556
-8.904705 -11.448908 -0.98651081
-8.8916464 -11.855531 -1.0615695
-8.8772173 -12.259015 -1.1445131
-8.8605719 -12.657962 -1.2401898
-8.838398 -13.04716 -1.3676523
-8.8122425 -13.428181 -1.5179931
-8.7799959 -13.797139 -1.7033497
-8.3550272 -14.720763 -4.1461244
-8.2584715 -14.943904 -4.7011371
-8.2320623 -15.288117 -4.8529425
-9.0185919 18.488113 2.2601333
-8.6002398 3.4400938 -0.26485142
-8.600317 3.0101104 -0.26438692
-8.6008177 2.5802426 -0.26135734
-9.0048676 2.2512143 2.1773007
-8.6330404 -3.0215666 -0.066876762
-8.6251955 -3.4500792 -0.11423128
-8.6144209 -3.8764906 -0.17925553
-8.6050253 -4.3025155 -0.23596054
-8.5947647 -4.7271218 -0.29789266
-8.5846815 -5.1508098 -0.35874975
-8.5756578 -5.5741792 -0.41321421
-8.5674572 -5.9972205 -0.46271124
-8.5601511 -6.4201145 -0.50681067
-8.5517502 -6.8414011 -0.55750912
-8.5428343 -7.2614102 -0.61132735
-8.5346193 -7.681159 -0.66090131
-8.5253973 -8.0991297 -0.71656239
-8.516119 -8.5161219 -0.77256078
-8.5057669 -8.9310551 -0.83504367
-8.4940472 -9.3434534 -0.90577984
-8.4823971 -9.7547588 -0.97609162
-8.4710035 -10.165205 -1.0448579
-8.4593048 -10.574133 -1.1154691
-8.4481964 -10.982657 -1.1825112
-8.4356699 -11.388156 -1.2581167
-8.4217367 -11.790434 -1.3422093
-8.4082556 -12.191972 -1.4235775
-8.3942661 -12.5914 -1.5080115
-8.3749418 -12.981162 -1.6246438
-8.3495197 -13.359234 -1.7780774
-8.3196278 -13.727388 -1.9584904
-7.9333301 -14.676662 -4.2900033
-7.8391619 -14.894408 -4.8583603
-7.780025 -15.171051 -5.215282
-8.6584492 18.684021 2.8369138
-8.6984768 18.312582 3.0912211
-8.0600605 3.3937085 -0.96476543
-8.060132 2.9695203 -0.96431005
-8.060667 2.5454726 -0.96091169
-8.6441898 2.2747858 2.7463233
-8.1568356 -3.0051515 -0.34993103
-8.1477861 -3.4306471 -0.4074254
-8.1374846 -3.8545983 -0.47287682
-8.1285133 -4.2781663 -0.52986592
-8.1188755 -4.7004046 -0.59109801
-8.109621 -5.1218677 -0.64989376
-8.1028385 -5.5440488 -0.69298744
-8.0952396 -5.9649138 -0.74126476
-8.0868645 -6.3843689 -0.79446995
-8.0784359 -6.8028932 -0.8480233
-8.0700598 -7.220583 -0.90123439
-8.0626287 -7.6382823 -0.94844449
-8.0551767 -8.0551786 -0.99579191
-8.0465288 -8.4700327 -1.05073
-8.0357723 -8.8816452 -1.1190712
-8.0252914 -9.2924433 -1.185658
-8.0137796 -9.7008944 -1.2587917
-8.0029697 -10.109017 -1.3274705
-7.9923291 -10.516226 -1.3950717
-7.9816818 -10.922304 -1.4627184
-7.9701557 -11.326013 -1.5359465
-7.9581409 -11.727789 -1.6122773
-7.9454694 -12.127296 -1.6927824
-7.9316978 -12.523736 -1.780274
-7.9153934 -12.914592 -1.8838577
-7.8926525 -13.29289 -2.0283408
-7.8640947 -13.658693 -2.2097712
-7.516912 -14.6382 -4.4154897
-7.4226508 -14.845304 -5.0143504
-7.3492117 -15.085226 -5.4809217
-8.2966909 18.437086 3.4669549
-7.5429497 3.3524213 -1.5877434
-7.5430489 2.9334068 -1.5870818
-7.5436096 2.5145359 -1.5833207
-8.2771101 2.299196 3.3356397
-7.684989 -2.9886098 -0.63520753
-7.675827 -3.4114788 -0.69665056
-7.6660738 -3.8330379 -0.76205879
-7.6576366 -4.2542429 -0.81864107
-7.648675 -4.6741934 -0.87873477
-7.6409521 -5.0939698 -0.93052465
-7.6334481 -5.5130477 -0.98084843
-7.6263628 -5.9316163 -1.0283639
-7.6184168 -6.3486824 -1.0816538
-7.6105533 -6.7649369 -1.1343842
-7.6028075 -7.1804314 -1.1863304
-7.5956783 -7.5956788 -1.2341372
-7.5887299 -8.0103283 -1.2807333
-7.5808282 -8.4231443 -1.3337259
-7.5710821 -8.8329315 -1.3990835
-7.5612288 -9.2415028 -1.4651636
-7.5504422 -9.64779 -1.5374967
-7.5400825 -10.053445 -1.6069746
-7.5301447 -10.458536 -1.673615
-7.5202007 -10.862514 -1.7403017
-7.510087 -11.265132 -1.8081297
-7.4992828 -11.665552 -1.8805826
-7.4875674 -12.063304 -1.9591471
-7.4743347 -12.457225 -2.0478895
-7.4594064 -12.846758 -2.1479979
-7.4401398 -13.226919 -2.2772014
-7.4132566 -13.590973 -2.4574828
-7.0107846 -14.800548 -5.1565204
-6.9330096 -15.021522 -5.6780958
-6.917583 -15.372409 -5.7815471
-7.9116187 18.615572 4.0055714
-7.9741015 18.293528 4.4492421
-7.049902 3.3176007 -2.1131587
-7.0499625 2.9029245 -2.112725
-7.0505118 2.488414 -2.1088257
-7.9046721 2.324903 3.9562521
-7.2175736 -2.9719434 -0.92258155
-7.2090168 -3.3924782 -0.98334086
-7.1997485 -3.8116348 -1.049149
-7.1919317 -4.2305484 -1.1046535
-7.1846709 -4.6489062 -1.1562092
-7.1775193 -5.0664864 -1.2069896
-7.1700039 -5.4829454 -1.2603586
-7.1628809 -5.8988457 -1.3109319
-7.1554899 -6.3136678 -1.3634149
-7.1482401 -6.7277551 -1.4148974
-7.1410666 -7.1410689 -1.4658296
-7.1343136 -7.5539813 -1.5137782
-7.1279478 -7.9665308 -1.55898
-7.1207533 -8.3773584 -1.6100669
-7.1119275 -8.7853241 -1.6727329
-7.1025047 -9.1914778 -1.7396437
-7.0926127 -9.595891 -1.8098812
-7.0829949 -9.9995241 -1.8781772
-7.0737095 -10.402516 -1.9441047
-7.0643878 -10.804359 -2.010299
-7.0549378 -11.204902 -2.0773995
-7.0450554 -11.603623 -2.1475654
-7.0342903 -11.999674 -2.2240059
-7.0221963 -12.392112 -2.3098845
-7.0083647 -12.779961 -2.4080966
-6.9920669 -13.16154 -2.523819
-6.9667788 -13.523748 -2.7033839
-6.9418793 -13.883761 -2.8801818
-6.6045251 -14.763059 -5.2756109
-6.5255814 -14.970454 -5.8361597
-6.4846578 -15.258019 -6.1267428
-7.5486598 18.399857 4.778348
-6.5734076 3.2867017 -2.5793569
-6.5734925 2.8759 -2.5787177
-6.5741119 2.4652901 -2.5740414
-7.5238128 2.3511906 4.5908947
-6.7549853 -2.9553092 -1.2094585
-6.7483277 -3.3741648 -1.2596885
-6.7396693 -3.7910669 -1.3250118
-6.7323027 -4.2076907 -1.3805847
-6.7247167 -4.6232457 -1.4378167
-6.7175303 -5.0381494 -1.4920368
-6.711123 -5.4527893 -1.5403767
-6.7050786 -5.8669462 -1.5859725
-6.6983147 -6.2796731 -1.6370057
-6.6915345 -6.6915364 -1.6881576
-6.6848269 -7.1026287 -1.7387656
-6.678452 -7.5132594 -1.7868556
-6.6724672 -7.9235573 -1.8320092
-6.6657686 -8.3322105 -1.8825498
-6.6578398 -8.7384176 -1.94236
-6.6488357 -9.1421499 -2.0102968
-6.6398835 -9.5448341 -2.0778325
-6.6308126 -9.9462194 -2.1462708
-6.6220236 -10.346914 -2.2125769
-6.6132298 -10.7465 -2.2789223
-6.6044021 -11.14493 -2.3455241
-6.5952291 -11.541652 -2.4147294
-6.5853744 -11.935993 -2.4890742
-6.5743093 -12.326832 -2.5725536
-6.5619054 -12.713693 -2.6661348
-6.5470042 -13.094009 -2.7785583
-6.5254169 -13.458674 -2.9414184
-6.5027585 -13.818362 -3.112365
-6.198915 -14.722425 -5.4046845
-6.1232362 -14.925389 -5.9756398
-6.0687227 -15.171808 -6.38691
-7.1390591 18.561552 5.2788248
-7.2282395 18.311539 5.9964938
-6.1078596 3.257524 -3.0196311
-6.1079373 2.8503711 -3.0190041
-6.1086121 2.443444 -3.0135736
-7.1323662 2.3774545 5.2249622
-6.2987609 -2.9394224 -1.483377
-6.292696 -3.3561068 -1.532178
-6.2845006 -3.7707014 -1.598134
-6.2774763 -4.1849856 -1.6546582
-6.2704687 -4.5983438 -1.7110544
-6.2632303 -5.0105867 -1.7692984
-6.257534 -5.4231977 -1.8151424
-6.2519569 -5.8351612 -1.8600255
-6.2456837 -6.2456851 -1.9105092
-6.2393146 -6.6552706 -1.9617612
-6.2330132 -7.0640836 -2.0124731
-6.2269936 -7.4723945 -2.0609124
-6.2214704 -7.8805318 -2.1053588
-6.2152853 -8.2870474 -2.1551342
-6.2079864 -8.6911831 -2.2138722
-6.1996355 -9.0927992 -2.2810762
-6.191227 -9.4932165 -2.3487422
-6.1827612 -9.8924208 -2.416867
-6.1747432 -10.291239 -2.4813948
-6.1666131 -10.688798 -2.5468163
-6.1583467 -11.085027 -2.6133387
-6.1498652 -11.479752 -2.6815901
-6.1409359 -11.872478 -2.7534535
-6.1308293 -12.26166 -2.8347871
-6.1207032 -12.649457 -2.9162705
-6.106174 -13.026505 -3.0331984
-6.0883083 -13.394279 -3.1769671
-6.0667052 -13.751201 -3.3508143
-5.7244906 -14.883677 -6.1047478
-5.6652856 -15.10743 -6.5811925
-5.6742949 -15.50974 -6.5086875
-6.750361 18.804577 6.0310159
-6.7641406 18.35981 6.1498251
-5.6532183 3.2304075 -3.4287567
-5.6533375 2.8266668 -3.427731
-5.6540046 2.4231424 -3.4219809
-6.7314339 2.4040828 5.8678231
-5.846828 -2.9234142 -1.7594192
-5.840899 -3.3376577 -1.8105392
-5.833384 -3.7500331 -1.8753364
-5.8270016 -4.1621447 -1.9303678
-5.8206072 -4.5733352 -1.9854969
-5.8149333 -4.984231 -2.0344222
-5.8089175 -5.3939972 -2.0862887
-5.8034663 -5.8034678 -2.1332893
-5.7975998 -6.2117143 -2.1838734
-5.7916951 -6.6190825 -2.2347841
-5.7858272 -7.0256481 -2.285378
-5.7801957 -7.4316816 -2.3339369
-5.7751713 -7.8377323 -2.3772585
-5.7695599 -8.2422314 -2.4256377
-5.7627468 -8.6441231 -2.4843805
-5.7552094 -9.0439014 -2.5493708
-5.7475195 -9.4423552 -2.6156743
-5.7396536 -9.839406 -2.6834974
-5.7322741 -10.236206 -2.7471209
-5.7248406 -10.631848 -2.8112171
-5.7171831 -11.025998 -2.8772423
-5.7093754 -11.418753 -2.9445612
-5.7013955 -11.810037 -3.0133634
-5.6921339 -12.197432 -3.0932205
-5.683167 -12.584158 -3.1705339
-5.6702724 -12.960624 -3.2817135
-5.6551242 -13.329937 -3.4123266
-5.6350594 -13.685147 -3.5853245
-5.3289828 -14.845026 -6.2243772
-5.2664971 -15.047136 -6.7631402
-5.2538586 -15.386303 -6.8721113
-6.3328552 18.511419 6.6314411
-5.2101755 3.2062595 -3.7931333
-5.2103057 2.8055477 -3.7919221
-5.2109814 2.4050663 -3.7856491
-6.3214512 2.4313257 6.5255475
-5.3997912 -2.9075818 -2.0324676
-5.3941112 -3.3194554 -2.085206
-5.3873725 -3.729722 -2.1477816
-5.3814859 -4.1396055 -2.2024367
-5.3757987 -4.5487533 -2.2552497
-5.3706784 -4.957551 -2.3027914
-5.3651061 -5.365108 -2.3545344
-5.3598909 -5.772191 -2.4029589
-5.3545251 -6.1782999 -2.4527824
-5.349124 -6.5835376 -2.5029373
-5.3437567 -6.9879899 -2.5527759
-5.3384681 -7.3917255 -2.601877
-5.3338304 -7.7955995 -2.6449451
-5.3287663 -8.1981039 -2.6919611
-5.3227806 -8.5983381 -2.7475438
-5.3158555 -8.9960651 -2.8118463
-5.308835 -9.3925562 -2.8770328
-5.3017206 -9.7877951 -2.9430933
-5.2946477 -10.182016 -3.0087717
-5.287796 -10.575593 -3.0723941
-5.2808714 -10.967965 -3.1366878
-5.2737646 -11.358881 -3.2026765
-5.2663879 -11.748097 -3.2711766
-5.2581882 -12.134281 -3.3473139
-5.2499256 -12.519055 -3.4240339
-5.2384505 -12.894648 -3.5305901
-5.2254028 -13.264485 -3.651741
-5.2075405 -13.619724 -3.817595
-4.9347229 -14.804171 -6.3508301
-4.8734126 -14.995119 -6.9201193
-4.8475928 -15.288566 -7.1598678
-5.9132347 18.725241 7.3106594
-5.9444647 18.328766 7.6248064
-4.7774143 3.5830591 -4.114809
-4.7767 3.1844649 -4.121994
-4.7767992 2.786464 -4.1209974
-4.7774739 2.3887348 -4.114212
-5.9026146 2.4594226 7.2038317
-4.9576778 -2.8919806 -2.3015027
-4.9525762 -3.3017187 -2.3528202
-4.9464002 -3.7098019 -2.4149401
-4.9408765 -4.1173978 -2.4705105
-4.9357677 -4.5244546 -2.5219054
-4.930161 -4.930162 -2.578295
-4.9253902 -5.3358421 -2.6262827
-4.921113 -5.7413011 -2.669311
-4.916276 -6.1453466 -2.7179704
-4.911406 -6.5485425 -2.7669599
-4.9064412 -6.9507947 -2.8168983
-4.9015489 -7.3523254 -2.8661106
-4.8972712 -7.7540135 -2.9091423
-4.8926678 -8.1544485 -2.9554491
-4.8873672 -8.5528927 -3.0087707
-4.881187 -8.948844 -3.0709369
-4.8747954 -9.3433599 -3.1352313
-4.8683791 -9.7367611 -3.1997745
-4.861918 -10.128999 -3.2647681
-4.855536 -10.520329 -3.328969
-4.8492517 -10.910818 -3.3921812
-4.8428411 -11.299965 -3.4566655
-4.836082 -11.6872 -3.5246611
-4.8287129 -12.071785 -3.5987854
-4.8211646 -12.454677 -3.6747193
-4.8116455 -12.831058 -3.770469
-4.7997603 -13.199343 -3.8900275
-4.784349 -13.555656 -4.0450535
-4.7679691 -13.906578 -4.2098241
-4.5416765 -14.76045 -6.4861493
-4.4860444 -14.953482 -7.0457702
-4.4505677 -15.206109 -7.4026332
-5.4872599 18.457148 8.0436468
-4.3504601 3.5594654 -4.4312506
-4.3501554 3.1637466 -4.4345994
-4.3502626 2.7683485 -4.4334197
-4.351573 2.3735836 -4.4190369
-5.4219146 2.4645057 7.3265629
-4.520225 -2.8765085 -2.5683026
-4.5155215 -3.284018 -2.6199195
-4.5100365 -3.690032 -2.6801085
-4.5048342 -4.0953054 -2.7371964
-4.5002007 -4.5002022 -2.788044
-4.4949827 -4.9036193 -2.845304
-4.4905992 -5.3070722 -2.8934088
-4.4867015 -5.7103491 -2.9361801
-4.4823146 -6.1122479 -2.9843202
-4.4778419 -6.5132275 -3.0334041
-4.4739275 -6.9142528 -3.076355
-4.4694524 -7.313652 -3.1254628
-4.4654965 -7.7131329 -3.168875
-4.4608307 -8.1106043 -3.2200775
-4.456099 -8.5071011 -3.2720017
-4.4512272 -8.9024582 -3.3254645
-4.4454288 -9.2949896 -3.3890979
-4.4395332 -9.6862545 -3.4537947
-4.4336905 -10.076571 -3.51791
-4.4279742 -10.466122 -3.5806346
-4.4222178 -10.854535 -3.6438057
-4.4164572 -11.241894 -3.7070162
-4.4102511 -11.627028 -3.7751248
-4.4036574 -12.009975 -3.8474829
-4.3964968 -12.390127 -3.9260631
-4.3880258 -12.765167 -4.0190172
-4.3786597 -13.135983 -4.1217942
-4.3648849 -13.491465 -4.2729573
-4.3490605 -13.837922 -4.4466105
-4.1545753 -14.72986 -6.5808311
-4.1006289 -14.911381 -7.172821
-4.0609584 -15.136302 -7.6081557
-5.0419159 18.655088 8.6894197
-5.0856771 18.308437 9.2176676
-3.9314606 3.5383124 -4.7149596
-3.9313638 3.1450899 -4.7161269
-3.9314766 2.7520328 -4.714767
-3.9329929 2.3597941 -4.6964645
-4.9297991 2.4648983 7.3360505
-4.0869751 -2.8608847 -2.8377297
-4.0827279 -3.2661839 -2.8890004
-4.0778303 -3.6700482 -2.9481218
-4.0731869 -4.0731869 -3.0041752
-4.0689163 -4.4758086 -3.0557241
-4.0649309 -4.8779192 -3.1038351
-4.0608497 -5.2791061 -3.153096
-4.056725 -5.6794167 -3.202883
-4.0527973 -6.0791979 -3.2502937
-4.0487752 -6.4780412 -3.2988503
-4.0453234 -6.8770523 -3.3405128
-4.0419631 -7.2755351 -3.3810751
-4.037724 -7.6716766 -3.4322486
-4.0334768 -8.0669546 -3.4835162
-4.0298309 -8.4626455 -3.5275247
-4.025702 -8.8565435 -3.5773695
-4.0204172 -9.2469606 -3.6411602
-4.015079 -9.6361914 -3.7055955
-4.0097551 -10.02439 -3.7698617
-4.0045791 -10.411907 -3.8323436
-3.9993665 -10.79829 -3.8952653
-3.9942005 -11.183762 -3.9576237
-3.9886332 -11.567037 -4.0248299
-3.9827833 -11.948351 -4.0954437
-3.9764884 -12.327116 -4.1714272
-3.9692764 -12.701687 -4.2584805
-3.960634 -13.070092 -4.3628087
-3.9488869 -13.426217 -4.5046062
-3.9350593 -13.77271 -4.6715159
-3.7170613 -14.868247 -7.302989
-3.67869 -15.08263 -7.7661715
-3.676898 -15.442973 -7.7878017
-4.603879 18.415516 9.5767117
-3.5192626 3.5192609 -4.97049
-3.5192339 3.1282074 -4.9708781
-3.5197649 2.7375927 -4.9637504
-3.5205119 2.3470061 -4.9537354
-4.4375038 2.4652793 7.3452315
-3.658484 -2.8454893 -3.1032095
-3.6546717 -3.2485986 -3.1543446
-3.6505427 -3.6505432 -3.2097228
-3.6465309 -4.051702 -3.2635283
-3.6425128 -4.451962 -3.317421
-3.6391635 -4.8522186 -3.3623466
-3.6355443 -5.2513423 -3.410888
-3.6317334 -5.6493649 -3.4619963
-3.6284802 -6.0474668 -3.5056341
-3.6249433 -6.444345 -3.5530727
-3.6218693 -6.84131 -3.5943017
-3.6185727 -7.2371464 -3.6385157
-3.6152823 -7.6322637 -3.6826477
-3.6114988 -8.0255547 -3.7333932
-3.6079192 -8.418479 -3.7813993
-3.6040461 -8.8098917 -3.8333516
-3.5994148 -9.1985064 -3.895468
-3.5946455 -9.5857229 -3.9594314
-3.5898595 -9.9718342 -4.0236254
-3.585175 -10.357174 -4.086453
-3.5805476 -10.741645 -4.1485167
-3.5760064 -11.125354 -4.2094288
-3.5711806 -11.507139 -4.274148
-3.5661323 -11.887111 -4.3418589
-3.5604956 -12.26393 -4.4174619
-3.5547595 -12.639147 -4.4943929
-3.5467803 -13.004863 -4.6014128
-3.536864 -13.361487 -4.7344151
-3.5250285 -13.708446 -4.8931551
-3.3360155 -14.826738 -7.4282546
-3.2987442 -15.027614 -7.9281492
-3.2892361 -15.349771 -8.0556717
-4.1311808 18.590315 10.162817
-3.1122878 3.501322 -5.211091
-3.1122625 3.1122596 -5.2114716
-3.1129954 2.7238698 -5.200417
-3.1137538 2.3353138 -5.1889725
-3.9450767 2.4656711 7.3547235
-3.2347572 -2.8304145 -3.3631704
-3.2316766 -3.231678 -3.409656
-3.2277455 -3.6312149 -3.4689686
-3.2247462 -4.0309334 -3.5142288
-3.2206559 -4.4284024 -3.5759411
-3.2176833 -4.8265271 -3.6207964
-3.2145271 -5.2236094 -3.6684189
-3.2112293 -5.6196527 -3.7181785
-3.2083542 -6.015666 -3.7615595
-3.205699 -6.4114008 -3.8016269
-3.2027266 -6.8057957 -3.8464727
-3.1995597 -7.1990123 -3.8942578
-3.1966922 -7.592145 -3.937526
-3.1938698 -7.9846764 -3.980113
-3.1908135 -8.3758869 -4.0262284
-3.1868751 -8.7639093 -4.0856543
-3.1828279 -9.150631 -4.1467218
-3.1787119 -9.5361366 -4.2088304
-3.1745536 -9.9204826 -4.2715707
-3.1704721 -10.304036 -4.3331594
-3.1662178 -10.685987 -4.3973489
-3.1622226 -11.06778 -4.4576316
-3.1580296 -11.447859 -4.5208998
-3.153718 -11.826445 -4.5859566
-3.1490431 -12.202544 -4.6564989
-3.1439693 -12.575879 -4.7330556
-3.1375377 -12.942346 -4.8300953
-3.1289608 -13.298084 -4.9595151
-3.1189713 -13.645501 -5.1102457
-2.9566925 -14.783464 -7.5588431
-2.9232528 -14.981674 -8.063406
-2.9081433 -15.267756 -8.2913923
-3.6719697 18.884413 11.148962
-3.675127 18.375637 11.20341
-2.7109735 3.4855354 -5.4228253
-2.7109625 3.0982406 -5.4230123
-2.7110393 2.7110384 -5.4216914
-2.7117841 2.3243847 -5.4088445
-3.452493 2.4660649 7.3642163
-2.8154728 -2.8154743 -3.6207981
-2.8131948 -3.2150798 -3.6600831
-2.8094609 -3.6121655 -3.7244675
-2.8070164 -4.0100245 -3.7666216
-2.803334 -4.405241 -3.8301215
-2.8007367 -4.8012638 -3.8749144
-2.798039 -5.1963587 -3.9214346
-2.7951949 -5.5903902 -3.9704776
-2.792659 -5.9842715 -4.0142083
-2.7903478 -6.3779416 -4.0540581
-2.7878091 -6.7703948 -4.0978389
-2.7850785 -7.1616325 -4.144928
-2.7825608 -7.5526662 -4.1883435
-2.7801859 -7.943388 -4.2293
-2.777447 -8.3323431 -4.2765298
-2.7741401 -8.7187262 -4.3335557
-2.7706695 -9.103631 -4.3934035
-2.7674015 -9.4882345 -4.4497595
-2.7639363 -9.8712025 -4.5095167
-2.7603886 -10.252873 -4.5706906
-2.7566805 -10.632912 -4.6346354
-2.7527564 -11.011026 -4.7023058
-2.7491701 -11.38942 -4.7641506
-2.7453904 -11.765961 -4.8293214
-2.7417111 -12.141866 -4.8927698
-2.7372153 -12.512988 -4.9702973
-2.7321556 -12.880164 -5.0575504
-2.7248774 -13.23512 -5.1830597
-2.7165048 -13.582527 -5.3274388
-2.7072439 -13.922971 -5.4871397
-2.5796466 -14.740841 -7.6874752
-2.5505252 -14.938793 -8.1896515
-2.5328021 -15.196814 -8.4952822
-3.1777117 18.536648 11.758736
-2.3137829 3.4706733 -5.6221724
-2.3137643 3.0850158 -5.6225452
-2.313848 2.6994886 -5.6208615
-2.3144903 2.3144889 -5.6079345
-2.9597363 2.4664474 7.3734078
-2.4006815 -2.8007975 -3.8739057
-2.3983891 -3.1978524 -3.9200277
-2.3956919 -3.5935376 -3.9742923
-2.3931699 -3.9886181 -4.0250273
-2.3904345 -4.3824663 -4.0800557
-2.3881516 -4.7763062 -4.1259837
-2.3858731 -5.1693935 -4.171824
-2.3835101 -5.5615268 -4.2193646
-2.3813195 -5.9533 -4.2634406
-2.3793197 -6.3448529 -4.3036737
-2.3771858 -6.7353601 -4.3466043
-2.3748987 -7.1246977 -4.3926158
-2.3727336 -7.513658 -4.4361758
-2.3707089 -7.9023638 -4.4769058
-2.3683565 -8.2892504 -4.5242343
-2.3656583 -8.6740808 -4.5785222
-2.3627717 -9.0572939 -4.63659
-2.3599603 -9.4398441 -4.693151
-2.3573198 -9.8221674 -4.7462759
-2.3542321 -10.201674 -4.808394
-2.3510854 -10.579886 -4.8717022
-2.3476689 -10.95579 -4.9404364
-2.3444538 -11.331526 -5.0051241
-2.3412566 -11.706284 -5.0694432
-2.3381252 -12.080315 -5.1324401
-2.3345568 -12.450973 -5.2042289
-2.3303006 -12.816656 -5.2898588
-2.3246496 -13.173016 -5.4035501
-2.3173628 -13.51795 -5.5501513
-2.3093331 -13.856 -5.7116976
-2.2055128 -14.70342 -7.8003974
-2.1802807 -14.898588 -8.3080254
-2.1623704 -15.136595 -8.668354
-2.6819663 18.773762 12.576502
-2.6982117 18.347836 12.968704
-1.9207193 3.457294 -5.8016248
-1.9207115 3.0731368 -5.8018098
-1.9207885 2.6891038 -5.7999516
-1.9214354 2.3057206 -5.7843342
-2.4668405 2.4668386 7.3829088
-1.9902091 -2.786294 -4.1239891
-1.9880958 -3.180954 -4.1750102
-1.9860774 -3.5749421 -4.2237363
-1.9838333 -3.9676685 -4.2779164
-1.9817417 -4.3598342 -4.3284111
-1.9798834 -4.7517228 -4.3732734
-1.9780205 -5.1428561 -4.4182487
-1.9760796 -5.5330238 -4.4651065
-1.9740937 -5.9222827 -4.5130506
-1.9723959 -6.311667 -4.5540409
-1.9706442 -6.7001929 -4.5963268
-1.9687663 -7.0875597 -4.6416664
-1.9669887 -7.4745574 -4.6845789
-1.9652145 -7.8608589 -4.7274137
-1.9632987 -8.2458553 -4.7736659
-1.9613864 -8.6301031 -4.8198276
-1.9590056 -9.0114279 -4.8773079
-1.9566463 -9.3919048 -4.9342647
-1.9542053 -9.7710266 -4.9932017
-1.9516747 -10.148711 -5.0542898
-1.9491351 -10.525331 -5.1156039
-1.9464438 -10.900085 -5.1805787
-1.9439096 -11.274678 -5.2417564
-1.9412249 -11.64735 -5.306571
-1.9385321 -12.0189 -5.3715854
-1.9355885 -12.387769 -5.4426455
-1.9323033 -12.753202 -5.5219593
-1.927943 -13.110014 -5.6272264
-1.9221057 -13.454741 -5.7681518
-1.9155301 -13.791819 -5.9268985
-1.8327757 -14.66221 -7.9247656
-1.8118387 -14.85708 -8.4302282
-1.7951789 -15.079506 -8.8324337
-1.7999992 -15.479998 -8.7160597
-2.1741252 18.480062 13.438147
-1.5310107 3.444773 -5.969552
-1.5310168 3.0620334 -5.9693689
-1.5310596 2.6793528 -5.9680762
-1.5315855 2.2973752 -5.9522038
-1.9737873 2.4672332 7.3924122
-1.5840114 -2.7720215 -4.3701167
-1.5824099 -3.1648216 -4.418447
-1.5806812 -3.5565338 -4.4706135
-1.5789953 -3.9474888 -4.5214906
-1.5773195 -4.3376317 -4.5720592
-1.5758544 -4.7275634 -4.6162724
-1.5743922 -5.1167774 -4.6603999
-1.5728035 -5.5048132 -4.7083421
-1.5712181 -5.8920712 -4.7561851
-1.5696874 -6.2787504 -4.8023849
-1.5682685 -6.665144 -4.8451996
-1.5669738 -7.0513844 -4.8842659
-1.5656047 -7.4366245 -4.9255848
-1.5639637 -7.8198195 -4.9751115
-1.5624468 -8.2028494 -5.0208831
-1.5611365 -8.5862513 -5.0604277
-1.5593144 -8.9660587 -5.1154146
-1.5573764 -9.3442602 -5.1738982
-1.5552791 -9.7204962 -5.2371883
-1.5532883 -10.096375 -5.297267
-1.5513401 -10.471547 -5.3560581
-1.5493592 -10.845516 -5.4158359
-1.5473772 -11.218486 -5.4756484
-1.5452571 -11.58943 -5.5396309
-1.5430558 -11.958683 -5.6060629
-1.5407492 -12.325994 -5.6756682
-1.5383508 -12.691396 -5.7480459
-1.5349146 -13.046775 -5.8517413
-1.5304608 -13.391534 -5.9861474
-1.5254437 -13.728993 -6.1375527
-1.4453568 -14.81491 -8.5543842
-1.431313 -15.02879 -8.9781942
-1.4321309 -15.39541 -8.9535112
-1.650575 18.706516 14.242125
-1.6592891 18.252178 14.592749
-1.6714598 6.6858397 15.082461
-1.6687635 6.1187987 14.973969
-1.6661336 5.5537786 14.868156
-1.1443423 3.4330244 -6.12711
-1.1443467 3.0515902 -6.1269269
-1.1443832 2.6702268 -6.125463
-1.1452399 2.2904794 -6.0909882
-1.4805766 2.4676275 7.4019198
-1.1820074 -2.7580202 -4.6115794
-1.180765 -3.1487081 -4.661571
-1.1794479 -3.5383441 -4.7145715
-1.1782205 -3.9274032 -4.763958
-1.1769668 -4.315547 -4.8144026
-1.1758647 -4.7034607 -4.8587456
-1.1747744 -5.0906911 -4.9026189
-1.173571 -5.476666 -4.9510369
-1.1723845 -5.8619227 -4.9987788
-1.1712433 -6.246634 -5.0446954
-1.1701947 -6.6311054 -5.0868826
-1.1691862 -7.0151196 -5.1274676
-1.1681889 -7.39853 -5.1675973
-1.1669848 -7.779901 -5.2160454
-1.165925 -8.1614752 -5.2586894
-1.1649238 -8.5427771 -5.2989755
-1.1635097 -8.9202433 -5.3558693
-1.1620617 -9.2964964 -5.4141345
-1.1606969 -9.6724758 -5.4690509
-1.1592045 -10.046439 -5.5291052
-1.157739 -10.419654 -5.5880642
-1.1562588 -10.79175 -5.6476264
-1.1547916 -11.162989 -5.7066593
-1.1532357 -11.532359 -5.769268
-1.151647 -11.900353 -5.8331919
-1.1499109 -12.265718 -5.9030442
-1.1481938 -12.630134 -5.9721355
-1.1456872 -12.984455 -6.0729976
-1.1424512 -13.328598 -6.2032051
-1.1389085 -13.666903 -6.3457479
-1.0808276 -14.771312 -8.6827431
-1.0700576 -14.980808 -9.1160936
-1.068805 -15.319538 -9.1664982
-1.1156487 18.408205 15.163473
-1.1177367 17.883787 15.289487
-1.1239024 17.420486 15.661625
-1.1310701 14.138375 16.094231
-1.1277634 13.533159 15.894652
-1.1256776 12.945289 15.768764
-1.1238959 12.362854 15.66123
-1.1224942 11.78619 15.576636
-1.1210963 11.210962 15.49225
-1.1196885 10.637039 15.407289
-1.1186301 10.06767 15.343413
-1.1176389 9.4999285 15.283587
-1.1166691 8.9333515 15.225047
-1.1157007 8.3677559 15.166607
-1.1150453 7.805316 15.12705
-1.1146952 7.2455177 15.10592
-1.1147082 6.6882486 15.106704
-1.115214 6.1336741 15.13723
-0.76045585 3.4220498 -6.2743163
-0.76045585 3.0418227 -6.2743149
-0.76048303 2.6616895 -6.2726755
-0.76115632 2.2834668 -6.232039
-0.98720366 2.4680088 7.4111204
-0.78395468 -2.7438428 -4.8560357
-0.78309327 -3.1323755 -4.9080253
-0.78223699 -3.5200667 -4.9597077
-0.78141767 -3.907089 -5.0091596
-0.78062224 -4.2934246 -5.0571671
-0.77987921 -4.6792765 -5.102015
-0.77914393 -5.0644364 -5.1463962
-0.77835619 -5.4484954 -5.1939344
-0.77757335 -5.8318009 -5.2411857
-0.77688336 -6.2150679 -5.2828317
-0.77623224 -6.5979762 -5.3221292
-0.77548492 -6.9793663 -5.3672304
-0.77479237 -7.3605294 -5.4090304
-0.77410412 -7.741044 -5.4505701
-0.77341396 -8.1208467 -5.4922252
-0.77265346 -8.4991913 -5.538126
-0.77171731 -8.8747511 -5.5946288
-0.77075553 -9.2490692 -5.6526747
-0.76990134 -9.6237688 -5.7042341
-0.76899338 -9.9969177 -5.7590299
-0.76802301 -10.368312 -5.8175983
-0.76704282 -10.738602 -5.8767591
-0.76605898 -11.107857 -5.9361367
-0.76504713 -11.475709 -5.9972081
-0.76401365 -11.842213 -6.059587
-0.76285535 -12.205687 -6.1294937
-0.76169765 -12.568012 -6.1993709
-0.76017249 -12.922934 -6.2914219
-0.75812238 -13.267144 -6.4151521
-0.75579125 -13.604245 -6.5558486
-0.75346261 -13.939059 -6.6963983
-0.7184214 -14.727641 -8.8113222
-0.71120709 -14.93535 -9.2467442
-0.70944905 -15.253156 -9.35285
-0.56473207 16.941961 15.997305
-0.56520492 16.390942 16.05438
-0.5652349 15.826576 16.058002
-0.56500173 15.255047 16.029854
-0.56471878 14.682685 15.995701
-0.5644328 14.11082 15.961184
-0.5649218 13.558125 16.020205
-0.3790957 3.411859 -6.4109907
-0.37909716 3.0327749 -6.41081
-0.37911215 2.6537838 -6.4090014
-0.37943929 2.2766359 -6.369513
-0.4936806 2.4684024 7.4206324
-0.38998243 -2.7298784 -5.0968447
-0.38956246 -3.1165009 -5.1475425
-0.38915601 -3.5024052 -5.1966033
-0.38869682 -3.8869691 -5.2520308
-0.38830632 -4.2713709 -5.2991672
-0.38793707 -4.6552467 -5.3437409
-0.38757318 -5.0384517 -5.3876681
-0.3871865 -5.4206114 -5.4343419
-0.38680688 -5.8021059 -5.4801693
-0.38648874 -6.1838207 -5.5185747
-0.38616955 -6.5648847 -5.5570998
-0.38579655 -6.9443388 -5.6021256
-0.38542736 -7.323123 -5.6466885
-0.38510531 -7.7021074 -5.6855669
-0.38476834 -8.0801363 -5.7262421
-0.38437182 -8.4561815 -5.7741046
-0.3839131 -8.8300028 -5.8294802
-0.3834846 -9.2036314 -5.8812041
-0.38305706 -9.5764294 -5.9328103
-0.38256481 -9.9466867 -5.9922323
-0.38208598 -10.316323 -6.0500283
-0.3816008 -10.684824 -6.1085963
-0.38111833 -11.052433 -6.1668353
-0.38061896 -11.418571 -6.2271132
-0.38011035 -11.783422 -6.2885098
-0.37957302 -12.146339 -6.3533692
-0.3789683 -12.505957 -6.4263668
-0.37827888 -12.861485 -6.5095863
-0.37733635 -13.206772 -6.6233649
-0.37616655 -13.541999 -6.7645655
-0.3750011 -13.875043 -6.9052486
-0.35815448 -14.684336 -8.938818
-0.35451856 -14.889782 -9.3777113
-0.35338807 -15.195689 -9.5141735
1.4768839e-23 3.4022794 -6.5394778
2.9627036e-24 3.0242605 -6.5393009
6.5079518e-24 2.6463432 -6.5373211
1.7224693e-23 2.270272 -6.4975109
8.34099e-24 2.4687958 7.43015
1.2769238e-23 -3.1008382 -5.3838854
1.5215824e-23 -3.4847374 -5.4335866
1.1432098e-23 -3.8672893 -5.4895878
9.4639501e-24 -4.2497153 -5.5368123
6.5746685e-24 -4.6315928 -5.5816879
1.1792244e-23 -5.012876 -5.6251669
1.7571739e-23 -5.3931231 -5.6713691
1.5247291e-23 -5.7726841 -5.7169199
2.0050238e-23 -6.1524177 -5.7554927
1.824409e-23 -6.5316005 -5.7934446
1.0280929e-23 -6.9092469 -5.8374591
4.6548509e-24 -7.2861791 -5.8813906
1.0041073e-23 -7.6631646 -5.9206133
-9.8738406e-25 -8.0394125 -5.9603281
8.6040057e-24 -8.4137745 -6.0067878
6.2712399e-24 -8.7864742 -6.0579324
-3.2041449e-24 -9.1589298 -6.1060319
1.8555528e-23 -9.5289078 -6.1622601
7.2819348e-24 -9.8967619 -6.2240148
2.284984e-23 -10.264732 -6.280684
1.1655364e-23 -10.631624 -6.3379436
1.5669125e-23 -10.997561 -6.3952408
1.192521e-23 -11.362132 -6.4542027
4.3794954e-24 -11.72512 -6.5155344
2.3440704e-23 -12.087564 -6.5750813
1.0707906e-23 -12.446466 -6.6439734
1.3508806e-23 -12.800364 -6.7265821
6.735397e-24 -13.146486 -6.8312879
7.7253803e-24 -13.481319 -6.9680266
-4.2802094e-24 -13.810534 -7.1157036
1.4980344e-23 -14.644229 -9.0568943
-3.3847347e-24 -14.851444 -9.4878979
1.3198449e-24 -15.146051 -9.6535196
0.3769787 3.3928068 -6.6665316
0.37698019 3.0158401 -6.6663518
0.37699649 2.638974 -6.6643844
0.37733781 2.2640252 -6.6231842
0.49383575 2.4691782 7.4393601
0.38566148 -3.085294 -5.6184258
0.38524613 -3.4672151 -5.6685667
0.3847822 -3.8478234 -5.724566
0.38438722 -4.228261 -5.7722435
0.3840192 -4.6082315 -5.8166704
0.38365495 -4.9875159 -5.8606391
0.38328218 -5.3659525 -5.9056349
0.38290861 -5.7436309 -5.9507279
0.38258922 -6.1214285 -5.9892831
0.38227341 -6.4986496 -6.0274053
0.38192007 -6.8745623 -6.0700583
0.38155979 -7.2496386 -6.1135478
0.38123354 -7.6246715 -6.1529317
0.38091236 -7.9991627 -6.1916957
0.38053739 -8.3718233 -6.2369642
0.38012993 -8.7429895 -6.2861466
0.37975195 -9.114048 -6.3317728
0.37926966 -9.4817438 -6.3899884
0.37875867 -9.8477278 -6.451674
0.3782953 -10.213974 -6.5076065
0.37782413 -10.579077 -6.5644803
0.3773497 -10.943142 -6.6217518
0.37687051 -11.306117 -6.6795917
0.37639552 -11.668262 -6.7369328
0.37588334 -12.028269 -6.7987523
0.37534469 -12.386376 -6.8637757
0.37467134 -12.738826 -6.9450588
0.37387782 -13.085726 -7.0408411
0.37280911 -13.42113 -7.1698475
0.37161103 -13.749609 -7.3144698
0.35605264 -14.59816 -9.1925354
0.35268596 -14.812814 -9.5989227
0.35123733 -15.103208 -9.7737904
0.62549192 15.637297 -14.420109
0.62797093 15.385287 -14.270489
0.63111514 15.146761 -14.08072
0.63480341 14.917879 -13.858114
0.75207341 3.3843293 -6.780241
0.75207639 3.0083041 -6.7800636
0.75210881 2.6323786 -6.7781048
0.75329387 2.2598791 -6.7065835
0.98782927 2.4695728 7.4488831
0.76746345 -3.0698552 -5.8513694
0.76663184 -3.449846 -5.9015646
0.76571023 -3.828552 -5.9571896
0.7649281 -4.2071052 -6.0043936
0.76419938 -4.5851974 -6.0483751
0.76349032 -4.962688 -6.0911722
0.76272792 -5.3390965 -6.1371861
0.76198828 -5.7149119 -6.1818285
0.76134676 -6.090775 -6.2205462
0.76074558 -6.4663382 -6.2568316
0.76003689 -6.840333 -6.2996044
0.75931442 -7.2134891 -6.3432074
0.75865936 -7.5865955 -6.3827438
0.75804144 -7.9594359 -6.4200382
0.75729889 -8.3302898 -6.4648571
0.75660855 -8.7010002 -6.5065227
0.75577044 -9.0692453 -6.5571089
0.75480342 -9.4350433 -6.6154752
0.75380921 -9.7995224 -6.675477
0.7528708 -10.163757 -6.7321138
0.75193483 -10.527089 -6.7886086
0.75098926 -10.889347 -6.8456721
0.75004035 -11.250607 -6.9029489
0.74918747 -11.612409 -6.9544244
0.74822259 -11.971561 -7.0126615
0.74708253 -12.326865 -7.0814657
0.74573135 -12.677434 -7.1630216
0.74431556 -13.025524 -7.2484684
0.74229544 -13.36132 -7.3703947
0.7399348 -13.688796 -7.5128708
0.70985621 -14.552054 -9.3282747
0.70346963 -14.772864 -9.7137375
0.70078516 -15.066881 -9.875762
0.94089323 15.681551 -14.313271
0.94232368 15.391287 -14.255711
0.94509226 15.121474 -14.144312
0.9479146 14.850662 -14.03075
0.95171034 14.59289 -13.878018
0.95554304 14.333143 -13.723805
0.96052176 14.087651 -13.523477
0.96682847 13.857872 -13.269717
1.1255977 3.3767905 -6.8813314
1.1256065 3.0016153 -6.8809772
1.1256549 2.6265268 -6.8790278
1.1283802 2.256758 -6.7693753
1.4819806 2.4699674 7.458406
1.1452811 -3.054085 -6.0893369
1.1442193 -3.4326603 -6.1320558
1.1428688 -3.8095636 -6.186398
1.1416937 -4.1862125 -6.2336817
1.1406024 -4.5624123 -6.2775898
1.1395628 -4.9381084 -6.3194184
1.1384397 -5.3127189 -6.3646159
1.137296 -5.6864824 -6.4106288
1.1363612 -6.0605955 -6.4482408
1.1354729 -6.4343486 -6.4839873
1.1344471 -6.8066845 -6.5252609
1.1333339 -7.1777835 -6.5700521
1.1323522 -7.5490184 -6.6095538
1.1314344 -7.920043 -6.6464796
1.1303493 -8.2892303 -6.6901426
1.1294614 -8.6592064 -6.7258697
1.1280704 -9.0245647 -6.7818432
1.1266384 -9.3886547 -6.8394589
1.1251749 -9.7515202 -6.8983421
1.1238163 -10.114347 -6.9530125
1.1224302 -10.476017 -7.0087838
1.1210344 -10.83667 -7.0649424
1.1196204 -11.196206 -7.121841
1.1182402 -11.55515 -7.1773729
1.1168593 -11.913166 -7.2329407
1.1152828 -12.268112 -7.2963772
1.1133225 -12.617656 -7.3752508
1.1113648 -12.965926 -7.4540181
1.1084008 -13.30081 -7.5732884
1.1049851 -13.628152 -7.7107186
1.1015947 -13.953534 -7.8471398
1.0615927 -14.508435 -9.4566975
1.0525551 -14.735773 -9.8203402
1.0493559 -15.040768 -9.9490709
1.2741717 14.971517 -13.720358
1.2724169 14.632792 -13.77331
1.274485 14.337955 -13.7109
1.2782834 14.061116 -13.596272
1.2822247 13.783915 -13.477337
1.2874339 13.518052 -13.320134
1.2927117 13.250295 -13.160858
1.2997051 12.997049 -12.949819
1.3092061 12.764757 -12.6631
1.4976844 3.3697882 -6.9752669
1.4976901 2.9953802 -6.975091
1.4977661 2.6210892 -6.9727936
1.5031149 2.2546701 -6.8113809
1.9762899 2.4703619 7.4679332
1.5194111 -3.0388229 -6.3196011
1.5180277 -3.4155643 -6.3613505
1.5163587 -3.7908971 -6.411716
1.5148013 -4.1657052 -6.4587178
1.5132707 -4.5398145 -6.5049005
1.511815 -4.9133997 -6.5488362
1.5103322 -5.2861648 -6.5935798
1.5089533 -5.6585765 -6.6351953
1.5075828 -6.030334 -6.6765513
1.5063628 -6.4020438 -6.7133694
1.5050266 -6.7726202 -6.753696
1.5036808 -7.1424847 -6.7943029
1.5024377 -7.5121913 -6.8318205
1.5012023 -7.8813148 -6.8690987
1.4998167 -8.2489939 -6.9109159
1.4983808 -8.6156912 -6.9542484
1.4966379 -8.9798298 -7.0068436
1.4947942 -9.3424654 -7.0624824
1.4930133 -9.704587 -7.1162286
1.4912364 -10.065847 -7.169848
1.4893887 -10.425723 -7.2256079
1.4875396 -10.784665 -7.2814045
1.4856665 -11.142501 -7.3379335
1.4837348 -11.498947 -7.3962235
1.4818485 -11.854791 -7.4531541
1.4799439 -12.209538 -7.5106306
1.4774804 -12.558585 -7.5849733
1.4749342 -12.905677 -7.661809
1.4712106 -13.240897 -7.7741795
1.4668937 -13.568769 -7.9044552
1.4620109 -13.889107 -8.0518026
1.4112527 -14.465343 -9.5835705
1.4001731 -14.70182 -9.9179258
1.3976367 -15.024595 -9.9944735
1.6155303 13.893559 -13.169538
1.6135397 13.553732 -13.217592
1.6163311 13.253914 -13.150205
1.6212243 12.969794 -13.032073
1.6263789 12.685755 -12.90763
1.6330894 12.411479 -12.745618
1.6400802 12.136591 -12.576847
1.6491146 11.873625 -12.358739
1.6623324 11.636326 -12.039632
1.8689445 3.3641002 -7.0515771
1.8689518 2.9903216 -7.0513988
1.8690464 2.6166627 -7.0491118
1.8775616 2.2530737 -6.8435435
2.4707444 2.4707429 7.4771576
1.8900741 -3.0241213 -6.54146
1.8880937 -3.3985693 -6.589273
1.886095 -3.7721922 -6.6375232
1.8843155 -4.1454954 -6.6804872
1.882421 -4.5178127 -6.7262249
1.8803384 -4.8888822 -6.7765021
1.8785992 -5.2600789 -6.8184929
1.8770469 -5.6311417 -6.8559694
1.8753723 -6.0011921 -6.8963962
1.8736348 -6.3703589 -6.9383407
1.8720031 -6.739213 -6.9777379
1.8705053 -7.1079211 -7.0138946
1.868981 -7.475925 -7.0506983
1.8674009 -7.8430848 -7.0888457
1.8657217 -8.209177 -7.1293826
1.8638064 -8.5735111 -7.1756229
1.8615768 -8.9355698 -7.2294507
1.8593669 -9.2968359 -7.2827988
1.8573135 -9.6580324 -7.3323722
1.8551496 -10.017811 -7.3846121
1.8528548 -10.375988 -7.4400182
1.8505441 -10.733157 -7.4958014
1.848225 -11.089352 -7.5517898
1.8458476 -11.444257 -7.6091847
1.8434339 -11.797979 -7.6674581
1.8411113 -12.151336 -7.7235293
1.8382233 -12.499921 -7.793251
1.8350141 -12.8451 -7.8707271
1.8309064 -13.182528 -7.9698954
1.8254118 -13.508048 -8.1025505
1.8195146 -13.828313 -8.2449188
1.7599204 -14.43135 -9.68365
1.7467338 -14.672565 -10.002004
1.7469949 -15.024158 -9.9957008
1.9668176 12.784312 -12.602573
1.9646744 12.442937 -12.645692
1.9682984 12.137839 -12.572783
1.9743387 11.846031 -12.451261
1.9808254 11.554813 -12.320758
1.9891144 11.271647 -12.153996
1.9980421 10.989228 -11.974386
2.0091395 10.715409 -11.751123
2.2393279 3.3589902 -7.1200881
2.2393453 2.9857938 -7.1197381
2.23945 2.6126883 -7.1176305
2.4173601 2.4173589 -3.5383599
2.9653671 2.4711385 7.4866905
2.2569287 -3.0092394 -6.7659907
2.2545929 -3.3818922 -6.8129797
2.2521827 -3.7536399 -6.8614674
2.250077 -4.1251426 -6.9038358
2.2478259 -4.4956536 -6.9491239
2.2453511 -4.8649287 -6.9989109
2.2434332 -5.2346792 -7.0374947
2.2415884 -5.6039724 -7.0746121
2.2396157 -5.9723091 -7.1142988
2.2375336 -6.3396802 -7.1561918
2.2355244 -6.7065735 -7.19661
2.233762 -7.0735807 -7.2320681
2.2319503 -7.4398351 -7.2685156
2.2299254 -7.8047414 -7.3092523
2.2277663 -8.168479 -7.3526931
2.2255766 -8.5313778 -7.3967462
2.2231679 -8.8926735 -7.4452024
2.2205157 -9.2521515 -7.4985609
2.2181008 -9.6117735 -7.5471425
2.2155631 -9.9700365 -7.5981989
2.2128782 -10.326766 -7.6522179
2.2101486 -10.682387 -7.7071314
2.2073495 -11.036749 -7.7634463
2.2045321 -11.390084 -7.8201275
2.2016461 -11.742114 -7.8781905
2.1988432 -12.093641 -7.934576
2.1955864 -12.441658 -8.0001001
2.1917129 -12.784993 -8.0780306
2.1872952 -13.123774 -8.1669054
2.1808097 -13.448328 -8.2973833
2.1739929 -13.768625 -8.4345284
2.1235616 -14.15708 -9.4491272
2.1066213 -14.395247 -9.7899399
2.0929837 -14.650888 -10.064305
2.0998609 -15.049006 -9.9259491
2.3284686 11.642344 -12.018883
2.3262811 11.299078 -12.056605
2.3308303 10.9882 -11.978156
2.3380828 10.688377 -11.853091
2.3460202 10.389518 -11.716218
2.3560033 10.097157 -11.544061
2.3670654 9.8064117 -11.353308
2.380307 9.5212259 -11.124966
2.6084061 3.3536634 -7.1915402
2.6084161 2.9810457 -7.1913643
2.6085885 2.608588 -7.1883931
2.8193057 2.4165456 -3.5547042
3.4601479 2.4715338 7.4962282
2.6199243 -2.9942012 -6.9929137
2.6176655 -3.3655725 -7.0318613
2.6148703 -3.7355299 -7.0800595
2.612061 -4.1046696 -7.1285067
2.6094606 -4.4733629 -7.1733479
2.606967 -4.8415122 -7.2163548
2.6047204 -5.2094431 -7.2550945
2.6026189 -5.5770421 -7.2913294
2.6003599 -5.9436812 -7.3302903
2.5978632 -6.3090982 -7.3733439
2.5955217 -6.6741996 -7.4137177
2.5934854 -7.0394635 -7.448833
2.591372 -7.4039216 -7.4852767
2.5887828 -7.7663493 -7.5299282
2.5862684 -8.128274 -7.5732875
2.5839677 -8.4901819 -7.6129594
2.5812938 -8.850152 -7.6590686
2.5782094 -9.2078924 -7.7122574
2.5753794 -9.5656977 -7.7610593
2.5724866 -9.9224491 -7.810945
2.5693738 -10.277497 -7.8646202
2.5662198 -10.631484 -7.9190121
2.5629752 -10.984182 -7.9749613
2.5598857 -11.336638 -8.0282383
2.5566769 -11.687667 -8.0835752
2.5534372 -12.037634 -8.1394405
2.5495467 -12.383514 -8.2065296
2.545079 -12.725398 -8.2835684
2.5400407 -13.063067 -8.3704567
2.5331843 -13.389691 -8.4886866
2.5258327 -13.711664 -8.6154613
2.4695923 -14.111959 -9.5852909
2.4523447 -14.363735 -9.8827181
2.4404645 -14.642788 -10.087585
2.7009397 10.466139 -11.417857
2.6988201 10.120574 -11.449841
2.7044163 9.8035059 -11.365399
2.7129214 9.495224 -11.237066
2.7224655 9.1883202 -11.093053
2.7342594 8.8863411 -10.915101
2.7476611 8.5864382 -10.712884
2.7631645 8.2894936 -10.478953
2.9762802 3.3483133 -7.2632875
2.9763033 2.9763024 -7.2629395
2.9764419 2.6043851 -7.2608471
3.2209806 2.4157338 -3.571043
3.9550462 2.4719031 7.5051503
2.9794254 -2.9794285 -7.2158298
2.9771354 -3.3492775 -7.2503862
2.9737642 -3.717206 -7.30125
2.9705734 -4.0845399 -7.3493977
2.9676421 -4.4514661 -7.3936253
2.9649804 -4.8180938 -7.4337926
2.9624033 -5.1842065 -7.4726748
2.9599791 -5.5499644 -7.5092506
2.9573996 -5.9148011 -7.5481753
2.9546647 -6.2786651 -7.5894375
2.9519579 -6.6419072 -7.6302819
2.9496078 -7.0053196 -7.6657457
2.9471478 -7.3678713 -7.7028623
2.9441948 -7.7285123 -7.7474198
2.9413605 -8.0887432 -7.7901864
2.939106 -8.4499302 -7.8242073
2.935899 -8.8076992 -7.872591
2.9324412 -9.1638803 -7.9247675
2.9291482 -9.5197315 -7.9744549
2.9258292 -9.8746758 -8.0245333
2.9222836 -10.227996 -8.0780296
2.9187245 -10.580379 -8.1317339
2.9151189 -10.931698 -8.1861401
2.9115884 -11.282405 -8.2394133
2.9082537 -11.633017 -8.2897282
2.9044428 -11.980827 -8.3472328
2.9000714 -12.325304 -8.4131937
2.8953848 -12.667311 -8.4839048
2.8896899 -13.003605 -8.5698366
2.8824778 -13.331462 -8.6786556
2.873395 -13.648628 -8.8157072
2.8284287 -13.78859 -9.494194
2.8141575 -14.07079 -9.7095308
2.7963538 -14.331314 -9.9781675
2.7918744 -14.657341 -10.045759
3.0847416 9.2542238 -10.798415
3.0828125 8.905901 -10.824288
3.0895689 8.5821333 -10.733669
3.0994029 8.2650719 -10.601774
3.1106899 7.9495392 -10.450391
3.1244223 7.6374745 -10.266207
3.1404014 7.3276005 -10.051891
3.1582549 7.0183415 -9.8124352
3.3416362 3.3416345 -7.3528671
3.3416622 2.9703636 -7.3525205
3.3418434 2.59921 -7.3500915
3.6223862 2.4149222 -3.5873668
4.4495416 2.4719653 7.5066915
3.3355384 -2.9649246 -7.4346552
3.3329868 -3.3329875 -7.4688764
3.3292439 -3.6991611 -7.5190759
3.3256764 -4.0647163 -7.566926
3.3223848 -4.4298491 -7.6110697
3.3194449 -4.794754 -7.650506
3.3165739 -5.1591177 -7.689013
3.313822 -5.5230398 -7.7259178
3.3109734 -5.8861771 -7.7641258
3.3079774 -6.2484026 -7.8043127
3.3049359 -6.6098742 -7.8451018
3.3023174 -6.9715614 -7.8802242
3.2996399 -7.3325367 -7.9161348
3.2963746 -7.6915421 -7.9599323
3.2933419 -8.0503931 -8.0006046
3.2909553 -8.4102211 -8.0326166
3.2872183 -8.7659187 -8.0827351
3.2832654 -9.120183 -8.1357565
3.2794962 -9.4741011 -8.1863079
3.2759347 -9.8278074 -8.2340746
3.2719839 -10.179506 -8.2870674
3.2680054 -10.530242 -8.3404255
3.2639873 -10.879959 -8.3943195
3.2599542 -11.228732 -8.4484129
3.2560172 -11.576952 -8.5012169
3.2518938 -11.923613 -8.5565224
3.2090862 -12.123218 -9.1306639
3.2034266 -12.457771 -9.2065792
3.1975377 -12.790153 -9.2855606
3.1901243 -13.114959 -9.3849888
3.1811495 -13.43152 -9.5053654
3.168997 -13.732323 -9.668355
3.1547554 -14.021137 -9.8593683
3.1435251 -14.320506 -10.009995
3.4803908 8.0048971 -10.159858
3.4789634 7.653718 -10.177086
