# .PCD v0.7 - Point Cloud Data file format
VERSION 0.7
FIELDS x y z
SIZE 4 4 4
TYPE F F F
COUNT 1 1 1
WIDTH 1321
HEIGHT 1
VIEWPOINT 0 0 0 1 0 0 0
POINTS 1321
DATA ascii
-17.658091 -12.753064 11.335409
-17.092957 -11.720885 11.07802
-17.090115 -12.207224 11.068215
-17.14286 -12.734696 11.250132
-16.53281 -10.6977 10.823184
-16.53418 -11.184884 10.828046
-16.588951 -11.709846 11.022505
-15.977394 -9.6832685 10.57022
-15.982842 -10.170897 10.590145
-16.039642 -10.693094 10.797918
-15.426831 -8.6775913 10.319744
-15.435872 -9.1650476 10.353847
-15.494423 -9.6840134 10.574719
-14.880885 -7.6804566 10.071095
-14.893386 -8.1673403 10.119769
-14.953419 -8.6826305 10.353529
-14.339664 -6.6918411 9.8248692
-14.355166 -7.1775823 9.8872471
-14.416492 -7.6887956 10.134006
-13.803021 -5.7115941 9.5807276
-13.821321 -6.1957631 9.6568956
-13.8836 -6.7024264 9.9161339
-13.270831 -4.7395811 9.3383398
-13.29186 -5.2218003 9.4289942
-13.354696 -5.7234392 9.6998892
-12.743179 -3.7757559 9.0982895
-12.766507 -4.2555022 9.2025852
-12.831534 -4.7524199 9.4933071
-12.219872 -2.8199689 8.8599443
-12.245291 -3.2968073 8.9779558
-12.313174 -3.7886679 9.2931166
-11.700988 -1.8721564 8.6238832
-11.728223 -2.3456438 8.7553892
-11.797028 -2.8312864 9.0876074
-11.234142 -0.46808749 8.6298885
-11.186403 -0.93219978 8.389781
-11.215129 -1.4018909 8.5342598
-10.699467 0.46519515 8.2804241
-10.677642 6.6162386e-08 8.1658812
-10.706026 -0.46547756 8.3148508
-10.192927 1.3899467 8.0535679
-10.173928 0.92490321 7.9493222
-10.200922 0.46367997 8.097435
-9.6869612 1.8451376 7.8084049
-9.6932058 1.3847462 7.8442969
-7.3407335 13.580358 -3.5682387
-7.2736549 13.092582 -3.9730887
-7.3670745 12.89238 -3.4092569
-7.4708052 12.700372 -2.7831841
-7.5711155 12.492343 -2.1777563
-7.6675758 12.268122 -1.5955698
-7.7510791 12.014174 -1.0915836
-8.0561848 12.084278 0.74989742
-8.1150837 11.766871 1.1053836
-8.1742811 11.443995 1.4626715
-8.2200165 11.097023 1.7387065
-8.2624283 10.741157 1.9946808
-9.2003803 1.8400772 7.6557231
-6.649332 12.598737 -5.6289883
-6.7002616 12.342588 -5.3054242
-6.7600503 12.096935 -4.9255724
-6.8218617 11.848498 -4.5328755
-6.873333 11.576138 -4.2058692
-6.9300032 11.306849 -3.8458316
-6.9894547 11.035982 -3.4681261
-7.0481825 10.757756 -3.095015
-7.1013913 10.465208 -2.7569697
-7.1507311 10.161565 -2.4435036
-7.1981907 9.8501587 -2.141984
-7.235538 9.5204468 -1.9047108
-7.2749825 9.1894531 -1.6541137
-7.3148909 8.8548679 -1.4005637
-7.3448772 8.5045967 -1.2100539
-7.3790126 8.1557531 -0.99318814
-7.4134674 7.8036509 -0.77429038
-7.4366932 7.4366951 -0.62673295
-7.4659557 7.0730119 -0.44081768
-7.49545 6.7064571 -0.25343579
-7.5252123 6.3370223 -0.06435325
-7.5508137 5.9611692 0.098299883
-7.5762815 5.5825238 0.26010168
-7.6068978 5.2047195 0.45461079
-7.6377273 4.8238297 0.65047705
-7.6784492 4.4454193 0.90919173
-7.7287345 4.0677567 1.2286632
-8.4690781 4.0116682 5.9322104
-8.5468054 3.5986567 6.4260254
-8.7239122 2.2957668 7.5512218
-8.7550392 1.8431674 7.7489791
-6.2384386 12.476877 -6.0375834
-6.1705971 11.998385 -6.492537
-6.2155704 11.740522 -6.1909418
-6.2589545 11.474751 -5.9000015
-6.3052549 11.209341 -5.5895061
-6.3528051 10.940943 -5.2706265
-6.4004059 10.667344 -4.9514084
-6.446156 10.385474 -4.6445999
-6.4870391 10.090951 -4.3704329
-6.5209522 9.7814312 -4.1430063
-6.5571742 9.4714737 -3.9000959
-6.5982466 9.1642303 -3.6246607
-6.6342511 8.8456697 -3.3832045
-6.6617656 8.5122585 -3.1986907
-6.6934638 8.1809015 -2.9861188
-6.7254362 7.8463426 -2.7717068
-6.751442 7.5016036 -2.597311
-6.7759981 7.1524434 -2.4326317
-6.8008509 6.8008504 -2.2659664
-6.825386 6.4461994 -2.1014261
-6.8435054 6.0831165 -1.9799153
-6.8625531 5.7187958 -1.8521799
-6.8817072 5.3524418 -1.7237304
-6.9009681 4.9840331 -1.594561
-6.9204884 4.6136599 -1.4636532
-6.9401498 4.2412038 -1.3318037
-6.9599543 3.866643 -1.1989946
-6.9798408 3.4899204 -1.0656302
-7.0060592 3.1138062 -0.88980895
-7.0441613 2.7393963 -0.63428789
-7.1265526 2.3755183 -0.081759691
-8.2475605 2.2909901 7.4358897
-5.6973739 11.729888 -7.4185472
-5.7330632 11.466127 -7.1651325
-5.7732506 11.206899 -6.8797774
-5.8150215 10.945924 -6.5831795
-5.8520441 10.671375 -6.3202929
-5.8888469 10.392084 -6.0589743
-5.9264898 10.109895 -5.7916822
-5.9648552 9.8244696 -5.5192637
-6.0003524 9.529974 -5.2672124
-6.0313625 9.2244377 -5.047019
-6.0606828 8.9127703 -4.8388271
-6.0903144 8.5980921 -4.6284237
-6.1191368 8.2788334 -4.423769
-6.1429863 7.9497471 -4.2544188
-6.1665907 7.6175551 -4.0868149
-6.1903777 7.2827992 -3.9179134
-6.2141161 6.9451909 -3.7493546
-6.2352843 6.602067 -3.5990479
-6.2568583 6.2568588 -3.4458601
-6.2785559 5.9092293 -3.2917936
-6.2998738 5.5587149 -3.1404197
-6.3172302 5.2024264 -3.0171783
-6.3346295 4.84413 -2.8936372
-6.3521509 4.4838724 -2.7692211
-6.3697157 4.121582 -2.6444983
-6.3879232 3.757602 -2.5152164
-6.4065909 3.3917255 -2.3826618
-6.4267473 3.0243521 -2.2395408
-6.447947 2.6550384 -2.089009
-6.4724751 2.2844043 -1.9148451
-6.5075822 1.9139966 -1.6655624
-6.5561361 1.5426216 -1.3207982
-6.6207838 1.1683747 -0.86176151
-5.2809725 11.552129 -8.0316229
-5.2926941 11.246976 -7.9431877
-5.3241882 10.98114 -7.705585
-5.356935 10.71387 -7.4585304
-5.3900867 10.443295 -7.2084188
-5.4236512 10.169348 -6.9551926
-5.4576373 9.8919678 -6.698792
-5.4890776 9.6058865 -6.4615912
-5.5184612 9.3124037 -6.2399096
-5.5473528 9.0144491 -6.0219388
-5.5765481 8.7133589 -5.8016739
-5.6028881 8.4043331 -5.6029558
-5.627028 8.0888519 -5.4208345
-5.6513538 7.7706132 -5.2373123
-5.6739483 7.4470572 -5.0668473
-5.6953659 7.1192074 -4.9052634
-5.7169456 6.7888746 -4.742456
-5.7365875 6.4536614 -4.5942717
-5.7551889 6.1148896 -4.4539347
-5.773912 5.7739124 -4.3126831
-5.7928042 5.4307556 -4.1701498
-5.8085628 5.0824933 -4.0512586
-5.8244076 4.7323327 -3.931721
-5.8402662 4.3801999 -3.8120749
-5.8559194 4.0259447 -3.6939797
-5.8716321 3.6697712 -3.5754361
-5.8876019 3.3117778 -3.4549537
-5.9064302 2.9532173 -3.3129086
-5.926002 2.5926275 -3.1652489
-5.9456792 2.2296309 -3.0167985
-5.9701114 1.8656615 -2.832468
-5.9969654 1.4992412 -2.6298707
-6.0256076 1.1298032 -2.4137838
-6.0861897 0.76077533 -1.9567255
-6.2059426 0.38787207 -1.0532633
-4.9211836 11.482763 -8.2708549
-4.8822293 11.066388 -8.5843334
-4.9103556 10.802784 -8.3579931
-4.938549 10.535573 -8.1311083
-4.9673672 10.265893 -7.8991995
-4.9936905 9.9873819 -7.6873631
-5.0191693 9.7037277 -7.4823289
-5.0467014 9.4205103 -7.2607684
-5.0745373 9.1341686 -7.0367622
-5.1015587 8.8427019 -6.8193088
-5.1253676 8.5422802 -6.6277084
-5.1487379 8.2379808 -6.4396434
-5.1723218 7.9308939 -6.2498522
-5.1944885 7.6185846 -6.0714693
-5.214787 7.3007026 -5.9081202
-5.2341247 6.9788337 -5.7525015
-5.2550478 6.6563935 -5.5841231
-5.2761393 6.3313694 -5.4143934
-5.2933469 5.9991274 -5.2759175
-5.3100481 5.664053 -5.1415191
-5.3260603 5.3260603 -5.0126624
-5.3421259 4.9859858 -4.8833747
-5.3568988 4.6426463 -4.764492
-5.3714476 4.2971592 -4.6474123
-5.3857679 3.9495635 -4.5321679
-5.4002314 3.6001544 -4.4157758
-5.4149723 3.2489855 -4.2971501
-5.4315801 2.8968434 -4.1635003
-5.4486942 2.5427241 -4.025775
-5.4659171 2.1863678 -3.887181
-5.4832258 1.8277434 -3.7478886
-5.502202 1.4672542 -3.5951755
-5.5271087 1.105422 -3.3947468
-5.5539923 0.74053365 -3.1784055
-5.6076226 0.37384185 -2.7468209
-5.6775312 1.9056614e-06 -2.184238
-4.4871044 10.897254 -9.1848135
-4.5124903 10.636586 -8.9659262
-4.537765 10.372035 -8.748004
-4.5641012 10.106225 -8.5209293
-4.5883703 9.8322239 -8.311676
-4.6113639 9.5521126 -8.1134224
-4.6345887 9.2691793 -7.9131722
-4.6580663 8.9834137 -7.7107425
-4.6810899 8.6934538 -7.5122294
-4.7008452 8.3943672 -7.341897
-4.7207675 8.0927448 -7.1701193
-4.7408419 7.7885261 -6.9970379
-4.761528 7.4824023 -6.8186741
-4.781395 7.1720924 -6.6473808
-4.7995214 6.856461 -6.4910889
-4.8178053 6.5384512 -6.3334427
-4.8362093 6.2179861 -6.174758
-4.8540096 5.894156 -6.0212793
-4.8683448 5.5638242 -5.8976831
-4.8827648 5.231535 -5.7733521
-4.8972697 4.8972712 -5.6482835
-4.9122143 4.5613418 -5.5194306
-4.9253407 4.2217202 -5.4062519
-4.9384384 3.880203 -5.2933211
-4.9516068 3.5368638 -5.1797843
-4.9650645 3.1918268 -5.063745
-4.9798827 2.8456476 -4.9359784
-4.995235 2.4976187 -4.8036098
-5.0110283 2.1475844 -4.6674361
-5.0269423 1.7953366 -4.5302238
-5.0429368 1.4408395 -4.3923149
-5.0634589 1.0850281 -4.2153749
-5.0843158 0.72633141 -4.0355382
-5.1200576 0.36571863 -3.7273667
-5.1618743 1.1166339e-06 -3.3668153
-5.2359371 -0.37399369 -2.7282348
-4.1082478 10.74465 -9.7266064
-4.1325803 10.490396 -9.5006704
-4.153749 10.224613 -9.3041115
-4.1751199 9.9560566 -9.10567
-4.1962357 9.6836214 -8.9096022
-4.2161994 9.4053669 -8.7242327
-4.2371058 9.1260748 -8.5301027
-4.2582369 8.8440323 -8.3338909
-4.2790842 8.5581694 -8.140316
-4.2969575 8.263381 -7.9743571
-4.3157125 7.9674706 -7.8002081
-4.3346319 7.6689644 -7.6245346
-4.3537178 7.3678308 -7.4473114
-4.3715034 7.0616593 -7.2821646
-4.3878369 6.7505198 -7.1305003
-4.4049029 6.4379363 -6.9720354
-4.422205 6.1230531 -6.8113794
-4.4383349 5.8039784 -6.6616044
-4.451241 5.4784522 -6.5417647
-4.4645357 5.1513891 -6.4183168
-4.478611 4.8231206 -6.2876239
-4.4925103 4.4925113 -6.1585608
-4.5042453 4.1577663 -6.0495968
-4.5162196 3.8214161 -5.9384098
-4.5295119 3.4842415 -5.8149891
-4.5429001 3.1450861 -5.69067
-4.5562596 2.8038538 -5.5666223
-4.569643 2.4605784 -5.4423547
-4.5831046 2.1152809 -5.3173509
-4.5966468 1.7679428 -5.1916108
-4.6102872 1.4185494 -5.0649519
-4.6280456 1.0680114 -4.9000545
-4.647017 0.71492696 -4.7239027
-4.6747932 0.35960039 -4.4659872
-4.7063828 8.0090081e-07 -4.1726642
-4.7484827 -0.36526674 -3.7817423
-4.8121853 -0.7403354 -3.1902399
-4.2697654 -15.765287 -8.2268448
-4.2633104 -16.069403 -8.2867794
-3.7507524 10.627132 -10.143827
-3.7656527 10.355545 -9.9939423
-3.7852616 10.094032 -9.7966909
-3.8057199 9.8314438 -9.5908966
-3.8251266 9.5628185 -9.3956814
-3.8426213 9.2863369 -9.219696
-3.8602912 9.0073471 -9.0419512
-3.8781099 8.7257481 -8.862709
-3.8959215 8.441164 -8.6835394
-3.9119275 8.1498499 -8.5225306
-3.9280655 7.856133 -8.3601961
-3.9443371 7.5599813 -8.196516
-3.9607441 7.2613659 -8.0314741
-3.9764652 6.9588146 -7.8733311
-3.9912715 6.6521196 -7.7243934
-4.0061879 6.343133 -7.5743413
-4.0212169 6.031826 -7.4231648
-4.03548 5.7169309 -7.279685
-4.0479221 5.3972301 -7.154532
-4.0604563 5.0755711 -7.0284448
-4.0730529 4.7518973 -6.9017372
-4.0853486 4.4257956 -6.778049
-4.097147 4.0971484 -6.6593666
-4.1089978 3.7665813 -6.5401568
-4.1209335 3.4341121 -6.4200931
-4.1329222 3.0996931 -6.2994938
-4.1449323 2.7632897 -6.1786828
-4.1571436 2.4250007 -6.0558481
-4.1694264 2.0847149 -5.9322901
-4.1817822 1.7424109 -5.8079991
-4.194212 1.3980709 -5.6829677
-4.2095466 1.0523882 -5.5287104
-4.2259574 0.70432657 -5.3636317
-4.2481747 0.3540144 -5.1401429
-4.2751355 -2.8046361e-07 -4.8689399
-4.3052273 -0.35876778 -4.5662436
-4.3520632 -0.72534221 -4.0951076
-4.4099898 -1.102497 -3.5124073
-3.9315577 -15.070969 -8.3250666
-3.9251916 -15.373668 -8.3891039
-3.9280508 -15.712202 -8.360343
-3.9333134 -16.061029 -8.3074064
-3.417789 10.564076 -10.367699
-3.4129729 10.238921 -10.420548
-3.4288933 9.9749632 -10.245845
-3.445477 9.7099819 -10.063856
-3.4631751 9.4450245 -9.8696432
-3.4788187 9.1714315 -9.6979771
-3.4946291 8.8954201 -9.524478
-3.5105841 8.616889 -9.3493929
-3.5265827 8.3355608 -9.1738291
-3.5408893 8.0474768 -9.0168324
-3.5553255 7.7570748 -8.8584137
-3.5700111 7.46457 -8.697257
-3.584872 7.1697459 -8.5341797
-3.5989211 6.8706679 -8.3800116
-3.6121509 6.5675483 -8.2348289
-3.6254787 6.2621922 -8.0885754
-3.6391373 5.9549537 -7.9386892
-3.6519494 5.6439228 -7.7980938
-3.6629813 5.3279734 -7.6770339
-3.6740661 5.0100913 -7.5553908
-3.685919 4.6911702 -7.4253173
-3.6975386 4.3698192 -7.2978096
-3.7079964 4.0450873 -7.1830482
-3.7185135 3.7185161 -7.0676384
-3.7292628 3.390239 -6.9496775
-3.7407529 3.060617 -6.8235869
-3.7519367 2.7286832 -6.7008662
-3.7630556 2.3946724 -6.5788469
-3.7742553 2.0586858 -6.4559441
-3.7852557 1.7205729 -6.3352299
-3.7962759 1.3804643 -6.2142973
-3.8092017 1.0388758 -6.0724554
-3.8234074 0.69516575 -5.9165659
-3.8410819 0.34919035 -5.722611
-3.8631365 1.7313079e-06 -5.4805899
-3.8848228 -0.35316384 -5.2426133
-3.9213486 -0.71297276 -4.8417859
-3.9601374 -1.0800358 -4.416132
-4.0332856 -1.4666486 -3.6134257
-3.6133904 -14.125072 -8.2212267
-3.5950217 -14.380086 -8.422802
-3.5901589 -14.687015 -8.4761591
-3.5949416 -15.033391 -8.4236803
-3.6028957 -15.394191 -8.3363914
-3.0680954 10.124717 -10.838295
-3.0824623 9.8638821 -10.664872
-3.097193 9.6012983 -10.487057
-3.1117573 9.3352728 -10.311249
-3.1249616 9.0623894 -10.151859
-3.1382785 8.7871819 -9.9911089
-3.1521156 8.5107126 -9.8240805
-3.1663826 8.2325954 -9.651865
-3.1791716 7.9479308 -9.4974852
-3.1921341 7.6611228 -9.3410168
-3.2052026 7.3719678 -9.1832647
-3.2183669 7.0804081 -9.0243587
-3.2308218 6.7847266 -8.8740158
-3.2426808 6.485363 -8.7308626
-3.2546995 6.1839294 -8.5857859
-3.2668073 5.8802543 -8.4396296
-3.2781272 5.5728173 -8.3029871
-3.2880397 5.2608638 -8.1833315
-3.2988029 4.9482059 -8.0534086
-3.3096244 4.6334743 -7.9227824
-3.3197536 4.3156815 -7.8005109
-3.3290265 3.9948328 -7.6885805
-3.339047 3.6729527 -7.5676208
-3.3491664 3.3491669 -7.445467
-3.3593602 3.0234249 -7.3224182
-3.3692682 2.6954155 -7.2028174
-3.3791311 2.3653932 -7.0837636
-3.3890519 2.0334318 -6.9640079
-3.3990309 1.6995177 -6.8435497
-3.4097421 1.3638973 -6.7142529
-3.4215176 1.0264577 -6.5721116
-3.4340174 0.68680465 -6.421227
-3.448525 0.34485251 -6.2461033
-3.4664268 1.449341e-06 -6.0300112
-3.4852049 -0.34852061 -5.8033376
-3.5134974 -0.70269865 -5.4618163
-3.5448904 -1.0634671 -5.0828695
-3.5876746 -1.4350687 -4.5664186
-3.2650514 -13.38671 -8.4608269
-3.2599757 -13.691897 -8.5220947
-3.2585647 -14.011827 -8.5391283
-3.2628863 -14.3567 -8.4869595
-3.2745197 -14.735338 -8.3465328
-2.7349439 10.02813 -11.191603
-2.7463524 9.7648096 -11.038589
-2.7592003 9.503912 -10.866269
-2.7721398 9.2404671 -10.692719
-2.7837832 8.9699697 -10.536554
-2.7955148 8.6971579 -10.379206
-2.8073258 8.421978 -10.220792
-2.8191168 8.1441164 -10.062648
-2.8300271 7.8611879 -9.9163179
-2.8410323 7.5760875 -9.7687149
-2.8521128 7.2887349 -9.6200972
-2.863363 6.9993334 -9.4692068
-2.874223 6.7065215 -9.3235502
-2.8843884 6.4097524 -9.1872053
-2.8946264 6.1108794 -9.0498934
-2.9049478 5.8098969 -8.9114599
-2.9149678 5.5060506 -8.7770681
-2.9242048 5.1985869 -8.6531782
-2.9335005 4.8891697 -8.5285025
-2.9428554 4.5777769 -8.4030294
-2.9518635 4.263804 -8.2822113
-2.9605401 3.9473884 -8.1658401
-2.9692783 3.6291182 -8.0486345
-2.9781806 3.3090899 -7.9292345
-2.9871254 2.9871247 -7.809268
-2.9962485 2.6633344 -7.6869097
-3.0056665 2.3377416 -7.5605893
-3.0151556 2.0101058 -7.43332
-3.0246933 1.6803863 -7.305398
-3.0342913 1.3485752 -7.1766644
-3.0446172 1.0148736 -7.0381718
-3.0556843 0.67904371 -6.8897338
-3.0682693 0.34091881 -6.720943
-3.0839064 -2.3828974e-07 -6.5112123
-3.0996311 -0.34440184 -6.3003087
-3.1209755 -0.69354957 -6.0140285
-3.1461585 -1.0487181 -5.6762719
-3.1738715 -1.4106089 -5.3045726
-3.2272246 -1.7929004 -4.5889874
-2.931309 -12.702338 -8.5578928
-2.9264286 -13.00635 -8.6233492
-2.9280176 -13.338746 -8.6020374
-2.9319055 -13.682225 -8.5498953
-2.9481308 -14.085513 -8.3322735
-2.409266 9.9382229 -11.520466
-2.4177561 9.6710262 -11.392361
-2.4281206 9.4089689 -11.235971
-2.4393513 9.1475687 -11.066517
-2.4494848 8.879384 -10.913611
-2.4596257 8.6086912 -10.760597
-2.4698076 8.3356028 -10.606965
-2.4800739 8.0602427 -10.452053
-2.4895728 7.7799158 -10.308729
-2.4991446 7.4974341 -10.164301
-2.5090761 7.2135959 -10.014447
-2.5191591 6.9276891 -9.8623066
-2.5285518 6.6374493 -9.720582
-2.5374117 6.3435302 -9.5868988
-2.5463428 6.0475655 -9.452136
-2.5556617 5.7502398 -9.3115263
-2.5644701 5.4494991 -9.1786165
-2.5725031 5.1450071 -9.0574055
-2.5805964 4.8386197 -8.9352894
-2.5892923 4.5312634 -8.8040762
-2.597214 4.2204747 -8.6845493
-2.6047702 3.9071565 -8.5705357
-2.6123607 3.5919974 -8.4560032
-2.6202781 3.2753475 -8.3365364
-2.6289499 2.9575694 -8.2056932
-2.6370473 2.6370478 -8.0835114
-2.6451154 2.314477 -7.9617758
-2.6532328 1.9899254 -7.8392916
-2.6614304 1.6633958 -7.7155972
-2.6696892 1.3348464 -7.5909843
-2.678498 1.0044372 -7.4580674
-2.6879497 0.67198896 -7.3154564
-2.6984906 0.33731338 -7.1564026
-2.711544 3.500071e-08 -6.9594431
-2.7247348 -0.34059051 -6.7604103
-2.741442 -0.68536001 -6.5083146
-2.7626059 -1.0359774 -6.1889791
-2.7842748 -1.392136 -5.8620205
-2.8178232 -1.7611384 -5.3558149
-2.9007425 -2.1755555 -4.10466
-2.6147261 -11.766267 -8.4203129
-2.5992067 -12.021331 -8.65448
-2.5951478 -12.326951 -8.7157269
-2.5985262 -12.667816 -8.6647482
-2.6035767 -13.017883 -8.5885429
-2.0893829 9.8499489 -11.843366
-2.0960956 9.5821524 -11.727609
-2.1048043 9.3212767 -11.577431
-2.113564 9.0581331 -11.426378
-2.1217539 8.7901249 -11.285144
-2.1304126 8.5216522 -11.135832
-2.1391423 8.2509794 -10.985296
-2.1479435 7.9780774 -10.833522
-2.1562068 7.7007389 -10.691028
-2.1647084 7.4218597 -10.54442
-2.1732855 7.1407962 -10.396521
-2.1819303 6.8574967 -10.247442
-2.1899362 6.5698099 -10.109384
-2.1976643 6.2790422 -9.97612
-2.2055967 5.9866223 -9.8393269
-2.213587 5.6920824 -9.7015429
-2.2210908 5.3940792 -9.5721397
-2.2280419 5.0926681 -9.4522743
-2.2355149 4.7903895 -9.323411
-2.2430298 4.4860601 -9.19382
-2.2497001 4.1780143 -9.0787916
-2.2561791 3.8677371 -8.9670649
-2.2634101 3.5567894 -8.8423729
-2.2707963 3.2439964 -8.7150049
-2.278239 2.9291654 -8.5866556
-2.2851462 2.6115971 -8.4675465
-2.2920702 2.2920716 -8.3481512
-2.2990358 1.9706028 -8.2280293
-2.3060353 1.6471683 -8.1073236
-2.3130865 1.3217661 -7.9857345
-2.3206174 0.99455065 -7.8558655
-2.3287516 0.66535819 -7.7155981
-2.3376875 0.33395565 -7.5615063
-2.3491688 1.1541348e-06 -7.3635187
-2.3607545 -0.33724836 -7.1637316
-2.3744743 -0.67841989 -6.9271421
-2.3910127 -1.0247196 -6.6419435
-2.4081876 -1.3761073 -6.3457737
-2.4302289 -1.7358762 -5.9656858
-2.4688635 -2.1161685 -5.2994571
-2.2730315 -11.040437 -8.6764584
-2.2684736 -11.342367 -8.7550564
-2.267122 -11.659484 -8.7783623
-2.2700939 -11.999067 -8.7271147
-2.2775068 -12.363608 -8.5992813
-1.7766781 9.7717314 -12.129479
-1.7817398 9.5026131 -12.027645
-1.7890807 9.2435846 -11.879958
-1.7963419 8.9817104 -11.733873
-1.8035393 8.7171078 -11.589074
-1.8104532 8.4487839 -11.449976
-1.8174267 8.178421 -11.309681
-1.8243848 7.9056692 -11.169694
-1.831244 7.6301837 -11.031696
-1.838136 7.3525453 -10.893042
-1.8450735 7.072783 -10.753469
-1.8520701 6.7909245 -10.612711
-1.8587406 6.5055923 -10.47851
-1.8651565 6.2171893 -10.34943
-1.8716501 5.9268928 -10.218792
-1.8783625 5.6350889 -10.083747
-1.8847804 5.3402128 -9.9546299
-1.8910122 5.0427008 -9.8292551
-1.8972921 4.7432323 -9.7029123
-1.9036071 4.4417515 -9.5758648
-1.9094191 4.1370754 -9.4589386
-1.9155513 3.8311048 -9.3355684
-1.9217298 3.5231731 -9.2112627
-1.9279416 3.2132368 -9.0862932
-1.9341865 2.9012809 -8.9606562
-1.9399732 2.5866308 -8.8442354
-1.945809 2.2701113 -8.7268267
-1.9520622 1.9520636 -8.6010256
-1.9583631 1.6319702 -8.4742632
-1.9646971 1.3097996 -8.3468266
-1.9712049 0.9856047 -8.2159033
-1.9780149 0.65933812 -8.0788946
-1.9855433 0.33092579 -7.9274349
-1.9950029 2.3331606e-06 -7.7371249
-2.00453 -0.33408695 -7.5454507
-2.0151474 -0.67171359 -7.3318515
-2.028358 -1.0141773 -7.066071
-2.0422719 -1.3615136 -6.786149
-2.058821 -1.7156839 -6.4532018
-2.0839899 -2.0839891 -5.9468446
-2.1478193 -2.5057876 -4.6626959
-1.9427689 -10.361432 -8.7879915
-1.939603 -10.667814 -8.8516855
-1.9401512 -10.99419 -8.8406534
-1.9426975 -11.3324 -8.7894278
-1.9521559 -11.712935 -8.5991364
-1.4722397 9.7167835 -12.33047
-1.4725647 9.4244156 -12.322626
-1.4785172 9.1668072 -12.178922
-1.4844278 8.9065676 -12.036224
-1.490391 8.644268 -11.892262
-1.4962345 8.3789139 -11.751186
-1.5019499 8.1105309 -11.613206
-1.5075697 7.8393631 -11.477532
-1.5132056 7.5660291 -11.341468
-1.5188578 7.2905183 -11.205013
-1.524547 7.012918 -11.067663
-1.5302417 6.7330647 -10.930179
-1.5359043 6.450799 -10.793473
-1.5411772 6.1647105 -10.666175
-1.5464702 5.8765879 -10.538389
-1.5518216 5.5865593 -10.409198
-1.5572926 5.2947955 -10.277113
-1.5622869 4.9993181 -10.156543
-1.5673132 4.7019405 -10.035196
-1.5724729 4.402926 -9.9106264
-1.5776274 4.1018324 -9.7861881
-1.5825541 3.798131 -9.6672468
-1.5875115 3.4925268 -9.5475626
-1.5925002 3.1850019 -9.4271269
-1.5977696 2.8759861 -9.2999144
-1.6027589 2.5644145 -9.1794615
-1.6077676 2.250875 -9.0585365
-1.6128079 1.9353703 -8.9368572
-1.6178856 1.6178869 -8.8142672
-1.6229955 1.2983983 -8.6909056
-1.6282703 0.97696358 -8.5635605
-1.6338824 0.65355456 -8.428071
-1.6398937 0.32797936 -8.2829485
-1.6475502 6.6769559e-07 -8.0981007
-1.6552787 -0.33105597 -7.9115186
-1.6636957 -0.66547793 -7.7083139
-1.674284 -1.00457 -7.4526916
-1.6850144 -1.3480096 -7.1936374
-1.6967064 -1.6967063 -6.9113636
-1.7130346 -2.0556393 -6.5171666
-1.7456141 -2.4438591 -5.7306299
-1.6260397 -9.4310303 -8.6174078
-1.6149132 -9.6894789 -8.8860273
-1.6123768 -9.9967346 -8.9472637
-1.6142207 -10.331013 -8.9027462
-1.6169232 -10.671693 -8.8375025
-1.1687235 9.3497887 -12.604134
-1.1731521 9.0919304 -12.470483
-1.1776894 8.8326721 -12.333559
-1.182381 8.5722637 -12.191978
-1.1871101 8.3097725 -12.049268
-1.1916273 8.0434847 -11.912951
-1.1960245 7.7741613 -11.78025
-1.2004585 7.5028667 -11.646443
-1.2049214 7.2295299 -11.511764
-1.2093968 6.9540324 -11.376706
-1.2138261 6.676044 -11.24304
-1.2182796 6.3959694 -11.108644
-1.2226173 6.1130872 -10.977743
-1.2267852 5.8272309 -10.851965
-1.2310634 5.5397859 -10.722859
-1.2353843 5.2503843 -10.592459
-1.2395222 4.9580894 -10.467589
-1.2434772 4.6630402 -10.34824
-1.2476828 4.3668904 -10.221326
-1.2519568 4.0688615 -10.092341
-1.2558798 3.7676413 -9.973959
-1.2597777 3.4643893 -9.856328
-1.2638134 3.1595342 -9.7345428
-1.26824 2.8535414 -9.600956
-1.2723761 2.5447531 -9.476141
-1.2762754 2.2334824 -9.3584633
-1.2802036 1.9203068 -9.2399235
-1.2841653 1.6052084 -9.1203671
-1.2881893 1.2881922 -8.9989319
-1.2923287 0.96924663 -8.8740129
-1.2968479 0.64842534 -8.7376356
-1.3017259 0.32543239 -8.5904331
-1.3075233 1.6770997e-08 -8.4154806
-1.3133527 -0.32833725 -8.2395573
-1.3194273 -0.65971386 -8.056242
-1.3272861 -0.99546391 -7.8190813
-1.3352342 -1.335234 -7.5792279
-1.343698 -1.6796213 -7.3238101
-1.3559024 -2.0338516 -6.9555058
-1.3730984 -2.402921 -6.4365759
-1.5242926 -3.0485847 -1.8738811
-1.2923524 -8.7233772 -8.8733006
-1.2887454 -9.0212164 -8.982152
-1.2876997 -9.3358212 -9.0137091
-1.2893302 -9.6699753 -8.9645023
-1.2932347 -10.022568 -8.8466721
-0.87299782 9.3119783 -12.746763
-0.87432951 9.0347385 -12.693181
-0.87679267 8.7679281 -12.59407
-0.8792727 8.4996367 -12.494282
-0.88219661 8.2338362 -12.376632
-0.8854782 7.9693046 -12.244593
-0.88878125 7.7027726 -12.111685
-0.89216638 7.434721 -11.975481
-0.89566833 7.1653481 -11.834571
-0.89916736 6.8936172 -11.693782
-0.90263218 6.6193042 -11.554369
-0.90600884 6.3420615 -11.418504
-0.9093138 6.0620918 -11.285522
-0.91246963 5.778976 -11.158542
-0.91563475 5.4938087 -11.031185
-0.91882193 5.2066584 -10.902944
-0.92203128 4.917501 -10.773807
-0.92502999 4.6251516 -10.65315
-0.9281624 4.3314257 -10.527111
-0.9313193 4.035718 -10.400086
-0.93440533 3.7376213 -10.275917
-0.93729895 3.436763 -10.159486
-0.94054526 3.1351519 -10.028865
-0.94381404 2.8314438 -9.897336
-0.94702089 2.5253899 -9.7683058
-0.9499011 2.2164369 -9.6524134
-0.9528023 1.9056059 -9.5356779
-0.95571786 1.5928646 -9.4183655
-0.95865476 1.2782063 -9.3001928
-0.96189332 0.96189409 -9.1698809
-0.96530551 0.64353752 -9.032588
-0.96880233 0.32293561 -8.8918867
-0.97299767 6.1185153e-07 -8.7230778
-0.97725117 -0.3257505 -8.5519285
-0.98159683 -0.65439659 -8.3770752
-0.98739606 -0.98739403 -8.143733
-0.99314487 -1.3241926 -7.9124198
-0.99895704 -1.6649268 -7.6785536
-1.0066754 -2.0133486 -7.3679934
-1.0172361 -2.3735499 -6.9430633
-1.0397971 -2.7727909 -6.0352798
-0.96571827 -8.0476522 -9.0159788
-0.96419942 -8.3563929 -9.077095
-0.9642452 -8.6782064 -9.0752535
-0.96546775 -9.0110321 -9.0260601
-0.96977299 -9.3744707 -8.8528309
-0.59319931 7.7115917 -12.070742
-0.59223998 7.4029999 -12.128638
-0.59335309 7.1202383 -12.061454
-0.59452665 6.8370581 -11.990625
-0.59621495 6.5583644 -11.88873
-0.59790874 6.2780428 -11.786496
-0.59956324 5.9956341 -11.68664
-0.60127008 5.7120671 -11.583627
-0.60344929 5.4310436 -11.452097
-0.60573179 5.1487222 -11.314333
-0.60792887 4.8634334 -11.181728
-0.61002153 4.5751619 -11.055427
-0.61212856 4.2849016 -10.928253
-0.614501 3.9942575 -10.785066
-0.61706042 3.7023642 -10.630591
-0.61973065 3.4085181 -10.469431
-0.62222832 3.1111422 -10.318681
-0.62437427 2.8096852 -10.189161
-0.62653279 2.5061319 -10.058882
-0.62847084 2.1996489 -9.9419136
-0.63048404 1.8914535 -9.8204041
-0.63250792 1.5812699 -9.6982527
-0.63454485 1.2690899 -9.5753136
-0.63675368 0.95513171 -9.4419975
-0.63904756 0.63904798 -9.3035526
-0.64132059 0.32066157 -9.1663618
-0.64391571 1.516018e-07 -9.0097313
-0.64666253 -0.32332963 -8.8439493
-0.64943755 -0.64943826 -8.6764574
-0.65280938 -0.97921306 -8.4729471
-0.65654176 -1.3130813 -8.2476826
-0.66032696 -1.6508161 -8.0192261
-0.66525465 -1.9957627 -7.7218156
-0.67134196 -2.3496969 -7.3544083
-0.68184018 -2.7273593 -6.7207847
-0.75150114 -3.3817532 -2.5163791
-0.64222777 -7.3856182 -9.1116066
-0.64123654 -7.6948376 -9.1714325
-0.64181131 -8.0226402 -9.1367455
-0.64269644 -8.3550529 -9.0833216
-0.3036218 4.5543284 -11.22309
-0.30419961 4.2587948 -11.153341
-0.30482918 3.9627798 -11.077343
-0.30546141 3.6655385 -11.001032
-0.30609727 3.3670714 -10.924273
-0.30673474 3.0673487 -10.847323
-0.30741134 2.7667024 -10.765649
-0.3082473 2.4659791 -10.664742
-0.30908892 2.1636236 -10.563153
-0.30993402 1.8596046 -10.46114
-0.31078374 1.5539191 -10.358566
-0.31163925 1.2465578 -10.255298
-0.31249839 0.93749648 -10.15159
-0.31397441 0.62795138 -9.9734192
-0.31560689 0.3156065 -9.7763605
-0.31725642 1.4512441e-06 -9.5772448
-0.32098868 -0.32098863 -9.1267214
-0.32235613 -0.6447106 -8.9616537
-0.32387936 -0.97163725 -8.7777853
-0.32560107 -1.3024039 -8.5699549
-0.32753599 -1.6376787 -8.3363905
-0.32969013 -1.9781399 -8.0763617
-0.33277059 -2.3293922 -7.7045207
-0.33684823 -2.6947858 -7.2123051
-0.34750843 -3.1275749 -5.9255042
-0.32166156 -6.4332304 -9.0454979
-0.32033259 -6.7269831 -9.2059202
-0.31999856 -7.039969 -9.2462368
-0.32039782 -7.3691506 -9.198041
-0.32128376 -7.7108088 -9.0911036
-1.5315821e-24 2.4158661 10.450634
1.2855743e-24 1.8944675 9.2971144
-5.092871e-24 1.3928325 8.1697206
-4.7488922e-24 0.90970165 7.0317206
-6.906269e-24 0.44580582 5.9398351
9.4961112e-24 8.3677514e-07 4.8845105
7.6817918e-24 -0.42861462 3.8649957
-4.9169298e-24 -0.63180172 -9.7408352
8.8354575e-24 -0.94952494 -9.6675205
-6.2280261e-24 -1.2687736 -9.5848312
-1.2006446e-23 -1.589412 -9.5016413
-3.1296053e-24 -1.9123133 -9.4006939
-2.6796146e-24 -2.2392812 -9.2584438
3.0071591e-24 -2.6640062 -7.6767287
6.8031956e-24 -3.0475075 -6.9993944
1.3298146e-24 -3.7244554 -2.9153173
1.2544296e-23 -5.7855134 -9.0749683
4.9614357e-24 -6.0825357 -9.2299519
1.064061e-23 -6.3929105 -9.2888536
-9.6694712e-24 -6.7177715 -9.2588663
5.5404612e-24 -7.0671334 -9.0971842
0.48495257 2.4247622 10.66547
0.47526255 1.9010495 9.4957829
0.46586099 1.3975834 8.3609161
0.456209 0.91242051 7.1958137
0.44694656 0.44694835 6.0777373
0.43795255 2.2352463e-06 4.992065
0.42944941 -0.42944777 3.9656487
0.42094204 -0.84188223 2.9387147
0.41265491 -1.2379647 1.9383738
0.40457442 -1.6182975 0.96297002
0.39597479 -1.9798726 -0.075100251
0.38731536 -2.3238909 -1.1203831
0.32490924 -2.2743647 -8.6534662
0.32281691 -2.582535 -8.9060326
0.32197669 -2.8977907 -9.0074568
0.32359141 -3.235913 -8.8125467
0.32485053 -5.197607 -8.6605549
0.32168034 -5.468565 -9.0432281
0.3205331 -5.7695951 -9.181715
0.32020563 -6.0839062 -9.2212429
0.32139748 -6.427947 -9.0773783
0.97313607 2.4328432 10.860474
0.95381391 1.90763 9.6942778
0.93462378 1.401937 8.5360556
0.9150818 0.9150843 7.3565874
0.89639491 0.44820023 6.2287354
0.87811881 1.4922723e-06 5.1256776
0.86054367 -0.43026981 4.064919
0.84339964 -0.84339881 3.030189
0.82678568 -1.2401778 2.0274506
0.81034368 -1.6206872 1.0350866
0.79321194 -1.9830285 0.001094065
0.77616662 -2.3285 -1.0276809
0.75778902 -2.6522601 -2.1368699
0.73721927 -2.9488761 -3.3783662
0.65715653 -2.9572046 -8.2105761
0.65209168 -3.2604575 -8.5162687
0.64966035 -3.5731323 -8.6630135
0.65071863 -4.8803897 -8.5991383
0.64600796 -5.1680632 -8.8834534
0.6440782 -5.4746637 -8.9999256
0.64532161 -5.8078928 -8.9248772
1.4649321 2.4415545 11.070832
1.4356414 1.9141883 9.8922701
1.4057021 1.4057037 8.687604
1.3766057 0.91773891 7.5168581
1.3483937 0.44946575 6.381691
1.3207862 1.2823294e-06 5.2708526
1.293691 -0.43123057 4.1806254
1.2673628 -0.84490776 3.1212595
1.2421783 -1.2421769 2.1079121
1.2173244 -1.6230978 1.1078653
1.191938 -1.9865617 0.086397812
1.1664807 -2.3329601 -0.93792802
1.1392565 -2.6582625 -2.0333419
1.1099445 -2.959852 -3.2127635
1.0745122 -3.2235353 -4.6384492
0.99407142 -3.3135705 -7.8751354
0.98598862 -3.6152902 -8.2003641
0.98127973 -3.9251184 -8.3898363
0.98368347 -4.5905228 -8.2931175
0.97710669 -4.8855329 -8.557745
0.97635573 -5.2072315 -8.5879622
1.7056315 -11.939417 20.755825
1.7116753 -12.552285 20.999014
1.7184211 -13.174562 21.270447
1.9603398 2.4504259 11.285004
1.9199783 1.9199806 10.066988
1.879499 1.4096247 8.8454161
1.8408933 0.92044729 7.6803856
1.8026141 0.45065457 6.5252085
1.7651689 1.4393945e-06 5.3951993
1.7287132 -0.43217781 4.2950525
1.6928782 -0.84643829 3.2136397
1.6587565 -1.2440646 2.1839223
1.6257956 -1.6257948 1.1892368
1.5920875 -1.9901088 0.17200802
1.5581278 -2.3371913 -0.85282046
1.5224023 -2.6642032 -1.93093
1.4841467 -2.9682922 -3.0853927
1.4405445 -3.2412255 -4.4012046
1.3418658 -3.3546648 -7.3790998
1.3303635 -3.6584992 -7.7262111
1.3199611 -3.9598823 -8.0401306
1.3206588 -4.2921414 -8.0190763
1.3201145 -4.6204004 -8.0355024
2.2040489 -8.2651815 18.639578
2.2140911 -8.8563623 18.942627
2.2250121 -9.4562979 19.272194
2.236325 -10.06346 19.613592
2.2489157 -10.682349 19.993557
2.2618961 -11.30948 20.385271
2.459347 2.4593494 11.500408
2.4073329 1.9258665 10.244672
2.3562245 1.4137363 9.0108051
2.3065159 0.92260778 7.8107381
2.2585604 0.45171225 6.6529884
2.2114139 1.5977545e-06 5.5147681
2.1655989 -0.43311745 4.408699
2.1206527 -0.84825844 3.3236024
2.0772698 -1.2463617 2.2762463
2.0358331 -1.6286649 1.2758782
1.9937493 -1.9937484 0.25988352
1.9514225 -2.3417056 -0.76197773
1.9072555 -2.6701572 -1.8282601
1.8604895 -2.9767835 -2.9572937
1.8089501 -3.2561097 -4.2015629
1.7424232 -3.4848447 -5.8076649
1.6791934 -3.6942244 -7.3341703
1.6652119 -3.9965079 -7.6717134
1.6545821 -4.3019128 -7.9283338
2.9622505 2.4685423 11.722394
2.8985755 1.9323852 10.441357
2.8362556 1.418129 9.1875753
2.7764716 0.92549217 7.9848089
2.7174776 0.45291346 6.7979469
2.6596665 5.3082101e-07 5.6348777
2.6039686 -0.43399325 4.5143209
2.5503466 -0.85011303 3.4355285
2.497365 -1.2486823 2.3696213
2.4473217 -1.6315475 1.3628272
2.3973179 -1.9977651 0.35683274
2.3463545 -2.3463526 -0.66847742
2.2938824 -2.6761968 -1.724129
2.2386308 -2.9848397 -2.8357108
2.1796396 -3.2694588 -4.022521
2.1084855 -3.514142 -5.4540339
2.032047 -3.7254183 -6.9918528
2.0154853 -4.0309687 -7.3250475
1.9986244 -4.3303528 -7.6642623
3.3938458 1.9393417 10.651291
3.321497 1.4235002 9.4036779
3.2488437 0.92824155 8.1508217
3.1802685 0.45432666 6.9682803
3.1115575 1.7337936e-06 5.783402
3.0440981 -0.43487093 4.6201148
2.9819233 -0.85197812 3.5479455
2.9192209 -1.2510946 2.4666831
2.8601756 -1.6343846 1.4484812
2.8025029 -2.0017869 0.45395204
2.7426987 -2.3508832 -0.57733852
2.6823437 -2.6823432 -1.618119
2.6184576 -2.992522 -2.7197978
2.5519438 -3.2810709 -3.8667877
2.4742532 -3.5346458 -5.2065134
2.387476 -3.7517462 -6.7029381
2.3678992 -4.0592527 -7.0405259
2.349303 -4.3629899 -7.3612013
2.3477197 -4.6954374 -7.3885069
3.8940501 1.9470265 10.883197
3.8109221 1.4290966 9.6288948
3.7248785 0.93122071 8.3305941
3.6463668 0.4557966 7.1459436
3.5661442 1.5247882e-06 5.9354782
3.4869752 -0.43587178 4.7409115
3.4154449 -0.85386002 3.6616042
3.3432019 -1.2537007 2.5715377
3.2744989 -1.6372476 1.5348917
3.2089431 -2.0055883 0.54572821
3.140506 -2.3553777 -0.48690531
3.0729694 -2.6888459 -1.5059574
3.0000274 -3.0000253 -2.6065631
2.9238532 -3.2893338 -3.7559447
2.8398328 -3.5497887 -5.0237179
2.7449558 -3.7743132 -6.4552979
2.7233868 -4.0850806 -6.7807498
2.7021024 -4.390914 -7.1019087
2.6918621 -4.7107582 -7.2564235
4.397624 1.9545006 11.108762
4.3036504 1.4345508 9.848362
4.2055392 0.93456638 8.5324621
4.1142135 0.45713669 7.3075686
4.0213556 2.0842308e-06 6.0621376
3.9329681 -0.43699437 4.8766551
3.8507378 -0.85571855 3.7737589
3.7692571 -1.2564178 2.6809146
3.690294 -1.6401281 1.6218375
3.6161709 -2.0089817 0.62767702
3.5398061 -2.3598683 -0.39654973
3.4641004 -2.6942997 -1.4119388
3.3832848 -3.0073633 -2.4958589
3.2979426 -3.2979412 -3.6404924
3.2067409 -3.5630455 -4.8637214
3.1062021 -3.796468 -6.2121768
3.0811613 -4.1082153 -6.5480294
3.05829 -4.4175286 -6.8547893
3.0411596 -4.7306914 -7.0845456
4.7981415 1.4394432 10.04521
4.6897659 0.93795514 8.7369947
4.5841246 0.45841295 7.4617968
4.4820657 7.8174054e-07 6.2298384
4.3825326 -0.43825215 5.0283666
4.2879086 -0.85757953 3.8861516
4.1971841 -1.2591541 2.7910125
4.1088581 -1.6435424 1.7248204
4.0246506 -2.0123243 0.70834732
3.9406495 -2.3643889 -0.30563557
3.8559768 -2.6991825 -1.3277268
3.7678092 -3.014245 -2.392004
3.6739955 -3.3065963 -3.5244348
3.574048 -3.5740478 -4.7309046
3.4692121 -3.8161328 -5.996387
3.4412088 -4.1294494 -6.3344173
3.4156265 -4.4403129 -6.6432238
3.3957155 -4.7540016 -6.8835707
5.2975221 1.444782 10.259925
5.1769629 0.94126666 8.9369459
5.0629854 0.4602738 7.686192
4.9456496 1.8476179e-06 6.3985834
4.8343043 -0.43948179 5.1767163
4.7283702 -0.85970306 4.014225
4.6267362 -1.2618353 2.8989201
4.5296545 -1.6471463 1.8335742
4.4344711 -2.0156679 0.78906584
4.3431869 -2.3690107 -0.2126613
4.2492762 -2.704083 -1.2432104
4.1534381 -3.0206819 -2.2949033
4.0520096 -3.3152795 -3.4079549
3.9428766 -3.5844324 -4.6055431
3.8332098 -3.8332095 -5.8089972
3.8038921 -4.1496997 -6.1307168
3.7754023 -4.4618373 -6.4433565
3.7532737 -4.7768927 -6.6861906
5.6720853 0.94534987 9.1832867
5.5419078 0.46182662 7.8738041
5.4143248 2.1283549e-06 6.5904183
5.2896757 -0.44080552 5.3365488
5.1718521 -0.86197454 4.1513324
5.0590172 -1.2647536 3.0163031
4.9526944 -1.6508969 1.9467752
4.8478785 -2.0199492 0.89240992
4.7473006 -2.3736498 -0.11932477
4.6445165 -2.7093008 -1.1532555
4.5405226 -3.0270152 -2.1993501
4.4302683 -3.3227005 -3.3084252
4.3135028 -3.594584 -4.482995
4.2022328 -3.8520455 -5.602282
4.168736 -4.1687341 -5.939239
4.1366425 -4.4813623 -6.2620707
4.1142764 -4.7999887 -6.4870596
6.1718192 0.94951087 9.4345551
6.0272465 0.46363589 8.0921326
5.8874445 2.0522525e-06 6.7940106
5.7513509 -0.44240993 5.5303221
5.6196141 -0.86455351 4.307085
5.4950948 -1.2680972 3.1508737
5.3777671 -1.6546972 2.0614326
5.2650061 -2.0250006 1.0143937
5.1530004 -2.3783083 -0.025622899
5.0425057 -2.7151942 -1.0516137
4.9289155 -3.0331774 -2.1063509
4.8094969 -3.3296514 -3.215203
4.6862154 -3.6047802 -4.3599286
4.5727453 -3.8692453 -5.413547
4.5365648 -4.1875968 -5.7494979
4.5015359 -4.501534 -6.0747547
4.481977 -4.8267431 -6.2563677
6.5176759 0.46554914 8.3231678
6.3647065 1.671434e-06 7.0042319
6.2155547 -0.443966 5.7182193
6.073473 -0.86763835 4.4931631
5.9368558 -1.2721823 3.3152242
5.8059487 -1.6588424 2.1865163
5.6842251 -2.0300782 1.1369915
5.5598187 -2.3827786 0.064341016
5.4422307 -2.7211142 -0.94952667
5.3191676 -3.0395231 -2.0106015
5.1903152 -3.3366303 -3.1215899
5.0604663 -3.6146181 -4.2411742
4.9453907 -3.8856642 -5.2333784
4.9069557 -4.2059598 -5.5647717
4.868422 -4.5206761 -5.8970199
4.8558645 -4.8558636 -6.0052915
7.0144048 0.46762761 8.574091
6.8478522 2.0605944e-06 7.233778
6.6839156 -0.44559246 5.9145145
6.5299029 -0.87065327 4.6751194
6.3796229 -1.275924 3.4657562
6.2393141 -1.6638155 2.3366375
6.1038876 -2.0346279 1.2468123
5.9690599 -2.3876238 0.16180409
5.8431597 -2.7268054 -0.85136569
5.7119207 -3.046356 -1.9074934
5.5727339 -3.3436399 -3.0275826
5.4340825 -3.62272 -4.1433659
5.321362 -3.9023318 -5.0504684
5.2796392 -4.223711 -5.3862262
5.2384205 -4.5399642 -5.7179317
7.3384185 2.8401041e-06 7.4906106
7.1601558 -0.44750917 6.1457224
6.9866395 -0.87332857 4.8366427
6.8253317 -1.2797501 3.6196723
6.6729474 -1.6682357 2.4700189
6.5235929 -2.0386219 1.3432252
6.3814998 -2.3930612 0.27121839
6.2460461 -2.7326431 -0.75070173
6.1064439 -3.0532205 -1.803921
5.9567623 -3.3506763 -2.9331834
5.8077488 -3.6298423 -4.0573988
5.7005033 -3.9190962 -4.8665042
5.6555266 -4.2416449 -5.2058263
5.6099586 -4.5580907 -5.5496135
7.8369002 2.4882927e-06 7.7734308
7.6417942 -0.44951704 6.3880587
7.4522333 -0.87673229 5.042057
7.2756658 -1.283939 3.7883148
7.1095657 -1.6728384 2.6089041
6.9493647 -2.0439303 1.4713728
6.7970262 -2.3989494 0.38967434
6.6514893 -2.7388473 -0.64373285
6.5027208 -3.0601025 -1.7000796
6.3437543 -3.3584583 -2.8288417
6.1850333 -3.6382535 -3.9558613
6.0822988 -3.9356048 -4.685339
6.0345712 -4.2596965 -5.0242338
5.9838543 -4.5758886 -5.3843598
8.1309004 -0.45171446 6.6535454
7.9227772 -0.88030738 5.2578392
7.7289591 -1.2881583 3.9580662
7.5478458 -1.6772982 2.7434952
7.3790078 -2.0497224 1.6112415
7.2135515 -2.404516 0.50166851
7.0565462 -2.744211 -0.55123502
6.9006681 -3.0669627 -1.5965754
6.7325764 -3.3662877 -2.7238228
6.5647497 -3.6470823 -3.8492935
6.4673243 -3.9522514 -4.5026426
6.4165182 -4.2776785 -4.8433533
6.3607316 -4.5938606 -5.2174687
8.397975 -0.88399529 5.4804749
8.1855211 -1.2924492 4.1307173
7.9876676 -1.6816134 2.8737178
7.8100362 -2.0552723 1.7451899
7.6316319 -2.4099886 0.61175382
7.4625602 -2.7493625 -0.46239349
7.2982068 -3.0729284 -1.5065631
7.1232152 -3.3741543 -2.6183167
6.9455638 -3.6555572 -3.7469738
6.8556495 -3.9690595 -4.318212
6.8015656 -4.2957249 -4.6618195
6.7411251 -4.6123481 -5.0458117
8.8837528 -0.88837415 5.7447062
8.6502724 -1.2975388 4.3355289
8.4378748 -1.6875737 3.0535963
8.2442923 -2.0610707 1.8852191
8.054491 -2.4163465 0.7396704
7.8706288 -2.754719 -0.37003314
7.6972942 -3.0789175 -1.4162011
7.5156841 -3.3820574 -2.5123131
7.3294325 -3.6647148 -3.6364441
7.24753 -3.9861393 -4.1307707
7.1881156 -4.3128691 -4.489368
7.1295223 -4.6341896 -4.8430057
9.1280584 -1.3040061 4.5957613
8.8958178 -1.6944404 3.260813
8.6795387 -2.0665553 2.0176139
8.4795866 -2.4227383 0.86826301
8.2855215 -2.7618387 -0.24724987
8.0999975 -3.0857108 -1.3136636
7.9103689 -3.3901575 -2.4036741
7.7195764 -3.6759868 -3.500375
7.6427975 -4.0033689 -3.9417074
7.5768933 -4.3296518 -4.3205338
7.5210052 -4.655858 -4.641789
9.654254 -1.3164868 5.09795
9.3550634 -1.7009193 3.4563382
9.122817 -2.0733659 2.1820385
8.9059963 -2.4289074 0.99237549
8.7020941 -2.768846 -0.12640417
8.5059385 -3.0930672 -1.2026823
8.3078384 -3.3986599 -2.2896271
8.1112108 -3.6869135 -3.3684931
8.0425987 -4.0212975 -3.7449596
7.9697905 -4.347158 -4.1444435
7.9214721 -4.6808686 -4.4095573
9.8123178 -1.70649 3.6244109
9.569705 -2.0803697 2.3511081
9.3348837 -2.4351859 1.118698
9.1198835 -2.7756159 -0.0096830167
8.9137011 -3.1004174 -1.0917859
8.7070456 -3.4071043 -2.176383
8.5208855 -3.7047327 -3.1534011
8.4461021 -4.0394397 -3.5458839
8.3688154 -4.3663378 -3.9515057
8.3468504 -4.7177839 -4.0667887
10.014258 -2.0863028 2.4943445
9.7665815 -2.4416459 1.2486296
9.5391617 -2.7822545 0.10479248
9.320159 -3.1067183 -0.99670142
9.1030235 -3.4136336 -2.0888104
8.9373341 -3.7238891 -2.9221606
8.8552284 -4.0586462 -3.3351216
8.7712679 -4.3856335 -3.75741
10.473994 -2.0947971 2.6994317
10.19878 -2.4477067 1.37058
9.9573412 -2.7880542 0.20481355
9.7283163 -3.11306 -0.90101588
9.4990473 -3.4196556 -2.0080287
9.3588686 -3.7435455 -2.6848702
9.2673674 -4.0776405 -3.1266749
9.1767969 -4.40486 -3.5639908
10.637821 -2.4548793 1.5149238
10.381409 -2.7949934 0.32447141
10.138592 -3.1195669 -0.80285716
9.9038315 -3.4282479 -1.8927805
9.7875948 -3.764457 -2.4324374
9.6878471 -4.0987039 -2.8955386
9.5903521 -4.4263163 -3.3481762
10.807739 -2.8020055 0.44538531
10.547402 -3.1251557 -0.71851307
10.355961 -3.4519863 -1.5744066
10.229227 -3.7886024 -2.1410015
10.113639 -4.1203709 -2.6577725
10.020735 -4.4536586 -3.0731246
11.628815 -20.673447 4.1162238
11.607141 -2.9017842 2.1660166
11.095674 -3.170192 -0.038971253
10.854902 -3.4890747 -1.0769606
10.685397 -3.8162127 -1.8077122
10.558402 -4.1479435 -2.3552003
10.488173 -4.4949303 -2.657963
11.511622 -13.567267 1.7542223
11.535961 -14.007953 1.8591518
11.562464 -14.453079 1.9734058
11.589088 -14.900254 2.0881822
11.615835 -15.349496 2.2034941
11.642706 -15.800813 2.319334
11.669701 -16.254225 2.4357135
11.697765 -16.711092 2.5567026
11.730705 -17.177103 2.6987119
11.763832 -17.645746 2.841521
11.797146 -18.117044 2.9851429
11.830649 -18.591019 3.1295769
11.864343 -19.067694 3.2748368
11.89823 -19.547089 3.4209235
11.936237 -20.035826 3.5847797
11.975477 -20.529388 3.753948
12.014918 -21.026104 3.9239781
11.785767 -3.2512455 1.184032
11.400085 -3.5379581 -0.42134076
11.168592 -3.851239 -1.3849164
11.018657 -4.1794896 -2.0090158
11.142624 -4.6107402 -1.4930109
11.173918 -5.0089955 -1.3627506
11.268866 -5.4401412 -0.96753716
11.379415 -6.6706896 -0.50738281
11.400187 -7.0759783 -0.420917
11.421087 -7.4827795 -0.33392516
11.447962 -7.8951459 -0.22206144
11.48203 -8.3145733 -0.080255553
11.516249 -8.7364655 0.062180031
11.545086 -9.1564474 0.18221386
11.570713 -9.5757608 0.28888309
11.596454 -9.9969416 0.39602712
11.622309 -10.420001 0.50364906
11.64828 -10.844948 0.6117512
11.676022 -11.2734 0.7272253
11.707705 -11.707704 0.85910422
11.73956 -12.144373 0.9917022
11.772133 -12.584002 1.1272783
11.808978 -13.030596 1.28065
11.846057 -13.479994 1.4349841
11.883313 -13.932159 1.590063
11.921638 -14.388185 1.7495902
11.960213 -14.847158 1.9101496
11.999037 -15.309115 2.0717561
12.041008 -15.777871 2.2464561
12.086704 -16.254534 2.4366682
12.133153 -16.735382 2.630007
11.713881 -3.9046273 -0.74046403
11.583752 -5.0196242 -1.264062
11.59514 -5.4110646 -1.218245
11.624981 -5.8124905 -1.0981679
11.658064 -6.2176332 -0.96505511
11.693715 -6.6264372 -0.82160807
11.729533 -7.0377192 -0.67748612
11.765623 -7.4515605 -0.5322721
11.801936 -7.8679562 -0.38615963
11.838474 -8.2869301 -0.239141
11.875185 -8.7084694 -0.091425054
11.912179 -9.1326704 0.057425965
11.952809 -9.5622454 0.22090703
12.034195 -10.028494 0.54837519
