# .PCD v0.7 - Point Cloud Data file format
VERSION 0.7
FIELDS x y z
SIZE 4 4 4
TYPE F F F
COUNT 1 1 1
WIDTH 1506
HEIGHT 1
VIEWPOINT 0 0 0 1 0 0 0
POINTS 1506
DATA ascii
-9.0595617 2.2648923 -2.3074071
-9.0207462 1.8793241 -2.502635
-8.9760056 1.4960015 -2.727659
-8.9271431 1.1158936 -2.9734175
-8.8691988 0.73910069 -3.2648556
-8.8115606 0.36714858 -3.5547543
-8.7480364 1.1323947e-06 -3.8742576
-8.6908503 -0.3621169 -4.1618838
-8.6793242 -0.72327596 -4.2198553
-8.668539 -1.0835656 -4.274097
-8.6588106 -1.4431347 -4.3230309
-8.6482534 -1.8017197 -4.3761258
-8.6389227 -2.159729 -4.4230571
-8.6284494 -2.5166302 -4.4757328
-8.5991058 -5.7327361 -4.6233206
-8.6028147 -6.0936608 -4.6046634
-8.6275339 -6.4706488 -4.4803391
-8.6557608 -6.8524761 -4.338367
-8.6874571 -7.2395463 -4.1789479
-8.7225151 -7.6322007 -4.0026169
-8.7580404 -8.028203 -3.8239415
-8.7938919 -8.4274788 -3.6436214
-8.8300018 -8.8300009 -3.4620039
-8.8664083 -9.2358418 -3.2788899
-8.9031544 -9.6450825 -3.0940721
-8.9401693 -10.05769 -2.9079018
-8.9774923 -10.473742 -2.7201798
-9.0151672 -10.893325 -2.5306931
-9.0531206 -11.316401 -2.3397987
-9.0913954 -11.743051 -2.147295
-9.1299953 -12.173326 -1.9531553
-9.1746941 -12.615202 -1.7283368
-9.2278423 -13.072776 -1.4610193
-9.2815695 -13.535621 -1.1907961
-9.5104904 11.991488 2.0403328
-9.4792948 11.54001 1.8766056
-9.4483013 11.091485 1.7139485
-9.416811 10.645089 1.5486729
-9.3818769 10.197695 1.3653345
-9.3506975 9.7572508 1.2016948
-9.3232841 9.3232851 1.0578179
-9.2945805 8.8904686 0.90717793
-9.2630033 8.4575272 0.74144846
-9.2316389 8.0275164 0.57684153
-9.2045002 7.6037192 0.43440905
-9.1779366 7.1827335 0.29499319
-9.1510706 6.7638369 0.1539907
-9.1203766 6.3446121 -0.0070980168
-9.0899286 5.9282155 -0.16689627
-9.0635347 5.5169344 -0.30542079
-9.0382605 5.108583 -0.43806753
-9.0131273 4.7025013 -0.56997281
-8.9857416 4.2975292 -0.71370554
-8.9537697 3.8929443 -0.88150054
-8.9226141 3.4914587 -1.0450137
-8.8921423 3.0929186 -1.2049342
-8.8618793 2.6970944 -1.3637669
-8.8295879 2.3033714 -1.5332412
-8.7952013 1.9120018 -1.7137115
-8.7577486 1.5230873 -1.9102749
-8.7143116 1.1366502 -2.1382451
-8.6653309 0.75350821 -2.3953097
-8.6162014 0.37461916 -2.653156
-8.556263 2.1939845e-06 -2.9677291
-8.4873638 -0.36901501 -3.3293364
-8.415576 -0.73178852 -3.7060938
-8.3421755 -1.0881081 -4.0913219
-8.3253078 -1.4478791 -4.1798463
-8.3126335 -1.8070921 -4.246366
-8.300168 -2.165261 -4.3117876
-8.2863159 -2.5219202 -4.3844905
-8.2706184 -2.8767362 -4.4668756
-8.257369 -3.2311442 -4.5364065
-8.2071228 -5.3524699 -4.8001194
-8.2188101 -5.717432 -4.7387815
-8.2670746 -6.110446 -4.4854736
-9.1811285 12.102398 2.5019832
-9.1535873 11.650021 2.3508701
-9.1247501 11.198557 2.1926444
-9.0960941 10.749929 2.0354121
-9.0676603 10.304159 1.8793993
-9.039403 9.861167 1.7243578
-9.0110693 9.4206667 1.5688982
-8.9844551 8.984458 1.4228669
-8.9580383 8.5508566 1.2779224
-8.933094 8.1209974 1.1410595
-8.9072657 7.6926403 0.99933881
-8.8812599 7.2664857 0.85664809
-8.8554049 6.8428154 0.71478671
-8.8297005 6.4216008 0.57375079
-8.8054657 6.0037274 0.44077411
-8.7839098 5.5897632 0.32250407
-8.7593317 5.1759701 0.18764411
-8.734889 4.7644858 0.053536389
-8.7106218 4.3553133 -0.079613484
-8.686451 3.9483874 -0.21223594
-8.6627626 3.543859 -0.34221354
-8.635006 3.1400049 -0.49450871
-8.6054773 2.7381079 -0.65652639
-8.5761127 2.3389423 -0.81765085
-8.546607 1.9424117 -0.97953993
-8.5118427 1.5476084 -1.1702893
-8.4752083 1.1557107 -1.3712938
-8.4356184 0.76687646 -1.588517
-8.3910522 0.38141364 -1.8330468
-8.3372927 1.7291221e-06 -2.1280148
-8.2765398 -0.37620449 -2.4613578
-8.2150631 -0.74682426 -2.7986681
-8.1369953 -1.1095893 -3.2270164
-8.0543327 -1.4644216 -3.6805763
-7.9730701 -1.8120604 -4.1264491
-7.95719 -2.1701427 -4.2135792
-7.9417639 -2.5269227 -4.2982211
-7.9233513 -2.8812177 -4.3992486
-7.9020576 -3.2326596 -4.5160832
-7.8785071 -3.5811391 -4.6453042
-7.8387632 -4.9883022 -4.8633733
-7.8514681 -5.3532724 -4.7936616
-8.8697529 12.671078 3.1109886
-8.8429098 12.211639 2.9566929
-8.8174057 11.756543 2.8100934
-8.7920904 11.304117 2.6645756
-8.7646341 10.851454 2.5067542
-8.7386293 10.403131 2.3572769
-8.7147083 9.9596682 2.2197719
-8.690918 9.5186253 2.0830166
-8.6672554 9.0799837 1.9470087
-8.6426325 8.6426325 1.8054711
-8.6189108 8.2084875 1.6691202
-8.5972376 7.7784543 1.5445379
-8.5759125 7.3507838 1.421953
-8.5533466 6.9241366 1.2922435
-8.5282249 6.497695 1.1478393
-8.5068083 6.0762939 1.0247374
-8.4874468 5.6582999 0.91344374
-8.4681339 5.2421803 0.80243367
-8.4489479 4.8279724 0.69214767
-8.4285803 4.4149709 0.57507616
-8.4051018 4.00243 0.44011569
-8.3818674 3.5922303 0.30656198
-8.3587608 3.1842911 0.17374387
-8.3351059 2.7783701 0.03776823
-8.308671 2.373908 -0.11417892
-8.2812185 1.9717194 -0.27198544
-8.2505579 1.5715353 -0.44822347
-8.2200871 1.1742991 -0.62337238
-8.1879196 0.77980298 -0.80827487
-8.1445456 0.38783666 -1.0575923
-8.1004229 1.9352169e-06 -1.3112165
-8.049448 -0.38330588 -1.6042303
-7.988987 -0.7608543 -1.9517682
-7.9130759 -1.1304394 -2.3881104
-7.8404884 -1.4934254 -2.805357
-7.75492 -1.846409 -3.2972131
-7.6429553 -2.1837013 -3.9407988
-7.5917902 -2.5305965 -4.2349038
-7.5721164 -2.884613 -4.3479924
-7.5497699 -3.235615 -4.4764414
-7.5217085 -3.5817649 -4.637743
-7.4918814 -3.9243181 -4.8091922
-7.4936719 -4.6389389 -4.7989006
-7.4830308 -4.9886866 -4.8600678
-8.5171442 12.775717 3.5320337
-8.4945955 12.317165 3.3959401
-8.472085 11.860922 3.2600749
-8.4478693 11.404625 3.1139231
-8.4237919 10.950932 2.9686038
-8.4038591 10.504825 2.8482962
-8.3807898 10.056951 2.7090554
-8.3578062 9.6114798 2.5703406
-8.3356581 9.1692257 2.4366643
-8.316493 8.7323198 2.3209958
-8.2979631 8.297965 2.2091548
-8.2766361 7.8628058 2.0804365
-8.2558451 7.4302592 1.954949
-8.235158 6.999886 1.83009
-8.2148037 6.5718441 1.7072401
-8.1995459 6.1496606 1.6151588
-8.182065 5.7274461 1.5096487
-8.1632576 5.306119 1.3961395
-8.144537 4.8867245 1.28315
-8.1261654 4.4693928 1.172261
-8.1096668 4.0548353 1.0726864
-8.0921946 3.6414895 0.96723151
-8.0718374 3.2287352 0.8443675
-8.0490065 2.8171539 0.70657206
-8.026269 2.4078815 0.56933761
-8.0026407 2.0006607 0.42672858
-7.9751778 1.5950369 0.26097336
-7.9479017 1.1921874 0.096351191
-7.9155097 0.79155296 -0.099156439
-7.8786201 0.39393234 -0.32180542
-7.842247 2.5182358e-06 -0.54133421
-7.7987437 -0.38993636 -0.80390066
-7.7385144 -0.77384901 -1.1674185
-7.6678762 -1.1501791 -1.5937558
-7.6019263 -1.5203836 -1.991797
-7.5146585 -1.878664 -2.5185061
-7.4149237 -2.2244763 -3.1204588
-7.3071465 -2.5574989 -3.7709522
-7.2167687 -2.8867064 -4.3164277
-7.1922827 -3.2365253 -4.4642162
-7.161231 -3.5806143 -4.6516318
-7.1276765 -3.9202201 -4.8541489
-7.1098685 -4.2659216 -4.9616275
-7.1273303 -4.6327624 -4.8562398
-8.1563177 12.878399 3.9451818
-8.1374788 12.420364 3.825495
-8.1173086 11.962351 3.6973498
-8.0964155 11.505433 3.5646107
-8.0741882 11.04889 3.4233997
-8.0551834 10.598926 3.3026576
-8.0362673 10.151077 3.1824813
-8.0174398 9.7053232 3.0628669
-7.9960256 9.2585583 2.9268205
-7.9770069 8.8166924 2.8059862
-7.9602351 8.3791971 2.6994331
-7.9440613 7.9440646 2.5966804
-7.9274287 7.5101967 2.4910059
-7.9080606 7.0756354 2.3679588
-7.8909822 6.6450377 2.2594566
-7.8766088 6.2183757 2.1681376
-7.8615117 5.7926941 2.0722251
-7.8464723 5.3686419 1.9766754
-7.8314905 4.9462066 1.8814946
-7.815836 4.5249596 1.7820352
-7.7998075 4.1051626 1.6802039
-7.7838082 3.6870673 1.5785584
-7.7679105 3.2707014 1.4775555
-7.7500315 2.8552754 1.3639679
-7.7301626 2.4411047 1.2377377
-7.709259 2.028753 1.1049321
-7.6870904 1.6183369 0.96409124
-7.6641717 1.210133 0.81848562
-7.6338949 0.8035683 0.62612885
-7.6007133 0.40003791 0.41531959
-7.5654235 1.2177508e-06 0.19111963
-7.5219312 -0.39589074 -0.085196652
-7.4626932 -0.78554577 -0.46154806
-7.4072328 -1.1695614 -0.81389987
-7.3361511 -1.5444521 -1.2654922
-7.2506795 -1.9080713 -1.808511
-7.1493869 -2.2577004 -2.4520438
-7.0360622 -2.5922329 -3.1720154
-6.9256721 -2.9160724 -3.8733451
-6.8298521 -3.2351921 -4.4821081
-6.798388 -3.5780976 -4.6820068
-6.7638211 -3.9158964 -4.9016161
-6.7255197 -4.247695 -5.1449547
-6.7773533 -4.6371355 -4.8156447
-7.8093667 13.449465 4.4972901
-7.7873483 12.978915 4.3496342
-7.7708206 12.519657 4.2387953
-7.7527704 12.059869 4.1177497
-7.7338228 11.600736 3.9906838
-7.7171454 11.146988 3.8788462
-7.7002039 10.69473 3.7652295
-7.6819587 10.242613 3.6428769
-7.6637993 9.7926321 3.5210991
-7.6457262 9.3447771 3.3998976
-7.6313362 8.9032288 3.3033967
-7.6177325 8.4641495 3.2121654
-7.6022806 8.0246296 3.1085436
-7.5868917 7.5868945 3.0053413
-7.569685 7.1491461 2.8899508
-7.5575967 6.7178655 2.8088851
-7.5458341 6.2881975 2.7300017
-7.5325327 5.8586373 2.6408033
-7.5188861 5.4303069 2.5492878
-7.5053244 5.0035501 2.4583411
-7.4918118 4.5783305 2.3677227
-7.4783125 4.1546183 2.2771919
-7.4633503 3.7316761 2.1768537
-7.4484129 3.3104067 2.0766833
-7.4333611 2.8907537 1.9757402
-7.4167733 2.4722598 1.8645014
-7.399085 2.0553029 1.7458826
-7.3790765 1.6397951 1.6117036
-7.3559656 1.2259951 1.4567206
-7.3302193 0.81447089 1.2840596
-7.3039794 0.40577728 1.1080905
-7.2687507 6.0048257e-07 0.87183994
-7.2271657 -0.40150678 0.5929634
-7.1777573 -0.79752749 0.26162767
-7.1230626 -1.1871762 -0.10516427
-7.0465407 -1.5658972 -0.61833084
-6.96243 -1.9340065 -1.1823921
-6.8614249 -2.2871411 -1.8597463
-6.7485104 -2.6244187 -2.6169682
-6.6263208 -2.94503 -3.4363906
-6.5020714 -3.251034 -4.2696261
-6.4332342 -3.574018 -4.7312546
-6.3961968 -3.9087868 -4.9796343
-6.3585887 -4.2390585 -5.2318377
-6.3436284 -4.5815086 -5.3321652
-7.4244084 13.53863 4.8444843
-7.410079 13.076613 4.7427354
-7.3958411 12.616437 4.6416354
-7.3808937 12.156768 4.5354981
-7.3636518 11.695212 4.4130716
-7.348906 11.239506 4.3083668
-7.334291 10.785721 4.2045922
-7.3194838 10.333389 4.0994506
-7.3037028 9.8814812 3.9873958
-7.2868547 9.4300499 3.8677628
-7.2740045 8.9855347 3.7765198
-7.2614813 8.5429201 3.687597
-7.2499137 8.1028442 3.6054602
-7.2383833 7.6641707 3.5235815
-7.2247963 7.2247963 3.4271102
-7.2127547 6.788475 3.3416059
-7.2007184 6.3535767 3.2561419
-7.1894469 5.9207225 3.1761062
-7.1799664 5.4905643 3.1087887
-7.1645751 5.0573492 2.9994993
-7.1543732 4.6293015 2.9270611
-7.1442351 4.2024927 2.855073
-7.1327314 3.7761533 2.7733936
-7.1193013 3.350261 2.67803
-7.1053152 2.9257188 2.5787187
-7.0916185 2.5029247 2.4814646
-7.0766697 2.0813746 2.3753216
-7.0583224 1.6607833 2.2450387
-7.0361986 1.2416834 2.0879478
-7.013392 0.82510501 1.9260082
-6.9899173 0.41117334 1.7593191
-6.9577932 8.4819698e-07 1.5312207
-6.9174519 -0.40690735 1.2447703
-6.8672924 -0.80791622 0.88860744
-6.8110323 -1.2019459 0.48912689
-6.7413907 -1.5862086 -0.0053740242
-6.6556282 -1.9575362 -0.61433989
-6.5534387 -2.3129766 -1.339951
-6.4400988 -2.6518052 -2.1447365
-6.3156853 -2.972085 -3.0281522
-6.1834497 -3.2735906 -3.9671066
-6.0669699 -3.5688031 -4.794188
-6.028182 -3.9005873 -5.0696073
-5.9898629 -4.2281389 -5.3416953
-5.9529271 -4.5522366 -5.6039639
-7.0378609 13.635856 5.2230806
-7.0252657 13.172375 5.1280551
-7.0126801 12.710485 5.033103
-6.9988537 12.247997 4.9287896
-6.9859123 11.78873 4.8311548
-6.9744682 11.333512 4.7448153
-6.9605508 10.875863 4.6398206
-6.9466209 10.419932 4.5347238
-6.9325075 9.9654799 4.4282446
-6.9201159 9.5151606 4.3347602
-6.9101734 9.0696049 4.2597508
-6.8978953 8.6223688 4.1671195
-6.8860312 8.1771631 4.0776119
-6.8749785 7.7343521 3.9942245
-6.8653665 7.2944531 3.9217081
-6.857048 6.8570504 3.8589537
-6.8482509 6.4202347 3.7925837
-6.8367229 5.9821329 3.705606
-6.8270183 5.5469542 3.6323924
-6.8179684 5.1134768 3.564116
-6.8086133 4.6809235 3.4935374
-6.7959719 4.2474828 3.3981667
-6.7856636 3.8169374 3.3203974
-6.7757454 3.3878744 3.2455688
-6.7652068 2.959779 3.1660585
-6.7520785 2.5320308 3.0670171
-6.7389369 2.1059198 2.9678729
-6.7227988 1.6807011 2.8461194
-6.7055249 1.2572862 2.7157967
-6.6848178 0.83560276 2.5595734
-6.6589165 0.41618299 2.3641605
-6.6297193 1.7578901e-06 2.1438899
-6.5886497 -0.41178927 1.8340405
-6.5460172 -0.81825173 1.512401
-6.4828982 -1.2155424 1.0362102
-6.4150815 -1.60377 0.52457023
-6.3296204 -1.9780054 -0.12018317
-6.2287917 -2.3357959 -0.88087779
-6.1115818 -2.673815 -1.7651595
-5.9926815 -2.9963386 -2.662195
-5.8581591 -3.295213 -3.6770864
-5.7190804 -3.5744228 -4.7263541
-5.6594791 -3.8908913 -5.176012
-5.6216402 -4.2162299 -5.4614792
-5.5844154 -4.5373373 -5.7423201
-6.658751 14.205338 5.7120051
-6.6442842 13.731521 5.5955877
-6.6341414 13.268286 5.5139642
-6.6228342 12.804149 5.4229741
-6.6106062 12.339799 5.3245692
-6.5991483 11.878469 5.2323613
-6.5887156 11.420441 5.1484051
-6.5779886 10.963314 5.0620799
-6.5672307 10.507572 4.9755096
-6.5540037 10.049472 4.8690677
-6.5434217 9.5970192 4.7839084
-6.5332289 9.1465216 4.7018847
-6.5242276 8.6989737 4.6294456
-6.5152192 8.252614 4.5569506
-6.505146 7.8061771 4.4758868
-6.4963493 7.3625312 4.4050999
-6.487577 6.9200826 4.3345027
-6.4798131 6.4798145 4.2720242
-6.4722261 6.0407438 4.2109699
-6.465416 5.603364 4.1561685
-6.4581785 5.166543 4.0979257
-6.4494457 4.7295947 4.0276504
-6.4407992 4.2938681 3.9580679
-6.4315805 3.8589509 3.883884
-6.4222326 3.4251914 3.8086572
-6.4129429 2.992708 3.7338991
-6.4016008 2.5606432 3.6426246
-6.3869319 2.1289792 3.5245783
-6.3725142 1.6993395 3.4085515
-6.3565092 1.2713023 3.2797589
-6.3398552 0.8453145 3.1457322
-6.3132858 0.42088661 2.9319184
-6.2837386 1.7894794e-06 2.6941411
-6.2474866 -0.41649759 2.4024067
-6.1987982 -0.82650495 2.0105908
-6.1478 -1.2295581 1.6001873
-6.0742521 -1.6198008 1.0083266
-5.9881878 -1.9960623 0.31573346
-5.8873992 -2.3549585 -0.4953537
-5.7717853 -2.6934977 -1.4257408
-5.6425896 -3.0093813 -2.4654291
-5.5105333 -3.3063188 -3.5281353
-5.3693953 -3.5795953 -4.6639276
-5.288177 -3.8779955 -5.3175201
-5.2516842 -4.201345 -5.6111894
-5.215034 -4.5196948 -5.9061332
-6.2425847 14.268767 5.9512787
-6.2419844 13.821538 5.9461021
-6.2336535 13.357833 5.8742719
-6.2238998 12.892366 5.7901726
-6.2139258 12.427852 5.704175
-6.2062325 11.969165 5.6378393
-6.1965947 11.507962 5.5547452
-6.1867085 11.047695 5.4694991
-6.1765127 10.588308 5.3815908
-6.1668754 10.131295 5.2984929
-6.1595435 9.6792841 5.2352796
-6.1505108 9.225769 5.1573987
-6.1409845 8.7728367 5.0752645
-6.1324639 8.3226299 5.0017948
-6.1252441 7.8753157 4.9395442
-6.1188612 7.430048 4.8845086
-6.1120672 6.98522 4.8259296
-6.1037469 6.5397315 4.7541952
-6.0965042 6.0965061 4.6917453
-6.0906625 5.6556172 4.6413779
-6.0848618 5.2155952 4.5913606
-6.0791922 4.7765079 4.5424757
-6.0736527 4.3383231 4.4947124
-6.0661826 3.8996892 4.4303045
-6.0564394 3.4608226 4.3462996
-6.0495462 3.0247748 4.2868605
-6.040833 2.5889304 4.2117348
-6.0259838 2.1521389 4.0837035
-6.0136995 1.7182008 3.9777863
-5.9988956 1.2854788 3.8501432
-5.9797826 0.85425496 3.6853466
-5.9566441 0.42547536 3.4858449
-5.9268112 1.417867e-06 3.2286155
-5.8901763 -0.420726 2.9127462
-5.8452501 -0.83503419 2.5253854
-5.7862511 -1.2399102 2.0166793
-5.7179108 -1.633688 1.4274383
-5.6278243 -2.0099366 0.65070033
-5.5313869 -2.3705921 -0.18080714
-5.4160562 -2.7080266 -1.1752112
-5.2939105 -3.0250902 -2.2283721
-5.15734 -3.3154318 -3.4059091
-5.0156956 -3.5826399 -4.627192
-4.9179745 -3.8641217 -5.469769
-4.8834801 -4.1858392 -5.7671809
-4.8476176 -4.5013571 -6.0763993
-4.8371773 -4.8371763 -6.1664124
-5.8397908 14.37487 6.3515282
-5.8339591 13.911748 6.2973752
-5.8265376 13.445858 6.2284617
-5.8187203 12.980225 6.155879
-5.8100104 12.513869 6.0749998
-5.8025317 12.051414 6.0055585
-5.7954831 11.590967 5.9401069
-5.7887144 11.132143 5.8772612
-5.7797441 10.670298 5.7939653
-5.7713537 10.210857 5.7160592
-5.7636843 9.7539291 5.6448431
-5.757019 9.2998009 5.5829496
-5.7506289 8.8471222 5.5236182
-5.7431297 8.3938055 5.4539809
-5.7371726 7.943778 5.3986721
-5.7312284 7.4946842 5.3434739
-5.7252102 7.0464129 5.2875943
-5.7191477 6.5990176 5.2313008
-5.7136683 6.1531835 5.1804218
-5.7088823 5.7088838 5.1359839
-5.7033658 5.2646465 5.0847549
-5.6978879 4.8212914 5.0338941
-5.692421 4.3787866 4.9831276
-5.687077 3.9372077 4.9335108
-5.6809254 3.4959574 4.8763933
-5.6735506 3.0549901 4.8079147
-5.6640081 2.6141586 4.7193079
-5.6537166 2.1745079 4.6237445
-5.6434064 1.7364346 4.5280056
-5.6267667 1.2984854 4.3735013
-5.6079164 0.86275709 4.1984696
-5.5876374 0.42981932 4.0101719
-5.5576682 2.0073373e-06 3.7318933
-5.518507 -0.42449918 3.3682671
-5.4738159 -0.84212434 2.953289
-5.4148984 -1.2495904 2.4062123
-5.3452058 -1.6446767 1.7590868
-5.2593708 -2.0228333 0.9620719
-5.1578054 -2.380523 0.018992037
-5.0471072 -2.7176709 -1.0088924
-4.9251413 -3.0308554 -2.1413929
-4.78966 -3.3159173 -3.3993976
-4.6611295 -3.5854828 -4.5928626
-4.5488925 -3.8490603 -5.6350312
-4.5142078 -4.1669593 -5.9570932
-4.4819064 -4.4819059 -6.2570205
-4.4574447 -4.8003249 -6.4841595
-5.4225469 14.460126 6.6731281
-5.4177661 13.995895 6.6250353
-5.4126334 13.531586 6.5734029
-5.4057679 13.063939 6.5043411
-5.3996367 12.599154 6.4426689
-5.3935194 12.135422 6.3811364
-5.3865099 11.670774 6.3106284
-5.3800392 11.208418 6.2455373
-5.3737206 10.747443 6.1819754
-5.3689437 10.290475 6.1339221
-5.3623791 9.8310299 6.0678859
-5.355206 9.3716106 5.9957294
-5.3491893 8.9153166 5.9352064
-5.3438611 8.4611139 5.8816104
-5.3400273 8.0100403 5.8430438
-5.3367109 7.5603418 5.8096819
-5.3311386 7.1081853 5.7536302
-5.3254709 6.6568389 5.6966181
-5.3209128 6.2077351 5.6507692
-5.3165236 5.7595701 5.6066155
-5.3127289 5.3127308 5.5684404
-5.3093925 4.8669438 5.5348854
-5.3042235 4.420186 5.4828854
-5.2976303 3.9732227 5.4165621
-5.2934113 3.5289426 5.374125
-5.2873206 3.0842719 5.31286
-5.277658 2.6388288 5.2156572
-5.2680826 2.195035 5.1193361
-5.2584109 1.7528051 5.0220499
-5.2443476 1.311089 4.8805809
-5.2248778 0.87081522 4.6847296
-5.2029896 0.43358481 4.4645486
-5.1717758 6.0681145e-07 4.1505685
-5.136538 -0.42804325 3.796098
-5.0882187 -0.8480351 3.3100467
-5.0355649 -1.2588899 2.7803905
-4.9588757 -1.652957 2.0089538
-4.8778591 -2.0324397 1.1939929
-4.7811451 -2.3905711 0.22112556
-4.6725855 -2.7256746 -0.87090558
-4.5507083 -3.0338044 -2.0968945
-4.4199119 -3.3149333 -3.4126031
-4.2959528 -3.5799594 -4.6595345
-4.1820803 -3.8335729 -5.8050032
-4.1500916 -4.1500897 -6.1267838
-4.1182356 -4.461422 -6.4472294
-4.0930371 -4.775209 -6.7007051
-4.9964304 14.080851 6.9558363
-4.9910507 13.611958 6.8968029
-4.9869919 13.147524 6.8522606
-4.9811201 12.679217 6.7878304
-4.976285 12.214519 6.7347636
-4.9714842 11.750784 6.6820836
-4.9657764 11.285857 6.6194491
-4.960412 10.82272 6.5605798
-4.9559212 10.362382 6.5112967
-4.9514885 9.902977 6.462656
-4.9470892 9.4444447 6.4143815
-4.9415379 8.9846163 6.3534636
-4.9372315 8.5279493 6.3062091
-4.9332094 8.0725231 6.2620702
-4.9298711 7.6188908 6.2254333
-4.9268875 7.1663837 6.1926937
-4.924058 6.7146268 6.1616435
-4.9206572 6.2626562 6.1243205
-4.9170108 5.8110151 6.0843096
-4.9129467 5.3595805 6.0397115
-4.9090137 4.9090152 5.996552
-4.9048634 4.4589677 5.9510036
-4.9005218 4.0095191 5.9033608
-4.8959894 3.5607214 5.8536301
-4.8894668 3.1114793 5.7820487
-4.8823462 2.6630998 5.7039051
-4.8741913 2.2155421 5.614418
-4.8625221 1.7681912 5.4863658
-4.8496709 1.3226379 5.3453403
-4.8308578 0.87833834 5.1388888
-4.8073425 0.43703237 4.8808446
-4.7777095 1.4471237e-06 4.5556579
-4.7393799 -0.43085191 4.1350446
-4.6948714 -0.85361147 3.6466208
-4.6351471 -1.2641289 2.9912241
-4.5706186 -1.6620414 2.2831051
-4.485323 -2.0387831 1.3470997
-4.3909993 -2.3950884 0.31201971
-4.2837334 -2.7260108 -0.86508787
-4.1649728 -3.0290694 -2.1683297
-4.0503836 -3.3139486 -3.4257996
-3.9304001 -3.5730894 -4.7424564
-3.8169303 -3.8169293 -5.9876437
-3.785877 -4.1300468 -6.3284101
-3.757772 -4.4410014 -6.6368289
-3.7319777 -4.7497888 -6.9198861
-4.5622787 13.230611 7.1980963
-4.557251 12.760303 7.1374021
-4.5527754 12.292495 7.0833731
-4.5483551 11.825726 7.0300212
-4.544178 11.360449 6.979599
-4.5405941 10.897428 6.9363337
-4.5371084 10.435352 6.8942666
-4.532999 9.9725981 6.8446565
-4.5289202 9.5107336 6.7954154
-4.5251508 9.0503016 6.7499142
-4.5227571 8.5932398 6.7210245
-4.5204124 8.1367455 6.6927252
-4.5167036 7.6783977 6.647953
-4.513833 7.222136 6.613306
-4.5114517 6.7671795 6.584559
-4.5092344 6.3129296 6.5577936
-4.5064893 5.8584366 6.5246525
-4.5033321 5.4040017 6.4865475
-4.4999042 4.9498963 6.4451652
-4.4961367 4.496139 6.3996911
-4.4927883 4.0435119 6.359271
-4.4881411 3.5905128 6.3031735
-4.4821339 3.137496 6.2306623
-4.4755521 2.6853318 6.1512098
-4.4682412 2.2341211 6.0629592
-4.4563046 1.7825224 5.9188728
-4.4431086 1.3329343 5.7595811
-4.426095 0.88522035 5.5542078
-4.402071 0.44020963 5.2642121
-4.3728719 3.9264435e-07 4.9117517
-4.3338828 -0.43338761 4.4411144
-4.2897673 -0.85795242 3.9085889
-4.2339249 -1.2701777 3.234513
-4.1640854 -1.6656327 2.3914757
-4.0875769 -2.0437865 1.4679359
-3.9933381 -2.3960018 0.33037078
-3.893012 -2.7251079 -0.88067037
-3.7783313 -3.0226638 -2.2649882
-3.6729686 -3.3056705 -3.5368285
-3.5627859 -3.5627832 -4.8668537
-3.4576497 -3.8034132 -6.135962
-3.4252167 -4.1102581 -6.5274587
-3.399359 -4.4191656 -6.8395896
-3.3746772 -4.7245469 -7.137526
-4.1350093 12.864477 7.5864935
-4.1254759 12.37643 7.4586301
-4.1203723 11.903298 7.3901749
-4.1164136 11.434484 7.3370857
-4.1129961 10.967993 7.2912507
-4.1104374 10.504452 7.2569222
-4.1078811 10.041487 7.22264
-4.1048388 9.5779572 7.1818404
-4.1018443 9.1152115 7.1416717
-4.0992775 8.6540298 7.1072478
-4.0972857 8.1945753 7.080534
-4.0957403 7.7363992 7.0598049
-4.0942383 7.2786465 7.0396619
-4.0923362 6.8205609 7.0141449
-4.0903087 6.3627043 6.9869576
-4.088284 5.9052982 6.9597955
-4.0860076 5.4480114 6.9292707
-4.0821781 4.9893298 6.8779063
-4.0792165 4.5324645 6.8381796
-4.0762377 4.0762405 6.7982278
-4.0713592 3.6189892 6.7328019
-4.0659719 3.1624238 6.6605396
-4.0606394 2.7070935 6.5890236
-4.0524397 2.2513561 6.4790463
-4.0408301 1.795926 6.3233337
-4.0266051 1.3422036 6.1325498
-4.0094566 0.89099145 5.9025459
-3.9871922 0.44302234 5.6039238
-3.9565048 -2.6452705e-07 5.1923385
-3.920965 -0.43566108 4.7156653
-3.8730896 -0.86068493 4.0735493
-3.820781 -1.2735918 3.3719709
-3.7548132 -1.6688054 2.4871883
-3.6805103 -2.0447261 1.4906181
-3.5905857 -2.393723 0.28452098
-3.4925191 -2.716403 -1.0307766
-3.3933218 -3.0162845 -2.3612409
-3.2941463 -3.2941451 -3.6914124
-3.193306 -3.5481172 -5.0439138
-3.100395 -3.7893701 -6.2900643
-3.0679722 -4.0906277 -6.7249265
-3.0440791 -4.3970027 -7.0453854
-3.0206707 -4.6988192 -7.3593507
-3.6941984 12.006145 7.8676667
-3.6848478 11.515151 7.7265806
-3.679883 11.03965 7.6516643
-3.6775208 10.572875 7.6160173
-3.6753147 10.107117 7.5827341
-3.6728625 9.6412678 7.545732
-3.6713507 9.1783791 7.5229211
-3.6701076 8.716506 7.5041656
-3.6677768 8.2524977 7.468998
-3.666193 7.7906604 7.4450965
-3.6648581 7.3297176 7.4249578
-3.6635814 6.8692164 7.4056916
-3.6626294 6.4096026 7.3913255
-3.6613352 5.9496717 7.371799
-3.6595666 5.4893513 7.3451138
-3.6568127 5.0281172 7.3035617
-3.6537409 4.5671763 7.2572093
-3.6503525 4.1066494 7.2060857
-3.6458762 3.6458766 7.1385407
-3.6418624 3.1866312 7.0779786
-3.6363554 2.7272685 6.9948854
-3.6287522 2.2679718 6.8801599
-3.6170168 1.8085099 6.7030883
-3.6025553 1.3509593 6.4848814
-3.5847223 0.89618313 6.2157993
-3.5612779 0.44516242 5.8620472
-3.5328512 5.6816015e-07 5.4331284
-3.4963534 -0.43704373 4.8824148
-3.453918 -0.86347824 4.2421174
-3.3996253 -1.2748584 3.422904
-3.3383548 -1.6691754 2.4984024
-3.269485 -2.0434279 1.459237
-3.1875167 -2.3906362 0.22243066
-3.0932317 -2.7065752 -1.2002233
-3.0043511 -3.004349 -2.5413251
-2.9164832 -3.2810431 -3.867152
-2.8268671 -3.5335834 -5.2193503
-2.7455335 -3.7751076 -6.4465842
-2.7141867 -4.071279 -6.9195709
-2.6922631 -4.3749275 -7.2503695
-2.6708934 -4.6740627 -7.5728145
-3.2510879 11.146587 8.1895199
-3.2418396 10.651762 8.0300407
-3.2369039 10.173128 7.9449253
-3.2346113 9.7038364 7.9053907
-3.2330678 9.2373371 7.8787723
-3.2322373 8.7732153 7.8644524
-3.2314069 8.3093328 7.8501396
-3.2305775 7.8456883 7.8358307
-3.2294269 7.3815465 7.8159885
-3.2282937 6.9177732 7.7964497
-3.2271616 6.4543257 7.7769299
-3.2262497 5.9916072 7.7612
-3.2246299 5.5279379 7.7332664
-3.2227421 5.064311 7.7007146
-3.2203853 4.6005507 7.6600742
-3.2165883 4.1356139 7.5945964
-3.2130177 3.6720197 7.5330253
-3.2091377 3.2091391 7.4661179
-3.2036016 2.7459466 7.3706493
-3.1950681 2.2821944 7.2234955
-3.1857569 1.8204333 7.0629287
-3.1703417 1.3587201 6.7971025
-3.1526067 0.90074587 6.4912758
-3.129833 0.44712001 6.0985532
-3.1006036 2.5497891e-06 5.5945115
-3.068017 -0.43828583 5.032577
-3.0256341 -0.86446559 4.3017087
-2.9777179 -1.2761632 3.4754257
-2.9202719 -1.668726 2.4848039
-2.8531871 -2.0379887 1.3279644
-2.7751172 -2.3786697 -0.018302202
-2.6966217 -2.6966205 -1.3719051
-2.6152811 -2.9888918 -2.7745767
-2.5390697 -3.2645171 -4.088798
-2.4635262 -3.5193238 -5.391489
-2.3931751 -3.7607036 -6.6046553
-2.3637683 -4.0521741 -7.1117554
-2.3447196 -4.3544779 -7.4402394
-2.3249843 -4.6499667 -7.7805638
-2.7942939 9.7800303 8.3433704
-2.7890882 9.2969637 8.2386379
-2.7881169 8.8290377 8.219099
-2.7871611 8.3614845 8.1998701
-2.7863822 7.894752 8.1841993
-2.7856038 7.4282794 8.1685381
-2.7854865 6.9637165 8.1661749
-2.784914 6.4981322 8.1546593
-2.7840922 6.0322013 8.1381292
-2.7826264 5.5652547 8.1086359
-2.7808838 5.0982876 8.0735798
-2.7787781 4.6312985 8.0312157
-2.7759318 4.1639004 7.9739542
-2.7726257 3.6968367 7.9074411
-2.767529 3.2287865 7.8049073
-2.7612391 2.7612398 7.6783562
-2.7546754 2.2955637 7.5463095
-2.7444754 1.8296516 7.3411002
-2.7316792 1.3658407 7.0836577
-2.7134035 0.90446979 6.7159786
-2.6912937 0.44855154 6.2711668
-2.6650183 2.4352307e-06 5.7425427
-2.6321127 -0.43868378 5.0805349
-2.5956171 -0.86520433 4.3462992
-2.54967 -1.2748353 3.4219148
-2.4975419 -1.6650263 2.3731833
-2.4353778 -2.0294807 1.1225392
-2.3670373 -2.3670347 -0.25237069
-2.299432 -2.6826701 -1.612482
-2.2301376 -2.973515 -3.006577
-2.1655717 -3.2483571 -4.305541
-2.1032405 -3.5054007 -5.5595503
-2.0419245 -3.7435267 -6.7931337
-2.0162313 -4.0324626 -7.3100395
-2.0000238 -4.333385 -7.6361108
-1.9831516 -4.6273541 -7.975554
-2.3431609 8.9040117 8.6954298
-2.3371918 8.4138937 8.5513229
-2.3365967 7.9444304 8.536953
-2.3359396 7.475008 8.5210943
-2.3352833 7.0058513 8.5052433
-2.3351099 6.5383091 8.5010605
-2.3346519 6.0700941 8.4900017
-2.3335757 5.600584 8.4640179
-2.3324385 5.1313672 8.4365683
-2.3302295 4.6604609 8.383234
-2.327692 4.189847 8.3219776
-2.3248413 3.7197459 8.2531528
-2.3199422 3.2479229 8.134882
-2.3147843 2.7777426 8.0103531
-2.3082688 2.3082716 7.8530579
-2.2982225 1.8385804 7.6105146
-2.2851996 1.3711201 7.2961168
-2.2686944 0.90747976 6.8976488
-2.2479765 0.44959593 6.3974771
-2.224191 2.9244367e-07 5.8232393
-2.1944876 -0.43889564 5.1061316
-2.1596093 -0.86384386 4.2640977
-2.1199279 -1.2719556 3.3061066
-2.0742953 -1.6594354 2.2044349
-2.0186625 -2.0186603 0.86133844
-1.9625452 -2.3550518 -0.49345317
-1.9059761 -2.6683655 -1.8591497
-1.8486495 -2.9578393 -3.2431347
-1.7957538 -3.232357 -4.5201497
-1.74448 -3.4889596 -5.758008
-1.6931123 -3.7248468 -6.998138
-1.6719131 -4.0125918 -7.5099297
-1.6585329 -4.3121834 -7.8329587
-1.6445416 -4.6047144 -8.1707354
-1.8871403 8.0203457 9.0760126
-1.8801309 7.5205255 8.8644867
-1.8797798 7.0491753 8.8538876
-1.8793386 6.5776868 8.8405743
-1.8785869 6.1054106 8.817894
-1.877916 5.6337476 8.7976484
-1.8769057 5.1614928 8.7671528
-1.8752073 4.6880193 8.7159052
-1.8734423 4.2152462 8.6626396
-1.8700116 3.7400234 8.5591087
-1.8663561 3.2661245 8.4487953
-1.8619963 2.7929955 8.3172274
-1.8549279 2.3186617 8.1039181
-1.8459958 1.8459986 7.8343706
-1.8343371 1.3757548 7.4825392
-1.8189851 0.90949303 7.019248
-1.8013973 0.45035079 6.4884949
-1.7801889 8.8730229e-07 5.8484745
-1.7543486 -0.43858573 5.0686693
-1.7242966 -0.86214745 4.1617708
-1.6906604 -1.2679948 3.1467097
-1.6501249 -1.6501244 1.9234436
-1.6063443 -2.0079284 0.60224563
-1.5608337 -2.3412488 -0.77116221
-1.5155716 -2.6522489 -2.1370673
-1.4708498 -2.9416993 -3.4866655
-1.4294336 -3.2162251 -4.7365065
-1.3884341 -3.4710846 -5.9737754
-1.3487649 -3.7091024 -7.1708994
-1.3309716 -3.992913 -7.70786
-1.3203717 -4.2912073 -8.0277386
-1.3093406 -4.5826912 -8.3606367
-1.4264573 7.1322885 9.522727
-1.4176104 6.6155162 9.1667566
-1.4170781 6.1406732 9.14534
-1.4164629 5.6658525 9.1205854
-1.4153173 5.189497 9.0744877
-1.4141432 4.7138104 9.0272446
-1.4125934 4.237782 8.9648848
-1.4098272 3.7595401 8.8535881
-1.4069597 3.2829063 8.7382002
-1.4025682 2.8051372 8.5615053
-1.3967851 2.3279757 8.3288116
-1.3892868 1.8523833 8.0271006
-1.379135 1.379137 7.6186247
-1.3668076 0.91120625 7.1226063
-1.3517392 0.45058066 6.5163045
-1.3342451 1.5874443e-06 5.8123922
-1.3139294 -0.43797526 4.9949555
-1.2893164 -0.85954279 4.0046043
-1.2611805 -1.26118 2.8725054
-1.2306881 -1.6409158 1.6455816
-1.1968943 -1.9948244 0.28582925
-1.1637679 -2.3275366 -1.0470756
-1.1295551 -2.635627 -2.4236951
-1.097146 -2.9257219 -3.7277346
-1.0664502 -3.1993492 -4.9628425
-1.0360178 -3.4533906 -6.1873465
-1.0072049 -3.6930842 -7.346684
-0.99335766 -3.9734302 -7.9038563
-0.98536724 -4.2699242 -8.2253666
-0.97712475 -4.5599132 -8.5570202
-0.95804167 6.2272716 9.9494457
-0.94933665 5.6960201 9.4240532
-0.94855452 5.2170515 9.3768473
-0.94774306 4.7387171 9.3278742
-0.94621581 4.2579708 9.2356949
-0.94465804 3.7786343 9.1416731
-0.94224781 3.297868 8.9962015
-0.93889296 2.8166792 8.7937222
-0.93425202 2.3356316 8.5136156
-0.92839265 1.8567879 8.1599722
-0.92135173 1.3820294 7.7350116
-0.91179931 0.91179979 7.158474
-0.90097052 0.45048785 6.5048981
-0.88824981 -4.6614508e-07 5.7371368
-0.87312216 -0.43656015 4.8241019
-0.85560727 -0.85560632 3.7669857
-0.83585995 -1.2537887 2.5751286
-0.81509441 -1.6301869 1.3218182
-0.79277283 -1.9819313 -0.025406929
-0.76973277 -2.3091958 -1.4159992
-0.74834687 -2.6192131 -2.706753
-0.72728145 -2.9091258 -3.9781635
-0.70709127 -3.1819093 -5.1967516
-0.68717587 -3.4358788 -6.3987474
-0.66824257 -3.6753333 -7.5414729
-0.65902013 -3.954119 -8.0981026
-0.65366691 -4.2488341 -8.4211903
-0.64826888 -4.5378814 -8.7469969
-0.48218083 5.3039908 10.330894
-0.47614124 4.7614117 9.6018496
-0.4753626 4.2782645 9.5078573
-0.47445863 3.7956707 9.3987455
-0.47310537 3.3117411 9.2353868
-0.47108608 2.8265178 8.9916372
-0.46843529 2.3421774 8.6716604
-0.46517947 1.8607191 8.2786446
-0.46089765 1.3826932 7.7617841
-0.45590675 0.91181475 7.1593266
-0.44997433 0.44997537 6.4432249
-0.4428409 1.4661759e-06 5.5821452
-0.43466303 -0.43466258 4.5949869
-0.42544991 -0.85089779 3.4828656
-0.41540495 -1.2462132 2.2703302
-0.40465993 -1.6186379 0.97329199
-0.39354202 -1.9677095 -0.36875996
-0.38207161 -2.2924294 -1.7533571
-0.37170216 -2.6019142 -3.0050623
-0.36156723 -2.8925376 -4.2284551
-0.35158113 -3.1642296 -5.4338822
-0.34195116 -3.4195118 -6.5963225
-0.33245656 -3.6570203 -7.7424278
-0.32792622 -3.9351127 -8.2892866
-0.32528722 -4.2287335 -8.6078396
-0.32260409 -4.5164552 -8.9317255
-1.3526399e-23 4.2969351 9.7582493
-2.5679087e-24 3.8091941 9.6027832
8.6973966e-25 3.3226602 9.4237442
-4.0290566e-24 2.8349323 9.1609421
-1.2924273e-23 2.3477356 8.8058043
3.6360729e-25 1.8629025 8.3445606
-5.8499353e-24 1.382709 7.7623663
7.7595206e-24 0.91100311 7.1103768
-1.524725e-23 0.44896114 6.3205695
6.7989287e-24 9.4150082e-08 5.3815937
1.3772403e-24 -0.43253729 4.3383498
3.2717549e-24 -0.84588569 3.1802752
-8.5303553e-24 -1.2383927 1.9556482
3.9797039e-24 -1.6069669 0.6210404
-3.1818269e-24 -1.9526154 -0.73314935
-8.920164e-25 -2.2770481 -2.0627711
-1.3344766e-26 -2.5842369 -3.3099182
-2.234374e-24 -2.875139 -4.490963
-6.4711574e-24 -3.1466935 -5.6690683
-2.6239596e-24 -3.4025493 -6.8010697
-1.8932504e-25 -3.6394107 -7.9356875
-4.0914271e-25 -3.9178858 -8.4625788
6.373152e-25 -4.2095799 -8.7856922
-2.9704124e-24 -4.4956598 -9.1110411
0.47824574 3.8259678 9.8558836
0.47629055 3.3340373 9.619875
0.47375429 2.8425262 9.3137197
0.47027868 2.3513958 8.8941727
0.46607795 1.8643144 8.3871012
0.46064213 1.3819283 7.7309394
0.45458901 0.90917969 7.000267
0.44749609 0.44749811 6.1440735
0.43905503 -5.3973551e-08 5.1251483
0.43038112 -0.4303796 4.0781183
0.42002866 -0.8400563 2.8284626
0.40995824 -1.2298744 1.6128554
0.39868486 -1.5947384 0.25203812
0.38755056 -1.9377514 -1.0919931
0.37686795 -2.2612054 -2.3814957
0.36668521 -2.5667951 -3.6106613
0.35713381 -2.8570681 -4.7636185
0.34769776 -3.1292794 -5.9026508
0.33843765 -3.3843763 -7.0204406
0.32932153 -3.6225359 -8.1208534
0.32506752 -3.9008088 -8.6343613
0.3223573 -4.1906443 -8.9615116
0.31969425 -4.4757199 -9.2829714
0.54660779 -8.1991158 18.107916
0.54940027 -8.7904024 18.444994
0.55222487 -9.3878202 18.78595
0.55508208 -9.991478 19.130857
0.55799741 -10.601949 19.482761
0.56094342 -11.218868 19.838385
0.56427491 -11.849773 20.240524
0.56764609 -12.488214 20.647465
0.9554953 3.3442354 9.7957611
0.94928551 2.847857 9.4209671
0.94155276 2.3538854 8.9542522
0.93202269 1.8640472 8.3790627
0.91973531 1.3796047 7.6374564
0.90645516 0.90645576 6.8359265
0.89082819 0.44541407 5.8927565
0.87379783 1.8704047e-06 4.8648806
0.85504246 -0.42752078 3.732898
0.83420926 -0.83420837 2.475503
0.8135097 -1.2202629 1.2261707
0.79127359 -1.5825455 -0.11589383
0.7695747 -1.9239359 -1.4255356
0.74849945 -2.2454975 -2.6975415
0.72871053 -2.5504863 -3.8919103
0.71009839 -2.8403924 -5.015255
0.69156516 -3.1120431 -6.1338305
0.67327672 -3.3663845 -7.237637
0.655828 -3.607053 -8.2907619
0.64735168 -3.884109 -8.8023539
0.64192593 -4.1725178 -9.1298256
0.63660187 -4.4562111 -9.4511642
1.4260031 2.8520083 9.5044527
1.4128501 2.3547511 8.9752169
1.3960471 1.8613968 8.2991161
1.3758246 1.3758253 7.4854245
1.3541014 0.90273577 6.6113505
1.3299403 0.44331428 5.6391873
1.302941 1.8800375e-06 4.5528121
1.2739068 -0.42463467 3.3845725
1.2420089 -0.828004 2.101099
1.2102932 -1.2102923 0.82495272
1.1778105 -1.570413 -0.48204702
1.1459464 -1.9099096 -1.7641606
1.1152289 -2.2304578 -3.0001378
1.0862981 -2.534694 -4.1642203
1.0587033 -2.823209 -5.2745519
1.0316694 -3.095006 -6.3623137
1.0045666 -3.3485527 -7.4528456
0.97884047 -3.5890813 -8.4879808
0.96691626 -3.8676631 -8.9677773
0.95873821 -4.154532 -9.296833
0.95081025 -4.4371147 -9.6158285
1.9029499 2.8544271 9.5531073
1.8823106 2.3528886 8.9302673
1.8567071 1.8567091 8.1576099
1.8280364 1.3710279 7.2923965
1.7981886 0.89909565 6.3916588
1.7625197 0.44063273 5.3152533
1.7259269 1.8195597e-06 4.2109709
1.6860647 -0.42151529 3.0080223
1.6432749 -0.82163477 1.716722
1.6005572 -1.2004166 0.42760602
1.5582793 -1.5582798 -0.84824419
1.5168897 -1.8961112 -2.0972874
1.4773321 -2.2159975 -3.2910457
1.4394087 -2.5189636 -4.4354854
1.4030594 -2.8061187 -5.5324192
1.3677145 -3.0773571 -6.5990462
1.3320788 -3.3301976 -7.6744485
1.2982769 -3.57026 -8.6945133
1.2838892 -3.8516674 -9.1286964
1.2731346 -4.1376877 -9.4532442
1.2625949 -4.4190812 -9.7713099
2.3479331 2.3479362 8.8106394
2.3133736 1.8506987 7.9763017
2.2763758 1.3658272 7.0830898
2.235436 0.89417535 6.0947189
2.1899261 0.43798807 4.9960079
2.1423376 1.6682458e-06 3.8471234
2.0915952 -0.41831809 2.6220889
2.0382452 -0.81529796 1.3341144
1.9852021 -1.1911199 0.053536937
1.9329811 -1.5463833 -1.20719
1.8832601 -1.8832591 -2.4075632
1.8343731 -2.201247 -3.5877998
1.7879745 -2.5031633 -4.7079592
1.7439067 -2.7902498 -5.7718506
1.699522 -3.059139 -6.843389
1.6564056 -3.3128107 -7.8843145
1.6138657 -3.5505037 -8.9113169
1.5986105 -3.8366656 -9.2796087
1.5854939 -4.1222835 -9.5962715
1.5720633 -4.4017754 -9.9205189
2.8104622 2.3420551 8.6686535
2.7653279 1.8435527 7.7606201
2.7193794 1.3596901 6.8362083
2.666995 0.88899982 5.78232
2.6110578 0.43517616 4.6569448
2.5527613 1.2665541e-06 3.4841061
2.4913018 -0.41521499 2.2476377
2.4269004 -0.80896473 0.95197982
2.3637657 -1.1818821 -0.31818846
2.3020864 -1.5347227 -1.5590796
2.2441444 -1.8701198 -2.7247837
2.1872447 -2.1872451 -3.8695197
2.1320143 -2.4873481 -4.9806724
2.0804865 -2.7739804 -6.0173259
2.0274863 -3.041229 -7.0836053
1.9769495 -3.294915 -8.1003313
1.9271964 -3.5331929 -9.1012878
1.9109933 -3.8219855 -9.4272652
1.8955431 -4.1070089 -9.7380991
1.8808963 -4.3887572 -10.032769
3.2680624 2.3343318 8.4822321
3.2118795 1.835362 7.5133967
3.155818 1.3524945 6.5466495
3.092051 0.88344514 5.4470272
3.0263617 0.43233842 4.31426
2.9573927 4.5173903e-07 3.1249297
2.8836396 -0.41194612 1.8531035
2.8088102 -0.80251592 0.56271428
2.7364779 -1.172775 -0.68460846
2.6659894 -1.5234213 -1.9001392
2.6008613 -1.8577577 -3.0232313
2.536051 -2.1737566 -4.1408467
2.4728639 -2.472863 -5.2304702
2.4131925 -2.7579319 -6.2594657
2.3519378 -3.0239193 -7.3157654
2.2936561 -3.2766497 -8.3208008
2.2407472 -3.5211725 -9.2331829
2.2224119 -3.8098488 -9.5493593
2.2043271 -4.093749 -9.8612213
2.1878223 -4.3756433 -10.145836
3.718431 2.3240197 8.2333078
3.6530399 1.8265213 7.246634
3.5851235 1.3444223 6.2218561
3.511075 0.87777132 5.104548
3.4340549 0.42925954 3.9424045
3.3556046 1.3247802e-06 2.7586806
3.2687266 -0.40858924 1.4477936
3.1862483 -0.79656184 0.20329279
3.1035316 -1.1638235 -1.0448061
3.0268722 -1.5134343 -2.2015114
2.9521139 -1.8450695 -3.3295233
2.8805828 -2.1604373 -4.4088464
2.8101926 -2.4589181 -5.4709525
2.7416766 -2.7416759 -6.504776
2.6731124 -3.007251 -7.5393295
2.6068709 -3.2585871 -8.5388365
2.553587 -3.5111823 -9.3428297
2.5324507 -3.7986743 -9.6617546
2.511446 -4.081099 -9.9786863
2.4933963 -4.3634439 -10.251036
4.1627169 2.3126211 7.958117
4.0882626 1.8170055 6.9595137
4.0094166 1.3364729 5.9020019
3.9247699 0.87217206 4.7667017
3.8372791 0.42636579 3.5932467
3.747535 2.3601101e-06 2.3895721
3.6497197 -0.405523 1.0776446
3.5570881 -0.79046249 -0.1647553
3.4666607 -1.1555539 -1.3775979
3.3825777 -1.503366 -2.5053461
3.299027 -1.8327929 -3.6259501
3.2210088 -2.1473382 -4.6723552
3.1429026 -2.4444776 -5.7199383
3.0668683 -2.7261033 -6.7397327
2.9917476 -2.9917469 -7.7472739
2.9184556 -3.2427266 -8.7302866
2.8646874 -3.5012836 -9.4514408
2.8411238 -3.7881656 -9.7674847
2.8174536 -4.069654 -10.084956
2.8006213 -4.3565207 -10.310719
4.6004066 2.3002043 7.6583333
4.5189981 1.8076007 6.6756492
4.4288325 1.3286515 5.5872526
4.3334141 0.86668342 4.4354506
4.2340879 0.42340869 3.236479
4.1326289 8.5869272e-07 2.0117636
4.0250735 -0.40250564 0.71345532
3.923342 -0.78466862 -0.51455599
3.8254955 -1.1476468 -1.6956675
3.7338982 -1.4935583 -2.8013453
3.6436582 -1.8218294 -3.8906367
3.5577919 -2.134675 -4.9271331
3.4711263 -2.4297879 -5.9732814
3.3879046 -2.7103238 -6.9778562
3.3071513 -2.9764354 -7.9526329
3.2270575 -3.2270567 -8.9194527
3.1759276 -3.4935191 -9.5366459
3.1502213 -3.7802641 -9.8469448
3.1240637 -4.0612822 -10.162696
3.1087918 -4.3523064 -10.347048
5.0342312 2.2882893 7.3706489
4.9419413 1.7970707 6.3578892
4.841383 1.3203796 5.2543879
4.7341461 0.86075497 4.0776105
4.6251016 0.42046401 2.8809848
4.5123758 4.7026546e-07 1.6439686
4.3961601 -0.39965034 0.36864993
4.2861404 -0.77929592 -0.83867675
4.1801934 -1.1400502 -2.0013008
4.0812316 -1.4840832 -3.0872793
3.9851413 -1.8114272 -4.1417456
3.8912354 -2.1224923 -5.1722388
3.7959783 -2.4156225 -6.2175617
3.7065494 -2.6956716 -7.1989274
3.6189377 -2.9609485 -8.1603518
3.5309911 -3.2099917 -9.1254501
3.4874213 -3.4874196 -9.6035757
3.4586256 -3.7730436 -9.9195709
3.4294028 -4.0529289 -10.240252
3.4178734 -4.3500209 -10.366771
3.4416707 -4.6931863 -10.105629
5.4635844 2.2764947 7.0859337
5.3583827 1.7861282 6.0276856
5.2484627 1.312116 4.9219728
5.1291099 0.85485286 3.7213759
5.0103574 0.41753009 2.5268199
4.8863611 8.0237788e-07 1.2795131
4.7623382 -0.39686003 0.031938944
4.6440063 -0.77400035 -1.1583871
4.5316648 -1.132916 -2.2884552
4.4238896 -1.4746283 -3.372591
4.3235431 -1.8014748 -4.3820004
4.2205911 -2.1102936 -5.4176149
4.1173048 -2.4017608 -6.4565907
4.0223494 -2.6815655 -7.4117723
3.9264312 -2.9448225 -8.3766365
3.8319221 -3.1932676 -9.3273258
3.7998364 -3.4831827 -9.6500797
3.7690902 -3.7690892 -9.959363
3.7358508 -4.0471711 -10.293724
3.7733827 -4.4022803 -9.9161816
3.7400682 -4.6750841 -10.251304
3.7328691 -4.9771581 -10.32372
3.7517776 -5.3150177 -10.133514
5.8871417 2.2642853 6.7912025
5.7698121 1.775329 5.701745
5.649086 1.3036362 4.5807476
5.5181613 0.84894854 3.3650558
5.3899179 0.41461056 2.1742628
5.2556534 6.9516869e-07 0.9275524
5.1235318 -0.39411649 -0.29925051
4.9980216 -0.76892501 -1.4646684
4.8784928 -1.1258061 -2.5745459
4.7651424 -1.4661982 -3.6270542
4.6559734 -1.7907583 -4.6407342
4.5477362 -2.0989544 -5.6457653
4.4364262 -2.3888423 -6.6793289
4.3349762 -2.6676784 -7.6213322
4.2305617 -2.9288502 -8.590867
4.1485267 -3.1911733 -9.3526011
4.1120396 -3.479418 -9.6913967
4.0783529 -3.7646332 -10.004195
4.0433273 -4.0433264 -10.329424
4.0362296 -4.9676671 -10.395329
4.0282912 -5.2677646 -10.469037
4.033144 -5.584353 -10.423977
4.042685 -5.9085383 -10.335386
6.3013473 2.2504828 6.4579349
6.1748734 1.7642509 5.3674569
6.0419283 1.2947005 4.2211776
5.9019895 0.84314311 3.0145957
5.7645292 0.41175455 1.8293909
5.6197453 1.4954791e-06 0.58103615
5.480618 -0.39147049 -0.61854255
5.349699 -0.76424056 -1.7473558
5.2245336 -1.1195428 -2.8265519
5.1038451 -1.4582407 -3.8671522
4.9833846 -1.779781 -4.9057851
4.8718071 -2.0879169 -5.8678279
4.7530489 -2.3765237 -6.8917861
4.6446266 -2.6540701 -7.8266249
4.5304289 -2.9124193 -8.8112535
4.4675951 -3.191139 -9.3530197
4.4279213 -3.4790802 -9.6950998
4.3879461 -3.7610965 -10.039774
4.3557677 -4.0446401 -10.317222
4.3516021 -5.2840862 -10.35314
4.334805 -5.573319 -10.497967
4.3352776 -5.8835912 -10.493891
4.3382821 -6.197546 -10.467983
4.3511567 -6.5267334 -10.356979
4.3641849 -6.8580036 -10.244646
6.7119641 2.2373228 6.1402326
6.5737338 1.752997 5.0278387
6.4297652 1.2859554 3.8692737
6.2831111 0.83774865 2.6890912
6.1320772 0.40880546 1.4736629
5.9767828 6.0043945e-08 0.22395495
5.8350563 -0.38900113 -0.91657704
5.6971421 -0.75961792 -2.0264227
5.5661597 -1.1132312 -3.0804861
5.4377055 -1.450053 -4.1142077
5.3144264 -1.7714746 -5.1062818
5.1903253 -2.0761302 -6.104969
5.0671024 -2.3646469 -7.09659
4.9505219 -2.6402774 -8.0347567
4.8323002 -2.899379 -8.9861345
4.7856345 -3.1904235 -9.3616714
4.7438946 -3.4788547 -9.697567
4.7009859 -3.760788 -10.04287
4.6746216 -4.0513382 -10.255032
4.6621675 -6.2162228 -10.355255
4.6568432 -6.519578 -10.398106
4.6614761 -6.8368311 -10.360819
4.6661029 -7.1546907 -10.323586
4.6749196 -7.4798698 -10.252634
4.68894 -7.814899 -10.13981
7.1166568 2.2239556 5.8175445
6.9675374 1.7418845 4.6925259
6.810225 1.2769196 3.5056987
6.6578779 0.83223534 2.3563287
6.4943409 0.40589753 1.1225381
6.3374195 1.3965785e-06 -0.061342571
6.187305 -0.38670421 -1.1938709
6.0416756 -0.75520974 -2.2925584
5.9047723 -1.1071447 -3.3254168
5.7706962 -1.4426725 -4.3369412
5.6420546 -1.763142 -5.3074684
5.5069456 -2.0651023 -6.3267889
5.3795104 -2.353534 -7.288208
5.2538614 -2.6269283 -8.2361593
5.1583591 -2.9015763 -8.9566679
5.1095076 -3.1934397 -9.3252296
5.0598817 -3.4786675 -9.6996222
5.0127797 -3.7595844 -10.05498
4.9985557 -7.1854219 -10.162294
4.9908013 -7.4862027 -10.220791
4.9915442 -7.7992873 -10.215189
4.9964995 -8.1193104 -10.177806
5.0016952 -8.4403601 -10.138603
5.0155272 -8.7771721 -10.034251
5.030818 -9.1183567 -9.918891
7.5164289 2.210716 5.4978833
7.3563437 1.7309042 4.3611803
7.1872382 1.2683383 3.1604235
7.0227342 0.82620472 1.9923421
6.8548112 0.40322563 0.79998165
6.693923 2.6888861e-06 -0.3424263
6.5364165 -0.3844938 -1.4608189
6.3847361 -0.75114495 -2.5378463
6.2401438 -1.1012015 -3.564544
6.1014328 -1.4356315 -4.5494761
5.9645228 -1.7542707 -5.521625
5.825655 -2.0561121 -6.5076723
5.6886077 -2.3423657 -7.4807954
5.5544996 -2.6138802 -8.4330463
5.4866614 -2.9047019 -8.9147425
5.4325147 -3.195595 -9.2992134
5.3787704 -3.4803784 -9.6808367
5.3308377 -3.7629437 -10.021183
5.3300982 -8.4654474 -10.026441
5.3241653 -8.7692127 -10.068563
5.3294721 -9.0914516 -10.030885
5.3345413 -9.4138956 -9.9948874
5.3439274 -9.7448092 -9.9282389
5.3601122 -10.089621 -9.8133211
8.0727301 2.6909101 6.2634487
7.9081154 2.1967003 5.1595154
7.7383151 1.7196265 4.0208101
7.5618143 1.2603039 2.837168
7.3870878 0.82078832 1.6654253
7.2098446 0.40054831 0.47680908
7.0458832 2.6550706e-06 -0.62274265
6.8825436 -0.38236314 -1.7181187
6.7241526 -0.74712712 -2.7803171
6.5719609 -1.0953254 -3.8009329
6.428956 -1.4286562 -4.7599468
6.2845597 -1.7457101 -5.7282925
6.1396751 -2.0465584 -6.6999078
5.9957151 -2.3316662 -7.6653285
5.8806243 -2.6136096 -8.4371414
5.8171649 -2.9085815 -8.862711
5.7577147 -3.1987295 -9.2613878
5.6993861 -3.4829576 -9.6525517
5.6696687 -3.779779 -9.85184
5.6747222 -9.4578686 -9.8179522
5.6640372 -9.7547302 -9.8896027
5.6650496 -10.071199 -9.8828163
5.6704597 -10.395843 -9.8465347
5.6769166 -10.723065 -9.8032341
5.6914268 -11.066663 -9.7059269
5.7098751 -11.41975 -9.5822086
8.4730663 2.6757054 5.9575462
8.2931805 2.1824181 4.8146996
8.1139631 1.7082032 3.6760962
7.9305844 1.2521983 2.5110536
7.7441492 0.81517553 1.326598
7.5654922 0.39818481 0.19155528
7.3939452 7.8442565e-07 -0.89831793
7.2251353 -0.38026884 -1.9708008
7.0591235 -0.74306452 -3.0255039
6.9010248 -1.0896336 -4.0299363
6.7527947 -1.4216392 -4.9716711
6.6038065 -1.7378426 -5.9182215
6.4490252 -2.0365331 -6.9015799
6.3014755 -2.3215957 -7.8389902
6.2184663 -2.6183002 -8.3663626
6.1520109 -2.9141107 -8.7885656
6.0841727 -3.2021942 -9.2195568
6.0209756 -3.4858258 -9.6210623
6.0124087 -10.759048 -9.6754837
6.003264 -11.058643 -9.7335844
6.0090194 -11.385509 -9.6970177
6.0146565 -11.712751 -9.6612062
6.0247469 -12.049493 -9.5970974
6.0432405 -12.404546 -9.4796066
6.0775881 -12.794921 -9.2613888
8.8627005 2.6588106 5.6176476
8.6734419 2.1683614 4.4753737
8.4856348 1.6971278 3.3418543
8.2920647 1.2438115 2.1735535
8.0984068 0.80984139 1.0047319
7.9173594 0.39586961 -0.087989539
7.7398062 2.5792458e-06 -1.1596197
7.5640287 -0.37819985 -2.2205324
7.3956537 -0.73956454 -3.236764
7.2344036 -1.0851581 -4.2099953
7.0774183 -1.415483 -5.157485
6.914783 -1.7286952 -6.1390724
6.7561364 -2.0268388 -7.0965919
6.6385565 -2.3234947 -7.8062487
6.5612845 -2.6245122 -8.2726269
6.4838815 -2.9177451 -8.7397966
6.4138598 -3.2069283 -9.1624146
6.35956 -3.4977565 -9.4901428
6.3626609 -11.770922 -9.4714251
6.3517404 -12.068306 -9.5373383
6.3502522 -12.38299 -9.5463209
6.35637 -12.712739 -9.5093946
6.3642244 -13.046658 -9.4619913
6.3791356 -13.396184 -9.3719931
6.4012971 -13.762789 -9.2382374
9.2492027 2.6426301 5.2921152
9.0466242 2.1539583 4.1276684
8.8516283 1.6860271 3.0068021
8.6497459 1.2356793 1.8463613
8.457099 0.80543923 0.73900312
8.2649355 0.39356947 -0.36557576
8.084137 1.9287595e-06 -1.4048314
7.9049253 -0.37642384 -2.4349625
7.7301264 -0.73620188 -3.4397302
7.5644984 -1.0806404 -4.3917823
7.3983245 -1.4092027 -5.3469696
7.2307758 -1.7216114 -6.31006
7.078577 -2.0224497 -7.1849189
6.989265 -2.3297551 -7.6982975
6.9035687 -2.6299303 -8.1908855
6.8218355 -2.9236422 -8.6607008
6.7411551 -3.2100737 -9.1244621
6.7060332 -13.092733 -9.3263445
6.6948438 -13.389687 -9.3906679
6.7006645 -13.720408 -9.3572063
6.7068849 -14.05252 -9.3214521
6.7189445 -14.397738 -9.2521305
6.7390919 -14.761821 -9.1363211
6.7790809 -15.172227 -8.9064617
9.625001 2.6250012 4.9374471
9.4208784 2.1411099 3.8174496
9.2117682 1.6748682 2.6701021
9.0047054 1.2279164 1.5339749
8.8068657 0.80062515 0.44846055
8.6129742 0.39150095 -0.61539125
8.4254217 5.402124e-07 -1.6444666
8.243022 -0.37468237 -2.6452668
8.0615702 -0.73286885 -3.6408629
7.8909879 -1.076043 -4.5768232
7.7091818 -1.4016699 -5.5743642
7.5409904 -1.7138615 -6.4972067
7.4377975 -2.0284896 -7.0634084
7.3391423 -2.3351815 -7.6047149
7.248136 -2.6356859 -8.1040516
7.160418 -2.929261 -8.5853491
7.0942235 -3.2246456 -8.9485474
7.0632439 -14.126487 -9.1185312
7.0520101 -14.424565 -9.1801662
7.0480347 -14.736798 -9.2019806
7.0543981 -15.070758 -9.1670666
7.0639648 -15.412286 -9.1145744
7.0793462 -15.767634 -9.0301781
10.005841 2.6102211 4.6400795
9.7868605 2.1275806 3.4908071
9.5721016 1.6647151 2.3636847
9.3584728 1.2206709 1.2425025
9.1506987 0.7957136 0.15204088
8.9563026 0.38940576 -0.86820269
8.7691593 1.5657998e-06 -1.850385
