# .PCD v0.7 - Point Cloud Data file format
VERSION 0.7
FIELDS x y z
SIZE 4 4 4
TYPE F F F
COUNT 1 1 1
WIDTH 686
HEIGHT 1
VIEWPOINT 0 0 0 1 0 0 0
POINTS 686
DATA ascii
-8.8445158 15.249166 -11.058742
-8.8998013 15.037597 -10.828617
-8.5296679 15.231549 -11.101272
-8.5263062 14.921035 -11.115764
-8.5389709 14.638238 -11.061163
-8.5534534 14.357582 -10.998729
-8.5947685 14.119979 -10.820613
-8.3220654 15.103008 -10.667476
-8.2432833 14.654728 -11.019691
-8.2411127 14.345641 -11.029399
-8.2380295 14.035161 -11.043181
-8.2467718 13.744619 -11.004101
-8.260808 13.462058 -10.941344
-8.2896042 13.201963 -10.812605
-7.9704127 13.794946 -10.869103
-7.951427 13.456263 -10.957245
-7.9486122 13.145782 -10.970317
-7.9536924 12.848272 -10.946732
-7.9672513 12.563744 -10.883779
-7.983695 12.282608 -10.807437
-7.7079091 12.949289 -10.656406
-7.6606054 12.563394 -10.884808
-7.658021 12.252833 -10.897286
-7.659699 11.949132 -10.889184
-7.6727509 11.662583 -10.826164
-7.685874 11.375095 -10.762799
-7.4305978 12.074722 -10.500461
-7.3686395 11.667013 -10.812087
-7.366303 11.356384 -10.82384
-7.3647633 11.047147 -10.831586
-7.3773575 10.758649 -10.768239
-7.3899951 10.46916 -10.704677
-7.4404583 10.230632 -10.450868
-7.1505995 11.192245 -10.345061
-7.0755239 10.767102 -10.739079
-7.0734239 10.456368 -10.750101
-7.0709796 10.14532 -10.762929
-7.081039 9.851881 -10.710134
-7.0931883 9.5603848 -10.646372
-7.1319957 9.3026047 -10.4427
-8.4772406 -11.425845 -3.382463
-8.3047285 -11.554404 -4.2878575
-8.1713028 -11.724042 -4.9881129
-8.0685873 -11.927477 -5.5271912
-7.9912114 -12.160538 -5.9332838
-7.9169145 -12.391691 -6.323216
-6.7812271 9.8636036 -10.665915
-6.7793527 9.5527239 -10.676197
-6.7769814 9.2413406 -10.689207
-6.7837672 8.9422398 -10.651975
-6.7954249 8.6487226 -10.588014
-6.8226776 8.3732872 -10.438482
-8.1808996 -10.040195 -2.9861176
-7.9441085 -10.110682 -4.2853589
-7.816155 -10.303113 -4.9874191
-7.7096419 -10.513147 -5.5718393
-7.643466 -10.770339 -5.9349351
-7.5784173 -11.02315 -6.291852
-7.5121641 -11.268246 -6.6553717
-7.4411397 -11.499943 -7.0450711
-7.4380264 -11.833222 -7.0621543
-7.4537344 -12.19702 -6.9759679
-6.5052261 8.9834089 -10.480614
-6.484086 8.6454487 -10.60213
-6.481791 8.3337326 -10.615323
-6.4855862 8.0297747 -10.593505
-6.4967489 7.7342253 -10.529342
-6.5116158 7.4418468 -10.443886
-7.6327677 -8.3596973 -3.9993594
-7.5159926 -8.5897055 -4.6705966
-7.4041886 -8.8145084 -5.3132625
-7.3269029 -9.0714025 -5.7575078
-7.2678833 -9.3444204 -6.0967631
-7.2100024 -9.6133366 -6.4294648
-7.1530652 -9.8780403 -6.7567525
-7.0628729 -10.089818 -7.275188
-7.0631423 -10.426543 -7.2736378
-7.0764651 -10.783184 -7.1970596
-9.9475479 18.900343 12.165281
-9.9766188 18.456747 12.340739
-6.2223272 8.0890265 -10.318416
-6.1875539 7.7344441 -10.528292
-6.1854243 7.4225097 -10.541143
-6.1864452 7.1144133 -10.53498
-6.1971316 6.8168459 -10.470484
-6.2083139 6.5187306 -10.402992
-7.392364 -6.2835088 -3.2566202
-7.1974258 -6.4776812 -4.4331775
-7.1191502 -6.7631922 -4.9056106
-7.0425868 -7.0425858 -5.367713
-6.9725618 -7.3211889 -5.79035
-6.9271555 -7.6198707 -6.0643997
-6.8783326 -7.9100828 -6.3590708
-6.8217559 -8.1861076 -6.7005444
-6.7640491 -8.45506 -7.0488362
-6.6839218 -8.6890984 -7.5324435
-6.6934204 -9.0361176 -7.4751134
-6.7032523 -9.384552 -7.4157763
-9.4546556 18.411703 12.193776
-9.4392977 17.884985 12.096199
-9.4333906 17.3773 12.058673
-9.4420671 16.89633 12.113794
-5.9357634 7.1853986 -10.162429
-5.8898444 6.8198214 -10.454161
-5.887876 6.5076537 -10.466667
-5.8863845 6.1961956 -10.476141
-5.8965478 5.8965483 -10.411573
-5.9073505 5.5964384 -10.342941
-7.0196524 -3.6945541 -3.2762699
-6.8715549 -3.9782677 -4.2171674
-6.8038058 -4.2971392 -4.6475873
-6.7427816 -4.613482 -5.0352831
-6.682816 -4.92418 -5.4162579
-6.622571 -5.2283435 -5.7990108
-6.5781078 -5.5394592 -6.081491
-6.5426164 -5.8539186 -6.306973
-6.5075068 -6.1650052 -6.5300331
-6.4727721 -6.4727721 -6.7507086
-6.3174138 -6.6499076 -7.73773
-6.3112426 -6.975584 -7.7769337
-6.3190594 -7.3168054 -7.727272
-6.3323064 -7.665422 -7.6431146
-6.3525462 -8.0242672 -7.5145273
-8.1824389 -10.766366 4.1111393
-8.2603502 -11.303636 4.6061215
-8.3255281 -11.831012 5.020206
-8.3955736 -12.372423 5.4652195
-8.9492054 16.904058 12.141221
-8.9287434 16.369364 12.003995
-8.9172926 15.852966 11.927204
-8.9206038 15.363265 11.949413
-5.6307449 6.2563839 -10.112871
-5.5909314 5.9015388 -10.379867
-5.5891571 5.5891585 -10.391764
-5.5874634 5.2770495 -10.403123
-5.5950747 4.9734015 -10.352079
-5.6054211 4.6711841 -10.282696
-5.6383543 4.3853879 -10.061841
-6.6538253 -1.478627 -3.2519372
-6.5149498 -1.8097073 -4.1832604
-6.4230175 -2.1410048 -4.7997718
-6.3607316 -2.4736166 -5.2174683
-6.3124599 -2.8055372 -5.5411844
-6.2696471 -3.1348243 -5.8282928
-6.2268004 -3.4593308 -6.1156344
-6.193934 -3.7851825 -6.3360395
-6.1616278 -4.1077509 -6.5526886
-6.1303453 -4.4274721 -6.762476
-6.0994716 -4.7440314 -6.9695182
-5.934556 -4.9454632 -8.0754681
-5.9411826 -5.2810521 -8.031024
-5.948472 -5.6180015 -7.982141
-5.9649897 -5.9649882 -7.8713737
-6.0033207 -6.3368368 -7.6143227
-7.6960921 -8.5512133 3.7376578
-7.7558427 -9.0484829 4.1383519
-7.8184938 -9.5559368 4.5585027
-7.8688641 -10.05466 4.8962941
-7.92064 -10.560852 5.2435055
-7.9794412 -11.082558 5.6378403
-8.0332165 -11.603533 5.9984589
-8.0822372 -12.123356 6.3272028
-8.455368 15.418612 12.164945
-8.4198036 14.858477 11.912407
-8.405859 14.339406 11.813397
-8.4064722 13.845958 11.817755
-8.4264841 13.383241 11.959851
-5.3234653 5.3234653 -10.073537
-5.2908473 4.9796209 -10.305144
-5.2892213 4.6669617 -10.316689
-5.2876334 4.3545227 -10.327964
-5.2927175 4.0473738 -10.291865
-5.3025203 3.7429564 -10.22226
-5.3274999 3.4472075 -10.044889
-6.2787929 -0.36933979 -3.2901115
-6.1350832 -0.72177309 -4.3105388
-6.0393419 -1.0657656 -4.9903598
-5.9627414 -1.4029967 -5.534276
-5.9046149 -1.7366514 -5.9470091
-5.8513579 -2.0651844 -6.3251657
-5.810328 -2.3924873 -6.6165047
-5.769958 -2.7152734 -6.9031563
-5.563436 -2.945348 -8.3695908
-5.5690436 -3.2759085 -8.3297739
-5.5746417 -3.6071212 -8.2900229
-5.5892291 -3.9453375 -8.1864452
-5.6129684 -4.2922692 -8.0178804
-5.6427732 -4.6469898 -7.8062491
-5.6930199 -5.0232525 -7.4494619
-7.3213449 -6.890677 4.1126661
-7.3651004 -7.3651013 4.4233594
-7.410409 -7.8463149 4.7450771
-7.4497862 -8.326232 5.024682
-7.4898095 -8.8115387 5.308867
-7.5382261 -9.3119259 5.6526561
-7.5825462 -9.8127069 5.967361
-7.6243229 -10.31526 6.2639995
-7.6677399 -10.825044 6.5722871
-7.713244 -11.343003 6.8953934
-7.7522602 -11.856397 7.1724339
-7.7897682 -12.371984 7.4387655
-7.9124184 13.352208 11.821104
-7.8992901 12.836351 11.722059
-7.894732 12.33552 11.687673
-7.9011059 11.851661 11.73576
-5.0155454 4.3886032 -10.034118
-4.9972434 4.0602612 -10.172191
-4.988081 3.7410624 -10.241316
-4.9866514 3.4283242 -10.252102
-4.9930477 3.1206553 -10.20385
-5.0082369 2.8171341 -10.089252
-5.8931661 0.3683227 -3.4129736
-5.7355599 2.1201688e-06 -4.6020226
-5.6476393 -0.35297722 -5.2653341
-5.5687037 -0.69608754 -5.860857
-5.5068808 -1.0325402 -6.3272753
-5.2013683 -1.3003401 -8.6321888
-5.2059031 -1.626844 -8.5979776
-5.2162318 -1.9560847 -8.5200548
-5.2354941 -2.2905269 -8.3747292
-5.2565465 -2.6282718 -8.2159033
-5.2815862 -2.9708924 -8.0269918
-5.3111653 -3.3194771 -7.803834
-6.9421377 -4.7727199 4.5009031
-6.9691911 -5.2268934 4.7050052
-6.9979849 -5.6858616 4.9222355
-7.0254059 -6.1472292 5.1291113
-7.0550551 -6.6141133 5.3527985
-7.0868797 -7.0868788 5.5928988
-7.1252203 -7.5705457 5.882153
-7.1572461 -8.0519009 6.1237736
-7.1894155 -8.5374289 6.3664656
-7.2249475 -9.0311813 6.6345353
-7.2653246 -9.535737 6.9391594
-7.2995329 -10.036857 7.1972404
-7.3315463 -10.539097 7.4387641
-7.3679233 -11.051884 7.7132082
-7.4036126 -11.568143 7.982461
-7.4101539 11.856247 11.758829
-7.3943105 11.337946 11.631335
-7.3854647 10.832019 11.56015
-7.3878188 10.342947 11.579094
-4.7070322 3.4518254 -9.9942131
-4.6883245 3.1255503 -10.144763
-4.6903381 2.8142037 -10.128556
-4.702425 2.5079615 -10.031289
-5.8738141 1.1747638 -0.60467565
-5.456255 0.72750193 -3.9649291
-5.3069124 0.35379484 -5.1667514
-5.2111049 1.7127609e-06 -5.9377508
-4.8581901 -0.32387871 -8.7777863
-4.8644686 -0.6485936 -8.7272606
-4.884901 -0.97697943 -8.5628328
-4.9090233 -1.3090709 -8.3687115
-4.9321332 -1.6440437 -8.1827383
-4.9571905 -1.9828749 -7.9810948
-4.9899182 -2.3286276 -7.7177205
-6.6067715 -3.5236106 5.2937112
-6.6292477 -3.9775472 5.474586
-6.6534529 -4.4356346 5.6693687
-6.6778684 -4.8971014 5.8658509
-6.703382 -5.3627043 6.0711703
-6.7272754 -5.8303046 6.2634487
-6.7491322 -6.2991881 6.4393396
-6.7740827 -6.7740808 6.6401258
-6.8014588 -7.2548876 6.8604298
-6.8330479 -7.7441206 7.1146417
-6.8597631 -8.2317142 7.3296323
-6.8864374 -8.7228193 7.5442872
-6.9198017 -9.2264004 7.8127794
-6.9510021 -9.7314024 8.0638657
-6.9881001 -10.249211 8.3624029
-6.9157166 10.373577 11.755149
-6.8908663 9.8440962 11.540886
-6.8794484 9.3363953 11.442438
-6.8802924 8.8460913 11.449719
-6.897728 8.3758116 11.600046
-4.4115882 2.8360229 -9.8359241
-4.3962998 2.5121734 -9.9677429
-4.4050951 2.202549 -9.8919096
-5.1032753 1.0935596 -3.8720708
-4.9331832 0.70474231 -5.3386335
-4.5263214 0.32331032 -8.8466711
-4.5288153 2.2557413e-07 -8.8251696
-4.556613 -0.32547143 -8.5854931
-4.5824537 -0.65463519 -8.3626938
-4.6083822 -0.98750919 -8.1391287
-4.6329341 -1.3236948 -7.9274364
-6.24581 -2.2306459 5.9790869
-6.2653275 -2.6851394 6.1473665
-6.2911873 -3.1455922 6.3703394
-6.3126054 -3.6072011 6.555007
-6.3320227 -4.0705857 6.7224274
-6.3508725 -4.5363364 6.8849573
-6.3698354 -5.0048695 7.0484548
-6.3898053 -5.4769745 7.2206411
-6.413168 -5.9550834 7.4220805
-6.4339151 -6.4339128 7.6009631
-6.4551005 -6.9161768 7.783628
-6.4795566 -7.4052052 7.9944949
-6.5026212 -7.896039 8.1933641
-6.5490031 -8.420146 8.5932789
-6.3890572 8.3549223 11.451702
-6.3783441 7.8502698 11.352229
-6.3752546 7.3560653 11.323541
-6.379446 6.8701749 11.362461
-4.1030512 2.209336 -9.7748585
-4.1165342 1.8999395 -9.6496668
-4.8339438 1.4873685 -2.9882054
-4.6140776 1.0647888 -5.0297627
-4.1922717 0.64496636 -8.9464111
-4.2099671 0.32384461 -8.7820978
-4.2399616 2.1224703e-06 -8.5035887
-4.2678556 -0.32829481 -8.2445803
-4.2950554 -0.66077662 -7.9920163
-5.8578362 -1.3518063 6.5190868
-5.8854775 -1.8109161 6.7757487
-5.9142666 -2.2747178 7.0430665
-5.9364052 -2.7398767 7.2486334
-5.9580598 -3.2081833 7.4497023
-5.977406 -3.6784027 7.6293454
-5.993269 -4.1491852 7.7766352
-6.0099101 -4.6230078 7.9311571
-6.0273728 -5.1000848 8.0933123
-6.0449386 -5.5799422 8.2564135
-6.0669107 -6.0669103 8.4604378
-5.8908529 6.8726611 11.383922
-5.8788276 6.368731 11.262956
-5.8723602 5.8723626 11.1979
-5.8739271 5.3844347 11.213656
-3.8196936 2.2281556 -9.4503307
-3.8098767 1.9049393 -9.5490828
-3.8363729 1.5984912 -9.2825527
-4.3357277 1.4452428 -4.2594299
-3.8654301 0.96635723 -8.9902573
-3.8792629 0.64654458 -8.8511105
-3.9125648 0.32604858 -8.5161209
-3.9433365 1.2349315e-06 -8.2065811
-5.432302 -0.45269093 6.7712531
-5.4702578 -0.91170818 7.15306
-5.5063949 -1.3765975 7.5165715
-5.5325956 -1.844197 7.7801299
-5.5554528 -2.3147697 8.0100584
-5.5745282 -2.7872617 8.2019386
-5.5955114 -3.2640467 8.4130154
-5.6132526 -3.7421665 8.5914783
-5.6284976 -4.2213707 8.744833
-5.3983836 5.3983865 11.366754
-5.3809638 4.8917856 11.175588
-5.3718643 4.3951635 11.075731
-5.3730264 3.9076557 11.088481
-5.3873072 3.4282875 11.245201
-3.5100501 1.9145747 -9.3552542
-3.5236583 1.6016639 -9.2059193
-3.9076676 1.4209718 -4.9919171
-3.5427666 0.96621025 -8.9962311
-3.5786355 0.65066069 -8.6026182
-3.6112759 0.32829869 -8.2444315
-5.0201712 2.2246284e-06 7.2163587
-5.0645204 -0.46040982 7.7030363
-5.0981798 -0.92694145 8.072402
-5.1279159 -1.3985206 8.398716
-5.1513367 -1.873211 8.6557255
-5.1735902 -2.3516304 8.8999338
-4.9061999 3.9249628 11.349592
-4.8829718 3.4180808 11.069198
-3.2182374 1.9309435 -9.0259209
-3.216228 1.6081142 -9.0501766
-3.2141154 1.2856481 -9.0756779
-3.2365203 0.97095627 -8.8052244
-3.270422 0.65408486 -8.3959951
-4.574482 0.45744804 7.3454018
-4.6289849 7.8124629e-07 8.0033045
-4.6720281 -0.46720123 8.5228882
-4.7042685 -0.94085157 8.9120626
-2.9174781 1.944986 -8.7433949
-2.9136605 1.6187011 -8.7945986
-2.8922501 1.2854457 -9.0817661
-2.9251113 0.97503895 -8.6410217
-2.9603739 0.65786225 -8.168067
-4.1713476 0.46348435 8.0738745
-4.2255363 1.1937723e-06 8.8006678
-2.6100674 1.9575516 -8.4906092
-2.5741384 1.6088377 -9.032732
-2.5769346 1.2884685 -8.9905424
-2.6095743 0.97858995 -8.4980469
-3.6869881 0.92174876 7.758873
-3.758256 0.46978384 8.8342218
-2.6266119 2.6266122 -2.5791767
-2.2982047 1.9698905 -8.242363
-2.2456684 1.6040496 -9.1483154
-2.2635014 1.2934306 -8.8407984
-2.2914822 0.9820646 -8.358285
-3.2600787 0.93145347 8.3445606
-2.1962802 2.5623276 -3.6877365
-1.9824448 1.9824463 -7.9897733
-1.9234226 1.6028546 -9.1772108
-1.9438766 1.2959188 -8.765708
-1.9698749 0.98493892 -8.2426596
-2.8252776 0.94176126 8.9667082
-1.798548 2.517967 -4.4526916
-1.6606655 1.9927999 -7.7814698
-1.6031322 1.6031333 -9.1704483
-1.6230793 1.2984656 -8.6888838
-2.2962093 1.3777256 7.5619154
-2.3763897 0.95055735 9.4976416
-1.331681 2.3304424 -7.6864533
-1.3301125 1.9951698 -7.7337904
-1.2827253 1.6034076 -9.1638222
-1.3004525 1.3004526 -8.6288567
-1.8446814 1.3835126 7.7947001
-1.0010196 2.3357136 -7.595562
-0.99944079 1.9988818 -7.6590929
-0.96336979 1.605617 -9.1104746
-0.97644591 1.301928 -8.5843325
-1.3896302 1.389632 8.0409184
-0.66896331 2.341373 -7.4979744
-0.66760188 2.0028079 -7.5801463
-0.64251828 1.6062957 -9.0940742
-0.65113235 1.3022667 -8.5741682
-0.9269954 1.3904934 8.0756407
-0.33470029 2.3429043 -7.4715848
-0.33401611 2.0040982 -7.5541677
-0.32126498 1.6063254 -9.0933676
-0.32560107 1.302404 -8.5699539
-0.4635343 1.3906041 8.0800562
4.3251752e-24 2.3433666 -7.4635997
1.1243403e-23 2.0041277 -7.5535545
5.8415197e-24 1.6059034 -9.103548
-1.0567273e-24 1.3026026 -8.5639963
-3.7174628e-24 1.3898798 8.0509205
0.33483133 2.343822 -7.4557652
0.334025 2.0041509 -7.5530963
0.32109633 1.6054831 -9.1137276
0.32571307 1.3028544 -8.5564394
0.46292767 1.3887839 8.0068302
0.66979504 2.3442833 -7.447772
0.66806018 2.0041823 -7.5524864
0.64204288 1.6051093 -9.1227684
0.65156829 1.3031387 -8.5478582
0.92512596 1.3876909 7.9628081
1.0051283 2.3453009 -7.430243
1.0021055 2.0042119 -7.5518732
0.96282917 1.6047175 -9.1322279
0.97686821 1.3024918 -8.567337
1.3851355 1.385137 7.8600707
1.3408086 2.3464155 -7.4110026
1.3361608 2.0042434 -7.5512629
1.2829541 1.6036942 -9.1569185
1.3018268 1.3018281 -8.5873823
1.8407394 1.3805554 7.6757417
1.6768085 2.3475318 -7.3917437
1.6702263 2.0042729 -7.5506501
1.6025372 1.6025375 -9.1848125
1.626376 1.3011018 -8.6092911
2.2931962 1.3759186 7.489172
2.0131438 2.3486695 -7.3721604
2.004302 2.0043044 -7.5500398
1.9215133 1.6012621 -9.2156219
1.950506 1.3003389 -8.6323328
2.735667 1.3678344 7.1638875
2.3498313 2.3498313 -7.3520913
2.3383791 2.0043275 -7.5495815
2.2402503 1.6001797 -9.2417469
2.2741885 1.2995366 -8.6565046
3.1724787 1.3596355 6.8339548
2.6880314 2.3520286 -7.3142204
2.6724839 2.0043654 -7.5488162
2.5586963 1.5991867 -9.2657347
2.5973673 1.2986857 -8.6822386
3.6054125 1.3520308 6.5279937
3.0290852 2.3559568 -7.246489
3.0065784 2.0043864 -7.5483551
2.8774154 1.5985644 -9.2807312
2.9201112 1.2978288 -8.7080812
4.0259309 1.3419783 6.1234984
3.3406935 2.0044179 -7.5477452
3.1962929 1.5981475 -9.2908163
3.2424419 1.296978 -8.7337437
4.4316845 1.3295075 5.6216831
3.6748185 2.0044475 -7.5471315
3.5150802 1.5977643 -9.3000526
3.564508 1.296186 -8.7576475
4.818676 1.3141863 5.0052114
4.0090909 2.0045466 -7.5451436
3.8338401 1.5974334 -9.3080282
3.8862236 1.2954096 -8.7810926
5.1923051 1.2980775 4.3570733
4.3434453 2.0046685 -7.5426974
4.1526489 1.5971754 -9.3143244
4.2075539 1.2946328 -8.8045073
5.5746336 1.2864568 3.8894272
4.6778402 2.0047905 -7.5402508
4.472116 1.5971854 -9.3140421
4.5291977 1.2940581 -8.8218727
4.6019497 0.98613369 -8.1945915
5.0122948 2.0049186 -7.5376492
4.7929606 1.5976549 -9.3027134
4.8505559 1.2934836 -8.839221
4.9311576 0.98623276 -8.1905918
7.0840611 0.94454265 9.1346416
5.3467727 2.0050404 -7.5351987
5.1154237 1.5985702 -9.2805901
5.1714773 1.2928705 -8.8576984
5.2583508 0.98594272 -8.2022896
7.5329046 0.94161499 8.9578972
5.6803637 2.0048347 -7.539331
5.438612 1.5995919 -9.2559185
5.4940696 1.2927226 -8.8621368
5.5874357 0.9860183 -8.1991787
7.9699283 0.93763971 8.7180128
6.0048437 2.001615 -7.6041064
5.7633667 1.600937 -9.2234907
5.8165669 1.2925706 -8.8667154
5.9167261 0.98612124 -8.195035
8.3875837 0.93195391 8.3748999
9.1004553 4.3107452 9.9434719
9.0725794 3.8200345 9.7663727
9.0560827 3.3364532 9.6615658
6.318511 1.9953202 -7.7307582
6.0886884 1.6022861 -9.1908646
6.1392145 1.2924681 -8.8698654
6.2486982 0.986637 -8.1742907
8.7835293 0.92458451 7.9299827
9.620286 7.2152157 10.190081
9.5959692 6.7171817 10.043315
9.5802088 6.2271371 9.9481907
9.5642395 5.7385445 9.8518095
9.556716 5.2561965 9.8063993
9.5513268 4.7756629 9.7738733
9.5460987 4.2957444 9.7423229
9.558012 3.8232081 9.8142242
6.6916914 2.0075071 -7.4855499
6.4163594 1.6040913 -9.1473265
6.4652004 1.2930413 -8.8525438
6.5821977 0.98732984 -8.1464033
10.140954 10.140956 10.418015
10.122861 9.6408215 10.314012
10.105825 9.1433659 10.216092
10.09138 8.6497536 10.133056
10.083623 8.1629343 10.088466
10.077853 7.6783652 10.055305
10.076152 7.1972513 10.045525
10.089398 6.726265 10.121665
7.0073767 2.0021086 -7.5941887
6.7468357 1.6063917 -9.0918121
6.791502 1.2936209 -8.8350639
6.919064 0.98843855 -8.1018209
10.673364 13.099131 10.689652
10.654349 12.591505 10.585322
10.636336 12.086745 10.486489
10.623798 11.589602 10.417695
10.61565 11.098179 10.372987
10.609953 10.609955 10.341733
10.612046 10.129683 10.353208
10.626478 9.6604376 10.432401
7.3185191 1.9959611 -7.7178712
7.0855074 1.6103437 -8.9963722
7.1199522 1.294539 -8.8073807
7.2619357 0.99026549 -8.0283375
11.259361 16.644272 11.218913
11.211876 16.086605 10.969695
11.190817 15.569835 10.859177
11.174274 15.060981 10.77235
11.161407 14.558357 10.704819
11.152926 14.062387 10.660315
11.147894 13.571351 10.6339
11.153664 13.093431 10.664181
11.169345 12.626217 10.746481
7.6017671 1.9830716 -7.9772029
7.5803761 1.6479088 -8.089469
7.4572873 1.2969221 -8.7354746
7.607305 0.99225688 -7.9481363
11.732401 18.5763 11.135932
11.717961 18.065193 11.063316
11.704402 17.556604 10.995112
11.696241 17.057022 10.954068
11.691195 16.562529 10.928691
11.701097 16.089012 10.978492
7.8953919 1.9738491 -8.1627264
7.8862906 1.6429776 -8.2085066
7.7959523 1.2993255 -8.6628695
7.9717355 0.99646938 -7.7787504
8.1784239 1.9628228 -8.3845587
8.204998 1.6410002 -8.2562447
8.1474066 1.3035876 -8.5343256
8.347332 1.0016803 -7.568994
8.4927855 2.2865202 -8.4438696
8.4860191 1.9583137 -8.4752855
8.5083103 1.3089726 -8.3717947
8.7411375 1.0085951 -7.2908421
8.7852535 2.6030388 -8.5966711
8.7816525 2.2767265 -8.6127701
8.8206091 1.9601367 -8.4386053
8.8882589 1.3167802 -8.136158
9.1907911 1.0211983 -6.7836075
9.1191902 3.9082253 -8.5597811
9.0867996 3.5698154 -8.6994228
9.0745945 3.2409272 -8.7520361
9.0701561 2.9154084 -8.7711716
9.0783033 2.5938025 -8.7360506
9.1184826 2.2796218 -8.5628347
9.2911434 1.3273066 -7.8184762
9.8487539 1.0552245 -5.4145646
9.4004173 5.5105901 -8.7448368
9.3889799 5.1801267 -8.7924452
9.3776045 4.8504848 -8.8397932
9.3538399 4.5156488 -8.9387121
9.3574724 4.1947303 -8.9235916
9.3626862 3.8742156 -8.9018898
9.3679056 3.5533442 -8.8801651
9.3731651 3.2321272 -8.8582716
9.4044666 2.9186285 -8.7279797
9.7428875 1.3438474 -7.3193226
9.7015038 7.1144371 -8.8376446
9.6856441 6.7799511 -8.9014606
9.6555595 6.4370408 -9.0225115
9.6372108 6.1035676 -9.0963373
9.6410093 5.7846069 -9.0810585
9.6463594 5.4662709 -9.0595303
9.6517143 5.1475821 -9.037981
9.6581011 4.829051 -9.0122871
9.6790438 4.5168886 -8.9280148
9.7004356 4.2035232 -8.8419447
10.324514 1.3766034 -6.3308487
9.9904442 8.7013559 -8.9717636
9.9594688 8.3531046 -9.0923767
9.9283247 8.0067148 -9.2136526
9.9182978 7.6786842 -9.2526932
9.9222631 7.36168 -9.2372541
9.9277468 7.0454998 -9.2159014
9.9332371 6.7289686 -9.1945238
9.9408302 6.4134402 -9.1649523
9.9616127 6.1055059 -9.0840302
9.9838324 5.7970643 -8.997509
10.262287 10.262289 -9.161993
10.230625 9.9109182 -9.2814312
10.205583 9.5677347 -9.3758955
10.19768 9.2416477 -9.4057045
10.201261 8.9261026 -9.3921986
10.206876 8.6120529 -9.3710175
10.212498 8.2976561 -9.3498106
10.221349 7.9854298 -9.3164215
10.241703 7.6812792 -9.2396421
10.264941 7.3779283 -9.1519823
10.531524 11.808072 -9.3502302
10.498883 11.45333 -9.4696226
10.482338 11.117631 -9.5301485
10.47482 10.792239 -9.5576468
10.47837 10.478371 -9.5446625
10.483774 10.166084 -9.5248919
10.489563 9.8538332 -9.5037174
10.499681 9.5451651 -9.4667091
10.519517 9.2444248 -9.3941479
10.543328 8.9458551 -9.3070507
10.798115 13.338849 -9.5367842
10.765817 12.982309 -9.6514521
10.756922 12.655204 -9.683032
10.749817 12.330673 -9.7082567
10.753407 12.018516 -9.6955109
10.758468 11.707745 -9.6775427
10.764501 11.397709 -9.6561232
10.77585 11.092787 -9.6158304
10.795156 10.795156 -9.547287
10.819454 10.501237 -9.4610205
11.061938 14.854605 -9.7222252
11.038409 14.507625 -9.8033733
11.029286 14.180512 -9.834836
11.022622 13.857012 -9.8578215
11.026328 13.546633 -9.8450403
11.030983 13.237181 -9.8289824
11.037263 12.929366 -9.8073254
11.049883 12.62844 -9.7637968
11.068571 12.333551 -9.6993494
11.093705 12.044596 -9.6126633
11.299494 15.693742 -9.9854393
11.293337 15.371486 -10.006086
11.297079 15.062772 -9.9935389
11.301347 14.754536 -9.979228
11.307876 14.448953 -9.9573355
11.321806 14.152259 -9.9106255
11.339865 13.859838 -9.8500729
11.367713 13.578104 -9.7566938
11.59164 15.664381 -10.056327
11.609108 15.374227 -9.9993401
11.639999 15.10054 -9.8985577
