# .PCD v0.7 - Point Cloud Data file format
VERSION 0.7
FIELDS x y z
SIZE 4 4 4
TYPE F F F
COUNT 1 1 1
WIDTH 1505
HEIGHT 1
VIEWPOINT 0 0 0 1 0 0 0
POINTS 1505
DATA ascii
-10.18073 -12.393934 1.2595367
-10.243829 -12.916135 1.5907062
-10.326303 -13.469093 2.0235519
-10.950472 -19.520409 5.2993693
-10.890648 -19.887272 4.985395
-9.6366787 14.893046 0.70311278
-9.6877193 14.531577 0.98316306
-9.1857519 12.526022 -1.7710583
-9.1481371 12.058908 -1.9774414
-9.1166182 11.602969 -2.1503799
-9.0919752 11.158332 -2.285593
-9.0737066 10.723469 -2.3858273
-9.0549288 10.28969 -2.4888618
-9.0403337 9.8621826 -2.5689404
-9.0271769 9.4375029 -2.6411295
-9.0135965 9.0135956 -2.7156489
-8.9995947 8.5905218 -2.7924702
-8.9851398 8.1683073 -2.8717811
-8.971838 7.7484031 -2.9447691
-8.9593363 7.3303652 -3.0133653
-8.9460726 6.9128728 -3.0861428
-8.9351559 6.4982944 -3.1460385
-8.9245691 6.0849323 -3.2041285
-8.9143829 5.6727867 -3.2600121
-8.9043341 5.2616491 -3.3151524
-8.8958826 4.8522987 -3.3615227
-8.887372 4.4436851 -3.4082167
-8.8777199 4.035326 -3.4611754
-8.1174469 3.3207729 -7.6326842
-8.0164242 2.9150631 -8.1869774
-8.8489628 2.8155792 -3.6189656
-8.8368006 2.4100366 -3.6856966
-8.8276281 2.0062788 -3.7360289
-8.8175879 1.6031964 -3.79111
-8.8057699 1.2007862 -3.8559582
-8.7928839 0.7993511 -3.9266653
-8.7837276 0.39925978 -3.9769013
-8.7673683 -1.2853651e-06 -4.0666633
-8.7537222 -0.39789829 -4.1415386
-8.7375822 -0.79432786 -4.230092
-8.7257242 -1.1898718 -4.2951574
-8.7213583 -1.5857022 -4.3191137
-8.7300596 -1.9841062 -4.2713733
-8.7527771 -2.387121 -4.1467233
-8.7860699 -2.7955689 -3.9640515
-9.4678659 -9.8982258 -0.22313645
-9.4983978 -10.361892 -0.055612631
-9.5511799 -10.853617 0.23399714
-9.6150618 -11.363256 0.58450782
-9.6993484 -11.903749 1.046971
-10.37813 -19.812794 4.7713437
-9.4791536 15.798589 2.3154976
-9.3026648 15.061456 1.3010194
-9.3561916 14.702587 1.6086961
-8.8567896 12.652557 -1.2619245
-8.8190765 12.178722 -1.4787135
-8.7900791 11.720104 -1.6453927
-8.7706242 11.276513 -1.7572215
-8.7517118 10.83545 -1.8659319
-8.734396 10.39809 -1.9654624
-8.7202835 9.9660358 -2.046587
-8.7064047 9.5355854 -2.126364
-8.6928692 9.1068144 -2.2041645
-8.6812115 8.6812096 -2.2711787
-8.6670828 8.254364 -2.3523905
-8.6544142 7.8301821 -2.4252095
-8.640336 7.4059997 -2.5061326
-8.6297436 6.985981 -2.5670273
-8.6175518 6.565753 -2.6371028
-8.609333 6.1495218 -2.6843429
-8.5980444 5.732029 -2.749234
-8.5878839 5.316308 -2.8076365
-8.5793924 4.9025073 -2.8564436
-8.5712099 4.4896808 -2.9034793
-8.5627518 4.0774984 -2.9520977
-7.6982765 3.2992582 -7.9212117
-7.6124282 2.8999703 -8.4146805
-8.5334234 2.8444729 -3.1206806
-8.5223684 2.4349604 -3.1842253
-8.5125666 2.0267994 -3.2405701
-8.5049057 1.6199797 -3.2846036
-8.4918108 1.2131138 -3.359875
-8.4790421 0.80752635 -3.4332738
-8.472333 0.40344197 -3.4718375
-8.4044895 -1.6008582 -3.8618071
-8.3797903 -1.9951894 -4.0037842
-8.3718452 -2.3919559 -4.0494576
-8.3743515 -2.7914531 -4.0350418
-8.3866329 -3.1949096 -3.9644532
-8.4066658 -3.602859 -3.8492999
-8.4332905 -4.0158548 -3.6962554
-8.4864054 -4.445262 -3.3909464
-8.8611174 -8.4391623 -1.2370501
-8.8971481 -8.8971481 -1.0299451
-8.9465752 -9.3726034 -0.74583685
-9.0098009 -9.8678799 -0.38240337
-9.0935192 -10.392595 0.098822922
-9.8678885 -19.735777 4.5499935
-9.866292 -20.202412 4.5408225
-9.0773048 15.885283 2.614491
-8.960844 15.233435 1.9115897
-8.559845 13.267759 -0.50865376
-8.5195627 12.779343 -0.75177544
-8.4827347 12.299965 -0.97405392
-8.4586325 11.842086 -1.1195245
-8.440609 11.394819 -1.2283086
-8.422699 10.949506 -1.3364036
-8.407444 10.509303 -1.4284747
-8.3937511 10.0725 -1.5111185
-8.3820076 9.6393061 -1.5819923
-8.3677769 9.2045536 -1.6678874
-8.3554144 8.7731838 -1.742501
-8.3429432 8.3429403 -1.8177704
-8.330328 7.9138117 -1.8939126
-8.3150091 7.4835067 -1.9863665
-8.3066874 7.0606828 -2.0365944
-8.296155 6.6369233 -2.100163
-8.2878704 6.2159019 -2.1501613
-8.2762432 5.7933702 -2.2203412
-8.2660017 5.372901 -2.2821522
-8.2568178 4.9540896 -2.3375835
-8.2485762 4.5367165 -2.3873274
-8.2409182 4.1204586 -2.4335499
-7.2804079 3.2761822 -8.2307377
-7.2126198 2.8850451 -8.6398773
-8.2122192 2.8742752 -2.6067607
-8.2034349 2.46103 -2.6597817
-8.1917276 2.0479298 -2.7304394
-8.1823235 1.6364633 -2.7871985
-8.172452 1.2258655 -2.8467746
-8.1647959 0.81647921 -2.8929889
-8.0345659 -2.8120987 -3.6789901
-8.0142469 -3.2057002 -3.80163
-8.0106974 -3.604816 -3.82305
-8.0165253 -4.0082636 -3.7878745
-8.0293503 -4.4161425 -3.7104695
-8.0454235 -4.8272567 -3.6134617
-8.0725241 -5.2471418 -3.4498966
-8.10676 -5.6747346 -3.2432613
-8.1679611 -6.1259718 -2.8738837
-8.2574577 -6.605967 -2.3337226
-8.2776365 -7.0359926 -2.2119303
-8.3180037 -7.4862061 -1.9682953
-8.3677044 -7.9493208 -1.6683249
-8.4293642 -8.4293661 -1.2961739
-8.5269899 -8.9533396 -0.70695251
-9.3704748 -19.677999 4.3839326
-9.3280296 -20.055265 4.1277518
-8.6690817 15.969359 2.904469
-8.6088066 15.405232 2.5215311
-8.2122974 13.39901 0.002427981
-8.1731977 12.905046 -0.24598223
-8.1423588 12.427808 -0.44190535
-8.1203232 11.96679 -0.58190179
-8.103488 11.515481 -0.68886483
-8.088625 11.068645 -0.78329152
-8.0738516 10.623488 -0.87714368
-8.0609875 10.182302 -0.9588728
-8.049552 9.7441912 -1.0315279
-8.0361261 9.304986 -1.1168212
-8.0215807 8.8659563 -1.2092358
-8.0119829 8.4336653 -1.2702144
-7.9983659 7.9983649 -1.3567193
-7.9852862 7.5650067 -1.4398197
-7.9777312 7.1379681 -1.4878191
-7.9676452 6.7095942 -1.5518961
-7.9592886 6.283648 -1.6049863
-7.9480004 5.85642 -1.6767009
-7.9380589 5.4313021 -1.7398623
-7.9287634 5.0076385 -1.7989211
-7.9205914 4.5856028 -1.8508362
-7.9125395 4.1644921 -1.9019912
-6.8708062 3.2545922 -8.5203266
-6.8175435 2.8705432 -8.8587141
-7.8844519 2.9047959 -2.0804365
-7.8751454 2.4868865 -2.1395633
-7.8663702 2.0700963 -2.1953166
-7.8572416 1.6541538 -2.25331
-7.8454633 1.2387549 -2.3281381
-7.8372264 0.82496959 -2.3804731
-7.6532044 -4.0280023 -3.5496001
-7.6457505 -4.4264894 -3.5969505
-7.6372547 -4.8235316 -3.6509278
-7.6611238 -5.2418222 -3.4992855
-7.6816087 -5.6601334 -3.3691418
-7.7029204 -6.0812554 -3.2337425
-7.8092012 -6.5761724 -2.5585184
-7.8726263 -7.0439301 -2.1555672
-8.8131742 -19.945604 3.8199098
-8.2669973 16.074717 3.2678275
-8.244482 15.572912 3.1168358
-7.8615999 13.539422 0.54917341
-7.8245244 13.040874 0.30053484
-7.7957482 12.559815 0.10756204
-7.7760391 12.096058 -0.024612881
-7.7598829 11.639822 -0.13295792
-7.7460184 11.188692 -0.22593465
-7.7325845 10.739698 -0.31602618
-7.7206821 10.294244 -0.39584479
-7.7095056 9.8510342 -0.47079724
-7.6974339 9.4079733 -0.5517509
-7.6832781 8.9638224 -0.64668339
-7.6735058 8.5261173 -0.7122165
-7.6590638 8.0845661 -0.80906469
-7.6490479 7.6490459 -0.87623399
-7.6402082 7.2157497 -0.93551421
-7.6303763 6.7825556 -1.0014491
-7.6223207 6.3519306 -1.0554732
-7.6131725 5.9213538 -1.1168185
-7.6032763 5.4912534 -1.1831851
-7.5939403 5.0626264 -1.2457945
-7.5853939 4.6355176 -1.3031067
-7.5775657 4.2097578 -1.355603
-6.4622812 3.2311394 -8.8348694
-6.4265394 2.8562381 -9.0745583
-7.551136 2.9365516 -1.5328437
-7.5428839 2.5142937 -1.5881871
-7.5340242 2.0927825 -1.6475973
-7.5204959 1.6712211 -1.7383254
-7.5128665 1.2521435 -1.7894901
-7.4204941 -4.5347466 -2.408952
-7.1952271 -4.7968187 -3.9196243
-7.2251449 -5.218163 -3.7189906
-7.2549767 -5.6427617 -3.5189328
-7.2860403 -6.0717025 -3.3106127
-8.3110371 -19.854147 3.5631645
-7.8609748 16.184359 3.6459703
-7.8684521 15.736904 3.6990654
-7.5003319 13.677076 1.0851825
-7.4674072 13.177774 0.85139275
-7.4437008 12.698075 0.68306577
-7.4250474 12.229487 0.55061203
-7.4097538 11.768432 0.44201827
-7.3960667 11.311631 0.34483069
-7.3817949 10.85558 0.2434914
-7.37081 10.405848 0.16549411
-7.3602238 9.9579506 0.090322904
-7.3490715 9.510561 0.011134326
-7.3374896 9.0639553 -0.071101323
-7.3255496 8.6182909 -0.15588257
-7.3146329 8.1751785 -0.23339906
-7.3039784 7.733623 -0.30905336
-7.2943988 7.2943978 -0.37707257
-7.285985 6.8573961 -0.43681625
-7.2780128 6.4217753 -0.49342585
-7.2710309 5.9879065 -0.54299837
-7.2614088 5.5528421 -0.61132634
-7.2523599 5.1193128 -0.67557389
-7.2434311 4.6869235 -0.73897642
-7.2357125 4.2563014 -0.79378676
-6.0611343 3.2088354 -9.1340284
-6.0393906 2.8420649 -9.2884226
-7.210197 2.968904 -0.97496027
-7.2020078 2.5418835 -1.0331072
-7.1930118 2.1155906 -1.0969902
-7.1828027 1.6900696 -1.1694767
-7.2652936 -3.8463335 -0.58373886
-7.1726227 -4.2191916 -1.2417598
-7.1460142 -4.6238933 -1.4306973
-6.7589087 -4.7709961 -4.1793895
-6.7864647 -5.1896515 -3.9837244
-6.8136768 -5.6112647 -3.7905059
-6.8422275 -6.0372615 -3.5877748
-7.8153582 -19.768261 3.3220644
-7.4502082 16.297329 4.0355878
-7.4790897 15.893064 4.2534857
-7.1677709 14.33554 1.9047647
-7.1333013 13.82077 1.6447135
-7.103107 13.318322 1.4169143
-7.0818543 12.835861 1.2565753
-7.0665841 12.366519 1.141372
-7.0521255 11.900459 1.0322901
-7.0404396 11.440711 0.94412535
-7.027987 10.981227 0.85017568
-7.0158348 10.52375 0.75849962
-7.003149 10.067024 0.66279364
-6.990828 9.6123877 0.56983811
-6.9822354 9.1641817 0.50501108
-6.9715719 8.7144651 0.42455885
-6.9579091 8.262516 0.32148266
-6.9504046 7.8192034 0.26486999
-6.9435458 7.3775163 0.21311872
-6.9348178 6.9348168 0.14727271
-6.927238 6.4942842 0.090087265
-6.9200497 6.0550413 0.035854708
-6.9117236 5.6157727 -0.026962021
-6.9027648 5.1770716 -0.094550952
-6.8941388 4.7397184 -0.15962508
-6.8861537 4.3038459 -0.21987435
-5.6654873 3.186836 -9.4290867
-5.6560855 2.8280413 -9.5000153
-6.8597283 3.0011299 -0.4192335
-6.8510571 2.5691442 -0.48465338
-6.8415222 2.1379728 -0.55658704
-6.8324099 1.7081001 -0.62533563
-6.9605303 -3.480267 0.3412568
-6.9299297 -3.898088 0.11039666
-6.9155254 -4.3222046 0.0017211412
-6.5758877 -4.5209241 -2.5606468
-6.3305273 -4.7478976 -4.4117455
-6.3527894 -5.161643 -4.2437963
-6.3780179 -5.5807667 -4.0534611
-6.4040895 -6.0038362 -3.8567643
-7.3337197 -19.709373 3.1567566
-7.3087678 -20.099113 2.9685071
-7.0372462 16.42024 4.4594951
-7.0743613 16.035219 4.7581763
-6.7897511 14.484803 2.4678109
-6.7582221 13.96699 2.2140846
-6.7310467 13.462093 1.9953936
-6.7133536 12.979148 1.8530084
-6.7008085 12.508172 1.7520525
-6.6874385 12.037387 1.6444631
-6.6747422 11.569552 1.5422873
-6.6631746 11.105289 1.4491966
-6.6528468 10.644554 1.3660858
-6.6412621 10.183269 1.2728631
-6.6297793 9.7236776 1.1804559
-6.6181536 9.2654123 1.0868962
-6.6088758 8.8118334 1.0122389
-6.5965362 8.3556108 0.91293448
-6.5897341 7.9076791 0.85819805
-6.5826449 7.46033 0.8011446
-6.5746384 7.0129471 0.7367149
-6.5676413 6.5676389 0.68041074
-6.560719 6.1233363 0.62470382
-6.5519009 5.6783133 0.55373436
-6.543582 5.2348647 0.48679247
-6.5361457 4.7931724 0.42695281
-6.5285187 4.3523455 0.36557466
-5.2797227 3.1678324 -9.6839628
-5.2759452 2.8138361 -9.7143621
-6.501627 3.0340903 0.14916447
-6.4939928 2.5975957 0.087728471
-6.4833927 2.1611304 0.0024274734
-6.6647186 -3.110203 1.4616246
-6.6458974 -3.5444798 1.3101636
-6.6331744 -3.9799047 1.2077745
-6.2702498 -4.1801682 -1.7128142
-6.1404896 -4.503027 -2.7570436
-5.9127836 -4.7302284 -4.589479
-5.9234767 -5.1336818 -4.5034285
-5.9470935 -5.5506225 -4.3133726
-5.9709744 -5.9709754 -4.1211972
-6.8594875 -19.663866 3.0290079
-6.8153038 -19.99156 2.6734407
-6.6189547 16.547386 4.8980055
-6.654202 16.160204 5.2019124
-6.4057636 14.641744 3.0598319
-6.3778486 14.122375 2.8191397
-6.3528199 13.613185 2.603344
-6.3378191 13.12834 2.4740026
-6.3250947 12.650189 2.3642869
-6.3131933 12.175441 2.2616713
-6.2997684 11.699569 2.1459215
-6.2876668 11.227976 2.0415778
-6.2773733 10.761211 1.9528267
-6.2683134 10.297945 1.8747096
-6.2586083 9.8349543 1.7910314
-6.2460251 9.3690357 1.6825351
-6.2361283 8.9087515 1.5971999
-6.2281113 8.4524364 1.5280807
-6.2214417 7.9989963 1.4705735
-6.2129455 7.5442905 1.3973168
-6.2051606 7.0916104 1.3301934
-6.1979961 6.6407075 1.2684211
-6.1908197 6.1908178 1.2065454
-6.1836314 5.7419419 1.1445659
-6.1759763 5.2936945 1.0785632
-6.1681423 4.8463969 1.0110158
-5.0659485 3.6185319 -8.4923134
-4.8987994 3.149226 -9.9335051
-4.8997831 2.799875 -9.925024
-6.1366663 3.0683329 0.73961866
-6.1275601 2.6260943 0.66110599
-6.1223044 2.1865363 0.61579299
-6.3377595 -2.7161844 2.4734867
-6.3251543 -3.1625783 2.3648014
-6.3192277 -3.6109879 2.3136988
-5.95401 -3.8275809 -0.83526987
-5.8286715 -4.1633382 -1.9159646
-5.7085252 -4.485271 -2.9518895
-5.497551 -4.7121897 -4.770947
-5.4982266 -5.1054978 -4.7651224
-5.5205727 -5.5205755 -4.5724506
-5.5422082 -5.9380836 -4.3859062
-6.3298678 -19.893871 2.4054427
-6.1907501 16.667402 5.3119273
-6.2190804 16.265289 5.5749907
-6.0103192 14.794631 3.6365471
-5.9881673 14.279473 3.4308608
-5.9675212 13.771203 3.2391541
-5.952158 13.277891 3.096504
-5.9414029 12.796868 2.9966359
-5.9304323 12.317051 2.8947682
-5.9195867 11.839173 2.7940648
-5.9077725 11.361099 2.6843579
-5.8975115 10.887713 2.5890841
-5.8884554 10.418034 2.5049875
-5.8793149 9.9496107 2.4201224
-5.8691807 9.4809818 2.3260193
-5.8594666 9.0145617 2.2358186
-5.8518724 8.5527334 2.1653035
-5.8442159 8.0919914 2.094207
-5.8355403 7.6310897 2.0136561
-5.8290167 7.1741738 1.9530777
-5.8230247 6.7188725 1.8974404
-5.8157148 6.2630763 1.8295606
-5.808856 5.8088551 1.7658772
-5.8006363 5.3544316 1.6895525
-5.7931933 4.9019303 1.620447
-4.67417 3.595515 -8.770175
-4.5223408 3.1308496 -10.179981
-4.5275321 2.7861719 -10.13177
-5.7646532 3.1040432 1.3554381
-5.7564521 2.656822 1.2792828
-5.984458 -2.3017161 3.3964181
-5.9775972 -2.7588925 3.3327112
-5.9700084 -3.2146215 3.2622485
-5.9654641 -3.671056 3.2200563
-5.5060792 -3.8119035 -1.0455359
-5.390635 -4.1466436 -2.1174879
-5.2799544 -4.4676547 -3.1452074
-5.0866575 -4.6953783 -4.9400482
-5.0781593 -5.0781603 -5.0189638
-5.0984783 -5.4906697 -4.8302913
-5.1185188 -5.9059844 -4.6442037
-5.8529444 -19.809967 2.1752579
-5.757297 16.792114 5.7420459
-5.7707849 16.350555 5.8777227
-5.6407008 15.511927 4.5691848
-5.6114516 14.96387 4.2749567
-5.5887418 14.437583 4.0465117
-5.571661 13.929152 3.8746934
-5.5578513 13.431474 3.7357776
-5.5485487 12.946614 3.6422031
-5.5385571 12.461751 3.5416968
-5.52807 11.977487 3.4362051
-5.5174117 11.494608 3.3289852
-5.5088768 11.017752 3.2431357
-5.5000529 10.541767 3.1543746
-5.4909692 10.066776 3.062995
-5.4814448 9.5925283 2.9671934
-5.4733081 9.122179 2.8853364
-5.4667788 8.6557331 2.8196602
-5.458478 8.1877127 2.73616
-5.4509768 7.7222171 2.6607049
-5.4455581 7.2607427 2.6061964
-5.4396353 6.799541 2.5466175
-5.4330068 6.3385048 2.4799407
-5.4253964 5.8775125 2.4033835
-5.4172463 5.417244 2.3213973
-5.409832 4.9590116 2.2468214
-4.2873616 3.5727999 -9.0443621
-4.1510439 3.1132822 -10.415612
-4.1589227 2.7726138 -10.336354
-5.3816628 3.1393027 1.9634595
-5.6188245 -1.8729429 4.3491259
-5.5986972 -2.3327918 4.1466589
-5.596981 -2.798492 4.1293936
-5.5936337 -3.2629542 4.0957184
-5.172092 -3.4480627 -0.14465845
-5.0618024 -3.7963526 -1.2540871
-4.9561181 -4.1301007 -2.3171861
-4.8549619 -4.4503837 -3.3347418
-4.6762695 -4.6762719 -5.132247
-4.6623392 -5.0508685 -5.2723789
-4.680779 -5.4609113 -5.086885
-4.6994624 -5.8743305 -4.8989487
-5.383678 -19.740154 1.9837301
-5.3753257 -20.157473 1.8997133
-5.3169866 16.917683 6.1751156
-5.3043351 16.395218 6.0362873
-5.2280164 15.684049 5.1987829
-5.2017102 15.132249 4.9101095
-5.1824851 14.605187 4.6991391
-5.1673994 14.092907 4.5335927
-5.1552477 13.591107 4.4002433
-5.1456881 13.098113 4.2953396
-5.1360135 12.606578 4.189178
-5.1268239 12.117948 4.0883336
-5.1180654 11.631964 3.9922137
-5.109261 11.147478 3.8956034
-5.1006608 10.665017 3.8012207
-5.0920644 10.184128 3.7068913
-5.0836687 9.705183 3.6147544
-5.0769863 9.2308826 3.5414257
-5.0709314 8.7588787 3.4749825
-5.064599 8.2875233 3.4054897
-5.0583549 7.8174586 3.336973
-5.0516906 7.3479118 3.2638421
-5.0455751 6.8803263 3.1967323
-5.0392337 6.4135685 3.1271422
-5.0334606 5.9486332 3.063787
-5.0255198 5.4823847 2.9766505
-5.0182014 5.0181994 2.8963416
-3.9054527 3.5504091 -9.3146286
-3.783334 3.095453 -10.654721
-3.7938972 2.7591963 -10.538805
-4.9911942 3.176213 2.5999701
-5.1997094 -1.8908055 4.8881578
-5.1995816 -2.3634472 4.8867502
-5.1975827 -2.8350463 4.86481
-4.8261456 -3.0711858 0.78878242
-4.721406 -3.4337521 -0.36060658
-4.6211357 -3.7809312 -1.4609399
-4.5250359 -4.1136723 -2.5155103
-4.4332614 -4.4332623 -3.522615
-4.2689662 -4.6570559 -5.3255429
-4.250896 -5.0237885 -5.5238376
-4.2675667 -5.4314499 -5.3409019
-4.2848907 -5.8430347 -5.1507888
-4.9211955 -19.684786 1.8318323
-4.8976297 -20.035761 1.5732257
-4.8327222 16.431253 6.1642299
-4.8045282 15.854943 5.8239017
-4.7845531 15.310568 5.5827746
-4.7660217 14.774669 5.3590879
-4.7539439 14.261833 5.2132931
-4.7440157 13.757645 5.0934491
-4.7343392 13.256151 4.9766426
-4.7251215 12.757826 4.865375
-4.7172852 12.264939 4.7707834
-4.709383 11.773457 4.6753917
-4.7010918 11.282618 4.5753045
-4.6926227 10.793034 4.4730787
-4.6837497 10.304248 4.3659725
-4.6756849 9.8189363 4.2686248
-4.6696491 9.3392954 4.195765
-4.6644459 8.8624449 4.132957
-4.6593223 8.3867769 4.0711064
-4.6529899 7.9100833 3.9946654
-4.6462913 7.4340653 3.9138095
-4.6403537 6.9605284 3.8421369
-4.6351929 6.4892678 3.7798402
-4.6302004 6.0192604 3.7195747
-4.6246381 5.5495639 3.652436
-4.6171317 5.078845 3.561821
-3.5254328 3.5254312 -9.616147
-3.422107 3.0798948 -10.863404
-3.4325838 2.7460659 -10.736935
-4.781713 -1.4345152 5.5484924
-4.7821898 -1.9128777 5.5542493
-4.7842426 -2.3921227 5.5790277
-4.4675388 -2.6805243 1.7560754
-4.3688693 -3.0582111 0.56503022
-4.2744451 -3.4195578 -0.57477093
-4.1840343 -3.7656322 -1.6661239
-4.0973692 -4.0973706 -2.712265
-4.0147934 -4.4162745 -3.709048
-3.8679748 -4.6415715 -5.4812994
-3.8439648 -4.9971561 -5.7711272
-3.8590527 -5.4026747 -5.5890031
-3.8746507 -5.811976 -5.4007163
-4.4292264 -19.93152 1.2936065
-4.3968868 16.61046 6.8004632
-4.367373 16.013697 6.4046135
-4.3542795 15.481883 6.2290058
-4.3400416 14.949031 6.0380449
-4.3306522 14.435507 5.9121075
-4.3196158 13.918758 5.7640824
-4.3130941 13.418513 5.6766133
-4.3051739 12.915519 5.5703812
-4.2971325 12.413938 5.4625292
-4.2891641 11.914344 5.3556538
-4.2813311 11.416882 5.2505984
-4.2737598 10.92183 5.1490479
-4.2663836 10.428936 5.0501213
-4.2589912 9.9376431 4.9509716
-4.2554617 9.4565811 4.9036345
-4.2494044 8.9709644 4.8223891
-4.2437611 8.4875212 4.7466965
-4.2384028 8.0058727 4.6748338
-4.2330375 7.5254006 4.6028714
-4.2278514 7.0464196 4.5333147
-4.2217898 6.5672259 4.4520135
-4.2163839 6.090333 4.379509
-4.2124724 5.6166296 4.327045
-4.2049375 5.1393666 4.225987
-3.1511374 3.5012631 -9.9078951
-3.0644927 3.0644908 -11.069999
-3.0748687 2.7332158 -10.930834
-4.3591418 -0.96869844 6.2942176
-4.3500423 -1.4500167 6.1721735
-4.3519955 -1.934222 6.1983662
-4.0034885 -2.6689951 1.5240939
-3.9154403 -3.0453434 0.34316406
-3.8311646 -3.4054801 -0.78717107
-3.7504563 -3.7504575 -1.8696495
-3.6730785 -4.0812006 -2.9074624
-3.59952 -4.399415 -3.8940578
-3.4682465 -4.624331 -5.6547308
-3.4413388 -4.9708252 -6.015626
-3.454844 -5.3742042 -5.8344893
-3.4687486 -5.7812505 -5.6479983
-3.9699237 -19.849621 1.0739073
-3.9117925 15.647167 6.8525033
-3.8994009 15.110175 6.6655273
-3.8962905 14.611089 6.6185961
-3.8885262 14.095907 6.5014391
-3.8806553 13.582293 6.3826795
-3.8741663 13.07531 6.2847643
-3.8671136 12.568118 6.17835
-3.8598537 12.062043 6.0688076
-3.8520403 11.556119 5.950911
-3.8465145 11.058727 5.8675356
-3.8396776 10.559114 5.7643733
-3.8331907 10.062123 5.6664915
-3.8291712 9.5729284 5.605845
-3.8252175 9.0848904 5.5461888
-3.8203771 8.5958471 5.4731536
-3.814733 8.1063061 5.3879895
-3.8090301 7.6180582 5.3019381
-3.8047967 7.1339912 5.2380624
-3.8001776 6.6503086 5.168364
-3.7946305 6.1662712 5.0846639
-3.7896426 5.6844621 5.0094008
-3.7840142 5.2030182 4.9244761
-2.7828679 3.4785824 -10.181657
-2.7103612 3.0491545 -11.275694
-2.7206597 2.7206578 -11.120307
-3.9020395 -0.97551137 6.7053437
-3.9055171 -1.4645711 6.7578173
-3.9076467 -1.9538248 6.7899461
-3.6245894 -2.2653697 2.5189421
-3.5434141 -2.657562 1.2941017
-3.4658105 -3.0325861 0.12315319
-3.3915181 -3.391521 -0.99782717
-3.3203588 -3.7354052 -2.0715451
-3.2521653 -4.065208 -3.1005032
-3.1874051 -4.3826847 -4.0776582
-3.0708003 -4.6062026 -5.8370857
-3.0429339 -4.9447699 -6.2575598
-3.0550318 -5.3463087 -6.0750151
-3.0673981 -5.7513733 -5.8884254
-3.5145893 -19.769567 0.85916901
-3.516104 -20.2176 0.88202244
-3.4471896 14.773668 7.2727671
-3.4399793 14.251343 7.1484356
-3.4343455 13.73738 7.0512805
-3.4301496 13.230577 6.9789252
-3.4257367 12.724162 6.9028282
-3.4197311 12.213322 6.7992611
-3.4139371 11.704927 6.6993523
-3.4071596 11.194952 6.5824747
-3.4011323 10.689273 6.4785414
-3.3977742 10.193321 6.4206305
-3.392792 9.6936903 6.3347154
-3.3890393 9.1988201 6.2700057
-3.3846631 8.7034178 6.1945381
-3.379328 8.2069387 6.1025391
-3.3739417 7.7118659 6.009655
-3.3707216 7.2229738 5.9541254
-3.3666291 6.7332563 5.8835483
-3.3609295 6.2417235 5.785265
-3.356894 5.7546744 5.7156801
-3.3508091 5.265554 5.6107492
-2.4205599 3.4579403 -10.430825
-2.3598895 3.0341423 -11.47705
-2.3696818 2.7082062 -11.308188
-3.4465168 -0.49236101 7.2611666
-3.446393 -0.98468477 7.2590289
-3.4487312 -1.4780293 7.2993488
-3.2313542 -1.8464893 3.5508184
-3.1576807 -2.2554889 2.2803698
-3.0872636 -2.6462278 1.0660686
-3.0199325 -3.0199337 -0.095018268
-2.9554622 -3.3776722 -1.2067683
-2.8936996 -3.7204733 -2.2718234
-2.8346453 -4.0494947 -3.2901793
-2.7784131 -4.3660812 -4.2598686
-2.6762767 -4.5879054 -6.0211492
-2.648778 -4.9191608 -6.495347
-2.6593699 -5.3187428 -6.3126955
-2.6701746 -5.7218041 -6.1263752
-2.6804781 -6.1268077 -5.948698
-4.0719404 -10.470705 18.046209
-4.0867209 -11.092529 18.301086
-4.1104779 -11.744223 18.710764
-4.1266055 -12.379818 18.988878
-4.1370878 -13.002277 19.169634
-3.0665662 -19.71364 0.70915365
-3.0553679 -20.078135 0.51604587
-2.9698381 12.869298 7.5766397
-2.9638696 12.349455 7.456563
-2.9585793 11.834314 7.3501315
-2.9575143 11.337136 7.3287072
-2.9523528 10.825292 7.224864
-2.9485538 10.319938 7.1484361
-2.944418 9.814724 7.0652275
-2.941241 9.3139277 7.0013108
-2.9371254 8.8113737 6.9185143
-2.933306 8.3110332 6.8416667
-2.9290783 7.810874 6.7566142
-2.9257109 7.3142786 6.6888714
-2.9219208 6.8178129 6.6126208
-2.9166164 6.319334 6.5059032
-2.9132631 5.8265252 6.438437
-2.9080338 5.3313942 6.3332372
-2.0616248 3.4360399 -10.6952
-2.0129507 3.0194249 -11.674449
-2.021909 2.6958778 -11.494217
-2.9778337 -0.49630737 7.7374978
-2.9802868 -0.99343139 7.7868576
-2.8223019 -1.4111542 4.6084452
-2.7574096 -1.8382733 3.3029096
-2.694828 -2.2456913 2.0438673
-2.6349881 -2.6349897 0.83997691
-2.5777593 -3.0073872 -0.31138027
-2.5229526 -3.3639381 -1.4140067
-2.4704382 -3.7056592 -2.4705074
-2.4203405 -4.0339041 -3.478394
-2.3725085 -4.3495998 -4.4407043
-2.2847481 -4.5694981 -6.2063084
-2.258719 -4.8938937 -6.7299728
-2.2677493 -5.2914166 -6.5482955
-2.2769423 -5.6923571 -6.3633471
-2.2855015 -6.0946717 -6.1911507
-3.4598544 -9.8029213 17.435003
-3.5481315 -13.009816 19.211004
-3.5410755 -13.574124 19.069052
-2.6228158 -19.671122 0.59509182
-2.6055045 -19.975536 0.24681625
-2.4862521 11.436757 7.8515472
-2.4739199 10.885245 7.5538216
-2.4805646 10.41837 7.7142434
-2.486007 9.9440269 7.8456349
-2.4828777 9.4349365 7.770083
-2.4796407 8.9267063 7.6919355
-2.4760413 8.41854 7.6050367
-2.4721079 7.9107461 7.5100756
-2.4692423 7.4077263 7.4408946
-2.465229 6.9026408 7.344007
-2.4612288 6.3991938 7.2474313
-2.4580102 5.8992224 7.1697297
-2.454536 5.3999772 7.0858555
-1.7064481 3.4128938 -10.974589
-1.669338 3.0048068 -11.870503
-2.5009506 -2.7954304e-06 8.2064018
-2.501786 -0.50035965 8.2265701
-2.5047407 -1.0018981 8.2979021
-2.3412569 -1.4047562 4.3510566
-2.2876635 -1.8301318 3.0571971
-2.2359786 -2.2359803 1.809409
-2.1865373 -2.6238461 0.61579376
-2.139245 -2.9949453 -0.5259462
-2.0939457 -3.3503149 -1.6195643
-2.050534 -3.690963 -2.6676164
-2.0092142 -4.0184288 -3.6651678
-1.9696562 -4.3332467 -4.6201792
-1.8970013 -4.5528049 -6.3742261
-1.8726759 -4.8689585 -6.961493
-1.8799475 -5.263854 -6.7859387
-1.887551 -5.6626544 -6.6023788
-1.8945793 -6.0626564 -6.4326963
-2.9441895 -13.543273 18.907135
-2.1616962 -19.887608 0.016074546
-1.9817748 10.89976 7.6334605
-1.9796672 10.393251 7.5698552
-1.9851196 9.9255981 7.7343969
-1.9908088 9.4563417 7.906086
-1.9966245 8.984808 8.081583
-2.0025995 8.5110493 8.2618999
-2.0032902 8.0131607 8.2827377
-2.0002596 7.5009737 8.1912813
-1.9973941 6.99088 8.1048107
-1.9944849 6.4820757 8.0170202
-1.9917603 5.9752779 7.9347949
-1.9885994 5.468647 7.839407
-1.3563455 3.3908617 -11.240541
-1.3290362 2.9903295 -12.064672
-2.0148273 -7.782541e-07 8.6308966
-2.0174561 -0.50436372 8.7102346
-1.909076 -0.95453906 5.4395742
-1.8645535 -1.398417 4.0959959
-1.8220605 -1.822062 2.8136537
-1.7810805 -2.2263534 1.5769714
-1.7418637 -2.6127968 0.39349976
-1.7043443 -2.9826055 -0.73874855
-1.6684071 -3.3368144 -1.8232499
-1.6339473 -3.6763833 -2.8631685
-1.6012295 -4.0030751 -3.8505085
-1.5698222 -4.3170128 -4.7983117
-1.5122979 -4.5368943 -6.5342617
-1.4904886 -4.84409 -7.1924119
-1.4961591 -5.2365589 -7.0212927
-1.5021787 -5.633172 -6.8396378
-1.5077429 -6.0309725 -6.6717219
-2.3490028 -13.506767 18.715544
-2.3485854 -14.091514 18.702951
-1.7222652 -19.806051 -0.19793719
-1.4820417 10.37429 7.4608641
-1.4856018 9.9040108 7.6041093
-1.4897344 9.4349823 7.7703915
-1.4940996 8.9645987 7.9460382
-1.5001712 8.500968 8.1903362
-1.5127339 8.0679159 8.6958237
-1.5156999 7.5784993 8.8151646
-1.5149971 7.0699849 8.7868891
-1.5150132 6.5650539 8.7875338
-1.5131398 6.0525584 8.7121582
-1.5259055 5.5949855 9.2258091
-1.0107236 3.369077 -11.503511
-0.99200475 2.9760127 -12.256698
-1.5232868 0.50776082 9.1204367
-1.5221419 -2.6075909e-06 9.0743723
-1.4599147 -0.48663923 6.5705442
-1.4252219 -0.95014822 5.1746154
-1.392133 -1.3921338 3.843219
-1.3605458 -1.8140631 2.5722461
-1.3300831 -2.2168064 1.3465242
-1.3009195 -2.6018422 0.17307068
-1.273013 -2.9703639 -0.94980413
-1.2462785 -3.3234105 -2.0255167
-1.2206801 -3.6620426 -3.0555146
-1.1963509 -3.9878376 -4.0344424
-1.1729727 -4.3009009 -4.9751134
-1.1304737 -4.5218983 -6.6851349
-1.1122847 -4.8199034 -7.4170055
-1.1163304 -5.2095423 -7.2542233
-1.1207855 -5.6039295 -7.0749626
-1.1249725 -5.9998536 -6.9064908
-1.7587138 -13.483474 18.59329
-1.7496828 -13.997463 18.229912
-1.2876619 -19.744152 -0.36037382
-1.2842519 -20.119949 -0.49757937
-0.99318713 10.428464 7.7722592
-0.98781908 9.8781891 7.4482684
-0.99070317 9.4116764 7.622335
-1.0036534 9.0328779 8.4039497
-1.020264 6.1215849 9.4064922
-1.0188977 5.6039357 9.3240223
-0.66949797 3.3474882 -11.764109
-0.65818524 2.9618323 -12.446896
-1.0252398 4.1009569 9.70681
-1.0308516 3.6079791 10.045509
-1.0206333 0.5103156 9.4287853
-0.99277055 -2.6145159e-07 7.7471132
-0.96871287 -0.48435834 6.295104
-0.94579822 -0.94579864 4.9120808
-0.9239381 -1.3859098 3.5927114
-0.90306568 -1.8061324 2.3329468
-0.88293654 -2.2073429 1.1180456
-0.86365795 -2.590976 -0.045518443
-0.84520698 -2.958226 -1.1591358
-0.82752788 -3.3101122 -2.226162
-0.81063837 -3.6478748 -3.2455368
-0.79454297 -3.9727168 -4.216979
-0.77907419 -4.2849092 -5.1505976
-0.76419634 -4.5851793 -6.0485568
-0.73785603 -4.7960653 -7.6383405
-0.74044347 -5.1831074 -7.4821687
-0.74331421 -5.5748591 -7.3089046
-0.74612021 -5.9689636 -7.1395502
-1.1599694 -13.919635 17.838459
-0.85613352 -19.691072 -0.49965686
-0.85182756 -20.017952 -0.75954461
-0.49964786 10.492601 8.1409416
-0.49352303 9.8704605 7.4016113
-0.49394771 9.385006 7.4528775
-0.33260491 3.3260472 -12.022923
-0.32755205 2.9479651 -12.632859
-0.51306438 4.1045127 9.7604609
-0.51319623 3.5923715 9.7763767
-0.51414311 3.0848565 9.8906746
-0.5154258 2.5771265 10.045511
-0.51704103 2.0681643 10.240485
-0.51971245 1.5591365 10.562953
-0.51617795 1.0323541 10.136303
-0.51401627 0.51401544 9.8753653
-0.49401134 -1.0356413e-06 7.4605584
-0.4820959 -0.48209709 6.0222368
-0.47074401 -0.94148958 4.6519418
-0.45991224 -1.3797369 3.3444293
-0.44956771 -1.7982719 2.0957353
-0.43959162 -2.1979606 0.89151245
-0.43003321 -2.5802016 -0.26228926
-0.42088345 -2.9461868 -1.3667597
-0.41211498 -3.296921 -2.425211
-0.4037571 -3.633817 -3.4340949
-0.3957707 -3.9577086 -4.3981409
-0.3880941 -4.2690372 -5.3247833
-0.38070965 -4.5685172 -6.2161651
-0.36718979 -4.773469 -7.8481579
-0.36835811 -5.1570163 -7.7071319
-0.36973765 -5.5460668 -7.5406032
-0.37114486 -5.9383187 -7.3707409
-0.57713884 -13.851333 17.494932
-0.42391542 -19.924026 -1.00077
1.2819597e-23 9.827857 7.1444817
2.2374708e-23 3.3044796 -12.283254
9.9983576e-24 2.9342697 -12.816555
3.6614364e-24 3.1007226 10.209864
1.7827676e-23 2.5789304 10.089032
8.6972822e-24 2.0637982 10.108802
1.1367232e-23 1.5499433 10.193056
6.9645958e-24 1.0350796 10.300801
6.0376029e-24 0.504058 8.67342
9.9827271e-24 -2.0122386e-06 7.1767292
4.4443051e-24 -0.47985741 5.7519031
5.0601246e-24 -0.93721795 4.3941622
5.6721537e-24 -1.3736221 3.0983486
1.4770576e-23 -1.7904803 1.8605785
-1.5043497e-24 -2.1886549 0.66689408
8.6371694e-24 -2.5695152 -0.47726378
1.4432589e-23 -2.9342437 -1.572703
1.6491517e-23 -3.2838354 -2.6226773
1.7608432e-24 -3.6198652 -3.621206
1.5166088e-23 -3.9428146 -4.5779328
-2.8110404e-24 -4.2532802 -5.4976869
3.8200432e-24 -4.5519757 -6.3825622
1.1222831e-23 -4.7526803 -8.0412016
1.4515107e-23 -5.1311665 -7.9300113
1.7836246e-23 -5.5180163 -7.7663412
-7.289623e-25 -5.90833 -7.5969973
1.1870911e-23 -13.7837 17.15476
5.2179567e-24 -19.844519 -1.2049707
0.48841104 9.7682199 6.7845392
0.32835874 3.2835865 -12.53548
0.32452583 2.9207323 -12.998152
0.51895279 1.5568569 10.471255
0.51452118 1.0290408 9.9363136
0.50161135 0.50160986 8.3779583
0.48933101 2.0803397e-07 6.8955884
0.47763759 -0.47763807 5.4840693
0.46649227 -0.93298459 4.1387081
0.45585304 -1.3675613 2.8544431
0.44568831 -1.7827551 1.6274492
0.4358857 -2.1794317 0.44417235
0.42648605 -2.5589185 -0.69046688
0.41748506 -2.9223974 -1.776981
0.40885788 -3.2708654 -2.8183739
0.4006688 -3.6060205 -3.806885
0.39280292 -3.9280307 -4.7563815
0.38523993 -4.2376399 -5.6693144
0.37796268 -4.5355535 -6.5477576
0.36435387 -4.7366018 -8.1904879
0.36468375 -5.1055727 -8.1506672
0.36603728 -5.4905605 -7.9872813
0.36743471 -5.8789558 -7.8185983
0.571738 -13.721713 16.842993
0.4206858 -19.772236 -1.3906145
0.42033166 -20.17592 -1.433368
0.97186542 9.7186518 6.4853806
0.65269095 3.2634521 -12.778502
0.64617068 2.9077671 -13.172034
1.0330234 1.549534 10.176589
1.0239421 1.0239421 9.6284857
0.99837458 0.49918699 8.0853491
0.97404784 -5.2163108e-07 6.6170998
0.95087838 -0.47544026 5.2187018
0.92879009 -0.92879218 3.8855534
0.90770036 -1.3615534 2.6126795
0.88754719 -1.7750964 1.3963231
0.86811221 -2.1702826 0.22331834
0.84946871 -2.5484083 -0.90191579
0.83161271 -2.9106452 -1.9796209
0.81453699 -3.2581506 -3.0102315
0.79828459 -3.5922813 -3.9911504
0.78267133 -3.9133587 -4.9334931
0.76765704 -4.2221155 -5.839684
0.75320804 -4.5192494 -6.7117639
0.72595394 -4.7187023 -8.3566933
0.72574782 -5.0802383 -8.3691292
0.72845298 -5.4633989 -8.2058611
0.73123688 -5.8498964 -8.0378361
1.1386137 -13.663364 16.549524
0.83901519 -19.716856 -1.5328444
0.83578551 -20.058853 -1.7277693
1.451009 9.6733932 6.2122083
0.97327447 3.2442462 -13.010349
0.96493715 2.8948097 -13.345817
1.5415281 1.5415262 9.8544121
1.5284439 1.0189631 9.3279467
1.4903598 0.49678487 7.7955561
1.4542155 -6.4702226e-07 6.3412251
1.4197829 -0.4732641 4.9557662
1.3869499 -0.92463416 3.6346629
1.3555946 -1.3555976 2.3730297
1.3256258 -1.7675034 1.1671764
1.2967253 -2.1612115 0.0043107844
1.2689909 -2.5379829 -1.111639
1.2424234 -2.8989899 -2.180634
1.2170742 -3.2455332 -3.200603
1.1928823 -3.5786486 -4.1740127
1.169638 -3.8987956 -5.1092896
1.1472824 -4.2067027 -6.0088134
1.1257652 -4.5030627 -6.8745966
1.0854743 -4.7037244 -8.4957752
1.0832499 -5.0551682 -8.5852757
1.0872717 -5.4363608 -8.4234495
1.0913153 -5.8203506 -8.2607517
1.7010809 -13.60865 16.274328
1.2562906 -19.681887 -1.6226591
1.2475598 -19.960958 -1.9739585
1.9260879 9.6304388 5.9529567
1.2984242 3.2460597 -12.988468
1.2965322 2.9171958 -13.045571
2.0442159 1.5331613 9.5177832
2.0280733 1.0140365 9.0306387
1.9776353 0.49440789 7.5085378
1.9298977 -5.1521351e-07 6.0679269
1.8844104 -0.47110444 4.6952267
1.8410268 -0.92051375 3.3860109
1.7995874 -1.3496915 2.1354656
1.7599726 -1.7599738 0.93998146
1.7217703 -2.1522148 -0.21287237
1.685095 -2.5276425 -1.3196505
1.6499566 -2.8874257 -2.3800411
1.6165059 -3.2330132 -3.3895073
1.5844958 -3.5651174 -4.3554974
1.5537353 -3.8843408 -5.2837811
1.5241461 -4.1914048 -6.1767092
1.495663 -4.4869914 -7.036263
1.4420465 -4.6866517 -8.6542864
1.4370904 -5.0298185 -8.8038445
1.4424154 -5.40906 -8.6431513
1.4477416 -5.790967 -8.482419
2.2597003 -13.558206 16.020607
1.6567863 -19.881437 -2.1739376
2.3971102 9.5884409 5.6994681
1.6441309 3.2882609 -12.479057
2.5430005 1.5257986 9.2215748
2.5228956 1.0091578 8.7361927
2.4603696 0.49207222 7.2266917
2.4011571 -2.4786323e-07 5.7971706
2.3448191 -0.46896461 4.4370532
2.2910752 -0.91643155 3.1395633
2.2397294 -1.3438387 1.8999662
2.1906347 -1.7525107 0.71471238
2.1432915 -2.1432931 -0.42825606
2.0978317 -2.5174 -1.525751
2.0542514 -2.8759544 -2.5778673
2.0128677 -3.2205906 -3.5769594
1.9731591 -3.5516877 -4.5356145
1.9349946 -3.8699911 -5.456984
1.8982786 -4.1762147 -6.3433905
1.8629298 -4.4710336 -7.1967821
1.7963899 -4.6706157 -8.8031969
1.7876265 -5.0053568 -9.0147657
1.7941508 -5.382453 -8.8572559
1.8008379 -5.762682 -8.6958141
1.8078204 -6.1465931 -8.5272398
2.8144584 -13.509402 15.775146
2.8088341 -14.044172 15.639364
2.0627563 -19.802464 -2.3725424
2.0643466 -20.2306 -2.3341506
2.9306006 10.257102 6.7872415
2.8638136 9.5460434 5.4435916
3.037451 1.5187256 8.9369068
3.0129788 1.0043236 8.4445677
2.9386563 0.48977336 6.9493098
2.8680549 -1.0990434e-06 5.5289173
2.8010664 -0.4668451 4.1812153
2.7371488 -0.91238493 2.8952925
2.6760707 -1.3380362 1.6664991
2.6176591 -1.7451066 0.49134484
2.5613322 -2.134445 -0.64186323
2.5072253 -2.5072267 -1.7304106
2.4554095 -2.8646457 -2.7728653
2.4061954 -3.2082624 -3.7629764
2.3589056 -3.5383594 -4.7143779
2.3134477 -3.8557475 -5.6289139
2.2697089 -4.1611347 -6.5088692
2.2275934 -4.4551888 -7.3561673
2.1491196 -4.6564274 -8.9349432
2.1347694 -4.9811301 -9.2236433
2.1424432 -5.3561096 -9.0692606
2.150558 -5.7348228 -8.906004
2.1585562 -6.115911 -8.7450895
3.3516078 -13.965034 15.257253
2.4682543 -19.746037 -2.5144448
2.4609566 -20.097815 -2.6612642
3.3886456 10.165936 6.2632146
3.326705 9.5048704 5.1950874
3.5273376 1.5117151 8.6548681
3.4983919 0.99954021 8.1557198
3.4124963 0.4874987 6.6745043
3.3307176 -9.6974873e-07 5.2642789
3.2532082 -0.46474668 3.9276795
3.1792996 -0.9083733 2.6531701
3.1086602 -1.3322854 1.4350394
3.0410917 -1.7377688 0.26985964
2.9759357 -2.1256704 -0.85371327
2.9133236 -2.4971359 -1.9334199
2.853498 -2.8534999 -2.9650741
2.7965231 -3.196027 -3.947577
2.7417672 -3.5251319 -4.8918023
2.6891253 -3.8416095 -5.7995806
2.6384668 -4.1461644 -6.6731539
2.5896819 -4.439455 -7.5144234
2.4981213 -4.6393685 -9.0933323
2.4785683 -4.9571395 -9.4305058
2.4872777 -5.3298841 -9.2803144
2.4970148 -5.7074637 -9.1124086
2.5057425 -6.0853772 -8.9619036
3.8910267 -13.896526 14.926468
2.8724434 -19.696758 -2.6383734
2.8574107 -20.001875 -2.8976061
3.8284638 10.049717 5.5951724
3.7862558 9.4656391 4.9583044
4.0120301 1.5045108 8.3649683
3.9792006 0.99479967 7.8696132
3.8819518 0.48524204 6.4022417
3.7893429 -2.9526989e-06 5.0048833
3.7012999 -0.46266481 3.6764145
3.6175792 -0.90439594 2.4131672
3.5375459 -1.3265822 1.2055608
3.4609773 -1.7304909 0.050227035
3.3871441 -2.1169655 -1.063828
3.3161662 -2.4871268 -2.1348031
3.2485006 -2.8424382 -3.155798
3.1838851 -3.183887 -4.1307721
3.1217771 -3.512001 -5.0679092
3.062058 -3.8275735 -5.9689999
3.004581 -4.1313 -6.8362622
2.9492218 -4.4238348 -7.6715651
2.8447967 -4.6227956 -9.2472219
2.8187604 -4.9328327 -9.6400785
2.8285122 -5.303463 -9.4929342
2.8396456 -5.6792927 -9.3249426
2.8495641 -6.055325 -9.1752853
4.4259968 -13.83124 14.611243
3.2517514 -19.916981 -3.106746
4.270227 9.9638605 5.1016684
4.2418203 9.4262686 4.7206707
4.4913526 1.4971162 8.0674696
4.4554477 0.99009776 7.5858984
4.3470831 0.48300865 6.1324873
4.2438445 -4.2054066e-07 4.7478147
4.1453953 -0.46060219 3.4273899
4.0520382 -0.9004541 2.1752589
3.9627755 -1.3209281 0.97803807
3.8773606 -1.7232732 -0.1675725
3.7949994 -2.1083343 -1.272229
3.7157919 -2.477196 -2.3345816
3.6404531 -2.8314655 -3.3450451
3.5683153 -3.1718366 -4.3125825
3.4989667 -3.4989676 -5.2427087
3.4322755 -3.8136418 -6.1371841
3.3680794 -4.1165428 -6.9982047
3.3062406 -4.4083228 -7.8276038
3.1900771 -4.6078906 -9.3856249
3.1556094 -4.9087281 -9.8479147
3.1664615 -5.2774391 -9.702364
3.178735 -5.6510868 -9.5377493
3.1905255 -6.0265489 -9.379611
4.9561629 -13.76712 14.301641
3.6439743 -19.839418 -3.2978201
4.7058225 9.882226 4.6324148
4.6938863 9.3877735 4.4883347
4.9660125 1.4898027 7.773191
4.9272399 0.98544568 7.3051581
4.8079505 0.48079368 5.8652048
4.6942773 -2.925326e-06 4.493053
4.585855 -0.45858568 3.1842806
4.4827266 -0.89654696 1.9394122
4.3843951 -1.3153187 0.75244498
4.2902856 -1.7161152 -0.38356286
4.1995416 -2.0997722 -1.4789377
4.1122394 -2.4673445 -2.5327661
4.0293908 -2.8205755 -3.53284
3.9498467 -3.1598785 -4.4930191
3.8733668 -3.4860327 -5.4162111
3.7998075 -3.799808 -6.304153
3.7289901 -4.101891 -7.1589942
3.6607642 -4.3929186 -7.9825544
3.5344019 -4.5947237 -9.5078831
3.4891951 -4.8848748 -10.053577
3.5024917 -5.2537394 -9.8930721
3.5147946 -5.6236749 -9.7445612
3.5284564 -5.9983797 -9.579649
5.4841638 -13.710411 14.027827
4.0355315 -19.774105 -3.4587169
5.1329136 9.7991991 4.1551576
5.145638 9.3557034 4.2947884
5.4360299 1.4825523 7.4814644
5.3946199 0.98083884 7.027041
5.2645845 0.47859752 5.6000743
5.140696 -3.0820404e-06 4.2405586
5.02248 -0.45659077 2.9432943
4.9096932 -0.8926723 1.7056044
4.8024516 -1.3097615 0.52876222
4.6997943 -1.7090167 -0.59776807
4.6008115 -2.0912778 -1.683973
4.5057392 -2.4576771 -2.7272706
4.4153481 -2.8097694 -3.7191939
4.3285122 -3.1480114 -4.672101
4.2450089 -3.4731905 -5.5884418
4.1646833 -3.786078 -6.4699101
4.0873408 -4.0873423 -7.318644
4.0130477 -4.3778715 -8.133913
3.8772206 -4.58217 -9.6244402
3.8211877 -4.8633318 -10.239326
3.834193 -5.228447 -10.096613
3.8481436 -5.5973015 -9.9435244
3.8622665 -5.9689603 -9.7885399
6.0079703 -13.65448 13.757767
4.4268961 -19.719812 -3.5924652
5.5682354 9.7444105 3.8402364
5.901464 1.4753652 7.192256
5.8576493 0.97627383 6.7515154
5.7170944 0.47642151 5.3376431
5.5831542 -6.0240205e-07 3.9903045
5.4553194 -0.4546102 2.7043915
5.3332086 -0.88887078 1.4760475
5.2169881 -1.3042486 0.30696118
5.1059294 -1.7019777 -0.81020749
4.998848 -2.0828552 -1.8873562
4.8962083 -2.448107 -2.9198349
4.7983589 -2.7990456 -3.9041243
4.7043433 -3.1362302 -4.8498445
4.6139235 -3.4604442 -5.7594028
4.5269308 -3.7724445 -6.6344752
4.4434505 -4.0731654 -7.4742279
4.3631916 -4.3631926 -8.2815752
4.2857962 -4.6429486 -9.0601063
4.1628208 -4.856627 -10.297143
4.1631527 -5.2039437 -10.293808
4.1790633 -5.5720868 -10.133756
4.194087 -5.9416246 -9.9826317
6.5304108 -13.605023 13.518972
4.8224983 -19.691868 -3.661303
6.0043244 9.6992912 3.5808895
6.3623424 1.4682305 6.9052405
6.3163891 0.9717499 6.4785428
6.1655121 0.47426796 5.0775843
6.0217037 -1.4683169e-06 3.7422612
5.8844233 -0.45264977 2.4675543
5.753263 -0.88511771 1.2496696
5.6280508 -1.2987833 0.087020159
5.5087323 -1.6949944 -1.0209029
5.3936915 -2.0744982 -2.0891078
5.283648 -2.4386089 -3.1109064
5.1784568 -2.7884023 -4.0876498
5.077373 -3.1245387 -5.0262609
4.9801397 -3.4477901 -5.9291158
4.8869433 -3.7591891 -6.7944798
4.7973566 -4.0593038 -7.626338
4.7112617 -4.3488584 -8.4257669
4.6422195 -4.6422219 -9.0668535
4.5119429 -4.8590159 -10.276524
4.4900293 -5.1808038 -10.480005
4.5051088 -5.5447516 -10.339982
4.5218978 -5.9132524 -10.184094
4.5401511 -6.286365 -10.014602
7.0496788 -13.557076 13.287458
7.0447369 -14.089476 13.241573
6.4385552 9.6578302 3.3425639
6.81882 1.4611734 6.6212835
6.7708974 0.96726859 6.2080855
6.6098914 0.47213462 4.8198624
6.4563656 -1.6113486e-06 3.4961319
6.3098388 -0.45070261 2.2327485
6.1697869 -0.88139999 1.025198
6.0358443 -1.293396 -0.1296827
5.9082441 -1.6880704 -1.2298758
5.7853785 -2.0662076 -2.2892475
5.6680932 -2.4291847 -3.3005016
5.555676 -2.7778397 -4.2697854
5.4476533 -3.1129475 -5.2011786
5.3441558 -3.4355302 -6.0935583
5.2446809 -3.7462022 -6.9512434
5.1521034 -4.0480833 -7.7494659
5.0757008 -4.3506017 -8.4082289
5.0004678 -4.6432953 -9.0568943
4.8659396 -4.8659425 -10.216825
4.813201 -5.1570015 -10.671549
4.829639 -5.5195894 -10.529816
4.8479929 -5.8868504 -10.371567
4.8654633 -6.2555962 -10.220935
7.5703344 -13.518457 13.100986
7.5443325 -14.010906 12.876792
6.8695483 9.6173649 3.1099668
7.2708936 1.4541763 6.339746
7.2211971 0.96282375 5.9398212
7.0502887 0.47001752 4.564456
6.8872504 -2.1995763e-06 3.2524238
6.7316136 -0.44877458 1.9999557
6.5828252 -0.87771297 0.80260193
6.4404721 -1.2880951 -0.34296921
6.3045049 -1.6812037 -1.4371492
6.1740274 -2.0580108 -2.487155
6.0495787 -2.4198329 -3.4886384
5.9301214 -2.7673919 -4.4499574
5.8157139 -3.1017151 -5.3706393
5.7057505 -3.4234512 -6.2555566
5.6067901 -3.7378616 -7.0519295
5.5225701 -4.0498862 -7.7296743
5.4395051 -4.3516045 -8.3981304
5.3588629 -4.6443491 -9.0470924
5.2805758 -4.9285393 -9.6770964
5.1648178 -5.1648207 -10.608642
5.1513476 -5.4947739 -10.717041
5.1689024 -5.8580914 -10.575773
5.187326 -6.2247934 -10.427511
5.2072387 -6.5958366 -10.26727
8.0410843 -13.937879 12.537758
7.4809499 10.286305 4.2675223
7.2964592 9.5766039 2.8756452
7.7188139 1.4472749 6.0620666
7.6674156 0.95842767 5.6742973
7.4867563 0.46792024 4.3113284
7.3143792 -2.4644019e-06 3.0108421
7.1497607 -0.44686052 1.768894
6.9924216 -0.87405276 0.58185941
6.8418274 -1.2828445 -0.554286
6.6976128 -1.6744045 -1.6423041
6.5598564 -2.0499556 -2.6815925
6.4282999 -2.4106145 -3.6741126
6.3023043 -2.7572603 -4.6246753
6.1812525 -3.0906281 -5.5379386
6.075983 -3.4177425 -6.3321352
5.9832821 -3.7395535 -7.0315084
5.89219 -4.0508828 -7.718749
5.8035002 -4.3526268 -8.3878593
5.7200427 -4.6475363 -9.0174999
5.657692 -4.9504809 -9.4878969
5.5347648 -5.1888433 -10.415311
5.4762506 -5.476253 -10.856766
5.4876933 -5.8306756 -10.770438
5.5079718 -6.1964693 -10.61745
5.5278029 -6.5642691 -10.467832
5.547617 -6.9345231 -10.318348
8.5385742 -13.875186 12.246685
7.8677683 10.181818 3.6942084
7.7198396 9.5362711 2.6438205
8.1632385 1.4405699 5.7922359
8.1095753 0.95406598 5.4111919
7.9193463 0.46584377 4.0604458
7.7378006 -1.8907941e-06 2.7713585
7.5643916 -0.44496495 1.5400438
7.3986187 -0.87042689 0.36295149
7.2399235 -1.2776346 -0.76388335
7.087893 -1.6677407 -1.8433962
6.942944 -2.0420427 -2.8726244
6.8046575 -2.4016454 -3.8545458
6.6718535 -2.7472353 -4.7975354
6.560389 -3.087244 -5.5890017
6.4587002 -3.4193141 -6.3110595
6.3591471 -3.7406769 -7.0179462
6.2619433 -4.0518465 -7.7081575
6.1764317 -4.3598366 -8.31534
6.1080928 -4.6708951 -8.8005953
6.0409575 -4.9749093 -9.2772932
5.9753041 -5.2723289 -9.7434731
5.8511486 -5.5069652 -10.625056
5.8051267 -5.8051281 -10.951842
5.8247552 -6.1673908 -10.812464
5.8456073 -6.5333281 -10.664402
5.8654695 -6.9005547 -10.52337
5.8870821 -7.2722807 -10.369905
5.9074202 -7.6448994 -10.225493
9.0313597 -13.81267 11.956438
8.2655716 10.102364 3.258265
8.1402836 9.4969931 2.4180608
8.6035633 1.4339248 5.5248923
8.5477314 0.94974816 5.1504674
8.3480701 0.46377984 3.8115144
8.1575623 -3.2622268e-06 2.533942
7.9755192 -0.44308707 1.3131303
7.8014584 -0.86682945 0.1458528
7.634799 -1.2724683 -0.97178727
7.4755001 -1.6612244 -2.0400705
7.3235521 -2.0343215 -3.0590577
7.1782846 -2.3927631 -4.0332403
7.0607605 -2.7458527 -4.8213806
6.9495401 -3.0886874 -5.5672379
6.841064 -3.4205334 -6.2946959
6.7348185 -3.7415664 -7.0071969
6.6479187 -4.0626197 -7.5899534
6.573235 -4.3821578 -8.0907965
6.4998183 -4.694315 -8.5831394
6.4280233 -4.9995761 -9.0646038
6.357821 -5.2981849 -9.5353947
6.3016763 -5.6014929 -9.9119091
6.1808643 -5.8374853 -10.722092
6.1399994 -6.1400027 -10.996138
6.1601443 -6.5023775 -10.861043
6.1816173 -6.8684659 -10.717041
6.2026162 -7.2363873 -10.576221
6.2255549 -7.6090136 -10.422391
9.5223503 -13.754508 11.686412
8.6476374 10.013051 2.7682264
8.5574379 9.4582205 2.1951749
9.0398455 1.427343 5.260004
8.9819374 0.94546574 4.8920941
8.7730579 0.46173948 3.5650425
8.5737123 -2.744128e-07 2.2985675
8.3831873 -0.44122231 1.0881225
8.2009459 -0.86325949 -0.069692321
8.026989 -1.2674191 -1.1748728
7.8604631 -1.6548343 -2.2328458
7.7032461 -2.0271704 -3.2316742
7.577898 -2.3930216 -4.0280356
7.4565639 -2.7471569 -4.798893
7.3386402 -3.0899551 -5.5480866
7.2228699 -3.4213605 -6.2835989
7.1352649 -3.7554038 -6.840168
7.0538006 -4.0837808 -7.357729
6.9737744 -4.4044909 -7.8661494
6.8954921 -4.7179689 -8.3634939
6.8200707 -5.0253172 -8.8426571
6.7645473 -5.3404322 -9.1954098
6.710094 -5.6506066 -9.5413618
6.6565099 -5.9558272 -9.8817892
6.5225167 -6.1792283 -10.733077
6.4765706 -6.4765725 -11.024981
6.4946766 -6.8365035 -10.90995
6.5172186 -7.2032437 -10.766733
6.5530248 -7.5877137 -10.539255
6.5819154 -7.9675841 -10.355705
10.011535 -13.699996 11.433329
9.0209684 9.9230661 2.2744756
8.9722509 9.4208603 1.9804348
9.4719057 1.4207844 4.9961257
9.4122458 0.94122332 4.6360412
9.1943178 0.45971426 3.3207355
8.9862967 -2.2321179e-07 2.0652113
8.7874393 -0.43937463 0.86500335
8.5978098 -0.85978281 -0.27951512
8.4164133 -1.2624632 -1.3743432
8.2498541 -1.6499714 -2.3796151
8.1126604 -2.0281682 -3.207649
7.9805865 -2.3941789 -4.0047855
7.8527122 -2.748451 -4.7765784
7.7300858 -3.0920343 -5.5166931
7.6392837 -3.4376788 -6.0647306
7.5505905 -3.7752962 -6.6000457
7.4635839 -4.1049719 -7.125175
7.378418 -4.4270525 -7.6391978
7.3039002 -4.7475367 -8.0889492
7.243412 -5.0703907 -8.4540281
7.1841063 -5.3880816 -8.8119726
7.1257634 -5.7006135 -9.1640987
7.0683608 -6.0081081 -9.5105562
7.0198855 -6.3178997 -9.8031273
6.8816037 -6.5375252 -10.637733
6.8364038 -6.8364072 -10.910538
6.8287096 -7.1701479 -10.95698
6.902142 -7.5923572 -10.513777
6.9109244 -7.9475646 -10.460768
6.923378 -8.3080568 -10.385604
6.9425569 -8.6781998 -10.269847
6.9682198 -9.0586863 -10.114964
7.0120034 -9.4662066 -9.8507032
9.4006701 9.848321 1.8643645
9.3835802 9.3835793 1.7661306
9.8995285 1.4142179 4.7318606
9.8387098 0.93701845 4.3822727
9.6119032 0.45770776 3.0785565
9.3953171 -1.8848763e-06 1.8335938
9.1890736 -0.43757644 0.64808297
8.9918919 -0.85637063 -0.48534733
8.8163719 -1.259483 -1.4942561
8.666934 -1.6508462 -2.3532474
8.5225134 -2.0291719 -3.1833954
8.3836994 -2.3953443 -3.9813178
8.2595558 -2.7531872 -4.6949043
8.1608467 -3.108896 -5.2623019
8.0644674 -3.4562016 -5.8162999
7.9700551 -3.7952654 -6.3589945
7.8775811 -4.1263533 -6.8905497
7.8048902 -4.4599385 -7.3083839
7.7391181 -4.7908854 -7.6864481
7.6746211 -5.1164165 -8.0571871
7.6112189 -5.4365854 -8.4216309
7.5500164 -5.7523956 -8.7734299
7.5020719 -6.0731063 -9.0490217
7.4552288 -6.3901997 -9.3182783
7.4089675 -6.703352 -9.584197
7.2618637 -6.9160619 -10.42977
7.3043652 -8.6956739 -10.185467
7.3070693 -9.0468493 -10.169922
7.3181195 -9.4090137 -10.1064
7.3371644 -9.7828875 -9.9969311
7.3586206 -10.161907 -9.8735981
7.3949242 -10.564179 -9.6649218
9.8568363 9.8568354 1.9110866
10.323164 1.4077027 4.4697537
10.261332 0.93284672 4.1304917
10.025858 0.45571965 2.8384864
9.8018618 -1.3389233e-06 1.6094443
9.5879593 -0.43581766 0.43579686
9.4033604 -0.85485226 -0.57707095
9.2411375 -1.2601556 -1.4671642
9.0844164 -1.6517141 -2.3270638
8.9329224 -2.0302119 -3.1582897
8.8080139 -2.4021866 -3.8436494
8.7008839 -2.7684643 -4.4314489
8.5963297 -3.1259387 -5.0051231
8.4940529 -3.4748421 -5.5662994
8.3965549 -3.8166184 -6.1012611
8.3239088 -4.1619563 -6.4998565
8.2525101 -4.5013709 -6.8916111
8.1824846 -4.8351059 -7.2758341
8.113699 -5.1632633 -7.6532469
8.0537739 -5.4912114 -7.982049
8.0017033 -5.8194227 -8.2677507
7.9508715 -6.143856 -8.5466576
7.9006519 -6.4641724 -8.8222036
11.470551 -13.556106 10.765294
11.451554 -14.054181 10.661063
7.7126398 -9.8160887 -9.853796
7.7089748 -10.161831 -9.873908
