# .PCD v0.7 - Point Cloud Data file format
VERSION 0.7
FIELDS x y z
SIZE 4 4 4
TYPE F F F
COUNT 1 1 1
WIDTH 1194
HEIGHT 1
VIEWPOINT 0 0 0 1 0 0 0
POINTS 1194
DATA ascii
-9.9906969 -15.985117 -6.3605113
-9.9934359 -16.489172 -6.3439779
-9.9960947 -16.993362 -6.3279295
-9.9987555 -17.497822 -6.3118739
-9.4835567 -14.474904 -6.4088292
-9.4861164 -14.978081 -6.3925662
-9.4886379 -15.481465 -6.3765421
-9.4912004 -15.985181 -6.3602672
-9.4937639 -16.489172 -6.3439779
-9.4962902 -16.993362 -6.3279295
-9.4810762 -17.465143 -6.4245872
-8.9244423 24.790115 -6.8110633
-8.9244423 24.294312 -6.8110647
-8.9244061 23.798416 -6.811305
-8.9243698 23.302521 -6.8115487
-8.9243336 22.806627 -6.8117919
-8.9242973 22.310745 -6.8120346
-8.9242611 21.814857 -6.8122807
-8.9242611 21.319065 -6.8122797
-8.9242611 20.823277 -6.8122759
-8.9242249 20.327402 -6.812521
-8.9242249 19.831608 -6.81252
-8.9242249 19.335817 -6.8125224
-8.9241886 18.839952 -6.8127637
-8.9241886 18.344164 -6.8127627
-8.9241886 17.848373 -6.8127646
-8.9241524 17.352516 -6.8130078
-8.9241524 16.85673 -6.8130093
-8.9241524 16.360943 -6.8130078
-8.9241161 15.865092 -6.8132524
-8.9240799 15.369246 -6.8134942
-8.9240437 14.873406 -6.8137355
-8.9240437 14.377626 -6.813736
-8.9772654 -12.967162 -6.4568224
-8.9796505 -13.469476 -6.4408326
-8.9820356 -13.972056 -6.4248347
-8.9844217 -14.474904 -6.4088292
-8.9868832 -14.978142 -6.3923211
-8.9893093 -15.481588 -6.3760524
-8.9917002 -15.985247 -6.3600187
-8.9741497 -16.452608 -6.4777179
-8.9964857 -16.993362 -6.3279295
-8.9991751 -17.498396 -6.309896
-8.4286404 24.790115 -6.8110633
-8.4286404 24.294312 -6.8110647
-8.4286051 23.798416 -6.811305
-8.4286051 23.302612 -6.8113084
-8.4285717 22.806723 -6.8115487
-8.4285374 22.310835 -6.8117909
-8.428503 21.814945 -6.8120351
-8.4284687 21.319065 -6.8122797
-8.4284344 20.823189 -6.8125234
-8.4284344 20.327402 -6.812521
-8.4284344 19.831608 -6.81252
-8.4284 19.335739 -6.8127646
-8.4284 18.839952 -6.8127637
-8.4283657 18.344088 -6.8130074
-8.4283657 17.848303 -6.8130088
-8.4283657 17.352516 -6.8130078
-8.4283323 16.856663 -6.8132501
-8.4283323 16.360878 -6.813251
-8.4283323 15.865092 -6.8132524
-8.4283323 15.369311 -6.813251
-8.428298 14.873466 -6.8134928
-8.4282637 14.377626 -6.813736
-8.4282293 13.881787 -6.8139801
-8.4282293 13.386009 -6.8139787
-8.428195 12.89018 -6.8142223
-8.428195 12.394403 -6.8142219
-8.428195 11.898627 -6.8142204
-8.4281607 11.402802 -6.8144631
-8.4281607 10.907031 -6.8144665
-8.4281263 10.411214 -6.8147111
-8.4281263 9.9154406 -6.8147073
-8.428092 9.419631 -6.8149543
-8.4693947 -10.960395 -6.5216751
-8.4716768 -11.461682 -6.5054746
-8.4739943 -11.963286 -6.4890213
-8.4762783 -12.465117 -6.4728003
-8.478528 -12.967162 -6.4568224
-8.4807806 -13.469476 -6.4408326
-8.4830332 -13.972056 -6.4248347
-8.485322 -14.474962 -6.4085822
-8.4739943 -14.954109 -6.4890194
-8.4758978 -15.456048 -6.4755058
-8.4921618 -15.985247 -6.3600187
-8.4944906 -16.489307 -6.343483
-8.5048971 -17.009796 -6.2695894
-8.5447416 -17.592117 -5.9866672
-8.0920458 20.230116 -5.6099305
-8.0472116 19.615076 -5.9481797
-7.9970398 18.992971 -6.3266945
-7.9474897 18.378567 -6.7005224
-7.932548 17.84823 -6.8132496
-7.932548 17.352444 -6.8132515
-7.932548 16.856663 -6.8132501
-7.932548 16.360878 -6.813251
-7.9325156 15.865031 -6.8134933
-7.9325156 15.369246 -6.8134942
-7.9325156 14.873466 -6.8134928
-7.9325156 14.377683 -6.8134942
-7.9324832 13.881846 -6.8137369
-7.9324508 13.386009 -6.8139787
-7.9324508 12.890233 -6.8139806
-7.9324188 12.394403 -6.8142219
-7.9323869 11.898579 -6.8144655
-7.9323869 11.402802 -6.8144631
-7.9323869 10.907031 -6.8144665
-7.932354 10.411214 -6.8147111
-7.932354 9.9154406 -6.8147073
-7.932322 9.419631 -6.8149543
-7.9322901 8.9238234 -6.8151932
-7.9322901 8.4280558 -6.8151937
-7.9322577 7.9322581 -6.8154392
-7.9322577 7.4364901 -6.8154387
-7.9322577 6.9407239 -6.8154368
-7.9322257 6.444931 -6.8156796
-7.9322257 5.9491677 -6.8156829
-7.9321933 5.4533811 -6.8159213
-7.9321933 4.9576206 -6.8159227
-7.9606709 -8.4582148 -6.6010761
-7.9627805 -8.9581308 -6.5851612
-7.9648905 -9.4583082 -6.569242
-7.9669695 -9.9587145 -6.553556
-7.9690819 -10.459422 -6.5376196
-7.9711957 -10.960395 -6.5216751
-7.9733434 -11.461682 -6.5054746
-7.9755239 -11.963286 -6.4890213
-7.9776735 -12.465117 -6.4728003
-7.9797592 -12.967111 -6.4570675
-7.9818783 -13.469422 -6.4410763
-7.9668069 -13.941916 -6.5547814
-7.9861531 -14.474904 -6.4088292
-7.9882755 -14.97802 -6.3928123
-7.9904976 -15.481588 -6.3760524
-8.0002499 -16.0005 -6.3024831
-8.0307369 -16.563396 -6.0724688
-9.2203732 25.817041 7.5401287
-9.2179594 25.195757 7.5207105
-9.2155476 24.574789 7.501298
-9.2131367 23.954155 7.4818997
-9.2107277 23.333841 7.4625092
-9.2083187 22.713856 7.4431295
-9.2059126 22.094189 7.4237576
-7.4413562 17.363165 -6.776289
-7.4413261 16.867006 -6.7765307
-7.5113697 16.525013 -6.2128668
-9.1963434 19.618864 7.3467507
-7.8141026 16.149143 -3.7766597
-7.8150029 15.630007 -3.7694163
-7.9804378 15.428845 -2.4380991
-7.56464 14.120658 -5.7841763
-7.4802909 13.464523 -6.4629707
-7.4366727 12.890233 -6.8139806
-7.4366426 12.394403 -6.8142219
-7.4366426 11.898627 -6.8142204
-7.4366126 11.402802 -6.8144631
-7.4366126 10.907031 -6.8144665
-7.4365826 10.411214 -6.8147111
-7.4365826 9.9154406 -6.8147073
-7.436552 9.419631 -6.8149543
-7.436552 8.9238605 -6.8149495
-7.436522 8.4280558 -6.8151937
-7.4364915 7.9322581 -6.8154392
-7.4364915 7.4364901 -6.8154387
-7.4364915 6.9407239 -6.8154368
-7.4364614 6.444931 -6.8156796
-7.4364614 5.9491677 -6.8156829
-7.4364614 5.4534039 -6.8156796
-7.4364309 4.9576206 -6.8159227
-7.4364009 4.4618387 -6.816164
-7.4364009 3.9660778 -6.8161659
-7.4363708 3.4703059 -6.8164082
-7.4363708 2.9745471 -6.8164082
-7.4363708 2.4787884 -6.8164082
-7.4363408 1.9830233 -6.8166518
-7.4364309 1.4872862 -6.8159246
-7.4490747 -4.9660506 -6.7141776
-7.4511051 -5.4641457 -6.6978388
-7.4531064 -5.9624877 -6.6817327
-7.4551086 -6.4610963 -6.6656194
-7.4571118 -6.9599733 -6.6494932
-7.4591475 -7.4591479 -6.6331205
-7.4611225 -7.9585309 -6.6172271
-7.4630985 -8.4581804 -6.6013198
-7.4651065 -8.9581308 -6.5851612
-7.4670544 -9.4582691 -6.5694885
-7.4690032 -9.9586735 -6.5538015
-7.471014 -10.459422 -6.5376196
-7.4730268 -10.960438 -6.5214305
-7.475039 -11.46173 -6.5052271
-7.4770837 -11.963336 -6.4887748
-7.4625206 -12.437535 -6.6059723
-7.4810238 -12.967111 -6.4570675
-7.4830418 -13.469476 -6.4408326
-7.4850292 -13.972056 -6.4248347
-7.4875693 -14.475967 -6.4043965
-7.4980841 -14.996171 -6.319777
-7.5281658 -15.558211 -6.0776987
-8.6056814 25.817041 7.5401287
-8.6034288 25.195757 7.5207105
-8.6011772 24.574789 7.501298
-8.5989275 23.954155 7.4818997
-8.5966787 23.333841 7.4625092
-8.5944309 22.713856 7.4431295
-8.592185 22.094189 7.4237576
-6.9401059 17.350262 -6.8207831
-6.9401059 16.854542 -6.8207841
-7.0107551 16.525351 -6.2116299
-8.5832539 19.618864 7.3467507
-8.5810127 19.000814 7.3274355
-8.5787735 18.383083 7.3081269
-7.8389421 16.237806 0.92915714
-7.8389421 15.677885 0.9291544
-8.0093737 15.446647 2.3986499
-8.3313618 15.47253 5.1748981
-8.5675936 15.299275 7.211729
-8.565361 14.683477 7.1924825
-8.5631294 14.068001 7.1732435
-8.5608997 13.452843 7.154017
-8.5586281 12.837941 7.1344256
-7.0657883 10.093983 -5.7371211
-6.9822035 9.4758472 -6.4578052
-6.9407535 8.9238234 -6.8151932
-6.9407535 8.4280558 -6.8151937
-6.9407253 7.9322581 -6.8154392
-6.9407253 7.4364901 -6.8154387
-6.9407253 6.9407239 -6.8154368
-6.9406972 6.444931 -6.8156796
-6.9406972 5.9491677 -6.8156829
-6.9406972 5.4534039 -6.8156796
-6.9406691 4.9576206 -6.8159227
-6.9406409 4.4618387 -6.816164
-6.9406409 3.9660778 -6.8161659
-6.9406128 3.4703059 -6.8164082
-6.9405847 2.9745336 -6.8166504
-6.9405847 2.4787798 -6.8166533
-6.9405847 1.9830233 -6.8166518
-6.9406691 1.4872862 -6.8159246
-6.9408102 0.99154252 -6.8147092
-6.9409509 0.49577978 -6.8134928
-6.9411201 -2.0526256e-06 -6.812036
-6.9413171 -0.49580845 -6.8103356
-6.9414868 -0.99164253 -6.8088741
-6.9416838 -1.487505 -6.8071718
-6.9418812 -1.9833957 -6.8054748
-6.9433193 -2.4797575 -6.7930751
-6.9451814 -2.9765079 -6.7770195
-6.9469876 -3.473495 -6.7614427
-6.9488235 -3.9707561 -6.7456164
-6.9506602 -4.4682837 -6.7297769
-6.952498 -4.966073 -6.7139325
-6.9543648 -5.4641457 -6.6978388
-6.9562325 -5.9624877 -6.6817327
-6.9581017 -6.4610963 -6.6656194
-6.9599996 -6.9600024 -6.6492524
-6.9618702 -7.4591479 -6.6331205
-6.9637141 -7.9585309 -6.6172271
-6.9655585 -8.4581804 -6.6013198
-6.9674039 -8.9580927 -6.5854082
-6.9692502 -9.4582691 -6.5694885
-6.9710698 -9.9586735 -6.5538015
-6.9607649 -10.441149 -6.6426539
-6.9608498 -10.938478 -6.6419196
-6.976675 -11.461682 -6.5054746
-6.9785547 -11.96324 -6.4892635
-6.9804358 -12.465066 -6.4730458
-6.9823174 -12.967162 -6.4568224
-6.9864559 -13.47388 -6.4211431
-6.9982696 -13.996538 -6.3192854
-7.0396571 -14.58215 -5.962429
-6.4395733 17.337313 -6.8654537
-6.4395986 16.842028 -6.8652096
-6.5101204 16.52569 -6.2103882
-8.0578451 19.214865 8.1609125
-8.0018663 18.465847 7.6411266
-7.9638858 17.765591 7.2884541
-7.9618483 17.148596 7.2695398
-7.8773274 16.3606 6.4847221
-7.8757243 15.751448 6.4698415
-7.9555826 15.299196 7.21136
-7.9535098 14.683405 7.192111
-7.951438 14.067928 7.1728725
-7.949367 13.452777 7.1536441
-7.9472976 12.837941 7.1344256
-7.9452286 12.22343 7.1152172
-7.9432011 11.609294 7.0963883
-7.941134 10.995416 7.0772018
-7.9390683 10.38186 7.0580235
-7.9370041 9.7686195 7.0388498
-7.9349413 9.1557007 7.0196958
-7.932879 8.5430984 7.0005469
-6.5345106 6.5345078 -5.9839206
-6.4449334 5.9491677 -6.8156829
-6.4449334 5.4534039 -6.8156796
-6.4449072 4.9576206 -6.8159227
-6.4449072 4.4618592 -6.8159237
-6.444881 3.9660778 -6.8161659
-6.4448552 3.4703059 -6.8164082
-6.444829 2.9745336 -6.8166504
-6.444829 2.4787798 -6.8166533
-6.4448552 1.9830296 -6.8164082
-6.444881 1.4872799 -6.8161688
-6.4450121 0.99153847 -6.8149514
-6.4451685 0.49577978 -6.8134928
-6.4453254 -2.0526256e-06 -6.812036
-6.445509 -0.49580845 -6.8103356
-6.4456658 -0.99164253 -6.8088741
-6.4458494 -1.487505 -6.8071718
-6.4460325 -1.9833957 -6.8054748
-6.4473681 -2.4797575 -6.7930751
-6.4490705 -2.9764953 -6.7772641
-6.4507742 -3.473495 -6.7614427
-6.4525056 -3.9707758 -6.7453704
-6.4541841 -4.4682837 -6.7297769
-6.4558911 -4.966073 -6.7139325
-6.4576244 -5.4641457 -6.6978388
-6.4593587 -5.9624877 -6.6817327
-6.4611206 -6.4611201 -6.6653757
-6.4628568 -6.9600024 -6.6492524
-6.4645677 -7.4591165 -6.6333656
-6.46628 -7.9584994 -6.6174722
-6.4557071 -8.4420795 -6.7156429
-6.4568887 -8.9403086 -6.7046685
-6.471447 -9.4582691 -6.5694885
-6.4731627 -9.9587145 -6.553556
-6.4749055 -10.459463 -6.537374
-6.4765959 -10.960395 -6.5216751
-6.4783411 -11.461682 -6.5054746
-6.4805098 -11.964021 -6.485333
-6.4870524 -12.475101 -6.4245892
-6.5033722 -13.006743 -6.2730532
-6.5993357 -13.706316 -5.3819857
-6.9186101 -14.901625 -2.4173822
-5.9398112 17.32445 -6.9098153
-5.9398594 16.829599 -6.9093299
-6.0094652 16.526028 -6.2091498
-7.3591437 17.171335 7.3675685
-7.3747759 16.593248 7.5248146
-7.4091983 12.34866 7.8710818
-7.3322225 11.60935 7.0967555
-7.3303146 10.995472 7.077569
-7.3284082 10.381911 7.0583878
-7.3265023 9.7686682 7.0392184
-7.3245974 9.1557455 7.020062
-7.3226943 8.5431423 7.0009127
-7.3207917 7.9308543 6.9817734
-7.3188529 7.3188548 6.9622769
-7.3169522 6.7072067 6.9431572
-7.315053 6.0958772 6.9240503
-7.3131542 5.4848666 6.9049497
-7.3112564 4.8741703 6.8858581
-6.0030384 3.5017719 -6.2737961
-5.9490972 2.9745471 -6.8164082
-5.9490728 2.4787798 -6.8166533
-5.9490728 1.9830233 -6.8166518
-5.9491205 1.4872799 -6.8161688
-5.9492416 0.99153847 -6.8149514
-5.9493861 0.49577978 -6.8134928
-5.9495316 -2.0526256e-06 -6.812036
-5.9497004 -0.49580845 -6.8103356
-5.9498458 -0.99164253 -6.8088741
-5.9500146 -1.487505 -6.8071718
-5.9501843 -1.9833957 -6.8054748
-5.9513922 -2.4797475 -6.7933154
-5.9529643 -2.9764855 -6.777504
-5.9545608 -3.473495 -6.7614427
-5.9561582 -3.9707758 -6.7453704
-5.9577332 -4.4683008 -6.7295351
-5.9592838 -4.966073 -6.7139325
-5.9608836 -5.4641457 -6.6978388
-5.9499664 -5.9499664 -6.8076615
-5.9522142 -6.4482346 -6.7850471
-6.3024278 -7.3528328 -3.2621713
-5.9672689 -7.4590893 -6.6336074
-5.9688492 -7.9584656 -6.6177158
-5.9704304 -8.4581108 -6.6018119
-5.9720607 -8.9580927 -6.5854082
-5.9736433 -9.4582691 -6.5694885
-5.9752269 -9.9587145 -6.553556
-5.97686 -10.459506 -6.5371299
-5.9812274 -10.965587 -6.493196
-5.9914031 -11.483524 -6.3908405
-6.0231023 -12.046206 -6.0719714
-6.1608047 -12.835011 -4.6867957
-6.4347653 -13.941995 -1.9309566
-5.4407902 17.311607 -6.9541106
-5.440834 16.817123 -6.9536271
-5.5087891 16.526367 -6.2079082
-6.7507987 17.183851 7.4215236
-6.7587824 16.589737 7.5091338
-6.8184881 8.0582132 8.1643295
-6.7089825 7.318892 6.9626446
-6.7072401 6.7072363 6.9435263
-6.7054653 6.0958772 6.9240503
-6.7037249 5.4848666 6.9049497
-6.7019854 4.8741703 6.8858581
-6.7002463 4.263793 6.8667793
-6.6985087 3.6537318 6.8477116
-6.6967387 3.0439706 6.8282871
-6.6950026 2.434545 6.8092365
-5.4727159 1.4925582 -6.6037698
-5.489964 0.99817455 -6.4144959
-5.4980097 0.49981961 -6.3262029
-5.4537592 -2.9924092e-06 -6.8117905
-5.4538922 -0.49580845 -6.8103356
-5.5049052 -1.0008938 -6.2505255
-5.5273581 -1.5074635 -6.0041466
-5.5633736 -2.0230465 -5.6089153
-5.6068759 -2.548583 -5.1315389
-5.6682596 -3.091778 -4.4579334
-5.4568172 -3.4725213 -6.7782359
-5.4597898 -3.9707561 -6.7456164
-5.4612551 -4.4683008 -6.7295351
-5.4626989 -4.9660902 -6.7136908
-5.4641438 -5.4641457 -6.6978388
-5.4656334 -5.962512 -6.6814895
-5.4671021 -6.4611201 -6.6653757
-5.4685488 -6.9599733 -6.6494932
-5.4700189 -7.4591165 -6.6333656
-5.4714675 -7.9584994 -6.6174722
-5.4728942 -8.4581108 -6.6018119
-5.474679 -8.9585667 -6.5822239
-5.4785428 -9.4629402 -6.5398269
-5.4878101 -9.9778376 -6.4381275
-5.5068245 -10.51303 -6.2294736
-5.5969453 -11.193892 -5.2405162
-5.7355051 -11.992423 -3.7199965
-6.0575771 -13.216533 -0.18568005
-4.9424887 17.298708 -6.9985828
-4.9425488 16.804665 -6.997858
-5.0081139 16.526773 -6.2064228
-6.1415963 17.19647 7.4759312
-6.1430488 16.586231 7.4934626
-6.2142744 4.3499889 8.3532257
-6.0895538 3.6537318 6.8477116
-6.0879745 3.0439849 6.8286529
-6.0863662 2.434545 6.8092365
-4.9658275 1.489747 -6.7168617
-4.9759464 0.9951883 -6.5947142
-4.9756427 0.49756441 -6.5983844
-4.9756222 -1.476554e-06 -6.5986271
-4.9752975 -0.49752989 -6.6025457
-4.9752369 -0.99504918 -6.6032772
-4.9846005 -1.4953808 -6.4902496
-6.0851221 -2.4340513 6.7942262
-5.8861914 -2.9430988 4.3929162
-5.476727 -3.286036 -0.5497601
-5.0220184 -3.5154138 -6.0385771
-4.9634657 -3.9707758 -6.7453704
-4.9647775 -4.4683008 -6.7295351
-4.9661102 -4.9661121 -6.7134461
-4.9674034 -5.4641457 -6.6978388
-4.9687581 -5.962512 -6.6814895
-4.9700928 -6.4611201 -6.6653757
-4.9714084 -6.9599733 -6.6494932
-4.9744668 -7.4617014 -6.6125765
-4.9798026 -7.9676852 -6.5481658
-4.9894896 -8.4821348 -6.4312329
-5.0107236 -9.0193062 -6.174911
-5.1013765 -9.6926174 -5.0806355
-5.2039175 -10.407836 -3.8428624
-5.3394637 -11.212875 -2.2066705
-4.4449472 17.285908 -7.0427461
-4.4450192 16.792295 -7.0417824
-4.5073948 16.527115 -6.2051821
-5.5314713 17.209024 7.5300446
-5.531611 16.594833 7.5319123
-4.4616594 1.487219 -6.8185949
-4.4716816 0.9937048 -6.6841741
-4.4714818 0.49682924 -6.6868587
-4.4714818 -1.8543579e-06 -6.6868567
-4.4708452 -0.49676317 -6.6953979
-4.4707718 -0.99350595 -6.6963754
-4.4815664 -1.493855 -6.5515976
-5.1681108 -3.44541 2.6565411
-4.6013322 -3.5788138 -4.9452634
-4.4671011 -3.9707561 -6.7456164
-4.4682999 -4.4683008 -6.7295351
-4.4706993 -4.9674463 -6.6973495
-4.4734111 -5.4675045 -6.6609769
-4.4787536 -5.9716735 -6.5893264
-4.4863057 -6.4802213 -6.4880362
-4.4991455 -6.9986715 -6.3158274
-4.558517 -7.5975294 -5.5195169
-4.6417418 -8.2519865 -4.4032798
-4.735662 -8.9451418 -3.1435909
-4.852715 -9.7054319 -1.5736409
-3.9481575 17.27319 -7.0866051
-3.9482052 16.779875 -7.0858827
-4.0066552 16.527451 -6.2039428
-4.9204803 17.221682 7.58461
-4.920579 16.606956 7.5861044
-3.9609179 1.4853437 -6.8940654
-3.9671278 0.99177992 -6.8003683
-3.9688041 0.49609831 -6.7750716
-3.9688203 -2.1971334e-06 -6.7748275
-3.9682558 -0.49603441 -6.7833433
-3.9676917 -0.99192381 -6.7918563
-3.9795573 -1.4923362 -6.6128206
-4.7035789 -3.5276866 4.3118262
-4.2037525 -3.6782846 -3.2299733
-3.9897819 -3.989783 -6.4585452
-3.9941053 -4.493371 -6.3933063
-4.0407338 -5.0509176 -5.6897373
-4.1045103 -5.6437035 -4.7274222
-4.1763415 -6.264513 -3.6435704
-4.2517128 -6.9090338 -2.5063083
-4.3158879 -7.5528045 -1.537981
-4.4727697 -8.3864441 0.82918453
-3.4520843 17.26042 -7.1306405
-3.4521263 16.767467 -7.1299181
-3.5058954 16.52779 -6.2027011
-4.308567 17.234268 7.6388793
-4.3086543 16.619091 7.6403785
-3.4614377 1.4834725 -6.9693437
-3.4651146 0.99003261 -6.9059396
-3.4676032 0.49537012 -6.8630252
-3.4676173 -1.1594744e-06 -6.8627853
-3.4671388 -0.49530792 -6.8710308
-3.4666464 -0.99047041 -6.8795204
-3.476249 -1.4898206 -6.7139354
-4.238461 -3.6329684 6.4299498
-3.9925454 -3.9925458 2.18928
-3.9090016 -4.467432 0.74861908
-3.9706948 -5.1051788 1.8124747
-4.0893817 -5.8419738 3.8591552
-2.9567556 17.247742 -7.174367
-2.9567797 16.755083 -7.1738882
-3.0051394 16.528265 -6.2009687
-3.6957593 17.246878 7.6932311
-3.6958525 16.631334 7.695106
-2.9632382 1.4816188 -7.0439525
-2.9648571 0.9882859 -7.0113816
-2.9678719 0.49464464 -6.9507236
-2.9678962 -1.2772587e-06 -6.9502387
-2.9674995 -0.49458402 -6.9582219
-2.9670668 -0.98902398 -6.966929
-2.9695807 -1.4847907 -6.9163566
-3.1533978 -2.102267 -3.2182331
-2.4621546 17.235079 -7.2180352
-2.4621644 16.74272 -7.217793
-2.5044162 16.529146 -6.1977434
-3.0820694 17.259586 7.7480383
-3.0821316 16.643511 7.7495413
-2.4663324 1.4797992 -7.1171727
-2.4669204 0.98676652 -7.1029749
-2.469605 0.49391943 -7.0381641
-2.4696147 -1.5817061e-06 -7.0379205
-2.4693053 -0.49386075 -7.0454011
-2.4690955 -0.98763961 -7.0504622
-2.4707844 -1.4824717 -7.0096893
-2.5943069 -2.0754464 -4.0275922
-1.9682709 17.222368 -7.2618747
-1.9682788 16.730371 -7.2616329
-2.0036399 16.530027 -6.1945171
-2.4674618 17.27223 7.802546
-2.4675119 16.655703 7.8040524
-1.9706455 1.477982 -7.190208
-1.9707012 0.98534912 -7.1885281
-1.9727949 0.4931972 -7.1253505
-1.9727949 -1.3244763e-06 -7.12535
-1.9725637 -0.49314195 -7.1323242
-1.9724841 -0.98624378 -7.134726
-1.9737517 -1.4803145 -7.0964746
-2.0448139 -2.0448151 -4.951983
-1.4751152 17.209677 -7.3056493
-1.4751211 16.71804 -7.3054099
-1.5028162 16.530977 -6.1910443
-1.8519624 17.284983 7.8575149
-1.852 16.667997 7.8590217
-1.4759057 0.98393583 -7.2738395
-1.4774299 0.49247536 -7.2125173
-1.4774299 -8.7728398e-07 -7.2125196
-1.4773284 -0.49244371 -7.2165952
-1.4772749 -0.9848507 -7.2187524
-1.4781989 -1.4781994 -7.1815686
-1.5254225 -2.0338976 -5.2814412
-0.98268592 17.197002 -7.3493581
-0.98268986 16.705729 -7.3491201
-1.001931 16.531857 -6.1878185
-1.2355475 17.297667 7.9121885
-1.2355726 16.680231 7.9136949
-0.98261869 0.98261684 -7.3534169
-0.98353291 0.49176446 -7.2982378
-0.98353291 -2.1847777e-06 -7.2982388
-0.98353291 -0.49176612 -7.2982383
-0.98352897 -0.9835301 -7.2984772
-0.98409575 -1.476143 -7.2642674
-1.011535 -2.0230699 -5.6081605
-0.4909814 17.184345 -7.3930073
-0.49098334 16.693432 -7.392767
-0.50099224 16.532743 -6.1845908
-0.6182273 17.310362 7.9669375
-0.61823982 16.692476 7.9684486
-0.49065384 0.98130429 -7.4325418
-0.49122041 0.49121886 -7.3641529
-0.49122041 -2.0923108e-06 -7.3641548
-0.49122041 -0.49122077 -7.3641562
-0.49115911 -0.98232037 -7.3715496
-0.49136865 -1.474106 -7.3462582
-0.50308955 -2.0123591 -5.9314184
2.1060527e-23 17.171707 -7.4365888
1.5148761e-23 16.681154 -7.4363513
1.8305238e-23 16.533625 -6.1813655
2.9681756e-23 17.323172 8.0221519
1.6901061e-23 16.704739 8.0232821
2.0807872e-23 0.98004282 -7.5088463
1.7342804e-23 0.49067244 -7.4301605
2.7381985e-24 -5.4218771e-07 -7.4301634
3.0144641e-23 -0.49067655 -7.430161
1.5841911e-23 -0.98119974 -7.4392047
1.6632908e-23 -1.4722883 -7.4194469
2.3227055e-23 -2.0042109 -6.1773934
0.4902598 17.649353 -7.4801083
0.4902598 17.159094 -7.4801073
0.49026176 16.668898 -7.4798708
0.61913961 17.335909 8.0770626
0.61915213 16.717108 8.0785809
0.48948148 0.97896129 -7.5740581
0.49012792 0.49012735 -7.4960265
0.49012792 -7.2771752e-07 -7.4960241
0.49012792 -0.49013126 -7.4960232
0.49005711 -0.98011583 -7.5045743
0.49017909 -1.470539 -7.4898472
0.49969837 -1.9987966 -6.3407683
0.97979969 17.636393 -7.5235634
0.97979969 17.146494 -7.523561
0.97980362 16.65666 -7.523324
1.2391905 17.348663 8.1320572
1.2392155 16.729408 8.1335716
0.97788489 0.97788328 -7.6391268
0.97917104 0.48958462 -7.5615029
0.97917104 -2.0871167e-07 -7.5615034
0.97917104 -0.48958483 -7.5615039
0.97903359 -0.97903299 -7.5697975
0.97919458 -1.4687933 -7.5600824
0.99681842 -1.9936371 -6.4963913
1.4686211 17.623451 -7.5669537
1.4686211 17.133913 -7.5669532
1.468627 16.644436 -7.5667176
1.8601543 17.361437 8.1871319
1.8601922 16.74173 8.1886501
1.4652723 0.97684568 -7.7016959
1.467127 0.48904082 -7.6270719
1.467127 -3.3162939e-06 -7.6270709
1.467127 -0.48904267 -7.6270728
1.466933 -0.97795624 -7.6348763
1.4670506 -1.4670507 -7.6301479
1.4917322 -1.9889774 -6.637033
1.9567256 17.610533 -7.6102786
1.9567256 17.121351 -7.6102796
1.9567335 16.632233 -7.610044
2.4820335 17.374233 8.2422876
2.4820714 16.753984 8.2434282
1.9517523 0.97587472 -7.7603645
1.9540092 0.48850292 -7.6922626
1.9540092 -2.9617711e-06 -7.6922612
1.9540013 -0.48850358 -7.6924963
1.953759 -0.97688121 -7.6998081
1.9538293 -1.4653733 -7.6976867
1.9844987 -1.9845009 -6.77215
2.4441152 17.597626 -7.6535435
2.4441249 17.108871 -7.6533074
2.4441249 16.620047 -7.6533093
3.1048141 17.386957 8.2971411
3.1048772 16.766336 8.298666
2.4372649 0.97490591 -7.8189216
2.4398074 0.4879612 -7.7575412
2.4398074 -1.2453464e-06 -7.7575421
2.4398074 -0.48796126 -7.7575421
2.4395149 -0.97580659 -7.764605
2.4396708 -1.4638053 -7.7608371
2.4743695 -1.9794964 -6.9231353
2.7038217 -2.7038245 -1.3836691
2.9307792 17.584673 -7.6969824
2.9308023 17.096348 -7.6965075
2.9308023 16.60788 -7.696507
3.7285266 17.399788 8.3524599
3.7286024 16.778711 8.3539867
2.9223027 0.97409767 -7.8675056
2.924531 0.4874208 -7.8226776
2.924531 -9.6600934e-07 -7.8226771
2.924531 -0.48742291 -7.8226767
2.9242043 -0.97473568 -7.8292561
2.9246829 -1.4623417 -7.8196259
2.9639335 -1.9759575 -7.0299635
3.2217124 -2.6847594 -1.8438518
3.4167407 17.571808 -7.7401156
3.4167681 17.083838 -7.7396474
3.4167681 16.595732 -7.7396445
4.3531384 17.412552 8.4074793
4.3532271 16.791018 8.4090061
3.407002 0.97342777 -7.908052
3.4081979 0.48688379 -7.8874364
3.4081979 -1.9370966e-06 -7.8874369
3.4081841 -0.48688513 -7.8876696
3.4081161 -0.97375005 -7.8888388
3.4087279 -1.4608836 -7.8782949
3.4546657 -1.9740959 -7.0861244
3.7560215 -2.6828744 -1.8894236
3.9019921 17.558962 -7.7831922
3.9020231 17.071348 -7.7827215
3.9020388 16.583664 -7.7824836
4.9787173 17.425508 8.4633436
4.9787936 16.803427 8.4644899
3.8910489 0.97275972 -7.948307
3.8917773 0.48647231 -7.9373145
3.8917773 -2.2668544e-06 -7.9373131
3.8917773 -0.48647368 -7.9373159
3.8914673 -0.97286963 -7.9419932
3.8918705 -1.4594526 -7.9359102
3.9437737 -1.9718875 -7.1527505
4.3001175 -2.6875751 -1.7759392
4.3865342 17.546137 -7.8262005
4.386569 17.058882 -7.8257308
4.3865867 16.571548 -7.8254967
5.6052284 17.438486 8.519289
5.605257 16.815769 8.5196733
4.3704481 0.97120851 -8.0419455
4.3749204 0.48609969 -7.981967
4.3749204 -6.2203003e-07 -7.9819684
4.3749204 -0.48610312 -7.9819713
4.3745542 -0.97212595 -7.9868731
4.3743453 -1.4581171 -7.9896755
4.4284487 -1.9681993 -7.264029
4.8567905 -2.6982183 -1.5189804
4.870369 17.533325 -7.8691511
4.8704076 17.046427 -7.8686795
4.8704271 16.55945 -7.8684459
6.2326412 17.451397 8.5749407
6.2326736 16.828217 8.5753222
4.8517118 0.97034144 -8.0943575
4.8573289 0.48573071 -8.026556
4.8573289 -2.6062253e-07 -8.026557
4.8573289 -0.48573667 -8.0265541
4.8569422 -0.97139043 -8.0312223
4.8560152 -1.4568059 -8.0424156
4.9094977 -1.9638009 -7.3968182
5.4178658 -2.7089345 -1.2602755
5.353498 17.520535 -7.9120359
5.3535614 17.034058 -7.9113317
5.3535614 16.547373 -7.9113302
6.8610191 17.464415 8.631052
6.8609843 16.840595 8.6306686
5.3320947 0.96947235 -8.1469069
5.339026 0.48536497 -8.0708408
5.339026 -1.5704945e-06 -8.0708447
5.3390045 -0.48536649 -8.0710745
5.3386226 -0.97066075 -8.0752678
5.3372011 -1.4556017 -8.0908642
5.3887682 -1.9595532 -7.5249858
5.8359222 17.507765 -7.9548559
5.8359919 17.021641 -7.9541545
5.8359919 16.535309 -7.9541545
7.4902968 17.477358 8.6868658
7.4902582 16.853079 8.6864815
5.8078609 0.96797568 -8.2371321
5.819973 0.48499563 -8.1152945
5.819973 1.8454426e-07 -8.1152964
5.8199501 -0.48499766 -8.1155281
5.8195796 -0.96993262 -8.1192465
5.8179393 -1.4544857 -8.1357546
5.8662987 -1.9554331 -7.6492929
6.3176441 17.495016 -7.9976172
6.3177195 17.009243 -7.9969177
6.318172 16.524448 -7.9927135
8.1205492 17.490412 8.7431479
8.1204243 16.865496 8.7419882
6.2863917 0.96713758 -8.2878094
6.3001904 0.48462939 -8.1596785
6.3001904 -1.9464694e-06 -8.1596766
6.3001657 -0.48462796 -8.1599121
6.2998157 -0.96920323 -8.1631622
6.2979155 -1.4533677 -8.1808023
6.3418264 -1.9513322 -7.7730761
6.7986646 17.482281 -8.0403137
6.7987461 16.996866 -8.0396156
6.8043475 16.524843 -7.9913125
8.7516994 17.503397 8.7991219
8.751565 16.878019 8.797966
6.7640667 0.96629316 -8.338625
6.7796803 0.48426184 -8.2039957
6.7796803 -2.1977085e-06 -8.2039948
6.7796803 -0.48426387 -8.2039986
6.779304 -0.96847284 -8.2072449
6.7778254 -1.4523945 -8.2199888
6.8255954 -1.9501715 -7.8081088
7.278985 17.469564 -8.0829496
7.2790723 16.984501 -8.0822535
7.2905178 16.525175 -7.9901447
9.3838358 17.516493 8.8555775
9.3836908 16.890644 8.854414
7.2414832 0.96552891 -8.3847456
7.2584453 0.48389295 -8.2482462
7.2584453 -2.2056313e-06 -8.2482452
7.2584453 -0.48389658 -8.24825
7.2580996 -0.9677459 -8.2510271
7.2570639 -1.4514146 -8.2593555
7.3088183 -1.9490216 -7.8428707
7.7586079 17.456865 -8.1255255
7.7586999 16.972158 -8.1248274
7.7767382 16.525564 -7.9887438
10.016866 17.529514 8.9117222
10.016712 16.903198 8.9105597
7.7185416 0.96481723 -8.427804
7.7364845 0.48352998 -8.2924318
7.7364845 -7.3940151e-07 -8.2924328
7.7364845 -0.48353356 -8.292429
7.7361784 -0.96702248 -8.2947435
7.7359943 -1.4505012 -8.2961292
7.7865953 -1.9466505 -7.9143753
8.2375336 17.444189 -8.1680365
8.2375994 16.959763 -8.1675739
8.2629814 16.525961 -7.9873419
10.650894 17.542646 8.9683361
10.65073 16.915863 8.9671736
10.841266 16.580761 10.320096
10.786055 15.861847 9.9280653
10.726357 15.143093 9.5041704
10.677578 14.446134 9.1578074
10.642976 13.773262 8.9121056
10.610005 13.106479 8.6780081
10.597547 12.4677 8.5895367
10.594788 11.841234 8.5699444
10.592193 11.215263 8.5515203
10.589599 10.589599 8.5331001
10.587545 9.9647455 8.5185251
10.585494 9.3401423 8.5039549
10.583605 8.7159061 8.4905424
10.581932 8.092063 8.4786644
10.580259 7.4684157 8.4667912
10.57902 6.8452482 8.457984
10.57778 6.2222223 8.4491777
10.576756 5.5994596 8.4419079
10.575947 4.976913 8.4361677
10.575139 4.3544664 8.4304285
10.574762 3.7322674 8.4277477
10.57433 3.110096 8.4246893
10.574223 2.4880512 8.4239254
10.574223 1.8660365 8.4239254
8.1948948 0.96410453 -8.4707956
8.215167 0.48324326 -8.3268499
8.215167 -4.3295813e-07 -8.3268528
8.215167 -0.48324668 -8.3268509
8.2148752 -0.9664557 -8.3289309
8.2148752 -1.4496855 -8.3289309
8.2620277 -1.9440078 -7.9941149
8.715764 17.431528 -8.2104874
8.7158337 16.947453 -8.2100248
8.7492132 16.526291 -7.9861746
11.276028 20.672718 8.9590244
11.270476 20.036406 8.9217997
11.265335 19.401407 8.8873138
11.260371 18.767284 8.8540277
11.255527 18.133905 8.821538
11.250976 17.501516 8.7910099
10.945474 16.418211 6.7422738
10.942695 15.806114 6.7236333
11.14994 15.486027 8.1134615
11.234354 14.979137 8.6795492
11.230737 14.350384 8.6552935
11.227123 13.722037 8.6310549
11.223969 13.094631 8.6099033
11.220931 12.4677 8.5895367
11.217954 11.841174 8.5695629
11.215262 11.215263 8.5515203
11.212516 10.589599 8.5331001
11.210343 9.9647455 8.5185251
11.20817 9.3401423 8.5039549
11.20617 8.7159061 8.4905424
11.204399 8.092063 8.4786644
11.202628 7.4684157 8.4667912
11.201315 6.8452482 8.457984
11.199944 6.2221932 8.4487972
11.19886 5.5994296 8.4415255
11.198005 4.9768891 8.4357843
11.197206 4.3544664 8.4304285
11.196807 3.7322674 8.4277477
11.19635 3.110096 8.4246893
11.196236 2.4880512 8.4239254
11.196236 1.8660365 8.4239254
8.6707516 0.96341515 -8.512351
8.6946955 0.48303637 -8.351778
8.6946955 -9.2434237e-07 -8.3517752
8.6946955 -0.48304 -8.3517752
8.6944551 -0.9660508 -8.3533936
8.6932163 -1.4488705 -8.3616962
8.7406187 -1.9423618 -8.0438099
11.955843 25.799452 9.29809
11.948331 25.154381 9.2503557
11.940889 24.510248 9.2030773
11.934071 23.868141 9.1597605
11.927444 23.227125 9.1176586
9.1933012 17.418888 -8.2528772
9.1933746 16.935163 -8.2524137
9.2355013 16.526686 -7.9847722
11.902536 20.672825 8.9594107
11.896676 20.036507 8.9221821
11.891249 19.401506 8.887702
11.886008 18.76738 8.8544121
11.880835 18.133905 8.821538
10.97176 16.168907 3.0460124
10.97176 15.591446 3.046015
11.300679 15.464088 5.1357036
11.769442 15.486105 8.113842
11.858484 14.979137 8.6795492
11.854666 14.350384 8.6552935
11.850852 13.722037 8.6310549
11.847523 13.094631 8.6099033
11.844255 12.467636 8.5891523
11.841173 11.841174 8.5695629
11.838332 11.215263 8.5515203
11.835433 10.589599 8.5331001
11.833139 9.9647455 8.5185251
11.830847 9.3401423 8.5039549
11.828735 8.7159061 8.4905424
11.826866 8.092063 8.4786644
11.824997 7.4684157 8.4667912
11.82355 6.8452148 8.4576006
11.822164 6.2221932 8.4487972
11.82102 5.5994296 8.4415255
11.820175 4.976913 8.4361677
11.819272 4.3544664 8.4304285
11.818851 3.7322674 8.4277477
11.818429 3.1101131 8.4250698
11.818249 2.4880512 8.4239254
11.818249 1.8660365 8.4239254
9.1465778 0.96279705 -8.5497198
9.1738148 0.48282981 -8.3766804
9.1738148 -5.1406391e-07 -8.3766794
9.1738148 -0.48283267 -8.3766804
9.1735611 -0.96563703 -8.378294
9.1716022 -1.4481494 -8.3907337
9.2184353 -1.9407259 -8.0931921
12.585098 25.799452 9.29809
12.577385 25.154768 9.2515306
12.569551 24.510624 9.2042522
12.562309 23.868385 9.1605396
12.555139 23.227011 9.1172676
9.6701078 17.406191 -8.2954359
9.6701841 16.922823 -8.2949734
9.7217741 16.527016 -7.983602
12.528856 20.672611 8.9586382
12.522882 20.036612 8.9225731
10.993743 16.490612 -0.30659041
10.993743 15.940925 -0.3065902
11.022626 15.431676 -0.13226967
11.439765 15.443684 2.3853881
11.895452 15.464088 5.1357036
12.440263 1.8660365 8.4239254
9.6222858 0.96222663 -8.5840673
9.6525631 0.48262879 -8.4013329
9.6525631 -1.6180949e-06 -8.4013319
9.6525631 -0.48262975 -8.401329
9.652257 -0.96522737 -8.4031734
9.6496639 -1.4474525 -8.4188261
9.6954098 -1.9390832 -8.142724
10.14626 17.393589 -8.3377008
10.146341 16.910566 -8.3372402
10.208106 16.527407 -7.9822035
11.006854 16.248211 -3.3909023
11.006381 15.7234 -3.3936179
11.172759 15.429047 -2.4372604
11.573757 15.431676 -0.13226967
12.011753 15.443684 2.3853881
10.451489 5.4745874 -6.5832028
10.452299 4.977283 -6.5785499
10.453109 4.4799008 -6.5738969
10.098347 0.96174502 -8.6131172
10.130865 0.48242056 -8.4261932
10.130865 -6.3532678e-07 -8.4261923
10.130865 -0.48242387 -8.4261923
10.130586 -0.96481961 -8.4278002
10.127584 -1.4467968 -8.445055
10.177917 -1.9386507 -8.1557331
10.621724 17.381001 -8.3799076
10.621766 16.898264 -8.3796768
10.694463 16.527803 -7.9808021
11.014597 16.521893 -6.2242708
10.856818 15.791736 -7.0899768
10.814942 15.239234 -7.3197489
10.780824 14.701123 -7.506948
10.745158 14.164071 -7.7026391
10.707167 13.627302 -7.911098
10.67733 13.103994 -8.0748034
10.647998 12.583998 -8.2357435
10.619414 12.067515 -8.392581
10.600471 11.564149 -8.4965172
10.589856 11.071212 -8.554759
10.58994 10.589937 -8.5543022
10.590065 10.108697 -8.5536165
10.590148 9.6274052 -8.5531578
10.590274 9.1461449 -8.5524702
10.590357 8.664834 -8.5520096
10.590441 8.1835194 -8.5515528
10.590524 7.7021976 -8.5510941
10.590649 7.2208953 -8.5504074
10.590733 6.7395539 -8.5499477
10.590858 6.2582326 -8.5492611
10.590983 5.7768993 -8.5485744
10.591066 5.2955298 -8.5481138
10.59115 4.8141565 -8.547657
10.591192 4.3327589 -8.5474291
10.591317 3.851388 -8.5467415
10.591401 3.3699884 -8.5462818
10.591526 2.8885963 -8.5455952
10.59161 2.4071829 -8.5451374
10.591735 1.9257698 -8.5444517
10.591819 1.4443371 -8.543993
10.575805 0.96143645 -8.6318588
10.608803 0.48221555 -8.4507999
10.608803 -1.1668682e-06 -8.4508009
10.608803 -0.48221964 -8.4508038
10.608468 -0.96440667 -8.4526396
10.605661 -1.4462291 -8.4680386
10.661734 -1.9384977 -8.1603785
11.303026 20.640305 -7.3381391
11.24194 20.039978 -7.6587424
11.184938 19.452068 -7.9578958
11.131997 18.875998 -8.2357426
11.079512 18.305279 -8.5112028
11.069817 17.807964 -8.5620918
11.069904 17.326807 -8.5616302
11.06999 16.845638 -8.5611715
11.070078 16.364462 -8.5607166
11.070209 15.883341 -8.5600281
11.070296 15.40215 -8.5595713
11.070384 14.920952 -8.5591125
11.070516 14.439801 -8.5584249
11.070601 13.958585 -8.5579662
11.070733 13.477415 -8.5572805
11.07082 12.996179 -8.5568209
11.070951 12.514986 -8.5561342
11.071082 12.033784 -8.5554466
11.071125 11.552479 -8.5552177
11.071213 11.071212 -8.554759
11.071301 10.589937 -8.5543022
11.071387 10.108656 -8.5538454
11.071518 9.6274052 -8.5531578
11.071649 9.1461449 -8.5524702
11.071736 8.664834 -8.5520096
11.071824 8.1835194 -8.5515528
11.071912 7.7021976 -8.5510941
11.072042 7.2208953 -8.5504074
11.072129 6.7395539 -8.5499477
11.07226 6.2582326 -8.5492611
11.072392 5.7768993 -8.5485744
11.072479 5.2955298 -8.5481138
11.072566 4.8141565 -8.547657
11.07261 4.3327589 -8.5474291
11.072741 3.851388 -8.5467415
11.072828 3.3699884 -8.5462818
11.072916 2.8885841 -8.5458241
11.073047 2.4071829 -8.5451374
11.073133 1.92576 -8.5446796
11.073265 1.4443371 -8.543993
11.052781 0.96111017 -8.6514988
11.086292 0.48201063 -8.4756212
11.086292 -1.63972e-06 -8.4756193
11.086292 -0.4820157 -8.4756193
11.085986 -0.96400255 -8.4772272
11.083361 -1.4456558 -8.4910069
11.145473 -1.9383452 -8.1650171
11.743695 23.976709 -7.5934777
11.670543 23.341085 -7.9614019
11.595726 22.708298 -8.3377028
11.550157 22.1378 -8.5668983
11.550247 21.656713 -8.5664415
11.550339 21.175619 -8.5659838
11.550429 20.694519 -8.565526
11.550567 20.21349 -8.5648403
11.550657 19.732374 -8.5643787
11.550795 19.251322 -8.5636911
11.550885 18.770187 -8.5632353
11.551023 18.28912 -8.5625486
11.551112 17.807964 -8.5620918
11.551204 17.326807 -8.5616302
11.551294 16.845638 -8.5611715
11.551386 16.364462 -8.5607166
11.551522 15.883341 -8.5600281
11.551614 15.40215 -8.5595713
11.551704 14.920952 -8.5591125
11.551842 14.439801 -8.5584249
11.551932 13.958585 -8.5579662
11.55207 13.477415 -8.5572805
11.552205 12.99623 -8.556592
11.552298 12.514986 -8.5561342
11.552387 12.033736 -8.5556774
11.552479 11.552479 -8.5552177
11.55257 11.071212 -8.554759
11.552661 10.589937 -8.5543022
11.552752 10.108656 -8.5538454
11.552889 9.6274052 -8.5531578
11.55298 9.1461067 -8.5526972
11.553117 8.664834 -8.5520096
11.553208 8.1835194 -8.5515528
11.553345 7.7022285 -8.5508652
11.553436 7.2208953 -8.5504074
11.553572 6.739583 -8.5497208
11.553664 6.2582326 -8.5492611
11.5538 5.7768993 -8.5485744
11.553891 5.2955298 -8.5481138
11.553982 4.8141565 -8.547657
11.554028 4.3327589 -8.5474291
11.554164 3.851388 -8.5467415
11.554255 3.3699884 -8.5462818
11.554347 2.8885841 -8.5458241
11.554483 2.4071829 -8.5451374
11.554575 1.92576 -8.5446796
11.554666 1.4443318 -8.5442181
11.529433 0.960783 -8.6711273
11.563375 0.48180607 -8.5004177
11.563375 -1.0559753e-06 -8.5004187
11.563375 -0.48180819 -8.5004196
11.563056 -0.9635886 -8.5020227
11.561185 -1.4451494 -8.5114307
11.629136 -1.9381921 -8.1696625
12.030986 24.061972 -8.5689592
12.031081 23.580917 -8.5685043
12.031176 23.099857 -8.5680428
12.031271 22.618788 -8.567584
12.031413 22.1378 -8.5668983
12.031508 21.656713 -8.5664415
12.031603 21.175619 -8.5659838
12.031698 20.694519 -8.565526
12.031839 20.21349 -8.5648403
12.031935 19.732374 -8.5643787
12.032078 19.251322 -8.5636911
12.032172 18.770187 -8.5632353
12.032314 18.28912 -8.5625486
12.032409 17.807964 -8.5620918
12.032504 17.326807 -8.5616302
12.032598 16.845638 -8.5611715
12.032694 16.364462 -8.5607166
12.032788 15.88328 -8.560257
12.032931 15.40215 -8.5595713
12.033026 14.920952 -8.5591125
12.033168 14.439801 -8.5584249
12.033311 13.95864 -8.5577383
12.033453 13.477467 -8.5570517
12.033547 12.99623 -8.556592
12.033643 12.514986 -8.5561342
12.033737 12.033736 -8.5556774
12.033832 11.552479 -8.5552177
12.033927 11.071212 -8.554759
12.034021 10.589937 -8.5543022
12.034117 10.108656 -8.5538454
12.03426 9.6274052 -8.5531578
12.034354 9.1461067 -8.5526972
12.034496 8.664834 -8.5520096
12.034591 8.1835194 -8.5515528
12.034734 7.7022285 -8.5508652
12.034829 7.2208953 -8.5504074
12.03497 6.739583 -8.5497208
12.035066 6.2582326 -8.5492611
12.035209 5.7768993 -8.5485744
12.035303 5.2955298 -8.5481138
12.035398 4.8141565 -8.547657
12.035445 4.3327589 -8.5474291
12.035588 3.851388 -8.5467415
12.035683 3.3699884 -8.5462818
12.035778 2.8885841 -8.5458241
12.035921 2.4071829 -8.5451374
12.036016 1.92576 -8.5446796
12.036111 1.4443318 -8.5442181
12.005717 0.96045619 -8.6909704
12.040098 0.48160261 -8.5249672
12.040098 -1.1336425e-07 -8.5249653
12.040098 -0.4816055 -8.5249643
12.039719 -0.96317917 -8.5267973
12.039196 -1.4447049 -8.5293198
12.103788 -1.9366088 -8.2174397
12.512226 24.061972 -8.5689592
12.512324 23.580917 -8.5685043
12.512424 23.099857 -8.5680428
12.512522 22.618788 -8.567584
12.51267 22.1378 -8.5668983
12.512768 21.656713 -8.5664415
12.512867 21.175619 -8.5659838
12.512965 20.694519 -8.565526
12.513113 20.21349 -8.5648403
12.513213 19.732374 -8.5643787
12.513361 19.251322 -8.5636911
12.513459 18.770187 -8.5632353
12.513607 18.28912 -8.5625486
12.517455 1.92576 -8.5446796
12.517555 1.4443318 -8.5442181
12.481331 0.96010047 -8.7123957
12.537083 0.48219386 -8.453558
12.53832 -2.7200169e-06 -8.4478111
12.538271 -0.48224297 -8.4480429
12.538271 -0.96448517 -8.4480419
12.5462 -1.4476417 -8.411231
