# .PCD v0.7 - Point Cloud Data file format
VERSION 0.7
FIELDS x y z
SIZE 4 4 4
TYPE F F F
COUNT 1 1 1
WIDTH 1507
HEIGHT 1
VIEWPOINT 0 0 0 1 0 0 0
POINTS 1507
DATA ascii
-10.407786 13.877048 3.1364613
-10.384722 13.269362 2.9817848
-10.359413 12.661506 2.8120697
-10.338993 12.062159 2.6751266
-10.375504 11.528337 2.9199715
-10.368162 10.944171 2.8707366
-10.359853 10.359854 2.8150139
-10.353118 9.7779417 2.76985
-10.345758 9.1962309 2.7204959
-10.340306 8.6169224 2.6839333
-10.334326 8.0378084 2.6438286
-10.330149 7.4606633 2.6158111
-10.324519 6.8830109 2.5780625
-10.315263 6.303771 2.5159919
-10.306701 5.7259431 2.4585674
-10.298731 5.1493649 2.4051223
-10.292027 4.5742335 2.3601665
-10.28384 3.9992683 2.3052621
-10.276674 3.4255588 2.2572091
-10.269088 2.8525231 2.2063284
-10.268176 2.2818148 2.2002192
-10.271824 1.7119708 2.2246757
-10.267409 1.1408228 2.195071
-10.266737 0.57037157 2.1905673
-10.271248 -1.5333095e-06 2.2208149
-10.27 -0.57055545 2.2124436
-10.268704 -1.1409706 2.203758
-10.267505 -1.711253 2.1957147
-10.267457 -2.2816584 2.195394
-10.267889 -2.8521934 2.1982863
-10.268369 -3.4227905 2.2015033
-10.2688 -3.9934249 2.2044017
-10.26928 -4.5641255 2.2076166
-10.268464 -5.1342335 2.2021489
-10.267457 -5.7041454 2.1953933
-10.266449 -6.273942 2.1886353
-10.265442 -6.8436289 2.1818831
-10.276483 -7.421905 2.2559221
-10.28957 -8.0030012 2.3436863
-10.302304 -8.5852528 2.429081
-10.315069 -9.168952 2.5146887
-10.327867 -9.7540979 2.6005101
-10.340696 -10.340697 2.6865475
-10.352192 -10.927316 2.7636359
-10.363517 -11.51502 2.8395851
-10.374916 -12.10407 2.9160316
-10.386292 -12.694358 2.992317
-10.397741 -13.286004 3.0690987
-10.407688 -13.876916 3.1358018
-10.417357 -14.468553 3.2006483
-10.427292 -15.061645 3.2672722
-10.437246 -15.655869 3.3340213
-10.296125 -16.016197 2.3876493
-10.252799 -16.518398 2.0970974
-10.256053 -17.093424 2.1189182
-10.469814 -18.031347 3.5524325
-10.476902 -18.625605 3.5999637
-10.483999 -19.220665 3.6475575
-10.489904 -19.814262 3.6871555
-10.495415 -20.407751 3.7241127
-10.500831 -21.001663 3.7604327
-10.506051 -21.595774 3.7954421
-10.511277 -22.190474 3.8304865
-10.514898 -22.78228 3.8547695
-10.517968 -23.373262 3.8753583
-10.52104 -23.96459 3.8959544
-10.524213 -24.556499 3.9172435
-10.527541 -25.149128 3.9395545
-10.027361 18.285185 4.5408597
-9.9702835 17.594614 4.135571
-9.9179726 16.918894 3.7641346
-9.8707123 16.257641 3.4285524
-9.8257608 15.605618 3.1093714
-9.7854128 14.965925 2.8228748
-9.7509804 14.339676 2.5783865
-9.720521 13.723089 2.3621035
-9.6930571 13.114135 2.1670952
-9.6710625 12.515491 2.0109155
-9.6501093 11.920719 1.8621385
-9.634655 11.334889 1.752404
-9.6250944 10.757457 1.6845136
-9.6167545 10.182446 1.625297
-9.6098528 9.6098547 1.5762973
-9.6053171 9.0402975 1.5440874
-9.5963907 8.4674044 1.4807014
-9.5936852 7.900682 1.4614891
-9.5874815 7.3316035 1.4174368
-9.5809317 6.7630091 1.3709325
-9.5750971 6.1956496 1.329506
-9.5654774 5.6267505 1.2611958
-9.5552168 5.0586414 1.1883453
-9.5525789 4.4953303 1.16961
-9.555789 3.9347372 1.1924038
-9.5776157 3.3803353 1.3473853
-9.5700207 2.8147125 1.2934537
-9.5627451 2.2500553 1.2417992
-9.5572405 1.6865711 1.2027124
-9.5533266 1.123919 1.1749177
-9.5525351 0.56191236 1.1692992
-9.5564489 -1.3154336e-06 1.1970934
-9.5660067 -0.56270665 1.2649552
-9.5807543 -1.1271482 1.3696727
-9.5994091 -1.6940162 1.5021338
-9.6153297 -2.2624321 1.6151792
-9.631258 -2.8327241 1.7282772
-9.6473732 -3.4049563 1.842712
-9.6634979 -3.9790866 1.9572052
-9.6794958 -4.5550594 2.0708053
-9.6940985 -5.1321716 2.1744874
-9.708745 -5.7110291 2.2784882
-9.7233896 -6.2916069 2.3824782
-9.7376223 -6.8736191 2.4835374
-9.7516222 -7.4571242 2.5829422
-9.764513 -8.0413656 2.6744747
-9.7774382 -8.6271515 2.766253
-9.7899351 -9.2140589 2.8549929
-9.8021412 -9.802145 2.9416625
-9.8143778 -10.391696 3.028547
-9.8251562 -10.981059 3.105078
-9.8358173 -11.571552 3.1807871
-9.8465033 -12.163329 3.2566571
-9.8573055 -12.756514 3.3333609
-9.8682251 -13.351128 3.4108932
-9.8774767 -13.944674 3.4765851
-9.8865566 -14.539056 3.5410633
-9.895606 -15.134459 3.6053245
-9.9047203 -15.731027 3.6700342
-9.7130156 -15.997911 2.3088133
-9.466877 -16.149382 0.56107628
-9.4621305 -16.697878 0.52736801
-9.9357758 -18.118183 3.8905525
-9.9428673 -18.715988 3.940908
-9.9498749 -19.314465 3.9906569
-9.9550762 -19.910154 4.0275946
-9.9600439 -20.505976 4.0628695
-9.4890423 18.385021 4.9295964
-9.432003 17.685003 4.4992638
-9.3787947 16.999065 4.0978413
-9.3336706 16.333923 3.7574034
-9.2874317 15.672543 3.4085639
-9.2462425 15.025146 3.0978124
-9.2065887 14.385295 2.7986431
-9.1707153 13.756071 2.5280037
-9.1371717 13.134686 2.2749379
-9.104722 12.518991 2.0301218
-9.0752831 11.911306 1.8080211
-9.047123 11.308902 1.5955725
-9.0211782 10.712648 1.3998327
-8.9969149 10.121528 1.2167819
-8.975131 9.5360746 1.0524369
-8.9568596 8.9568586 0.91459137
-8.9386225 8.3799572 0.77699482
-8.920825 7.8057227 0.6427269
-8.9057369 7.2359109 0.5288949
-8.8928852 6.669663 0.43193951
-8.8815651 6.1060739 0.34653139
-8.8690643 5.5431652 0.25222462
-8.8595715 4.9835076 0.18060876
-8.8547535 4.4273763 0.1442506
-9.0271397 3.9493721 1.4448085
-9.0570221 3.3963821 1.6702538
-9.0485477 2.8276715 1.6063195
-9.0425997 2.2606483 1.561451
-8.8310957 1.6558292 -0.034225166
-8.832653 1.1040804 -0.02247989
-8.8342505 0.55213904 -0.010422865
-8.8271856 -2.6012606e-06 -0.063729003
-8.800581 -0.55003661 -0.26444322
-9.0613079 -1.1326661 1.7025849
-9.0784883 -1.7022192 1.8322051
-9.0937872 -2.273447 1.9476238
-9.1089249 -2.8465402 2.0618284
-9.1240702 -3.4215267 2.1760936
-9.139266 -3.9984314 2.2907431
-9.1544275 -4.5772161 2.4051235
-9.1683054 -5.1571732 2.5098228
-9.1820087 -5.7387586 2.6132085
-9.1952343 -6.3217235 2.7129841
-9.2084541 -6.9063425 2.8127224
-9.2216692 -7.4926076 2.9124212
-9.2339172 -8.0796785 3.0048273
-9.2461557 -8.668272 3.0971537
-9.2584686 -9.2584696 3.1900525
-9.270772 -9.8501968 3.2828679
-9.2828426 -10.443198 3.3739355
-9.2929544 -11.035384 3.4502292
-9.3030891 -11.628862 3.5266845
-9.509367 -14.858387 5.082932
-9.3720903 -15.229648 4.0472598
-9.3718214 -15.814948 4.0452251
-9.1396513 -15.994393 2.2936485
-8.8405676 -16.023529 0.037231106
-8.7107563 -16.33267 -0.94211781
-8.7071838 -16.870171 -0.9690671
-8.8882055 17.776411 4.8670588
-8.8345251 17.080084 4.4350739
-8.7911844 16.41021 4.0862956
-8.7462626 15.743274 3.7247827
-8.7056017 15.089708 3.3975704
-8.6682291 14.447047 3.0968242
-8.6326408 13.812225 2.8104327
-8.6008568 13.187977 2.5546489
-8.5698662 12.569138 2.3052616
-8.5411301 11.957581 2.0740092
-8.5144463 11.352595 1.8592706
-8.4891481 10.752919 1.6556847
-8.4652119 10.158251 1.4630667
-8.4422665 9.5679016 1.2784183
-8.4203367 8.9816904 1.1019344
-8.4004459 8.4004469 0.94186497
-8.3810701 7.822331 0.78594476
-8.3635025 7.2483678 0.64457512
-8.3461609 6.6769261 0.50501627
-8.3302164 6.1088238 0.37670532
-8.3161449 5.544096 0.26346684
-8.3024969 4.9814954 0.1536424
-8.3042288 4.4289193 0.1675785
-8.5044432 3.96874 1.7787715
-8.5311041 3.4124389 1.9933254
-8.5239973 2.8413317 1.9361273
-8.0940428 2.1584122 -1.5238788
-8.0336828 1.6067351 -2.0096116
-8.0294914 1.0705975 -2.0433383
-8.0294571 0.53529578 -2.0436242
-8.0294571 -1.2720204e-06 -2.0436237
-8.0114727 -0.53410077 -2.188344
-8.5353584 -1.1380491 2.0275602
-8.5524588 -1.7104948 2.1651671
-8.56674 -2.2844646 2.280098
-8.58111 -2.8603723 2.3957388
-8.5954885 -3.4381974 2.5114448
-8.6098728 -4.0179439 2.627212
-8.6242266 -4.5995874 2.7427123
-8.6367531 -5.182055 2.8435216
-8.916811 -14.861353 5.0972509
-8.8284788 -15.302698 4.3864088
-8.8278828 -15.890188 4.3816109
-8.2827463 -16.013311 -0.0053018276
-8.0121737 -16.024351 -2.1827033
-7.9876771 -16.507868 -2.3798368
-7.9861798 -17.037184 -2.3918912
-8.341526 17.874697 5.2625365
-8.2878561 17.167702 4.7997808
-8.2429333 16.485865 4.4124455
-8.2006187 15.815478 4.0476003
-8.1602945 15.154832 3.6999152
-8.1252279 14.509336 3.3975708
-8.0905771 13.869557 3.098803
-8.0601711 13.241709 2.8366339
-8.0309744 12.620103 2.5848908
-8.0028496 12.004274 2.3423932
-7.9776373 11.396625 2.125016
-7.9544349 10.795303 1.9249568
-7.9317341 10.197943 1.729228
-7.9102249 9.6052732 1.5437729
-7.8908343 9.0180969 1.3765841
-7.8723001 8.4346066 1.216782
-7.8549356 7.8549352 1.067059
-7.8402004 7.2801838 0.94000596
-7.823514 6.7058673 0.79613453
-7.8085032 6.135252 0.66670686
-7.7980299 5.5700216 0.57640642
-7.7858119 5.0051627 0.4710584
-7.7873721 4.4499259 0.48451328
-7.9662604 3.9831285 2.0269184
-8.0967474 3.4700341 3.1520007
-7.3239737 2.0925617 -3.5109942
-7.2962136 1.5634742 -3.750356
-7.2955589 1.0422205 -3.7559931
-7.2955589 0.5211103 -3.7559962
-7.2955589 -4.1410539e-07 -3.7559936
-7.2797441 -0.51998317 -3.8923523
-8.3256807 -14.86729 5.1259146
-8.2794256 -15.376076 4.7270913
-8.2787037 -15.966072 4.7208676
-7.4808431 -16.030382 -2.1584365
-7.2955904 -16.154522 -3.7557263
-7.2955904 -16.675636 -3.7557259
-7.789494 17.975756 5.6691532
-7.7383013 17.262367 5.1938095
-7.6917634 16.566875 4.7616882
-7.6512008 15.890952 4.3850374
-7.6110625 15.222122 4.0123401
-7.5775247 14.572161 3.7009265
-7.5450702 13.929359 3.3995707
-7.5150261 13.295815 3.1206043
-7.4876933 12.671482 2.8667998
-7.4605579 12.051669 2.614835
-7.4370313 11.441586 2.396385
-7.4154544 10.837971 2.196034
-7.3940716 10.237945 1.997483
-7.3741469 9.6431141 1.8124776
-7.3570228 9.0547943 1.65347
-7.3398418 8.4690485 1.4939359
-7.3243632 7.8877764 1.3502096
-7.3113399 7.3113394 1.2292852
-7.2963834 6.7351246 1.0904083
-7.2830253 6.1625581 0.96637338
-7.2736135 5.5950856 0.8789776
-7.2641931 5.0290575 0.79150176
-7.2650909 4.4708242 0.79983622
-7.4217653 3.9963336 2.254631
-7.5412703 3.4805841 3.3642848
-6.617743 2.0362263 -5.2110634
-6.609201 1.5252 -5.2903857
-6.6109352 1.0170659 -5.274281
-6.6109352 0.50853413 -5.2742844
-6.6109076 -1.4920662e-06 -5.2745357
-6.5987873 -0.50760126 -5.387084
-7.7324963 -14.870185 5.1399012
-7.7250066 -15.450016 5.0703621
-6.9453731 -16.027786 -2.1688783
-6.7226567 -16.030954 -4.2368932
-6.6325097 -16.326181 -5.0739455
-6.6324825 -16.836304 -5.0742049
-7.2302208 18.075552 6.0707045
-7.1815968 17.355524 5.5815816
-7.1370277 16.653065 5.1332564
-7.099195 15.973189 4.7526855
-7.0594478 15.29547 4.3528581
-7.0270448 14.639679 4.0269165
-6.9964089 13.992816 3.7187355
-6.9666672 13.35278 3.4195569
-6.940825 12.724845 3.159611
-6.9151745 12.101553 2.9015818
-6.8924356 11.487391 2.6728423
-6.8722296 10.881032 2.4695895
-6.8522696 10.278405 2.2688153
-6.834785 9.6826105 2.0929275
-6.8188167 9.0917549 1.9322969
-6.8029227 8.5036535 1.7724153
-6.7893357 7.9208922 1.6357397
-6.7772131 7.3419819 1.5137975
-6.764853 6.7648506 1.3894651
-6.7532225 6.1904526 1.2724665
-6.7444553 5.6203785 1.1842812
-6.7358046 5.0518522 1.097262
-6.7378492 4.4918976 1.1178281
-6.8768744 4.0115099 2.516314
-6.9824381 3.4912181 3.5781963
-5.9671965 1.9890635 -6.6343431
-5.9643297 1.4910803 -6.6631765
-5.9645724 0.99409503 -6.6607337
-5.9645724 0.49704805 -6.6607361
-5.9645724 -1.6991045e-06 -6.6607337
-5.9618545 -0.49682131 -6.6880784
-7.1646695 -14.926397 5.4113097
-7.165195 -15.52459 5.4165959
-6.2077909 -16.036793 -4.2141509
-6.0121531 -16.03241 -6.1821103
-5.9974113 -16.492886 -6.3303981
-5.9973869 -16.992598 -6.3306451
-6.6658936 18.179708 6.4898028
-6.6193404 17.450989 5.9789362
-6.5764899 16.740156 5.5087123
-6.5400777 16.052917 5.1091318
-6.5024285 15.369372 4.6959844
-6.4717212 14.70846 4.3590174
-6.4428482 14.057121 4.0421734
-6.414722 13.412599 3.7335246
-6.3908219 12.781643 3.4712446
-6.3670683 12.155312 3.2105854
-6.3457088 11.537652 2.9761894
-6.3268456 10.928189 2.7691958
-6.3083024 10.322675 2.5657015
-6.2922535 9.72439 2.3895915
-6.2772846 9.1305933 2.2253218
-6.2625027 8.5397739 2.0631135
-6.2504072 7.9550648 1.93038
-6.2390828 7.3734608 1.8061144
-6.2277713 6.7939296 1.6819795
-6.2192922 6.2192903 1.5889355
-6.2117848 5.6470737 1.5065478
-6.2042665 5.0762143 1.4240447
-6.2056136 4.5131721 1.4388309
-6.3281579 4.027009 2.7835884
-6.4201498 3.5018983 3.7930841
-5.3471885 1.9444295 -7.9812679
-5.3498511 1.4590473 -7.9520497
-5.351727 0.97303993 -7.9314661
-5.351727 0.48651829 -7.9314628
-5.351727 -3.7258647e-07 -7.9314642
-5.3377528 -0.48525113 -8.084816
-6.5997257 -14.999377 5.7636981
-6.5999527 -15.599891 5.7661901
-5.6920662 -16.041281 -4.1966805
-5.5134258 -16.039057 -6.1570373
-5.3878388 -16.163517 -7.5351882
-5.3878174 -16.653254 -7.5354242
-5.3886385 -17.14567 -7.5264096
-6.0950561 18.285168 6.9141326
-6.0523334 17.551767 6.398428
-6.0100284 16.828077 5.8877578
-5.9745607 16.13131 5.4596243
-5.9400291 15.444072 5.0427918
-5.9108982 14.777242 4.6911492
-5.8838935 14.121345 4.3651791
-5.8577814 13.472896 4.0499735
-5.8358583 12.838888 3.7853401
-5.814043 12.209488 3.5220084
-5.7941775 11.588349 3.2822058
-5.776906 10.976118 3.0737169
-5.7604704 10.368846 2.8753283
-5.7455883 9.7674971 2.6956813
-5.7318587 9.1709709 2.5299523
-5.7189174 8.5783758 2.3737435
-5.707716 7.9908013 2.2385254
-5.6973023 7.4064918 2.1128154
-5.6876678 6.8252006 1.9965236
-5.6801791 6.2481971 1.9061302
-5.6739497 5.6739497 1.8309323
-5.6675758 5.1008158 1.7539914
-5.6683388 4.5346694 1.763203
-5.7750201 4.0425143 3.0509589
-5.8544388 3.5126615 4.0096302
-5.0085449 2.5042713 -6.2012119
-4.7626481 1.9050597 -9.1694517
-4.7642837 1.4292845 -9.1497078
-4.7657156 0.95314127 -9.1324215
-4.7657156 0.47656995 -9.1324244
-4.7657156 -1.1119837e-06 -9.1324263
-4.7517676 -0.47517827 -9.3007879
-6.0292006 -15.073005 6.1191897
-6.0292006 -15.675923 6.1191916
-5.0140781 -16.045053 -6.1344233
-4.8603258 -16.039076 -7.990376
-4.8020978 -16.327133 -8.6932507
-4.802381 -16.808336 -8.6898308
-5.5184984 18.394997 7.3560462
-5.4784942 17.652925 6.8194962
-5.4389577 16.921202 6.2892179
-5.4059386 16.217815 5.8463578
-5.373765 15.524206 5.414834
-5.3457136 14.849207 5.0386057
-5.3203745 14.187666 4.6987514
-5.295836 13.533801 4.3696303
-5.275876 12.896584 4.1019168
-5.2560658 12.264152 3.8362191
-5.237752 11.639446 3.5905862
-5.2226658 11.025627 3.3882501
-5.2077408 10.415482 3.1880674
-5.1940541 9.8109932 3.0044978
-5.1821008 9.2126207 2.8441768
-5.1703968 8.6173267 2.6871991
-5.1601262 8.0268612 2.5494492
-5.1511765 7.4405875 2.4294071
-5.1428103 6.857079 2.317205
-5.1359119 6.2772236 2.2246792
-5.130229 5.700254 2.1484575
-5.124702 5.124701 2.0743303
-5.1258974 4.5563531 2.0903616
-5.2175822 4.0581183 3.3200648
-5.2852144 3.523474 4.2271667
-4.2531524 2.3628595 -9.6151552
-4.2071824 1.8698575 -10.231721
-4.2061033 1.4020324 -10.246194
-4.2067151 0.93482339 -10.237985
-4.2067151 0.46740946 -10.237985
-4.2067151 1.0047554e-06 -10.237988
-4.1911674 -0.46568564 -10.446518
-5.4528575 -15.146829 6.4756494
-5.4528575 -15.752701 6.4756474
-4.3766975 -16.047894 -7.9581304
-4.247694 -16.046844 -9.6883669
-4.2388783 -16.484528 -9.8066025
-4.239778 -16.959114 -9.7945385
-4.8973389 17.752853 7.2354336
-4.861774 17.016211 6.6987967
-4.8314486 16.306137 6.2412295
-4.802916 15.609477 5.8107076
-4.7771702 14.928658 5.4222341
-4.754406 14.263217 5.0787387
-4.7314668 13.602967 4.7326221
-4.7129292 12.960553 4.4529076
-4.6946492 12.323456 4.1770816
-4.6776967 11.694242 3.9212949
-4.6639605 11.076904 3.7140262
-4.6502819 10.463134 3.5076392
-4.637917 9.8555717 3.3210621
-4.6273704 9.2547398 3.1619232
-4.6168933 8.6566744 3.0038419
-4.6078978 8.0638189 2.8681114
-4.6003456 7.4755607 2.7541549
-4.5928178 6.889226 2.6405694
-4.5865421 6.3064957 2.5458732
-4.5818949 5.7273674 2.4757531
-4.5774069 5.1495814 2.4080381
-4.5782652 4.5782647 2.420985
-4.6556239 4.0736704 3.5882399
-4.7124972 3.5343716 4.446393
-3.6979361 2.3112085 -10.862153
-3.6707807 1.8353884 -11.271895
-3.6720779 1.3770275 -11.252322
-3.6726441 0.91816056 -11.243783
-3.6726441 0.45907936 -11.243785
-3.6726441 -2.9649646e-06 -11.24378
-3.6564758 -0.45706075 -11.487745
-4.9498539 -14.849563 8.0278282
-4.870841 -15.221381 6.8356166
-4.870841 -15.830237 6.8356171
-3.8918083 -16.053711 -7.9368463
-3.7755966 -16.046286 -9.6903486
-3.6969004 -16.173943 -10.877779
-3.6973343 -16.638006 -10.871234
-3.6982021 -17.104189 -10.858138
-4.3110232 17.859953 7.6812305
-4.2782216 17.112885 7.1155863
-4.2509203 16.396406 6.6447968
-4.2257824 15.695765 6.2113094
-4.2025099 15.008965 5.8099928
-4.1821103 14.338662 5.4582109
-4.161746 13.674307 5.1070337
-4.1450133 13.027182 4.8184919
-4.1288733 12.38662 4.540174
-4.1135712 11.753061 4.276298
-4.1014113 11.132403 4.0666022
-4.0892835 10.515299 3.8574715
-4.0780835 9.9039173 3.6643293
-4.0686483 9.2997665 3.5016253
-4.0592761 8.6984463 3.3400064
-4.0513101 8.1026173 3.2026343
-4.0445995 7.5113997 3.0869169
-4.0379114 6.9221315 2.971586
-4.032938 6.3374734 2.8858297
-4.0291924 5.7559872 2.8212385
-4.0253592 5.1754603 2.7551351
-4.025321 4.6003642 2.7544818
-4.0882859 4.0882831 3.8402677
-4.1399937 3.5485647 4.731935
-3.1725516 2.2661078 -11.951006
-3.1569424 1.8039657 -12.220179
-3.156919 1.3529638 -12.220579
-3.1572921 0.90208304 -12.214146
-3.1572921 0.45103991 -12.214148
-3.1587741 -1.2426186e-06 -12.188592
-3.1412318 -0.4487474 -12.491101
-4.3328786 -14.855586 8.0581198
-4.2830882 -15.296746 7.1995134
-4.2830882 -15.908617 7.1995163
-3.3056915 -16.056217 -9.6550932
-3.2102561 -16.051281 -11.300817
-3.1750267 -16.328712 -11.908322
-3.1758056 -16.786402 -11.894895
-3.717458 17.967714 8.129776
-3.6896536 17.218382 7.5703959
-3.6652122 16.493452 7.0786748
-3.6428668 15.785754 6.6291246
-3.6215799 15.089915 6.2008634
-3.6036756 14.414701 5.8406482
-3.5860174 13.746402 5.4853954
-3.5712278 13.094503 5.1878533
-3.5572679 12.450436 4.9069996
-3.5437422 11.812476 4.6348886
-3.5331967 11.188456 4.4227266
-3.5225952 10.567783 4.2094398
-3.5127308 9.9527349 4.0109849
-3.5045638 9.3455009 3.8466766
-3.4965177 8.741292 3.6848044
-3.4894726 8.1421032 3.5430665
-3.4836648 7.5479379 3.426223
-3.4781237 6.9562459 3.3147488
-3.4737203 6.3684883 3.2261539
-3.4707251 5.7845407 3.165895
-3.4676366 5.2014532 3.103755
-3.4670126 4.6226821 3.0912101
-3.5168455 4.1029859 4.0937667
-3.5663772 3.5663772 5.0902662
-2.6710825 2.2258999 -12.92167
-2.6612625 1.774175 -13.119233
-2.661195 1.3305947 -13.120594
-2.6612239 0.88707107 -13.120009
-2.6612239 0.44353536 -13.120012
-2.6621428 -3.0044223e-06 -13.101526
-2.6495101 -0.44158527 -13.355671
-2.6510348 -3.9765544 -13.325001
-2.6511021 -4.4185057 -13.323649
-2.6511595 -4.8604603 -13.32249
-2.6512268 -5.3024535 -13.321139
-2.6511307 -5.7441192 -13.323069
-2.6509774 -6.1856155 -13.326157
-2.6508238 -6.6270604 -13.329244
-3.7153087 -14.861236 8.0865374
-3.6894493 -15.372706 7.5662851
-2.7519684 -16.053152 -11.294371
-2.676626 -16.059757 -12.810144
-2.672437 -16.48003 -12.89442
-2.6730416 -16.929266 -12.882256
-3.1172438 18.080011 8.5972214
-3.0943329 17.328266 8.0441046
-3.0731483 16.595001 7.5326562
-3.0542212 15.88195 7.0757232
-3.035466 15.177329 6.6229286
-3.0201035 14.496495 6.2520442
-3.0049846 13.822927 5.887042
-2.9920681 13.165099 5.575211
-2.9799745 12.515895 5.2832489
-2.9681082 11.872433 4.9967747
-2.9591451 11.244751 4.7803798
-2.9502215 10.620794 4.5649462
-2.9417765 10.002041 4.3610744
-2.9349597 9.3918705 4.1964965
-2.9282024 8.7846041 4.0333562
-2.9221473 8.1820097 3.8871751
-2.917413 7.5852723 3.7728844
-2.9128194 6.9907641 3.6619837
-2.9090025 6.3998055 3.569829
-2.9064817 5.812963 3.508975
-2.9039655 5.227138 3.4482267
-2.903275 4.6452384 3.4315569
-2.9424007 4.1193604 4.3761334
-2.9869735 3.5843663 5.4522142
-2.1887994 2.1887977 -13.817411
-2.1820555 1.7456429 -13.980225
-2.1821177 1.3092679 -13.978717
-2.1821334 0.87285227 -13.978344
-2.1821334 0.43642503 -13.978341
-2.1821334 -1.2771881e-06 -13.978339
-2.1719553 -0.43439159 -14.224063
-2.1786523 -0.87146425 -14.062381
-2.1787145 -1.3072298 -14.06088
-2.1785123 -1.7428116 -14.06576
-2.1783338 -2.1783357 -14.070074
-2.1781547 -2.6137879 -14.074393
-2.1779838 -3.0491791 -14.078522
-2.1778052 -3.4844897 -14.082834
-2.1776576 -3.9197843 -14.086397
-2.1776962 -4.3553944 -14.08546
-2.1777353 -4.7910175 -14.084522
-2.1777897 -5.226697 -14.083209
-2.1777353 -5.6621137 -14.084522
-2.1776109 -6.0973125 -14.087522
-2.1774633 -6.5323906 -14.091087
-2.1773469 -6.9675117 -14.093896
-2.1775486 -7.4036674 -14.089024
-2.177774 -7.8399887 -14.083583
-2.1780384 -8.2765484 -14.077206
-2.1781704 -8.7126827 -14.074018
-2.1782014 -9.148447 -14.073269
-2.1778052 -9.582345 -14.082831
-2.1773236 -10.01569 -14.09446
-2.177176 -10.450445 -14.098023
-2.1770363 -10.885182 -14.101396
-2.1769197 -11.319984 -14.104205
-2.1767335 -11.754363 -14.108705
-2.1764386 -12.18806 -14.115824
-2.1765938 -12.624247 -14.112079
-2.1768889 -13.061335 -14.104957
-2.1769974 -13.497386 -14.102334
-2.1770906 -13.933382 -14.100083
-2.1771991 -14.369518 -14.097458
-2.1772459 -14.805275 -14.096334
-2.1771605 -15.240125 -14.098397
-2.1770906 -15.675053 -14.100084
-2.1770208 -16.109957 -14.101768
-2.1772382 -16.54701 -14.096522
-2.1770518 -16.981007 -14.101019
-2.1767645 -17.414118 -14.107954
-2.1764386 -17.846798 -14.115823
-2.1762524 -18.280523 -14.120318
-2.1763766 -18.716839 -14.117324
-2.1765084 -19.153276 -14.11414
-2.1765008 -19.588511 -14.114324
-2.1764386 -20.023237 -14.115825
-2.1763766 -20.457941 -14.117325
-2.5094409 18.193445 9.069375
-2.4912508 17.438755 8.5204401
-2.4737484 16.697805 7.9922638
-2.4580853 15.977556 7.519587
-2.4426072 15.266294 7.0524893
-2.4300764 14.58046 6.6743412
-2.4181764 13.904515 6.3152261
-2.40746 13.241027 5.9918275
-2.3976851 12.587844 5.6968517
-2.3878846 11.93942 5.4010878
-2.380192 11.305908 5.1689463
-2.3727908 10.677558 4.9455953
-2.3657105 10.054267 4.7319336
-2.3600745 9.4402981 4.5618501
-2.3544538 8.8291998 4.3922305
-2.3494022 8.2229061 4.2397861
-2.3456109 7.6232338 4.1253681
-2.3418767 7.0256281 4.0126767
-2.3387141 6.4314628 3.9172409
-2.3367224 5.8418045 3.8571334
-2.3347449 5.2531738 3.7974641
-2.3339975 4.6679945 3.7749021
-2.3637526 4.1365671 4.6728449
-2.401706 3.6025567 5.8181891
-1.7222819 2.1528494 -14.685246
-1.7181617 1.718161 -14.809585
-1.7181617 1.2886208 -14.809586
-1.7181678 0.85908222 -14.809404
-1.7181678 0.42954049 -14.809402
-1.7181678 -1.1438194e-06 -14.809402
-1.7090347 -0.42725891 -15.085021
-1.7178172 -0.85890943 -14.819983
-1.7181194 -1.2885908 -14.810863
-1.7184217 -1.7184249 -14.801738
-1.7183672 -2.1479621 -14.803381
-1.7181497 -2.5772252 -14.80995
-1.7179259 -3.0063703 -14.8167
-1.7177447 -3.4354925 -14.822167
-1.7176118 -3.8646295 -14.826178
-1.717636 -4.2940917 -14.825448
-1.7176661 -4.7235851 -14.824539
-1.7176903 -5.1530709 -14.823811
-1.7176601 -5.582397 -14.824719
-1.7175454 -6.0114102 -14.828187
-1.7174307 -6.4403658 -14.831649
-1.7173158 -6.8692646 -14.835113
-1.7174487 -7.2991581 -14.831103
-1.7176118 -7.7292552 -14.826179
-1.7177689 -8.1594028 -14.821441
-1.7179019 -8.5895109 -14.817429
-1.7179199 -9.0190802 -14.816881
-1.7179381 -9.4486599 -14.816335
-1.7179623 -9.8782835 -14.815604
-1.7178414 -10.30705 -14.819252
-1.7177267 -10.735792 -14.822717
-1.7176057 -11.164438 -14.826363
-1.717485 -11.593023 -14.830009
-1.7172555 -12.02079 -14.836934
-1.717026 -12.448442 -14.843855
-1.7167966 -12.875976 -14.850779
-1.7167544 -13.304848 -14.852053
-1.7168148 -13.734518 -14.850232
-1.7168812 -14.164271 -14.848229
-1.7169477 -14.594056 -14.846227
-1.7168992 -15.02287 -14.847681
-1.716833 -15.451498 -14.849684
-1.7167604 -15.880035 -14.851872
-1.7167786 -16.309397 -14.851326
-1.7170019 -16.740768 -14.844586
-1.7172314 -17.172316 -14.837659
-1.7173039 -17.602365 -14.835477
-1.7169838 -18.028332 -14.84513
-1.7166399 -18.453878 -14.855515
-1.7162899 -18.879192 -14.86607
-1.716308 -19.308468 -14.865525
-1.7162597 -19.736988 -14.866982
-1.7162114 -20.165485 -14.868438
-1.7161633 -20.593962 -14.869892
-1.7166035 -21.028395 -14.856606
-1.8938652 18.307362 9.5435514
-1.8801678 17.548231 8.9924068
-1.8669239 16.802317 8.4595137
-1.8548604 16.075453 7.9741182
-1.8429797 15.35816 7.4960737
-1.8334132 14.667306 7.111155
-1.8244092 13.987138 6.7488565
-1.8160782 13.317904 6.4136405
-1.8085905 12.660133 6.1123643
-1.801129 12.007523 5.812129
-1.7951 11.368968 5.5695457
-1.7895135 10.737078 5.344759
-1.7840571 10.109656 5.1252136
-1.7797748 9.4921331 4.9529033
-1.7755301 8.8776464 4.7821126
-1.7716141 8.2675295 4.6245413
-1.768731 7.6645012 4.5085416
-1.7658404 7.0633593 4.39223
-1.7631458 6.4648676 4.2838106
-1.7614671 5.8715572 4.2162571
-1.7598758 5.2796278 4.152235
-1.7587689 4.6900492 4.1076941
-1.7793164 4.1517363 4.9344683
-1.4994204 2.9988389 -6.3276811
-1.285442 2.1424031 -14.937505
-1.2840136 1.7120171 -14.994983
-1.2840136 1.2840129 -14.994983
-1.2840136 0.85600781 -14.994983
-1.2840316 0.42801011 -14.994258
-1.2840316 -1.9350346e-06 -14.994256
-1.2799261 -0.42664418 -15.159451
-1.285406 -0.85693991 -14.938959
-1.2860739 -1.2860748 -14.912082
-1.2867426 -1.7156599 -14.885176
-1.2874074 -2.1456816 -14.858427
-1.2880729 -2.576148 -14.831647
-1.2885804 -3.0066876 -14.811227
-1.2890203 -3.4373887 -14.793529
-1.2895831 -3.8687496 -14.770884
-1.2902191 -4.3007312 -14.745297
-1.290851 -4.7331219 -14.719867
-1.2914563 -5.1658263 -14.695509
-1.2918936 -5.5982065 -14.677914
-1.2922447 -6.0304751 -14.663794
-1.2925912 -6.462956 -14.649849
-1.2928786 -6.8953528 -14.638283
-1.2931252 -7.3277121 -14.628362
-1.2932439 -7.7594652 -14.623587
-1.2933671 -8.1913252 -14.618628
-1.2934539 -8.6230288 -14.615133
-1.2934676 -9.0542755 -14.614582
-1.2934859 -9.4855652 -14.613849
-1.2934951 -9.9167976 -14.61348
-1.2934265 -10.347413 -14.616238
-1.2933352 -10.777796 -14.619911
-1.2932439 -11.208116 -14.623588
-1.2931114 -11.638005 -14.628914
-1.292938 -12.067424 -14.635893
-1.29276 -12.49668 -14.643056
-1.2925593 -12.925594 -14.651134
-1.2922355 -13.353103 -14.664159
-1.2918572 -13.779812 -14.67938
-1.2914746 -14.206223 -14.694774
-1.2911149 -14.632638 -14.709248
-1.2906373 -15.057439 -14.728465
-1.2901554 -15.481868 -14.747854
-1.2896785 -15.906036 -14.767046
-1.2891293 -16.328972 -14.789148
-1.28844 -16.749722 -14.816881
-1.2877514 -17.170023 -14.844583
-1.2871042 -17.590429 -14.87062
-1.2864579 -18.010412 -14.896635
-1.2857895 -18.429651 -14.923526
-1.2851218 -18.848457 -14.95039
-1.2843333 -19.264999 -14.982121
-1.2834648 -19.679794 -15.017068
-1.2826018 -20.094095 -15.051789
-1.2817355 -20.507771 -15.086642
-1.2808481 -20.920523 -15.122351
-1.2706314 18.424154 10.029685
-1.2616113 17.66256 9.4852848
-1.2526029 16.910139 8.9415684
-1.2444129 16.177368 8.4472666
-1.2366802 15.458499 7.9805455
-1.2300085 14.7601 7.577878
-1.2237824 14.073498 7.2021055
-1.2178621 13.396484 6.844779
-1.2126789 12.733128 6.5319438
-1.2076471 12.076471 6.2282476
-1.203457 11.432842 5.975358
-1.1997143 10.797427 5.7494631
-1.1959947 10.165954 5.5249701
-1.1930732 9.5445843 5.3486266
-1.1902179 8.92663 5.1762962
-1.1875148 8.312602 5.0131507
-1.1855717 7.7062163 4.8958817
-1.1835089 7.1010523 4.771379
-1.1816418 6.4990277 4.6586952
-1.1805108 5.9025536 4.5904241
-1.1793818 5.3072166 4.5222888
-1.1784029 4.7136102 4.4632068
-1.1907227 4.1675277 5.2067733
-0.98493731 2.9548082 -7.2134762
-0.86013091 2.1503248 -14.74621
-0.85902345 1.7180445 -14.813051
-0.85902345 1.2885332 -14.813049
-0.85906267 0.85906059 -14.810679
-0.85912013 0.42955726 -14.807214
-0.85913527 -3.2529615e-06 -14.8063
-0.85631824 -0.42815879 -14.976321
-0.86126548 -0.86126733 -14.677727
-0.86171228 -1.2925718 -14.650763
-0.8620652 -1.7241325 -14.629466
-0.86248839 -2.1562212 -14.603922
-0.86291206 -2.5887368 -14.578352
-0.86333615 -3.0216782 -14.552757
-0.86376369 -3.4550569 -14.526952
-0.86418855 -3.8888488 -14.501308
-0.86461389 -4.323072 -14.475637
-0.86502737 -4.7576528 -14.45068
-0.86537987 -5.1922803 -14.429401
-0.86566526 -5.6268258 -14.412182
-0.86590159 -6.0613146 -14.397915
-0.86609811 -6.4957385 -14.386051
-0.86627942 -6.9302368 -14.375113
-0.86644542 -7.3647876 -14.365094
-0.86659914 -7.7993927 -14.355816
-0.86668217 -8.2334843 -14.350801
-0.86673141 -8.6673155 -14.347834
-0.86674064 -9.1007786 -14.347274
-0.86674678 -9.5342169 -14.346902
-0.86674994 -9.9676247 -14.34672
-0.86669755 -10.400373 -14.349874
-0.86663604 -10.832952 -14.353587
-0.86654997 -11.265152 -14.358783
-0.86645466 -11.697141 -14.364537
-0.86633784 -12.128733 -14.371587
-0.86619341 -12.559807 -14.380303
-0.86603367 -12.990507 -14.389946
-0.86580336 -13.419955 -14.403845
-0.86554861 -13.848778 -14.419221
-0.86530632 -14.277557 -14.433845
-0.86505491 -14.705937 -14.449015
-0.86473024 -15.132779 -14.468615
-0.86440879 -15.559361 -14.48801
-0.8640877 -15.985623 -14.5074
-0.86369342 -16.410177 -14.531192
-0.86322629 -16.832912 -14.559389
-0.86281449 -17.25629 -14.584241
-0.86241227 -17.679455 -14.608516
-0.86196774 -18.101326 -14.635342
-0.86149949 -18.522242 -14.663608
-0.86094064 -18.940697 -14.697339
-0.86037332 -19.3584 -14.731579
-0.85979164 -19.775209 -14.766682
-0.85921985 -20.191669 -14.801192
-0.85866094 -20.607862 -14.834929
-0.85802436 -21.021597 -14.873351
-0.63472778 17.772379 9.9587202
-0.63037902 17.020233 9.4337807
-0.62630463 16.283922 8.9419565
-0.62249517 15.562378 8.4821129
-0.61902034 14.856484 8.0626631
-0.61586046 14.164787 7.6812305
-0.61279416 13.481472 7.3110962
-0.61015135 12.813178 6.9920769
-0.60755539 12.15111 6.6787214
-0.60535342 11.501712 6.4129162
-0.60339683 10.861143 6.1767387
-0.60144693 10.224598 5.9413681
-0.59987777 9.5980415 5.7519526
-0.59841359 8.9762049 5.5752096
-0.59701198 8.3581676 5.4060221
-0.59597164 7.7476315 5.2804394
-0.5949291 7.1391482 5.154593
-0.59395957 6.5335526 5.0375605
-0.5933851 5.9338508 4.9682174
-0.59281462 5.33533 4.8993583
-0.59224528 4.7379618 4.8306265
-0.59771341 4.1839943 5.4906926
-0.48161152 2.889668 -8.5240488
-0.43159023 2.1579492 -14.562152
-0.4310326 1.7241292 -14.629465
-0.43105996 1.2931792 -14.626159
-0.43108889 0.86217648 -14.622668
-0.43111628 0.43111545 -14.619361
-0.43113759 -3.7183768e-06 -14.616787
-0.42968553 -0.42968658 -14.792067
-0.43284029 -0.86568218 -14.411257
-0.43310285 -1.2993098 -14.379566
-0.43328574 -1.7331446 -14.357484
-0.43349037 -2.167454 -14.332788
-0.43370593 -2.6022389 -14.306764
-0.4339202 -3.0374424 -14.280904
-0.43413463 -3.4730785 -14.255016
-0.43435085 -3.9091573 -14.228916
-0.4345611 -4.3456125 -14.203534
-0.43473905 -4.7821307 -14.182057
-0.43491715 -5.2190075 -14.160556
-0.43505815 -5.6557584 -14.143531
-0.43515739 -6.0922046 -14.131557
-0.43524894 -6.5287342 -14.120507
-0.43534049 -6.9654489 -14.109456
-0.43542591 -7.4022412 -14.099148
-0.43550977 -7.8391781 -14.089022
-0.43558121 -8.2760439 -14.080397
-0.43560299 -8.7120609 -14.077771
-0.43560609 -9.1477299 -14.077393
-0.43560764 -9.5833702 -14.077206
-0.43560919 -10.019012 -14.07702
-0.43557656 -10.453839 -14.080959
-0.43553308 -10.888328 -14.086209
-0.43548954 -11.322729 -14.091462
-0.43543985 -11.756878 -14.097463
-0.43536377 -12.190187 -14.106643
-0.43528461 -12.623256 -14.116199
-0.43520394 -13.056122 -14.125937
-0.43508142 -13.487527 -14.140725
-0.43495896 -13.918689 -14.155509
-0.43483818 -14.349663 -14.170092
-0.43470192 -14.779867 -14.186538
-0.43454102 -15.208936 -14.205962
-0.43437865 -15.637633 -14.225557
-0.43421802 -16.066069 -14.244948
-0.43400809 -16.49231 -14.270288
-0.43380454 -16.918381 -14.294859
-0.43360272 -17.344112 -14.31922
-0.43339646 -17.769258 -14.344117
-0.43313819 -18.191803 -14.375299
-0.43285409 -18.612728 -14.40959
-0.43257192 -19.033167 -14.443649
-0.432284 -19.452784 -14.478406
-0.43200099 -19.872049 -14.512565
-0.43171844 -20.290768 -14.546675
-0.43143621 -20.708941 -14.580742
-0.43109801 -21.123806 -14.621568
1.4310716e-23 17.886097 10.448979
1.6568537e-23 17.130083 9.9248819
1.6843383e-23 16.39502 9.4577532
5.7985059e-24 15.667743 8.9908524
8.2735406e-25 14.95399 8.5530529
2.6278282e-24 14.257272 8.1666088
1.2598562e-23 13.567613 7.7837405
7.2519415e-24 12.894954 7.4621339
3.4378228e-25 12.230286 7.1566014
1.1669309e-23 11.575176 6.879621
2.8225849e-24 10.930287 6.6404233
7.6825878e-24 10.287895 6.390821
4.4901793e-24 9.6562557 6.1911359
7.8918189e-24 9.0302896 6.0104561
3.9261726e-25 8.4059715 5.8181887
1.4733579e-23 7.7914424 5.687264
1.9190149e-23 7.1791654 5.5571585
2.0079514e-23 6.5691524 5.4282303
1.5737838e-23 5.9647818 5.3415928
1.0636145e-23 5.3625393 5.2642903
4.0358747e-24 4.7619157 5.1920571
2.9685038e-23 4.2006068 5.777225
1.3389798e-23 2.8664556 -8.9910631
1.0663812e-23 2.165627 -14.376781
2.0171383e-23 1.7304697 -14.438102
3.077797e-23 1.2978839 -14.436805
5.371518e-24 0.86531091 -14.433476
2.0005667e-23 0.43268347 -14.429955
9.717217e-24 -1.3343338e-06 -14.426626
1.7851782e-23 -0.43122724 -14.606312
3.3564533e-23 -0.87013745 -14.142409
5.9307178e-24 -1.3060124 -14.109832
2.1694857e-23 -1.742425 -14.077394
1.3828691e-23 -2.1793399 -14.045858
1.9833402e-23 -2.616317 -14.023497
1.2906738e-23 -3.0536661 -14.001117
1.8473792e-23 -3.4913788 -13.978907
5.4252268e-24 -3.9296377 -13.954228
-3.4412842e-24 -4.3680615 -13.932545
1.4181832e-23 -4.8068647 -13.910651
1.3224232e-23 -5.2460084 -13.888932
-7.106668e-24 -15.211878 9.8501358
1.6876218e-23 -15.846202 9.8525181
2.2434631e-23 -14.944224 -13.603019
1.4952491e-23 -15.318632 -13.827639
2.2648806e-23 -15.757098 -13.824988
0.64301127 18.004313 10.958627
0.63871568 17.245327 10.440103
0.63491595 16.507812 9.981431
0.63099802 15.774949 9.5084991
0.62748915 15.059739 9.08494
0.62414032 14.355226 8.6807032
0.62082076 13.658056 8.2799902
0.61808646 12.979816 7.9499359
0.61552513 12.310501 7.6407557
0.6131357 11.649578 7.3523283
0.61103684 10.998661 7.0989718
0.60894012 10.351983 6.8458776
0.60719883 9.7151804 6.6356831
0.60559356 9.0839062 6.4419112
0.60395497 8.4553671 6.2441115
0.60281587 7.8366046 6.1066122
0.60170186 7.2204199 5.9721341
0.60057712 6.606349 5.8363714
0.59982473 5.9982476 5.7455506
0.59907424 5.3916693 5.6549568
0.59838718 4.7870965 5.5720224
0.60247976 4.2173572 6.0660405
0.47393543 2.8436091 -9.4506321
0.43467405 2.1733685 -14.1899
0.43423963 1.7369578 -14.24234
0.43425041 1.3027503 -14.241035
0.43426281 0.86852497 -14.239544
0.43427363 0.4342711 -14.238236
0.43429214 -1.5852218e-06 -14.236004
0.43277431 -0.43277696 -14.419221
0.64067304 -6.4067302 10.676371
0.64093536 -7.0502892 10.708038
0.64120466 -7.6944551 10.740542
0.64152467 -8.3398228 10.77918
0.64183497 -8.9856911 10.816633
0.64214551 -9.632184 10.854119
0.64245635 -10.279302 10.891644
0.64276415 -10.926993 10.928797
0.64308238 -11.575484 10.967214
0.64343488 -12.225265 11.009759
0.64379108 -12.875822 11.05276
0.64414436 -13.527034 11.095399
0.64442992 -14.177459 11.129869
0.64471239 -14.828384 11.163964
0.63708925 -15.290143 10.243779
0.63712919 -15.928229 10.248594
0.64562607 -16.78628 11.274256
0.64595395 -17.440758 11.313836
0.6462822 -18.095903 11.353459
0.64661419 -18.751814 11.393539
0.64694309 -19.408297 11.433243
0.64727235 -20.065445 11.472986
0.64760196 -20.723263 11.51277
0.64793533 -21.381868 11.553012
0.439962 -14.958711 -13.551589
0.43994299 -15.398005 -13.553888
0.43994299 -15.837948 -13.553886
0.64919621 -24.020262 11.705218
0.64947599 -24.68009 11.738987
1.2861716 17.363317 10.96762
1.278448 16.61982 10.50146
1.2706909 15.883633 10.03328
1.2640474 15.168565 9.6323071
1.2572917 14.458852 9.2245617
1.250723 13.757953 8.8281097
1.2449839 13.07233 8.4817257
1.239656 12.396561 8.1601534
1.2345418 11.728148 7.8514876
1.2300767 11.070688 7.5819931
1.2256559 10.418075 7.3151789
1.2217069 9.7736559 7.0768318
1.2183664 9.1377478 6.8752222
1.2150503 8.5053501 6.6750689
1.2126186 7.8820205 6.5283089
1.2103287 7.2619686 6.3900986
1.2080414 6.6442246 6.2520471
1.2064657 6.0323272 6.1569471
1.2049476 5.4222636 6.06532
1.2033503 4.8134017 5.968914
1.2103467 4.2362123 6.3911867
0.94037688 2.82113 -9.9029379
0.87252903 2.1813207 -13.997918
0.87178445 1.7435678 -14.042853
0.87181872 1.3077264 -14.040785
0.87184983 0.87185019 -14.038909
0.87188411 0.4359397 -14.036839
0.87192148 -1.0643898e-06 -14.034585
0.86885935 -0.43443111 -14.219398
1.2601725 -1.2601724 9.3984385
1.2606279 -1.8909433 9.4259262
1.2612464 -2.5224962 9.4632597
1.2617548 -3.1543872 9.4939394
1.2622374 -3.7867143 9.5230684
1.262727 -4.4195442 9.5526142
1.2632104 -5.0528417 9.581789
1.2637726 -5.6869774 9.6157227
1.2645383 -6.3226933 9.6619377
1.2653115 -6.9592133 9.7086029
1.2660594 -7.5963583 9.7537441
1.2666242 -8.2330589 9.7878284
1.2671894 -8.8703289 9.8219481
1.2677552 -9.5081654 9.8560934
1.2683215 -10.146573 9.8902721
1.2694358 -10.790205 9.9575272
1.2709819 -11.438836 10.050842
1.2725384 -12.089116 10.144789
1.2740921 -12.740923 10.238563
1.2756362 -13.394181 10.331757
1.2769036 -14.045939 10.408252
1.2781669 -14.69892 10.484493
1.2794393 -15.353274 10.561294
1.2767301 -15.959126 10.397778
1.2765166 -16.594717 10.384888
1.2828336 -17.318256 10.766161
1.2838184 -17.973459 10.825595
1.2848046 -18.629671 10.885118
1.2857856 -19.286785 10.944323
1.2865103 -19.940914 10.98807
1.2872156 -20.595451 11.030636
0.90579778 -14.945664 -11.989967
0.88445604 -15.035756 -13.278056
0.88447207 -15.478264 -13.27709
0.88442719 -15.91969 -13.279797
1.2902559 -23.869736 11.214133
1.2907674 -24.52458 11.245005
1.2912793 -25.179949 11.275905
1.9098725 15.278981 10.187637
1.8996407 14.563909 9.7759333
1.8899466 13.859611 9.3858814
1.880998 13.166985 9.0258188
1.8727657 12.4851 8.6945705
1.8650321 11.81187 8.3834009
1.8580972 11.148581 8.1043577
1.8513821 10.491162 7.8341618
1.8448268 9.8390751 7.5703998
1.8393795 9.1968975 7.3512144
1.834157 8.5594015 7.141077
1.8299602 7.9298291 6.9722085
1.8263832 7.3055329 6.8282857
1.8227478 6.6834078 6.6820049
1.8195785 6.0652599 6.5544882
1.8170331 5.4510984 6.4520679
1.8145038 4.8386765 6.3502913
1.8237553 4.2554278 6.722538
1.3995005 2.799001 -10.348145
1.3142833 2.1904707 -13.777024
1.3128748 1.7504979 -13.833699
1.3129265 1.3129245 -13.831617
1.312983 0.87531972 -13.829346
1.3130771 0.43769106 -13.825555
1.3131713 -1.0862873e-06 -13.821768
1.3085223 -0.43617573 -14.008827
1.8678093 -1.245209 8.495141
1.8718563 -1.8718588 8.6579866
1.8753738 -2.500499 8.7995129
1.878914 -3.1315255 8.9419575
1.8823901 -3.7647822 9.081831
1.8858598 -4.400342 9.2214375
1.8889135 -5.0371041 9.3443098
1.8918892 -5.6756682 9.4640427
1.8948743 -6.3162484 9.5841551
1.8979475 -6.9591417 9.7078104
1.901011 -7.6040463 9.8310795
1.9037281 -8.2494898 9.9404058
1.906453 -8.8967838 10.050048
1.9091957 -9.5459795 10.160402
1.9119362 -10.196996 10.270674
1.9144244 -10.848406 10.370791
1.9167687 -11.500612 10.465117
1.9191086 -12.154358 10.559274
1.9214444 -12.809629 10.65325
1.923725 -13.466077 10.745016
1.9256465 -14.121409 10.822333
1.9275719 -14.778051 10.899804
1.9295113 -15.436092 10.977845
1.9176017 -15.980016 10.498633
1.8945411 -16.419357 9.5707483
1.8941786 -17.047611 9.5561638
1.9361 -18.070269 11.242949
1.9375851 -18.729992 11.302701
1.9390416 -19.390417 11.361305
1.9401097 -20.0478 11.404285
1.941179 -20.705914 11.447314
1.3573624 -14.930988 -12.043655
1.3335477 -15.113544 -13.001885
1.3336545 -15.559303 -12.997587
1.3335234 -16.002283 -13.002859
1.9457783 -23.997932 11.632369
1.9465538 -24.656347 11.66357
2.5271921 13.267759 9.6050673
2.5150623 12.575312 9.2390203
2.504679 11.897223 8.9256725
2.4951072 11.227982 8.6368198
2.48595 10.565286 8.3604822
2.4770231 9.9080915 8.0910892
2.4687715 9.2578907 7.8420711
2.4617157 8.616003 7.6291399
2.4554036 7.980062 7.4386573
2.4505739 7.3517199 7.2929053
2.4447837 6.7231555 7.1181717
2.4401176 6.1002936 6.9773574
2.4360766 5.4811702 6.8554111
2.4320974 4.8641925 6.7353325
2.4427292 4.274775 7.0561805
1.8650743 2.7976096 -10.376101
1.7597592 2.1996963 -13.55427
1.7574984 1.7574968 -13.622497
1.7576249 1.3182176 -13.61868
1.7577513 0.87887472 -13.614861
1.7578779 0.43946865 -13.611043
1.7580044 -1.6163117e-06 -13.607222
1.7517241 -0.43793309 -13.796752
2.5039213 -1.2519612 8.9028091
2.5091701 -1.8818775 9.0612049
2.5136642 -2.5136652 9.1968336
2.5182917 -3.1478667 9.3364725
2.522949 -3.7844241 9.4770203
2.5276237 -4.4233418 9.6180906
2.5317249 -5.0634522 9.7418604
2.5358 -5.7055516 9.8648376
2.5400336 -6.3500843 9.9925957
2.5442681 -6.996738 10.120378
2.548357 -7.6450729 10.24378
2.5520191 -8.2940626 10.354287
2.5557051 -8.9449701 10.465524
2.5594015 -9.5977564 10.577077
2.5631089 -10.252437 10.688954
2.5663819 -10.907123 10.787724
2.555558 -15.972238 10.461081
2.4996281 -16.247585 8.7732506
2.4991803 -16.869469 8.7597399
1.8100647 -14.933034 -12.036167
1.7873693 -15.19264 -12.721064
1.7875654 -15.6412 -12.715141
3.1329858 10.652149 8.9772663
3.1182308 9.9783392 8.6210518
3.1073427 9.3220282 8.3581877
3.097646 8.6734085 8.1240892
3.0889468 8.0312586 7.914073
3.0820851 7.3970022 7.7484097
3.0743861 6.7636466 7.5625472
3.0680513 6.1361008 7.4096112
3.0629101 5.513236 7.2854881
3.0572038 4.8915253 7.1477304
3.0673268 4.2942562 7.3921213
2.3379948 2.8055918 -10.215514
2.2090037 2.2090032 -13.329631
2.206146 1.7649143 -13.398624
2.2060902 1.3236514 -13.399974
2.206146 0.88245761 -13.398628
2.2063053 0.44125956 -13.394779
2.2064648 -2.5640441e-06 -13.390927
2.1985106 -0.43970186 -13.582959
3.1464043 -1.2585632 9.3012199
3.1528881 -1.8917325 9.4577532
3.1586468 -2.5269182 9.5967789
3.1644266 -3.1644278 9.7363138
3.0919507 -16.078144 7.9865942
3.0916688 -16.695013 7.9797897
2.2629416 -14.935416 -12.027458
2.2459989 -15.272792 -12.436494
2.2462716 -15.723903 -12.429908
3.7133877 6.8078775 8.0478888
3.7039249 6.1732054 7.8575134
3.6965051 5.5447583 7.7082367
3.6890965 4.9187946 7.5591841
3.697643 4.3139181 7.7311358
2.8136215 2.8136203 -10.054007
2.6620264 2.2183545 -13.103864
2.6588573 1.7725707 -13.16762
2.6587899 1.3293923 -13.168979
2.6587224 0.88623923 -13.170338
2.6586549 0.44310802 -13.171697
2.658597 -6.8984446e-07 -13.172864
2.6489258 -0.44148937 -13.36743
3.6864414 -15.974581 7.505775
3.6720099 -16.524048 7.2154341
2.7161541 -14.938849 -12.0149
2.7094934 -15.3538 -12.148901
2.709734 -15.806784 -12.144064
3.2919781 2.8216949 -9.891572
3.1195388 2.2282405 -12.865178
3.1156721 1.7803836 -12.931859
3.1156039 1.3352582 -12.933035
3.1155245 0.89014786 -12.934404
3.1154563 0.44506484 -12.935579
3.1155474 -2.2028439e-06 -12.934011
3.1041183 -0.4434455 -13.131095
4.3014545 -15.976831 7.5162258
4.2402906 -16.35541 6.4615002
4.2398491 -16.959398 6.4538789
3.2658882 -14.929777 -10.341475
3.1780491 -14.982233 -11.856207
3.1779311 -15.435665 -11.858244
3.1780965 -15.890484 -11.85539
3.7811067 2.8358269 -9.6072054
3.5819614 2.2387257 -12.612075
3.5766625 1.7883301 -12.692033
3.5765839 1.3412169 -12.693218
3.5767281 0.89418119 -12.691045
3.5768852 0.4471091 -12.688672
3.5770423 -3.2843052e-06 -12.686299
3.5637305 -0.44546786 -12.887164
4.9172349 -15.981014 7.535646
4.7970424 -16.19002 5.722084
4.7969484 -16.789322 5.7206607
3.7310891 -14.924358 -10.36191
3.651391 -15.061989 -11.564466
3.651391 -15.518412 -11.564469
3.651459 -15.975135 -11.563438
4.2823076 2.8548698 -9.2241154
4.0487561 2.2493086 -12.35658
4.0422177 1.7965399 -12.44427
4.0422921 1.347429 -12.443274
4.0424705 0.89832574 -12.440882
4.0426493 0.44918019 -12.438486
4.0428276 -6.2546866e-07 -12.436093
4.0275354 -0.447505 -12.641197
5.3426208 -16.027864 4.9971247
5.3426208 -16.621489 4.9971218
4.1980686 -14.926468 -10.353955
4.1299543 -15.143167 -11.267525
4.1299543 -15.60205 -11.267527
4.1298766 -16.060633 -11.268569
4.7902846 2.8741701 -8.8358488
4.5198178 2.2599084 -12.100674
4.5131516 1.8052608 -12.181142
4.5130019 1.3538991 -12.182953
4.5128684 0.90257323 -12.184563
4.5127516 0.45127389 -12.185972
4.5129519 -1.3159416e-06 -12.183557
4.4956031 -0.44956258 -12.392967
5.9195814 -15.982872 4.7959685
5.8774076 -16.456741 4.2868853
5.8772378 -17.043989 4.2848339
4.6651802 -14.928577 -10.345996
4.6137042 -15.225225 -10.967366
4.6137042 -15.686596 -10.967367
5.3051558 2.8937192 -8.442523
4.9959908 2.2709036 -11.835204
4.9887347 1.814083 -11.91483
4.988605 1.3605282 -11.916255
4.9884567 0.90699142 -11.917884
4.9883084 0.45348042 -11.919509
4.9881606 -2.6742323e-06 -11.921134
4.9684706 -0.45168117 -12.137202
6.5132132 -15.986979 4.814333
6.4016972 -16.295231 3.5905857
6.4016972 -16.877201 3.590584
5.1324239 -14.930688 -10.338031
5.102725 -15.308176 -10.663937
5.102725 -15.772061 -10.663935
5.8651247 2.9325609 -7.6611023
5.47895 2.2828932 -11.545718
5.469337 1.8231095 -11.642416
5.4691944 1.367299 -11.643856
5.4691739 0.9115271 -11.644058
5.4695005 0.4557907 -11.640774
5.4698477 -9.874808e-07 -11.637285
5.4479828 -0.45399913 -11.857224
6.9157295 -16.136703 2.9071653
6.9157295 -16.713013 2.9071655
5.5999279 -14.933142 -10.328775
5.5971041 -15.392038 -10.357181
5.5971041 -15.858464 -10.357179
6.4760151 2.9889295 -6.5270739
5.967104 2.2950404 -11.252534
5.9550819 1.832329 -11.364163
5.955462 1.3743355 -11.360637
5.9558415 0.91628319 -11.35711
5.9562221 0.45816934 -11.353584
5.9565792 -1.3354587e-06 -11.350259
5.9324675 -0.45634472 -11.574146
7.4242992 -15.990801 2.2781653
7.4196839 -16.551605 2.235306
7.41958 -17.12211 2.2343392
6.2555213 -14.917014 -8.5744553
6.09693 -15.007829 -10.047045
6.09693 -15.476822 -10.047048
6.09693 -15.945817 -10.047047
6.4607482 2.3074081 -10.953895
6.4477344 1.8422076 -11.066103
6.4477344 1.3816564 -11.066102
6.4477344 0.92110324 -11.066103
6.4480262 0.46057209 -11.063584
6.4484396 -1.8190863e-06 -11.060021
6.4219837 -0.45871294 -11.28813
7.9976821 -15.995365 2.2978413
7.91396 -16.393204 1.575979
7.9139233 -16.95841 1.5756646
6.7376447 -14.919073 -8.5664396
6.6022921 -15.090955 -9.7334747
6.6022921 -15.562546 -9.7334776
6.6022663 -16.034079 -9.733696
6.9606419 2.3202114 -10.64478
6.9459896 1.8522617 -10.762689
6.9459896 1.3891973 -10.762691
6.9459896 0.92612815 -10.762689
6.9459896 0.46306387 -10.76269
6.9459896 7.8601147e-08 -10.762691
6.9165831 -0.46110904 -10.999335
8.5713911 -15.999931 2.3175292
8.3989048 -16.237883 0.92946595
8.3989048 -16.797812 0.92946523
7.2198725 -14.921069 -8.5586557
7.1132841 -15.175008 -9.4164152
7.1132841 -15.649224 -9.4164152
7.4700828 2.3343987 -10.302281
7.4520159 1.8630035 -10.438581
7.4520159 1.3972518 -10.438582
7.4520159 0.9314999 -10.438581
7.4521871 0.46575913 -10.437295
7.4523859 -1.0763898e-06 -10.435793
7.4201441 -0.46376139 -10.679037
8.8747454 -16.085478 0.29508594
8.8747454 -16.640152 0.29508877
7.7022295 -14.923073 -8.5508642
7.6299996 -15.26 -9.0958004
7.6299996 -15.736876 -9.0958014
7.9855456 2.3486905 -9.9573107
7.9640365 1.8738881 -10.11004
7.9642501 1.4054536 -10.108522
7.9644642 0.93699217 -10.107002
7.9646783 0.46850836 -10.105485
7.9648614 -3.3125086e-06 -10.104181
7.9304729 -0.466501 -10.348359
9.3832512 -16.006725 -0.032721572
9.3416958 -16.485346 -0.32779291
8.1846514 -14.924955 -8.5435333
8.1525364 -15.345951 -8.771574
8.1525364 -15.825514 -8.7715731
8.5073586 2.3631532 -9.6080914
8.483942 1.8853183 -9.7651205
8.4835815 1.4139303 -9.76754
8.483222 0.94257969 -9.7699537
8.483222 0.47128922 -9.7699556
8.4834509 -2.1767557e-06 -9.7684174
8.446867 -0.46927243 -10.013756
9.937993 -16.011211 -0.014043069
9.8000813 -16.333471 -0.93889529
8.6804781 -14.949714 -8.4471235
8.6809931 -15.432878 -8.4436731
8.6808214 -15.91484 -8.4448214
9.0396872 2.3788631 -9.228816
9.0106144 1.8969685 -9.4135218
9.0102291 1.4226657 -9.4159698
9.0098448 0.94840491 -9.418416
9.0094948 0.47418031 -9.4206362
9.0091095 -3.5604339e-07 -9.4230824
8.9694338 -0.47207811 -9.675148
10.490767 -16.012226 -0.0098206718
9.4452906 -14.91362 -6.6519399
9.2150297 -15.03505 -8.1148291
9.2154694 -15.520794 -8.1120367
9.2149572 -16.004929 -8.1152925
9.5835028 2.3958755 -8.8181486
9.5459261 1.909183 -9.0449438
9.5455523 1.4318317 -9.0471945
9.5454407 0.95454305 -9.0478687
9.5461121 0.4773027 -9.0438156
9.5468216 3.7299714e-08 -9.0395374
9.5029068 -0.47514638 -9.3045845
9.9415607 -14.912341 -6.6570711
9.7557592 -15.12143 -7.7784839
9.7560711 -15.609715 -7.7766037
10.135071 2.4131103 -8.4020205
10.089604 1.9218291 -8.6633692
10.090001 1.4414262 -8.6610861
10.090755 0.96102172 -8.6567488
10.091471 0.48054394 -8.6526413
10.092225 4.4954658e-07 -8.648303
10.044543 -0.47831398 -8.9223804
10.440084 -14.914408 -6.6487641
10.302737 -15.208804 -7.4382524
10.302903 -15.699662 -7.437304
10.696464 2.4310141 -7.96982
10.644411 1.9353458 -8.2554226
10.644496 1.4515197 -8.2549601
10.64458 0.96768636 -8.2544966
10.644665 0.48384839 -8.254035
10.645086 -1.2797964e-06 -8.2517223
10.593406 -0.48151892 -8.5352831
