# .PCD v0.7 - Point Cloud Data file format
VERSION 0.7
FIELDS x y z
SIZE 4 4 4
TYPE F F F
COUNT 1 1 1
WIDTH 1507
HEIGHT 1
VIEWPOINT 0 0 0 1 0 0 0
POINTS 1507
DATA ascii
-623.87396 131.34213 -92.683327
-627.02405 99.003929 -72.669884
-628.78668 66.188156 -61.472004
-629.12109 33.111866 -59.347378
-628.44696 0.00010297471 -63.630352
-627.60492 -33.031727 -68.980179
-626.76508 -65.975159 -74.315742
-625.9303 -98.830971 -79.619003
-625.06976 -131.59344 -85.086426
-624.31769 -164.2939 -89.864426
-623.56464 -196.91501 -94.648567
-622.8634 -229.47581 -99.103607
-622.19427 -261.97635 -103.35474
-621.53766 -294.41248 -107.52643
-620.96802 -326.82516 -111.14552
-620.41602 -359.18811 -114.65237
-564.5387 -356.5506 -469.65164
-564.45422 -386.20541 -470.18857
-565.19708 -416.46088 -465.46912
-620.20648 -489.63651 -115.98366
-621.65393 -523.49792 -106.78791
-623.46991 -557.84125 -95.250473
-625.59644 -592.67004 -81.740173
-627.87592 -627.87573 -67.258423
-630.35699 -663.53345 -51.495365
-633.1535 -699.80109 -33.728607
-636.10242 -736.53955 -14.99361
-639.08191 -773.62518 3.9353099
-642.08643 -811.05646 23.023952
-645.11932 -848.84119 42.292629
-648.18402 -886.98859 61.76342
-651.27502 -925.49585 81.400681
-654.39557 -964.37238 101.22648
-657.5462 -1003.623 121.24281
-660.86804 -1043.4758 142.34731
-664.98944 -1084.9827 168.53142
-669.1626 -1127.0106 195.04433
-673.38519 -1169.5636 221.87119
-677.66473 -1212.6631 249.05994
-681.99902 -1256.3138 276.59641
-686.44983 -1300.6417 304.87338
-609.25092 1015.4183 29.451599
-607.2923 978.41559 16.316753
-607.03577 944.27814 14.596766
-607.12219 910.68347 15.176265
-608.89185 879.51044 27.043518
-559.43964 279.71994 -304.59003
-550.15509 244.51357 -366.85349
-555.01117 215.83788 -334.28799
-580.0484 193.34958 -166.38438
-589.61804 163.78305 -102.20924
-593.98279 131.99631 -72.938293
-596.85687 99.476395 -53.664543
-598.35852 66.484474 -43.594376
-598.48041 33.249065 -42.776936
-597.69861 0.00020392463 -48.019791
-596.89459 -33.160675 -53.411598
-596.09277 -66.232491 -58.788727
-594.97168 -99.161873 -66.306999
-594.23639 -132.05238 -71.238014
-593.51624 -164.86549 -76.067131
-592.79254 -197.59734 -80.920456
-592.13953 -230.27632 -85.299652
-591.50116 -262.88919 -89.580574
-591.06232 -295.53101 -92.523888
-590.53174 -328.07297 -96.081764
-590.16278 -360.65491 -98.556229
-525.5896 -350.39301 -531.59314
-525.32654 -379.40237 -533.35736
-525.86975 -409.00961 -529.71497
-590.59503 -492.16248 -95.657166
-592.21643 -526.41437 -84.78392
-594.15363 -561.14502 -71.792915
-596.211 -596.21088 -57.995838
-598.42078 -631.66626 -43.176559
-600.84076 -667.60065 -26.947874
-603.59161 -704.19012 -8.5004177
-606.42053 -741.18054 10.471043
-609.27618 -778.51947 29.621208
-612.15881 -816.21149 48.95237
-615.07166 -854.26624 68.486748
-618.00952 -892.6803 88.188286
-620.97559 -931.46326 108.07922
-624.02026 -970.69812 128.49754
-627.89899 -1011.6149 154.50868
-631.82623 -1053.0436 180.84528
-635.80286 -1094.9938 207.51326
-639.8299 -1137.4752 234.51909
-643.90826 -1180.4984 261.86945
-648.039 -1224.0736 289.57047
-652.21979 -1268.2051 317.6076
-657.2641 -1314.5281 351.43561
-572.99335 977.45941 12.337031
-572.55725 943.03564 9.2405272
-572.51526 909.289 8.9424105
-572.79095 876.03339 10.89992
-521.00635 275.82712 -356.80283
-511.87103 240.88054 -421.66971
-514.87183 212.00623 -400.36209
-523.6673 184.82388 -337.90891
-559.59875 164.58803 -82.773216
-563.79486 132.65764 -52.977741
-566.40039 99.953209 -34.476883
-567.6026 66.776924 -25.940611
-567.47363 33.380898 -26.856077
-566.7063 9.2295384e-05 -32.30492
-565.94354 -33.290749 -37.720753
-564.95532 -66.46521 -44.737926
-563.87378 -99.506943 -52.417488
-563.18719 -132.51437 -57.292625
-562.49976 -165.44093 -62.173702
-561.81146 -198.28632 -67.060898
-561.20306 -231.08347 -71.381279
-560.77216 -263.89261 -74.440964
-560.35199 -296.65683 -77.424385
-560.1911 -329.52402 -78.566673
-559.70911 -362.16458 -81.989563
-492.21329 -347.44449 -561.25183
-487.45834 -372.76202 -595.01526
-487.61441 -401.56461 -593.90692
-560.94092 -494.94781 -73.242485
-562.63153 -529.53546 -61.237892
-564.50336 -564.5033 -47.947239
-566.4801 -599.80231 -33.911293
-568.64154 -635.54041 -18.563484
-570.97351 -671.73352 -2.0046902
-573.65393 -708.63116 17.027813
-576.35962 -745.87708 36.239918
-579.09094 -783.47589 55.633862
-581.85095 -821.43658 75.231934
-584.6347 -859.7569 94.998421
-587.44525 -898.4455 114.95476
-591.05676 -938.73706 140.59866
-594.74127 -979.57361 166.76086
-598.47198 -1020.9226 193.25146
-602.24689 -1062.7885 220.05568
-606.07269 -1105.1912 247.2213
-609.94739 -1148.1361 274.73407
-613.87195 -1191.6338 302.60114
-617.79541 -1235.5906 330.45993
-621.31769 -1279.1835 355.47052
-538.9762 976.89459 9.9861774
-538.22595 941.89557 4.3257241
-538.09534 908.03613 3.3405252
-538.22845 874.6214 4.3445148
-543.99506 849.99249 47.850368
-483.37363 271.89792 -409.50296
-476.23309 238.11673 -463.37402
-475.99783 208.24907 -465.14911
-481.4393 180.53989 -424.09625
-529.28278 165.40099 -63.144871
-533.3053 133.32652 -32.798084
-535.65057 100.4347 -15.104134
-536.57483 67.072006 -8.1307859
-536.20032 33.512657 -10.956376
-535.47241 0.00019330208 -16.448071
-534.61511 -33.413216 -22.915915
-533.49646 -66.686928 -31.355116
-532.5683 -99.856438 -38.35812
-531.91998 -132.97984 -43.249374
-531.25641 -166.01749 -48.255402
-530.62329 -198.9836 -53.03204
-530.05853 -231.90045 -57.292698
-529.87933 -264.93954 -58.644569
-529.4068 -297.79111 -62.209721
-529.5451 -330.96555 -61.166088
-529.21851 -363.83755 -63.630226
-460.00525 -345.00388 -585.80389
-451.18011 -366.58368 -652.38446
-450.99316 -394.61896 -653.79474
-530.99243 -497.80533 -50.246891
-532.6745 -532.67432 -37.556961
-534.48389 -567.88892 -23.90625
-536.38635 -603.43451 -9.553093
-538.49969 -639.46832 6.3908391
-540.78143 -675.97656 23.605553
-543.33624 -713.12878 42.879986
-545.91779 -750.63684 62.356327
-548.52142 -788.49945 81.999451
-551.15002 -826.72491 101.83054
-554.45447 -866.33502 126.76041
-557.89929 -906.5863 152.74992
-561.38727 -947.34088 179.06424
-564.91913 -988.60815 205.70988
-568.49567 -1030.3983 232.69305
-572.02032 -1072.538 259.28467
-575.23126 -1114.5104 283.50894
-578.47839 -1156.9567 308.00702
-581.76532 -1199.8907 332.80481
-585.06647 -1243.2661 357.71017
-588.40533 -1287.1365 382.89987
-407.95166 1278.2487 -773.33392
-407.83542 1250.6954 -774.26953
-411.2724 1233.8174 -746.61084
-504.00986 940.81854 -0.31717235
-503.78177 906.80756 -2.1530604
-503.81396 873.27765 -1.8935027
-504.57068 840.95142 4.1956329
-447.40027 268.44022 -455.87601
-440.12912 234.7356 -514.38989
-438.63821 204.69794 -526.38782
-442.06427 176.82582 -498.81693
-498.87363 166.2914 -41.650558
-502.5434 134.01172 -12.118364
-504.53601 100.90731 3.9168582
-505.19986 67.360092 9.259181
-504.67929 33.645321 5.0698047
-503.9407 0.00017676497 -0.87387639
-502.88055 -33.525192 -9.4056501
-501.8248 -66.90979 -17.901529
-501.04443 -100.20874 -24.181232
-500.42325 -133.44594 -29.18022
-499.79453 -166.59804 -34.239574
-499.2149 -199.68585 -38.904037
-498.90976 -232.82448 -41.359608
-498.67725 -265.96115 -43.231037
-498.57568 -299.14523 -44.0481
-498.54636 -332.36417 -44.284134
-498.61179 -365.64859 -43.757721
-427.63992 -342.11185 -614.89496
-415.94357 -360.48422 -709.0202
-415.80231 -388.08209 -710.15686
-416.54416 -416.54401 -704.18671
-502.36469 -535.85553 -13.556671
-504.08594 -571.29736 0.29506654
-505.95609 -607.14722 15.344589
-507.98059 -643.44189 31.636564
-510.20554 -680.2738 49.541599
-512.63367 -717.68689 69.081429
-515.08258 -755.45435 88.788933
-518.09521 -794.4126 113.03279
-521.30353 -834.08545 138.85133
-524.55182 -874.25299 164.99185
-527.70691 -914.69189 190.38211
-530.62152 -955.11859 213.83693
-533.56854 -995.99438 237.55241
-536.55109 -1037.3319 261.55396
-539.56445 -1079.1287 285.80386
-542.61188 -1121.3977 310.32782
-545.68048 -1164.1182 335.02164
-548.77844 -1207.3125 359.95258
-551.91461 -1251.0062 385.19003
-555.08398 -1295.1958 410.6954
-375.20837 1286.4288 -821.15717
-374.29214 1256.5522 -829.05713
-374.91156 1231.8523 -823.71631
-375.81027 1207.9615 -815.96771
-469.94708 939.89435 -4.3019013
-469.61017 905.67682 -7.2065191
-469.58658 872.08942 -7.4099226
-469.82254 838.96918 -5.3754163
-457.55133 326.8226 -111.1806
-412.47253 265.16104 -499.85837
-404.43558 231.10631 -569.1546
-400.92923 200.46466 -599.3869
-404.65674 173.42436 -567.24731
-468.1694 167.20349 -19.629551
-471.46585 134.70471 8.7932014
-473.10544 101.37991 22.930059
-473.43646 67.633949 25.78409
-472.90747 33.779251 21.223061
-471.9288 0.00015238658 12.784833
-470.93262 -33.637878 4.1956501
-469.94061 -67.134171 -4.357408
-469.29303 -100.56268 -9.9409113
-468.70276 -133.91489 -15.030616
-468.11188 -167.18262 -20.125507
-467.67123 -200.43036 -23.924772
-467.51178 -233.75586 -25.299221
-467.23782 -266.99298 -27.661604
-467.49057 -300.52957 -25.482573
-467.45868 -333.8989 -25.757494
-467.66272 -367.44913 -23.997992
-467.66699 -400.8573 -23.961378
-381.71866 -354.453 -765.02405
-381.78101 -381.78088 -764.48651
-382.1669 -409.46432 -761.15955
-471.72101 -539.10962 10.99333
-473.32098 -574.7467 24.788519
-475.14688 -610.90302 40.531574
-477.07761 -647.46222 57.178886
-479.24063 -684.62927 75.828651
-481.97153 -722.95715 99.375504
-484.78635 -761.80688 123.64499
-487.4216 -800.76392 146.36674
-490.08563 -840.14673 169.33655
-492.77899 -879.96228 192.5591
-495.50446 -920.22241 216.05876
-498.25787 -960.92572 239.79898
-501.04202 -1002.0839 263.80478
-503.85748 -1043.7047 288.08008
-506.69727 -1085.7798 312.56534
-509.56168 -1128.3149 337.2626
-512.45612 -1171.328 362.2189
-515.38354 -1214.8326 387.46033
-518.34467 -1258.837 412.99164
-521.36383 -1303.4095 439.02338
-349.37518 1263.1256 -812.17432
-347.2486 1228.726 -831.92029
-348.11438 1205.0116 -823.88123
-347.18173 1175.0768 -832.54156
-347.26126 1148.6337 -831.80304
-347.2941 1122.0271 -831.49829
-347.36481 1095.5354 -830.84137
-347.42169 1068.99 -830.31335
-347.52283 1042.5687 -829.37427
-348.66342 1019.1702 -818.78314
-351.75583 1001.1514 -790.06909
-435.9631 938.9975 -8.1679363
-435.52768 904.5575 -12.210716
-435.45221 870.90442 -12.911355
-435.59918 837.69086 -11.546722
-438.98502 810.43402 19.892403
-422.37744 324.90594 -134.31653
-379.01556 262.39557 -536.95062
-370.14581 227.78224 -619.31006
-365.94614 197.04811 -658.30591
-368.84775 170.23759 -631.36298
-437.12445 168.12495 2.6157553
-440.0632 135.40413 29.90354
-441.37299 101.85537 42.065392
-441.42194 67.91114 42.519939
-440.63577 33.895275 35.220146
-439.70053 0.0001255712 26.536129
-438.76923 -33.751343 17.888691
-437.86398 -67.363609 9.4828367
-437.31061 -100.91768 4.3443027
-436.75861 -134.38722 -0.78088069
-436.21002 -167.77299 -5.8750257
-436.01086 -201.23563 -7.724215
-435.86362 -234.69574 -9.0915012
-435.87952 -268.23334 -8.9437532
-436.11838 -301.92801 -6.725791
-436.24985 -335.57669 -5.504878
-436.38742 -369.25076 -4.2278414
-436.54102 -402.96078 -2.8015409
-349.06744 -349.06729 -815.03192
-348.82135 -375.65372 -817.31677
-349.00745 -402.70074 -815.58862
-440.67847 -542.37335 35.61668
-442.21292 -578.27826 49.864807
-443.89841 -614.62842 65.515129
-445.67578 -651.37219 82.018761
-447.96274 -689.1734 103.25455
-450.38589 -727.54639 125.75436
-452.83752 -766.34027 148.51884
-455.31384 -805.55505 171.51239
-457.81738 -845.20117 194.75894
-460.3486 -885.28564 218.26244
-462.91022 -925.82025 242.048
-465.49823 -966.80396 266.07895
-468.11304 -1008.2434 290.35861
-470.74347 -1050.1199 314.78336
-473.40366 -1092.4697 339.48401
-476.09406 -1135.301 364.46561
-478.8176 -1178.6278 389.75504
-481.57007 -1222.4469 415.31277
-484.35437 -1266.7727 441.16617
-487.44952 -1312.364 469.90625
-324.30112 1270.1794 -794.05847
-321.77621 1233.4756 -819.45673
-321.83612 1206.8856 -818.85413
-320.63513 1175.6621 -830.93524
-320.60364 1148.8297 -831.25201
-320.55118 1121.9292 -831.77972
-320.48709 1094.9977 -832.42432
-320.49524 1068.3177 -832.34241
-320.46262 1041.5037 -832.67053
-321.27667 1017.3762 -824.48206
-323.39337 997.12982 -803.18933
-326.24417 978.73273 -774.51251
-329.98718 962.46271 -736.86072
-402.55426 939.29358 -6.8924098
-401.54395 903.47406 -17.055353
-401.40866 869.71881 -18.416519
-401.47992 836.41681 -17.69912
-402.41644 804.83301 -8.2786188
-387.61368 323.01147 -157.1828
-347.16281 260.37222 -564.0871
-336.83743 224.55846 -667.95251
-332.87799 194.17897 -707.78162
-334.89496 167.44766 -687.49207
-340.68405 141.95181 -629.25861
-408.155 136.05191 49.446476
-409.25775 102.31458 60.53997
-409.21408 68.202423 60.100391
-408.45377 34.038036 52.452152
-407.54739 0.00018257892 43.334766
-406.64691 -33.887096 34.276371
-405.81015 -67.634865 25.859354
-405.271 -101.31757 20.43577
-404.73141 -134.91035 15.008129
-404.29889 -168.45766 10.657452
-404.15619 -202.07799 9.2219
-404.01727 -235.6767 7.8245077
-404.21362 -269.47571 9.7998753
-404.44357 -303.33249 12.112856
-404.65152 -337.20944 14.204462
-404.8541 -371.11618 16.242111
-404.99731 -404.99713 17.682777
-317.02374 -343.44223 -867.26288
-316.9075 -369.72522 -868.43243
-317.349 -396.68613 -863.99121
-409.06787 -545.42365 58.62941
-410.50797 -581.5528 73.115616
-412.06992 -618.1048 88.827797
-413.73889 -655.08649 105.61663
-415.95267 -693.25433 127.88544
-418.21606 -731.87799 150.65326
-420.50623 -770.92798 173.69052
-422.81955 -810.40417 196.96098
-425.15851 -850.31689 220.48874
-427.52347 -890.67377 244.27859
-429.91696 -931.48669 268.35553
-432.3205 -972.72095 292.53278
-434.75101 -1014.419 316.98221
-437.20901 -1056.5883 341.70776
-439.69717 -1099.2428 366.73676
-442.21164 -1142.3798 392.02979
-444.75497 -1186.0131 417.61392
-447.32773 -1230.1511 443.49405
-449.93274 -1274.8092 469.69836
-453.90347 -1323.8851 509.64102
-298.21069 1274.1731 -783.80133
-296.5451 1240.0979 -802.0791
-297.99075 1219.0532 -786.21484
-297.61322 1109.2859 -790.35785
-297.392 1081.4255 -792.78564
-297.19403 1053.6881 -794.95813
-297.11206 1026.3872 -795.8573
-297.229 999.77045 -794.57422
-298.6438 977.37982 -779.04858
-301.15915 958.23376 -751.44604
-304.20999 940.28571 -717.9668
-367.70679 902.55316 -21.172516
-367.50775 868.65485 -23.356146
-367.51779 835.26776 -23.246124
-367.8139 802.50317 -19.997046
-353.25299 321.13922 -179.78392
-315.8284 258.40527 -590.46997
-304.81244 221.68192 -711.35608
-301.15802 191.64618 -751.45831
-301.87918 164.66147 -743.54456
-305.52811 138.87646 -703.50238
-375.90686 136.69354 68.813026
-376.87109 102.78315 79.39402
-376.76038 68.501953 78.179253
-376.00128 34.18203 69.849358
-375.16516 0.00018399872 60.673721
-374.32059 -34.029011 51.405396
-373.58163 -67.923706 43.296822
-373.08148 -101.74934 37.807865
-372.58606 -135.48564 32.371532
-285.99033 -129.99551 -917.90399
-285.89825 -155.94431 -918.91437
-286.04398 -182.02777 -917.31519
-286.00955 -208.00682 -917.69287
-285.92456 -233.93813 -918.62579
-285.98831 -259.98932 -917.92621
-285.97818 -285.97797 -918.03723
-285.92456 -311.91754 -918.62567
-286.13718 -338.16199 -916.29266
-286.61212 -364.77893 -911.08069
-289.21762 -394.38742 -882.48865
-377.07681 -548.47528 81.651711
-378.44363 -584.86737 96.650925
-379.88828 -621.63519 112.50341
-381.48434 -658.92737 130.0188
-383.56125 -697.38397 152.80989
-385.66089 -736.26154 175.8504
-387.78546 -775.5708 199.16519
-389.93173 -815.31171 222.71761
-392.10187 -855.49493 246.53221
-394.28668 -896.10596 270.5076
-396.49213 -937.16302 294.70911
-398.7243 -978.68665 319.2045
-400.9798 -1020.6756 343.95563
-403.26089 -1063.1423 368.98813
-405.56818 -1106.0948 394.30704
-407.89987 -1149.5359 419.89468
-410.20447 -1193.3219 445.18439
-412.53519 -1237.6055 470.76135
-414.90109 -1282.4215 496.72409
-274.10077 1041.5831 -747.58636
-273.86679 1013.3073 -750.41107
-273.87289 985.94263 -750.33704
-274.24506 959.85779 -745.84485
-276.03912 938.5332 -724.18854
-278.65359 919.55701 -692.62903
-281.88477 902.03143 -653.62524
-333.93094 901.61359 -25.372677
-333.69583 867.60931 -28.210653
-333.67612 834.19055 -28.448372
-333.83078 801.19391 -26.581524
-319.2883 319.28848 -202.12468
-284.9639 256.46753 -616.45691
-273.36438 218.69174 -756.47571
-270.4967 189.34778 -791.09143
-270.08398 162.05063 -796.07318
-272.32669 136.16344 -769.00146
-343.35306 137.34142 88.362679
-344.18796 103.25639 98.440948
-255.93248 51.186638 -966.89703
-255.95656 25.595825 -966.60651
-255.98956 9.3790717e-05 -966.20819
-256.04309 -25.6042 -965.56201
-256.02347 -51.204605 -965.79883
-256.04846 -76.814445 -965.49719
-256.07166 -102.42862 -965.2171
-256.06094 -128.03044 -965.34644
-256.17255 -153.70345 -963.99915
-256.28427 -179.39876 -962.65076
-256.40323 -205.12238 -961.21466
-256.75003 -231.07486 -957.02832
-257.18057 -257.18048 -951.83148
-257.85309 -283.63828 -943.7135
-258.62103 -310.34512 -934.44324
-259.72925 -337.64795 -921.06622
-261.42902 -366.00049 -900.54834
-264.5213 -396.78174 -863.22107
-344.73227 -551.57153 105.0112
-346.00848 -588.21429 120.4162
-347.33685 -625.20624 136.45129
-348.87088 -662.85461 154.96872
-350.78159 -701.56311 178.03296
-352.71335 -740.698 201.35147
-354.66824 -780.26996 224.94867
-356.63623 -820.26312 248.70448
-358.62094 -860.69006 272.66214
-360.62961 -901.57397 296.90921
-362.65915 -942.9137 321.40793
-364.71167 -984.72131 346.18372
-366.74725 -1026.8922 370.75537
-368.79456 -1069.5042 395.46881
-370.8649 -1112.5946 420.45984
-372.96045 -1156.1774 445.75558
-375.08563 -1200.2739 471.40845
-377.23706 -1244.8821 497.37851
-379.4133 -1290.0051 523.64838
-250.71503 1030.7177 -693.61108
-250.24529 1000.9812 -699.91107
-250.1402 972.76758 -701.32056
-250.23109 945.31757 -700.10175
-251.03487 920.4613 -689.32123
-253.02544 899.64612 -662.62311
-256.04141 881.92059 -622.17163
-300.21713 900.65161 -29.673744
-299.96243 866.55841 -33.089985
-299.92432 833.12341 -33.60104
-300.04276 800.11407 -32.012772
-285.38113 317.09042 -228.65883
-254.5578 254.55794 -642.07025
-242.86845 215.88309 -798.8515
-226.93881 176.50807 -1012.5047
-226.87962 151.2533 -1013.2986
-226.92711 126.07077 -1012.6614
-226.86014 100.82693 -1013.5596
-226.97696 75.659164 -1011.9929
-227.05492 50.456764 -1010.9473
-227.17117 25.241383 -1009.3883
-227.2883 0.00012414846 -1007.8171
-227.49086 -25.276585 -1005.1004
-227.92532 -50.64986 -999.27338
-228.33383 -76.111168 -993.79401
-228.80479 -101.69086 -987.47772
-229.40497 -127.44707 -979.42798
-229.9955 -153.33029 -971.50745
-230.60193 -179.35695 -963.37378
-231.25284 -205.55788 -954.64374
-231.88058 -231.88051 -946.22412
-232.50766 -258.34174 -937.81378
-233.26561 -285.1022 -927.64783
-234.04346 -312.05792 -917.21509
-235.01846 -339.47101 -904.13776
-236.51579 -367.91333 -884.0553
-310.95215 -518.25342 114.30742
-312.02191 -554.70551 128.6555
-313.18216 -591.56604 144.21664
-314.40933 -628.81848 160.6759
-315.8663 -666.82886 180.21771
-317.60672 -705.79248 203.56021
-319.36331 -745.18091 227.12013
-321.13318 -784.99219 250.85829
-322.9212 -825.24292 274.83975
-324.70215 -865.87225 298.72638
-326.48672 -906.90741 322.66147
-328.2894 -948.39148 346.83954
-330.11374 -990.34106 371.30795
-331.95679 -1032.7542 396.02759
-333.8205 -1075.6437 421.02472
-335.71045 -1119.0347 446.37302
-337.62534 -1162.9316 472.05591
-339.5639 -1207.3384 498.05682
-341.52313 -1252.2515 524.33459
-343.52472 -1297.7599 551.18042
-225.87358 988.19702 -648.10645
-225.68361 959.15552 -650.97266
-225.64462 930.78436 -651.56097
-225.96129 903.84528 -646.78296
-227.36786 881.0506 -625.55945
-229.90274 862.1355 -587.31097
-233.20238 845.35883 -537.52319
-266.66714 900.00195 -32.578873
-266.31067 865.50983 -37.957512
-266.2576 832.05511 -38.758526
-266.3493 799.04822 -37.37471
-267.82773 770.00488 -15.067118
-251.56451 314.45587 -260.45996
-224.60205 252.67743 -667.29224
-213.34471 213.34477 -837.15228
-200.1897 175.16611 -1035.6462
-199.68092 149.76077 -1043.3229
-199.68228 124.80157 -1043.3025
-200.15221 100.07629 -1036.2119
-200.64557 75.242195 -1028.7677
-201.15102 50.287872 -1021.1412
-201.66454 25.20812 -1013.3926
-202.21758 0.00015522091 -1005.0479
-202.75127 -25.343765 -996.99536
-203.28001 -50.819942 -989.01678
-203.81155 -76.429237 -980.99628
-204.35371 -102.17686 -972.81604
-204.91518 -128.07182 -964.34436
-205.48836 -154.11609 -955.69562
-206.04669 -180.29074 -947.27075
-206.61243 -206.61224 -938.73456
-207.17471 -233.07143 -930.25037
-207.75034 -259.68777 -921.56488
-208.56429 -286.77576 -909.28363
-209.55484 -314.33212 -894.33716
-276.22134 -448.85947 111.58258
-277.07562 -484.88217 124.47276
-277.96939 -521.19238 137.95856
-278.93774 -557.87537 152.57024
-279.97955 -594.95642 168.28989
-281.09909 -632.47284 185.18227
-282.46362 -670.85095 205.77155
-284.0047 -710.01166 229.02446
-285.54047 -749.54352 252.19757
-287.09155 -789.50153 275.60141
-288.65958 -829.89624 299.26126
-290.24625 -870.73859 323.20221
-291.849 -912.02789 347.38614
-293.46957 -953.77606 371.83865
-295.10974 -995.99518 396.58646
-296.76831 -1038.6888 421.61267
-298.45325 -1081.8927 447.03589
-300.15585 -1125.5842 472.72653
-301.87799 -1169.7771 498.71185
-303.62003 -1214.48 524.99701
-305.38229 -1259.7018 551.58728
-307.29361 -1305.9978 580.42706
-200.84749 975.54504 -592.78467
-200.56705 945.53058 -597.62073
-200.55219 916.81012 -597.87701
-200.67818 888.71777 -595.70404
-201.37444 863.03345 -583.69757
-203.49573 843.05396 -547.11719
-206.46562 825.86273 -495.90326
-233.21841 899.55688 -34.567936
-232.74132 864.46808 -42.795296
-232.67917 830.99713 -43.866684
-232.73289 797.94159 -42.940636
-233.44603 767.03711 -30.64262
-218.30612 311.86612 -291.72122
-195.0849 250.82353 -692.15674
-184.55222 210.9169 -873.78644
-176.05414 176.05423 -1020.3306
-175.5367 150.46016 -1029.2533
-175.57027 125.40752 -1028.6746
-175.96919 100.554 -1021.7954
-176.42439 75.610573 -1013.9459
-176.87343 50.535446 -1006.2025
-177.34801 25.3356 -998.01868
-177.82574 3.3211028e-05 -989.7804
-178.28874 -25.469679 -981.79602
-178.7579 -51.07362 -973.70569
-179.22453 -76.810478 -965.65881
-179.69926 -102.68528 -957.47235
-180.41737 -128.86946 -945.08954
-241.11797 -206.67255 101.65524
-241.1915 -241.19128 102.92282
-241.37375 -275.85553 106.06596
-241.6051 -310.63498 110.05527
-241.85054 -345.50058 114.28763
-242.05658 -380.37439 117.84084
-242.39659 -415.53683 123.70412
-243.05077 -451.37991 134.985
-243.81131 -487.62253 148.10039
-244.6069 -524.15747 161.81947
-245.44514 -561.01733 176.27481
-246.34937 -598.27692 191.86711
-247.32446 -635.97705 208.68222
-248.53413 -674.59247 229.54222
-249.87827 -713.93787 252.72101
-251.23579 -753.70721 276.13065
-252.60814 -793.91119 299.79617
-253.99683 -834.56097 323.74316
-255.3996 -875.65564 347.93292
-256.81793 -917.20685 372.39169
-258.25345 -959.22693 397.14575
-259.7103 -1001.7396 422.26843
-261.18372 -1044.7347 447.67648
-262.67395 -1088.2206 473.37427
-264.18124 -1132.2052 499.3671
-265.70734 -1176.7037 525.68372
-267.24976 -1221.7131 552.28198
-268.81021 -1267.248 579.1908
-271.17892 -1317.1545 620.03772
-175.19514 963.57361 -531.62109
-174.72986 931.89264 -540.98254
-174.57414 901.96655 -544.11511
-174.67444 873.37238 -542.09698
-175.01012 845.88232 -535.34375
-176.68466 824.52856 -501.65463
-179.52866 807.87903 -444.43784
-199.26259 863.47131 -47.421875
-199.19595 829.98328 -48.762348
-199.22925 796.91724 -48.092434
-199.61903 765.2066 -40.250637
-175.92587 381.17297 -516.92047
-196.14316 392.28647 -110.17978
-195.77031 358.91235 -117.68108
-185.59105 309.31857 -322.47156
-165.99834 248.9977 -716.64685
-156.69904 208.93208 -903.73438
-151.66682 176.94472 -1004.9745
-151.19186 151.19203 -1014.5302
-151.24373 126.03654 -1013.4866
-151.58806 101.05882 -1006.559
-151.95753 75.978912 -999.12567
-152.56715 50.855835 -986.86145
-209.53546 34.922657 159.25287
-209.03664 0.00016582604 149.2169
-208.53818 -34.756252 139.18878
-208.24361 -69.414406 133.26231
-207.97733 -103.98853 127.90521
-207.71761 -138.4782 122.67991
-207.66573 -173.05464 121.63634
-207.61389 -207.61375 120.59352
-207.71663 -242.33583 122.66022
-207.87434 -277.16562 125.83327
-208.10989 -312.16458 130.57207
-208.33907 -347.23166 135.1832
-208.51648 -382.28006 138.75223
-208.85042 -417.70071 145.47067
-209.43292 -453.77112 157.18956
-210.06975 -490.16245 170.00117
-210.75877 -526.89685 183.86404
-211.49905 -563.99731 198.75693
-212.27928 -601.45782 214.4539
-213.13019 -639.3905 231.57306
-214.20634 -678.31995 253.22339
-215.37128 -717.90405 276.65985
-216.54787 -757.9173 300.33096
-217.73845 -798.37421 324.28384
-218.94113 -839.27423 348.47989
-220.15717 -880.62842 372.9444
-221.39122 -922.46332 397.77188
-222.6403 -964.77454 422.90192
-223.90359 -1007.566 448.31702
-225.18243 -1050.8513 474.04541
-226.47481 -1094.6282 500.04587
-227.7821 -1138.9104 526.34668
-229.10457 -1183.7067 552.95251
-230.40515 -1228.8273 579.11804
-231.71327 -1274.4227 605.4353
-196.69374 1258.8401 692.33148
-147.92862 917.15753 -484.96283
-147.88753 887.3252 -485.95493
-147.89705 857.8031 -485.72488
-148.04846 829.07141 -482.06949
-149.35416 806.51257 -450.5473
-151.87621 789.75647 -389.65967
-165.79883 828.9942 -53.537937
-165.82053 795.93878 -53.014046
-166.06641 763.90564 -47.077412
-145.60301 407.6886 -541.10797
-147.29211 382.95972 -500.32901
-161.11537 386.677 -166.60641
-160.81911 353.80206 -173.75885
-153.40549 306.81113 -352.73938
-137.33221 247.19806 -740.78265
-129.58287 207.3327 -927.86847
-126.40381 176.9655 -1004.6175
-125.43517 150.52232 -1028.0026
-125.4553 125.45548 -1027.5165
-126.55188 101.24165 -1001.0427
-176.01273 105.60776 193.04793
-175.82063 70.328514 188.41016
-175.40001 35.080193 178.25542
-174.98055 0.00021738997 168.1288
-174.55563 -34.910999 157.87056
-174.31046 -69.724106 151.95091
-174.08658 -104.45178 146.54593
-173.87891 -139.10298 141.53227
-173.83528 -173.83521 140.47949
-173.80484 -208.56569 139.7448
-173.90688 -243.46953 142.20802
-174.06593 -278.50543 146.0481
-174.26414 -313.67517 150.83281
-174.47272 -348.94537 155.86876
-174.62949 -384.18466 159.6535
-174.93639 -419.84708 167.06248
-175.43352 -456.12708 179.06444
-175.96635 -492.7056 191.92813
-176.55588 -529.66754 206.16071
-177.19125 -567.01196 221.49986
-177.84412 -604.66986 237.26149
-178.57037 -642.85321 254.79498
-179.49797 -682.09222 277.18915
-180.47871 -721.91473 300.86633
-181.47112 -762.17871 324.82516
-182.4736 -802.88367 349.02682
-183.48904 -844.0495 373.5419
-184.51863 -885.68939 398.39841
-185.55984 -927.79913 423.53558
-186.61383 -970.39178 448.98059
-187.67886 -1013.4659 474.6936
-188.74257 -1056.9584 500.3736
-189.79587 -1100.8158 525.802
-190.86095 -1145.1655 551.51544
-191.93808 -1190.0159 577.51953
-193.02742 -1235.3752 603.81854
-194.12918 -1281.2526 630.41785
-157.35162 1258.8132 692.23004
-157.53215 1220.8744 697.67773
-120.44962 903.37244 -421.3866
-120.29823 872.16241 -425.95511
-120.29971 842.09827 -425.91055
-120.46592 813.14496 -420.89484
-121.44823 789.4137 -391.2507
-123.81078 773.81757 -319.95465
-132.4991 794.99475 -57.761364
-132.64384 762.70233 -53.393456
-116.93481 409.27194 -527.45538
-118.72636 385.86072 -473.39041
-127.08125 381.24384 -221.25931
-126.81416 348.7392 -229.3195
-121.73804 304.34525 -382.50488
-109.07705 245.42345 -764.58441
-102.96415 205.92839 -949.0575
-99.868973 174.77083 -1042.4628
-99.002892 148.50447 -1068.599
-98.912582 123.64075 -1071.3243
-99.533737 99.53389 -1052.5792
-141.46094 106.0959 212.6859
-141.29564 70.647919 207.69792
-140.9554 35.239029 197.43024
-140.61343 0.00022885008 187.11028
-140.26978 -35.067345 176.73947
-140.0732 -70.036476 170.80713
-139.89581 -104.92175 165.45399
-139.73349 -139.73329 160.55565
-139.69829 -174.62265 159.49316
-139.69298 -209.53934 159.33299
-139.77869 -244.61259 161.91966
-139.92979 -279.85938 166.47937
-140.09256 -315.2081 171.39159
-140.27045 -350.67587 176.75948
-140.41455 -386.13974 181.10837
-140.67267 -422.01801 188.89803
-141.07248 -458.48547 200.96298
-141.51135 -495.28958 214.20728
-141.99068 -532.4649 228.67241
-142.51404 -570.05615 244.46637
-143.04057 -607.92236 260.3559
-143.63348 -646.35059 278.24844
-144.40071 -685.90332 301.40164
-145.19412 -725.97046 325.34467
-145.99701 -766.48425 349.57416
-146.81177 -807.46454 374.16162
-147.63641 -848.90912 399.04736
-148.46962 -890.81775 424.19189
-149.28726 -933.04529 448.86621
-150.11089 -975.72064 473.72128
-150.94365 -1018.8695 498.8522
-151.78571 -1062.4999 524.26361
-152.63721 -1106.6196 549.95984
-153.49832 -1151.2374 575.94623
-154.3692 -1196.3612 602.22717
-155.25002 -1242 628.80841
-156.14096 -1288.1627 655.69452
-91.844597 887.83112 -360.73422
-91.768112 856.50262 -363.81174
-91.757408 825.81683 -364.24213
-91.903961 796.50116 -358.34558
-92.754524 772.95453 -324.12161
-94.950821 759.60663 -235.74969
-99.360886 761.76697 -58.302139
-89.516037 387.90292 -454.42816
-89.79248 359.17001 -443.30469
-93.786705 343.8847 -282.58963
-90.575203 301.91745 -411.81091
-81.224976 243.67516 -788.03479
-76.703323 204.54237 -969.97217
-74.337822 173.45505 -1065.1526
-73.907791 147.81566 -1082.4556
-73.813972 123.02347 -1086.2305
-73.999115 98.665619 -1078.7811
-106.58881 106.58906 232.52696
-106.45495 70.970154 227.14078
-106.19693 35.399143 216.75882
-105.93506 0.00022251981 206.22212
-105.67499 -35.224842 195.75768
-105.52775 -70.351692 189.83304
-105.39754 -105.39749 184.59402
-105.27721 -140.36946 179.75209
-105.25408 -175.42336 178.82159
-105.26112 -210.52203 179.10484
-105.33306 -245.77698 181.99956
-105.45957 -281.22525 187.08992
-105.5965 -316.78928 192.59979
-105.72721 -352.42392 197.85867
-105.8501 -388.11691 202.80328
-106.05333 -424.2132 210.98079
-106.35477 -460.87048 223.10989
-106.69408 -497.90549 236.76254
-107.06467 -535.32324 251.67415
-107.46143 -573.12744 267.63834
-107.86272 -611.22198 283.78528
-108.3149 -649.88916 301.97968
-108.90904 -689.75708 325.88583
-109.51354 -730.09009 350.20895
-110.11598 -770.81171 374.44928
-110.7134 -811.89813 398.48792
-111.31735 -853.43286 422.7887
-111.92792 -895.42334 447.35623
-112.54522 -937.87665 472.19446
-113.16937 -980.80115 497.30844
-113.80048 -1024.2042 522.70258
-114.43867 -1068.0942 548.38129
-115.08406 -1112.4791 574.34973
-115.73738 -1157.3737 600.63715
-116.39754 -1202.7745 627.20013
-117.06528 -1248.6962 654.06763
-117.74198 -1295.1616 681.29596
-62.269287 871.77014 -297.99142
-62.240536 840.24756 -299.72672
-62.247391 809.21637 -299.31293
-62.325024 779.06293 -294.62741
-63.228901 758.74695 -240.07376
-66.149628 760.72089 -63.792171
-70.214317 772.35767 181.53378
-60.013008 390.08456 -434.16983
-60.044891 360.26956 -432.24551
-61.665836 339.1622 -334.41302
-59.905834 299.52924 -440.63843
-53.766941 241.95128 -811.15338
-50.793827 203.17552 -990.59674
-49.628521 173.7 -1060.9293
-49.385307 148.15605 -1075.6085
-49.355278 123.38837 -1077.4208
-49.514126 99.028404 -1067.8337
-71.389977 107.08517 252.49059
-71.295059 71.295319 246.76172
-71.119057 35.559681 236.13913
-70.94323 0.00015089563 225.52762
-70.767944 -35.383823 214.94756
-70.671608 -70.671448 209.13354
-70.585373 -105.8779 203.92856
-70.505775 -141.01143 199.12454
-70.49968 -176.24904 198.75677
-70.504425 -211.51308 199.04266
-70.566383 -246.98218 202.78278
-70.651215 -282.60471 207.9028
-70.752609 -318.38663 214.02206
-70.842323 -354.21149 219.43707
-70.929878 -390.1142 224.72134
-71.072609 -426.43552 233.33604
-71.273613 -463.27832 245.46751
-71.507065 -500.54926 259.55765
-71.762024 -538.21497 274.94565
-72.028336 -576.22644 291.01901
-72.300552 -614.55457 307.44867
-72.603516 -653.43146 325.73422
-72.993065 -693.43396 349.24573
-73.386818 -733.86804 373.01083
-73.784843 -774.74066 397.03378
-74.18721 -816.05908 421.31866
-74.593987 -857.83069 445.87003
-75.005249 -900.06281 470.69199
-75.421074 -942.76343 495.78915
-75.841537 -985.93976 521.16595
-76.266708 -1029.6005 546.82758
-76.696678 -1073.7534 572.77863
-77.131523 -1118.4069 599.02362
-77.571732 -1163.5758 625.59283
-78.016586 -1209.2568 652.44202
-78.466568 -1255.465 679.60089
-78.931519 -1302.37 707.66351
-32.925537 1086.543 -81.811562
-32.83606 1050.754 -92.612564
-32.821095 1017.4542 -94.418564
-32.810249 984.30768 -95.727936
-32.801899 951.25531 -96.735847
-31.89459 893.04877 -206.25764
-31.708467 856.12878 -228.72475
-31.684126 823.78723 -231.66318
-31.697386 792.43475 -230.06244
-31.800432 763.21027 -217.62383
-32.555508 748.77679 -126.47814
-33.010906 726.24005 -71.506363
-33.010906 693.22913 -71.506416
-33.010906 660.21826 -71.50647
-33.010906 627.2074 -71.506531
-33.010906 594.19647 -71.506599
-33.010906 561.18561 -71.506645
-33.241085 531.85748 -43.721256
-33.284611 465.98462 -38.4673
-30.191359 392.48792 -411.85605
-30.148243 361.77896 -417.06058
-30.415358 334.569 -384.81699
-29.717733 297.17749 -469.02783
-26.694544 240.25098 -833.95898
-25.228323 201.82671 -1010.9473
-24.85582 173.99088 -1055.9126
-24.757896 148.54744 -1067.7332
-24.754808 123.77421 -1068.1057
-24.853718 99.414902 -1056.1664
-35.866821 107.60063 273.23279
-35.818901 71.638077 267.44867
-35.724842 35.724945 256.09457
-35.632832 0.00016010841 244.98759
-35.544559 -35.544384 234.33238
-35.497669 -70.99514 228.67235
-35.454155 -106.3624 223.41983
-35.414845 -141.65924 218.67451
-35.416721 -177.08359 218.90131
-35.419113 -212.51463 219.18988
-35.456894 -248.19801 223.75012
-35.500416 -284.0032 229.00359
-35.555397 -319.99847 235.64059
-35.603992 -356.03976 241.50656
-35.64822 -392.13037 246.84549
-35.722931 -428.67508 255.86391
-35.82135 -465.6774 267.74387
-35.938232 -503.1351 281.853
-36.064911 -540.97351 297.1442
-36.193375 -579.09369 312.65128
-36.329762 -617.60583 329.1149
-36.48457 -656.72217 347.8017
-36.681316 -696.94489 371.55118
-36.880199 -737.60376 395.55814
-37.081249 -778.70599 419.82693
-37.2845 -820.25897 444.36197
-37.489994 -862.26965 469.16708
-37.697765 -904.74634 494.24747
-37.907852 -947.69623 519.60724
-38.120491 -991.13269 545.27515
-38.335331 -1035.0538 571.20837
-38.552605 -1079.4728 597.43567
-38.772358 -1124.3982 623.96179
-38.994625 -1169.8386 650.79224
-39.219669 -1215.8096 677.95734
-39.438431 -1262.0298 704.36438
-39.63504 -1307.9562 728.09717
-1.0285002e-21 1080.745 -103.02013
-1.3469352e-21 1047.1735 -106.11951
-1.464802e-21 1013.8531 -108.44077
-5.4717765e-22 980.73785 -110.09187
-1.4462777e-21 947.83557 -110.96999
-7.350354e-22 915.02954 -111.49635
-4.0821595e-22 872.42627 -155.8622
-1.0456823e-21 838.95935 -161.22467
-2.0758671e-21 806.69525 -161.20763
-6.9865581e-22 775.13544 -157.64575
-3.1774984e-22 750.31293 -118.4157
-2.9303373e-22 722.2998 -93.125992
-4.9281623e-22 689.46814 -93.125999
-9.2548091e-22 656.63635 -93.126129
-9.1402387e-22 623.80438 -93.125954
-1.2408095e-21 590.9726 -93.126083
-1.440592e-21 558.14081 -93.126167
-1.5578173e-21 527.08752 -79.708313
-1.621313e-21 494.14246 -79.726204
-1.7211246e-21 460.82553 -82.951225
-6.9183732e-22 390.09097 -434.11069
-3.4970989e-22 360.12372 -433.71112
-4.7442585e-22 330.09863 -433.87387
-1.4784939e-21 294.8634 -496.96072
-6.1206609e-22 238.5753 -856.43469
-1.0068559e-21 201.21315 -1020.2058
-1.3645942e-21 174.30287 -1050.5328
-4.2748516e-22 148.94354 -1059.7653
-6.6994501e-22 124.19183 -1058.0228
-8.6405669e-22 99.851395 -1042.9954
-7.203481e-22 108.13907 294.9014
-1.4912937e-21 72.042236 291.85046
-1.8624707e-21 35.926098 280.36792
-1.2842288e-21 0.00018989382 268.9248
-6.4844589e-22 -35.740707 258.02493
-3.5522025e-22 -71.376335 251.67436
-1.5546508e-21 -106.9253 246.07288
-2.0486293e-21 -142.40892 241.29807
-1.6413935e-21 -178.02316 241.58972
-1.1443318e-21 -213.64146 241.86069
-2.4067629e-22 -249.52538 246.63663
-2.0954787e-21 -285.52359 251.94629
-1.2636033e-21 -321.72531 258.80167
-4.8999602e-22 -357.9516 264.58368
-1.7093485e-21 -394.18652 269.4101
-1.2117906e-21 -430.8287 277.52795
-5.9181885e-22 -467.99371 289.25104
-3.6131294e-22 -505.6384 303.43683
-2.0293713e-21 -543.66656 318.81595
-1.1133844e-21 -581.9408 334.1304
-1.8132793e-21 -620.68439 350.97543
-1.7688696e-21 -660.04932 370.11447
-8.1243777e-22 -700.495 394.10611
-1.3476088e-21 -741.38159 418.35895
-1.5237739e-21 -782.71613 442.8775
-1.3966674e-21 -824.50616 467.66638
-1.2337817e-21 -866.7594 492.7301
-6.6681582e-22 -909.48334 518.07288
-8.5358052e-22 -952.68597 543.69971
-1.0849652e-21 -996.38049 569.63922
-1.4671983e-21 -1040.5652 595.84882
-2.150439e-21 -1085.2078 622.15942
-3.1993549e-21 -1130.16 647.94562
-9.9911018e-22 -1175.6172 674.04315
-5.12108e-22 -1220.6842 696.9386
-1.5704585e-21 -1265.4399 717.22876
-1.0842254e-21 -1312.2748 743.89465
32.786087 1081.941 -98.644699
32.769855 1048.6356 -100.60416
32.751736 1015.304 -102.79086
32.73262 981.97888 -105.09835
32.712654 948.66705 -107.50878
32.693874 915.42853 -109.77614
32.672646 882.16138 -112.33854
32.671772 849.46625 -112.44381
32.682381 817.05963 -111.16304
32.693146 784.63562 -109.86375
32.751884 753.29352 -102.77343
32.846924 722.63251 -91.300819
32.846924 689.78571 -91.300926
32.846924 656.93872 -91.300781
32.846924 624.0918 -91.300995
32.846924 591.24469 -91.300926
32.846924 558.39795 -91.301018
32.964394 527.43036 -77.120972
32.964542 494.46826 -77.103104
32.939857 461.15817 -80.082771
29.547169 384.11334 -489.61679
29.500065 354.00092 -495.30261
29.613272 325.74609 -481.63739
29.257687 292.57693 -524.56024
26.324638 236.9218 -878.61041
25.149126 201.19313 -1020.5072
24.951979 174.66402 -1044.3053
24.891613 149.34981 -1051.592
24.923281 124.61649 -1047.7694
25.074448 100.29794 -1029.522
36.216572 108.64979 315.45145
36.217999 72.436188 315.62375
36.129295 36.129333 304.91629
36.0336 0.00017174822 293.36459
35.947906 -35.947727 283.02045
35.889774 -71.779327 276.0036
35.842846 -107.52842 270.33881
35.805984 -143.22385 265.88937
35.806507 -179.03236 265.95245
35.808601 -214.85146 266.20523
35.844246 -250.90952 270.5076
35.885918 -287.08713 275.5379
35.943157 -323.48822 282.44742
35.988762 -359.88742 287.95224
36.022114 -396.24313 291.97845
36.083866 -433.00626 299.43234
36.17947 -470.33292 310.97293
36.297096 -508.15912 325.17139
36.42379 -546.35663 340.46475
36.551006 -584.81592 355.82144
36.693958 -623.79718 373.07736
36.855961 -663.4071 392.63239
37.056744 -704.07806 416.86923
37.259727 -745.1944 441.37155
37.464947 -786.76385 466.1438
37.672634 -828.79779 491.21375
37.882439 -871.29608 516.53973
38.094597 -914.2702 542.14929
38.305149 -957.6286 567.56512
38.514 -1001.3639 592.7757
38.724937 -1045.5732 618.23828
38.938408 -1090.2753 644.00623
39.149651 -1135.3398 669.50568
39.315804 -1179.4738 689.56158
39.483154 -1223.9777 709.76294
39.652153 -1268.8687 730.16284
39.916946 -1317.2592 762.1264
65.908974 1087.4982 -78.316856
65.840752 1053.452 -82.434738
65.799171 1019.8875 -84.943924
65.755592 986.33392 -87.574493
65.731171 953.10229 -89.048248
65.724701 920.146 -89.438637
64.941795 876.71423 -136.6916
64.877846 843.41217 -140.55113
64.878418 810.98047 -140.51653
64.913963 778.96777 -138.37125
65.294174 750.88312 -115.4234
66.314438 729.45898 -53.844971
66.314438 696.30182 -53.845055
66.314438 663.14465 -53.845173
66.314438 629.98718 -53.845051
66.314735 596.83282 -53.827141
66.314735 563.67535 -53.827065
58.606636 380.94333 -519.05225
58.457634 350.74603 -528.04523
58.455544 321.50562 -528.17157
57.788097 288.9408 -568.45514
52.287106 235.29216 -900.46967
50.336506 201.34616 -1018.1985
50.019825 175.0696 -1037.312
49.929054 149.78726 -1042.7904
50.02306 125.0577 -1037.1168
50.390892 100.78191 -1014.9163
72.777214 109.16587 336.21811
72.825188 72.825386 339.11377
72.669945 36.335098 329.74399
72.485313 0.00012855863 318.60025
72.314423 -36.157196 308.28632
72.187233 -72.186989 300.60919
72.097969 -108.14682 295.22156
72.027985 -144.05583 290.99783
72.02092 -180.05208 290.57159
72.024803 -216.07423 290.80594
72.088768 -252.31061 294.66663
72.169144 -288.67648 299.51801
72.277428 -325.24823 306.05316
72.369278 -361.84631 311.59689
72.422432 -398.32318 314.8049
72.533981 -435.20374 321.53738
72.722458 -472.69592 332.91345
72.957542 -510.70258 347.10187
73.207649 -549.05719 362.19699
73.467552 -587.7403 377.88348
73.757431 -626.93799 395.37933
74.089195 -666.80267 415.40317
74.494896 -707.70135 439.88925
74.90506 -749.05054 464.64511
75.319771 -790.85754 489.67535
75.726616 -832.99255 514.22986
76.134712 -875.54913 538.8609
76.546837 -918.56189 563.7348
76.963844 -962.04797 588.90356
77.385422 -1006.0105 614.34827
77.811234 -1050.4515 640.04822
78.178062 -1094.4928 662.18835
78.509331 -1138.3853 682.18219
78.843002 -1182.6448 702.3205
79.179939 -1227.2889 722.65668
79.519768 -1272.3163 743.16742
96.674316 870.06897 -166.40172
96.588295 837.09882 -169.86237
96.57222 804.76855 -170.50955
96.634041 773.07227 -168.02196
97.814339 749.91003 -120.53056
87.944687 381.0939 -517.65485
87.426262 349.70529 -538.51434
87.379471 320.39157 -540.39709
86.439072 288.1304 -578.23602
77.894814 233.68459 -922.03027
75.600853 201.60236 -1014.332
75.199471 175.46552 -1030.4824
75.115913 150.23198 -1033.8444
75.306366 125.5107 -1026.1815
76.006546 101.3422 -998.00812
109.68631 109.68658 357.16098
109.82788 73.218735 362.85742
109.62957 36.543262 354.87793
109.36626 0.00020683985 344.28299
109.10746 -36.369091 333.86951
108.89935 -72.599525 325.49622
108.77949 -108.77945 320.67325
108.67382 -144.89827 316.42136
108.65078 -181.08447 315.49435
108.65614 -217.31203 315.70993
108.7387 -253.7235 319.03207
108.85686 -290.28476 323.78638
109.00869 -327.02594 329.89572
109.14798 -363.82654 335.50021
109.20639 -400.42328 337.85049
109.35649 -437.42593 343.89008
109.63393 -475.08029 355.05334
109.98683 -513.27179 369.25311
110.35639 -551.78174 384.12256
110.75625 -590.69977 400.2117
111.19603 -630.11078 417.90747
111.7027 -670.21606 438.29413
112.29462 -711.19916 462.11139
112.89285 -752.6189 486.1821
113.49691 -794.47827 510.48746
114.10806 -836.79224 535.078
114.72581 -879.56439 559.93475
115.34969 -922.79742 585.03802
115.98101 -966.50824 610.44012
116.59521 -1010.4917 635.15369
117.08581 -1053.7721 654.89355
117.58118 -1097.4241 674.82544
118.08074 -1141.447 694.9267
118.58395 -1185.8394 715.17407
119.09209 -1230.6182 735.6203
119.60462 -1275.7825 756.24274
127.83589 862.8924 -198.48637
127.77142 830.51447 -200.43219
127.81754 798.85968 -199.04005
127.96616 767.79706 -194.55507
134.11739 771.17505 -8.9252434
122.82442 491.29785 -349.72079
122.8578 460.71689 -348.71353
122.89119 430.11945 -347.70566
117.95762 383.36234 -496.58917
117.2114 351.63422 -519.10846
117.11657 322.07068 -521.9704
114.38177 285.95453 -604.50012
103.15463 232.09813 -943.3092
100.95802 201.91623 -1009.5976
100.52184 175.91328 -1022.7609
100.46066 150.69107 -1024.6067
100.78351 125.97952 -1014.864
102.12324 102.12341 -974.43414
146.94905 110.21194 378.30487
147.23032 73.615227 386.7923
147.03436 36.758701 380.8786
146.68353 0.00021918604 370.29126
146.33363 -36.583282 359.73239
146.03619 -73.017998 350.75659
145.89336 -109.41983 346.44608
145.75079 -145.75056 342.14398
145.70238 -182.12784 340.68298
145.70961 -218.56425 340.90094
145.79636 -255.14354 343.51898
145.95567 -291.91122 348.32684
146.14296 -328.82144 353.97836
146.30449 -365.76108 358.85291
146.38101 -402.54767 361.16251
146.55696 -439.67084 366.47214
146.92041 -477.49106 377.43991
147.38095 -515.83325 391.33832
147.85704 -554.46375 405.70557
148.37965 -593.51849 421.47684
148.94598 -633.02039 438.56763
149.60497 -673.22211 458.45355
150.40131 -714.40607 482.48557
151.20618 -756.03082 506.77475
152.01971 -798.10327 531.32501
152.84125 -840.62683 556.11719
153.67252 -883.61676 581.20294
154.51286 -927.07697 606.56293
155.22133 -970.13312 627.94238
155.87425 -1013.1827 647.64636
156.53188 -1056.59 667.4917
157.19589 -1100.3712 687.53046
157.86559 -1144.5254 707.74017
158.54016 -1189.0511 728.09698
159.22137 -1233.9656 748.65454
159.90759 -1279.2606 769.36316
158.74446 888.9693 -223.84499
158.55807 856.21393 -228.34473
158.54645 824.44165 -228.62556
158.59232 792.96155 -227.51837
159.19235 764.12347 -213.03218
168.50426 775.11981 11.776874
152.70332 488.6507 -369.69095
152.79416 458.38266 -367.49805
152.8851 428.07846 -365.3027
148.05084 384.93234 -482.01199
147.2561 353.41486 -501.1987
147.15875 323.74942 -503.54874
141.90562 283.81137 -630.37073
128.11978 230.61571 -963.19037
126.42165 202.27486 -1004.1869
125.98544 176.37976 -1014.718
125.99624 151.19562 -1014.4572
126.5022 126.5023 -1002.2424
183.36722 146.69386 370.60086
184.41025 110.64622 395.78183
184.99352 73.997536 409.86285
184.91061 36.982285 407.86203
184.46304 0.00019379614 397.05612
184.01761 -36.803432 386.3027
183.71758 -73.486801 379.05869
183.52847 -110.11694 374.49377
183.34068 -146.67235 369.95981
183.25743 -183.25735 367.95047
183.26659 -219.91965 368.17105
183.32329 -256.6524 369.54022
183.53305 -293.65271 374.60431
183.70287 -330.66504 378.70389
183.84077 -367.68152 382.03357
183.93652 -404.66022 384.34482
184.09047 -441.81699 388.06146
184.51678 -479.7435 398.35361
185.08299 -518.2323 412.02328
185.66959 -557.00867 426.18481
186.3166 -596.21301 441.80511
187.02144 -635.87274 458.82132
187.84972 -676.25885 478.81808
188.85321 -717.64209 503.04437
189.86845 -759.47369 527.55457
190.89467 -801.75745 552.32977
191.93105 -844.4964 577.34991
192.92299 -887.44556 601.29761
193.72887 -929.8985 620.75299
194.54253 -972.71246 640.39655
195.36304 -1015.8878 660.20581
196.18947 -1059.423 680.15735
197.02397 -1103.334 700.30396
197.86455 -1147.6144 720.59723
198.79405 -1192.7642 743.03741
199.81599 -1238.859 767.70935
201.07059 -1286.8516 797.9978
188.98566 881.93317 -254.1781
188.84396 849.79803 -257.02866
188.83182 818.2713 -257.27289
188.98079 787.4201 -254.27567
190.739 762.95612 -218.90308
203.27095 779.20538 33.220013
183.06059 488.16162 -373.3808
183.21201 458.03012 -370.33469
183.36368 427.84866 -367.2832
178.20404 386.10901 -471.08743
177.37933 354.75867 -487.67899
177.3358 325.11575 -488.55481
169.01932 281.69904 -655.86932
153.50441 230.25684 -968.00531
151.9895 202.65286 -998.48273
151.5865 176.85109 -1006.5905
151.70285 151.70303 -1004.2499
152.44209 127.03521 -989.37732
220.58353 147.05577 381.52264
221.94527 110.9728 408.91837
222.84293 74.281158 426.97784
223.11591 37.186108 432.47
222.70781 8.2971426e-05 424.25977
222.16788 -37.027805 413.39703
221.95421 -73.984688 409.09833
221.74429 -110.87211 404.87509
221.51472 -147.67638 400.25662
221.40012 -184.49991 397.95096
221.41122 -221.41118 398.17468
221.36897 -258.26364 397.3244
221.62387 -295.49832 402.45248
221.69521 -332.54257 403.88763
221.7666 -369.61087 405.32391
221.85924 -406.74173 407.18774
221.97881 -443.9574 409.59293
222.46278 -482.00247 419.32996
223.12607 -520.62732 432.67444
223.82968 -559.57416 446.83026
224.59955 -598.93201 462.3186
225.44157 -638.75092 479.25867
226.43991 -679.31958 499.34372
227.65504 -720.90747 523.79016
228.88448 -762.94824 548.52484
230.12726 -805.44543 573.52777
231.15428 -847.56555 594.18976
232.1196 -889.79181 613.61035
233.09178 -932.367 633.16901
234.07336 -975.3056 652.91711
235.07831 -1018.6724 673.13489
236.3299 -1063.4844 698.31488
237.66148 -1109.0868 725.10449
219.27423 908.42188 -275.02682
218.76582 875.0636 -283.79385
218.68954 843.51703 -285.10916
218.75186 812.50702 -284.03452
219.18916 782.81854 -276.49359
238.29451 817.01007 52.966194
238.42488 783.39624 55.214523
214.2139 489.63187 -362.28888
214.47119 459.58136 -357.85202
214.72911 429.4584 -353.40433
208.87584 387.91241 -454.34052
207.8383 356.29437 -472.2319
207.80304 326.54788 -472.84033
195.73314 279.61896 -680.97845
179.33455 230.57312 -963.76208
177.75752 203.15155 -990.95703
177.37123 177.37137 -997.61786
177.59053 152.22057 -993.83636
178.65295 127.60934 -975.51562
257.89984 147.37157 391.04822
259.6998 111.30013 422.08755
260.98489 74.567192 444.24768
261.60889 37.372787 455.00854
261.42404 0.00014629251 451.82062
260.87762 -37.267956 442.39822
260.70438 -74.486771 439.41049
260.48648 -111.63688 435.65305
260.2413 -148.70917 431.42484
260.07941 -185.77081 428.63315
260.07547 -222.9216 428.56516
259.93347 -259.93329 426.11688
260.13992 -297.3027 429.67697
260.1228 -334.44345 429.38181
260.10965 -371.58517 429.155
260.15308 -408.81183 429.90375
260.23602 -446.11865 431.33408
260.76785 -484.28296 440.50479
261.5224 -523.04468 453.51727
262.33356 -562.14319 467.50497
263.22925 -601.66675 482.95023
264.20975 -641.6521 499.85843
265.38098 -682.40814 520.05585
