# .PCD v0.7 - Point Cloud Data file format
VERSION 0.7
FIELDS x y z
SIZE 4 4 4
TYPE F F F
COUNT 1 1 1
WIDTH 1493
HEIGHT 1
VIEWPOINT 0 0 0 1 0 0 0
POINTS 1493
DATA ascii
-12.065544 -8.5168543 -5.0370102
-12.140581 -8.9268961 -4.7706084
-12.208736 -9.336092 -4.5286336
-11.588161 -5.9696579 -5.4851546
-11.575332 -6.3138156 -5.5320816
-11.589363 -6.6726613 -5.4807596
-11.631801 -7.0495763 -5.3255258
-11.695972 -7.4428906 -5.0907907
-11.764569 -7.8430452 -4.8398714
-11.834602 -8.2483587 -4.5836987
-11.905474 -8.6585264 -4.3244567
-11.970885 -9.0688505 -4.0851908
-12.013883 -9.4654827 -3.9279072
-11.259766 -4.9261451 -5.3992982
-11.243595 -5.2704339 -5.4602971
-11.256932 -5.6284652 -5.409986
-11.292654 -5.9992218 -5.2752347
-11.336942 -6.3770294 -5.1081729
-11.400177 -6.7688546 -4.8696356
-11.462676 -7.1641717 -4.6338739
-11.526382 -7.5641861 -4.3935604
-11.595715 -7.9720521 -4.1320295
-11.660526 -8.3810024 -3.8875453
-11.724116 -8.7930861 -3.6476703
-11.787318 -9.2088413 -3.4092565
-11.844482 -9.623641 -3.1936216
-10.931217 -3.8788183 -5.3084912
-10.918366 -4.2264643 -5.3585329
-10.93148 -4.5841684 -5.3074689
-10.957803 -4.9486842 -5.2049732
-10.992345 -5.3188763 -5.0704679
-11.041108 -5.6986361 -4.8805904
-11.102932 -6.0887036 -4.639853
-11.164266 -6.4824762 -4.4010272
-11.227204 -6.8811884 -4.155952
-11.290296 -7.2840619 -3.9102788
-11.34443 -7.6849351 -3.6994863
-11.400561 -8.0907211 -3.4809179
-11.461531 -8.5037146 -3.2435102
-11.521552 -8.9199095 -3.009795
-11.578668 -9.337635 -2.78739
-11.636303 -9.7594805 -2.5629618
-10.594844 -2.8252916 -5.2431226
-10.591276 -3.177382 -5.2574763
-10.603602 -3.5345328 -5.2078819
-10.625434 -3.8959928 -5.1200376
-10.655943 -4.2623763 -4.9972763
-10.693635 -4.6339068 -4.8456197
-10.746827 -5.0151858 -4.6315889
-10.803951 -5.4019756 -4.4017377
-10.861954 -5.7930412 -4.1683526
-10.922932 -6.1896596 -3.9230003
-10.97889 -6.5873327 -3.6978374
-11.031788 -6.9867978 -3.484998
-11.085196 -7.3901315 -3.2700958
-11.139124 -7.7973862 -3.0531058
-11.192347 -8.2077188 -2.8389552
-11.247421 -8.6230221 -2.6173527
-11.303137 -9.0425091 -2.3931715
-11.359456 -9.4662113 -2.1665606
-11.415452 -9.8933907 -1.9412507
-10.286557 -1.4188341 -5.0563321
-10.262257 -1.7693527 -5.157486
-10.262381 -2.1232498 -5.156971
-10.279396 -2.4812336 -5.0861425
-10.296718 -2.8404729 -5.0140433
-10.319889 -3.2027242 -4.9175901
-10.347314 -3.5680387 -4.8034353
-10.401418 -3.9453661 -4.5782328
-10.456733 -4.326921 -4.3479924
-10.50974 -4.7112613 -4.1273503
-10.566259 -5.1009517 -3.8920944
-10.620165 -5.4931874 -3.6677136
-10.667401 -5.8854632 -3.4710915
-10.715825 -6.2816892 -3.269536
-10.767911 -6.6835289 -3.0527294
-10.820506 -7.0892959 -2.8338029
-10.868667 -7.4956326 -2.6333361
-10.914787 -7.9038095 -2.4413688
-10.961299 -8.3154659 -2.2477643
-11.014048 -8.7352781 -2.0282025
-11.068889 -9.1604605 -1.7999265
-11.120986 -9.5870571 -1.5830749
-11.173625 -10.017732 -1.3639702
-11.221437 -10.447544 -1.1649532
-9.9488373 -0.35531309 -4.9830956
-9.9349699 -0.70963997 -5.0428791
-9.9400148 -1.0650014 -5.0211253
-9.9530125 -1.4218575 -4.9650922
-9.9662056 -1.7796787 -4.908217
-9.9862223 -2.1399028 -4.8219228
-10.006928 -2.5017321 -4.732655
-10.05938 -2.8741083 -4.5065327
-10.111057 -3.2499812 -4.2837486
-10.161885 -3.6292439 -4.0646219
-10.213228 -4.0123386 -3.8432772
-10.266716 -4.4000196 -3.6126888
-10.312438 -4.7879162 -3.4155762
-10.358568 -5.1792817 -3.2167046
-10.40529 -5.5742612 -3.0152841
-10.452566 -5.9728942 -2.8114681
-10.498219 -6.3739161 -2.6146569
-10.541793 -6.776866 -2.4268036
-10.586685 -7.1838202 -2.2332723
-10.632006 -7.5942898 -2.0378864
-10.67767 -8.0082521 -1.8410182
-10.723031 -8.4252377 -1.6454719
-10.768918 -8.8458967 -1.4476448
-10.819139 -9.2735462 -1.2311418
-10.869829 -9.7052031 -1.0126092
-10.915149 -10.135495 -0.81723207
-10.959824 -10.568402 -0.62462968
-9.6079407 0.71170074 -4.9186325
-9.6053009 0.35575399 -4.9304314
-9.6126776 9.1279139e-07 -4.89745
-9.6245432 -0.3564643 -4.8443995
-9.6372986 -0.71387464 -4.7873769
-9.6516914 -1.0724088 -4.7230253
-9.6654615 -1.4319189 -4.6614661
-9.7211323 -1.8002083 -4.4125791
-9.7711802 -2.1713722 -4.1888251
-9.8217869 -2.5463893 -3.9625721
-9.872962 -2.9253206 -3.733783
-9.9232225 -3.3077402 -3.5090768
-9.9661407 -3.6911619 -3.3172045
-10.008841 -4.0776758 -3.1262972
-10.051951 -4.4675336 -2.9335628
-10.097621 -4.8618164 -2.7293849
-10.143794 -5.2597437 -2.5229573
-10.181578 -5.6564317 -2.3540301
-10.219337 -6.0559025 -2.18522
-10.257378 -6.4583483 -2.0151489
-10.298511 -6.8656731 -1.8312515
-10.342944 -7.278367 -1.6326045
-10.385312 -7.692822 -1.4431849
-10.426245 -8.1092997 -1.2601798
-10.467503 -8.5290747 -1.075727
-10.510668 -8.9535322 -0.88274699
-10.558126 -9.3850012 -0.67057198
-10.601098 -9.8158293 -0.47845712
-10.643992 -10.24977 -0.28668496
-10.685938 -10.685935 -0.099156208
-10.4553 20.10635 0.66753584
-10.41223 19.623055 0.46757647
-10.369515 19.143721 0.26925489
-10.327147 18.668308 0.072555922
-10.285125 18.196762 -0.12254251
-10.243443 17.729036 -0.31606281
-10.202098 17.265089 -0.50801677
-10.161084 16.804873 -0.69842762
-10.120534 16.348557 -0.88669336
-10.080483 15.896148 -1.0726366
-10.040792 15.447372 -1.25691
-10.001369 15.002057 -1.4399393
-9.9622545 14.560222 -1.62154
-9.9267139 14.126478 -1.7865444
-9.8945456 13.70014 -1.9358933
-9.862628 13.276617 -2.0840795
-9.8308735 12.855758 -2.231508
-9.7999506 12.438401 -2.3750706
-9.7706404 12.025404 -2.5111527
-9.7412968 11.614626 -2.6473856
-9.2702932 1.7827497 -4.8341222
-9.2749109 1.426911 -4.8126807
-9.2817907 1.0709754 -4.7807407
-9.2898865 0.7146076 -4.7431579
-9.3004503 0.35770926 -4.6941085
-9.3136892 3.3684108e-07 -4.6326442
-9.3279543 -0.35876739 -4.5664167
-9.3756924 -0.72120714 -4.3447833
-9.431179 -1.0882125 -4.0871725
-9.4800215 -1.4584635 -3.8604119
-9.5293732 -1.8325688 -3.6312912
-9.5809231 -2.2109809 -3.3919549
-9.6228743 -2.5907724 -3.1971862
-9.6644192 -2.9736674 -3.0043044
-9.7063246 -3.3598814 -2.8097486
-9.7485952 -3.7494586 -2.6135015
-9.7912359 -4.1424437 -2.4155331
-9.8275824 -4.5358071 -2.2467844
-9.8632221 -4.9316115 -2.0813165
-9.8999777 -5.3307571 -1.9106714
-9.9369659 -5.7328649 -1.7389485
-9.9742746 -6.1380143 -1.5657352
-10.011163 -6.5457611 -1.3944688
-10.044536 -6.953908 -1.2395285
-10.084301 -7.3692951 -1.0549123
-10.124382 -7.7879863 -0.86882591
-10.164783 -8.2100153 -0.6812588
-10.20428 -8.6343889 -0.49788526
-10.240053 -9.0585089 -0.3317962
-10.281062 -9.4902077 -0.14140999
-10.322958 -9.9259205 0.053103648
-10.362899 -10.362898 0.23853663
-10.402819 -10.802925 0.42387402
-9.9011946 17.426104 -0.066288732
-9.8577538 16.955339 -0.27603537
-9.8109331 16.482368 -0.50210828
-9.764554 16.013872 -0.72604305
-9.7186127 15.549779 -0.94787085
-9.6731434 15.090105 -1.1674168
-9.6280546 14.634645 -1.3851213
-9.5833855 14.18341 -1.600806
-9.5391283 13.736347 -1.8144976
-9.4952784 13.29339 -2.0262241
-9.451829 12.854488 -2.2360134
-9.4087763 12.419585 -2.4438951
-9.3661537 11.988678 -2.6496935
-9.3238754 11.561605 -2.8538277
-9.2822523 11.138705 -3.0548069
-9.2414236 10.720052 -3.2519391
-9.2039156 10.308386 -3.4330447
-9.1692305 9.9027681 -3.6005232
-9.1348419 9.5002375 -3.7665596
-9.1008997 9.1009007 -3.9304502
-9.0672092 8.7045221 -4.0931239
-9.0337667 8.3110666 -4.2546005
-9.0006065 7.9205341 -4.4147096
-8.9676523 7.5328293 -4.5738263
-8.9359903 7.1487951 -4.7267041
-8.907938 6.7700329 -4.8621554
-8.9079733 6.413743 -4.8619828
-8.9228458 2.8553121 -4.7901716
-8.9280195 2.4998467 -4.765192
-8.9369335 2.1448658 -4.7221518
-8.9468098 1.7893635 -4.6744599
-8.9558344 1.4329336 -4.6308851
-8.9670324 1.0760444 -4.5768218
-8.9787683 0.71830297 -4.5201507
-9.0146093 0.36058655 -4.3471012
-9.0783873 5.3378568e-07 -4.0391531
-9.1369276 -0.3654758 -3.7564952
-9.1931944 -0.73545444 -3.4848125
-9.245965 -1.1095155 -3.2300169
-9.2883997 -1.486141 -3.025126
-9.328022 -1.8656033 -2.8338037
-9.3659544 -2.2478292 -2.6506543
-9.4041948 -2.633173 -2.4660132
-9.4443703 -3.0221982 -2.2720313
-9.4801521 -3.4128523 -2.0992596
-9.5138226 -3.8055274 -1.9366887
-9.5476904 -4.2009811 -1.7731571
-9.5818424 -4.5992837 -1.6082562
-9.6163654 -5.0005102 -1.4415615
-9.6527042 -5.4055142 -1.2661046
-9.6845446 -5.8107257 -1.1123649
-9.7160397 -6.2182646 -0.96029449
-9.7477388 -6.6284623 -0.80723417
-9.7796469 -7.0413437 -0.65317297
-9.817275 -7.4611273 -0.47148255
-9.8537846 -7.8830266 -0.29520276
-9.8884773 -8.3063202 -0.12768857
-9.9234161 -8.7326059 0.041009665
-9.958602 -9.1619148 0.21090323
-9.9970341 -9.5971508 0.39646599
-10.033796 -10.033793 0.57397074
-10.069633 -10.472417 0.74700582
-10.104428 -10.912782 0.91501284
-10.144977 -11.362372 1.1107978
-8.745286 8.3809004 -3.8880889
-8.6977873 7.9729733 -4.1269922
-8.6507654 7.5694222 -4.3634882
-8.6054068 7.171174 -4.5916314
-8.5667648 6.7820244 -4.7859817
-8.5218334 6.3913774 -5.0119715
-8.5051012 6.0244484 -5.096128
-8.5574703 3.565613 -4.8327279
-8.5685711 3.2132137 -4.7768979
-8.5826263 2.8608768 -4.7062073
-8.5957136 2.5070844 -4.6403823
-8.606843 2.1517122 -4.5844049
-8.6189861 1.7956227 -4.5233335
-8.6313028 1.438553 -4.46138
-8.6928864 1.0866112 -4.1516376
-8.7685757 0.73071635 -3.7709527
-8.8359814 0.36816818 -3.4319317
-8.8933411 2.5093243e-06 -3.1434317
-8.9413414 -0.37255448 -2.9020088
-8.9879131 -0.74899226 -2.6677668
-9.0289917 -1.1286232 -2.4611633
-9.0668278 -1.5111382 -2.2708573
-9.1049442 -1.8968633 -2.0791473
-9.1421967 -2.2855475 -1.8917885
-9.1731815 -2.6755095 -1.7359461
-9.2030945 -3.0676975 -1.5854936
-9.2359056 -3.463464 -1.4204639
-9.2689524 -3.862061 -1.2542528
-9.3022356 -4.2635236 -1.0868467
-9.3292503 -4.6646237 -0.95097816
-9.3551378 -5.0673656 -0.82077318
-9.3841267 -5.4740725 -0.67497361
-9.4149714 -5.884356 -0.51983047
-9.4459791 -6.297318 -0.36387864
-9.4767227 -6.7126775 -0.20924416
-9.5042486 -7.1281857 -0.070801899
-9.5344706 -7.5481215 0.081204057
-9.5683498 -7.9736242 0.2516025
-9.6024714 -8.4021606 0.423217
-9.6360884 -8.8330803 0.59230113
-9.6634445 -9.2608004 0.72989184
-9.6965132 -9.6965132 0.89621317
-9.7314205 -10.136897 1.0717882
-9.7633333 -10.576943 1.2322923
-9.7973623 -11.022032 1.4034452
-9.8311729 -11.4697 1.5734962
-8.1591253 6.0306597 -5.0520205
-8.136219 5.6599813 -5.1722403
-8.1838799 3.9140291 -4.922102
-8.2066908 3.5681267 -4.8023882
-8.2261858 3.2189422 -4.7000709
-8.2429218 2.8671048 -4.6122341
-8.2579088 2.5132785 -4.5335832
-8.2722397 2.1579776 -4.4583664
-8.3452005 1.8141743 -4.075448
-8.4306717 1.4662045 -3.6268709
-8.5016108 1.1089076 -3.2545614
-8.5662136 0.74488926 -2.9155076
-8.6212616 0.37483788 -2.6265967
-8.6720457 2.4998935e-06 -2.3600736
-8.7164488 -0.37897515 -2.1270282
-8.7618399 -0.76189643 -1.8888049
-8.8007803 -1.1479269 -1.6844336
-8.8368673 -1.5368459 -1.4950351
-8.8680859 -1.9278431 -1.3311917
-8.8972588 -2.3210235 -1.1780844
-8.9266243 -2.7167985 -1.0239652
-8.9556293 -3.1149995 -0.87173641
-8.9806023 -3.5141485 -0.74067402
-9.0055952 -3.9154739 -0.60950935
-9.0307264 -4.3190413 -0.47761232
-9.0560389 -4.7248883 -0.34476167
-9.0814934 -5.1330166 -0.21116765
-9.1079521 -5.5439692 -0.072307765
-9.1352654 -5.9577804 0.071041659
-9.1619558 -6.3735323 0.21111833
-9.1888018 -6.7917228 0.35201889
-9.215806 -7.2123685 0.49374634
-9.243434 -7.635879 0.6387428
-9.2737312 -8.0641136 0.7977559
-9.3001709 -8.4914589 0.93651479
-9.3267183 -8.9212084 1.0758436
-9.3563547 -9.3563528 1.2313848
-9.3886175 -9.7968178 1.4007066
-9.4175549 -10.23647 1.5525779
-9.4483013 -10.680686 1.7139466
-9.4792061 -11.127763 1.8761404
-9.509285 -11.576521 2.034009
-7.789886 5.6653728 -5.131556
-7.778285 5.3033776 -5.1952085
-7.8046012 4.2570558 -5.0508132
-7.8342628 3.9171321 -4.8880677
-7.858633 3.5721076 -4.7543526
-7.8795643 3.2234583 -4.639502
-7.8985467 2.8722005 -4.5353489
-7.9537611 2.5307436 -4.232398
-8.0557728 2.1970303 -3.6726739
-8.1396608 1.8499229 -3.2123876
-8.2173977 1.4940735 -2.7858596
-8.2902088 1.1304851 -2.3863606
-8.3440065 0.75854707 -2.0911787
-8.3965063 0.38166127 -1.8031216
-8.4432278 2.1661122e-06 -1.54677
-8.4817009 -0.38553062 -1.3356748
-8.5183153 -0.77439129 -1.134771
-8.5503035 -1.1659504 -0.95925939
-8.580821 -1.5601474 -0.79181218
-8.6083069 -1.956431 -0.64100462
-8.6349678 -2.35499 -0.49472046
-8.659317 -2.7552364 -0.36111721
-8.6810808 -3.1567559 -0.2417015
-8.7029543 -3.5602984 -0.12168475
-8.7272167 -3.9669163 0.011444054
-8.751893 -4.3759465 0.14683434
-8.7741652 -4.7859077 0.26903859
-8.7955132 -5.1973481 0.38616803
-8.8169641 -5.6107941 0.50386965
-8.8418684 -6.0285444 0.64051306
-8.8680096 -6.4494591 0.78394353
-8.8943052 -6.8728714 0.92822427
-8.9154615 -7.2944689 1.0443115
-8.9366789 -7.7180409 1.160728
-8.9604416 -8.1458559 1.2911066
-8.9852047 -8.576787 1.4269837
-9.012495 -9.0124931 1.5767161
-9.0391502 -9.4500189 1.7229706
-9.0647755 -9.8888454 1.8635722
-9.0932341 -10.33322 2.0197225
-9.1220007 -10.780547 2.1775615
-9.1496973 -11.229173 2.3295267
-9.1769533 -11.679759 2.4790804
-7.425859 5.3041863 -5.1886964
-7.447207 4.9648061 -5.0659862
-7.4126158 4.5887628 -5.2648211
-7.4484668 4.2562685 -5.0587463
-7.4787345 3.917433 -4.8847642
-7.5059576 3.5742683 -4.7282805
-7.530344 3.2272906 -4.5881038
-7.6254678 2.9049408 -4.0413203
-7.7298355 2.5766129 -3.4414046
-7.830862 2.2373896 -2.8606913
-7.9086776 1.8830208 -2.4133959
-7.976274 1.5192913 -2.0248406
-8.0453167 1.1493328 -1.6279776
-8.0966997 0.77111518 -1.3326179
-8.1399946 0.38761988 -1.0837597
-8.1816902 2.2676902e-07 -0.84408432
-8.2218046 -0.39151478 -0.6134991
-8.2535038 -0.7860468 -0.4312951
-8.2809954 -1.1829989 -0.27326334
-8.3085222 -1.5825737 -0.1150365
-8.3338671 -1.9842534 0.0306466
-8.3549862 -2.3871367 0.15203896
-8.376174 -2.7920575 0.27383265
-8.3974705 -3.1990356 0.39624664
-8.4174566 -3.6074803 0.51113349
-8.4359236 -4.0171061 0.6172803
-8.4565582 -4.429625 0.73589212
-8.4772549 -4.8441453 0.85486156
-8.4980927 -5.2607222 0.97463739
-8.5189934 -5.6793289 1.0947802
-8.5386572 -6.0990396 1.2078106
-8.5588083 -6.5209966 1.32364
-8.5790548 -6.9449487 1.4400167
-8.5993967 -7.3709097 1.5569464
-8.6203175 -7.7993345 1.6772015
-8.643117 -8.2315388 1.8082553
-8.6640882 -8.6640882 1.9288079
-8.6871204 -9.100791 2.0611975
-8.7106447 -9.5402298 2.1964169
-8.7343378 -9.9820995 2.332607
-8.759613 -10.428108 2.477886
-8.785409 -10.877171 2.6261663
-8.8113155 -11.328834 2.7750821
-8.8364038 -11.781872 2.9192975
-8.8593025 -12.234273 3.0509148
-7.089695 5.3172717 -5.0833888
-7.0818 4.9572597 -5.1310382
-7.0485892 4.5815835 -5.3314843
-7.0871277 4.2522774 -5.0988803
-7.1190062 3.9154546 -4.9064794
-7.1502142 3.5751076 -4.7181215
-7.2549024 3.2647076 -4.0862741
-7.3732109 2.9492846 -3.3722196
-7.4848361 2.6196935 -2.6985006
-7.5740781 2.2722254 -2.1598794
-7.6576099 1.9144032 -1.65572
-7.715838 1.5431675 -1.3042804
-7.7743406 1.1661532 -0.9511857
-7.8339119 0.78339314 -0.59164262
-7.8762951 0.39381701 -0.33583704
-7.911386 6.1844781e-07 -0.12404457
-7.9453211 -0.39726406 0.08077234
-7.9761519 -0.7976141 0.2668581
-7.9986434 -1.199795 0.40260044
-8.0212612 -1.6042523 0.53911608
-8.0437508 -2.0109372 0.67484999
-8.0635614 -2.4190674 0.7944116
-8.0833206 -2.8291614 0.91366971
-8.1001577 -3.240062 1.0152942
-8.1168413 -3.6525784 1.1159911
-8.1336317 -4.0668163 1.2173293
-8.1534348 -4.4843879 1.3368459
-8.171855 -4.9031119 1.4480219
-8.1878843 -5.3221221 1.5447676
-8.2039766 -5.7427816 1.6418926
-8.2211294 -6.1658463 1.7454214
-8.2390471 -6.591238 1.8535694
-8.2570829 -7.0185189 1.9624227
-8.275897 -7.4483075 2.0759783
-8.2943296 -7.8796105 2.1872218
-8.3133926 -8.3133907 2.3022802
-8.3342781 -8.7509899 2.4283347
-8.3570528 -9.1927567 2.5657914
-8.3774014 -9.6340113 2.6886106
-8.3956079 -10.074729 2.7984974
-8.4152212 -10.519026 2.9168701
-8.4402199 -10.972286 3.0677512
-8.4635372 -11.425774 3.208482
-8.4848986 -11.878859 3.3374128
-8.5060406 -12.333757 3.4650135
-6.6471138 4.8978739 -5.643084
-6.6833496 4.5728178 -5.4128666
-6.722764 4.2459583 -5.1624627
-6.7611156 3.9143324 -4.9188061
-6.8505135 3.6055341 -4.350842
-6.9765749 3.3046942 -3.5499494
-7.0988607 2.988996 -2.7730482
-7.2030239 2.6537459 -2.1112771
-7.2992887 2.3050406 -1.4996886
-7.3779721 1.9415724 -0.99980026
-7.4400654 1.5663306 -0.60530561
-7.5023389 1.1845818 -0.20967276
-7.5510859 0.79485208 0.10003202
-7.5934706 0.39965856 0.36930561
-7.6245041 7.4816131e-07 0.56646705
-7.6541462 -0.40284926 0.75479084
-7.6840196 -0.80884212 0.94458252
-7.7044315 -1.2164875 1.0742657
-7.7234201 -1.6259812 1.1948982
-7.7425017 -2.0374994 1.3161267
-7.7593741 -2.4503272 1.423323
-7.7749839 -2.8644667 1.5224972
-7.790657 -3.2802753 1.6220696
-7.8063931 -3.6977637 1.7220429
-7.821023 -4.1163263 1.8149887
-7.8349743 -4.536037 1.9036243
-7.8489752 -4.9572468 1.9925768
-7.8643565 -5.3808746 2.090296
-7.8802805 -5.8065205 2.1914661
-7.8961949 -6.2338362 2.292572
-7.909481 -6.6606145 2.376982
-7.9234872 -7.0894356 2.4659674
-7.9414611 -7.5234885 2.5801561
-7.9594779 -7.9594769 2.6946225
-7.9776149 -8.3974895 2.8098495
-7.9944601 -8.8359804 2.9168675
-8.0116453 -9.2766409 3.0260484
-8.0290575 -9.7193842 3.1366737
-8.0477076 -10.165524 3.2551582
-8.0664425 -10.61374 3.3741937
-8.0858526 -11.06485 3.4975057
-8.1056318 -11.518528 3.6231618
-8.1252699 -11.974081 3.7479289
-8.1431408 -12.429004 3.8614697
-6.280725 4.8850098 -5.754005
-6.3212442 4.5653439 -5.4822783
-6.3586144 4.239078 -5.2316685
-6.4142084 3.9197943 -4.8588481
-6.5499678 3.6388719 -3.9484205
-6.6732626 3.3366332 -3.1215913
-6.7958074 3.0203598 -2.2997897
-6.9096308 2.6870792 -1.5364726
-7.0059047 2.3353033 -0.89084703
-7.0838513 1.9677373 -0.36812344
-7.1513052 1.5891793 0.084234662
-7.204504 1.2007526 0.44099489
-7.2540169 0.80600178 0.77303499
-7.290544 0.40503106 1.017993
-7.3199983 1.5389272e-06 1.2155155
-7.3446517 -0.40803605 1.3808472
-7.3677597 -0.81863934 1.5358104
-7.3902555 -1.2317069 1.6866709
-7.4069667 -1.6459913 1.798739
-7.4237537 -2.0621536 1.9113162
-7.4396396 -2.4798787 2.0178475
-7.4547172 -2.8990552 2.1189575
-7.469398 -3.319731 2.2174134
-7.48283 -3.7414136 2.3074901
-7.496346 -4.1646357 2.3981292
-7.5084882 -4.5885181 2.4795551
-7.5189929 -5.0126605 2.550004
-7.5318527 -5.4396701 2.6362422
-7.5427461 -5.8665795 2.7092965
-7.5547156 -6.2955947 2.789562
-7.5673723 -6.7265525 2.8744435
-7.5826459 -7.161387 2.9768703
-7.599402 -7.5994005 3.0892367
-7.6130133 -8.0359573 3.1805196
-7.6266375 -8.474041 3.2718844
-7.6409726 -8.9144669 3.3680186
-7.6575809 -9.3592644 3.4793944
-7.6754503 -9.807518 3.5992279
-7.6905665 -10.254089 3.7006042
-7.7051811 -10.701639 3.7986093
-7.721468 -11.153232 3.9078329
-7.7403173 -11.610476 4.0342364
-7.7574363 -12.067123 4.1490421
-7.7736783 -12.524259 4.2579603
-7.7909837 -12.984973 4.3740144
-5.8881979 5.1954699 -6.0635781
-5.9137797 4.870173 -5.8819308
-5.9525242 4.5519319 -5.6068192
-5.9925957 4.2300682 -5.3222904
-6.0921979 3.9420118 -4.6150513
-6.2255878 3.6621115 -3.6678975
-6.3581662 3.3660891 -2.7265069
-6.4811039 3.0499339 -1.8535734
-6.5949464 2.7155671 -1.0452191
-6.6899748 2.3611689 -0.3704561
-6.7680845 1.9906147 0.18416682
-6.8362522 1.6085321 0.66819966
-6.8891888 1.2157401 1.0440861
-6.9358444 0.8159827 1.3753719
-6.9714313 0.41008499 1.6280614
-7.0028305 1.5072666e-06 1.8510116
-7.0256009 -0.4132686 2.0126967
-7.0475583 -0.8291238 2.1686101
-7.0675507 -1.2472126 2.3105679
-7.0830975 -1.6666105 2.420959
-7.0969629 -2.0873404 2.5194125
-7.1108494 -2.5097098 2.618012
-7.1222143 -2.9326751 2.6987123
-7.1329017 -3.3566587 2.7746012
-7.143621 -3.7819159 2.8507152
-7.1546469 -4.2086158 2.9290051
-7.1679358 -4.6380744 3.0233657
-7.1761465 -5.0655141 3.081666
-7.1851344 -5.494513 3.1454854
-7.1964617 -5.926496 3.2259147
-7.2077899 -6.3598137 3.3063531
-7.2175875 -6.7930222 3.3759232
-7.229157 -7.229156 3.4580722
-7.2421989 -7.66821 3.5506799
-7.2552886 -8.1088514 3.6436257
-7.2683902 -8.5510464 3.7366552
-7.2815042 -8.9947987 3.8297698
-7.2949133 -9.4404745 3.9249852
-7.3088365 -9.8884239 4.0238485
-7.3228488 -10.338139 4.1233454
-7.3368788 -10.789526 4.2229652
-7.3509989 -11.242703 4.323226
-7.3660064 -11.69895 4.4297891
-7.3810754 -12.157063 4.5367894
-7.394526 -12.614191 4.6322985
-7.4084296 -13.073697 4.7310176
-5.5128264 5.1682763 -6.2824187
-5.5486197 4.8550434 -6.0123816
-5.5866513 4.5391555 -5.7254519
-5.6247592 4.2185707 -5.4379482
-5.7560821 3.9573081 -4.4471941
-5.8944483 3.684031 -3.4033046
-6.0256848 3.3894491 -2.4132016
-6.1525393 3.0762708 -1.4561584
-6.2596688 2.7386062 -0.64792836
-6.3576331 2.3841138 0.091156304
-6.4422965 2.0132189 0.72989005
-6.5048032 1.6262014 1.2014682
-6.5603089 1.2300593 1.6202245
-6.602881 0.82536179 1.941406
-6.6373696 0.41483846 2.2016048
-6.6685896 4.1164677e-07 2.4371443
-6.6911654 -0.41819501 2.6074634
-6.7083015 -0.83853656 2.7367463
-6.7262321 -1.2611669 2.872021
-6.7422261 -1.6855547 2.9926844
-6.7563844 -2.1113687 3.0995007
-6.7676754 -2.537878 3.184689
-6.7774725 -2.965143 3.2585983
-6.7874284 -3.3937125 3.3337135
-6.7983651 -3.8240776 3.4162211
-6.8062124 -4.2538819 3.4754267
-6.8140783 -4.6846771 3.534766
-6.8219619 -5.1164703 3.5942435
-6.8313203 -5.550447 3.6648529
-6.8399081 -5.9849186 3.7296417
-6.8485508 -6.4205165 3.7948444
-6.8567476 -6.8567472 3.8566854
-6.8660016 -7.295125 3.9265018
-6.8785024 -7.7383132 4.0208082
-6.8902397 -8.1821594 4.1093621
-6.9005637 -8.6257048 4.1872511
-6.9106817 -9.0702686 4.2635851
-6.9223251 -9.5181961 4.351429
-6.9356461 -9.9699917 4.4519286
-6.9486074 -10.42291 4.5497112
-6.9592447 -10.873819 4.6299653
-6.9707079 -11.327399 4.7164474
-6.9842505 -11.785921 4.8186164
-6.9975677 -12.245743 4.9190903
-7.00982 -12.705297 5.0115242
-7.0220799 -13.166399 5.1040215
-5.1425052 5.1425052 -6.4897981
-5.1805153 4.8351493 -6.1839147
-5.217361 4.5217137 -5.8874059
-5.2671361 4.2137108 -5.4868426
-5.4080124 3.9658775 -4.3531585
-5.5473924 3.6982641 -3.2315176
-5.6801677 3.4081008 -2.1630213
-5.8007259 3.0937214 -1.1928445
-5.9118209 2.7588503 -0.29882419
-6.0103908 2.4041564 0.49440545
-6.0904937 2.0301647 1.1390268
-6.1610737 1.6429547 1.7070094
-6.2120304 1.2424061 2.117079
-6.2579627 0.83439481 2.486712
-6.2914886 0.41943413 2.7565081
-6.3199902 4.2222081e-07 2.9858725
-6.3441472 -0.42294103 3.1802728
-6.3617129 -0.84822828 3.3216319
-6.3754663 -1.2750926 3.4323103
-6.3879204 -1.7034445 3.532532
-6.4028425 -2.1342788 3.652612
-6.412725 -2.5650885 3.7321458
-6.4217644 -2.9968224 3.8048875
-6.4299846 -3.4293237 3.8710361
-6.4373469 -3.8624072 3.9302883
-6.444664 -4.2964411 3.989167
-6.4517136 -4.731256 4.0458975
-6.4579573 -5.1663656 4.0961499
-6.4651628 -5.6031404 4.1541328
-6.4733996 -6.0418377 4.2204132
-6.4812431 -6.4812417 4.283534
-6.4891062 -6.9217134 4.3468127
-6.4951677 -7.3611894 4.3955913
-6.5045052 -7.8054061 4.4707336
-6.5143189 -8.2514696 4.5497108
-6.5239697 -8.6986256 4.6273746
-6.5336165 -9.1470633 4.7050047
-6.5428705 -9.5962086 4.7794757
-6.5529637 -10.047876 4.8606968
-6.5630546 -10.500885 4.9419045
-6.5737662 -10.956276 5.0281014
-6.5848079 -11.413668 5.116961
-6.596117 -11.87301 5.2079706
-6.6068707 -12.332824 5.2945065
-6.6176262 -12.794076 5.3810596
-6.6264882 -13.252976 5.4523787
-6.6393757 -13.721376 5.5560899
-4.7799864 5.1214147 -6.6595273
-4.8158674 4.8158689 -6.3501534
-4.8509355 4.5044408 -6.0477862
-4.9157391 4.2134914 -5.4890385
-5.0476022 3.9659748 -4.3520908
-5.1889176 3.7063704 -3.1336432
-5.3190074 3.4193628 -2.0119863
-5.442687 3.1101067 -0.94559228
-5.5563869 2.7781949 0.034747008
-5.6469221 2.4201102 0.81536186
-5.7308526 2.0467334 1.5390278
-5.7984405 1.6566994 2.1217785
-5.8523803 1.2540822 2.5868592
-5.8956399 0.84223676 2.9598508
-5.9303169 0.4235951 3.2588449
-5.9589186 1.596324e-06 3.505451
-5.9772606 -0.42694569 3.6636026
-5.997962 -0.85685122 3.8420923
-6.0115299 -1.2881833 3.9590764
-6.0254536 -1.7215564 4.0791335
-6.0364561 -2.1558752 4.1739974
-6.0447416 -2.5906024 4.2454395
-6.0529017 -3.0264492 4.3157945
-6.0608153 -3.4633212 4.3840289
-6.0678544 -3.9007626 4.4447174
-6.0741315 -4.3386631 4.4988389
-6.0800614 -4.7771916 4.5499711
-6.0860028 -5.2165732 4.6012015
-6.0919862 -5.6568446 4.6527929
-6.0982833 -6.0982833 4.7070856
-6.1029315 -6.5388541 4.7471604
-6.107738 -6.9802704 4.7886028
-6.1147346 -7.4250326 4.8489275
-6.1226587 -7.8719878 4.9172535
-6.1318235 -8.3217583 4.9962711
-6.1397004 -8.7709999 5.0641913
-6.1465559 -9.2198315 5.1232972
-6.1533656 -9.6695728 5.1820107
-6.1621294 -10.123496 5.2575741
-6.1720915 -10.580729 5.3434758
-6.1821175 -11.039494 5.4299188
-6.1904979 -11.496637 5.5021729
-6.1987758 -11.954781 5.5735474
-6.208951 -12.417902 5.6612806
-6.2174664 -12.879037 5.734705
-6.2250624 -13.339418 5.8001981
-6.228364 -13.791376 5.8286619
-4.4182458 5.0979762 -6.8481393
-4.4513102 4.7937202 -6.541122
-4.485559 4.4855604 -6.2231112
-4.5576015 4.2070179 -5.5541601
-4.6869636 3.9658937 -4.3529801
-4.8207555 3.7082736 -3.1106606
-4.9519372 3.4282653 -1.8925817
-5.0710015 3.1206176 -0.7870158
-5.1809101 2.7897227 0.23352839
-5.2739787 2.4341447 1.0977137
-5.3566337 2.0602443 1.8652015
-5.4234905 1.6687673 2.4859974
-5.4823866 1.2651675 3.0328698
-5.5224195 0.84960485 3.4045939
-5.5559692 0.42738441 3.7161179
-5.5854568 1.830981e-06 3.9899237
-5.606461 -0.43126485 4.1849556
-5.6257987 -0.86550736 4.3645172
-5.6384315 -1.3011758 4.4818182
-5.6485562 -1.7380162 4.57583
-5.6587734 -2.1764505 4.6707039
-5.6681862 -2.6160846 4.7581
-5.6756597 -3.0561228 4.8274989
-5.6823354 -3.4968202 4.889483
-5.6879244 -3.9377942 4.9413819
-5.6930714 -4.3792844 4.9891729
-5.6981144 -4.8214798 5.0360007
-5.702343 -5.2637005 5.0752635
-5.7060943 -5.7060928 5.1100922
-5.7102203 -6.149466 5.1484075
-5.7146091 -6.59378 5.1891608
-5.7210336 -7.0412726 5.248816
-5.7276158 -7.4899583 5.3099346
-5.732347 -7.9370942 5.3538642
-5.7387829 -8.3874502 5.4136224
-5.7452331 -8.8388186 5.4735141
-5.7516689 -9.2911558 5.5332732
-5.75809 -9.7444582 5.5928984
-5.7652221 -10.200008 5.6591258
-5.7730417 -10.657922 5.7317305
-5.7809114 -11.117136 5.8048053
-5.7886853 -11.57737 5.8769884
-5.7964802 -12.038841 5.9493699
-5.8033261 -12.499471 6.0129337
-5.8097744 -12.960265 6.0728126
-5.8154106 -13.420177 6.1251421
-5.8221231 -13.883522 6.1874714
-4.0588503 5.0735645 -7.0446033
-4.0902338 4.7719407 -6.7289085
-4.1211419 4.464572 -6.4179935
-4.1983271 4.198328 -5.6415744
-4.3219337 3.9617746 -4.3981838
-4.4434738 3.7028971 -3.1755886
-4.5724626 3.4293492 -1.8780625
-4.6899185 3.126615 -0.69654548
-4.7997313 2.799844 0.40808463
-4.8918343 2.4459198 1.3345681
-4.9701619 2.0709033 2.1224842
-5.0396466 1.6798843 2.8214505
-5.0914054 1.2728535 3.3421004
-5.1395354 0.85659033 3.8262508
-5.1720548 0.43100655 4.1533685
-5.1993036 1.2187596e-06 4.427475
-5.2229671 -0.43524644 4.6655107
-5.2393045 -0.87321633 4.8298516
-5.253654 -1.3134134 4.9741979
-5.2634912 -1.7544968 5.0731535
-5.2727609 -2.1969817 5.1663942
-5.2807693 -2.6403837 5.2469549
-5.2868185 -3.0839758 5.3078032
-5.2922187 -3.5281446 5.3621268
-5.2969661 -3.9727237 5.4098835
-5.3011374 -4.4176149 5.4518437
-5.3049159 -4.8628392 5.48985
-5.3084326 -5.3084307 5.5252271
-5.3119273 -5.7545872 5.5603833
-5.3155613 -6.2014871 5.5969329
-5.3205647 -6.6507049 5.6472664
-5.324317 -7.0990877 5.6850123
-5.3282356 -7.5483322 5.7244325
-5.3330483 -7.9995713 5.7728419
-5.3385973 -8.4527769 5.8286629
-5.3446178 -8.9076948 5.8892207
-5.3498659 -9.3622637 5.9420152
-5.3541479 -9.815937 5.9850883
-5.3594151 -10.272211 6.0380712
-5.3666534 -10.733306 6.1108861
-5.3739395 -11.195705 6.1841722
-5.3796835 -11.65598 6.2419567
-5.3845072 -12.115139 6.2904749
-5.3902464 -12.577241 6.3482094
-5.3960252 -13.040393 6.406342
-5.4014301 -13.503575 6.4607134
-5.4064593 -13.966685 6.5112967
-3.7020879 5.0483031 -7.2478857
-3.7322366 4.7501197 -6.9170446
-3.7609084 4.4447103 -6.6024103
-3.8374455 4.1863046 -5.7625127
-3.9510128 3.9510124 -4.5162601
-4.0663972 3.6967258 -3.2500651
-4.1857743 3.424726 -1.9400604
-4.3010006 3.1280017 -0.67560077
-4.4034133 2.8021731 0.44823906
-4.4961262 2.4524329 1.4656483
-4.5753236 2.0796945 2.3347423
-4.6400089 1.6872772 3.0445714
-4.6950307 1.2804645 3.6483674
-4.7398205 0.86178684 4.1398797
-4.7746248 0.43405756 4.5218101
-4.8041482 1.6308636e-06 4.8457918
-4.8244586 -0.43858573 5.0686693
-4.8431978 -0.88058132 5.2743077
-4.8565259 -1.3245058 5.4205685
-4.8665524 -1.7696534 5.5305905
-4.8745832 -2.2157178 5.6187239
-4.8820505 -2.662935 5.7006655
-4.8885536 -3.1108966 5.7720323
-4.8927016 -3.5583258 5.8175426
-4.8971772 -4.0067797 5.8666654
-4.9007945 -4.455267 5.906354
-4.9039197 -4.9039187 5.9406524
-4.9070497 -5.3531437 5.974997
-4.9093618 -5.8019714 6.0003724
-4.9117761 -6.251349 6.0268641
-4.9149904 -6.7022586 6.0621386
-4.9184837 -7.1541581 6.1004734
-4.9229321 -7.6081657 6.1492896
-4.9274139 -8.0630398 6.1984715
-4.930975 -8.5171375 6.2375479
-4.9348683 -8.9724855 6.2802696
-4.938767 -9.4285536 6.3230567
-4.9436054 -9.8872099 6.376153
-4.948504 -10.346871 6.4299073
-4.9531589 -10.806891 6.480989
-4.9576197 -11.267317 6.5299406
-4.9620886 -11.728572 6.57898
-4.9665656 -12.19066 6.628109
-4.9718418 -12.655597 6.6860046
-4.9768729 -13.120846 6.7412167
-3.3409724 5.3455563 -7.5443807
-3.3488226 5.0232358 -7.4496183
-3.3772004 4.7280803 -7.1070662
-3.4024711 4.4232135 -6.8020201
-3.4735494 4.1682611 -5.9440341
-3.5809939 3.9390943 -4.6470618
-3.6876087 3.6876104 -3.3601084
-3.7945113 3.4150603 -2.0696785
-3.9059258 3.124742 -0.72478914
-4.0055604 2.803894 0.47790706
-4.0945129 2.4567087 1.551662
-4.1680856 2.084044 2.4397616
-4.2325621 1.6930244 3.2180581
-4.2884307 1.2865299 3.892452
-4.3324761 0.8664968 4.4241281
-4.3689456 0.43689582 4.8643575
-4.3960943 1.5875902e-06 5.1920733
-4.4196982 -0.44196874 5.4769955
-4.4357915 -0.88715655 5.671257
-4.4501348 -1.3350382 5.8443999
-4.4607506 -1.7842994 5.9725404
-4.4676294 -2.233813 6.055572
-4.4744606 -2.6846743 6.1380358
-4.4806294 -3.1364396 6.2125001
-4.4848728 -3.5878966 6.2637229
-4.4884839 -4.0396338 6.307313
-4.4918489 -4.4918475 6.3479309
-4.4940033 -4.9434023 6.3739395
-4.4960451 -5.3952527 6.3985834
-4.4982953 -5.8477831 6.4257469
-4.500525 -6.3007336 6.4526596
-4.5031018 -6.754653 6.4837699
-4.5069962 -7.2111931 6.5307765
-4.5091195 -7.6655011 6.5564017
-4.5114517 -8.1206121 6.584559
-4.5147123 -8.5779514 6.6239176
-4.5182328 -9.0364647 6.6664114
-4.5225248 -9.4973011 6.7182226
-4.5258245 -9.9568129 6.7580547
-4.5286407 -10.415872 6.7920451
-4.5318561 -10.876454 6.8308611
-4.5353098 -11.338272 6.8725495
-4.5392599 -11.802075 6.9202328
-4.5456791 -12.273332 6.9977164
-2.9880712 5.3121271 -7.7965832
-2.9991844 4.998642 -7.6475296
-3.0242662 4.7044148 -7.3111238
-3.0476956 4.4022279 -6.9968824
-3.113718 4.1516252 -6.1113691
-3.2096751 3.9229364 -4.8243632
-3.3045695 3.6717463 -3.5516143
-3.4053628 3.4053638 -2.1997423
-3.5071678 3.1174836 -0.83430588
-3.6017611 2.8013713 0.43440935
-3.6848216 2.4565496 1.5484422
-3.7581062 2.0878389 2.531357
-3.8217759 1.6985669 3.385313
-3.8735061 1.2911687 4.079134
-3.9176514 0.87059158 4.6712217
-3.952244 0.4391385 5.13519
-3.9805851 2.377966e-06 5.5153055
-4.0023108 -0.44470045 5.8067007
-4.0209475 -0.89354253 6.0566669
-4.0339413 -1.3446467 6.2309399
-4.0444999 -1.7975551 6.3725543
-4.0527301 -2.2515159 6.4829373
-4.0579996 -2.7053328 6.553616
-4.0640121 -3.1608975 6.6342564
-4.0686216 -3.6165521 6.6960859
-4.0709829 -4.0709829 6.7277546
-4.0739541 -4.5266142 6.767601
-4.0763421 -4.9821939 6.7996335
-4.078146 -5.4375257 6.8238225
-4.0799508 -5.8932605 6.8480334
-4.0815058 -6.3490076 6.868885
-4.082809 -6.8046808 6.8863659
-4.0846601 -7.2616177 6.9111972
-4.0865765 -7.7190876 6.9368973
-4.0895491 -8.1790962 6.976769
-4.0925264 -8.6397762 7.0166979
-4.0947461 -9.0994349 7.0464721
-4.0973496 -9.5604811 7.0813861
-4.0999136 -10.02201 7.115777
-4.1025662 -10.484335 7.1513534
-4.1056681 -10.948446 7.1929612
-4.1111622 -11.419893 7.2666464
-2.6403377 5.2806768 -8.0338612
-2.6529632 4.974308 -7.8433609
-2.6749592 4.681179 -7.5114622
-2.6962707 4.3814406 -7.189899
-2.7567475 4.1351218 -6.2773747
-2.8407485 3.9060299 -5.0098972
-2.9246786 3.655848 -3.7434928
-3.0155244 3.3924654 -2.3727334
-3.1046801 3.1046815 -1.0274763
-3.1933672 2.7941978 0.3107093
-3.2733431 2.4550095 1.5174472
-3.3408241 2.0880175 2.5356591
-3.401562 1.7007821 3.4521232
-3.4523444 1.2946295 4.2183719
-3.4923155 0.8730796 4.8214917
-3.5295064 0.44118971 5.382659
-3.5551684 1.0487901e-06 5.7698679
-3.5782235 -0.44727752 6.1177411
-3.596065 -0.89901489 6.3869514
-3.6094387 -1.3535385 6.5887456
-3.6201763 -1.8100855 6.7507567
-3.6284907 -2.2678053 6.8762136
-3.6341987 -2.7256477 6.9623427
-3.6384397 -3.1836326 7.0263338
-3.6431994 -3.6431983 7.0981522
-3.645499 -4.1011858 7.1328487
-3.6473105 -4.5591369 7.1601834
-3.650239 -5.0190778 7.2043729
-3.6514308 -5.4771452 7.2223549
-3.6523015 -5.9349885 7.2354903
-3.6535702 -6.3937464 7.2546358
-3.6548591 -6.8528585 7.2740812
-3.6563573 -7.3127141 7.2966914
-3.6588066 -7.7749639 7.3336468
-3.6598897 -8.2347507 7.3499885
-3.6609738 -8.6948109 7.3663445
-3.6628006 -9.1569996 7.3939104
-3.6651249 -9.6209526 7.4289837
-3.6678534 -10.086596 7.4701509
-3.6730731 -10.560083 7.5489097
-2.2967491 5.2497139 -8.2674627
-2.3099148 4.9498177 -8.0404301
-2.3296669 4.6593356 -7.6998177
-2.3480237 4.3606153 -7.3832641
-2.4026039 4.118751 -6.4420633
-2.47472 3.8888457 -5.198463
-2.5461895 3.6374142 -3.966017
-2.6265116 3.3769448 -2.5809138
-2.7054851 3.0919828 -1.2190644
-2.7809877 2.7809882 0.082936816
-2.8567169 2.4486148 1.3888335
-2.9223204 2.087374 2.520129
-2.9772146 1.7012663 3.466747
-3.0233493 1.2957218 4.2623086
-3.0637026 0.87534392 4.9581785
-3.0967412 0.44239339 5.5279083
-3.1240127 1.9004433e-06 5.998188
-3.1462519 -0.44946343 6.3816891
-3.1635582 -0.90387315 6.6801257
-3.1780715 -1.362029 6.9304013
-3.1875358 -1.8214478 7.0936036
-3.1948032 -2.282002 7.2189293
-3.2021208 -2.7446737 7.3451138
-3.2054336 -3.2054322 7.4022441
-3.2087202 -3.667109 7.4589171
-3.2121305 -4.1298809 7.5177255
-3.213805 -4.5911474 7.5465984
-3.215766 -5.0533457 7.58042
-3.2173941 -5.5155315 7.608489
-3.2184184 -5.9770617 7.6261563
-3.2193091 -6.4386172 7.6415167
-3.2199984 -6.8999958 7.6534028
-3.2206714 -7.3615336 7.6650047
-3.2217147 -7.824163 7.6830006
-3.2227082 -8.2869625 7.7001324
-3.2236688 -8.7499571 7.7166953
-3.2254226 -9.2154922 7.7469392
-3.2312884 -9.6938648 7.8480926
-1.958334 5.2222252 -8.4748468
-1.9703082 4.9257703 -8.2339411
-1.9871637 4.6367149 -7.8948393
-2.0029879 4.3398085 -7.576479
-2.0511417 4.1022859 -6.6076989
-2.1111553 3.8704529 -5.4003148
-2.1712396 3.6187353 -4.1915178
-2.2400067 3.3600106 -2.8080308
-2.305974 3.0746336 -1.4808681
-2.372478 2.7678931 -0.14290892
-2.4393237 2.439326 1.2019196
-2.4976363 2.0813656 2.3750808
-2.5480349 1.6986923 3.3890183
-2.5932732 1.2966385 4.2991481
-2.6287348 0.87624604 5.012579
-2.6609521 0.44349435 5.6607409
-2.6860683 2.4540228e-07 6.1660399
-2.7075505 -0.45125675 6.5982313
-2.7257333 -0.90857691 6.9640403
-2.7376368 -1.3688167 7.2035165
-2.7480862 -1.8320568 7.4137421
-2.7544889 -2.2954049 7.5425544
-2.7604311 -2.7604296 7.6621027
-2.7653859 -3.2262816 7.761785
-2.767993 -3.6906559 7.8142371
-2.7710412 -4.1565599 7.8755579
-2.7731349 -4.6218915 7.9176874
-2.7743871 -5.0863757 7.9428754
-2.7760484 -5.5520959 7.9763002
-2.7765152 -6.0157819 7.9856911
-2.7765446 -6.4786019 7.9862781
-2.7772009 -6.9429998 7.9994869
-2.7779748 -7.4079309 8.0150518
-2.778749 -7.8731203 8.0306311
-2.7796404 -8.3389225 8.0485678
-2.7865586 -8.8241014 8.187748
-1.6236718 5.1957512 -8.6745796
-1.6337794 4.9013386 -8.4305592
-1.6477845 4.6137977 -8.0924463
-1.6609536 4.31848 -7.7745152
-1.701045 4.0825095 -6.806623
-1.7505198 3.8511443 -5.612195
-1.800114 3.6002285 -4.4148865
-1.8548005 3.3386412 -3.0946364
-1.910499 3.0567997 -1.7499561
-1.9664272 2.7529979 -0.39972806
-2.0226305 2.4271562 0.95713949
-2.0729675 2.0729682 2.1723771
-2.1184185 1.6947359 3.2696688
-2.1579373 1.2947637 4.2237296
-2.1925755 0.87703174 5.0599723
-2.2200985 0.44402146 5.7244344
-2.2437389 4.7165412e-07 6.2951679
-2.263622 -0.45272323 6.7751851
-2.2792976 -0.9117173 7.1536317
-2.2926233 -1.3755724 7.475337
-2.3019104 -1.8415259 7.6995511
-2.3086441 -2.3086433 7.8621159
-2.3131428 -2.7757702 7.9707255
-2.3181229 -3.2453706 8.0909529
-2.3211286 -3.7138042 8.163516
-2.323247 -4.1818433 8.2146597
-2.3256269 -4.6512527 8.2721224
-2.3264873 -5.1182699 8.2928848
-2.3272617 -5.5854254 8.3115826
-2.3277538 -6.0521579 8.3234644
-2.3283691 -6.5194316 8.3383198
-2.3288863 -6.9866571 8.3508053
-2.3293049 -7.4537749 8.3609171
-2.3363364 -7.9435425 8.5306673
-1.2923808 5.1695242 -8.8724394
-1.3005005 4.8768787 -8.627408
-1.3117489 4.5911212 -8.2879601
-1.3222251 4.2972331 -7.9718103
-1.3540317 4.0620956 -7.0119619
-1.3932109 3.8313303 -5.8296227
-1.4328811 3.5822043 -4.6324692
-1.4748088 3.3183196 -3.3671889
-1.5191528 3.0383077 -2.0289931
-1.5628346 2.734962 -0.71077734
-1.6099117 2.4148691 0.70990241
-1.6494451 2.0618086 1.9029251
-1.6894929 1.6894957 3.1114769
-1.7230906 1.2923195 4.1253762
-1.7522371 0.87611985 5.0049481
-1.7767683 0.44419351 5.7452459
-1.7978032 8.9812966e-07 6.3800273
-1.8148996 -0.4537237 6.8959565
-1.8294222 -0.91470873 7.3342171
-1.8407297 -1.3805456 7.6754522
-1.8497856 -1.8497835 7.9487348
-1.8564724 -2.3205888 8.1505241
-1.8607277 -2.791091 8.2789421
-1.8644893 -3.2628548 8.3924608
-1.8678503 -3.7356989 8.493886
-1.869446 -4.2062511 8.5420418
-1.870965 -4.6774116 8.587882
-1.871989 -5.1479688 8.618783
-1.8727154 -5.618145 8.6407022
-1.8732331 -6.0880065 8.6563282
-1.8735319 -6.5573606 8.6653461
-1.8825722 -7.0596442 8.9381599
-0.96455491 5.1442943 -9.0627899
-0.97072423 4.8536229 -8.8145561
-0.97900009 4.5686684 -8.4815617
-0.98702359 4.2771034 -8.1587219
-1.0104402 4.0417628 -7.2165051
-1.0395598 3.8117194 -6.0448251
-1.0686542 3.5621815 -4.8741589
-1.0994698 3.2984087 -3.6342347
-1.1317468 3.0179923 -2.33551
-1.1646913 2.7176132 -1.0099238
-1.1991105 2.3982227 0.37499714
-1.2305562 2.0509279 1.6402792
-1.2605368 1.6807168 2.8466043
-1.288342 1.2883446 3.9653952
-1.3121027 0.87473613 4.9214501
-1.3316897 0.44389755 5.7095757
-1.3490959 -4.4937906e-08 6.4099455
-1.36338 -0.45445922 6.984694
-1.3750943 -0.91672784 7.456037
-1.3852518 -1.3852499 7.8647428
-1.3927284 -1.8569694 8.1655846
-1.398478 -2.3307939 8.3969278
-1.4028959 -2.8057897 8.5746899
-1.4054329 -3.2793424 8.6767731
-1.4079493 -3.7545297 8.7780209
-1.4095865 -4.2287588 8.8439035
-1.410723 -4.7024097 8.8896294
-1.4117707 -5.1764917 8.9317837
-1.4124272 -5.6497078 8.9582005
-1.4217371 -6.1608605 9.332798
-0.64002967 5.1202374 -9.2442732
-0.64410645 4.8307991 -8.9982204
-0.64949024 4.546432 -8.6732788
-0.654809 4.2562594 -8.3522644
-0.67031759 4.0219069 -7.4162378
-0.68944585 3.7919526 -6.2617435
-0.7084648 3.542326 -5.1138492
-0.72873765 3.2793217 -3.890274
-0.74948674 2.9979477 -2.6379566
-0.77103668 2.6986296 -1.3373042
-0.79358715 2.3807628 0.023737356
-0.8154189 2.038548 1.3414018
-0.83573699 1.6714756 2.5677078
-0.85484743 1.2822723 3.7211244
-0.87209338 0.87209487 4.7620091
-0.88654661 0.44327503 5.6343369
-0.89894748 7.668354e-07 6.3827977
-0.90960526 -0.45480144 7.0260525
-0.91847414 -0.91847169 7.5613351
-0.92570937 -1.388563 7.9980178
-0.93168259 -1.8633657 8.3585367
-0.9360044 -2.3400099 8.6193838
-0.93916827 -2.8175044 8.810338
-0.94146216 -3.2951167 8.9487848
-0.94306999 -3.7722785 9.0458269
-0.94452637 -4.2503667 9.1337242
-0.94525617 -4.7262802 9.1777754
-0.95510679 -5.2530861 9.7723112
-0.31852537 5.0964069 -9.4240675
-0.32058445 4.8087668 -9.175519
-0.32326359 4.5256915 -8.8521137
-0.32583597 4.2358689 -8.5416021
-0.33353043 4.002367 -7.6127996
-0.34288436 3.7717292 -6.4836783
-0.35227016 3.5227022 -5.3507099
-0.36220363 3.2598331 -4.1516376
-0.37230706 2.9784567 -2.9320419
-0.38283056 2.6798155 -1.661747
-0.39380947 2.3628571 -0.33647445
-0.40489244 2.0244625 1.0013611
-0.41534227 1.6613692 2.2627668
-0.42510495 1.2753164 3.4412248
-0.43415737 0.86831754 4.5339475
-0.44193658 0.44193777 5.47298
-0.44894677 1.7714305e-07 6.31919
-0.45474628 -0.45474616 7.019249
-0.4596349 -0.91926897 7.6093574
-0.46382967 -1.391489 8.1157112
-0.46704179 -1.868166 8.5034504
-0.46964422 -2.3482196 8.8175907
-0.4715552 -2.8293297 9.0482674
-0.47275239 -3.3092668 9.1927814
-0.47378486 -3.7902765 9.3174086
-0.47990826 -4.3191733 10.05657
-1.0287213e-23 13.591798 20.48797
-9.9216188e-24 12.967026 20.181225
3.4888178e-24 12.347912 19.877649
-7.206339e-25 11.734227 19.576344
3.4379442e-24 11.153168 19.441824
-4.2420049e-25 5.0727601 -9.6024714
-8.4426576e-25 4.7870407 -9.3503695
7.4739806e-24 4.5053849 -9.0271969
-4.8655994e-25 4.2167583 -8.7190428
4.5724603e-24 3.9830148 -7.807456
1.6154451e-24 3.7520096 -6.7000661
8.9199224e-24 3.5035045 -5.5824409
4.6911049e-24 3.2395573 -4.4235888
-1.0537951e-24 2.9595675 -3.2170787
-8.0405894e-24 2.6609056 -1.9878385
7.4272674e-24 2.3446579 -0.70261341
-7.5340808e-24 2.0092697 0.63453603
6.8273742e-26 1.6497923 1.9134156
-8.3462146e-24 1.2680213 3.1476879
-1.4260329e-23 0.86365932 4.2528481
-9.0477881e-24 0.44020486 5.2636809
-3.2218152e-24 1.3646649e-06 6.1803246
-2.5664304e-24 -0.45438015 6.9750714
-3.7451787e-24 -0.91961873 7.6305037
-1.8290103e-24 -1.3930646 8.1791754
-5.3675421e-24 -1.8724954 8.6340952
1.7207202e-24 -2.3551147 8.9840374
-5.6659871e-24 -2.8395152 9.2531843
7.9933572e-24 -3.3215139 9.4039907
0.55879748 11.734751 19.57934
0.55544269 11.108857 19.174379
0.55213481 10.490565 18.775087
0.54886955 9.8796539 18.380936
0.54566973 9.2763882 17.99468
0.31569397 5.0511036 -9.7658472
0.31775546 4.7663317 -9.5170059
0.32039201 4.4854894 -9.1987448
0.32288319 4.1974821 -8.8980341
0.33032072 3.9638484 -8.0002432
0.33922106 3.731432 -6.9258785
0.3484157 3.4841585 -5.8159862
0.35770965 3.2193882 -4.6941109
0.36756206 2.9404964 -3.5048168
0.37745747 2.6422024 -2.3103344
0.38788506 2.3273118 -1.0516139
0.39864519 1.993227 0.2472485
0.4095484 1.6381941 1.5633806
0.41979843 1.2593955 2.8006713
0.42942432 0.85884976 3.9626148
0.43815732 0.43815789 5.0167871
0.44621292 -2.9110549e-07 5.989182
0.4534446 -0.453444 6.8621211
0.45962051 -0.91923964 7.6076217
0.46467391 -1.394021 8.2176189
0.46880183 -1.8752043 8.7159023
0.47222266 -2.3611138 9.1288357
0.47481674 -2.8488991 9.441968
0.62882531 5.0306039 -9.9205179
0.63273287 4.7454963 -9.6846771
0.63802218 4.4661574 -9.3654394
0.6431939 4.1807613 -9.0532951
0.65747786 3.9448686 -8.191184
0.67472601 3.710995 -7.1501656
0.6929363 3.4646819 -6.0510774
0.71095246 3.1992872 -4.9637079
0.73027539 2.9211013 -3.797462
0.74964941 2.6237748 -2.6281397
0.77012318 2.3103714 -1.3924379
0.79111016 1.9777776 -0.1257607
0.81271023 1.6254212 1.1779187
0.83391708 1.2508768 2.4578636
0.85369986 0.85370249 3.6518624
0.87208909 0.43604651 4.7617497
0.88863963 1.7526165e-06 5.760663
0.90424496 -0.45212147 6.7025275
0.91763681 -0.91763639 7.5108018
0.92923993 -1.393858 8.2111082
0.93857282 -1.8771446 8.7743988
0.94645983 -2.3661478 9.2504215
0.93946171 5.0104632 -10.072461
0.94500899 4.7250462 -9.8492565
0.95295012 4.4471011 -9.5297337
0.96061695 4.1626744 -9.221242
0.98132342 3.9252942 -8.3880777
1.0066524 3.6910596 -7.3689198
1.0336307 3.4454353 -6.2833939
1.0598159 3.1794484 -5.2297854
1.088446 2.9025242 -4.0777946
1.1168551 2.6059957 -2.934701
1.1462795 2.2925596 -1.7507578
1.1775376 1.9625638 -0.49302962
1.2095729 1.6127656 0.79597044
1.2419974 1.2419983 2.1006286
1.2719814 0.84798986 3.3070903
1.3001137 0.43337187 4.4390545
1.3270082 1.0957041e-06 5.5212064
1.3511033 -0.45036638 6.4907174
1.3726084 -0.91506976 7.3560138
1.3917675 -1.391765 8.1269169
1.4083095 -1.877745 8.7925129
1.4221579 -2.3702619 9.3497305
1.2476254 4.9905024 -10.223058
1.2552488 4.7071853 -9.9929981
1.2657021 4.4299579 -9.6775427
1.2757393 4.1461535 -9.3746414
1.3019327 3.9057994 -8.5841885
1.3352443 3.6719227 -7.5789223
1.3700441 3.425112 -6.5287461
1.4045137 3.1601562 -5.4885321
1.4420835 2.8841679 -4.354763
1.4791245 2.5884688 -3.2369502
1.51736 2.276041 -2.0830929
1.5578108 1.9472649 -0.86238468
1.6003028 1.6003035 0.41992757
1.6439956 1.232999 1.738475
1.6838727 0.84193772 2.9418736
1.7228546 0.43071601 4.118257
1.7589295 2.0873244e-06 5.2069092
1.7938944 -0.44847375 6.2620707
1.8239195 -0.91195881 7.1681619
1.8512727 -1.3884528 7.9936152
1.8769356 -1.8769342 8.7680588
1.5548733 4.9755955 -10.33552
1.5631685 4.6895056 -10.135255
1.5761086 4.413105 -9.822855
1.5892073 4.1319389 -9.5066242
1.6191884 3.8860531 -8.7828159
1.6601834 3.652405 -7.793108
1.701972 3.4039445 -6.7842426
1.7454342 3.141783 -5.7349744
1.7904097 2.8646569 -4.6491714
1.8365456 2.5711663 -3.5353489
1.8837433 2.2604935 -2.3958948
1.9327691 1.9327699 -1.2123095
1.9850321 1.5880265 0.049429603
2.0391042 1.2234647 1.3548459
2.0901556 0.8360638 2.5873394
2.1391118 0.42782483 3.769243
2.1856112 1.1824674e-06 4.8918419
2.230963 -0.4461914 5.9867258
2.270566 -0.90822512 6.9428334
2.3075433 -1.3845245 7.8355389
2.3411429 -1.8729123 8.6467104
1.8605468 4.9614582 -10.442172
1.8693658 4.6734157 -10.264746
1.8846459 4.3975091 -9.9573336
1.9007587 4.1183109 -9.6331682
1.9323123 3.8646252 -8.9983616
1.9818796 3.6334486 -8.0011425
2.0306962 3.3844945 -7.0190287
2.0826838 3.1240287 -5.9731178
2.1334083 2.8445446 -4.9526186
2.189229 2.5541019 -3.8295991
2.2451167 2.2451191 -2.705219
2.30318 1.9193192 -1.5370786
2.3635755 1.575718 -0.32201585
2.4262874 1.2131437 0.93965286
2.490304 0.83010322 2.227561
2.5499527 0.42499405 3.4276061
2.6066661 8.8750096e-07 4.5685878
2.661649 -0.44360751 5.6747618
2.7111065 -0.90370107 6.6697712
2.7595663 -1.3797811 7.6447043
2.8021321 -1.8680875 8.5010605
2.1665342 4.9520783 -10.512937
2.1742435 4.6590943 -10.379998
2.1922255 4.3844523 -10.069908
2.2108483 4.1058631 -9.748765
2.2419205 3.8432932 -9.2129488
2.3000736 3.6144035 -8.2101336
2.3562975 3.3661406 -7.2405891
2.4157269 3.1059361 -6.2157683
2.4738562 2.8272662 -5.2133622
2.5384946 2.5384958 -4.0987139
2.6023107 2.2305529 -2.9982455
2.6683781 1.9059852 -1.8589512
2.7377417 1.5644252 -0.66281724
2.8074801 1.2032073 0.5397768
2.8828981 0.82368505 1.8403164
2.9549122 0.42213276 3.0821538
3.0225933 1.2794966e-06 4.2492723
3.0867412 -0.44096273 5.3554649
3.1460915 -0.89888263 6.3789206
3.2051671 -1.373642 7.3976483
3.2593377 -1.8624778 8.3317823
2.4772577 4.6448584 -10.494549
2.4979575 4.3714266 -10.182214
2.519078 4.093503 -9.8635311
2.5481293 3.8221948 -9.4251804
2.6149688 3.5955827 -8.4166527
2.6784878 3.3481107 -7.4582243
2.7441967 3.0872209 -6.4667516
2.8106744 2.8106756 -5.4636807
2.8828926 2.5225308 -4.373991
2.9547133 2.2160361 -3.2902958
3.0285373 1.8928379 -2.1763837
3.1065829 1.5532936 -0.99876779
3.1848226 1.1943095 0.18177982
3.2670746 0.81676948 1.4228677
3.3517256 0.41896594 2.7001555
3.4328837 1.3855623e-06 3.9247353
3.5061133 -0.43826398 5.0296826
3.5755906 -0.89389694 6.0780144
3.6447446 -1.3667778 7.1214676
3.7094066 -1.854702 8.0971403
2.8389258 5.0469813 -9.7969637
2.7803562 4.6339278 -10.582521
2.8038404 4.3615303 -10.267539
2.8273017 4.0838814 -9.9528713
2.8534372 3.8045847 -9.602334
2.9266448 3.5770106 -8.6204529
2.997268 3.3302987 -7.6732335
3.0695879 3.0695884 -6.7032561
3.1456714 2.7961533 -5.6828022
3.2230911 2.5068502 -4.6444254
3.3020365 2.2013586 -3.5855842
3.3838336 1.879908 -2.4884958
3.4702725 1.5423437 -1.3291533
3.5573597 1.1857867 -0.16111487
3.6484599 0.81077069 1.0607479
3.7420685 0.41578767 2.3162541
3.8333638 1.8596971e-06 3.5407338
3.920073 -0.43556118 4.7037029
4.0003715 -0.88897008 5.780695
4.0786285 -1.3595409 6.8302965
4.1546879 -1.8465263 7.8504281
3.1119332 4.9790936 -10.309126
3.0822787 4.6234188 -10.667087
3.1093736 4.3531232 -10.340025
3.1344368 4.0747681 -10.037485
3.1595447 3.7914553 -9.7344055
3.234571 3.5580292 -8.8287563
3.3126864 3.3126869 -7.8858185
3.3915706 3.0524151 -6.9336071
3.4757562 2.7806056 -5.9173923
3.5589564 2.491272 -4.9130783
3.6459205 2.1875529 -3.8633277
3.7354817 1.8677427 -2.7822275
3.8297539 1.5319028 -1.6442652
3.9254925 1.1776481 -0.48859519
4.0235109 0.80470347 0.69458944
4.1278644 0.41278744 1.9542469
4.2278681 2.0224243e-06 3.1614032
4.3288345 -0.4328827 4.380177
4.4200091 -0.88399911 5.4807434
4.5079651 -1.3523884 6.5424733
4.5933528 -1.83734 7.5731874
3.4003477 5.2550845 -10.559093
3.409694 4.9595556 -10.456531
