# .PCD v0.7 - Point Cloud Data file format
VERSION 0.7
FIELDS x y z
SIZE 4 4 4
TYPE F F F
COUNT 1 1 1
WIDTH 1534
HEIGHT 1
VIEWPOINT 0 0 0 1 0 0 0
POINTS 1534
DATA ascii
-501.37665 -1253.4414 266.68994
-502.97778 -1293.3712 280.49524
-504.58917 -1333.557 294.38907
-506.21344 -1374.0078 308.39355
-508.47336 -1416.4613 327.87918
-442.70081 1157.8329 54.39489
-441.55051 1120.8593 43.713764
-440.68253 1084.7572 35.654217
-440.91043 1051.4019 37.770103
-445.91507 1029.035 84.240555
-402.68704 495.61496 -317.15018
-396.53577 457.54138 -374.26773
-397.79102 428.39056 -362.61218
-399.91486 399.91492 -342.89142
-404.66977 373.54141 -298.73981
-409.12158 346.17993 -257.40277
-412.85693 317.58237 -222.71834
-415.5986 287.72232 -197.26089
-417.99609 257.22852 -174.99944
-419.23465 225.74179 -163.49866
-419.20337 193.47856 -163.7892
-418.27435 160.87485 -172.41541
-416.6684 128.20586 -187.32727
-415.0766 95.787025 -202.10786
-413.64734 63.638256 -215.37938
-412.67496 31.744339 -224.40797
-411.71072 0.00010627157 -233.36148
-410.76157 -31.596916 -242.17474
-410.39798 -63.138004 -245.55106
-359.61432 -82.987755 -717.09943
-358.31497 -110.25066 -729.16425
-357.36975 -137.44974 -737.94147
-410.64148 -189.52663 -243.29001
-410.98254 -221.29813 -240.12305
-411.04977 -252.95363 -239.49876
-411.37912 -284.80087 -236.44086
-412.25104 -317.116 -228.34489
-413.68854 -350.04404 -214.99651
-415.39075 -383.43753 -199.19106
-417.07965 -417.07953 -183.50845
-419.047 -451.28137 -165.24086
-421.02744 -485.80075 -146.8521
-423.02667 -520.64807 -128.28828
-425.15469 -555.97144 -108.52839
-427.42474 -591.81879 -87.450119
-429.99194 -628.44952 -63.612446
-432.59021 -665.52325 -39.486374
-435.22205 -703.05072 -15.048905
-437.88406 -741.03442 9.669179
-440.58493 -779.49646 34.748295
-443.10544 -818.04065 58.152237
-445.59259 -856.90875 81.246384
-448.10779 -896.21552 104.60115
-450.64944 -935.96423 128.20143
-453.25879 -976.24951 152.4303
-455.92029 -1017.0529 177.14348
-458.61322 -1058.3381 202.14874
-461.09985 -1099.5457 225.23813
-463.54605 -1141.0364 247.95239
-465.59583 -1181.8969 266.98489
-467.08505 -1221.6071 280.81348
-468.5816 -1261.5658 294.70938
-470.08774 -1301.7812 308.69443
-471.60358 -1342.2562 322.76987
-473.13156 -1383 336.95804
-474.98114 -1424.9434 354.13214
-411.03622 1164.6029 78.429642
-408.98816 1124.7178 57.82761
-408.00385 1088.0106 47.926437
-407.2142 1051.9702 39.982738
-407.58887 1018.9724 43.75174
-368.28238 491.0434 -351.64099
-365.13095 456.41394 -383.34204
-365.17783 426.04092 -382.87021
-367.52084 398.14777 -359.30148
-374.47751 374.47766 -289.3226
-379.48935 347.8653 -238.90739
-383.41428 319.51196 -199.4259
-386.8092 290.10712 -165.27524
-389.27737 259.51843 -140.44736
-390.87393 228.01001 -124.38718
-391.34073 195.67052 -119.69172
-390.50168 162.70909 -128.13164
-388.98538 129.66188 -143.38464
-387.48251 96.870705 -158.50238
-385.98782 64.331406 -173.5378
-385.1026 32.0919 -182.4426
-384.24149 0.00011976449 -191.10461
-383.39258 -31.94924 -199.6438
-383.10767 -63.851223 -202.50987
-330.29626 -82.573944 -733.75153
-329.09528 -109.69832 -745.83252
-328.17645 -136.74014 -755.0752
-383.34924 -191.67455 -200.07997
-383.67291 -223.8091 -196.82408
-383.92688 -255.95122 -194.26913
-384.23145 -288.1734 -191.20557
-384.93777 -320.78125 -184.10049
-386.14844 -353.96918 -171.9223
-387.71939 -387.71936 -156.11954
-389.29459 -421.7356 -140.27452
-391.07336 -456.25217 -122.38107
-392.8002 -491.00009 -105.01057
-394.50351 -526.00458 -87.876419
-396.40875 -561.57892 -68.71122
-398.48013 -597.72003 -47.874905
-400.79907 -634.59833 -24.548004
-403.24475 -672.07446 0.053764626
-405.72049 -710.01068 24.957506
-408.16254 -748.29797 49.522747
-410.4487 -786.69318 72.519539
-412.76062 -825.52118 95.775848
-415.09677 -864.78491 119.27584
-417.46149 -904.49994 143.06317
-419.88934 -944.75085 167.48514
-422.36377 -985.51538 192.37602
-424.78976 -1026.5751 216.77925
-427.03885 -1067.597 239.40366
-429.30981 -1109.0502 262.24786
-431.185 -1149.8265 281.1105
-432.56656 -1189.5579 295.00812
-433.95917 -1229.5508 309.01666
-435.35864 -1269.7959 323.09418
-436.76712 -1310.3013 337.26266
-438.18478 -1351.0696 351.52307
-440.92435 -1396.2604 379.08109
-376.45673 1129.3705 74.847061
-375.25925 1091.6635 61.706097
-374.36392 1055.0258 51.881191
-373.65936 1019.0712 44.149845
-374.50793 987.33923 53.461338
-336.06046 488.81543 -368.44916
-333.07822 454.19766 -401.17557
-332.86282 423.64377 -403.53949
-334.83093 395.70938 -381.94177
-342.3389 373.46085 -299.55176
-349.27859 349.27881 -223.39771
-353.69827 321.54416 -174.89754
-357.09778 292.17099 -137.59218
-359.81995 261.68738 -107.71994
-361.87115 230.28188 -85.210876
-362.84607 197.91614 -74.512238
-362.63763 164.83534 -76.799484
-361.32425 131.39069 -91.212242
-359.90808 98.156944 -106.75277
-358.49026 65.180168 -122.3115
-357.37573 32.488823 -134.5421
-356.56525 0.00011796854 -143.43648
-355.785 -32.343861 -151.99844
-355.30475 -64.600731 -157.26857
-301.29163 -82.170403 -749.99182
-300.17471 -109.15426 -762.24896
-299.28311 -136.03764 -772.03296
-355.43289 -193.87239 -155.86232
-355.73642 -226.37761 -152.5311
-356.15189 -259.01944 -147.97174
-356.45041 -291.64102 -144.69649
-357 -324.54541 -138.66541
-357.98367 -357.98349 -127.87067
-359.43265 -392.10815 -111.97009
-360.78705 -426.38455 -97.107307
-362.20853 -460.99252 -81.508423
-363.8082 -496.10196 -63.953953
-365.38577 -531.47015 -46.642372
-367.10876 -567.34985 -27.734814
-369.02661 -603.86157 -6.6890073
-371.02762 -640.86572 15.269755
-373.31586 -678.75616 40.380325
-375.45276 -716.77325 63.829659
-377.56308 -755.1261 86.987778
-379.69727 -793.91241 110.40765
-381.85388 -833.13568 134.07408
-384.03699 -872.81122 158.03061
-386.2803 -913.026 182.6479
-388.56677 -953.75458 207.73872
-390.67636 -994.44879 230.88902
-392.74985 -1035.4312 253.6423
-394.84732 -1076.8562 276.65994
-396.54855 -1117.5458 295.32843
-397.82333 -1157.3041 309.3175
-399.10635 -1197.3188 323.39697
-400.39963 -1237.5988 337.58926
-401.69934 -1278.1342 351.85178
-403.50455 -1320.5602 371.6618
-342.48547 1095.9536 77.890053
-341.4841 1058.6008 65.802429
-340.68594 1022.0581 56.167686
-340.08664 986.25153 48.933361
-341.44446 956.04456 65.323402
-304.10321 486.56522 -385.4248
-300.94519 451.41788 -423.54568
-300.91806 421.28528 -423.87305
-302.539 393.30075 -404.30658
-309.15182 370.98233 -324.48303
-317.5809 349.33914 -222.73489
-322.79285 322.79288 -159.82115
-326.65088 293.98587 -113.25033
-329.70166 263.76151 -76.424416
-331.73837 232.21703 -51.8391
-333.13742 199.88266 -34.950954
-333.65036 166.8253 -28.7596
-332.9155 133.16637 -37.629848
-331.59314 99.478218 -53.592297
-330.25598 66.0513 -69.732925
-328.95316 32.895462 -85.45974
-328.19922 0.00010285227 -94.560257
-327.48819 -32.748661 -103.14352
-326.84128 -65.368065 -110.95242
-272.56918 -81.770584 -766.07446
-271.53854 -108.61524 -778.5155
-270.7569 -135.37825 -787.95038
-326.85144 -196.11082 -110.82942
-327.15131 -229.00587 -107.20988
-327.61087 -262.08847 -101.66262
-327.99261 -295.19324 -97.054199
-328.42078 -328.42078 -91.885765
-329.12854 -362.04132 -83.342598
-330.26935 -396.32306 -69.571617
-331.49588 -430.94452 -54.766201
-332.76318 -465.86832 -39.468391
-334.20743 -501.31097 -22.035069
-335.65808 -537.0528 -4.5240417
-337.24677 -573.3194 14.652924
-338.96313 -610.13336 35.371124
-340.64014 -647.21606 55.614792
-342.51422 -685.02832 78.237076
-344.44617 -723.33691 101.55776
-346.40005 -762.07996 125.14288
-348.37457 -801.26135 148.97736
-350.37338 -840.89606 173.10544
-352.43076 -881.0769 197.9404
-354.45602 -921.58545 222.38727
-356.33521 -962.10486 245.07114
-358.23447 -1003.0563 267.99692
-360.15405 -1044.4467 291.16846
-361.68427 -1085.0529 309.64001
-362.85083 -1124.8373 323.72144
-364.0249 -1164.8795 337.89389
-365.20663 -1205.1819 352.15866
-366.57339 -1246.3495 368.65698
-308.52603 1062.701 81.767487
-307.62885 1025.4297 69.734329
-306.94476 989.04425 60.558952
-306.49796 953.54938 54.566483
-308.56924 925.70789 82.346992
-370.48547 864.46637 912.78589
-272.54214 484.51953 -400.85931
-269.15924 448.59885 -446.2316
-269.3259 418.95154 -443.99652
-270.63782 390.92136 -426.40079
-276.40115 368.53497 -349.10098
-284.26093 347.43021 -243.68355
-291.3508 323.72333 -148.59206
-295.61041 295.61057 -91.460365
-298.6239 265.4436 -51.043179
-300.95779 234.07834 -19.739597
-302.84225 201.89497 5.5348902
-303.70752 168.72661 17.140013
-303.59314 134.93054 15.606213
-302.50552 100.83534 1.0187846
-301.25812 66.946411 -15.711815
-300.01962 33.335594 -32.323124
-299.11429 0.00013116226 -44.465534
-298.47287 -33.163494 -53.068169
-297.84094 -66.186752 -61.544056
-244.1176 -81.372452 -782.09778
-243.18646 -108.08284 -794.58618
-242.50589 -134.72527 -803.71429
-247.60068 -165.06703 -735.38147
-297.87717 -231.68216 -61.05801
-298.27225 -265.13071 -55.759129
-298.73721 -298.737 -49.522991
-299.10889 -332.34311 -44.538143
-299.63617 -366.22183 -37.465973
-300.45999 -400.61325 -26.416756
-301.57556 -435.60892 -11.454452
-302.73407 -470.91965 4.0841761
-303.97562 -506.62582 20.735756
-305.31052 -542.77417 38.639969
-306.73972 -579.39703 57.808586
-308.11771 -616.23523 76.290871
-309.54874 -653.49158 95.484253
-311.09552 -691.32336 116.23045
-312.86649 -730.02167 139.98283
-314.65622 -769.15942 163.9873
-316.46808 -808.75159 188.28831
-318.33459 -848.89215 213.32297
-320.06519 -889.06982 236.53398
-321.7677 -929.55096 259.36853
-323.4884 -970.46509 282.44736
-325.22601 -1011.8141 305.75293
-326.58994 -1052.3452 324.04605
-327.64679 -1092.1558 338.22073
-328.71048 -1132.2249 352.4873
-329.78113 -1172.5549 366.84705
-274.46951 1029.2607 85.149712
-273.73825 992.30139 74.115997
-273.21271 956.24463 66.18557
-273.11874 921.77588 64.767876
-275.68881 895.98865 103.5472
-332.07812 1037.7444 954.39642
-331.15189 993.45605 940.4209
-329.13782 946.27148 910.03076
-326.85333 898.84705 875.56067
-324.65594 852.22205 842.4046
-323.67789 809.19489 827.64679
-241.27505 482.55032 -415.71616
-237.87657 446.01865 -466.99509
-238.08183 416.64334 -463.89789
-239.09399 388.52783 -448.62555
-244.04732 366.07123 -373.88568
-250.97473 345.09036 -269.35904
-258.26831 322.83551 -159.30739
-263.68323 296.64386 -77.603012
-267.05368 267.05374 -26.746378
-269.59567 235.8963 11.609074
-271.41092 203.5584 38.999077
-272.69925 170.43718 58.438591
-273.21396 136.60703 66.204842
-272.60312 102.2263 56.98814
-271.46234 67.865852 39.774647
-270.33228 33.791637 22.723619
-269.29053 0.00016224723 7.0050654
-268.71555 -33.589283 -1.6711215
-268.14667 -67.036537 -10.254983
-215.92749 -80.972702 -798.18121
-215.11343 -107.55656 -810.46442
-214.52609 -134.07874 -819.32666
-218.80222 -164.10147 -754.80499
-267.82281 -234.34477 -15.141005
-268.20538 -268.20523 -9.3685808
-268.67746 -302.26196 -2.245698
-269.08835 -336.36041 3.954061
-269.49429 -370.55457 10.079469
-270.08878 -405.13309 19.049435
-271.01419 -440.39801 33.012772
-272.04538 -476.07925 48.57238
-273.13016 -512.1189 64.940475
-274.2236 -548.4472 81.439415
-275.34006 -585.09747 98.285294
-276.59442 -622.33728 117.21223
-277.84717 -659.88684 136.11446
-279.12454 -697.81128 155.38864
-280.69632 -736.8277 179.10477
-282.31842 -776.37549 203.58058
-283.93881 -816.32397 228.03061
-285.44617 -856.33832 250.77452
-286.96817 -896.77557 273.7403
-288.50797 -937.65063 296.97321
-290.0643 -978.96698 320.45715
-291.26178 -1019.416 338.52545
-292.20889 -1059.2571 352.81601
-293.16071 -1099.3525 367.17786
-294.65106 -1141.7727 389.66589
-241.44176 1034.7504 107.23839
-240.38084 995.86377 88.943832
-239.81923 959.27704 79.258873
-239.34372 923.18298 71.059135
-239.7253 890.40845 77.639343
-289.67792 1034.5643 939.04163
-291.55847 999.62921 971.47028
-282.31015 887.26056 811.98871
-280.33102 840.99323 777.86011
-278.75369 796.43921 750.6601
-210.80153 481.83231 -421.13348
-206.95755 443.48056 -487.42041
-207.18098 414.36215 -483.56705
-207.98541 386.25873 -469.69525
-211.71452 362.9393 -405.38907
-218.1339 342.78198 -294.69144
-224.42944 320.61353 -186.1282
-230.94455 296.92886 -73.779243
-234.81367 268.35861 -7.0588174
-237.39137 237.39153 37.392204
-239.41838 205.21593 72.346672
-240.95078 172.10789 98.771835
-241.74707 138.14131 112.50352
-241.82666 103.64014 113.87568
-241.05469 68.873009 100.56364
-240.03189 34.290451 82.926598
-239.00777 1.8187802e-05 65.266029
-238.25035 -34.03558 52.204639
-237.73929 -67.925461 43.391655
-188.00475 -80.573311 -814.25
-187.31035 -107.0344 -826.224
-186.79462 -133.42453 -835.11768
-190.33797 -163.14665 -774.01447
-237.0598 -237.05949 31.67411
-237.43192 -271.35056 38.091476
-237.83604 -305.78909 45.060249
-238.33316 -340.47583 53.632999
-238.6927 -375.08835 59.83279
-239.12335 -409.92563 67.259201
-239.77113 -445.28909 78.429848
-240.62381 -481.24744 93.133453
-241.48936 -517.47717 108.05964
-242.39774 -554.05176 123.72384
-243.39012 -591.09015 140.83687
-244.43597 -628.54944 158.8719
-245.5307 -666.44025 177.74983
-246.66722 -704.76343 197.34865
-247.92184 -743.7655 218.98373
-249.26901 -783.41663 242.21466
-250.59549 -823.38501 265.08878
-251.93738 -863.7851 288.22903
-253.29372 -904.62036 311.61838
-254.66348 -945.89276 335.23907
-255.70059 -986.27356 353.12299
-256.53354 -1026.134 367.48703
-257.56787 -1067.0668 385.32346
-206.88206 999.93011 105.87048
-206.24512 962.47729 93.055908
-205.77814 926.00177 83.660805
-205.43765 890.2301 76.810982
-206.5089 860.4538 98.362968
-238.99005 876.29718 751.83289
-237.11812 829.91351 714.17279
-235.77745 785.92505 687.2005
-236.10962 747.68054 693.8833
-176.39052 440.97635 -507.57214
-176.59476 412.0546 -503.46323
-177.23808 384.01599 -490.52023
-179.93025 359.86063 -436.35803
-185.72868 340.50281 -319.70285
-191.05318 318.42215 -212.58232
-196.90723 295.36084 -94.807907
-202.01512 269.3537 7.9548678
-204.77625 238.90572 63.504448
-206.64639 206.64653 101.129
-208.16591 173.47188 131.69911
-209.32948 139.55315 155.10854
-209.92168 104.96113 167.02226
-209.72989 69.91008 163.164
-208.83261 34.80558 145.11217
-207.92238 0.0001250366 126.79998
-207.01033 -34.501522 108.45075
-206.51567 -68.838478 98.499283
-160.3584 -80.179077 -830.11389
-159.76843 -106.5123 -841.98291
-159.33182 -132.77654 -850.76691
-162.21143 -162.21121 -792.83374
-205.57658 -239.83916 79.606102
-205.90599 -274.54111 86.232834
-206.26636 -309.39926 93.482994
-206.73846 -344.564 102.98137
-207.14848 -379.77206 111.23006
-207.50247 -415.0047 118.35171
-207.87532 -450.39633 125.85289
-208.48196 -486.45779 138.05766
-209.17551 -522.93866 152.01096
-209.95467 -559.87891 167.68614
-210.79002 -597.23834 184.4926
-211.63309 -634.89911 201.45352
-212.59052 -673.20312 220.71568
-213.50702 -711.69006 239.15413
-214.39285 -750.37482 256.97543
-215.51341 -790.2157 279.51984
-216.67134 -830.5733 302.81525
-217.84068 -871.36261 326.34079
-219.0238 -912.59906 350.14334
-219.90234 -952.90985 367.81787
-220.62108 -992.79474 382.27798
-172.49644 965.98029 108.15741
-172.06094 929.12921 97.642815
-171.71425 892.91425 89.273193
-171.64685 858.23425 87.646027
-173.25722 831.63477 126.52373
-197.08847 867.18939 701.86084
-195.22079 819.92761 656.77136
-194.11072 776.44299 629.97192
-193.54614 735.47546 616.3418
-146.21913 438.65759 -526.23346
-146.3613 409.81171 -522.80127
-146.84578 381.79907 -511.1048
-148.69754 356.87415 -466.39941
-153.75224 338.25507 -344.36813
-158.1301 316.26031 -238.67741
-163.03258 293.45889 -120.32093
-167.95798 268.73285 -1.4114569
-171.30585 239.82829 79.413292
-173.24251 207.89122 126.16842
-174.81316 174.8134 164.08774
-175.9613 140.76913 191.80605
-176.76746 106.06062 211.26822
-177.07678 70.830818 218.73645
-176.68156 35.336349 209.19511
-175.89388 0.00011659802 190.1786
-175.11153 -35.02206 171.29065
-174.4404 -69.776031 155.0887
-132.98514 -79.791061 -845.7301
-132.49347 -105.99453 -857.60052
-132.13931 -132.13919 -866.15015
-134.34361 -161.21225 -812.93372
-173.34634 -242.68468 128.67511
-173.70705 -277.93109 137.38339
-174.05357 -313.2963 145.74939
-174.44704 -348.89398 155.2487
-174.83897 -384.64563 164.71065
-175.14409 -420.34561 172.07678
-175.31294 -455.81354 176.15352
-175.65921 -491.84573 184.51285
-176.22806 -528.6842 198.24658
-176.83809 -565.88171 212.97356
-177.50121 -603.50415 228.98306
-178.19441 -641.49976 245.71814
-178.87909 -679.7403 262.2478
-179.59804 -718.39209 279.60474
-180.32278 -757.35559 297.10159
-181.16679 -797.13385 317.47812
-182.14876 -837.88416 341.18448
-183.1414 -879.07855 365.1489
-183.8647 -919.32343 382.61124
-184.90877 -961.52545 407.81699
-138.71371 970.99615 129.78151
-138.14703 932.49261 112.67994
-137.80818 895.7536 102.45458
-137.56305 859.76917 95.056633
-137.88902 827.33411 104.89394
-154.19746 809.53693 597.04498
-153.36774 766.83899 572.00537
-152.75305 725.57715 553.45575
-116.36478 436.36798 -544.65747
-116.46764 407.63684 -541.55365
-116.79027 379.56854 -531.81744
-118.12026 354.3609 -491.68134
-122.19518 336.03687 -368.71002
-125.65102 314.12775 -264.42041
-129.59088 291.57971 -145.52438
-133.48013 266.96045 -28.155838
-137.20528 240.10931 84.260124
-139.26662 208.89999 146.46628
-140.71173 175.88983 190.07683
-141.93033 141.93054 226.85101
-142.79243 107.09447 252.86743
-143.30217 71.651115 268.25003
-143.49321 35.873528 274.01495
-143.08655 0.00013881216 261.74323
-142.42149 -35.605209 241.67302
-141.76257 -70.881149 221.78862
-105.87753 -79.408035 -861.13873
-105.48151 -105.48132 -873.08972
-105.20694 -131.50859 -881.37506
-106.8232 -160.23465 -832.60022
-140.74004 -246.29504 190.93126
-140.8419 -281.68356 194.00491
-141.13956 -317.56381 202.98735
-141.34526 -353.3631 209.19516
-141.68056 -389.62137 219.31357
-141.94267 -425.82791 227.22365
-142.10674 -461.84668 232.17436
-142.26015 -497.9104 236.80432
-142.57143 -534.64276 246.19827
-142.98837 -571.95337 258.78055
-143.46869 -609.74182 273.27499
-143.95857 -647.81342 288.05872
-144.48875 -686.32135 304.05829
-145.07727 -725.38623 321.81845
-145.6143 -764.47498 338.02463
-146.23386 -804.28613 356.72165
-147.01302 -845.32471 380.23499
-147.71805 -886.30817 401.51105
-104.02989 936.26929 129.56419
-103.7195 898.90259 117.0747
-103.49496 862.45831 108.04001
-103.36342 826.90753 102.74739
-104.16461 798.5954 134.985
-114.2832 799.98267 542.12537
-113.6274 757.51611 515.7381
-113.21472 717.02667 499.13281
-86.828316 434.14178 -562.57385
-86.889595 405.48489 -560.10815
-87.086327 377.37415 -552.19214
-87.97628 351.90512 -516.38336
-91.049301 333.84766 -392.73474
-93.607048 312.02359 -289.81842
-96.575188 289.72577 -170.39035
-99.45459 265.2124 -54.531498
-102.28643 238.66852 59.412457
-104.74036 209.48087 158.15077
-106.13709 176.89526 214.351
-107.16463 142.88638 255.69621
-107.92715 107.92726 286.37823
-108.53627 72.357712 310.88693
-108.93488 36.311687 326.92557
-109.14258 0.00019688439 335.28259
-108.82461 -36.274704 322.48868
-108.31171 -72.207603 301.85123
-79.029137 -79.029015 -876.38831
-78.730728 -104.97418 -888.39569
-78.529861 -130.88298 -896.47772
-79.634529 -159.26897 -852.0296
-107.149 -250.01408 255.0672
-107.20737 -285.88611 257.41611
-107.30655 -321.91946 261.40674
-107.48344 -358.27789 268.52408
-107.64408 -394.69482 274.98792
-107.85586 -431.42331 283.50906
-108.00915 -468.03946 289.67682
-108.09072 -504.42316 292.95941
-108.1496 -540.74786 295.32858
-108.38948 -578.07709 304.98059
-108.70061 -615.97003 317.49976
-109.06048 -654.36285 331.97946
-109.44773 -693.16876 347.56116
-109.86676 -732.44495 364.42151
-110.27135 -771.89929 380.70099
-110.72008 -811.94708 398.7565
-69.38765 902.03967 131.63972
-69.225494 865.31879 121.85294
-69.097549 829.17084 114.13061
-69.19355 795.72595 119.92467
-75.27887 790.42847 487.20618
-74.867661 748.67676 462.38773
-74.654251 709.21564 449.50708
-57.605713 432.04294 -579.46332
-57.622204 403.35553 -578.4679
-57.733147 375.26553 -571.77161
-58.271233 349.62762 -539.29565
-60.306629 331.68671 -416.44827
-61.989235 309.94629 -314.89429
-63.976391 287.89383 -194.95865
-65.871445 263.48596 -80.58197
-67.751671 237.13103 32.899529
-69.466057 208.39824 136.37213
-71.024857 177.56229 230.45374
-71.80867 143.61758 277.76099
-72.383186 108.57494 312.43604
-72.910843 72.910973 344.28311
-73.34359 36.671986 370.4017
-73.646156 0.00017567765 388.66309
-73.800041 -36.899857 397.95084
-73.587135 -73.586891 385.10104
-52.436012 -78.65387 -891.48218
-52.240993 -104.48192 -903.25232
-52.104828 -130.26183 -911.47107
-52.803867 -158.41145 -869.28009
-72.568016 -253.98796 323.59177
-72.56443 -290.2576 323.3754
-72.634743 -326.85614 327.6189
-72.703033 -363.51501 331.74072
-72.832054 -400.5762 339.52777
-72.886971 -437.32172 342.84235
-73.035881 -474.73306 351.82993
-73.039871 -511.27893 352.07095
-73.025352 -547.69012 351.19455
-73.0653 -584.52234 353.60559
-73.247063 -622.59998 364.57581
-73.469017 -661.22113 377.97214
-73.700089 -700.15063 391.9183
-73.977661 -739.77643 408.67105
-34.843239 905.92456 149.67561
-34.734673 868.36694 136.57039
-34.655529 831.73291 127.01694
-34.606228 795.9433 121.06564
-34.878807 767.33392 153.96877
-37.210846 781.4278 435.47116
-37.010258 740.20532 411.25797
-36.940655 701.87262 402.85608
-28.664732 429.9711 -596.13611
-28.660147 401.24216 -596.6897
-28.706175 373.18042 -591.13367
-28.954636 347.45572 -561.1416
-29.959391 329.55341 -439.85696
-30.789757 307.8978 -339.62308
-31.787222 286.08514 -219.21855
-32.722706 261.78186 -106.2953
-33.659466 235.61633 6.7817936
-34.504963 207.03 108.842
-35.394711 176.97368 216.2442
-35.991405 143.96576 288.27167
-36.372211 109.11685 334.23901
-36.672894 73.346008 370.5343
-36.94846 36.948547 403.798
-37.178646 0.00015521357 431.58398
-37.319733 -37.319641 448.61456
-37.416672 -74.833282 460.31625
-26.094055 -78.281975 -906.44427
-25.998568 -103.99406 -917.97058
-25.929379 -129.6468 -926.32257
-26.273798 -157.64276 -884.74731
-37.008953 -259.06262 411.1004
-36.971146 -295.7691 406.53647
-36.96426 -332.67822 405.7056
-37.007275 -370.0726 410.89798
-36.999073 -406.98959 409.90787
-37.053005 -444.63589 416.41809
-37.026112 -481.33936 413.17184
-37.052631 -518.73669 416.37283
-37.044971 -555.67438 415.44803
-36.982311 -591.7168 407.88422
-37.029285 -629.49762 413.55478
-37.139362 -668.50836 426.84189
-1.5106206e-21 871.58142 152.09059
-1.5970343e-21 834.68604 141.8701
-1.5570831e-21 798.44476 134.19267
-1.6713907e-21 765.06384 141.51253
-1.420159e-21 772.06958 381.67789
-7.3477009e-22 731.83221 360.72226
-1.8008837e-21 695.67053 363.45212
-4.5223121e-22 428.07532 -611.39246
-4.8060032e-22 399.14001 -614.81488
-3.4816034e-22 371.11102 -610.34821
-9.2637372e-22 345.18381 -583.99677
-3.8149374e-22 327.23267 -465.32364
-7.1078836e-22 305.87604 -364.02692
-5.5836701e-22 284.00214 -247.15527
-1.8422601e-22 260.10074 -131.66075
-5.7254348e-22 234.13171 -18.820717
-1.0128511e-21 205.68037 81.690399
-1.901807e-21 175.79059 187.67892
-1.5589489e-21 143.52556 274.98792
-1.834378e-21 109.36263 344.13016
-1.545675e-21 73.705032 392.20831
-9.7573587e-22 37.164307 429.83588
-1.3114274e-21 0.00015215368 459.6492
-1.4999523e-21 -37.606316 483.22897
-1.1557313e-21 -75.541214 503.04446
-6.6941338e-22 -77.913681 -921.26575
-1.8167293e-21 -103.50838 -932.62909
-1.158335e-21 -129.0383 -941.01257
-2.1640963e-21 -156.79137 -901.87305
-1.6466916e-21 -264.45822 504.14642
-1.5209284e-21 -302.00659 500.65466
-1.9514699e-21 -339.50613 497.28494
-1.2264346e-21 -376.96585 494.10721
-1.4314612e-21 -414.65613 494.03723
-1.1248425e-21 -452.21063 492.61349
-1.5306795e-21 -489.73648 491.14371
-1.6623004e-21 -527.92297 495.57877
-1.735454e-21 -569.49921 526.70172
-8.9974814e-22 -605.52875 512.08734
35.013958 875.349 170.28326
34.901508 837.63629 156.70923
34.824574 800.96521 147.42253
34.785164 765.27393 142.66527
35.110348 737.31763 181.91846
36.186245 723.72491 311.79044
36.366451 690.96265 333.54355
28.501366 427.52069 -615.85651
28.361513 397.06131 -632.73822
28.388254 369.04752 -629.51025
28.586208 343.03464 -605.61493
29.500183 324.50211 -495.28827
30.388058 303.88074 -388.11249
31.327694 281.94946 -274.68839
32.304977 258.43994 -156.71992
33.238079 232.66663 -44.084496
34.057858 204.34734 54.871254
34.924404 174.62219 159.47307
35.648392 142.5936 246.86633
36.347378 109.04227 331.24118
36.929699 73.859505 401.53342
37.304947 37.305176 446.83005
37.574364 8.2775565e-05 479.35168
37.841656 -37.841503 511.61661
38.047047 -76.093941 536.40967
25.849728 -77.549156 -935.93726
25.75692 -103.02748 -947.1402
25.689907 -128.44955 -955.22925
25.991577 -155.94934 -918.81451
37.795906 -566.93848 506.09375
37.67186 -602.74963 491.12057
70.066986 840.80389 172.64156
69.897659 803.82318 162.42131
69.77285 767.5014 154.88855
69.987556 734.86951 167.84703
71.632568 716.32599 267.13254
72.366066 687.47784 311.4032
56.731342 425.4852 -632.23578
56.437157 395.06039 -649.99164
56.462532 367.00671 -648.46008
56.845482 341.07291 -625.34705
58.512108 321.81668 -524.75726
60.382221 301.91119 -411.88589
62.205753 279.92596 -301.82614
64.20031 256.80142 -181.44391
66.062782 231.21989 -69.033989
67.677391 203.03235 28.416594
69.387978 173.4702 131.65956
70.837204 141.67461 219.12794
72.217033 108.32567 302.40829
73.651695 73.651802 388.99738
74.724495 37.36237 453.74661
75.430756 0.00012179659 496.37326
75.994125 -37.997028 530.37604
76.564384 -76.564209 564.79382
51.459534 -77.189133 -950.41785
51.274029 -102.54794 -961.61432
51.146049 -127.86498 -969.3385
51.914829 -155.74442 -922.93848
75.254196 -564.40637 485.71695
74.999893 -599.99908 470.36844
105.47118 843.76965 187.55695
105.19881 806.52435 176.59798
104.98833 769.91467 168.12881
104.93335 734.53345 165.91644
105.54037 703.60272 190.34146
104.94534 664.65387 166.39902
104.45541 626.73242 146.68547
103.99651 589.31372 128.2211
103.61855 552.63239 113.01308
84.690552 423.45279 -648.59094
84.237686 393.10928 -666.81274
84.248306 365.07611 -666.38519
84.781113 339.12466 -644.94666
87.047806 319.17545 -553.74225
89.990105 299.96722 -435.35312
92.643784 277.93152 -328.57739
95.693329 255.1823 -205.87329
98.481766 229.79089 -93.675117
100.86656 201.7334 2.2814486
103.3993 172.33235 104.19109
105.57526 140.76729 191.74492
107.61832 107.61842 273.95154
109.74203 73.161591 359.40262
111.79279 37.264469 441.91919
113.35914 0.00011763826 504.94406
114.40421 -38.134521 546.99481
115.30081 -76.867119 583.07111
76.824974 -76.824875 -965.07703
76.549599 -102.06593 -976.15771
76.456917 -127.42806 -979.8869
77.646446 -155.29268 -932.02374
112.3788 -561.89374 465.49811
112.00755 -597.37341 450.56055
143.33571 967.5163 269.26266
142.31732 925.06287 238.52998
141.48749 884.297 213.4875
141.02034 846.12213 199.38972
139.64317 802.94843 157.83041
137.66357 757.15002 98.090431
139.23163 730.96613 145.41093
139.64983 698.24915 158.03058
139.20064 661.20331 144.47537
138.78448 624.53033 131.91687
138.38188 588.12305 119.76739
138.02893 552.11591 109.11587
112.38435 421.44156 -664.77783
111.7654 391.17896 -683.45593
111.7501 363.18793 -683.91779
112.37146 337.11453 -665.16681
115.11889 316.57712 -582.25555
119.21864 298.04688 -458.53464
122.65114 275.96518 -354.94983
126.79174 253.5835 -229.9964
130.50253 228.37958 -118.01348
133.63432 200.4516 -23.502729
136.96802 171.21013 77.100037
139.87849 139.87862 164.93153
142.56036 106.92046 245.86423
145.355 72.677696 330.19949
148.05371 37.013634 411.64053
150.8228 0.00023511445 495.20486
152.87384 -38.218216 557.10089
102.32594 -51.162804 -968.31732
101.95776 -76.468185 -979.42786
101.66146 -101.66137 -988.36945
102.02538 -127.53162 -977.38733
149.17131 -559.39227 445.36716
148.68597 -594.74377 430.72104
150.32898 -638.89801 480.30295
179.44099 1040.7578 275.81293
178.59036 1000.1062 255.27676
177.4472 958.2149 227.67883
163.81201 851.82269 -101.50374
164.98335 824.91718 -73.224785
166.56796 799.52625 -34.969303
168.59396 775.53253 13.942939
170.80875 751.55878 67.412567
173.209 727.47784 125.35983
174.65274 698.61102 160.21489
174.28729 662.29181 151.39194
173.9769 626.31689 143.89838
173.70868 590.60974 137.42288
152.6145 488.36646 -371.83542
139.89139 419.67435 -678.99878
139.01517 389.24252 -700.15247
138.96678 361.31381 -701.32068
139.63666 335.12802 -685.14856
142.73663 314.02072 -610.30817
148.07591 296.15198 -481.4068
152.23689 274.02643 -380.9519
157.50357 252.00583 -253.80281
162.09584 226.93434 -142.93575
165.98763 199.18529 -48.979946
170.10159 170.10178 50.340126
173.77771 139.02232 139.0896
177.05118 106.23093 218.11804
180.4991 72.19976 301.35855
183.83066 36.766285 381.78918
128.21861 6.9826172e-05 -960.80414
127.77172 -25.554251 -971.59332
127.31557 -50.926067 -982.60602
126.90868 -76.145088 -992.42908
126.839 -101.47111 -994.11127
128.16806 -128.168 -962.0246
185.63863 -556.91565 425.43719
185.03172 -592.10132 410.78534
186.20137 -633.08453 439.02313
189.37132 946.85675 -246.4189
190.45796 920.547 -224.55699
191.89992 895.53302 -195.54712
193.55495 870.99756 -162.25089
195.31401 846.36078 -126.86114
197.2968 822.07001 -86.970573
199.46457 797.85858 -43.358231
201.91147 773.99408 5.8698492
205.08113 751.96423 69.638252
210.22504 735.78778 173.1255
210.59163 701.97235 180.50122
214.3595 678.80511 256.30435
218.00876 654.02667 329.72214
182.13773 516.05701 -391.94727
184.00282 490.67432 -354.4245
167.14841 417.87119 -693.50909
165.92897 387.16785 -718.04224
165.88652 359.42102 -718.89655
166.63846 333.27707 -703.76849
169.91193 311.50528 -637.91138
176.56859 294.28107 -503.98999
181.41058 272.11597 -406.57608
187.83479 250.4465 -277.33118
193.27657 225.48949 -167.85146
197.93469 197.93492 -74.136932
202.80984 169.00832 23.943491
207.26341 138.17564 113.54249
154.77324 77.386787 -942.47833
154.23653 51.41235 -953.27606
153.69443 25.61586 -964.18256
153.16463 7.3359974e-05 -974.84113
152.63318 -25.438776 -985.5329
152.14848 -50.716061 -995.28455
152.04822 -76.024033 -997.30127
153.28928 -102.19263 -972.33356
221.78221 -554.45544 405.63812
221.05702 -589.48517 391.04828
221.74986 -628.29108 404.98712
214.91309 1043.8636 -350.23203
215.39287 1015.4237 -341.95828
216.68803 990.5741 -319.62393
218.16998 966.18152 -294.06915
219.78687 941.94397 -266.18674
221.50896 917.67999 -236.49034
223.42412 893.69678 -203.46436
225.4913 869.75244 -167.81728
227.85725 846.32721 -127.01778
230.85126 824.46887 -75.388412
248.1228 850.70691 222.44914
246.36826 809.49579 192.19278
245.54829 771.72327 178.0533
244.86197 734.58606 166.21782
245.17601 700.50287 171.63335
252.75093 686.03821 302.25821
254.27312 653.84546 328.5076
213.45898 518.40057 -375.30728
194.13338 416.00018 -708.56531
192.55307 385.10626 -735.81683
192.52495 357.54642 -736.30164
193.35381 331.46381 -722.00848
196.6553 309.02982 -665.07587
204.70352 292.43365 -526.28943
210.23874 270.30704 -430.83798
217.7939 248.90744 -300.55411
224.06372 224.0638 -192.435
229.4975 196.71219 -98.732796
181.0239 129.30284 -934.63019
180.3813 103.07514 -945.71149
179.75769 77.039146 -956.46503
179.11592 51.176147 -967.53204
178.48801 25.498444 -978.35986
177.94574 4.0350078e-05 -987.71124
177.58562 -25.369316 -993.92096
178.21523 -50.918568 -983.06396
179.25389 -76.823051 -965.15253
257.60272 -552.00555 385.92413
256.77307 -586.90967 371.61752
256.49643 -622.91974 366.84692
240.83508 1445.0107 -422.35483
242.88744 1426.9637 -391.38708
239.80226 1139.061 -437.93857
239.98441 1109.9281 -435.1904
241.13448 1085.1052 -417.83716
242.46556 1060.7869 -397.75272
243.92982 1036.702 -375.65854
245.55339 1012.9079 -351.16098
247.16856 988.67438 -326.79004
249.04549 965.05145 -298.4693
251.14528 941.79486 -266.78625
253.73892 919.80383 -227.65062
281.07355 808.08649 184.79691
280.02094 770.05762 168.9138
279.22534 732.96661 156.9095
279.64783 699.11975 163.28439
293.24701 696.46173 368.48019
293.52234 660.42535 372.63486
295.92404 628.83875 408.87329
220.87695 414.14441 -723.49963
218.87637 383.03391 -753.68604
218.88779 355.69278 -753.51379
219.75208 329.62823 -740.47266
222.97702 306.59354 -691.81207
232.22012 290.27533 -552.3446
238.7327 268.57437 -454.07721
247.28711 247.28725 -325.00119
207.41307 181.48654 -926.65387
206.67201 155.00415 -937.83575
205.92973 128.70621 -949.03583
205.21355 102.60692 -959.84222
204.51088 76.691681 -970.44482
203.89713 50.974415 -979.70532
203.53206 25.441603 -985.21381
204.22375 0.00011799172 -974.77692
205.18274 -25.647623 -960.30707
206.14209 -51.535416 -945.83142
292.1871 -584.37396 352.48737
291.75052 -619.96967 345.89957
270.35559 1471.9363 -430.18579
269.25131 1436.0071 -444.99689
268.32797 1401.2686 -457.38107
269.82819 1379.1222 -437.25937
273.91174 1369.5588 -382.48981
265.83151 1240.5471 -490.86429
264.47995 1204.8531 -508.99188
265.34183 1179.297 -497.43216
266.54633 1155.0343 -481.27704
267.8681 1130.9989 -463.54877
269.33249 1107.2559 -443.90811
270.88062 1083.5227 -423.14398
272.54776 1059.9082 -400.78384
274.46777 1036.8785 -375.03207
276.91629 1015.3601 -342.19144
315.56329 806.43982 176.15355
314.35999 768.43585 160.0144
313.44345 731.36829 147.72165
313.9361 697.63599 154.3288
335.62692 708.54602 445.25302
335.57925 671.15851 444.61316
335.87585 634.4325 448.59161
341.03867 606.29114 517.83704
247.39685 412.32819 -738.1153
244.9796 381.0795 -770.53625
244.97778 353.8569 -770.56061
245.85869 327.81177 -758.74573
249.00313 304.33728 -716.57117
259.12006 287.91135 -580.88049
233.93082 233.93102 -918.72565
233.10852 207.20766 -929.75458
232.26016 180.64696 -941.133
231.44873 154.29926 -952.01617
230.68883 128.16066 -962.20819
229.97708 102.21207 -971.75427
229.74614 76.582214 -974.85187
230.7299 51.273472 -961.65747
231.71722 25.746513 -948.41498
233.34547 0.00010388181 -926.5766
334.14276 -37.126793 425.3465
327.3013 -581.8689 333.58707
326.61575 -616.94061 324.39215
298.80185 1464.1293 -449.418
297.52151 1428.1036 -464.87271
297.05475 1396.1575 -470.50751
297.30121 1367.5856 -467.53262
295.81198 1331.1539 -485.50934
294.63504 1296.3943 -499.71594
293.73734 1263.0707 -510.55197
292.96774 1230.4645 -519.8421
293.29874 1202.5249 -515.84637
294.56061 1178.2426 -500.6142
296.11005 1154.8293 -481.91101
297.9209 1132.0994 -460.052
349.80283 804.54663 166.21791
348.48196 766.6604 150.27412
347.50772 729.76648 138.51421
348.12198 696.2442 145.92854
379.9176 721.84375 529.73553
379.09027 682.36279 519.74884
379.16461 644.5799 520.64642
380.84131 609.34625 540.8858
273.85352 410.78046 -750.57123
270.88571 379.24017 -786.39575
270.84775 352.1022 -786.85394
261.53976 313.84781 -899.2113
260.56479 286.62143 -910.98016
259.60718 259.60733 -922.53973
258.68387 232.8156 -933.68481
257.75629 206.20509 -944.88196
257.01862 179.91312 -953.78644
256.29233 153.77551 -962.55359
256.4838 128.24199 -960.24213
257.45367 102.98161 -948.53479
258.53912 77.561852 -935.43225
349.51486 69.903259 162.7424
356.05545 35.605694 241.69402
362.1568 8.4271356e-05 315.34369
368.77975 -36.877796 395.29013
362.0961 -579.35364 314.61093
361.14908 -613.95337 303.17966
327.20346 1427.7971 -465.64362
327.60406 1399.7631 -461.24756
326.09302 1363.6617 -477.82919
325.42065 1331.2665 -485.20731
324.79156 1299.1665 -492.11102
324.45511 1268.3245 -495.80319
384.00781 802.92554 157.7104
382.50821 765.01654 141.25403
381.45377 728.2301 129.68277
382.56436 695.57184 141.87016
424.72726 695.00842 604.55347
424.50864 656.05902 602.15387
424.71613 617.7691 604.43097
289.46109 394.71988 -879.81696
288.40939 367.06665 -891.35779
287.34796 339.59311 -903.0058
286.3298 312.35989 -914.17865
285.24936 285.24942 -926.03534
284.23199 258.39276 -937.19946
283.44836 231.91232 -945.79871
282.91943 205.75967 -951.60309
283.4404 180.37125 -945.88599
284.47714 155.16945 -934.50922
285.7345 129.87946 -920.71143
368.75717 134.09361 -9.6456327
375.12686 102.30733 60.253277
382.03622 69.461349 136.07477
389.22366 35.38406 214.94772
395.76587 0.00014884668 286.73965
402.95526 -36.63205 365.63388
396.58746 -576.85443 295.75558
395.54694 -611.29974 284.33752
417.86517 800.90845 147.12375
416.41638 763.43005 132.54974
415.30209 726.77869 121.34121
417.00928 695.01575 138.51401
472.17624 708.26459 693.45087
471.4238 667.85077 685.88153
471.65079 628.86792 688.16522
314.23703 392.79639 -895.29523
313.13199 365.3208 -906.41071
311.99387 337.9935 -917.85956
310.95938 310.95947 -928.26569
310.06583 284.22717 -937.25439
309.77054 258.14227 -940.22455
310.58798 232.94109 -932.00171
311.82281 207.88206 -919.5802
313.21768 182.7104 -905.54901
381.64648 190.82341 -217.20851
390.55011 162.72923 -127.64439
399.91907 133.30656 -33.400394
406.78577 101.69655 35.673409
414.14905 69.025032 109.74205
421.97964 35.165134 188.51195
429.02359 0.00023019029 259.36856
436.67844 -36.38974 336.37033
444.89859 -74.149628 419.05896
430.77408 -574.36536 276.97733
429.59015 -608.58582 265.06787
451.74725 799.24524 138.395
450.15024 761.79279 123.56634
448.96939 725.25842 112.60159
451.59985 694.76917 137.02649
522.8894 724.00085 798.98114
520.34814 680.45544 775.38403
340.10217 418.58743 -898.27826
338.85562 390.9874 -909.85309
337.73398 363.71362 -920.26794
336.75742 336.75754 -929.33557
336.79187 310.88498 -929.01581
338.01968 286.01672 -917.61517
339.3288 261.02231 -905.45935
341.78308 236.61926 -882.67035
388.00687 238.77359 -453.46252
400.90369 215.87134 -333.7099
410.98785 189.68683 -240.07381
420.49356 161.72838 -151.80943
430.64151 132.50517 -57.581055
438.06683 101.09242 11.366526
445.86093 68.594139 83.738235
454.26562 34.943703 161.7791
461.87146 0.00013435264 232.40253
469.95819 -36.150448 307.49161
478.5321 -73.620216 387.10406
464.6376 -571.86151 258.08777
463.3819 -605.96082 246.42769
485.45679 797.53644 129.42592
483.77386 760.21637 114.9153
482.54367 723.81567 104.30836
486.52005 695.02875 138.59355
576.31396 740.97528 912.81384
571.45306 693.90759 870.90228
368.07803 420.6608 -882.63629
364.0882 390.09457 -917.03735
364.33456 364.33469 -914.91333
365.77283 339.6463 -902.51233
367.26572 314.79935 -889.63989
375.2782 294.86151 -820.55511
387.30612 276.64746 -716.84808
402.3172 258.63266 -587.41949
414.99564 237.14059 -478.10345
429.12674 214.56354 -356.26251
439.98367 188.56456 -262.6521
450.08853 160.74608 -175.52599
460.86252 131.67503 -82.630547
468.97849 100.49551 -12.653314
477.17722 68.168449 58.037621
486.1153 34.722595 135.10387
494.30896 0.00012419869 205.75096
502.80563 -35.914536 279.01111
511.92297 -73.13163 357.62238
498.31339 -569.50092 240.27783
496.88574 -603.36115 227.96851
521.56757 834.50818 140.97614
519.01025 795.81604 120.39665
517.29987 758.70673 106.63256
516.35449 722.89642 99.024841
521.85162 695.80237 143.26187
627.59338 794.95178 994.20605
625.2077 750.24945 975.00745
624.4884 707.75378 969.21918
624.62646 666.26831 970.33014
397.1781 370.69968 -860.03302
396.42221 343.5661 -866.11572
396.96487 317.57211 -861.74872
399.82101 293.20218 -838.76428
411.74878 274.49939 -742.77722
428.41135 257.04706 -608.68726
441.6178 235.5296 -502.4097
457.01181 213.27231 -378.5282
468.6384 187.45538 -284.9649
479.33453 159.77831 -198.88913
490.70947 130.85593 -107.35065
499.52945 99.906013 -36.37265
508.10941 67.748085 32.673252
517.56714 34.504738 108.78321
526.34833 0.00016286648 179.44868
535.22455 -35.681477 250.87923
544.8656 -72.648598 328.46429
531.6994 -567.14587 222.51111
530.08044 -600.75775 209.48233
554.68732 832.03119 128.51718
552.36481 794.02466 110.99503
550.7085 757.22437 98.499298
550.23932 722.18921 94.959366
674.0589 842.57391 1029.1064
422.24582 369.46527 -870.67688
420.8067 341.90555 -881.53424
421.24557 315.93427 -878.22333
424.09073 291.56247 -856.75793
435.81479 272.38434 -768.30682
453.45334 255.0676 -635.23438
467.88074 233.94052 -526.38788
484.56131 211.99564 -400.54272
496.95801 186.35948 -307.01691
508.2327 158.82285 -221.95581
520.185 130.04649 -131.78256
529.72174 99.322929 -59.833595
538.75635 67.344658 8.3274555
548.62646 34.289207 82.791382
557.99463 9.8151206e-05 153.46928
567.2309 -35.451729 223.1512
577.37585 -72.171768 299.689
564.75354 -564.75336 204.46089
563.00598 -598.19385 191.27696
569.12323 -640.26349 237.42778
588.03717 830.17035 119.15783
585.75073 792.48639 102.92274
584.00317 755.76892 90.51416
584.45416 721.97278 93.716072
446.64337 367.82413 -884.82678
444.9978 340.29257 -896.51147
445.33899 314.35712 -894.08899
448.0889 289.94003 -874.56299
459.51279 270.30179 -793.44611
477.96252 253.03917 -662.44147
493.79163 232.3727 -550.04486
511.38892 210.57199 -425.09274
524.94836 185.27611 -328.81235
536.78729 157.87875 -244.74841
549.30054 129.2473 -155.89668
559.5636 98.746559 -83.022255
569.0509 66.947227 -15.6565
579.30048 34.076599 57.121727
589.25238 0.000141647 127.78662
598.94556 -35.231892 196.61403
609.46222 -71.701347 271.289
597.50989 -562.362 186.41998
595.64325 -595.64325 173.16594
600.86188 -636.20648 210.22112
621.13605 828.18164 109.155
618.88019 790.79132 94.026901
617.17883 754.32977 82.617195
619.30042 722.51721 96.845383
470.82516 366.19757 -898.85168
468.97171 338.7019 -911.28143
469.20636 312.80438 -909.70782
472.82016 288.94577 -885.47314
482.90933 268.28308 -817.81354
502.08499 251.04259 -689.21887
519.35754 230.82584 -573.38666
537.73834 209.12073 -450.1221
552.61517 184.20523 -350.35596
565.00439 156.94589 -267.27188
578.05786 128.45746 -179.73318
589.06384 98.177429 -105.9257
598.99005 66.554543 -39.359009
609.59357 33.866447 31.749504
620.13397 0.0001836984 102.43505
630.27228 -35.014954 170.42432
641.13287 -71.236801 243.25687
629.987 -559.9884 168.5114
628.0451 -593.15369 155.48865
631.78699 -631.78687 180.58199
654.2453 826.41528 100.27139
651.95947 789.21417 85.749161
650.30402 752.9837 75.231812
655.09583 724.05347 105.67527
501.07849 369.21594 -872.82684
497.48169 340.38239 -895.67822
498.41962 314.79147 -889.71918
501.80627 290.51962 -868.20312
508.90131 267.84283 -823.12695
525.82971 249.07738 -715.57727
544.58527 229.29922 -596.41968
563.72705 207.68903 -474.80859
579.96161 183.14597 -371.66724
592.89001 156.0238 -289.53055
606.46857 127.67775 -203.26341
618.22314 97.614204 -128.58403
628.58276 66.166756 -62.767403
639.51813 33.659088 6.7071395
650.64355 0.0001247537 77.388954
661.2124 -34.800488 144.53494
672.39581 -70.778313 215.5854
662.25085 -557.68469 151.13219
660.21783 -590.72113 138.21649
663.12549 -628.224 156.68939
690.42999 863.03766 110.83835
687.18787 824.62549 91.27037
684.87842 787.61035 77.331177
683.99841 752.3985 72.019897
530.30286 344.69696 -855.61475
529.66241 317.79755 -859.48004
532.04071 292.62244 -845.12567
537.53369 268.76691 -811.97253
549.20563 247.14256 -741.52612
569.48157 227.79276 -619.15027
589.3623 206.27686 -499.15936
606.9978 182.09953 -392.71945
620.44989 155.11266 -311.52911
634.53363 126.90692 -226.52634
647.04987 97.057526 -150.98387
657.82971 65.783241 -85.922043
669.07843 33.454067 -18.030087
680.78473 7.3401781e-05 52.623596
691.77911 -34.588799 118.98083
703.25897 -70.325729 188.26804
694.28638 -555.42902 134.11371
692.12457 -588.30566 121.06564
695.84497 -626.26038 143.52057
722.97083 860.67987 99.453384
720.06213 822.92828 82.733253
717.93097 786.30548 70.483139
718.45581 752.66827 73.500305
565.75159 350.22742 -804.26294
562.29358 321.31082 -824.14038
563.50122 295.16751 -817.19855
567.57495 270.27396 -793.78217
575.71259 246.73416 -747.0061
594.05286 226.306 -641.5838
614.65131 204.88397 -523.18146
633.72687 181.06493 -413.5325
647.68701 154.21129 -333.28796
662.27893 126.14859 -249.4119
675.54962 96.507233 -173.12979
686.73944 65.403946 -108.80965
698.30609 33.252819 -42.322781
710.57013 0.00016410365 28.172016
721.9762 -34.379639 93.735542
733.75433 -69.88131 161.4382
747.70557 -106.81482 241.63135
728.29865 -520.2132 130.07814
726.02283 -553.1601 116.99632
724.08044 -586.16028 105.83146
733.03265 -628.31372 157.28989
755.57098 858.60352 89.428238
752.85382 821.29517 74.519737
750.80438 784.93201 63.274525
754.5304 754.53052 83.71862
596.42798 325.32443 -783.76526
596.12219 298.06119 -785.44305
598.91888 272.23605 -770.09802
605.33673 247.63786 -734.88397
618.30548 224.83847 -663.72668
639.60107 203.50957 -546.8811
660.15387 180.04225 -434.11081
674.61224 153.32108 -354.77991
689.72107 125.40386 -271.88022
703.73114 95.963455 -195.00909
715.32086 65.029282 -131.41772
727.29883 33.059254 -65.696678
739.99969 0.00017845549 3.9911194
751.8067 -34.17292 68.774658
763.99658 -69.454063 135.65846
777.07373 -105.96442 207.41087
764.5387 -451.7728 138.63315
762.25983 -485.07437 126.12909
759.76935 -518.02441 112.4642
757.5791 -550.96643 100.44682
760.12317 -587.36768 114.40525
788.16858 856.70514 80.261948
785.58875 819.74493 66.722275
783.9776 783.97784 58.266827
793.22296 758.73517 106.78907
633.38348 330.46118 -732.09521
630.10736 301.35593 -749.28925
631.63135 274.62253 -741.29077
636.50916 249.06892 -715.69061
645.77039 224.61591 -667.08484
664.21832 202.1535 -570.26501
686.28406 179.03067 -454.45746
701.22845 152.44102 -376.02521
716.83813 124.66765 -294.10101
731.59357 95.425369 -216.6597
743.57361 64.658844 -153.78545
755.95245 32.867767 -88.817459
769.08636 0.00017883856 -19.886833
781.28424 -33.968784 44.13105
793.87518 -69.032524 110.21185
807.34125 -105.30515 180.88568
803.60901 -349.39499 161.29768
800.96899 -383.07199 147.44241
798.50104 -416.60913 134.48984
795.97321 -449.89783 121.22305
793.61041 -483.06711 108.82259
791.5174 -516.20673 97.837479
794.54706 -552.72827 113.73853
824.13983 892.81824 88.82756
820.74841 854.94629 71.77005
818.26862 818.2688 59.298012
818.64856 784.53845 61.208763
665.59009 305.06213 -708.61566
665.73334 277.38907 -707.89526
669.31195 250.99205 -689.89642
676.7182 225.57295 -652.64575
689.38196 201.06979 -588.95221
712.11945 178.02991 -474.59149
727.54077 151.57108 -397.02802
743.64172 123.94039 -316.0463
759.14532 94.893265 -238.06921
771.50604 64.292419 -175.89958
784.27594 32.678288 -111.67183
797.83301 1.3818897e-05 -43.485271
810.41156 -33.766983 19.780062
823.38934 -68.615547 85.05278
837.0993 -104.63722 154.0088
840.43512 -280.14478 170.78685
837.71185 -314.14188 157.08966
835.1405 -347.97507 144.15707
832.39636 -381.51492 130.35469
829.96686 -414.98337 118.13564
828.04517 -448.52423 108.47028
830.74512 -484.60117 122.04987
837.65216 -523.53247 156.78929
856.40131 890.65765 78.795921
853.33746 853.33746 64.001953
850.9848 816.94556 52.642654
855.96631 787.48932 76.695282
711.76917 313.17856 -619.5498
703.31134 281.32477 -660.38794
705.03662 253.81328 -652.0575
710.15637 227.25014 -627.33716
719.21979 201.38168 -583.5752
737.37726 176.97064 -495.90311
753.5545 150.71104 -417.79245
770.13446 123.2216 -337.73712
786.39496 94.367554 -259.22479
799.12726 63.930298 -197.74771
812.27869 32.491375 -134.24721
826.10419 0.00013904639 -67.491661
839.19122 -33.567505 -4.302002
852.55304 -68.204193 60.215015
866.48224 -103.97765 127.47083
877.39807 -210.57545 180.17734
874.53619 -244.86996 166.35855
871.77557 -278.96802 153.02968
869.06946 -312.86478 139.96298
866.70709 -346.68271 128.55684
865.53894 -380.83698 122.91622
870.14008 -417.66705 145.13222
888.87097 888.87122 70.502129
885.83276 851.76257 56.39661
884.63892 816.58978 50.8536
746.9823 287.30099 -588.24707
743.06506 257.2149 -606.4339
746.22351 229.60738 -591.76984
752.95709 202.71931 -560.50787
764.38031 176.39569 -507.47284
779.27148 149.86005 -438.33722
796.32172 122.51112 -359.17801
813.34076 93.847168 -280.16339
826.43555 63.572098 -219.36789
839.95898 32.306171 -156.58266
854.01239 0.00010701395 -91.336304
867.63672 -33.370453 -28.082615
881.36914 -67.797478 35.673283
895.54327 -103.33173 101.47958
914.36798 -140.67188 188.87779
911.5882 -175.30528 175.97171
908.72571 -209.70581 162.68219
906.08319 -243.9453 150.41362
903.80652 -278.09424 139.84396
905.28442 -313.36749 146.70534
910.4671 -350.17953 170.76689
925.16797 925.16821 79.933891
921.08661 886.97223 61.686913
918.40399 850.37433 49.693684
921.08228 818.74011 61.667728
785.90112 261.96704 -542.69556
784.57062 232.46552 -548.64386
789.17804 204.60191 -528.04523
797.34381 177.18774 -491.53799
807.93488 149.61777 -444.18787
822.41663 121.83965 -379.44333
839.99103 93.332527 -300.87213
853.43958 63.217911 -240.74707
867.32568 32.123341 -178.66516
881.6712 7.1378432e-05 -114.52986
895.74622 -33.175571 -51.60384
909.83948 -67.395363 11.403873
924.3833 -102.70907 76.425774
945.83215 -140.12302 172.31877
943.25037 -174.67581 160.77618
942.14819 -209.36606 155.84874
945.90887 -245.23547 172.66168
956.974 922.79657 69.331116
