# .PCD v0.7 - Point Cloud Data file format
VERSION 0.7
FIELDS x y z
SIZE 4 4 4
TYPE F F F
COUNT 1 1 1
WIDTH 1517
HEIGHT 1
VIEWPOINT 0 0 0 1 0 0 0
POINTS 1517
DATA ascii
-9.1112423 15.033548 -11.668489
-9.1134529 14.581522 -11.655148
-9.1156301 14.129226 -11.642007
-9.117775 13.676661 -11.629065
-9.1193752 13.223092 -11.619406
-9.1207714 12.769078 -11.610975
-9.1221685 12.314925 -11.602543
-9.1233616 11.860368 -11.595345
-9.1240425 11.405051 -11.591229
-9.1247587 10.949708 -11.586907
-9.1254406 10.494256 -11.582793
-9.1253052 10.037833 -11.583616
-9.1251335 9.5813894 -11.584644
-9.1249294 9.1249294 -11.585879
-9.1242476 8.6680336 -11.589996
-9.1231909 8.2108707 -11.596375
-9.1221342 7.7538114 -11.60275
-9.1209078 7.2967253 -11.610154
-9.1189318 6.8391976 -11.622076
-9.1169577 6.3818679 -11.633995
-9.1149836 5.924737 -11.645908
-9.1122971 5.4673777 -11.662127
-9.1086254 5.0097413 -11.684281
-9.1047201 4.5523572 -11.707854
-9.1008177 4.0953665 -11.731407
-9.0969191 3.638767 -11.75494
-9.0930567 3.1825697 -11.778249
-9.0897064 2.7269101 -11.798472
-9.0866623 2.2716649 -11.816847
-9.0829439 1.8165864 -11.839285
-9.0784531 1.3617687 -11.866393
-9.0342512 0.90342391 -12.13317
-9.0622807 0.45311171 -11.963998
-9.0614395 -1.4469426e-06 -11.969071
-9.0612717 -0.45306671 -11.970088
-9.0612717 -0.90612942 -11.970088
-9.0612717 -1.3591923 -11.970088
-9.0829439 -1.8165897 -11.839285
-8.5826025 22.585796 -12.132768
-8.5884171 22.149075 -12.095826
-8.5942402 21.711763 -12.058831
-8.60007 21.273855 -12.021791
-8.605175 20.83358 -11.98936
-8.6102533 20.392702 -11.957096
-8.6153059 19.951231 -11.924998
-8.6201077 19.508661 -11.894492
-8.6244984 19.064678 -11.866596
-8.6288929 18.620241 -11.838675
-8.6332607 18.175285 -11.810927
-8.6368923 17.728359 -11.787849
-8.6404963 17.280991 -11.764961
-8.6440697 16.833187 -11.742256
-8.6472597 16.384279 -11.72199
-8.6500969 15.934388 -11.703961
-8.6529036 15.484144 -11.686129
-8.6556482 15.033493 -11.668693
-8.6577473 14.581468 -11.655354
-8.6598482 14.129226 -11.642007
-8.6619177 13.676711 -11.628857
-8.6634388 13.223144 -11.6192
-8.6647329 12.769078 -11.610975
-8.6660595 12.314925 -11.602543
-8.667161 11.860323 -11.595551
-8.667841 11.405051 -11.591229
-8.6685209 10.949708 -11.586907
-8.6691694 10.494256 -11.582793
-8.6690397 10.037833 -11.583616
-8.6688776 9.5813894 -11.584644
-8.6687155 9.1249628 -11.585674
-8.6680679 8.6680651 -11.589788
-8.6670313 8.2108707 -11.596375
-8.666028 7.7538114 -11.60275
-8.6648617 7.2967253 -11.610154
-8.6629858 6.8391976 -11.622076
-8.6611414 6.3818917 -11.63379
-8.659235 5.924737 -11.645908
-8.6566811 5.4673777 -11.662127
-8.6540012 5.0102096 -11.679153
-8.6502905 4.5527849 -11.702735
-8.6465826 4.0957494 -11.72629
-8.6428776 3.6391048 -11.749825
-8.6391764 3.1828516 -11.773341
-8.6355095 2.7270036 -11.796637
-8.631815 2.271529 -11.820112
-8.6281223 1.8164459 -11.84357
-8.6244659 1.3617563 -11.866801
-8.5710907 0.90221864 -12.2059
-8.6003885 0.45265043 -12.019761
-8.5989866 -1.9176002e-06 -12.028672
-8.598094 -0.45253175 -12.034345
-8.5975199 -0.90500522 -12.037988
-8.5972662 -1.3574636 -12.039608
-8.6186666 -1.814459 -11.903644
-8.3092833 21.234835 -10.936413
-8.281353 20.703382 -11.123714
-8.2492428 20.164814 -11.33905
-8.2171345 19.62982 -11.554373
-8.1818924 19.091082 -11.790709
-8.1747103 18.620171 -11.838878
-8.1788778 18.175285 -11.810927
-8.1822891 17.728289 -11.788056
-8.1857023 17.280924 -11.765163
-8.1891184 16.833187 -11.742256
-8.1921091 16.384218 -11.722194
-8.1947985 15.934327 -11.704167
-8.1974878 15.484144 -11.686129
-8.2000875 15.033493 -11.668693
-8.2020769 14.581468 -11.655354
-8.2040672 14.129226 -11.642007
-8.206027 13.676711 -11.628857
-8.207468 13.223144 -11.6192
-8.2086945 12.769078 -11.610975
-8.2099514 12.314925 -11.602543
-8.2109947 11.860323 -11.595551
-8.2116394 11.405051 -11.591229
-8.2122831 10.949708 -11.586907
-8.2128973 10.494256 -11.582793
-8.2127743 10.037833 -11.583616
-8.2126207 9.5813894 -11.584644
-8.2124672 9.1249628 -11.585674
-8.211854 8.6680651 -11.589788
-8.2108717 8.2108707 -11.596375
-8.2099209 7.7538114 -11.60275
-8.2088165 7.2967253 -11.610154
-8.2070389 6.8391976 -11.622076
-8.2052927 6.3818917 -11.63379
-8.203516 5.9247608 -11.645702
-8.2010975 5.4673982 -11.661921
-8.1985273 5.0102096 -11.679153
-8.1957455 4.5531893 -11.697812
-8.1922626 4.0961289 -11.721169
-8.1887522 3.6394429 -11.74471
-8.1852446 3.1831498 -11.768231
-8.1818008 2.7272646 -11.791322
-8.178421 2.2717807 -11.813987
-8.1746798 1.8165939 -11.839084
-8.170516 1.3617508 -11.867002
-8.1091356 0.90101141 -12.278632
-8.1394081 0.45218718 -12.075617
-8.1380825 -6.7312936e-07 -12.084512
-8.1367874 -0.45204729 -12.093197
-8.1358833 -0.90399021 -12.099257
-8.1353111 -1.3558862 -12.103097
-8.1559315 -1.8124298 -11.96481
-7.7541618 16.420576 -11.600281
-7.7541618 15.964448 -11.600282
-7.7541904 15.508381 -11.600076
-7.9335041 15.400331 -10.326839
-8.7860317 16.53841 -4.2733603
-7.962203 14.050945 -10.123058
-7.9428248 13.549523 -10.260656
-7.9133601 13.033768 -10.469875
-7.887558 12.527296 -10.653084
-7.8708086 12.037706 -10.772016
-7.8641882 11.564981 -10.819025
-7.8567162 11.091835 -10.872081
-7.8482199 10.618179 -10.932409
-7.8335581 10.137544 -11.036519
-7.814888 9.6536846 -11.169086
-7.7959266 9.1716766 -11.303728
-7.7820716 8.697608 -11.402104
-7.7717271 8.2288857 -11.475554
-7.7614398 7.7614388 -11.548603
-7.7527719 7.2967253 -11.610154
-7.7510924 6.8391976 -11.622076
-7.7494431 6.3818917 -11.63379
-7.7477646 5.9247608 -11.645702
-7.7454815 5.4673982 -11.661921
-7.7430825 5.0102291 -11.67895
-7.7406569 4.5533285 -11.696176
-7.7378864 4.0965257 -11.715844
-7.734715 3.6398656 -11.738368
-7.7315168 3.1835651 -11.761075
-7.7282929 2.7276313 -11.783968
-7.7243524 2.2718654 -11.811947
-7.7204161 1.8165659 -11.839894
-7.7164841 1.3617328 -11.86782
-7.6484399 0.8998158 -12.350975
-7.6793694 0.45172575 -12.131354
-7.6781192 -1.0379492e-06 -12.140229
-7.676898 -0.4515861 -12.148899
-7.6756773 -0.90302241 -12.157571
-7.6747694 -1.3543735 -12.164016
-7.6910934 -1.8096703 -12.048109
-7.2980347 16.420576 -11.600281
-7.2980347 15.964448 -11.600282
-7.2980618 15.508381 -11.600076
-7.4668274 15.400331 -10.326839
-8.269206 16.53841 -4.2733603
-8.5410509 16.548285 -2.2224543
-7.1910057 0.89887393 -12.407748
-7.2202692 0.45126629 -12.18698
-7.2191219 -2.9696596e-06 -12.195634
-7.2179475 -0.45112291 -12.204491
-7.2168007 -0.90210021 -12.213143
-7.2156549 -1.3529377 -12.221788
-7.2276421 -1.8069141 -12.131353
-6.841907 16.420576 -11.600281
-6.841907 15.964448 -11.600282
-6.8419328 15.508381 -11.600076
-7.0001507 15.400331 -10.326839
-7.7726808 16.581718 -4.1099968
-8.0072346 16.548285 -2.2224543
-8.2799759 16.559954 -0.027601698
-6.7356668 0.89808697 -12.455236
-6.762104 0.45080528 -12.242491
-6.7610307 -2.4183566e-06 -12.251129
-6.7599325 -0.45066282 -12.259967
-6.7588596 -0.9011811 -12.2686
-6.7582111 -1.3516432 -12.273819
-6.7689519 -1.8050566 -12.187382
-6.3857803 16.420576 -11.600281
-6.3857803 15.964448 -11.600282
-6.3858037 15.508381 -11.600076
-6.5334744 15.400331 -10.326839
-7.5519366 17.26157 -1.5454618
-7.5519366 16.722141 -1.5454597
-7.7279773 16.559954 -0.027601698
-8.0014629 16.574457 2.3304424
-6.2811246 0.89730257 -12.502644
-6.3048716 0.45034575 -12.297889
-6.3038721 1.064387e-07 -12.306513
-6.3028727 -0.45020479 -12.31513
-6.3022451 -0.90032327 -12.320537
-6.3017569 -1.3503779 -12.324747
-6.3117862 -1.8033692 -12.238271
-5.9296532 16.420576 -11.600281
-5.9296532 15.964448 -11.600282
-5.9296756 15.508381 -11.600076
-6.0667977 15.400331 -10.326839
-7.3126535 17.437866 1.2414808
-7.3126535 16.875355 1.2414844
-7.4299293 16.574457 2.3304424
-7.7025514 16.590109 4.8618522
-7.9959407 16.606956 7.5861044
-8.0596046 13.63933 8.1772509
-8.0515909 13.006413 8.1028414
-8.0435534 12.374697 8.0282021
-8.0355721 11.744296 7.9540925
-8.027606 11.115148 7.8801284
-8.0182381 10.485386 7.7931433
-8.0086908 9.8568506 7.704484
-7.9991651 9.2298059 7.6160393
-7.9896216 8.604207 7.5274286
-7.9799013 7.9798994 7.4371662
-7.9690437 7.356041 7.3363481
-7.9582157 6.7338753 7.2358069
-7.9474168 6.1133976 7.1355333
-7.9366474 5.4946017 7.0355358
-7.925313 4.8771133 6.9302959
-7.9132619 4.2609873 6.8183951
-7.9012079 3.6467113 6.7064676
-7.8892303 3.0343189 6.595243
-7.8772883 2.4237816 6.4843583
-7.8633952 1.814628 6.3553586
-5.8273764 0.89651936 -12.549969
-5.8485699 0.44988811 -12.353174
-5.8476429 -4.3164044e-07 -12.361781
-5.8470836 -0.4497757 -12.366982
-5.8466306 -0.89948368 -12.37118
-5.8466306 -1.3492246 -12.371177
-5.8556037 -1.8017259 -12.287864
-7.8612528 -3.0235612 6.3354678
-7.7341914 -3.5696287 5.1556463
-7.6778111 -4.1342087 4.6321297
-7.6931057 -4.7342215 4.7741504
-7.7079372 -5.3362656 4.9118686
-7.721662 -5.9397402 5.0393033
-7.7401881 -6.5493922 5.2113314
-7.7618389 -7.1647754 5.4123669
-7.7881942 -7.7881951 5.6570864
-7.8304591 -8.4328041 6.0495334
-7.522563 25.702087 9.0114393
-7.5202851 25.067617 8.9885254
-7.5180469 24.433649 8.9660082
-7.5157719 23.799942 8.9431219
-7.513536 23.166737 8.9206324
-5.473526 16.420576 -11.600281
-5.473526 15.964448 -11.600282
-5.473546 15.508381 -11.600076
-5.6001205 15.400331 -10.326839
-7.4963522 19.990273 8.7477779
-7.4914842 19.353001 8.6988068
-7.0566254 17.641563 4.3244691
-7.052074 17.042513 4.2786908
-7.1100473 16.590109 4.8618522
-7.3808684 16.606956 7.5861044
-7.4651079 16.174398 8.4334841
-7.4589515 15.53948 8.3715582
-7.4527669 14.905531 8.3093443
-7.4465928 14.272637 8.2472353
-7.4396348 13.63933 8.1772509
-7.4322386 13.006413 8.1028414
-7.4248185 12.374697 8.0282021
-7.4174509 11.744296 7.9540925
-7.4100981 11.115148 7.8801284
-7.4014511 10.485386 7.7931433
-7.3926368 9.8568506 7.704484
-7.3838444 9.2298059 7.6160393
-7.3750358 8.604207 7.5274286
-7.3660626 7.9798994 7.4371662
-7.35604 7.356041 7.3363481
-7.3460455 6.7338753 7.2358069
-7.3360767 6.1133976 7.1355333
-7.3261361 5.4946017 7.0355358
-7.3157101 4.8771391 6.9306626
-7.3045497 4.2609873 6.8183951
-7.2934594 3.6467276 6.7068348
-7.2823663 3.0343189 6.595243
-7.2713428 2.4237816 6.4843583
-7.2588062 1.8147017 6.3582478
-5.3744202 0.89573568 -12.597207
-5.3931947 0.44943202 -12.408349
-5.3927183 -1.0381211e-06 -12.413141
-5.3926988 -0.4493922 -12.41334
-5.3926787 -0.8987813 -12.413543
-5.3926587 -1.3481675 -12.41374
-5.4003115 -1.8001052 -12.336762
-7.2568645 -3.0236945 6.3387213
-7.1380711 -3.5690382 5.1437507
-7.0821056 -4.1312294 4.5807838
-7.0920815 -4.728056 4.6811328
-7.1020861 -5.3265653 4.7817645
-7.114397 -5.9286661 4.905611
-7.1278615 -6.5338736 5.041048
-7.1421418 -7.1421452 5.1847043
-7.1567602 -7.7531576 5.3317442
-7.1726317 -8.3680696 5.4913993
-7.1905136 -8.9881458 5.6712847
-7.2094436 -9.6125927 5.8617001
-7.2292571 -10.241449 6.0610132
-7.2511902 -10.876787 6.2816372
-7.274159 -11.517418 6.5126848
-7.2983274 -12.16388 6.7558064
-7.3246341 -12.818112 7.0204325
-7.3529391 -13.480389 7.3051572
-7.3841424 -14.152941 7.6190357
-7.4177885 -14.83558 7.9574928
-7.4547386 -15.530706 8.3291817
-7.5014954 -16.253241 8.79951
-7.6035309 -17.107944 9.8259163
-6.945034 25.886038 9.553009
-6.9177756 25.155548 9.2538776
-6.8915429 24.433649 8.9660082
-6.8894567 23.799942 8.9431219
-6.8874078 23.166737 8.9206324
-5.0173988 16.420576 -11.600281
-5.0173988 15.964448 -11.600282
-5.0174174 15.508381 -11.600076
-5.1334438 15.400331 -10.326839
-6.8716559 19.990273 8.7477779
-6.8671937 19.353001 8.6988068
-6.8626671 18.716362 8.6491318
-6.8581467 18.080568 8.5995283
-6.7713904 17.236267 7.6474957
-6.7671261 16.610218 7.6006961
-6.8430505 16.174482 8.4338684
-6.8373723 15.53948 8.3715582
-6.8317032 14.905531 8.3093443
-6.8260431 14.272637 8.2472353
-6.8196654 13.63933 8.1772509
-6.8128848 13.006413 8.1028414
-6.8060832 12.374697 8.0282021
-6.7993298 11.744296 7.9540925
-6.7925897 11.115148 7.8801284
-6.7846632 10.485386 7.7931433
-6.7765841 9.8568506 7.704484
-6.7685237 9.2298059 7.6160393
-6.7604494 8.604207 7.5274286
-6.7522244 7.9798994 7.4371662
-6.7430372 7.356041 7.3363481
-6.7338748 6.7338753 7.2358069
-6.724771 6.1134276 7.1359024
-6.7156582 5.4946299 7.0359044
-6.706068 4.8771391 6.9306626
-6.6958704 4.2610083 6.8187585
-6.6856709 3.6467276 6.7068348
-6.6755352 3.034333 6.5956082
-6.6653976 2.4237816 6.4843583
-6.6536751 1.8146385 6.3557153
-4.9227958 0.89505064 -12.638421
-4.9395981 0.44905469 -12.454044
-4.9396162 -1.0722522e-06 -12.453845
-4.9396162 -0.44905743 -12.453844
-4.9396343 -0.89811826 -12.453641
-4.9396529 -1.3471785 -12.453445
-4.9458556 -1.7984961 -12.385373
-6.6517305 -3.0235147 6.3343821
-6.5439334 -3.5694196 5.1514487
-6.4911461 -4.1307302 4.5721731
-6.5000682 -4.7273254 4.6700859
-6.5082264 -5.3249135 4.7596111
-6.5184608 -5.9258747 4.8719192
-6.5309815 -6.530982 5.0093198
-6.542913 -7.1377249 5.1402493
-6.5555282 -7.7474442 5.2786841
-6.5699911 -8.3618088 5.4373975
-6.5853252 -8.979991 5.6056743
-6.6024837 -9.6036139 5.7939591
-6.6205797 -10.231806 5.9925447
-6.6398258 -10.865171 6.2037439
-6.6608024 -11.505025 6.4339366
-6.6831756 -12.151231 6.679451
-6.7065034 -12.803325 6.9354401
-6.7307358 -13.461473 7.2013631
-6.7572861 -14.128872 7.4927163
-6.7844577 -14.802454 7.7908893
-6.8153739 -15.489487 8.1301565
-6.8456664 -16.180666 8.4625788
-6.8798223 -16.886839 8.8373947
-6.914392 -17.600273 9.2167482
-4.5612717 16.420576 -11.600281
-4.5612717 15.964448 -11.600282
-4.5612888 15.508381 -11.600076
-4.6667671 15.400331 -10.326839
-6.2256179 16.186607 8.49016
-6.2256179 15.564043 8.490159
-6.1767998 1.8530382 7.9008703
-4.4729409 0.89458501 -12.666525
-4.4881005 0.44880775 -12.483533
-4.4879026 -2.7346841e-06 -12.485921
-4.4878039 -0.44878265 -12.487115
-4.4878039 -0.89756387 -12.487116
-4.4878201 -1.3463495 -12.486916
-4.4932704 -1.7973083 -12.421127
-4.8655748 -2.4327886 -7.9270186
-5.949697 -3.5698183 5.1594934
-5.9004145 -4.1302919 4.5646024
-5.9073234 -4.7258601 4.6479955
-5.9147067 -5.3232379 4.7371211
-5.9231133 -5.9231157 4.8386068
-5.934514 -6.5279675 4.9762273
-5.944396 -7.1332765 5.0955048
-5.9552107 -7.7417746 5.2260528
-5.9682817 -8.3555937 5.3838286
-5.9812341 -8.9718513 5.5401778
-5.9966564 -9.5946522 5.7263498
-6.0130477 -10.222183 5.9242043
-6.0297661 -10.853581 6.1260209
-6.0487356 -11.492599 6.3549943
-6.0694227 -12.138845 6.6047101
-6.0905557 -12.79017 6.8598151
-6.1126018 -13.447723 7.1259279
-6.1378922 -14.117153 7.43121
-6.1628633 -14.790874 7.7326398
-6.1916471 -15.479121 8.0800953
-6.2199731 -16.17193 8.4220104
-6.2515984 -16.879316 8.8037653
-6.2848082 -17.597464 9.2046404
-4.1051445 16.420576 -11.600281
-4.1051445 15.964448 -11.600282
-4.1051598 15.508381 -11.600076
-4.2000904 15.400331 -10.326839
-5.603056 16.186607 8.49016
-5.603056 15.564043 8.490159
-4.0235391 0.89411777 -12.694796
-4.0371833 0.44857273 -12.511796
-4.0370202 -2.4188755e-06 -12.513983
-4.0368423 -0.44853777 -12.516374
-4.036664 -0.89703625 -12.51876
-4.0365458 -1.3455168 -12.520348
-4.0418758 -1.7963928 -12.448857
-4.2686005 -2.3714476 -9.4079628
-5.3553014 -3.5702024 5.1671963
-5.309937 -4.1299524 4.5587492
-5.3154593 -4.7248535 4.6328173
-5.3215599 -5.3215618 4.7146444
-5.3283205 -5.9203591 4.8053241
-5.3377419 -6.5239086 4.931685
-5.3466506 -7.1288695 5.0511656
-5.3557711 -7.736114 5.1734958
-5.3674388 -8.3493519 5.329987
-5.3790789 -8.9651327 5.4861021
-5.3919592 -9.5857077 5.658864
-5.4066834 -10.212625 5.8563471
-5.4214616 -10.842926 6.0545568
-5.4380965 -11.480428 6.2776661
-5.4569197 -12.126488 6.530127
-5.4758735 -12.77704 6.7843423
-5.4966083 -13.436154 7.0624466
-5.5193582 -14.105026 7.367569
-5.5422688 -14.779385 7.6748586
-5.5687547 -15.468763 8.030097
-5.5949821 -16.163284 8.3818731
-5.6240191 -16.872061 8.7713184
-5.6549296 -17.593115 9.1859016
-3.6490173 16.420576 -11.600281
-3.6490173 15.964448 -11.600282
-3.6490309 15.508381 -11.600076
-3.7334137 15.400331 -10.326839
-4.9804945 16.186607 8.49016
-4.9804945 15.564043 8.490159
-3.5746207 0.89365345 -12.722842
-3.5867362 0.44833955 -12.540031
-3.5865912 -2.7705378e-06 -12.542216
-3.5864332 -0.44830585 -12.5446
-3.5862751 -0.89657158 -12.546985
-3.5862224 -1.3448366 -12.54778
-3.5907445 -1.7953715 -12.47955
-3.7655969 -2.3534992 -9.8412361
-4.7607784 -3.5705867 5.1748991
-4.7196932 -4.1297307 4.554965
-4.7244415 -4.724442 4.6266141
-4.7298403 -5.3210707 4.7080784
-4.7349072 -5.9186373 4.7845373
-4.7423558 -6.5207419 4.8969264
-4.7501974 -7.1252966 5.0152426
-4.7578564 -7.7315168 5.130806
-4.7678661 -8.3437662 5.2818451
-4.7781286 -8.9589911 5.4366918
-4.7886934 -9.5773897 5.5961061
-4.8017116 -10.20364 5.7925358
-4.8147774 -10.833248 5.9896789
-4.8291554 -11.469245 6.2066278
-4.8457584 -12.114396 6.4571447
-4.8624754 -12.764001 6.7093897
-4.8816986 -13.424673 6.9994407
-4.9018607 -14.092854 7.3036728
-4.9230595 -14.769179 7.623528
-4.9466953 -15.458423 7.980166
-4.9705844 -16.1544 8.3406277
-4.9972358 -16.865671 8.7427616
-5.0256991 -17.589949 9.1722422
-3.1928902 16.420576 -11.600281
-3.1928902 15.964448 -11.600282
-3.1929018 15.508381 -11.600076
-3.2667372 15.400331 -10.326839
-4.3579326 16.186607 8.49016
-4.3579326 15.564043 8.490159
-3.1261683 0.89318937 -12.750859
-3.1367586 0.44810632 -12.568238
-3.136632 -1.2457251e-06 -12.570419
-3.1365745 -0.44808424 -12.571411
-3.1365631 -0.89616364 -12.57161
-3.1365631 -1.3442445 -12.571609
-3.1401122 -1.7943507 -12.510404
-3.2810841 -2.3436334 -10.079428
-4.1661277 -3.5709686 5.1826034
-4.1293921 -4.1293941 4.5491166
-4.1331663 -4.7236195 4.614203
-4.1375284 -5.3196802 4.6894197
-4.1419196 -5.9170275 4.7651458
-4.1483932 -6.5189066 4.8767819
-4.1552305 -7.1232548 4.9946842
-4.1612597 -7.7280536 5.0986495
-4.169888 -8.3397789 5.2474465
-4.1788797 -8.9547415 5.4024973
-4.187664 -9.571804 5.5539727
-4.1990414 -10.197674 5.7501764
-4.2104602 -10.8269 5.9470878
-4.2228594 -11.462049 6.1609035
-4.2373686 -12.106767 6.4111032
-4.2520833 -12.756252 6.6648579
-4.2687979 -13.416224 6.9530816
-4.286375 -14.083805 7.2561889
-4.3052249 -14.760772 7.5812426
-4.325861 -15.449507 7.9370999
-4.3471599 -16.146595 8.304389
-4.3723798 -16.864895 8.7392883
-4.3973737 -17.589499 9.1702938
-2.736763 16.420576 -11.600281
-2.736763 15.964448 -11.600282
-2.736773 15.508381 -11.600076
-2.8000603 15.400331 -10.326839
-3.7353709 16.186607 8.49016
-3.7353709 15.564043 8.490159
-2.6781819 0.8927272 -12.778844
-2.6873088 0.44788501 -12.595223
-2.6873088 -3.3814268e-07 -12.595224
-2.687299 -0.44788474 -12.595422
-2.687299 -0.89576805 -12.595422
-2.687289 -1.3436455 -12.59562
-2.6900027 -1.7933366 -12.541026
-2.8006063 -2.3338397 -10.315855
-3.5713499 -3.5713506 5.1903076
-3.5391028 -4.1289539 4.5415468
-3.5419946 -4.7226601 4.5997286
-3.5454917 -5.3182392 4.670084
-3.5492363 -5.9153953 4.7454238
-3.5547476 -6.5170388 4.8563008
-3.5600855 -7.1201735 4.9636946
-3.5651968 -7.7245941 5.0665207
-3.572499 -8.3358326 5.2134337
-3.5799189 -8.9497995 5.3627052
-3.5873518 -9.5662737 5.512248
-3.5970755 -10.191715 5.7078671
-3.6067805 -10.820341 5.9031172
-3.6173239 -11.45486 6.1152368
-3.6297629 -12.09921 6.3654857
-3.6424685 -12.748642 6.6211071
-3.6567049 -13.407918 6.9075198
-3.6720099 -14.076038 7.2154331
-3.688149 -14.752598 7.5401301
-3.7058175 -15.440906 7.895587
-3.7248864 -16.141178 8.279232
-3.7464316 -16.858944 8.7126827
-3.7686539 -17.587051 9.1597576
-2.2806358 16.420576 -11.600281
-2.2806358 15.964448 -11.600282
-2.2806444 15.508381 -11.600076
-2.3333836 15.400331 -10.326839
-3.1128089 16.186607 8.49016
-3.1128089 15.564043 8.490159
-2.2314184 0.89256757 -12.788495
-2.2388821 0.44777435 -12.60831
-2.2387836 -2.9293039e-06 -12.610687
-2.2387836 -0.44775897 -12.610689
-2.2387836 -0.895513 -12.610688
-2.2387836 -1.343272 -12.610686
-2.2409449 -1.792757 -12.558506
-2.3293593 -2.3293624 -10.423993
-2.976444 -3.5717325 5.1980119
-2.9490385 -4.1286554 4.5363889
-2.9515765 -4.7225223 4.5976586
-2.9541047 -5.3173885 4.6586933
-2.9568949 -5.9137897 4.7260547
-2.961169 -6.5145726 4.8292398
-2.9654121 -7.116991 4.9316845
-2.9696531 -7.7210989 5.03407
-2.9755299 -8.3314838 5.1759467
-2.9815903 -8.9447718 5.3222518
-2.9877188 -9.5607042 5.4702158
-2.9957683 -10.185612 5.6645389
-3.0038459 -10.813847 5.8595581
-3.0125475 -11.44768 6.0696259
-3.0230048 -12.092019 6.3220916
-3.0335803 -12.741039 6.5774074
-3.0454299 -13.399891 6.8634791
-3.0583832 -14.068565 7.1762018
-3.0717564 -14.744432 7.4990611
-3.0871348 -15.435676 7.8703265
-3.1030309 -16.135761 8.2540874
-3.1209412 -16.853085 8.6864824
-3.1404316 -17.586418 9.1570301
-1.8245087 16.420576 -11.600281
-1.8245087 15.964448 -11.600282
-1.8245155 15.508381 -11.600076
-1.8667068 15.400331 -10.326839
-2.4902472 16.186607 8.49016
-2.4902472 15.564043 8.490159
-1.7848151 0.89240742 -12.798141
-1.7907968 0.44770014 -12.617626
-1.7907115 -5.9940743e-07 -12.620202
-1.7906327 -0.44766051 -12.622576
-1.7905539 -0.89528012 -12.624954
-1.7905475 -1.3429103 -12.625154
-1.7924532 -1.7924559 -12.567639
-1.8632954 -2.3291194 -10.429789
-2.3814106 -3.5721173 5.2057204
-2.3591282 -4.1284752 4.5332932
-2.3611584 -4.7223186 4.5945597
-2.3632038 -5.3172112 4.6562796
-2.365195 -5.9129896 4.7163744
-2.3682919 -6.5128036 4.8098297
-2.3716617 -7.1149869 4.9115214
-2.3750179 -7.7188082 5.0128045
-2.3795192 -8.3283195 5.1486468
-2.3843405 -8.9412775 5.2941394
-2.3891578 -9.5566301 5.4395127
-2.3955448 -10.181067 5.632257
-2.4019775 -10.808902 5.8263898
-2.4088967 -11.442261 6.0351877
-2.4172547 -12.086276 6.2874169
-2.425683 -12.734838 6.5417595
-2.4352262 -13.393747 6.8297544
-2.445555 -14.061943 7.1414495
-2.4563546 -14.73813 7.4673548
-2.4689338 -15.430837 7.8469663
-2.4816298 -16.130596 8.2301102
-2.4966636 -16.85248 8.6837845
-2.5123196 -17.586239 9.15625
-1.3683815 16.420576 -11.600281
-1.3683815 15.964448 -11.600282
-1.3683815 15.508324 -11.600283
-1.4000301 15.400331 -10.326839
-1.8676854 16.186607 8.49016
-1.8676854 15.564043 8.490159
-1.3383716 0.8922472 -12.807786
-1.3428613 0.44761941 -12.627136
-1.3427973 -1.2551636e-06 -12.629707
-1.3427382 -0.44758153 -12.632086
-1.3426791 -0.89512104 -12.634464
-1.3426151 -1.3426169 -12.637037
-1.3441081 -1.7921456 -12.57697
-1.3974502 -2.3290846 -10.430647
-1.7862495 -3.5725 5.2134304
-1.7693036 -4.1283765 4.5315752
-1.770826 -4.7222056 4.5928383
-1.7722913 -5.3168745 4.6517911
-1.7737416 -5.9124732 4.7101507
-1.7760638 -6.5122337 4.8035893
-1.7785908 -7.1143641 4.9052649
-1.7810209 -7.7177582 5.0030441
-1.7843961 -8.3271847 5.1388531
-1.788011 -8.9400549 5.2843027
-1.7915704 -9.5550442 5.4275241
-1.7963591 -10.179369 5.6202016
-1.8011732 -10.807041 5.8139129
-1.8063517 -11.440229 6.0222802
-1.812618 -12.084121 6.2744188
-1.8188828 -12.732181 6.526494
-1.8259917 -13.390608 6.8125334
-1.8337346 -14.058632 7.1240826
-1.8418583 -14.734868 7.4509535
-1.8512886 -15.427406 7.8304
-1.8610333 -16.128958 8.2224998
-1.8723731 -16.85136 8.6787767
-1.8841524 -17.585424 9.1527386
-0.91225433 16.420576 -11.600281
-0.91225433 15.964448 -11.600282
-0.91225433 15.508324 -11.600283
-0.93335342 15.400331 -10.326839
-1.2451236 16.186607 8.49016
-1.2451236 15.564043 8.490159
-0.89209133 0.89209008 -12.817227
-0.89508337 0.44754022 -12.63664
-0.89504397 -1.3445385e-06 -12.639019
-0.89500135 -0.44750261 -12.641589
-0.89499807 -0.89500099 -12.641789
-0.89499807 -1.3424988 -12.641789
-0.89592075 -1.7918451 -12.586096
-0.93161935 -2.3290496 -10.431505
-1.1909492 -3.5728476 5.2204418
-1.1795071 -4.1282754 4.5298529
-1.1804594 -4.7218404 4.587327
-1.1814246 -5.3164134 4.6455817
-1.1823913 -5.9119573 4.7039328
-1.1839392 -6.5116668 4.7973542
-1.1855717 -7.113431 4.8958821
-1.1871799 -7.7166715 4.9929442
-1.1894351 -8.3260479 5.1290612
-1.1918094 -8.9385738 5.2723656
-1.1941817 -9.5534554 5.4155374
-1.197373 -10.177671 5.6081529
-1.2005755 -10.805181 5.8014412
-1.2040207 -11.438201 6.0093832
-1.2081848 -12.08185 6.2607055
-1.2123177 -12.729338 6.5101423
-1.2170427 -13.38747 6.7953229
-1.2222328 -14.055679 7.1085734
-1.22764 -14.731682 7.4349313
-1.2339679 -15.4246 7.8168449
-1.2405879 -16.127645 8.2164106
-1.2481467 -16.849981 8.672617
-1.2559272 -17.582979 9.1422091
-0.45612717 16.420576 -11.600281
-0.45612717 15.964448 -11.600282
-0.45612717 15.508324 -11.600283
-0.46667671 15.400331 -10.326839
-0.62256181 16.186607 8.49016
-0.62256181 15.564043 8.490159
-0.4459658 0.89193189 -12.826866
-0.44746292 0.44746193 -12.646143
-0.44745967 -1.2144562e-07 -12.646542
-0.44745967 -0.44746268 -12.64654
-0.44745967 -0.89492071 -12.64654
-0.44745967 -1.3423803 -12.646543
-0.44788316 -1.7915348 -12.595422
-0.46579543 -2.32898 -10.433217
-0.5954746 -3.5728476 5.2204418
-0.58975077 -4.1282558 4.5295076
-0.59020686 -4.7216573 4.5845718
-0.59066659 -5.3160005 4.6400633
-0.59114414 -5.9114432 4.6977134
-0.59190071 -6.51091 4.7890387
-0.59270239 -7.112431 4.8858089
-0.59350914 -7.7156205 4.983192
-0.59462488 -8.3247499 5.1178732
-0.59580588 -8.9370909 5.2604299
-0.59699154 -9.5518675 5.4035563
-0.59858376 -10.175925 5.5957518
-0.60018152 -10.803269 5.7886186
-0.60190648 -11.436224 5.9968414
-0.60396093 -12.079223 6.2448363
-0.60602647 -12.726557 6.4941645
-0.60838491 -13.38447 6.7788539
-0.610991 -14.052794 7.0934367
-0.6136843 -14.728425 7.4185472
-0.616934 -15.423353 7.8108253
-0.62024361 -16.126337 8.2103262
-0.62400001 -16.848001 8.6637602
-0.6278764 -17.58054 9.1316833
2.5661456e-23 16.420576 -11.600281
2.0417121e-23 15.964448 -11.600282
1.3852539e-23 15.508324 -11.600283
1.8275067e-24 15.400331 -10.326839
2.3445075e-23 16.186607 8.49016
3.0198021e-23 15.564043 8.490159
3.1680969e-24 0.89193189 -12.826866
1.1078684e-23 0.44746193 -12.646143
2.369954e-23 -1.2118078e-06 -12.646738
1.2968463e-23 -0.44745874 -12.64674
9.5149547e-24 -0.89491677 -12.646741
2.2596954e-23 -1.3423773 -12.646737
1.3940453e-23 -1.7915417 -12.595222
1.9578098e-23 -2.32898 -10.433217
3.1861272e-24 -3.5728476 5.2204418
-3.7006254e-26 -4.1282558 4.5295076
1.8423447e-23 -4.7216573 4.5845718
1.424841e-23 -5.3160005 4.6400633
8.2868513e-24 -5.9114432 4.6977134
1.8858105e-23 -6.5107517 4.7873077
2.172694e-23 -7.1122584 4.8840747
6.7213268e-24 -7.7155452 4.9824929
1.6671586e-23 -8.3246269 5.1168227
1.8440004e-23 -8.9369583 5.2593794
6.2983522e-24 -9.5518675 5.4035563
-4.1379036e-24 -10.175874 5.5953956
2.5293758e-23 -10.803217 5.7882643
9.4602061e-24 -11.436057 5.9957695
7.2866451e-25 -12.078981 6.243391
6.1311374e-24 -12.726303 6.4927077
7.0504633e-24 -13.384669 6.7799492
1.5099606e-23 -14.053003 7.0945444
9.1657117e-25 -14.728868 7.4207778
2.4080602e-23 -15.424444 7.8160968
2.0363818e-23 -16.127073 8.213748
1.0908624e-23 -16.846882 8.6587582
9.3475789e-24 -17.579275 9.1262312
0.45612717 16.420576 -11.600281
0.45612717 15.964448 -11.600282
0.45612717 15.508324 -11.600283
0.46667671 15.400331 -10.326839
0.62256181 16.186607 8.49016
0.62256181 15.564043 8.490159
0.44604567 0.89209008 -12.817227
0.44754168 0.44754022 -12.63664
0.44752198 -1.3445385e-06 -12.639019
0.44750068 -0.44750261 -12.641589
0.44749573 -0.89499354 -12.642185
0.44749573 -1.3424894 -12.642184
0.44796365 -1.7918564 -12.585704
0.46643424 -2.3321712 -10.356107
0.5954746 -3.5728476 5.2204418
0.58975357 -4.1282754 4.5298529
0.59022969 -4.7218404 4.587327
0.59071231 -5.3164134 4.6455817
0.59119564 -5.9119573 4.7039328
0.59193802 -6.5113206 4.7935424
0.59273982 -7.1128807 4.890326
0.59358418 -7.7165966 4.9922457
0.59470016 -8.3258018 5.1269598
0.59588146 -8.9382219 5.2695551
0.59709084 -9.5534554 5.4155374
0.59868354 -10.17762 5.6077967
0.60028481 -10.805127 5.8010859
0.60200447 -11.438087 6.0086656
0.60405654 -12.081133 6.2563782
0.60614681 -12.729082 6.5086875
0.60853958 -13.387871 6.7975192
0.61114085 -14.056242 7.1115255
0.61383855 -14.732127 7.4371672
0.617118 -15.427952 7.833035
0.62032241 -16.128382 8.2198334
0.62400633 -16.848173 8.6645327
0.62784731 -17.579727 9.1281776
0.91225433 16.420576 -11.600281
0.91225433 15.964448 -11.600282
0.91225433 15.508324 -11.600283
0.93335342 15.400331 -10.326839
1.2451236 16.186607 8.49016
1.2451236 15.564043 8.490159
0.89224774 0.8922472 -12.807786
0.89523757 0.44761842 -12.627335
0.89519823 -1.2551635e-06 -12.629707
0.89515883 -0.44758153 -12.632086
0.89511943 -0.89512104 -12.634464
0.89507681 -1.3426169 -12.637037
0.89608186 -1.7921668 -12.576373
0.93432122 -2.3358054 -10.268425
1.190833 -3.5725 5.2134304
1.1795356 -4.1283765 4.5315752
1.1805564 -4.7222271 4.5931821
1.1815275 -5.3168745 4.6517911
1.1824944 -5.9124732 4.7101507
1.1839794 -6.5118876 4.799778
1.1856408 -7.1138449 4.9000521
1.1873357 -7.7176843 5.0023518
1.1895684 -8.3269796 5.1371021
1.1919665 -8.9397507 5.2818437
1.1943861 -9.55509 5.4278779
1.1975667 -10.179317 5.6198454
1.2007822 -10.807041 5.8139129
1.2042226 -11.440118 6.0215678
1.2083522 -12.083526 6.2708111
1.2125584 -12.731866 6.5246758
1.2173642 -13.391007 6.8147297
1.2225326 -14.059127 7.1266694
1.227955 -14.735461 7.4539356
1.2344044 -15.430058 7.8432007
1.2407457 -16.129694 8.2259216
1.2481211 -16.849636 8.6710777
1.2559724 -17.583614 9.1449385
1.3683815 16.420576 -11.600281
1.3683815 15.964448 -11.600282
1.3683815 15.508324 -11.600283
1.4000301 15.400331 -10.326839
1.8676854 16.186607 8.49016
1.8676854 15.564043 8.490159
1.3386112 0.89240742 -12.798141
1.3430927 0.44769663 -12.617825
1.3430337 -5.9940737e-07 -12.620202
1.3429745 -0.44766051 -12.622576
1.3429204 -0.89528155 -12.624758
1.3429155 -1.3429163 -12.624955
1.3443497 -1.7924678 -12.567246
1.4036623 -2.3394401 -10.180688
1.7860579 -3.5721173 5.2057204
1.7693547 -4.1284966 4.533637
1.7708774 -4.7223396 4.594903
1.7724026 -5.3172112 4.6562796
1.7738962 -5.9129896 4.7163744
1.7761672 -6.5126138 4.8077497
1.7787117 -7.1148477 4.91013
1.7812548 -7.7187715 5.0124574
1.7846308 -8.3282785 5.1482968
1.7882465 -8.9412336 5.2937851
1.791877 -9.5566788 5.4398651
1.7966673 -10.181118 5.6326132
1.8014921 -10.808955 5.826745
1.8066547 -11.442146 6.0344706
1.8129232 -12.086154 6.2866917
1.8192441 -12.73471 6.5410333
1.8264378 -13.393879 6.8304853
1.8341755 -14.062014 7.141818
1.8423308 -14.738647 7.469965
1.8517565 -15.431304 7.8492255
1.8612792 -16.131088 8.2323904
1.8725168 -16.85265 8.6845531
1.8842396 -17.586239 9.15625
1.8245087 16.420576 -11.600281
1.8245087 15.964448 -11.600282
1.8245087 15.508324 -11.600283
1.8667068 15.400331 -10.326839
2.4902472 16.186607 8.49016
2.4902472 15.564043 8.490159
1.7851348 0.89256757 -12.788495
1.7911055 0.44777435 -12.60831
1.7910267 -2.9293039e-06 -12.610687
1.7910202 -0.44775793 -12.610886
1.7910202 -0.89551198 -12.610886
1.7910136 -1.3432621 -12.611086
1.7927756 -1.7927783 -12.55791
1.8742936 -2.3428669 -10.097888
2.3811553 -3.5717325 5.1980119
2.3592422 -4.1286745 4.5367332
2.3612611 -4.7225223 4.5976586
2.3632951 -5.3174157 4.65904
2.3654931 -5.9137344 4.7253628
2.368717 -6.5139742 4.8226542
2.3721108 -7.1163344 4.9250793
2.3756187 -7.7207627 5.0309358
2.3802962 -8.3310404 5.1720967
2.3851323 -8.9442482 5.3180327
2.3901284 -9.5605125 5.4688005
2.396544 -10.185312 5.6624103
2.4030058 -10.813527 5.8574171
2.410038 -11.44768 6.0696259
2.4184277 -12.092141 6.3228159
2.4268644 -12.741039 6.5774074
2.4364777 -13.400629 6.8675165
2.4468415 -14.069339 7.1802731
2.4575534 -14.745323 7.50354
2.4701576 -15.438486 7.8838983
2.4825759 -16.136747 8.2586613
2.4967272 -16.852909 8.68571
2.5123582 -17.586508 9.1574173
2.2806358 16.420576 -11.600281
2.2806358 15.964448 -11.600282
2.2806358 15.508324 -11.600283
2.3333836 15.400331 -10.326839
3.1128089 16.186607 8.49016
3.1128089 15.564043 8.490159
2.2318182 0.8927272 -12.778844
2.239424 0.44788501 -12.595223
2.239424 -3.3814268e-07 -12.595224
2.2394323 -0.44788769 -12.595023
2.2394404 -0.89577746 -12.594824
2.2394485 -1.3436712 -12.594627
2.2415535 -1.7932456 -12.543808
2.3504534 -2.3504546 -9.9147377
2.9761248 -3.5713506 5.1903076
2.9492807 -4.1289945 4.5422354
2.951648 -4.7226381 4.5993848
2.9545906 -5.3182664 4.6704307
2.9576969 -5.9153953 4.7454238
2.9617436 -6.5158377 4.8431134
2.9659886 -7.1183724 4.9455972
2.970896 -7.7243319 5.0640798
2.9767921 -8.3350191 5.2064214
2.9829011 -8.9487047 5.3539085
2.9893866 -9.5660381 5.5104785
2.9974303 -10.191264 5.704668
3.0055614 -10.820024 5.9009748
3.0144665 -11.454971 6.1159549
3.0249672 -12.09987 6.3694668
3.0354204 -12.748769 6.6218348
3.047528 -13.409123 6.9141307
3.0603304 -14.077523 7.2232137
3.0736895 -14.753713 7.545732
3.089447 -15.447235 7.9261503
3.1042457 -16.142078 8.2834215
3.1219785 -16.858685 8.7115269
3.14048 -17.586691 9.1581964
2.736763 16.420576 -11.600281
2.736763 15.964448 -11.600282
2.736763 15.508324 -11.600283
2.8000603 15.400331 -10.326839
3.7353709 16.186607 8.49016
3.7353709 15.564043 8.490159
2.6795826 0.89319289 -12.750661
2.6886401 0.44810525 -12.568435
2.6885316 -1.8347109e-06 -12.570618
2.688453 -0.44807842 -12.572206
2.6884627 -0.89615625 -12.572006
2.6884725 -1.3442385 -12.571809
2.6912973 -1.7941988 -12.514981
2.8444738 -2.3703966 -9.4333067
3.5709665 -3.5709686 5.1826034
3.5394788 -4.1293941 4.5491166
3.5427654 -4.7236891 4.6152372
3.5465045 -5.3197594 4.6904602
3.5502341 -5.9170589 4.7654958
3.5551271 -6.5177336 4.863934
3.5608125 -7.1216259 4.9783144
3.5667417 -7.7279425 5.0976038
3.5738411 -8.3389626 5.2404294
3.5814941 -8.9537363 5.3943968
3.5893557 -9.5716171 5.5525613
3.5990193 -10.197224 5.7469773
3.6088772 -10.826632 5.9453011
3.6196654 -11.462277 6.162344
3.6321924 -12.107307 6.4143634
3.6447158 -12.756506 6.6663136
3.6593351 -13.417563 6.9604397
3.6743674 -14.085076 7.2628627
3.6905272 -14.762111 7.5879741
3.7085567 -15.452319 7.9506946
3.7263265 -16.147419 8.3082008
3.7476773 -16.86455 8.7377481
3.7691967 -17.589586 9.170681
3.1928902 16.420576 -11.600281
3.1928902 15.964448 -11.600282
3.1929018 15.508381 -11.600076
3.2667372 15.400331 -10.326839
4.3579326 16.186607 8.49016
4.3579326 15.564043 8.490159
3.1278274 0.893664 -12.722252
3.138371 0.44833553 -12.540428
3.1382444 1.8085925e-07 -12.542615
3.1381178 -0.44830436 -12.544802
3.1379907 -0.89657158 -12.546985
3.1378756 -1.3448049 -12.548972
3.1416359 -1.7952219 -12.484129
3.3814712 -2.4153373 -8.3483191
4.1656809 -3.5705867 5.1748991
4.1296515 -4.1296539 4.5535903
4.1339064 -4.7244658 4.6269565
4.1386905 -5.3211741 4.7094612
4.1431046 -5.9187212 4.7855744
4.1492996 -6.52033 4.8924108
4.1562004 -7.1249156 5.0114093
4.1631241 -7.7315168 5.130806
4.1717811 -8.343564 5.2800875
4.1807399 -8.9587297 5.4345756
4.1900043 -9.5771523 5.5943322
4.201436 -10.203487 5.7914672
4.2129302 -10.833248 5.9896789
4.2255945 -11.469473 6.2080684
4.2401228 -12.114637 6.4585962
4.2547507 -12.764256 6.7108517
4.2715077 -13.42474 6.9998121
4.2890854 -14.092711 7.3029299
4.3076768 -14.769179 7.623528
4.3283367 -15.458347 7.9797893
4.3492169 -16.154238 8.3398657
4.3726258 -16.865845 8.7435341
4.3975096 -17.590036 9.1726313
3.6490173 16.420576 -11.600281
3.6490173 15.964448 -11.600282
3.6490309 15.508381 -11.600076
3.7334137 15.400331 -10.326839
4.9804945 16.186607 8.49016
4.9804945 15.564043 8.490159
3.5765445 0.89413738 -12.693811
3.588568 0.44857013 -12.512394
3.588423 -2.4901958e-06 -12.51458
3.5882781 -0.44853479 -12.516772
3.5881326 -0.89703482 -12.518956
3.5881195 -1.345544 -12.519158
3.5924881 -1.7962433 -12.453246
3.939225 -2.462019 -7.2213874
4.7602677 -3.5702024 5.1671963
4.7199211 -4.129931 4.5584054
4.7248755 -4.7248778 4.6331654
4.7303443 -5.3216367 4.7156816
4.7363081 -5.9203877 4.8056698
4.7446599 -6.5239086 4.931685
4.7525783 -7.1288695 5.0511656
4.7607088 -7.7361522 5.1738462
4.770987 -8.3492279 5.3289313
4.7812629 -8.9648676 5.4839816
4.7926173 -9.5852375 5.655314
4.8057756 -10.212275 5.8538489
4.819006 -10.842766 6.0534811
4.833744 -11.480142 6.2758603
4.8504744 -12.126188 6.5283122
4.8672733 -12.776594 6.7817798
4.8858986 -13.436223 7.0628166
4.9060712 -14.104956 7.3672004
4.9265356 -14.779608 7.6759825
4.9502048 -15.469392 8.0331249
4.9734192 -16.163612 8.3834
4.9990516 -16.871799 8.7701607
5.0265784 -17.593025 9.1855135
4.1051445 16.420576 -11.600281
4.1051445 15.964448 -11.600282
4.1051598 15.508381 -11.600076
4.2000904 15.400331 -10.326839
5.603056 16.186607 8.49016
5.603056 15.564043 8.490159
5.5696297 2.4753911 8.041832
5.5386095 1.846203 7.625772
4.0257354 0.89460766 -12.665341
4.0392313 0.44880214 -12.48433
4.0390677 -2.8060044e-06 -12.486519
4.0390382 -0.44878361 -12.486919
4.0390234 -0.89756387 -12.487116
4.0390086 -1.3463392 -12.487315
4.0438542 -1.7972711 -12.422323
5.4421363 -3.0234087 6.3318501
5.3547273 -3.5698183 5.1594934
5.3103471 -4.1302705 4.5642586
5.3166423 -4.7259059 4.6486874
5.323287 -5.3232884 4.7378101
5.3308282 -5.9231443 4.8389525
5.341063 -6.5279675 4.9762273
5.3499823 -7.1333108 5.0958538
5.3597159 -7.7418137 5.2264042
5.3713746 -8.3554726 5.382771
5.3829522 -8.97159 5.5380559
5.3968582 -9.5944157 5.7245688
5.4116092 -10.22193 5.9224157
5.4267359 -10.853474 6.1252995
5.4436731 -11.492201 6.3524637
5.4622359 -12.138302 6.6014342
5.4810629 -12.789148 6.8539462
5.5013967 -13.447861 7.126668
5.5241303 -14.117222 7.4315801
5.5471368 -14.792368 7.740149
5.5729632 -15.480454 8.0865402
5.598289 -16.172836 8.4262199
5.6262941 -16.878883 8.8018293
5.65624 -17.597193 9.2034712
6.3136673 25.886038 9.553009
6.288887 25.155548 9.2538776
6.265039 24.433649 8.9660082
6.2631431 23.799942 8.9431219
6.2612801 23.166737 8.9206324
4.5612717 16.420576 -11.600281
4.5612717 15.964448 -11.600282
4.5612888 15.508381 -11.600076
4.6667671 15.400331 -10.326839
6.2469597 19.990273 8.7477779
6.2429032 19.353001 8.6988068
6.2387886 18.716362 8.6491318
6.2346783 18.080568 8.5995283
6.1558094 17.236267 7.6474957
6.1519322 16.610218 7.6006961
6.2209554 16.174482 8.4338684
6.2157927 15.53948 8.3715582
6.2106395 14.905531 8.3093443
6.2054935 14.272637 8.2472353
6.1996961 13.63933 8.1772509
6.193532 13.006413 8.1028414
6.1873484 12.374697 8.0282021
6.1812091 11.744296 7.9540925
6.1750817 11.115148 7.8801284
6.1678758 10.485386 7.7931433
6.160531 9.8568506 7.704484
6.153204 9.2298059 7.6160393
6.1458631 8.604207 7.5274286
6.1383858 7.9798994 7.4371662
6.1300335 7.356041 7.3363481
6.1217351 6.7339058 7.2361765
6.1134286 6.1134276 7.1359024
6.1051435 5.4946299 7.0359044
6.0964251 4.8771391 6.9306626
6.0871549 4.2610083 6.8187585
6.0778828 3.6467276 6.7068348
6.0686688 3.034333 6.5956082
6.0594521 2.4237816 6.4843583
6.0487952 1.8146385 6.3557153
4.4754004 0.89507985 -12.636841
4.4904943 0.44904715 -12.454639
4.4905105 -1.1435725e-06 -12.454443
4.4905272 -0.44905448 -12.454243
4.4905438 -0.89811075 -12.454042
4.4905605 -1.3471686 -12.453845
4.4962487 -1.7985024 -12.385174
6.0470281 -3.0235147 6.3343821
5.9490304 -3.5694196 5.1514487
5.9010134 -4.1307087 4.5718293
5.9091811 -4.7273469 4.6704297
5.9165978 -5.3249397 4.7599578
5.9258738 -5.9258747 4.8719192
5.9372559 -6.530982 5.0093198
5.9481316 -7.1377616 5.1406026
5.9595709 -7.7474442 5.2786841
5.972661 -8.3617258 5.4366913
5.9866009 -8.9799032 5.6049652
6.0022874 -9.6036606 5.7943182
6.01862 -10.231654 5.9914684
6.0361757 -10.865118 6.2033834
6.0550652 -11.504624 6.431396
6.0752516 -12.150504 6.6750736
6.0960298 -12.801663 6.9258852
6.118299 -13.460258 7.1947031
6.1431727 -14.129299 7.494957
6.1688418 -14.805223 7.8048062
6.1964865 -15.491219 8.1385107
6.2239361 -16.182236 8.4698572
6.2540636 -16.885973 8.8335295
6.2857461 -17.600092 9.2159681
6.8956823 25.702087 9.0114393
6.8935947 25.067617 8.9885254
6.8915429 24.433649 8.9660082
6.8894567 23.799942 8.9431219
6.8874078 23.166737 8.9206324
5.0173988 16.420576 -11.600281
5.0173988 15.964448 -11.600282
5.0174174 15.508381 -11.600076
5.1334438 15.400331 -10.326839
6.8716559 19.990273 8.7477779
6.8671937 19.353001 8.6988068
6.4685731 17.641563 4.3244691
6.4644017 17.042513 4.2786908
6.5175433 16.590109 4.8618522
6.7657967 16.606956 7.5861044
6.8430161 16.174398 8.4334841
6.8373723 15.53948 8.3715582
6.8317032 14.905531 8.3093443
6.8260431 14.272637 8.2472353
6.8196654 13.63933 8.1772509
6.8128848 13.006413 8.1028414
6.8060832 12.374697 8.0282021
6.7993298 11.744296 7.9540925
6.7925897 11.115148 7.8801284
6.7846632 10.485386 7.7931433
6.7765841 9.8568506 7.704484
6.7685237 9.2298059 7.6160393
6.7604494 8.604207 7.5274286
6.7522244 7.9798994 7.4371662
6.7430372 7.356041 7.3363481
6.7339082 6.7339058 7.2361765
6.724771 6.1134276 7.1359024
6.7156582 5.4946299 7.0359044
6.706068 4.8771391 6.9306626
6.695837 4.2609873 6.8183951
6.6856709 3.6467276 6.7068348
6.6755023 3.0343189 6.595243
6.6653976 2.4237816 6.4843583
6.6539054 1.8147017 6.3582478
4.9264979 0.89572364 -12.5978
4.9436164 0.44941834 -12.409945
4.943398 -2.884696e-06 -12.412342
4.943325 -0.44939366 -12.413143
4.9433436 -0.8987931 -12.412942
4.9433618 -1.3481897 -12.412744
4.9504862 -1.800177 -12.33456
6.6521258 -3.0236945 6.3387213
6.5432315 -3.5690382 5.1437507
6.491899 -4.1312099 4.5804386
6.5010748 -4.728056 4.6811328
6.5102773 -5.326592 4.7821116
6.5214996 -5.928637 4.9052658
6.5338731 -6.5338736 5.041048
6.5469956 -7.142179 5.1850529
6.5603313 -7.7531185 5.3313928
6.5748158 -8.3679485 5.4903421
6.591466 -8.9883642 5.6730576
6.6088839 -9.6129246 5.8641982
6.6267862 -10.241399 6.060657
6.6469574 -10.876841 6.2819977
6.6677799 -11.517076 6.5105081
6.6897006 -12.163092 6.751049
6.7141137 -12.817857 7.018959
6.7404652 -13.480932 7.3081274
6.7688994 -14.153155 7.6201591
6.7996054 -14.835504 7.9571152
6.8333368 -15.530311 8.3272724
6.8763003 -16.253075 8.7987404
6.9699035 -17.107944 9.8259163
5.473526 16.420576 -11.600281
5.473526 15.964448 -11.600282
5.473546 15.508381 -11.600076
5.6001205 15.400331 -10.326839
6.7501416 17.437866 1.2414808
6.7501416 16.875355 1.2414844
6.8583965 16.574457 2.3304424
7.1100473 16.590109 4.8618522
7.3808684 16.606956 7.5861044
7.4396348 13.63933 8.1772509
7.4322386 13.006413 8.1028414
7.4248185 12.374697 8.0282021
7.4174509 11.744296 7.9540925
7.4100981 11.115148 7.8801284
7.4014511 10.485386 7.7931433
7.3926368 9.8568506 7.704484
7.3838444 9.2298059 7.6160393
7.3750358 8.604207 7.5274286
7.3660626 7.9798994 7.4371662
7.35604 7.356041 7.3363481
7.3460455 6.7338753 7.2358069
7.3360767 6.1133976 7.1355333
7.3261361 5.4946017 7.0355358
7.3156743 4.8771133 6.9302959
7.3045497 4.2609873 6.8183951
7.2934227 3.6467113 6.7064676
7.2823663 3.0343189 6.595243
7.2713428 2.4237816 6.4843583
7.2585182 1.814628 6.3553586
5.379077 0.8965103 -12.550362
5.3976655 0.44980437 -12.363382
5.3974266 9.1664816e-08 -12.365781
5.3972082 -0.44976789 -12.36798
5.3969698 -0.89949453 -12.37038
5.3968301 -1.3492101 -12.371778
5.4055119 -1.8018409 -12.284451
7.2565413 -3.0235612 6.3354678
7.1392884 -3.5696437 5.1559944
7.0872102 -4.1342087 4.6321297
7.0998492 -4.7332339 4.7592616
7.1137753 -5.3353329 4.8993587
7.1292839 -5.9410701 5.0553527
7.1463575 -6.5508289 5.2271056
7.1673336 -7.1673331 5.4381027
7.1877975 -7.7867837 5.6439614
7.3285179 -8.5499392 7.0594969
5.9296532 16.420576 -11.600281
5.9296532 15.964448 -11.600282
5.9296756 15.508381 -11.600076
6.0667977 15.400331 -10.326839
7.0125127 17.26157 -1.5454618
7.0125127 16.722141 -1.5454597
7.1759791 16.559954 -0.027601698
7.4299293 16.574457 2.3304424
5.8324513 0.89729863 -12.502842
5.8524947 0.45018989 -12.316733
5.8522358 -1.7755697e-06 -12.319139
5.8519979 -0.45015523 -12.321342
5.8517394 -0.90026695 -12.323746
5.8516097 -1.350372 -12.324946
5.8612256 -1.8034569 -12.23566
6.3857803 16.420576 -11.600281
6.3857803 15.964448 -11.600282
6.3858037 15.508381 -11.600076
6.5334744 15.400331 -10.326839
7.2545023 16.581718 -4.1099968
7.4734187 16.548285 -2.2224543
7.7279773 16.559954 -0.027601698
6.2865992 0.89808398 -12.455436
6.3081059 0.45057717 -12.270003
6.3078265 -1.6134314e-06 -12.272414
6.3076634 -0.45054692 -12.273818
6.3075933 -0.90108669 -12.27442
6.3075242 -1.3516151 -12.27502
6.3177586 -1.8050759 -12.186778
6.841907 16.420576 -11.600281
6.841907 15.964448 -11.600282
6.8419328 15.508381 -11.600076
7.0001507 15.400331 -10.326839
7.7523804 16.53841 -4.2733603
8.0072346 16.548285 -2.2224543
6.7415681 0.89887393 -12.407748
6.7645764 0.45096946 -12.222593
6.7645016 -1.051725e-06 -12.223196
6.7644267 -0.45096409 -12.2238
6.7643514 -0.90191478 -12.224403
6.7643266 -1.3528674 -12.224601
6.7761898 -1.806987 -12.129133
7.2980347 16.420576 -11.600281
7.2980347 15.964448 -11.600282
7.2980618 15.508381 -11.600076
7.4668274 15.400331 -10.326839
8.269206 16.53841 -4.2733603
7.4922576 14.047982 -10.134985
7.4755993 13.549523 -10.260656
7.4478679 13.033768 -10.469875
7.423584 12.527296 -10.653084
7.4078197 12.037706 -10.772016
7.4015889 11.564981 -10.819025
7.3945565 11.091835 -10.872081
7.38656 10.618179 -10.932409
7.3727608 10.137544 -11.036519
7.3551888 9.6536846 -11.169086
7.3373427 9.1716766 -11.303728
7.3243022 8.697608 -11.402104
7.3145666 8.2288857 -11.475554
7.304884 7.7614388 -11.548603
7.2967257 7.2967253 -11.610154
7.295146 6.8391976 -11.622076
7.2935934 6.3818917 -11.63379
7.2920141 5.9247608 -11.645702
7.2898641 5.4673982 -11.661921
7.2876077 5.0102291 -11.67895
7.2853246 4.5533285 -11.696176
7.2827172 4.0965257 -11.715844
7.2797318 3.6398656 -11.738368
7.276722 3.1835651 -11.761075
7.2736869 2.7276313 -11.783968
7.2699785 2.2718654 -11.811947
7.266274 1.8165659 -11.839894
7.2625728 1.3617328 -11.86782
7.198452 0.89980417 -12.351573
7.2236595 0.45147702 -12.161398
7.2233391 -1.5929445e-06 -12.163816
7.2232857 -0.45145756 -12.164221
7.223259 -0.90291059 -12.16442
7.2232318 -1.3543587 -12.164622
7.2389712 -1.8097442 -12.045883
7.8588877 21.727514 -10.85666
7.8210721 21.162901 -11.125177
7.7898993 20.620317 -11.346525
7.7605109 20.086025 -11.555198
7.7320352 19.557501 -11.757395
7.7165985 19.064535 -11.867003
7.7205601 18.620171 -11.838878
7.7244964 18.175285 -11.810927
7.7277169 17.728289 -11.788056
7.7309408 17.280924 -11.765163
7.7341671 16.833187 -11.742256
7.7369924 16.384218 -11.722194
7.739531 15.934327 -11.704167
7.7420721 15.484144 -11.686129
7.7445269 15.033493 -11.668693
7.7464061 14.581468 -11.655354
7.7482858 14.129226 -11.642007
7.7501373 13.676711 -11.628857
7.7514973 13.223144 -11.6192
7.752656 12.769078 -11.610975
7.7538433 12.314925 -11.602543
7.754828 11.860323 -11.595551
7.7554369 11.405051 -11.591229
7.7560453 10.949708 -11.586907
7.7566247 10.494256 -11.582793
7.7565088 10.037833 -11.583616
7.7563643 9.5813894 -11.584644
7.7562189 9.1249628 -11.585674
7.7556396 8.6680651 -11.589788
7.7547121 8.2108707 -11.596375
7.7538142 7.7538114 -11.60275
7.7527719 7.2967253 -11.610154
7.7510924 6.8391976 -11.622076
7.7494431 6.3818917 -11.63379
7.7477646 5.9247608 -11.645702
7.7454815 5.4673982 -11.661921
7.7430539 5.0102096 -11.679153
7.7404261 4.5531893 -11.697812
7.7371373 4.0961289 -11.721169
7.7338214 3.6394429 -11.74471
7.7305088 3.1831498 -11.768231
7.7272568 2.7272646 -11.791322
7.7240648 2.2717807 -11.813987
7.7205315 1.8165939 -11.839084
7.7165985 1.3617508 -11.867002
7.658289 0.90097535 -12.281043
7.6843729 0.45202005 -12.095822
7.684032 -6.6840579e-07 -12.098251
7.6836905 -0.45198265 -12.100672
7.6833205 -0.90392238 -12.103296
7.6831784 -1.3558545 -12.104308
7.7031674 -1.8125107 -11.962374
8.130827 22.585627 -12.133171
8.1363945 22.149075 -12.095826
8.1419115 21.711763 -12.058831
8.1474352 21.273855 -12.021791
8.1522703 20.83358 -11.98936
8.1570816 20.392702 -11.957096
8.1618681 19.951231 -11.924998
8.1664171 19.508661 -11.894492
8.170577 19.064678 -11.866596
8.1747408 18.620241 -11.838675
8.1788778 18.175285 -11.810927
8.1823187 17.728359 -11.787849
8.1857328 17.280991 -11.764961
8.1891184 16.833187 -11.742256
8.1921406 16.384279 -11.72199
8.194828 15.934388 -11.703961
8.1974878 15.484144 -11.686129
8.2000875 15.033493 -11.668693
8.2020769 14.581468 -11.655354
8.2040672 14.129226 -11.642007
8.206027 13.676711 -11.628857
8.207468 13.223144 -11.6192
8.2086945 12.769078 -11.610975
8.2099514 12.314925 -11.602543
8.2109947 11.860323 -11.595551
8.2116394 11.405051 -11.591229
8.2122831 10.949708 -11.586907
8.2128973 10.494256 -11.582793
8.2127743 10.037833 -11.583616
8.2126207 9.5813894 -11.584644
8.2124672 9.1249628 -11.585674
8.211854 8.6680651 -11.589788
8.2108717 8.2108707 -11.596375
8.2099209 7.7538114 -11.60275
8.2088165 7.2967253 -11.610154
8.2070389 6.8391976 -11.622076
8.2052927 6.3818917 -11.63379
8.2034855 5.924737 -11.645908
8.201067 5.4673777 -11.662127
8.1985273 5.0102096 -11.679153
8.1950111 4.5527849 -11.702735
8.1914988 4.0957494 -11.72629
8.1879892 3.6391048 -11.749825
8.1844826 3.1828516 -11.773341
