# .PCD v0.7 - Point Cloud Data file format
VERSION 0.7
FIELDS x y z
SIZE 4 4 4
TYPE F F F
COUNT 1 1 1
WIDTH 1488
HEIGHT 1
VIEWPOINT 0 0 0 1 0 0 0
POINTS 1488
DATA ascii
-7.7921352 -11.298598 -5.142189
-7.7834673 -11.675203 -5.1945052
-7.7740307 -12.04975 -5.2514601
-7.7637677 -12.42203 -5.3134031
-7.7519021 -12.790641 -5.3850193
-7.7365742 -13.152179 -5.47753
-7.7169557 -13.504674 -5.5959415
-7.6940384 -13.849271 -5.7342587
-7.5212946 -14.290462 -6.7768593
-7.4605055 -14.547988 -7.1437531
-7.4256568 -14.851315 -7.3540831
-8.5261517 18.398537 1.996405
-8.6894312 18.293537 3.0337474
-8.9182968 18.305977 4.4877782
-7.5640197 3.5829544 -4.1162081
-7.5612559 3.1836858 -4.1337643
-7.5615072 2.7858171 -4.1321688
-7.5627317 2.3882291 -4.1243882
-8.4266663 2.217541 1.3643531
-7.5493155 -2.7813299 -4.2096248
-7.5429058 -3.1759622 -4.2503452
-7.5362272 -3.5697925 -4.292778
-7.5293107 -3.9627964 -4.3367205
-7.5228114 -4.3553133 -4.3780131
-7.5165086 -4.7472701 -4.4180508
-7.5103412 -5.1386557 -4.4572382
-7.5042758 -5.5294666 -4.4957705
-7.4983754 -5.9197702 -4.5332594
-7.4926066 -6.3095646 -4.5699072
-7.4868474 -6.6987581 -4.6064973
-7.4810352 -7.0872984 -4.6434236
-7.4753242 -7.4753256 -4.6797037
-7.4697752 -7.8629236 -4.7149601
-7.4639893 -8.2496748 -4.751718
-7.4577546 -8.6352987 -4.791326
-7.4501286 -9.0185785 -4.8397799
-7.4422746 -9.4007702 -4.889677
-7.4344068 -9.782115 -4.9396648
-7.4265857 -10.162698 -4.9893513
-7.4187508 -10.542437 -5.0391293
-7.4106913 -10.92102 -5.0903339
-7.4025888 -11.298691 -5.1418066
-7.3943543 -11.675298 -5.1941242
-7.3853893 -12.049847 -5.2510805
-7.3756394 -12.422132 -5.3130212
-7.3643665 -12.790743 -5.3846426
-7.3498044 -13.152284 -5.4771552
-7.3311372 -13.504728 -5.5957527
-7.3093953 -13.849381 -5.7338872
-7.1418958 -14.283794 -6.7980385
-7.0835657 -14.539952 -7.1686234
-7.0326381 -14.805555 -7.492177
-8.5170155 18.453531 4.9444828
-8.673234 18.310158 5.9921069
-8.9094687 18.313906 7.5763321
-7.145319 3.5726585 -4.2543154
-7.1437221 3.1749861 -4.265028
-7.1439586 2.7782056 -4.2634416
-7.1452899 2.3817618 -4.2545137
-8.4438686 2.3455169 4.4539528
-7.1519828 -2.7813299 -4.2096248
-7.1459703 -3.175987 -4.2499495
-7.1396422 -3.569823 -4.2923813
-7.1330609 -3.9628124 -4.3365226
-7.1269326 -4.3553514 -4.3776159
-7.1209617 -4.7473092 -4.4176593
-7.1150599 -5.1386557 -4.4572382
-7.1093726 -5.5295134 -4.495379
-7.1037531 -5.9197955 -4.5330625
-7.0982885 -6.3095913 -4.5697112
-7.0928903 -6.698843 -4.6059122
-7.0875297 -7.0875316 -4.6418614
-7.0821481 -7.4756017 -4.6779513
-7.0767164 -7.8630204 -4.7143769
-7.0712061 -8.2497416 -4.7513289
-7.0652704 -8.6353321 -4.7911344
-7.0580745 -9.0186539 -4.8393912
-7.0506048 -9.4008083 -4.8894835
-7.0431795 -9.7821951 -4.9392796
-7.0357699 -10.162781 -4.9889674
-7.0283189 -10.54248 -5.038938
-7.0207119 -10.921109 -5.0899496
-7.0130358 -11.298782 -5.1414232
-7.0052633 -11.675441 -5.1935506
-6.9967413 -12.049945 -5.250701
-6.9874763 -12.42218 -5.3128338
-6.9767966 -12.790795 -5.3844523
-6.9630013 -13.152338 -5.4769664
-6.9453158 -13.504784 -5.5955644
-6.9246898 -13.849381 -5.7338872
-6.7077203 -14.533398 -7.1889148
-6.6527376 -14.783862 -7.5576396
-6.6444631 -15.134612 -7.6131282
-8.5106926 18.52327 8.2593746
-8.6552019 18.328663 9.2854834
-8.9003506 18.324247 11.026192
-9.0982189 18.196438 12.431185
-9.1490431 8.0726843 12.792066
-9.130538 7.5192647 12.660667
-9.1121082 6.968082 12.529799
-9.0974064 6.4216962 12.425413
-9.0846767 5.8783193 12.335025
-8.9932318 5.2901354 11.685707
-6.7262411 3.5609496 -4.4113507
-6.7259636 3.1651583 -4.4133234
-6.7261305 2.7695806 -4.4121385
-6.7274075 2.3743773 -4.4030676
-8.3595924 2.4587026 7.1864719
-6.7547064 -2.7813509 -4.2092271
-6.7490277 -3.1760156 -4.2495518
-6.7430239 -3.569839 -4.2921834
-6.7368073 -3.9628282 -4.3363242
-6.7310476 -4.3553853 -4.3772211
-6.7253804 -4.7473292 -4.417459
-6.7198067 -5.138679 -4.4570398
-6.7144351 -5.5295367 -4.4951806
-6.7091551 -5.9198432 -4.5326715
-6.7039938 -6.3096433 -4.5693178
-6.6988959 -6.6988959 -4.6055198
-6.6938329 -7.0875883 -4.6414714
-6.6887503 -7.4756651 -4.6775603
-6.68362 -7.8630853 -4.7139874
-6.6784158 -8.2498093 -4.7509413
-6.6728101 -8.6354036 -4.7907438
-6.6659865 -9.0186882 -4.8391995
-6.6589584 -9.4008837 -4.8890996
-6.6519461 -9.7822752 -4.9388943
-6.6449208 -10.162822 -4.9887753
-6.6379108 -10.542565 -5.0385518
-6.6307263 -10.921199 -5.0895648
-6.6234765 -11.298873 -5.1410441
-6.6161089 -11.675487 -5.1933608
-6.6080604 -12.049994 -5.2505093
-6.5993361 -12.422283 -5.3124523
-6.5892501 -12.790899 -5.3840728
-6.5762205 -13.152443 -5.4765911
-6.5594916 -13.504838 -5.595376
-6.5400114 -13.849437 -5.7336993
-6.3333459 -14.529443 -7.2011523
-6.2778401 -14.771391 -7.5952768
-6.252429 -15.079389 -7.775713
-8.5598278 18.189632 12.407025
-8.6249552 17.788965 12.898371
-8.6696615 17.339323 13.235658
-8.7032623 16.86257 13.489152
-8.7196388 16.349321 13.612708
-8.7205811 15.80605 13.619818
-8.7125063 15.246887 13.558901
-8.7021761 14.684921 13.480956
-8.6919184 14.124367 13.40357
-8.6816359 13.565057 13.325991
-8.6714258 13.007138 13.248967
-8.6612406 12.450531 13.172126
-8.651372 11.895636 13.097672
-8.6421099 11.34277 13.027798
-8.6328678 10.791084 12.958071
-8.6236458 10.240578 12.888494
-8.6144428 9.691246 12.819064
-8.6052599 9.1430893 12.749784
-8.5961933 8.5961924 12.681379
-8.5871449 8.0504456 12.613116
-8.5781155 7.5058508 12.544999
-8.5690575 6.962359 12.47666
-8.5600672 6.4200478 12.408828
-8.5510941 5.8788757 12.34114
-8.4812078 5.3007526 11.813884
-6.3087072 3.5486481 -4.5763688
-6.3084221 3.1542091 -4.5785203
-6.3086295 2.7600222 -4.5769544
-6.3097973 2.3661716 -4.5681443
-7.8678522 2.4587026 7.1864719
-6.35745 -2.7813866 -4.2086306
-6.3520522 -3.1760283 -4.2493515
-6.3464274 -3.5698669 -4.29179
-6.3405771 -3.962862 -4.3359299
-6.3351297 -4.3554025 -4.3770242
-6.3297963 -4.7473488 -4.4172635
-6.3245759 -5.1387177 -4.4566483
-6.3195205 -5.5295811 -4.4947877
-6.3145514 -5.9198937 -4.5322776
-6.3096676 -6.3096704 -4.5691218
-6.3048692 -6.6989255 -4.6053252
-6.3001299 -7.0876479 -4.641078
-6.2953458 -7.4757237 -4.6771712
-6.2905173 -7.8631496 -4.7135968
-6.2856197 -8.249876 -4.7505522
-6.2803178 -8.635438 -4.7905521
-6.2739205 -9.0187635 -4.8388114
-6.2673063 -9.4009609 -4.8887129
-6.2606807 -9.7823153 -4.9387012
-6.2540941 -10.162905 -4.9883914
-6.2474966 -10.54265 -5.0381694
-6.2407346 -10.921286 -5.0891843
-6.2339115 -11.298965 -5.1406612
-6.2269511 -11.675535 -5.1931691
-6.2194014 -12.050092 -5.2501297
-6.2111907 -12.422383 -5.3120747
-6.2016969 -12.791001 -5.3836956
-6.1894341 -13.152549 -5.4762125
-6.1736889 -13.504946 -5.5950031
-6.1557002 -13.850327 -5.7307172
-5.9616303 -14.531476 -7.1948605
-5.9075541 -14.768887 -7.6028337
-5.8721128 -15.047292 -7.8702178
-5.895184 3.5371087 -4.7311101
-5.8949671 3.1439793 -4.7328582
-5.8951602 2.7510726 -4.7313037
-5.8964653 2.3585865 -4.7207999
-7.376111 2.4587026 7.1864719
-5.9601583 -2.7814093 -4.2082338
-5.9550986 -3.1760545 -4.2489572
-5.9498253 -3.5698953 -4.2913918
-5.9443154 -3.9628782 -4.335732
-5.939209 -4.3554206 -4.3768277
-5.9342332 -4.7473898 -4.4168687
-5.9293389 -5.1387606 -4.4562545
-5.9245749 -5.5296063 -4.4945908
-5.9199162 -5.9199166 -4.532084
-5.9153619 -6.3097205 -4.5687323
-5.9108634 -6.6989808 -4.6049342
-5.9064198 -7.0877056 -4.6406889
-5.9019351 -7.4757872 -4.6767802
-5.897409 -7.8632145 -4.7132068
-5.8927922 -8.2499123 -4.7503567
-5.8878455 -8.6355104 -4.7901616
-5.8818488 -9.0188351 -4.8384256
-5.8756475 -9.4010391 -4.8883257
-5.8694358 -9.7823954 -4.9383159
-5.8632612 -10.162986 -4.9880071
-5.8570518 -10.542693 -5.0379782
-5.8507123 -10.921332 -5.0889902
-5.8443394 -11.299057 -5.1402783
-5.8378143 -11.67563 -5.1927876
-5.8307362 -12.050191 -5.2497463
-5.8230386 -12.422484 -5.3116927
-5.8141146 -12.791054 -5.3835058
-5.8026414 -13.152657 -5.4758344
-5.7881131 -13.505598 -5.5927529
-5.7712235 -13.850938 -5.7286682
-5.5895934 -14.532943 -7.1903152
-5.5358162 -14.762179 -7.6230788
-5.4975705 -15.026693 -7.9308572
-5.4855967 3.5264544 -4.8740253
-5.4854846 3.1345611 -4.87499
-5.485642 2.7428193 -4.8736386
-5.4870772 2.351604 -4.8612618
-6.8843703 2.4587026 7.1864719
-5.5628381 -2.7814198 -4.2080374
-5.5581379 -3.1760814 -4.248558
-5.5532165 -3.569926 -4.2909951
-5.5480738 -3.9629121 -4.3353324
-5.5433073 -4.3554559 -4.3764338
-5.5386405 -4.7474074 -4.4166713
-5.5340953 -5.1388035 -4.4558601
-5.5296488 -5.5296512 -4.4941978
-5.5253005 -5.9199672 -4.5316896
-5.52105 -6.309772 -4.5683393
-5.5168285 -6.699007 -4.6047378
-5.5126815 -7.0877342 -4.6404939
-5.5085182 -7.4758477 -4.6763921
-5.5042706 -7.8632445 -4.7130127
-5.4999847 -8.2499781 -4.7499681
-5.4953675 -8.6355801 -4.7897749
-5.4897704 -9.0189095 -4.838037
-5.4839606 -9.4010773 -4.8881316
-5.4781852 -9.7824745 -4.9379296
-5.4724216 -10.163071 -4.9876194
-5.4666262 -10.542781 -5.0375924
-5.4607091 -10.921419 -5.0886092
-5.4547391 -11.299105 -5.1400857
-5.4486485 -11.675676 -5.1925988
-5.4420424 -12.050238 -5.249558
-5.4348798 -12.422585 -5.3113146
-5.4265509 -12.791159 -5.3831263
-5.4158206 -13.152708 -5.4756489
-5.4022822 -13.505709 -5.5923767
-5.386497 -13.850994 -5.7284808
-5.1662846 -14.760816 -7.6271944
-5.1265774 -15.01355 -7.9695578
-5.142745 -15.428239 -7.8301535
-5.0806646 3.5173807 -4.9956994
-5.0806022 3.1265216 -4.9962769
-5.0807676 2.7357984 -4.9947405
-5.0820732 2.3455698 -4.9826188
-6.3926296 2.4587026 7.1864719
-5.1655135 -2.7814319 -4.2078371
-5.1611495 -3.1760933 -4.2483625
-5.1566005 -3.5699561 -4.2905979
-5.1518469 -3.9629622 -4.3347397
-5.1473994 -4.3554935 -4.3760366
-5.1430655 -4.7474465 -4.4162798
-5.138845 -5.1388469 -4.4554667
-5.134716 -5.5296955 -4.4938049
-5.1306787 -5.9200153 -4.5312991
-5.1267309 -6.3098264 -4.5679474
-5.1228113 -6.6990633 -4.6043472
-5.1189604 -7.0877929 -4.6401048
-5.1150737 -7.4758778 -4.6761985
-5.1111503 -7.8633113 -4.7126241
-5.1071496 -8.2500105 -4.7497749
-5.1028829 -8.6356497 -4.7893882
-5.0976648 -9.0189476 -4.8378429
-5.0922909 -9.4011545 -4.8877449
-5.0869274 -9.7825546 -4.9375443
-5.0815549 -10.163113 -4.9874282
-5.0761938 -10.542866 -5.03721
-5.0706997 -10.921509 -5.0882249
-5.0651555 -11.299193 -5.1397057
-5.0595002 -11.675773 -5.192214
-5.0533657 -12.050336 -5.2491789
-5.0466943 -12.422634 -5.3111234
-5.0389605 -12.791208 -5.3829398
-5.029017 -13.152816 -5.4752703
-5.0164251 -13.505761 -5.5921917
-5.0017877 -13.851104 -5.7281089
-4.7981873 -14.763656 -7.6186223
-4.7574129 -15.004151 -7.9972301
-4.7602839 -15.379381 -7.970571
-4.6792941 3.509469 -5.1018243
-4.6792178 3.1194777 -5.1025901
-4.6794086 2.7296548 -5.1006761
-4.6806078 2.3403022 -5.0886078
-5.9008894 2.4587026 7.1864719
-4.7682056 -2.781455 -4.2074404
-4.7641973 -3.1761341 -4.2477641
-4.7599587 -3.5699718 -4.2904
-4.7555704 -3.9629781 -4.3345418
-4.7514648 -4.3555112 -4.3758397
-4.7474842 -4.7474861 -4.415884
-4.7435689 -5.1388679 -4.4552717
-4.7397771 -5.5297422 -4.493413
-4.7360497 -5.920064 -4.5309038
-4.7324061 -6.309876 -4.5675573
-4.7287874 -6.6991167 -4.6039548
-4.7252331 -7.0878525 -4.6397114
-4.7216449 -7.4759398 -4.6758065
-4.7180042 -7.8633413 -4.71243
-4.7143307 -8.2500811 -4.7493834
-4.710392 -8.6357222 -4.7889977
-4.7055945 -9.0190573 -4.8372631
-4.7006335 -9.401268 -4.8871675
-4.6956639 -9.7826338 -4.9371586
-4.6907043 -10.163196 -4.9870443
-4.6857557 -10.542953 -5.0368237
-4.6806841 -10.921598 -5.0878406
-4.6755662 -11.299287 -5.1393232
-4.6703463 -11.675868 -5.191833
-4.6646833 -12.050435 -5.2487955
-4.658525 -12.422735 -5.3107457
-4.6513858 -12.791313 -5.3825593
-4.6422067 -13.152921 -5.4748955
-4.6305647 -13.505816 -5.5920033
-4.617053 -13.85116 -5.7279215
-4.4282947 -14.760984 -7.6266809
-4.3891959 -14.996422 -8.0199852
-4.3876224 -15.356679 -8.0358162
-4.2804208 3.5021613 -5.1998439
-4.280386 3.1130068 -5.2002277
-4.2805424 2.7239799 -5.1985078
-4.2817936 2.3355222 -5.1847749
-5.4091482 2.4587026 7.1864719
-4.3708916 -2.7814798 -4.2070403
-4.3672171 -3.1761589 -4.2473688
-4.3633318 -3.5700002 -4.2900066
-4.3592906 -3.9629939 -4.3343439
-4.3555455 -4.3555465 -4.3754463
-4.3518968 -4.7475252 -4.4154878
-4.3483071 -5.1389089 -4.4548769
-4.3448133 -5.5297651 -4.4932151
-4.3413968 -5.9200869 -4.5307102
-4.3380566 -6.3099027 -4.5673614
-4.3347578 -6.699172 -4.6035638
-4.3314991 -7.0879097 -4.6393213
-4.3282099 -7.4759998 -4.6754184
-4.3248725 -7.8634062 -4.7120399
-4.3215051 -8.2501488 -4.7489953
-4.3178773 -8.6357555 -4.788806
-4.3134971 -9.0191317 -4.836874
-4.3089495 -9.4013453 -4.8867803
-4.3043938 -9.7827139 -4.9367733
-4.2998476 -10.163278 -4.98666
-4.295311 -10.543038 -5.0364418
-4.2906446 -10.921642 -5.0876498
-4.285953 -11.299334 -5.1391301
-4.281168 -11.675914 -5.1916442
-4.2759943 -12.050531 -5.2484155
-4.270349 -12.422837 -5.3103638
-4.2638049 -12.791415 -5.3821826
-4.2553735 -13.152973 -5.4747057
-4.2447186 -13.505925 -5.5916262
-4.2323155 -13.851216 -5.7277336
-4.0597548 -14.762745 -7.6213651
-4.0217414 -14.99013 -8.0385103
-4.0164566 -15.335563 -8.0965071
-3.8836927 3.4953234 -5.2915707
-3.8836613 3.1069272 -5.2919502
-3.8838027 2.7186599 -5.2902389
-3.8850935 2.3310544 -5.2746596
-4.9174075 2.4587026 7.1864719
-3.9735708 -2.7815008 -4.2066426
-3.9702301 -3.1761856 -4.2469697
-3.9666979 -3.5700288 -4.289609
-3.9630246 -3.9630277 -4.3339491
-3.9596033 -4.3555646 -4.3752494
-3.956286 -4.7475448 -4.4152918
-3.9530394 -5.1389518 -4.454483
-3.9498632 -5.52981 -4.4928222
-3.9467571 -5.9201374 -4.5303159
-3.9437206 -6.3099551 -4.5669684
-3.9407215 -6.6992278 -4.6031728
-3.9377589 -7.0879674 -4.6389318
-3.9347687 -7.4760633 -4.6750274
-3.9317346 -7.8634715 -4.7116499
-3.9286571 -8.2501812 -4.7488031
-3.9253752 -8.635828 -4.7884154
-3.9213769 -9.0191689 -4.8366795
-3.9172585 -9.4014225 -4.8863931
-3.9131169 -9.782794 -4.9363875
-3.9089842 -10.16336 -4.9862761
-3.9048443 -10.54308 -5.0362501
-3.9006178 -10.921733 -5.087266
-3.896353 -11.299425 -5.1387467
-3.8920026 -11.676009 -5.1912632
-3.8872991 -12.050629 -5.2480354
-3.8821671 -12.422936 -5.3099856
-3.8762176 -12.791519 -5.3818026
-3.8685524 -13.153081 -5.4743276
-3.8588507 -13.505979 -5.5914416
-3.8475752 -13.851274 -5.7275467
-3.6910698 -14.764281 -7.6167326
-3.655571 -14.987844 -8.0452404
-3.6471288 -15.317943 -8.1471472
-3.4889061 3.4889038 -5.3776407
-3.4888637 3.1012113 -5.3782082
-3.4889908 2.7136574 -5.3765059
-3.490134 2.3267534 -5.3611703
-4.4256668 2.4587026 7.1864719
-3.5762434 -2.7815239 -4.2062459
-3.5732367 -3.1762121 -4.2465754
-3.5700576 -3.5700588 -4.2892118
-3.5667517 -3.9630597 -4.3335533
-3.5636723 -4.3556023 -4.3748522
-3.5606866 -4.7475839 -4.4149003
-3.5577645 -5.1389947 -4.4540887
-3.5548913 -5.5298314 -4.4926276
-3.5520959 -5.9201598 -4.5301223
-3.5493631 -6.3099818 -4.5667725
-3.5466638 -6.6992545 -4.6029768
-3.5440123 -7.0880265 -4.6385431
-3.5413208 -7.4761243 -4.6746349
-3.5385902 -7.8635373 -4.7112608
-3.5358205 -8.250247 -4.7484136
-3.5328667 -8.6358976 -4.7880287
-3.529268 -9.0192413 -4.8362942
-3.5255473 -9.4014606 -4.886199
-3.5218196 -9.7828341 -4.9361954
-3.5181143 -10.163445 -4.9858885
-3.5143883 -10.543167 -5.0358644
-3.5105703 -10.921777 -5.0870757
-3.5067317 -11.299472 -5.1385579
-3.5028307 -11.676104 -5.1908817
-3.4985976 -12.050726 -5.2476559
-3.4939785 -12.423037 -5.3096075
-3.4886239 -12.791622 -5.3814259
-3.4817114 -13.153134 -5.4741387
-3.4729936 -13.506088 -5.5910645
-3.4628313 -13.851328 -5.7273626
-3.3220906 -14.764851 -7.6150165
-3.2897127 -14.986472 -8.0492792
-3.2792969 -15.303388 -8.188983
-3.096004 3.4830017 -5.4567947
-3.0959787 3.0959766 -5.4571719
-3.0960913 2.7090786 -5.4554749
-3.0970917 2.3228185 -5.4403839
-3.9339261 2.4587026 7.1864719
-3.1789095 -2.7815466 -4.2058492
-3.1762235 -3.1762247 -4.2463751
-3.1734109 -3.5700889 -4.2888145
-3.1704721 -3.9630919 -4.3331575
-3.1677349 -4.355638 -4.3744588
-3.165081 -4.7476234 -4.4145045
-3.1624835 -5.1390381 -4.4536953
-3.1599295 -5.5298777 -4.4922357
-3.1574445 -5.9202108 -4.5297284
-3.1550155 -6.3100319 -4.5663829
-3.1526031 -6.6992841 -4.6027822
-3.1502459 -7.0880547 -4.6383481
-3.1478667 -7.4761853 -4.6742477
-3.1454394 -7.8635998 -4.7108741
-3.142977 -8.2503157 -4.7480254
-3.1403515 -8.6359673 -4.7876415
-3.1371529 -9.0193167 -4.8359056
-3.1338325 -9.4014997 -4.8860059
-3.130532 -9.7829132 -4.9358087
-3.1272256 -10.163486 -4.9856968
-3.1239133 -10.543209 -5.0356731
-3.1205323 -10.921865 -5.0866909
-3.1171203 -11.299562 -5.1381745
-3.1136525 -11.676198 -5.1905003
-3.1098897 -12.050825 -5.247273
-3.1057839 -12.423138 -5.309226
-3.1010242 -12.791727 -5.3810468
-3.0948794 -13.153239 -5.4737635
-3.0871177 -13.506143 -5.5908761
-3.0780971 -13.851439 -5.7269874
-2.9526854 -14.763429 -7.6193085
-2.9233196 -14.982016 -8.0623999
-2.9128933 -15.292691 -8.2197237
-2.7048757 3.4776967 -5.5279775
-2.704865 3.0912709 -5.528163
-2.7049739 2.7049732 -5.5262842
-2.7058356 2.3192859 -5.5114236
-3.4421852 2.4587026 7.1864719
-2.7815571 -2.7815592 -4.2056494
-2.7792645 -3.1763043 -4.2451825
-2.776746 -3.5701051 -4.2886171
-2.7741745 -3.9631078 -4.3329597
-2.7717795 -4.3556552 -4.3742614
-2.7694688 -4.7476625 -4.4141083
-2.7671845 -5.1390591 -4.4535003
-2.764961 -5.5299244 -4.4918394
-2.7627866 -5.9202585 -4.5293374
-2.7606614 -6.3100839 -4.56599
-2.7585504 -6.6993394 -4.6023912
-2.7564878 -7.0881143 -4.6379547
-2.754406 -7.4762478 -4.6738563
-2.7522707 -7.8636322 -4.7106767
-2.7501163 -8.25035 -4.7478299
-2.7478189 -8.6360044 -4.787447
-2.7450199 -9.019352 -4.8357148
-2.742126 -9.4015751 -4.885622
-2.7392938 -9.7831926 -4.9344597
-2.7363446 -10.163568 -4.9853125
-2.7334466 -10.543297 -5.0352869
-2.7304878 -10.921953 -5.0863104
-2.7275026 -11.299655 -5.1377916
-2.7244682 -11.676293 -5.1901193
-2.7211645 -12.050873 -5.2470851
-2.7175829 -12.423238 -5.3088479
-2.713407 -12.791779 -5.380856
-2.7080414 -13.153346 -5.4733849
-2.7012389 -13.506196 -5.5906916
-2.6933458 -13.851494 -5.7268033
-2.5836692 -14.763827 -7.6181049
-2.5574563 -14.979389 -8.0701323
-2.5472915 -15.283751 -8.2454176
-2.3155806 3.4733686 -5.5860009
-2.3155713 3.0874288 -5.5861912
-2.3156645 2.7016072 -5.5843124
-2.3164108 2.3164089 -5.5693045
-2.9504447 2.4587026 7.1864719
-2.3842118 -2.7815819 -4.2052526
-2.3823059 -3.1764107 -4.2435956
-2.3800778 -3.5701194 -4.2884183
-2.3778837 -3.9631414 -4.3325648
-2.3758307 -4.355691 -4.373868
-2.3738401 -4.7476821 -4.4139123
-2.3718922 -5.1391001 -4.4531054
-2.3699863 -5.5299692 -4.4914465
-2.3681126 -5.9202838 -4.5291405
-2.3662908 -6.3101106 -4.5657935
-2.3644912 -6.6993928 -4.6019988
-2.3627231 -7.0881715 -4.6375647
-2.360929 -7.4762764 -4.6736612
-2.3591087 -7.8636975 -4.7102866
-2.3572619 -8.2504187 -4.7474418
-2.355283 -8.6360397 -4.7872515
-2.3528934 -9.0194273 -4.8353262
-2.3504128 -9.4016523 -4.8852348
-2.3480427 -9.7835131 -4.9329176
-2.3455052 -10.163858 -4.9839649
-2.3429732 -10.543383 -5.034905
-2.3404374 -10.922042 -5.0859256
-2.3378782 -11.299747 -5.1374092
-2.3352773 -11.676387 -5.1897373
-2.3324456 -12.050972 -5.2467017
-2.3293664 -12.423288 -5.3086567
-2.3257964 -12.791882 -5.3804798
-2.321197 -13.153451 -5.4730101
-2.315357 -13.50625 -5.5905032
-2.3085914 -13.851549 -5.7266154
-2.2153926 -14.769286 -7.6016312
-2.192122 -14.979503 -8.0697966
-2.1823738 -15.276619 -8.2659168
-1.9276328 3.4697387 -5.6347156
-1.9276251 3.0841975 -5.634901
-1.9276949 2.6987715 -5.6332169
-1.928354 2.3140233 -5.6173029
-2.4587038 2.4587026 7.1864719
-1.9868513 -2.7815945 -4.2050524
-1.9852878 -3.1764619 -4.2428007
-1.9834064 -3.5701315 -4.2882223
-1.9815778 -3.9631574 -4.3323669
-1.9798671 -4.355711 -4.3736677
-1.9782164 -4.7477217 -4.4135165
-1.9765848 -5.1391234 -4.4529071
-1.9749966 -5.5299921 -4.4912529
-1.9734435 -5.920332 -4.5287495
-1.9719251 -6.310163 -4.5654006
-1.9704255 -6.6994491 -4.6016083
-1.9689442 -7.0882006 -4.6373701
-1.9674491 -7.4763069 -4.6734672
-1.9659318 -7.863729 -4.710094
-1.964401 -8.2504854 -4.7470527
-1.9627519 -8.6361103 -4.7868648
-1.9607526 -9.0194635 -4.8351316
-1.9587092 -9.4018068 -4.8844604
-1.9567343 -9.7836723 -4.9321461
-1.9546276 -10.164064 -4.9830046
-1.9524937 -10.543467 -5.0345221
-1.9503723 -10.922087 -5.0857353
-1.9482398 -11.299792 -5.1372194
-1.9460723 -11.676436 -5.1895456
-1.9437126 -12.05102 -5.2465134
-1.9411464 -12.42334 -5.308466
-1.9381715 -12.791934 -5.38029
-1.9343387 -13.153505 -5.4728212
-1.9294797 -13.50636 -5.5901265
-1.9238338 -13.851606 -5.7264285
-1.8463241 -14.770594 -7.5976839
-1.8269773 -14.981216 -8.0647526
-1.8180791 -15.271866 -8.2795753
-1.5407616 3.4667137 -5.6752949
-1.5407555 3.0815084 -5.6754808
-1.5408174 2.6964295 -5.6736112
-1.5414244 2.3121362 -5.6552939
-1.9669631 2.4587026 7.1864719
-1.5894877 -2.781605 -4.2048559
-1.5882367 -3.1764739 -4.2426052
-1.5867383 -3.5701616 -4.2878256
-1.5852687 -3.9631736 -4.3321691
-1.5839068 -4.3557444 -4.3732729
-1.5825797 -4.7477412 -4.413321
-1.5812744 -5.139143 -4.4527116
-1.5800104 -5.5300369 -4.49086
-1.5787613 -5.9203553 -4.5285516
-1.5775466 -6.3101878 -4.565208
-1.5763469 -6.6994748 -4.6014118
-1.5751618 -7.0882292 -4.6371751
-1.5739657 -7.4763379 -4.6732736
-1.5727519 -7.86376 -4.7099004
-1.5715272 -8.2505207 -4.7468572
-1.570208 -8.6361456 -4.7866693
-1.5686084 -9.0195017 -4.8349376
-1.5669738 -9.401845 -4.8842669
-1.5653938 -9.7837114 -4.931953
-1.5637084 -10.164108 -4.9828091
-1.561995 -10.543467 -5.0345221
-1.5602978 -10.922087 -5.0857353
-1.5585917 -11.299792 -5.1372194
-1.5568578 -11.676436 -5.1895456
-1.5549765 -12.051069 -5.2463217
-1.5529234 -12.423388 -5.308279
-1.5505497 -12.792039 -5.37991
-1.5474772 -13.153558 -5.4726315
-1.5435899 -13.506413 -5.5899415
-1.539067 -13.851606 -5.7264285
-1.477082 -14.770823 -7.5969939
-1.4618326 -14.983787 -8.057188
-1.4541104 -15.268161 -8.2902279
-1.1547869 3.4643607 -5.7068472
-1.1547824 3.0794194 -5.7070341
-1.1548288 2.6945992 -5.7051687
-1.155288 2.3105736 -5.6866865
-1.4752223 2.4587026 7.1864719
-1.1921207 -2.7816172 -4.2046556
-1.1911874 -3.1765008 -4.2422061
-1.1900587 -3.5701776 -4.2876277
-1.1889566 -3.9631896 -4.3319712
-1.187935 -4.3557625 -4.373076
-1.1869347 -4.7477412 -4.413321
-1.1859559 -5.139143 -4.4527116
-1.1850077 -5.5300369 -4.49086
-1.1840807 -5.9204059 -4.5281572
-1.183165 -6.3102126 -4.565011
-1.182265 -6.6995044 -4.6012173
-1.1813762 -7.0882578 -4.6369801
-1.180479 -7.4763703 -4.6730762
-1.1795689 -7.8637943 -4.7097039
-1.1786501 -8.2505531 -4.746665
-1.1776656 -8.6362162 -4.7862825
-1.1764612 -9.019536 -4.8347464
-1.1752352 -9.4018841 -4.8840737
-1.1740502 -9.7837515 -4.9317603
-1.1727813 -10.164108 -4.9828091
-1.171501 -10.543511 -5.034328
-1.1702281 -10.922132 -5.0855412
-1.1689487 -11.299839 -5.1370258
-1.1676482 -11.676484 -5.1893525
-1.1662371 -12.051117 -5.2461338
-1.1646973 -12.423439 -5.3080878
-1.162917 -12.792088 -5.3797231
-1.1606126 -13.153612 -5.4724426
-1.1576972 -13.506468 -5.5897532
-1.154305 -13.851661 -5.7262444
-1.1078199 -14.770935 -7.5966525
-1.0963075 -14.982872 -8.0598745
-1.0904545 -15.266366 -8.2953854
-0.76954591 3.4629543 -5.7256842
-0.76954281 3.0781698 -5.7258706
-0.76957375 2.6935067 -5.7240057
-0.7698766 2.3096285 -5.7057266
-0.98348153 2.4587026 7.1864719
-0.79474717 -2.7816172 -4.2046556
-0.79412496 -3.1765008 -4.2422061
-0.79337573 -3.5701921 -4.2874289
-0.79263765 -3.9631896 -4.3319712
-0.79195994 -4.3557801 -4.372879
-0.79129308 -4.7477603 -4.413125
-0.79064047 -5.139164 -4.4525166
-0.79000843 -5.5300603 -4.4906616
-0.78938711 -5.9204059 -4.5281572
-0.7887798 -6.3102393 -4.564815
-0.78817666 -6.6995044 -4.6012173
-0.78758419 -7.0882578 -4.6369801
-0.78698933 -7.4764004 -4.6728821
-0.78637922 -7.8637943 -4.7097039
-0.78577 -8.2505875 -4.7464685
-0.78511041 -8.6362162 -4.7862825
-0.78430742 -9.019536 -4.8347464
-0.78349012 -9.4018841 -4.8840737
-0.78270006 -9.7837515 -4.9317603
-0.78185421 -10.164108 -4.9828091
-0.78100061 -10.543511 -5.034328
-0.78015214 -10.922132 -5.0855412
-0.77930224 -11.299885 -5.136837
-0.77843529 -11.676531 -5.1891642
-0.77749139 -12.051117 -5.2461338
-0.77646488 -12.423439 -5.3080878
-0.77527797 -12.792088 -5.3797231
-0.77374172 -13.153612 -5.4724426
-0.77179807 -13.506468 -5.5897532
-0.76953667 -13.851661 -5.7262444
-0.73872024 -14.774408 -7.5861759
-0.73081601 -14.98173 -8.0632381
-0.72689527 -15.264803 -8.2998762
-0.38470036 3.4623008 -5.7344437
-0.38470036 3.077601 -5.7344427
-0.38471583 2.6930101 -5.7325811
-0.38486564 2.3091936 -5.7144961
-0.49174076 2.4587026 7.1864719
-0.39737523 -2.7816284 -4.2044544
-0.39706248 -3.1765008 -4.2422061
-0.39668787 -3.5701921 -4.2874289
-0.39632046 -3.9632075 -4.3317742
-0.39597997 -4.3557801 -4.372879
-0.39564654 -4.7477603 -4.413125
-0.39532188 -5.1391859 -4.4523172
-0.39500585 -5.5300837 -4.4904637
-0.39469355 -5.9204059 -4.5281572
-0.3943899 -6.3102393 -4.564815
-0.39408997 -6.6995306 -4.6010208
-0.3937937 -7.0882878 -4.636786
-0.39349467 -7.4764004 -4.6728821
-0.39319122 -7.8638258 -4.7095108
-0.392885 -8.2505875 -4.7464685
-0.39255521 -8.6362162 -4.7862825
-0.39215532 -9.0195742 -4.8345528
-0.39174506 -9.4018841 -4.8840737
-0.39135003 -9.7837515 -4.9317603
-0.39092711 -10.164108 -4.9828091
-0.39050031 -10.543511 -5.034328
-0.39007762 -10.922175 -5.0853505
-0.38965112 -11.299885 -5.136837
-0.38921764 -11.676531 -5.1891642
-0.3887457 -12.051117 -5.2461338
-0.38823402 -12.423491 -5.3078971
-0.38764057 -12.79214 -5.3795333
-0.38687086 -13.153612 -5.4724426
-0.38590062 -13.506523 -5.5895643
-0.38476986 -13.851716 -5.7260566
-0.36935729 -14.774292 -7.5865197
-0.36540243 -14.9815 -8.0639124
-0.36343935 -15.264456 -8.3008747
1.6180301e-23 3.4623008 -5.7344437
2.2481491e-23 3.077601 -5.7344427
1.0436803e-24 2.6930101 -5.7325811
9.1190419e-24 2.3091936 -5.7144961
1.5806955e-23 2.4587026 7.1864719
1.9623357e-23 -2.7816284 -4.2044544
1.2192646e-23 -3.1765008 -4.2422061
1.1160004e-23 -3.5701921 -4.2874289
1.6938596e-23 -3.9632232 -4.3315763
6.1760133e-24 -4.3557625 -4.373076
1.0425698e-23 -4.7477603 -4.413125
1.1136377e-23 -5.1391859 -4.4523172
2.2469146e-23 -5.5300837 -4.4904637
1.8938394e-23 -5.9204059 -4.5281572
5.7842942e-24 -6.3102393 -4.564815
1.8477207e-23 -6.6995306 -4.6010208
-3.4012207e-24 -7.0882878 -4.636786
1.5813528e-23 -7.4764004 -4.6728821
-7.3379506e-25 -7.8638258 -4.7095108
1.8118493e-23 -8.2505875 -4.7464685
1.0473843e-23 -8.6362162 -4.7862825
2.9798526e-24 -9.0195742 -4.8345528
1.8166959e-23 -9.4018841 -4.8840737
-2.9000296e-24 -9.7837515 -4.9317603
1.3512097e-23 -10.164108 -4.9828091
1.9625922e-23 -10.543511 -5.034328
5.914207e-24 -10.922175 -5.0853505
-3.8503137e-25 -11.29993 -5.1366467
9.7593383e-24 -11.676531 -5.1891642
2.747141e-24 -12.051117 -5.2461338
1.9202274e-23 -12.423491 -5.3078971
1.2892093e-23 -12.79214 -5.3795333
1.480306e-23 -13.153612 -5.4724426
3.1231055e-24 -13.506523 -5.5895643
1.1952129e-23 -13.851716 -5.7260566
-4.9195642e-24 -14.774292 -7.5865197
6.2418284e-25 -14.9815 -8.0639124
1.3545163e-23 -15.264456 -8.3008747
0.38477296 3.4629543 -5.7256842
0.38477141 3.0781698 -5.7258706
0.38478687 2.6935067 -5.7240057
0.3849383 2.3096285 -5.7057266
0.49174076 2.4587026 7.1864719
0.39737359 -2.7816172 -4.2046556
0.39706248 -3.1765008 -4.2422061
0.39668787 -3.5701921 -4.2874289
0.3963221 -3.9632232 -4.3315763
0.39597833 -4.3557625 -4.373076
0.39564654 -4.7477603 -4.413125
0.39532024 -5.139164 -4.4525166
0.39500421 -5.5300603 -4.4906616
0.39469355 -5.9204059 -4.5281572
0.3943899 -6.3102393 -4.564815
0.39408833 -6.6995044 -4.6012173
0.39379209 -7.0882578 -4.6369801
0.39349467 -7.4764004 -4.6728821
0.39318961 -7.8637943 -4.7097039
0.392885 -8.2505875 -4.7464685
0.39255521 -8.6362162 -4.7862825
0.39215371 -9.019536 -4.8347464
0.39174506 -9.4018841 -4.8840737
0.39134845 -9.7837114 -4.931953
0.39092711 -10.164108 -4.9828091
0.39050031 -10.543511 -5.034328
0.39007762 -10.922175 -5.0853505
0.38965112 -11.299885 -5.136837
0.38921764 -11.676531 -5.1891642
0.3887457 -12.051117 -5.2461338
0.38823244 -12.423439 -5.3080878
0.38763899 -12.792088 -5.3797231
0.38687086 -13.153612 -5.4724426
0.38589904 -13.506468 -5.5897532
0.38476834 -13.851661 -5.7262444
0.36936012 -14.774408 -7.5861759
0.365408 -14.98173 -8.0632381
0.36344764 -15.264803 -8.2998762
0.769858 3.4643607 -5.7068472
0.76985496 3.0794194 -5.7070341
0.76988584 2.6945992 -5.7051687
0.77019203 2.3105736 -5.6866865
0.98348153 2.4587026 7.1864719
0.79474717 -2.7816172 -4.2046556
0.79412496 -3.1765008 -4.2422061
0.79337245 -3.5701776 -4.2876277
0.7926442 -3.9632232 -4.3315763
0.79195666 -4.3557625 -4.373076
0.79128987 -4.7477412 -4.413321
0.7906372 -5.139143 -4.4527116
0.79000521 -5.5300369 -4.49086
0.78938711 -5.9204059 -4.5281572
0.78877658 -6.3102126 -4.565011
0.78817666 -6.6995044 -4.6012173
0.78758419 -7.0882578 -4.6369801
0.78698605 -7.4763703 -4.6730762
0.78637922 -7.8637943 -4.7097039
0.78576684 -8.2505531 -4.746665
0.78511041 -8.6362162 -4.7862825
0.78430742 -9.019536 -4.8347464
0.78349012 -9.4018841 -4.8840737
0.7826969 -9.7837114 -4.931953
0.78185421 -10.164108 -4.9828091
0.78100061 -10.543511 -5.034328
0.78015524 -10.922175 -5.0853505
0.77930224 -11.299885 -5.136837
0.77843207 -11.676484 -5.1893525
0.77749139 -12.051117 -5.2461338
0.77646488 -12.423439 -5.3080878
0.77527797 -12.792088 -5.3797231
0.77374172 -13.153612 -5.4724426
0.77179497 -13.506413 -5.5899415
0.76953667 -13.851661 -5.7262444
0.73854673 -14.770935 -7.5966525
0.73087174 -14.982872 -8.0598745
0.72696966 -15.266366 -8.2953854
1.1555711 3.4667137 -5.6752949
1.1555711 3.081521 -5.6752939
1.1556131 2.6964295 -5.6736112
1.1560682 2.3121362 -5.6552939
1.4752223 2.4587026 7.1864719
1.1921158 -2.781605 -4.2048559
1.1911776 -3.1764739 -4.2426052
1.1900537 -3.5701616 -4.2878256
1.1889566 -3.9631896 -4.3319712
1.1879301 -4.3557444 -4.3732729
1.1869298 -4.7477217 -4.4135165
1.1859559 -5.139143 -4.4527116
1.1850077 -5.5300369 -4.49086
1.1840758 -5.9203801 -4.5283546
1.183165 -6.3102126 -4.565011
1.1822602 -6.6994748 -4.6014118
1.1813713 -7.0882292 -4.6371751
1.1804743 -7.4763379 -4.6732736
1.179564 -7.86376 -4.7099004
1.1786455 -8.2505207 -4.7468572
1.1776559 -8.6361456 -4.7866693
1.1764563 -9.0195017 -4.8349376
1.1752304 -9.401845 -4.8842669
1.1740406 -9.7836723 -4.9321461
1.1727766 -10.164064 -4.9830046
1.1714962 -10.543467 -5.0345221
1.1702281 -10.922132 -5.0855412
1.1689487 -11.299839 -5.1370258
1.1676434 -11.676436 -5.1895456
1.1662276 -12.05102 -5.2465134
1.1646925 -12.423388 -5.308279
1.1629122 -12.792039 -5.37991
1.1606079 -13.153558 -5.4726315
1.1576878 -13.50636 -5.5901265
1.154305 -13.851661 -5.7262444
1.1078073 -14.770765 -7.5971665
1.0963745 -14.983787 -8.057188
1.0905827 -15.268161 -8.2902279
1.5421 3.4697244 -5.6349034
1.5421 3.0841975 -5.634901
1.5421559 2.6987715 -5.6332169
1.5426894 2.3140318 -5.6171141
1.9669631 2.4587026 7.1864719
1.5894811 -2.7815945 -4.2050524
1.5882301 -3.1764619 -4.2428007
1.5867317 -3.5701475 -4.2880244
1.5852622 -3.9631574 -4.3323669
1.5839002 -4.3557272 -4.3734698
1.5825732 -4.7477217 -4.4135165
1.5812678 -5.1391234 -4.4529071
1.5800039 -5.5300155 -4.491055
1.5787548 -5.920332 -4.5287495
1.5775466 -6.3101878 -4.565208
1.5763403 -6.6994491 -4.6016083
1.5751554 -7.0882006 -4.6373701
1.5739592 -7.4763069 -4.6734672
1.5727454 -7.863729 -4.710094
1.5715208 -8.2504854 -4.7470527
1.5702015 -8.6361103 -4.7868648
1.568602 -9.0194635 -4.8351316
1.5669674 -9.4018068 -4.8844604
1.5653809 -9.7836323 -4.9323392
1.5636958 -10.164023 -4.9831967
1.561995 -10.543467 -5.0345221
1.5602978 -10.922087 -5.0857353
1.5585855 -11.299747 -5.1374092
1.5568515 -11.676387 -5.1897373
1.5549638 -12.050972 -5.2467017
1.5529171 -12.42334 -5.308466
1.5505434 -12.791986 -5.3800998
1.5474709 -13.153505 -5.4728212
1.5435838 -13.50636 -5.5901265
1.539067 -13.851606 -5.7264285
1.4770536 -14.770539 -7.5978527
1.4615818 -14.981216 -8.0647526
1.4544687 -15.271924 -8.2794085
1.9296505 3.4733686 -5.5860009
1.9296428 3.0874288 -5.5861912
1.9297205 2.7016072 -5.5843124
1.9303422 2.3164089 -5.5693045
2.4587038 2.4587026 7.1864719
1.9868431 -2.7815819 -4.2052526
1.9852549 -3.1764107 -4.2435956
1.9833982 -3.5701194 -4.2884183
1.9815695 -3.9631414 -4.3325648
1.9798671 -4.355711 -4.3736677
1.9782001 -4.7476821 -4.4139123
1.9765767 -5.1391001 -4.4531054
1.9749885 -5.5299692 -4.4914465
1.9734353 -5.9203091 -4.5289435
1.971917 -6.3101377 -4.5655975
1.9704174 -6.6994219 -4.6018043
1.9689361 -7.0881715 -4.6375647
1.967441 -7.4762764 -4.6736612
1.9659239 -7.8636975 -4.7102866
1.9643848 -8.2504187 -4.7474418
1.9627358 -8.6360397 -4.7872515
1.9607446 -9.0194273 -4.8353262
1.9586773 -9.4016523 -4.8852348
1.9566942 -9.7834721 -4.9331098
1.9545877 -10.163858 -4.9839649
1.9524857 -10.543425 -5.0347137
1.9503644 -10.922042 -5.0859256
1.9482239 -11.2997 -5.1376023
1.9460565 -11.676341 -5.1899266
1.943697 -12.050923 -5.2468934
1.9411385 -12.423288 -5.3086567
1.9381636 -12.791882 -5.3804798
1.9343308 -13.153451 -5.4730101
1.9294641 -13.50625 -5.5905032
1.9238261 -13.851549 -5.7266154
1.8461604 -14.769286 -7.6016312
1.8267615 -14.979445 -8.0699644
1.8186517 -15.276677 -8.2657499
2.318465 3.4776967 -5.5279775
2.3184462 3.0912604 -5.5283532
2.3185396 2.7049603 -5.5264707
2.3192875 2.3192859 -5.5114236
2.9504447 2.4587026 7.1864719
2.384192 -2.7815592 -4.2056494
2.3822267 -3.1763043 -4.2451825
2.3800583 -3.5700889 -4.2888145
2.3778639 -3.9631078 -4.3329597
2.3758209 -4.3556733 -4.3740649
2.3738301 -4.7476625 -4.4141083
2.3718724 -5.1390591 -4.4535003
2.3699667 -5.5299244 -4.4918394
2.3681028 -5.9202585 -4.5293374
2.366281 -6.3100839 -4.56599
2.3644814 -6.6993666 -4.6021953
2.362704 -7.0881143 -4.6379547
2.3609097 -7.4762158 -4.6740537
2.3590891 -7.8636322 -4.7106767
2.3572426 -8.25035 -4.7478299
2.3552637 -8.6359673 -4.7876415
2.3528841 -9.0193892 -4.8355203
2.350384 -9.4015388 -4.8858123
2.347966 -9.7831926 -4.9344597
2.3454382 -10.163568 -4.9853125
2.3429637 -10.54334 -5.0350962
2.3404183 -10.921953 -5.0863104
2.3378592 -11.299655 -5.1377916
2.3352582 -11.676293 -5.1901193
2.332427 -12.050873 -5.2470851
2.3293569 -12.423238 -5.3088479
2.3257871 -12.791829 -5.3806701
2.3211784 -13.153346 -5.4733849
2.315357 -13.50625 -5.5905032
2.3085821 -13.851494 -5.7268033
2.2145736 -14.763827 -7.6181049
2.1921053 -14.979389 -8.0701323
2.1833928 -15.283751 -8.2454176
2.7089925 3.4829893 -5.4569855
2.7089708 3.0959661 -5.4573622
2.709069 2.7090681 -5.4556651
2.7099664 2.3228273 -5.4401946
3.4421852 2.4587026 7.1864719
2.7815344 -2.7815361 -4.2060456
2.7791958 -3.1762247 -4.2463751
2.7767229 -3.5700748 -4.2890139
2.7741632 -3.9630919 -4.3331575
2.7717681 -4.355638 -4.3744588
2.7694459 -4.7476234 -4.4145045
2.7671731 -5.1390381 -4.4536953
2.7649381 -5.5298777 -4.4922357
2.762764 -5.9202108 -4.5297284
2.7606385 -6.3100319 -4.5663829
2.7585278 -6.6992841 -4.6027822
2.7564654 -7.0880547 -4.6383481
2.7543833 -7.4761853 -4.6742477
2.7522593 -7.8635998 -4.7108741
2.7501049 -8.2503157 -4.7480254
2.7477963 -8.6359339 -4.7878337
2.7450087 -9.0193167 -4.8359056
2.7420921 -9.4014606 -4.886199
2.7392044 -9.7828732 -4.9360018
2.7363226 -10.163486 -4.9856968
2.7334354 -10.543252 -5.0354819
2.7304769 -10.921909 -5.0865006
2.7274911 -11.299608 -5.1379852
2.724457 -11.676247 -5.1903076
2.7211537 -12.050825 -5.247273
2.717561 -12.423138 -5.309226
2.7133961 -12.791727 -5.3810468
2.7080195 -13.153239 -5.4737635
2.7012389 -13.506196 -5.5906916
2.6933351 -13.851439 -5.7269874
2.5836096 -14.763484 -7.6191354
2.5579145 -14.982073 -8.062232
2.5487814 -15.292691 -8.2197237
3.1012373 3.4888895 -5.3778286
3.1012123 3.1012113 -5.3782082
3.101325 2.7136574 -5.3765059
3.1023412 2.3267534 -5.3611703
3.9339261 2.4587026 7.1864719
3.17887 -2.7815113 -4.2064462
3.1762104 -3.1762121 -4.2465754
3.1733716 -3.5700445 -4.2894106
3.1704459 -3.9630597 -4.3335533
3.1677086 -4.3556023 -4.3748522
3.1650548 -4.7475839 -4.4149003
3.1624575 -5.1389947 -4.4540887
3.1599164 -5.5298567 -4.4924307
3.1574185 -5.9201598 -4.5301223
3.1549895 -6.3099818 -4.5667725
3.15259 -6.6992545 -4.6029768
3.150233 -7.0880265 -4.6385431
3.1478407 -7.4761243 -4.6746349
3.1454136 -7.8635373 -4.7112608
3.1429515 -8.250247 -4.7484136
3.1403129 -8.6358624 -4.7882242
3.13714 -9.0192795 -4.8361001
3.1338069 -9.4014225 -4.8863931
3.1305063 -9.7828341 -4.9361954
3.127213 -10.163445 -4.9858885
3.1239133 -10.543209 -5.0356731
3.1205196 -10.92182 -5.0868845
3.1171074 -11.299516 -5.1383681
3.1136274 -11.676104 -5.1908817
3.1098645 -12.050726 -5.2476559
3.1057587 -12.423037 -5.3096075
3.1009991 -12.791622 -5.3814259
3.0948546 -13.153134 -5.4741387
3.0871053 -13.506088 -5.5910645
3.0780723 -13.851328 -5.7273626
2.952981 -14.764906 -7.6148472
2.9242003 -14.986529 -8.0491114
2.9149306 -15.303388 -8.188983
3.4953234 3.4953234 -5.2915707
3.495295 3.1069272 -5.2919502
3.4954226 2.7186599 -5.2902389
3.4965701 2.3310442 -5.2748499
4.4256668 2.4587026 7.1864719
3.5762136 -2.7815008 -4.2066426
3.5732071 -3.1761856 -4.2469697
3.5700133 -3.5700145 -4.2898078
3.5667222 -3.9630277 -4.3339491
3.5636575 -4.3555827 -4.3750525
3.5606575 -4.7475448 -4.4152918
3.5577352 -5.1389518 -4.454483
3.5548766 -5.52981 -4.4928222
3.5520813 -5.9201374 -4.5303159
3.5493486 -6.3099551 -4.5669684
3.5466492 -6.6992278 -4.6031728
3.543983 -7.0879674 -4.6389318
3.541292 -7.4760633 -4.6750274
3.5385759 -7.863503 -4.7114573
3.5358057 -8.2502155 -4.7486067
3.5328376 -8.635828 -4.7884154
3.5292537 -9.0192051 -4.8364892
3.5255184 -9.4013834 -4.8865867
3.5218053 -9.782794 -4.9363875
3.518086 -10.16336 -4.9862761
3.514374 -10.543125 -5.036056
3.510556 -10.921733 -5.087266
3.5067177 -11.299425 -5.1387467
3.5028021 -11.676009 -5.1912632
3.4985552 -12.050581 -5.2482238
3.4939504 -12.422936 -5.3099856
3.48861 -12.791572 -5.3816123
3.4816971 -13.153081 -5.4743276
3.4729517 -13.505925 -5.5916262
3.4628174 -13.851274 -5.7275467
3.3219757 -14.764338 -7.61656
3.2900138 -14.987844 -8.0452404
3.2824159 -15.317943 -8.1471472
3.8912916 3.5021613 -5.1998439
3.8912599 3.1130068 -5.2002277
3.8913863 2.7239678 -5.198699
3.8925397 2.3355222 -5.1847749
4.9174075 2.4587026 7.1864719
3.9735379 -2.7814798 -4.2070403
3.9701974 -3.1761589 -4.2473688
3.966665 -3.5700002 -4.2900066
3.9630082 -3.9630101 -4.334146
3.9595871 -4.3555465 -4.3754463
3.9562695 -4.7475252 -4.4154878
3.9530067 -5.1389089 -4.4548769
3.9498305 -5.5297651 -4.4932151
3.9467244 -5.9200869 -4.5307102
3.9436882 -6.3099027 -4.5673614
3.9406891 -6.699172 -4.6035638
3.9377265 -7.0879097 -4.6393213
3.9347365 -7.4759998 -4.6754184
3.9317186 -7.8634381 -4.7118468
3.9286571 -8.2501812 -4.7488031
3.9253433 -8.6357555 -4.788806
3.9213607 -9.0191317 -4.836874
3.9172266 -9.4013453 -4.8867803
3.9130852 -9.7827139 -4.9367733
3.9089682 -10.163319 -4.9864678
3.9048443 -10.54308 -5.0362501
3.9006019 -10.921686 -5.0874596
3.8963211 -11.299334 -5.1391301
3.8919709 -11.675914 -5.1916442
3.8872519 -12.050482 -5.2486072
3.8821354 -12.422837 -5.3103638
3.8762019 -12.791468 -5.3819928
3.8685215 -13.152973 -5.4747057
3.8588195 -13.505871 -5.591815
3.8475597 -13.851216 -5.7277336
3.6907003 -14.762802 -7.6211929
3.6561007 -14.990017 -8.038846
3.651324 -15.335563 -8.0965071
4.2893357 3.5094552 -5.1020169
4.2892833 3.1194777 -5.1025901
4.289423 2.7296319 -5.1010575
4.2905574 2.3403022 -5.0886078
5.4091482 2.4587026 7.1864719
4.3708553 -2.781455 -4.2074404
4.3671985 -3.1761446 -4.2475677
4.3632951 -3.5699718 -4.2904
4.359273 -3.9629781 -4.3345418
4.3555098 -4.3555112 -4.3758397
4.3518605 -4.7474861 -4.415884
4.3482714 -5.1388679 -4.4552717
4.3447957 -5.5297422 -4.493413
4.3413787 -5.920064 -4.5309038
4.3380394 -6.309876 -4.5675573
4.334722 -6.6991167 -4.6039548
4.3314638 -7.0878525 -4.6397114
4.3281746 -7.4759398 -4.6758065
4.3248549 -7.8633761 -4.712234
4.3214869 -8.2501135 -4.7491908
4.3178596 -8.6357222 -4.7889977
4.3134618 -9.0190573 -4.8372631
4.3088965 -9.4012299 -4.8873615
4.3043585 -9.7826338 -4.9371586
4.2998123 -10.163196 -4.9870443
4.2952762 -10.542953 -5.0368237
4.290627 -10.921598 -5.0878406
4.2859359 -11.299287 -5.1393232
4.2811508 -11.675868 -5.191833
4.27596 -12.050435 -5.2487955
4.2703147 -12.422735 -5.3107457
4.2637877 -12.791365 -5.382369
4.2553558 -13.152921 -5.4748955
4.2446675 -13.505761 -5.5921917
4.2322989 -13.85116 -5.7279215
4.0592856 -14.761042 -7.6265082
4.0234141 -14.996364 -8.0201569
4.021987 -15.356679 -8.0358162
4.6898246 3.5173666 -4.995892
4.6897678 3.1265113 -4.9964714
4.6899204 2.735786 -4.9949312
4.691164 2.3455799 -4.9824243
5.9008894 2.4587026 7.1864719
4.7681665 -2.7814319 -4.2078371
4.7641778 -3.1761198 -4.2479634
4.7599192 -3.5699418 -4.2907972
4.7555509 -3.9629622 -4.3347397
4.7514453 -4.3554935 -4.3760366
4.7474451 -4.7474465 -4.4162798
4.7435298 -5.1388273 -4.4556623
4.739738 -5.5296955 -4.4938049
4.736011 -5.9200153 -4.5312991
4.732367 -6.3098264 -4.5679474
4.7287493 -6.6990633 -4.6043472
4.725194 -7.0877929 -4.6401048
4.7216063 -7.4758778 -4.6761985
4.7179852 -7.8633113 -4.7126241
4.714292 -8.2500105 -4.7497749
4.7103539 -8.6356497 -4.7893882
4.7055368 -9.0189476 -4.8378429
4.7005758 -9.4011545 -4.8877449
4.6956062 -9.7825136 -4.937737
4.6906662 -10.163113 -4.9874282
4.6857176 -10.542866 -5.03721
4.6806459 -10.921509 -5.0882249
4.6755285 -11.299193 -5.1397057
4.6703081 -11.675773 -5.192214
4.6646457 -12.050336 -5.2491789
4.6584868 -12.422634 -5.3111234
4.6513667 -12.791261 -5.3827491
4.642169 -13.152816 -5.4752703
4.6305275 -13.505709 -5.5923767
4.6170344 -13.851104 -5.7281089
4.4291306 -14.76377 -7.6182775
4.3914576 -15.004151 -7.9972301
4.3941422 -15.379499 -7.9702339
5.0937686 3.5264544 -4.8740253
5.0936432 3.1345472 -4.8751826
5.0938101 2.7428193 -4.8736386
5.0951428 2.351604 -4.8612618
6.3926296 2.4587026 7.1864719
5.1654711 -2.7814093 -4.2082338
5.1611495 -3.1760933 -4.2483625
5.156558 -3.569926 -4.2909951
5.151804 -3.9629283 -4.3351345
5.1473565 -4.3554559 -4.3764338
5.143023 -4.7474074 -4.4166713
5.1387811 -5.1387844 -4.4560561
5.1346741 -5.5296512 -4.4941978
5.1306357 -5.9199672 -4.5316896
5.126689 -6.309772 -4.5683393
5.1227903 -6.6990342 -4.6045418
5.1189394 -7.0877647 -4.6402998
5.1150312 -7.4758177 -4.6765862
5.1111083 -7.8632445 -4.7130127
5.1071076 -8.2499437 -4.750164
5.1028414 -8.6355801 -4.7897749
5.0976443 -9.0189095 -4.838037
5.0922489 -9.4010773 -4.8881316
5.0868859 -9.7824745 -4.9379296
5.0815139 -10.163028 -4.9878149
5.0761528 -10.542781 -5.0375924
5.0706587 -10.921419 -5.0886092
5.0651145 -11.299105 -5.1400857
5.0594592 -11.675676 -5.1925988
5.0533252 -12.050238 -5.249558
5.0466743 -12.422585 -5.3113146
5.03894 -12.791159 -5.3831263
5.028976 -13.152708 -5.4756489
5.0163646 -13.505598 -5.5927529
5.0017676 -13.85105 -5.7282934
4.7972822 -14.76087 -7.6270256
4.7603931 -15.01355 -7.9695578
4.7754059 -15.428239 -7.8301535
5.5021491 3.5370948 -4.7313023
5.5019689 3.1439793 -4.7328582
5.5021267 2.7510624 -4.7314982
5.5033674 2.3585865 -4.7207999
6.8843703 2.4587026 7.1864719
5.5627918 -2.7813966 -4.2084336
5.5581379 -3.1760814 -4.248558
5.5531702 -3.5698953 -4.2913918
5.5480509 -3.9628961 -4.3355303
5.5432615 -4.3554206 -4.3768277
5.5386171 -4.7473898 -4.4168687
5.5340495 -5.1387606 -4.4562545
5.529603 -5.5296063 -4.4945908
5.5252776 -5.9199424 -4.5318871
5.5210271 -6.3097472 -4.5685363
5.5168285 -6.699007 -4.6047378
5.5126586 -7.0877056 -4.6406889
5.5084729 -7.4757872 -4.6767802
5.5042028 -7.8631496 -4.7135968
5.4999394 -8.2499123 -4.7503567
5.4953451 -8.6355438 -4.7899704
5.4897256 -9.0188351 -4.8384256
5.4839377 -9.4010391 -4.8883257
5.4781623 -9.7824335 -4.9381223
5.4723768 -10.162986 -4.9880071
5.4665813 -10.542693 -5.0379782
5.4606647 -10.921332 -5.0889902
5.4547167 -11.299057 -5.1402783
5.4486265 -11.67563 -5.1927876
5.4420199 -12.050191 -5.2497463
5.4348359 -12.422484 -5.3116927
5.4265289 -12.791106 -5.383316
5.4157987 -13.152657 -5.4758344
5.402195 -13.50549 -5.5931258
5.386497 -13.850994 -5.7284808
5.2169333 -14.532888 -7.1904898
5.1667619 -14.762179 -7.6230788
5.1310658 -15.026693 -7.9308572
8.0247936 18.189529 12.406666
8.085804 17.788767 12.897638
8.1278076 17.339323 13.235658
8.1593084 16.86257 13.489152
8.1746159 16.34923 13.612337
8.175498 15.805963 13.619445
8.1679745 15.246887 13.558901
8.1582899 14.684921 13.480956
8.1486731 14.124367 13.40357
8.1390333 13.565057 13.325991
8.1294613 13.007138 13.248967
8.1199131 12.450531 13.172126
8.1106615 11.895636 13.097672
8.1019783 11.34277 13.027798
8.0933132 10.791084 12.958071
8.0846682 10.240578 12.888494
8.0760403 9.691246 12.819064
8.0674314 9.1430893 12.749784
8.0589304 8.5961924 12.681379
8.0504475 8.0504456 12.613116
8.0419388 7.5058093 12.544635
8.0334921 6.962359 12.47666
8.0250177 6.4200144 12.408469
8.0166063 5.8788414 12.340779
7.9360366 5.2906919 11.692401
5.914413 3.5486481 -4.5763688
5.9141455 3.1542091 -4.5785203
5.91434 2.7600222 -4.5769544
5.9154592 2.3661835 -4.5679488
7.376111 2.4587026 7.1864719
5.9601092 -2.7813866 -4.2086306
5.9550986 -3.1760545 -4.2489572
5.9497757 -3.5698669 -4.29179
5.9442911 -3.962862 -4.3359299
5.9391842 -4.3554025 -4.3770242
5.9341836 -4.7473488 -4.4172635
5.9292903 -5.1387177 -4.4566483
5.9245501 -5.5295811 -4.4947877
5.9198914 -5.9198937 -4.5322776
5.9153376 -6.3096933 -4.5689282
5.9108391 -6.6989517 -4.6051288
5.9063716 -7.0876479 -4.641078
5.9018865 -7.4757237 -4.6771712
5.897336 -7.8631153 -4.7137933
5.8927441 -8.2498436 -4.7507448
5.8878217 -8.6354733 -4.7903566
5.881825 -9.0188007 -4.8386168
5.8755999 -9.4009609 -4.8887129
5.8694358 -9.7823954 -4.9383159
5.8632374 -10.162945 -4.9881988
5.8570275 -10.54265 -5.0381694
5.8506885 -10.921286 -5.0891843
5.8442922 -11.298965 -5.1406612
5.8377666 -11.675535 -5.1931691
5.830689 -12.050092 -5.2501297
5.8229909 -12.422383 -5.3120747
5.8140907 -12.791001 -5.3836956
5.8025947 -13.152549 -5.4762125
5.7878098 -13.504891 -5.5951915
5.7709918 -13.850384 -5.7305298
5.5890284 -14.531476 -7.1948605
5.538332 -14.768887 -7.6028337
5.5051055 -15.047292 -7.8702178
8.0111513 18.525787 8.26758
8.1460295 18.328566 9.2851562
8.3768463 18.32435 11.026534
8.5630779 18.196541 12.431543
8.6108646 8.0726843 12.792066
8.5934477 7.5192647 12.660667
8.5761013 6.968082 12.529799
8.5622644 6.4216962 12.425413
8.5502844 5.8783193 12.335025
8.4641714 5.2901053 11.68535
6.330606 3.5609648 -4.4111524
6.3303189 3.1651583 -4.4133234
6.3305016 2.7695925 -4.411943
6.3317037 2.3743875 -4.402873
7.8678522 2.4587026 7.1864719
6.3573971 -2.7813613 -4.2090306
6.3520784 -3.1760402 -4.249156
6.346375 -3.569839 -4.2921834
6.3405247 -3.9628282 -4.3363242
6.3350773 -4.3553672 -4.377418
6.3297439 -4.7473092 -4.4176593
6.3245497 -5.1386981 -4.4568439
6.3194685 -5.5295367 -4.4951806
6.3144989 -5.9198432 -4.5326715
6.3096676 -6.3096704 -4.5691218
6.3048429 -6.6988959 -4.6055198
6.3000779 -7.0875883 -4.6414714
6.2952943 -7.4756651 -4.6775603
6.2904658 -7.8630853 -4.7139874
6.285542 -8.2497759 -4.7511325
6.280292 -8.6354036 -4.7907438
6.2738953 -9.0187263 -4.8390059
6.2672806 -9.4009218 -4.888906
6.2606807 -9.7823153 -4.9387012
6.2540689 -10.162863 -4.9885836
6.2474456 -10.542565 -5.0385518
6.2406836 -10.921199 -5.0895648
6.2338605 -11.298873 -5.1410441
6.2269006 -11.675441 -5.1935506
6.2193508 -12.049994 -5.2505093
6.2111402 -12.422283 -5.3124523
6.2016473 -12.790899 -5.3840728
6.1894093 -13.152496 -5.4764018
6.1736388 -13.504838 -5.595376
6.1553292 -13.849493 -5.7335119
5.960773 -14.529385 -7.2013292
5.9085555 -14.771391 -7.5952768
5.8846164 -15.079331 -7.7758856
8.043808 18.453444 4.9442058
8.1912642 18.309881 5.991231
8.4147148 18.314377 7.5778756
6.7483573 3.5726585 -4.2543154
6.7468762 3.1749973 -4.2648277
6.7470436 2.7781918 -4.263638
6.7483287 2.3817618 -4.2545137
7.9748044 2.3455286 4.4542308
6.7546787 -2.7813387 -4.2094274
6.7490001 -3.1760013 -4.2497506
6.7429957 -3.569823 -4.2923813
6.736752 -3.9627964 -4.3367205
6.7309642 -4.3553314 -4.3778162
6.7253251 -4.7472897 -4.4178553
6.719779 -5.1386557 -4.4572382
6.7143798 -5.5294919 -4.495573
6.7091002 -5.9197955 -4.5330625
6.7039666 -6.3096166 -4.5695138
6.6988411 -6.698843 -4.6059122
6.6937776 -7.0875316 -4.6418614
6.688695 -7.4756017 -4.6779513
6.6835651 -7.8630204 -4.7143769
6.6783342 -8.2497091 -4.7515216
6.6727552 -8.6353321 -4.7911344
6.6659589 -9.0186539 -4.8393912
6.6589313 -9.4008455 -4.8892937
6.6519189 -9.7822351 -4.9390864
6.6448936 -10.162781 -4.9889674
6.637857 -10.54248 -5.038938
6.6306725 -10.921109 -5.0899496
6.6234226 -11.298782 -5.1414232
6.6160283 -11.675345 -5.1939316
6.608007 -12.049897 -5.2508888
