# .PCD v0.7 - Point Cloud Data file format
VERSION 0.7
FIELDS x y z
SIZE 4 4 4
TYPE F F F
COUNT 1 1 1
WIDTH 1525
HEIGHT 1
VIEWPOINT 0 0 0 1 0 0 0
POINTS 1525
DATA ascii
-545.56427 1200.2417 334.08688
-542.4917 1157.3157 309.36041
-539.45349 1114.8707 284.91122
-536.44916 1072.8984 260.73419
-533.47815 1031.3911 236.82489
-530.53979 990.34125 213.17906
-527.63367 949.7406 189.79231
-524.72418 909.52197 166.37875
-521.80219 869.67053 142.86436
-518.91254 830.26019 119.60996
-516.05469 791.28412 96.611755
-513.22815 752.73468 73.865753
-510.4324 714.60559 51.36729
-508.06253 677.41675 32.296162
-506.14432 641.11627 16.859516
-504.21512 605.05823 1.3345239
-502.64426 569.66364 -11.30686
-414.73346 442.38254 -718.7583
-413.82077 413.82089 -726.10303
-413.71667 386.13565 -726.94073
-428.99344 371.79453 -604.00305
-498.91879 399.13516 -41.287003
-498.7991 365.78616 -42.250072
-498.76526 332.51028 -42.522785
-498.32315 298.99402 -46.08025
-498.43588 265.83258 -45.173374
-498.4133 232.59303 -45.354755
-498.54636 199.41866 -44.284031
-498.90073 166.30045 -41.432388
-499.36874 133.16512 -37.666176
-499.70618 99.941345 -34.950871
-500.19839 66.693245 -30.98991
-501.19254 33.413052 -22.989319
-502.11063 0.00024072929 -15.601409
-501.76764 -33.451008 -18.361301
-500.08261 -66.677582 -31.921541
-496.57385 -99.314583 -60.157921
-445.51004 -118.8026 -471.08731
-438.47589 -146.15855 -527.69415
-437.38812 -174.95518 -536.44769
-442.24521 -206.38091 -497.36066
-468.45309 -249.84148 -286.45602
-548.77026 -878.03229 359.88657
-547.53778 -912.56281 349.96805
-547.72284 -949.38617 351.45752
-458.47403 -825.25311 -366.76147
-457.53555 -854.06622 -374.31381
-457.42349 -884.35199 -375.21545
-457.55075 -915.10138 -374.1915
-457.99762 -946.52838 -370.59497
-562.83246 -1200.7091 473.05048
-521.46692 1340.915 439.91223
-518.28986 1295.7249 412.51865
-515.31903 1251.4893 386.90356
-512.38208 1207.7579 361.58051
-509.47833 1164.5222 336.54449
-506.60739 1121.7738 311.79034
-503.76862 1079.5043 287.31412
-500.96149 1037.7062 263.11023
-498.18787 996.37585 239.19554
-495.44241 955.49609 215.52374
-492.72705 915.06464 192.11122
-490.04126 875.07385 168.95401
-487.38461 835.51666 146.04811
-484.75665 796.38623 123.38895
-482.13422 757.63959 100.7781
-479.49084 719.23633 77.986145
-477.12628 681.60931 57.598629
-475.29178 645.03906 41.781151
-473.37326 608.6228 25.239283
-471.8855 573.00397 12.41157
-380.4155 434.76071 -776.26056
-379.88431 407.01901 -780.83997
-379.80157 379.80176 -781.55371
-468.05432 434.62207 -20.621513
-467.85846 401.02161 -22.310331
-467.68188 367.4646 -23.83304
-467.4693 333.90683 -25.66584
-467.03201 300.23492 -29.436165
-466.95566 266.83197 -30.094442
-466.92389 233.46213 -30.368559
-466.979 200.13393 -29.893265
-467.34186 166.90784 -26.764599
-467.78186 133.65205 -22.970974
-468.15024 100.31812 -19.794884
-468.80533 66.972313 -14.146238
-469.74103 33.553097 -6.0786099
-470.67828 7.2893148e-05 2.0029838
-470.84854 -33.631939 3.4708326
-469.62094 -67.088448 -7.1142259
-466.74802 -100.0173 -31.884832
-407.18481 -116.33842 -545.44989
-402.19763 -143.64198 -588.45044
-402.14258 -172.34679 -588.92499
-406.60211 -203.30095 -550.47424
-432.94919 -247.39926 -323.30478
-507.33212 -869.71198 318.03912
-507.1795 -905.67755 316.72333
-432.12335 -802.51459 -330.42548
-429.13571 -827.61865 -356.18539
-428.89771 -857.79523 -358.23767
-428.91199 -888.46039 -358.11423
-429.18225 -919.67621 -355.78384
-488.06982 1351.5782 475.66611
-484.33716 1303.9847 441.00635
-481.54337 1259.4213 415.06491
-478.78156 1215.3689 389.42084
-476.05133 1171.8187 364.069
-473.35434 1128.7683 339.02637
-470.68546 1086.1975 314.24466
-468.04651 1044.104 289.74084
-465.43695 1002.4798 265.5101
-462.85635 961.31732 241.54797
-460.30423 920.6087 217.85045
-457.78006 880.34631 194.41246
-455.28345 840.52362 171.23022
-452.81177 801.12885 148.27957
-450.3689 762.16284 125.59643
-447.95227 723.61523 103.15676
-445.68408 685.66809 82.095863
-443.9892 648.90741 66.358093
-442.2334 612.3233 50.055035
-440.76184 576.38104 36.390808
-347.21707 427.34424 -832.21344
-347.09341 400.49255 -833.36169
-348.66342 375.48392 -818.78314
-436.74463 436.74475 -0.91071302
-436.56097 402.97943 -2.6162465
-436.27774 369.15826 -5.2458811
-435.91135 335.31662 -8.648139
-435.48001 301.48636 -12.65335
-435.22995 267.83408 -14.975294
-435.20023 234.33867 -15.251469
-435.18237 200.85353 -15.417214
-435.55151 167.51997 -11.98943
-435.9631 134.14255 -8.1676655
-436.35352 100.69713 -4.5427189
-437.14844 67.253761 2.8388991
-438.02466 33.694294 10.974657
-438.90234 0.00018249852 19.124233
-439.36874 -33.797504 23.455498
-438.68259 -67.48951 17.083981
-436.49911 -100.73038 -3.1907613
-370.89908 -114.1227 -612.31561
-367.15884 -141.2148 -647.04504
-367.60403 -169.66335 -642.91138
-372.06519 -200.34258 -601.48792
-398.13263 -245.00461 -359.44
-468.38855 -828.68732 292.91684
-467.55612 -863.18048 285.18762
-467.53552 -899.10669 284.99612
-400.94574 -801.89142 -333.31906
-400.25006 -831.28857 -339.77869
-400.1243 -861.80615 -340.94656
-400.22491 -892.80927 -340.01245
-400.81952 -924.96796 -334.49121
-449.94882 1312.3508 469.86002
-447.33679 1267.4545 443.58542
-444.75497 1223.0762 417.61401
-442.20273 1179.2074 391.94046
-439.67966 1135.8392 366.56039
-437.18301 1092.9579 341.44595
-434.71671 1050.5656 316.63712
-432.27808 1008.6489 292.10632
-429.8667 967.20026 267.84924
-427.48199 926.21112 243.86134
-425.12161 885.67035 220.11757
-422.78915 845.57837 196.65486
-420.48218 805.92438 173.44839
-418.2002 766.70032 150.49361
-415.94287 727.90009 127.78666
-413.73306 689.55542 105.55792
-412.14694 652.56616 89.602959
-410.51178 615.7677 73.15406
-409.12103 579.58813 59.164322
-315.95114 421.2684 -878.05243
-315.27881 394.09872 -884.81549
-315.2529 367.7952 -885.07629
-315.38708 341.66946 -883.72632
-315.14355 315.14371 -886.1759
-404.61066 370.89319 13.79344
-404.17657 336.81396 9.4269619
-403.74158 302.80637 5.0510573
-403.36472 268.90994 1.2601346
-403.33704 235.28011 0.98160702
-403.30936 201.65488 0.70334572
-403.63251 168.18039 3.9540467
-404.03024 134.6769 7.9549322
-404.44357 101.11113 12.112875
-405.23001 67.538582 20.023521
-406.04565 33.8372 28.228601
-406.86462 0.00016785825 36.466507
-407.50027 -33.958233 42.860954
-407.12015 -67.85321 39.036854
-405.47791 -101.36946 22.517328
-336.10028 -112.03329 -675.36774
-332.09424 -138.3725 -715.66528
-334.14349 -167.07167 -695.05127
-338.75827 -197.60896 -648.63025
-363.98215 -242.65462 -394.89767
-428.67102 -821.61932 255.82191
-428.36896 -856.73773 252.7838
-373.82648 -778.80493 -295.87177
-371.28217 -804.44458 -321.4653
-371.13992 -835.06464 -322.89618
-371.14621 -866.00757 -322.83331
-371.39166 -897.52979 -320.36374
-414.8862 1320.0928 496.56024
-412.53098 1275.0959 470.71506
-410.20239 1230.6073 445.16135
-407.89987 1186.618 419.89474
-405.57632 1142.9879 394.39648
-403.26089 1099.8029 368.98804
-400.9718 1057.1079 343.8681
-398.70856 1014.8945 319.03177
-396.4707 973.15552 294.47449
-394.25595 931.87769 270.16998
-392.06766 891.06287 246.15646
-389.9035 850.69873 222.40782
-387.76312 810.77771 198.92038
-385.64615 771.29242 175.68892
-383.55032 732.2326 152.69009
-381.47894 693.59827 129.95938
-379.94363 656.26648 113.11127
-378.42944 619.24841 96.495193
-377.11908 582.82043 82.115234
-289.20831 420.66681 -882.59088
-286.5105 390.69623 -912.19568
-285.29364 363.10117 -925.54901
-284.97675 336.7908 -929.02692
-284.67255 310.55194 -932.36487
-284.53223 284.53229 -933.90479
-284.50119 258.63757 -934.24548
-284.47214 232.75005 -934.56421
-284.44409 206.86847 -934.87195
-284.50317 181.04762 -934.22351
-284.4501 155.15468 -934.80591
-284.47614 129.3075 -934.52026
-284.51117 103.45874 -934.13562
-372.36118 101.55322 29.903564
-373.04184 67.825897 37.373383
-373.79767 33.981701 45.667229
-374.59995 0.00010770001 54.471321
-375.31149 -34.11903 62.279697
-375.13382 -68.205894 60.329525
-373.79767 -101.94464 45.667221
-302.83286 -110.12103 -733.07916
-299.32632 -136.05734 -771.55853
-301.68872 -164.55743 -745.63458
-306.3923 -194.97687 -694.01904
-330.4819 -240.35045 -429.66666
-389.93552 -815.31958 222.75902
-389.82077 -850.51782 221.49974
-342.5842 -778.60034 -296.86008
-341.84073 -807.98706 -305.01837
-341.77133 -838.89307 -305.78006
-341.88412 -870.25043 -304.54227
-342.4303 -902.77063 -298.54889
-379.37411 1327.8097 523.17542
-377.20798 1282.5074 497.02771
-375.06647 1237.7196 471.17725
-372.94913 1193.4374 445.61853
-370.85739 1149.6578 420.36935
-368.78714 1106.3617 395.37927
-366.73993 1063.5459 370.66687
-364.7171 1021.2079 346.24936
-362.65915 979.17993 321.40796
-360.62256 937.61877 296.82358
-358.60867 896.52197 272.51428
-356.61719 855.88135 248.47476
-354.64767 815.68976 224.7005
-352.69812 775.93622 201.16733
-350.77155 736.6203 177.91171
-348.86594 697.73212 154.90854
-347.37463 660.0119 136.90747
-345.99057 622.7832 120.20007
-344.75653 586.08643 105.30402
-264.54605 423.27377 -862.92212
-261.39365 392.09061 -900.97504
-259.77884 363.69052 -920.46759
-258.64288 336.2359 -934.17969
-257.9418 309.53021 -942.6424
-257.30038 283.03049 -950.38531
-256.71954 256.7196 -957.39667
-256.14664 230.532 -964.31183
-255.57899 204.46332 -971.16412
-255.32228 178.72577 -974.26276
-255.11658 153.07002 -976.74591
-254.91475 127.45745 -979.18237
-254.73619 101.89462 -981.33765
-254.71236 76.413872 -981.62549
-254.71765 50.943634 -981.56146
-254.73531 25.473618 -981.34833
-254.73619 4.2734337e-05 -981.33759
-254.72647 -25.472597 -981.45483
-254.69821 -50.939602 -981.79602
-254.59846 -76.379379 -983.00018
-254.73354 -101.8932 -981.36969
-254.68056 -127.34023 -982.00928
-270.28174 -162.16902 -793.6861
-274.95639 -192.46944 -737.25836
-297.61194 -238.08943 -463.78156
-330.00082 -297.00049 -72.813255
-352.85397 -776.27856 203.04866
-351.96307 -809.51483 192.29454
-315.56326 -757.35175 -247.08989
-312.43753 -781.09381 -284.82053
-312.23703 -811.8161 -287.24121
-312.20782 -842.961 -287.59354
-312.40567 -874.73566 -285.20554
-343.44443 1335.6174 550.10327
-341.47198 1290.0055 523.64832
-339.52206 1244.9142 497.49548
-337.5943 1200.3353 471.63968
-335.68997 1156.2655 446.09857
-333.80536 1112.6847 420.8215
-331.94177 1069.5903 395.82651
-330.10052 1026.9796 371.13116
-328.27798 984.83398 346.68631
-326.47543 943.15155 322.51028
-324.69257 901.92419 298.59808
-322.9212 861.12341 274.8399
-321.12692 820.65802 250.7746
-319.35248 780.63971 226.9752
-317.59756 741.0611 203.43759
-315.86182 701.9151 180.15695
-314.43027 663.79742 160.95691
-313.17917 626.3584 144.17697
-312.03076 589.3916 128.77403
-310.92438 552.7547 113.93456
-236.54372 394.23965 -883.68085
-234.96835 365.50644 -904.80994
-234.00368 338.00543 -917.74854
-233.2903 311.05392 -927.31647
-232.54282 284.21915 -937.34204
-231.88626 257.65155 -946.14783
-231.24635 231.24657 -954.73041
-230.61963 204.99536 -963.13635
-230.02031 178.90482 -971.1748
-229.40895 152.93944 -979.37445
-228.804 127.11337 -987.48822
-228.22427 101.43311 -995.26349
-227.73534 75.911911 -1001.8215
-227.25003 50.500126 -1008.3304
-226.78546 25.198521 -1014.5615
-226.3344 9.7374163e-05 -1020.6113
-226.17181 -25.129997 -1022.7919
-225.99631 -50.221287 -1025.1458
-225.88205 -75.293808 -1026.6783
-225.71393 -100.31722 -1028.933
-225.80568 -125.4475 -1027.7026
-225.94304 -150.62865 -1025.8604
-244.63063 -190.2681 -775.21674
-265.35461 -235.87057 -497.26074
-294.20557 -294.20544 -110.3028
-314.72812 -769.33521 164.95157
-314.44672 -803.58594 161.17758
-283.46268 -755.90033 -254.38995
-282.42859 -784.52374 -268.25922
-282.33212 -815.62592 -269.55325
-282.37552 -847.12646 -268.97095
-282.68216 -879.45557 -264.85794
-307.16992 1343.8688 578.56085
-305.31564 1297.5918 550.58191
-303.56201 1252.1934 524.12152
-301.8284 1207.3137 497.9632
-300.116 1162.9497 472.12509
-298.42139 1119.0804 446.55563
-296.74582 1075.7037 421.27362
-295.09048 1032.8169 396.29578
-293.452 990.4007 371.57327
-291.83163 948.45294 347.12366
-290.22906 906.966 322.9429
-288.64539 865.9364 299.04736
-287.07751 825.34821 275.38986
-285.52661 785.19818 251.9883
-283.99371 745.48358 228.85884
-282.45819 706.14545 205.68945
-281.1058 667.6264 185.28362
-279.98889 629.9751 168.43062
-278.93378 592.73444 152.51025
-277.92731 555.85492 137.32385
-277.06125 519.49005 124.25578
-276.246 483.43054 111.95496
-275.5647 447.79279 101.6747
-208.40749 312.6113 -911.64948
-207.74298 285.64676 -921.67572
-207.15936 258.94937 -930.48181
-206.60951 232.43581 -938.77844
-206.02287 206.02295 -947.63055
-205.45316 179.7717 -956.22668
-204.88589 153.66447 -964.78619
-204.35016 127.71896 -972.86969
-203.8243 101.91226 -980.80438
-203.2941 76.235336 -988.80444
-202.74776 50.687149 -997.0481
-202.20851 25.276196 -1005.1846
-201.69638 0.00016700798 -1012.9122
-201.19095 -25.148712 -1020.5385
-200.64145 -50.160358 -1028.8296
-200.15492 -75.057968 -1036.1709
-199.83778 -99.91877 -1040.9563
-199.75151 -124.8446 -1042.2579
-200.18153 -150.136 -1035.7697
-214.99617 -188.12158 -812.23376
-233.54341 -233.54326 -532.37762
-259.07782 -291.46234 -147.09338
-277.71326 -763.7113 134.09383
-277.60043 -798.10107 132.39163
-252.44629 -757.33881 -247.15521
-252.21335 -788.16656 -250.66992
-252.17763 -819.57721 -251.20869
-252.30214 -851.51953 -249.33025
-253.11821 -885.91357 -237.01674
-270.49139 1352.4574 608.1817
-268.73157 1305.2678 577.83435
-267.17896 1259.558 551.06079
-265.6442 1214.3735 524.59479
-264.12833 1169.7112 498.45447
-262.62833 1125.5502 472.58771
-261.14658 1081.8931 447.0361
-259.68146 1038.726 421.771
-258.23138 996.03558 396.76538
-256.79871 953.8241 372.05978
-255.38184 912.07825 347.62677
-253.97926 870.78632 323.44025
-252.59325 829.94928 299.53934
-251.22227 789.55603 275.89783
-249.86612 749.59839 252.51147
-248.52332 710.06671 229.35577
-247.3197 671.29639 208.60022
-246.34819 633.46692 191.84674
-245.42525 596.03284 175.93129
-244.54524 558.96075 160.7562
-243.77202 522.36871 147.42256
-243.02435 486.04886 134.52939
-242.36461 450.1058 123.15272
-242.02354 414.89767 117.27116
-241.76639 379.91867 112.83672
-241.43268 344.90396 107.08212
-241.08745 309.96985 101.12881
-240.8007 275.20108 96.183968
-240.61029 240.61044 92.900612
-240.59229 206.22212 92.589989
-179.80482 128.43211 -955.65216
-179.22954 102.41701 -965.57269
-178.76164 76.612206 -973.64142
-178.27885 50.936966 -981.96655
-177.80975 25.401464 -990.05603
-177.34126 0.00012566631 -998.1347
-176.86978 -25.266975 -1006.2653
-176.42682 -50.407543 -1013.9041
-175.97762 -75.418823 -1021.65
-175.58585 -100.33459 -1028.4059
-175.52353 -125.37385 -1029.4808
-176.04027 -150.89149 -1020.5698
-186.41338 -186.41328 -841.69165
-202.15102 -231.02963 -570.30585
-224.59901 -288.77017 -183.20396
-241.3092 -758.40009 104.95244
-223.61746 -734.74286 -200.13036
-221.89319 -760.77655 -229.86433
-221.76208 -792.00739 -232.12489
-221.75636 -823.66644 -232.22385
-221.92575 -855.99915 -229.30299
-233.52277 1362.2163 641.83966
-231.6402 1312.6282 603.96539
-230.3329 1266.8313 577.66461
-229.04028 1221.5485 551.65936
-227.72679 1176.5886 525.23376
-226.42711 1132.1356 499.08612
-225.14102 1088.1819 473.21228
-223.87062 1044.7296 447.65353
-222.61446 1001.7653 422.38156
-221.3712 959.27533 397.36908
-220.14287 917.26215 372.65677
-218.92807 875.71246 348.21725
-217.72662 834.6189 324.04593
-216.53723 793.96991 300.11713
-215.3618 753.76648 276.46924
-214.19905 713.99701 253.07697
-213.12814 674.90582 231.53165
-212.27724 636.83191 214.41267
-211.47673 599.1842 198.3078
-210.71245 561.89984 182.9315
-210.0417 525.10443 169.43736
-209.40308 488.60736 156.5891
-208.81381 452.43018 144.73402
-208.48393 416.96805 138.09735
-208.26033 381.81079 133.59868
-207.97438 346.62418 127.84597
-207.66965 311.50461 121.71509
-207.4146 276.55292 116.58386
-207.22736 241.7655 112.81706
-207.21275 207.213 112.5231
-207.203 172.66933 112.32719
-207.46535 138.31038 117.60523
-207.73033 103.86534 122.93599
-208.04309 69.3479 129.22826
-208.59444 34.766006 140.3205
-209.14772 0.0002384723 151.45168
-209.69397 -34.948845 162.44142
-152.33568 -50.778378 -991.51849
-151.57713 -75.78846 -1006.7792
-151.2562 -100.83735 -1013.2358
-151.2043 -126.00347 -1014.2799
-151.6684 -151.66823 -1004.9429
-158.44919 -184.85727 -868.52405
-171.42786 -228.57033 -607.41333
-190.75056 -286.1257 -218.67036
-194.61034 -324.35043 -141.01778
-194.98396 -357.47043 -133.50111
-194.98741 -389.97464 -133.43172
-205.43478 -753.2608 76.753258
-191.75134 -735.04657 -198.53665
-191.08299 -764.33197 -211.98248
-191.02338 -795.93054 -213.18217
-191.06062 -827.92932 -212.4323
-191.27121 -860.72028 -208.19585
-194.08304 1319.7649 629.30347
-192.98076 1273.6731 602.69232
-191.89195 1228.1085 576.40582
-190.81534 1183.0553 550.41437
-189.75075 1138.5045 524.71301
-188.69798 1094.4484 499.29691
-187.6434 1050.803 473.83701
-186.58443 1007.5563 448.27121
-185.53734 964.79431 422.99249
-184.50102 922.50519 397.97333
-183.47713 880.69043 373.25443
-182.46452 839.33691 348.80798
-181.46306 798.43774 324.63013
-180.47162 757.9809 300.69489
-179.49184 717.96759 277.04083
-178.56776 678.55774 254.7319
-177.84241 640.23267 237.21991
-177.16733 602.36908 220.92197
-176.52194 564.87024 205.34134
-175.95454 527.86395 191.64314
-175.41844 491.17184 178.70026
-174.91222 454.77188 166.47935
-174.6187 419.08502 159.39308
-174.43626 383.75998 154.98848
-174.20792 348.41605 149.47594
-173.96867 313.14371 143.69951
-173.75386 278.00638 138.51393
-173.61919 243.06699 135.26244
-173.60605 208.32741 134.94543
-173.61261 173.61275 135.10382
-173.82951 139.06374 140.34033
-174.05275 104.43182 145.72928
-174.33527 69.734283 152.55022
-174.79985 34.960133 163.7666
-175.2661 0.00019861838 175.02258
-175.70709 -35.141159 185.66907
-175.89642 -70.358368 190.23964
-126.2088 -75.725204 -1009.3254
-125.16418 -100.13123 -1034.5449
-125.17698 -125.17684 -1034.2358
-126.23353 -151.48022 -1008.7285
-130.94797 -183.32698 -894.91205
-141.35135 -226.16214 -643.75201
-157.51707 -283.53055 -253.4769
-159.87276 -319.74533 -196.60567
-160.13412 -352.29495 -190.29568
-160.10411 -384.24966 -191.02036
-170.0386 -748.16968 48.819504
-160.24451 -737.12457 -187.63103
-159.98695 -767.93738 -193.84862
-159.94794 -799.73956 -194.79044
-160.03853 -832.2002 -192.60345
-160.67278 -867.633 -177.29134
-156.1144 1326.9725 654.89355
-155.22377 1280.5963 628.01654
-154.34245 1234.7399 601.41974
-153.47186 1189.4072 575.14777
-152.61105 1144.583 549.17041
-151.75984 1100.2589 523.48279
-150.91806 1056.4265 498.08023
-150.08559 1013.0779 472.95779
-149.26224 970.2049 448.11108
-148.44788 927.79932 423.53555
-147.62083 885.7251 398.57739
-146.8015 844.10858 373.85175
-145.99121 802.9516 349.39899
-145.1898 762.24689 325.21463
-144.39645 721.9823 301.27307
-143.63068 682.24585 278.16342
-143.0378 643.67029 260.27182
-142.49124 605.58783 243.77786
-141.97079 567.88348 228.07205
-141.50725 530.65228 214.08379
-141.07518 493.76337 201.04478
-140.65718 457.13605 188.43044
-140.40784 421.22375 180.90596
-140.2691 385.74014 176.71927
-140.08989 350.22482 171.31081
-139.91179 314.80182 165.93642
-139.73747 279.47513 160.67601
-139.6465 244.38148 157.93065
-139.63588 209.45395 157.61008
-139.65314 174.56653 158.13094
-139.82458 139.82472 163.30458
-140.01646 105.01246 169.09502
-140.24968 70.125 176.13338
-140.62488 35.156406 187.45549
-140.99126 0.00014721382 198.51201
-141.3439 -35.335884 209.15408
-141.48477 -70.742149 213.40524
-99.384941 -74.538658 -1057.0695
-98.694649 -98.694511 -1077.9009
-98.783562 -123.47939 -1075.2177
-99.701241 -149.55182 -1047.5244
-103.82635 -181.69591 -923.03802
-111.90203 -223.80382 -679.33307
-124.881 -280.98209 -287.6575
-126.07476 -315.18683 -251.63315
-126.298 -347.31927 -244.89607
-126.27467 -378.82388 -245.60033
-135.13692 -743.25299 21.841925
-128.71501 -740.11133 -171.95616
-128.63612 -771.81677 -174.33667
-128.62375 -803.89832 -174.71048
-128.71727 -836.66223 -171.888
-117.7294 1334.2667 680.78998
-117.05347 1287.5884 653.59229
-116.38525 1241.443 626.70538
-115.72522 1195.8275 600.14819
-115.07265 1150.7268 573.89026
-114.42738 1106.1316 547.92706
-113.78932 1062.0338 522.25305
-113.15833 1018.4251 496.86429
-112.5343 975.29761 471.75516
-111.91711 932.64301 446.9216
-111.30667 890.45355 422.35892
-110.70284 848.72198 398.06287
-110.10552 807.44061 374.02881
-109.50809 766.55688 349.99011
-108.90688 726.04608 325.79932
-108.31224 685.9776 301.87265
-107.86114 647.16699 283.72131
-107.44257 608.84131 266.87967
-107.04959 570.93121 251.06741
-106.69356 533.46796 236.74165
-106.3676 496.38223 223.62621
-106.04414 459.52475 210.61111
-105.84602 423.38428 202.63969
-105.7475 387.74103 198.67508
-105.61624 352.05423 193.39395
-105.49138 316.4743 188.3696
-105.37234 280.99316 183.58
-105.30437 245.71042 180.84518
-105.30337 210.60695 180.80475
-105.31846 175.53094 181.41202
-105.44595 140.59476 186.54182
-105.60258 105.6028 192.84413
-105.77947 70.519905 199.9617
-106.06404 35.354874 211.41202
-106.33066 9.6077936e-05 222.13956
-106.59808 -35.532543 232.9005
-106.69614 -71.13063 236.84569
-74.005325 -74.005249 -1078.5311
-73.799149 -98.398682 -1086.8271
-73.883507 -123.13914 -1083.4326
-74.323532 -148.64694 -1065.7275
-77.123932 -179.95583 -953.04803
-83.060486 -221.49455 -714.17963
-92.826401 -278.47919 -321.22925
-93.250992 -310.83658 -304.14532
-93.403938 -342.4809 -297.99136
-93.386917 -373.54761 -298.67609
-97.998314 -718.65411 -113.12775
-97.017319 -743.79938 -152.60004
-96.955856 -775.64673 -155.07307
-96.96653 -808.0542 -154.64388
-97.057053 -841.16101 -151.00116
-78.912025 1341.5045 706.48645
-78.464058 1294.6571 679.44904
-78.014099 1248.2257 652.29205
-77.568863 1202.3176 625.41962
-77.129089 1156.9366 598.87701
-76.694275 1112.0673 572.63348
-76.264336 1067.7008 546.68427
-75.839188 1023.8293 521.02417
-75.418755 980.44403 495.64908
-75.002953 937.53705 470.55328
-74.591339 895.09625 445.71005
-74.184212 853.11865 421.13788
-73.781509 811.5968 396.83258
-73.383522 770.52716 372.81195
-72.989441 729.89441 349.02692
-72.599571 689.69604 325.49622
-72.295921 650.66339 307.16953
-72.015274 612.13 290.23065
-71.75116 574.00946 274.28976
-71.508804 536.31622 259.66263
-71.290215 499.03171 246.46953
-71.068146 461.94308 233.06638
-70.927826 425.5672 224.59727
-70.865906 389.76273 220.86002
-70.786354 353.93192 216.05876
-70.703575 318.16623 211.06294
-70.63356 282.53439 206.83685
-70.587067 247.0549 204.03081
-70.592155 211.77666 204.33789
-70.602333 176.50595 204.95222
-70.69133 141.38274 210.32382
-70.799995 106.20016 216.8824
-70.919266 70.919464 224.08066
-71.103569 35.552017 235.20442
-71.282951 0.00012830552 246.03123
-71.463242 -35.731373 256.9126
-71.523422 -71.523346 260.54501
-49.522964 -74.284317 -1067.3
-49.346661 -98.693222 -1077.941
-49.376179 -123.44029 -1076.1594
-49.61042 -148.83121 -1062.0216
-50.92799 -178.24788 -982.49939
-54.80809 -219.23227 -748.31451
-61.33786 -276.02029 -354.20822
-61.320961 -306.6048 -355.22784
-61.414009 -337.77689 -349.61237
-61.407333 -368.44376 -350.01517
-65.332787 -718.66071 -113.09258
-64.995514 -747.4483 -133.44899
-64.964767 -779.57721 -135.30496
-64.967926 -812.09894 -135.1142
-65.021111 -845.27441 -131.90387
-66.253433 -894.42133 -57.526859
-39.605976 1346.6033 724.58893
-39.41135 1300.5746 701.09515
-39.215691 1254.9025 677.47729
-38.994213 1208.8206 650.74225
-38.77174 1163.1523 623.8877
-38.551796 1118.0024 597.33789
-38.334332 1073.3617 571.08759
-38.119503 1029.2268 545.15552
-37.906872 985.5788 519.48914
-37.696606 942.41528 494.10742
-37.488655 899.72778 469.00537
-37.282986 857.50867 444.17917
-37.07975 815.75458 419.64627
-36.878532 774.4494 395.35709
-36.679485 733.58997 371.33008
-36.482578 693.16919 347.56122
-36.327068 653.88751 328.78952
-36.186958 615.17853 311.87653
-36.057121 576.91425 296.20422
-35.937531 539.06323 281.76813
-35.828861 501.60419 268.65082
-35.720848 464.37109 255.61246
-35.64822 427.77866 246.84543
-35.618492 391.80359 243.25682
-35.583469 355.83481 239.02914
-35.541634 319.87479 233.97952
-35.511742 284.09406 230.37102
-35.488068 248.41652 227.51329
-35.493214 212.9593 228.1342
-35.498356 177.49194 228.75514
-35.546452 142.18585 234.56073
-35.601402 106.80429 241.19409
-35.661198 71.322472 248.41212
-35.752487 35.752659 259.43158
-35.844246 0.0002056489 270.50772
-35.936829 -35.936642 281.68326
-35.961807 -71.923378 284.69867
-24.862968 -74.588776 -1055.0496
-24.754642 -99.018509 -1068.1259
-24.752472 -123.76227 -1068.3876
-24.849092 -149.09442 -1056.7246
-25.2246 -176.57204 -1011.397
-27.12698 -217.01572 -781.75916
-30.384287 -273.45853 -388.56763
-30.248667 -302.48657 -404.93802
-30.25602 -332.8161 -404.05087
-30.258013 -363.0961 -403.81012
-33.011353 -429.14752 -71.45266
-33.098953 -463.38522 -60.878052
-33.098953 -496.48413 -60.878063
-32.906807 -526.50885 -84.072319
-32.906807 -559.41559 -84.072449
-32.906807 -592.32245 -84.072273
-32.906807 -625.22919 -84.072433
-32.906807 -658.13611 -84.072289
-32.906956 -691.0459 -84.054672
-32.729561 -720.05011 -105.46828
-32.658264 -751.13983 -114.07431
-32.63998 -783.3595 -116.28115
-32.637226 -815.93054 -116.61381
-32.646942 -848.8205 -115.44061
-32.698673 -882.86407 -109.19623
-32.709156 -915.85632 -107.93075
-32.721832 -948.93304 -106.40082
-32.746777 -982.40314 -103.38999
-32.780674 -1016.2007 -99.297935
-32.820511 -1050.2562 -94.489342
-8.6179043e-22 1351.1416 740.70105
-1.5868602e-21 1304.1779 714.27539
-5.7164789e-22 1258.3685 690.55237
-5.3472042e-22 1213.0059 667.0387
-4.6000819e-22 1168.0906 643.75714
-2.0932722e-21 1123.6218 620.72821
-1.8108064e-21 1079.0768 595.72662
-1.8270004e-21 1034.6708 569.49445
-1.1351722e-21 990.76288 543.55634
-4.6695083e-22 947.34442 517.90778
-1.2612291e-21 904.40765 492.54321
-7.8561302e-22 861.94904 467.48193
-1.3417698e-21 819.95123 442.67212
-3.8735615e-22 778.41156 418.13321
-1.3390955e-21 737.32294 393.86047
-1.0077054e-21 696.68079 369.87143
-8.8147646e-22 657.14667 350.64706
-1.2511408e-21 618.22382 333.50006
-9.5786071e-22 579.76263 317.69388
-5.7074316e-22 541.71826 303.13675
-9.2590066e-22 504.03528 289.61295
-2.0218467e-21 466.6698 276.95605
-5.242448e-22 429.97794 268.96716
-2.9383966e-22 393.81796 265.36279
-1.9441196e-21 357.70258 261.57489
-1.9389998e-21 321.58636 256.9335
-1.7258722e-21 285.63501 253.62138
-7.5854512e-22 249.79955 251.36047
-9.5279453e-22 214.14508 251.98837
-7.4411061e-22 178.48805 252.80467
-7.3006217e-22 143.00455 259.26355
-1.823705e-21 107.42079 265.99451
-1.6691386e-21 71.73838 273.50748
-1.6778975e-21 35.9617 284.65607
-1.0351433e-21 0.00016314819 295.86227
-1.493929e-21 -36.149437 307.36261
-1.225316e-21 -72.321037 308.69452
-8.1789583e-22 -74.889061 -1042.9646
-4.457519e-22 -99.343834 -1058.3065
-1.4146986e-21 -124.08496 -1060.5953
-3.8657749e-22 -149.35571 -1051.4698
-9.1083087e-22 -176.01302 -1021.0374
-1.6527007e-21 -214.84428 -814.52246
-1.4058936e-21 -270.84833 -423.57559
-1.497599e-21 -298.47882 -453.31613
-1.0240811e-21 -328.23337 -454.34058
-9.2142771e-22 -358.26343 -452.42282
-9.8781985e-22 -427.32715 -88.355804
-1.0446228e-21 -460.4086 -86.543991
-1.1025293e-21 -493.29486 -86.544052
-7.6827878e-22 -524.49536 -99.262451
-9.8604655e-22 -557.27637 -99.262642
-9.2907317e-22 -590.05737 -99.262482
-1.1468409e-21 -622.83826 -99.262596
-1.4281102e-21 -655.61914 -99.262718
-1.4135143e-21 -688.40015 -99.262543
-1.1077921e-21 -717.95514 -116.96373
-1.245544e-21 -743.16797 -155.91374
-1.5134881e-21 -774.16522 -162.52454
-1.7991613e-22 -806.91113 -160.1635
-1.661826e-21 -841.00543 -151.72353
-1.5100334e-21 -880.84882 -118.20591
-1.3474972e-21 -913.67987 -117.31375
-1.5035364e-21 -946.71069 -115.65099
-2.1100553e-21 -979.95245 -113.25049
-1.5571658e-21 -1013.343 -110.4257
-1.5248342e-21 -1046.9958 -106.78785
39.89072 1356.2845 758.96045
39.630547 1307.8083 727.55499
39.432716 1261.8472 703.67444
39.236847 1216.3424 680.03076
39.043121 1171.2939 656.64618
38.851093 1126.682 633.46655
38.660946 1082.5066 610.51373
38.472855 1038.7671 587.80884
38.286385 995.44604 565.29956
38.093216 952.33069 541.98236
37.880878 909.14142 516.35095
37.670895 866.43085 491.00397
37.463226 824.1911 465.9361
37.257835 782.41479 441.14359
37.054874 741.09766 416.64371
36.853928 700.22473 392.38687
36.690845 660.43549 372.70114
36.547192 621.30237 355.36044
36.414761 582.63635 339.37509
36.293507 544.40271 324.73837
36.177868 506.49045 310.77954
36.076775 468.99844 298.57666
36.016815 432.2019 291.33862
35.988586 395.87454 287.93115
35.958813 359.58829 284.33762
35.926281 323.33676 280.41037
35.898369 287.18716 277.04089
35.885044 251.1954 275.43228
35.890301 215.342 276.06717
35.902229 179.51137 277.5069
35.958462 143.83405 284.29486
36.013107 108.0395 290.89114
36.079433 72.158974 298.89752
36.172878 36.172966 310.17752
36.268063 0.00012895632 321.66718
36.35799 -36.35783 332.52246
36.354034 -72.70787 332.04453
25.079498 -75.238419 -1028.9124
24.91618 -99.664635 -1048.6265
24.886385 -124.43179 -1052.2231
24.945454 -149.67261 -1045.0929
25.152742 -176.06902 -1020.0709
26.589422 -212.71521 -846.64825
28.743128 -258.68805 -586.6731
29.457479 -294.57471 -500.44315
29.346514 -322.81149 -513.83795
29.37632 -352.51575 -510.23999
32.933361 -428.13354 -80.867081
32.965874 -461.52206 -76.942558
32.965874 -494.48801 -76.94223
32.839291 -525.42847 -92.22242
32.839291 -558.26776 -92.222733
32.839291 -591.10712 -92.222664
32.839291 -623.94641 -92.222603
32.839291 -656.78571 -92.222542
32.839291 -689.62506 -92.222473
32.550606 -716.11316 -127.07008
31.674152 -728.50543 -232.86693
31.438164 -754.51587 -261.35327
31.409266 -785.23145 -264.84198
31.418533 -816.88171 -263.72296
31.500715 -850.51917 -253.80289
32.681946 -915.09436 -111.21561
32.689217 -947.98712 -110.33787
32.70013 -981.00385 -109.0205
32.713818 -1014.1283 -107.36819
32.728977 -1047.3271 -105.53854
79.481918 1311.4517 740.88257
79.084045 1265.3448 716.86902
78.690559 1219.7039 693.12006
78.300552 1174.5085 669.58099
77.914398 1129.7588 646.27435
77.53244 1085.4541 623.22089
77.153801 1041.5767 600.3681
76.778839 998.12494 577.73743
76.407906 955.09888 555.34937
76.040146 912.48206 533.15314
75.675903 870.27319 511.16946
75.315529 828.47095 489.41888
74.901245 786.4632 464.41479
74.490738 744.90753 439.63864
74.084717 703.80499 415.13251
73.750771 663.75702 394.97726
73.460571 624.41498 377.46225
73.193054 585.54443 361.31641
72.948486 547.11389 346.55542
72.709862 508.96902 332.1532
72.515724 471.35239 320.43549
72.40815 434.44904 313.94327
72.361435 397.98813 311.1236
72.298767 361.49396 307.34119
72.245087 325.10297 304.10141
72.194679 288.7789 301.05893
72.173401 252.60707 299.77454
72.187584 216.56281 300.63077
72.222359 180.55618 302.72946
72.336143 144.67253 309.59692
72.441353 108.66209 315.94717
72.584503 72.584679 324.58704
72.77433 36.387199 336.04407
72.969498 9.2962749e-05 347.82352
73.133675 -36.566757 357.73233
73.099106 -73.098984 355.64597
50.402126 -75.603104 -1014.2381
50.019314 -100.03854 -1037.3429
49.920403 -124.80089 -1043.3126
49.999737 -149.99908 -1038.5244
50.33358 -176.16728 -1018.3754
52.657013 -210.62787 -878.14362
57.789009 -260.05038 -568.40021
58.154297 -290.77142 -546.35327
58.219048 -320.20471 -542.44495
58.279781 -349.67853 -538.77942
68.544067 -719.71265 80.725243
65.879715 -724.6767 -80.082825
63.133537 -726.03552 -245.8295
61.800453 -741.60541 -326.28796
61.277485 -765.96851 -357.85196
61.213406 -795.77405 -361.71967
61.233051 -826.646 -360.53409
61.323776 -858.53271 -355.05807
65.907501 -955.65863 -78.406128
65.975571 -989.63324 -74.297913
66.061592 -1023.9547 -69.105545
66.147545 -1058.3606 -63.918037
119.55595 1315.1156 754.28473
118.95646 1268.8691 730.16296
118.36231 1223.0775 706.2561
117.77407 1177.741 682.58722
117.19227 1132.8589 659.17725
116.61558 1088.4124 635.97278
116.04452 1044.4009 612.99536
115.47964 1000.8238 590.26642
114.91964 957.66382 567.73383
114.36504 914.92041 545.41827
113.81635 872.59229 523.34082
113.27232 830.66394 501.4509
112.73347 789.13434 479.7692
112.2003 748.00208 458.3157
111.67157 707.25348 437.0415
111.18594 667.11584 417.50116
110.74567 627.55878 399.78625
110.34091 588.48505 383.50006
109.96928 549.8465 368.54645
109.60122 511.47256 353.73709
109.32286 473.73239 342.53671
109.17934 436.71738 336.76212
109.12475 400.12411 334.56506
109.03944 363.465 331.13254
108.96342 326.89044 328.07413
108.89881 290.397 325.47437
108.87191 254.03465 324.39221
108.9015 217.80322 325.58273
108.96828 181.61389 328.2692
109.13285 145.51059 334.8913
109.29195 109.2922 341.2934
109.52224 73.015015 350.55942
109.81639 36.605583 362.39505
110.11267 0.00010243931 374.31659
110.33539 -36.778214 383.27768
110.24708 -73.497879 379.7244
76.085007 -76.084831 -994.85138
75.303017 -100.40397 -1026.316
75.101837 -125.16965 -1034.411
75.168694 -150.3373 -1031.7208
75.588928 -176.37405 -1014.8118
78.217987 -208.58118 -909.02667
87.769562 -263.30859 -524.70093
87.39402 -291.31332 -539.81146
87.429382 -320.57428 -538.38867
87.947136 -351.78848 -517.55579
104.73438 -733.1405 157.9104
98.867447 -725.02795 -78.156273
98.700523 -756.70392 -84.872864
92.512344 -740.09863 -333.86603
90.793488 -756.61224 -403.02783
89.791389 -778.19189 -443.34894
89.57534 -806.17792 -452.04224
89.514587 -835.46936 -454.48672
89.655144 -866.66632 -448.83105
159.85541 1318.8071 767.78802
159.05074 1272.406 743.50513
158.25414 1226.4697 719.46515
157.48824 1181.1619 696.35248
156.73224 1136.309 673.53833
155.98347 1091.8845 650.94232
155.24265 1047.8881 628.58563
154.508 1004.3019 606.41589
153.78027 961.12677 584.45496
153.05937 918.35657 562.69983
152.34521 875.98499 541.14777
151.63768 834.00726 519.79614
150.93668 792.41779 498.64151
150.24213 751.21069 477.68176
149.55394 710.38141 456.91397
148.92259 670.15192 437.8613
148.34895 630.48328 420.54999
147.82654 591.30652 404.78525
147.33588 552.50977 389.97794
146.86313 514.02094 375.71161
146.508 476.15131 364.99457
146.34821 439.04474 360.17224
146.28482 402.28354 358.25952
146.19095 365.47745 355.42651
146.0921 328.70737 352.44354
146.01733 292.03485 350.18716
145.99483 255.49112 349.50845
146.03909 219.05875 350.84402
146.14368 182.67978 354.00034
146.35768 146.35773 360.45834
146.57231 109.92945 366.93515
146.90718 73.453735 377.04102
147.31815 36.829731 389.4429
147.74776 0.00017153473 402.40775
147.98363 -36.995739 409.52554
147.79755 -73.898689 403.91019
102.2188 -76.664062 -971.55029
100.78213 -100.78203 -1014.9059
100.45001 -125.56248 -1024.9281
100.48987 -150.73466 -1023.7256
100.94034 -176.64554 -1010.1313
103.28697 -206.57375 -939.31555
115.95061 -260.88882 -557.15594
117.13384 -292.83453 -521.44904
117.20252 -322.30682 -519.37659
117.96615 -353.89825 -496.33206
122.83623 -399.2175 -349.36441
122.79927 -429.79736 -350.47968
122.76182 -460.35666 -351.61002
143.76419 -754.76184 282.19266
131.82504 -725.03766 -78.102669
131.56181 -756.48029 -86.046471
131.53061 -789.18359 -86.988235
121.05798 -756.61224 -403.02783
118.98356 -773.39301 -465.62909
117.46817 -792.90997 -511.35995
116.7448 -817.21356 -533.18939
116.55817 -845.04663 -538.82123
116.53691 -874.02673 -539.46295
116.7383 -904.72174 -533.38562
201.26338 1328.3385 802.65234
199.77687 1278.5721 766.76489
198.72307 1232.0833 741.32379
197.7921 1186.7527 718.84808
196.83815 1141.6614 695.81781
195.89337 1097.0031 673.00873
194.95761 1052.7711 650.4176
194.03076 1008.9601 628.04114
193.11266 965.56348 605.87659
192.20322 922.57556 583.92065
191.30231 879.99072 562.17053
190.40979 837.80304 540.6236
189.52654 796.01166 519.30005
188.6505 754.60205 498.15033
187.7825 713.57373 477.1951
186.98621 673.1507 457.97098
186.25708 633.27417 440.36789
185.60486 593.93567 424.62204
184.98793 554.96375 409.72794
184.41025 516.34882 395.78186
184.00287 478.40768 385.94647
183.83157 441.19598 381.81134
183.75616 404.26382 379.99075
183.68539 367.37097 378.28259
183.62848 330.5314 376.90808
183.53488 293.65604 374.64853
183.60368 257.04535 376.30981
183.65878 220.39067 377.63953
183.88586 183.88611 383.12216
184.17169 147.33757 390.0224
184.4612 110.67681 397.01144
184.97115 73.98848 409.32321
185.51299 37.102787 422.40408
185.94028 0.00013729303 432.71988
186.11174 -37.222187 436.85931
185.73907 -74.295494 427.86212
184.83992 -110.90389 406.15466
126.48826 -101.19038 -1002.5789
125.97247 -125.97237 -1015.0311
125.9444 -151.13307 -1015.7088
126.39773 -176.95662 -1004.7645
128.05637 -204.89008 -964.72131
143.61787 -258.51196 -589.03345
147.10217 -294.20416 -504.9147
147.17291 -323.78027 -503.20715
147.91968 -355.00711 -485.17859
152.84375 -397.39355 -366.30087
152.75414 -427.71143 -368.46454
152.66525 -457.99567 -370.61041
164.78796 -725.06689 -77.942207
164.40369 -756.25696 -87.219147
164.36397 -788.94696 -88.178246
164.41031 -822.05157 -87.059242
149.02934 -774.95258 -458.38849
146.62421 -791.77063 -516.45404
144.62895 -809.92206 -564.62341
143.12987 -830.15308 -600.81482
142.50461 -855.02747 -615.90991
142.36984 -882.69293 -619.16345
142.33784 -910.96216 -619.93579
142.69672 -941.79822 -611.27203
237.69481 1148.8585 725.77484
236.23363 1102.4237 696.37799
235.03069 1057.6381 672.17664
233.92307 1013.6669 649.89301
232.81108 970.0462 627.52155
231.70961 926.83856 605.362
230.61852 884.03766 583.41089
229.53766 841.63806 561.66559
228.46689 799.63428 540.12305
227.40605 758.02039 518.78076
226.35501 716.7912 497.63586
225.38162 676.14514 478.05276
224.50461 636.09656 460.40814
223.72176 596.59174 444.65881
222.97595 557.43988 429.65424
222.29898 518.69769 416.03464
221.83691 480.64691 406.73853
221.65508 443.31042 403.08032
221.66177 406.37991 403.21475
221.53587 369.22672 400.68204
221.5715 332.35742 401.39908
221.60269 295.47043 402.02667
221.70972 258.6615 404.17947
221.88046 221.88063 407.61478
222.21829 185.18207 414.41116
222.56725 148.37823 421.43179
222.9624 111.48141 429.38193
223.61848 74.53952 442.58102
224.1769 37.362957 453.81549
224.55377 0.00022999014 461.39767
224.61557 -37.435696 462.64078
224.05042 -74.68338 451.27075
222.86546 -111.43268 427.43146
152.39149 -101.5943 -990.39526
151.65535 -126.37933 -1005.2056
151.53386 -151.53381 -1007.6494
151.96541 -177.29283 -998.96777
153.46219 -204.6161 -968.85486
170.78557 -256.17822 -620.33539
177.25021 -295.41702 -490.2764
177.28658 -325.02533 -489.54495
178.03273 -356.06525 -474.53372
183.35376 -397.26636 -367.4826
183.2021 -427.47131 -370.53387
183.0507 -457.62677 -373.57971
198.02274 -726.08325 -72.365776
197.23764 -756.07758 -88.160477
197.1794 -788.71759 -89.331985
197.22264 -821.7608 -88.462433
197.50986 -855.87585 -82.684044
236.68394 -1065.0776 705.43781
173.65526 -810.39117 -562.6012
171.38986 -828.38434 -608.17767
169.39607 -846.98016 -648.28973
167.94835 -867.73291 -677.41577
167.32227 -892.38531 -690.01154
167.13763 -919.25684 -693.72583
167.1199 -947.0127 -694.08276
167.60732 -977.70917 -684.27686
273.13782 975.49237 653.81769
271.6416 931.3429 628.01654
270.2966 888.11774 604.82294
269.02399 845.50409 582.87677
267.76324 803.28992 561.13647
266.51569 761.47339 539.62299
265.27829 720.04144 518.28534
264.12155 679.1698 498.33734
263.0986 638.95386 480.69742
262.17975 599.26813 464.85254
261.30316 559.93542 449.73621
260.534 521.06812 436.47226
260.02548 482.90451 427.7034
259.84286 445.44507 424.55402
259.94662 408.48752 426.34351
259.94138 371.34503 426.25284
259.93478 334.202 426.13962
260.2189 297.39325 431.03876
260.32166 260.32172 432.81076
260.68454 223.44409 439.06873
261.09485 186.49655 446.14423
261.51709 149.43851 453.42548
262.06885 112.31545 462.94016
262.7746 75.078583 475.11029
263.21844 37.602707 482.7644
263.65976 0.00021991986 490.37433
263.5368 -37.64806 488.25409
262.75446 -75.072556 474.763
261.25137 -111.96473 448.84326
178.61386 -102.06492 -976.1897
177.52065 -126.80027 -995.04163
177.31743 -151.98619 -998.54602
177.7231 -177.72302 -991.55023
179.31705 -204.93362 -964.06384
197.46709 -253.88611 -651.07709
207.77869 -296.82663 -473.2601
207.83328 -326.59515 -472.31882
208.85971 -358.04504 -454.6185
214.81255 -398.93756 -351.96573
214.55443 -429.10883 -356.41684
214.29515 -459.20374 -360.88818
231.4789 -727.505 -64.564812
230.06116 -755.91516 -89.012611
229.97783 -788.4953 -90.449753
230.0159 -821.48517 -89.793495
230.21669 -855.09052 -86.330727
276.14908 -1065.1462 705.74451
277.30014 -1109.2006 725.59454
200.68523 -831.41003 -595.58264
197.7435 -847.47205 -646.31085
195.54187 -865.97095 -684.27686
193.50514 -884.59491 -719.39874
191.91064 -904.7215 -746.8949
191.01317 -927.77808 -762.37128
190.75595 -953.7796 -766.80676
190.90964 -981.82092 -764.15656
191.375 -1011.5535 -756.13177
309.9155 852.26782 619.98834
307.67972 807.65942 586.25275
306.03268 765.08203 561.401
304.55463 723.31732 539.09888
303.20807 682.21826 518.78064
302.04245 641.84027 501.19318
300.98593 601.97198 485.25177
299.9873 562.4765 470.18369
299.12616 523.47083 457.18979
298.58817 485.20599 449.07245
298.47748 447.71634 447.4017
298.60031 410.5755 449.25531
298.81134 373.5144 452.43967
298.94815 336.3168 454.50375
299.28763 299.28775 459.62634
299.61874 262.1666 464.62198
300.05164 225.03888 471.15427
300.5365 187.83554 478.47015
301.02756 150.51398 485.87967
301.73849 113.15214 496.60706
302.25061 75.562874 504.33405
302.76443 37.845783 512.08722
303.16583 0.00018212304 518.14355
302.82059 -37.852406 512.93463
301.80203 -75.450348 497.56564
300.00568 -112.5019 470.46078
205.2838 -102.64186 -958.78217
203.79108 -127.36927 -981.30579
203.46161 -152.59605 -986.27716
203.83136 -178.35236 -980.69769
205.43161 -205.43153 -956.55188
223.67543 -251.63477 -681.27374
238.73756 -298.42191 -454.00388
238.80254 -328.35342 -453.02335
240.13051 -360.19556 -432.9859
265.95395 -731.37323 -43.340183
262.88 -755.77997 -89.722397
262.76013 -788.28033 -91.531311
262.78363 -821.19873 -91.176796
262.98706 -854.70782 -88.107101
224.30545 -869.18353 -671.7674
221.36281 -885.45105 -716.16876
219.1694 -904.07373 -749.26447
217.08159 -922.59662 -780.7674
215.31517 -942.00378 -807.42035
213.93105 -962.68964 -828.3053
213.71944 -988.45239 -831.49805
213.75441 -1015.3335 -830.97028
213.89911 -1042.7581 -828.78705
214.0565 -1070.2823 -826.41241
343.539 687.07806 551.37189
341.6449 645.32953 525.96765
340.22968 604.85291 506.98593
339.02417 565.04065 490.81732
338.08282 525.9068 478.19196
337.52362 487.5343 470.69171
337.5719 450.09607 471.33896
337.77884 412.84079 474.11481
338.13293 375.70337 478.8645
338.54849 338.54861 484.4379
338.99631 301.33038 490.44424
339.47498 264.03625 496.86407
339.9917 226.66127 503.79462
340.55563 189.19769 511.35782
341.11963 151.60893 518.92249
341.72083 113.907 526.98615
342.25327 76.056526 534.12726
342.91714 38.101944 543.03168
343.26257 0.00024203463 547.66394
342.63638 -38.070641 539.26575
341.23053 -75.828804 520.4101
339.00504 -113.00153 490.56082
232.30016 -103.24447 -940.59674
230.33923 -127.96613 -966.89703
229.838 -153.22527 -973.61987
230.12277 -178.98428 -969.80023
231.77654 -206.02359 -947.61963
249.42303 -249.42284 -710.93958
270.03317 -300.03677 -434.51013
270.14462 -330.17664 -433.01541
271.85297 -362.4704 -410.10278
295.69107 -755.65485 -90.378761
295.53116 -788.08295 -92.523689
295.53909 -820.94171 -92.417526
295.72412 -854.31396 -89.935425
244.73656 -924.56024 -773.79572
242.34857 -942.46643 -805.82446
240.24042 -960.96149 -834.09955
238.39966 -980.08734 -858.78839
237.25076 -1001.7253 -874.19763
237.02876 -1027.1245 -877.17493
237.06956 -1053.6425 -876.62793
237.07553 -1080.0106 -876.54791
237.08827 -1106.4119 -876.37689
237.09763 -1132.7997 -876.25165
237.10103 -1159.1604 -876.20599
237.54228 -1187.7114 -870.2876
236.22342 -1207.364 -887.97668
379.94705 531.92609 530.09131
377.87155 491.23337 505.03772
378.11859 453.74237 508.01932
378.87717 416.76505 517.17633
381.59698 381.59726 550.00781
382.57074 -114.77109 561.76172
259.76505 -103.90603 -920.63385
257.11487 -128.55739 -952.62451
256.4104 -153.84616 -961.12817
256.67917 -179.67526 -957.88403
258.23468 -206.58774 -939.10718
274.72195 -247.24957 -740.0882
301.64954 -301.64932 -415.04349
301.84784 -332.03253 -412.64957
303.87302 -364.64746 -388.20364
328.58237 -755.73932 -89.935402
328.29456 -787.90674 -93.409554
328.27109 -820.67761 -93.69278
328.42667 -853.90924 -91.814857
268.09302 -965.1347 -820.10645
265.35446 -981.8114 -853.16382
263.87613 -1002.7292 -871.00854
263.50513 -1027.6699 -875.48724
263.42007 -1053.6803 -876.51385
263.3804 -1079.8596 -876.99274
263.35208 -1106.0786 -877.33466
263.32755 -1132.3083 -877.63092
263.29922 -1158.5164 -877.97272
262.37671 -1180.6951 -889.10846
261.95477 -1204.9918 -894.20178
261.95383 -1231.183 -894.21307
262.00708 -1257.6339 -893.57025
416.05032 453.87338 509.33542
414.83292 414.83298 495.97598
417.26413 379.33139 522.65509
287.84232 -104.66978 -897.58087
284.16202 -129.16435 -937.96729
283.26056 -154.50577 -947.85938
283.45035 -180.37735 -945.77698
284.92349 -207.21693 -929.61121
299.58377 -245.11397 -768.73346
333.8447 -303.49512 -392.76477
334.31012 -334.31 -387.65741
341.01846 -372.02005 -314.04175
361.94083 -756.78528 -84.445808
361.07562 -787.80127 -93.940666
360.99661 -820.44659 -94.80809
361.09821 -853.50458 -93.692856
361.83548 -888.14154 -85.601906
293.23404 -1172.936 -838.41382
288.37955 -1179.7344 -891.68542
288.22116 -1205.2883 -893.42365
288.22012 -1231.4858 -893.43481
288.22012 -1257.6876 -893.435
447.9574 447.95761 449.82779
447.33679 410.05875 443.58542
453.48318 377.90274 505.41318
311.53961 -129.80803 -922.42902
310.35397 -155.17694 -934.35547
310.43051 -181.08437 -933.58588
311.8537 -207.90247 -919.26935
324.01981 -243.01477 -796.88788
366.64804 -305.53992 -368.08102
367.75235 -337.10611 -356.97269
375.87143 -375.87134 -275.30099
396.41769 -759.80054 -68.621475
393.86899 -787.73792 -94.259254
393.73001 -820.27081 -95.657158
393.79861 -853.23016 -94.967232
394.14899 -886.83514 -91.442741
314.94427 -1181.041 -888.18054
314.49933 -1205.5807 -892.65619
314.49933 -1231.7891 -892.65631
314.62619 -1258.5046 -891.38037
479.56775 442.67807 396.72086
479.16595 405.44818 392.98965
468.85767 -144.26372 297.27246
339.21429 -130.46678 -906.52277
337.70532 -155.86372 -920.53412
337.61935 -181.79488 -921.33215
338.96869 -208.59595 -908.80322
348.04083 -240.95125 -824.56433
399.41476 -307.24203 -347.53497
400.72702 -339.07663 -335.34995
426.67044 -787.6991 -94.454147
426.45895 -820.11322 -96.417862
426.47418 -852.94824 -96.276291
426.76385 -886.35553 -93.586617
510.52283 437.59109 345.54993
510.20877 400.87869 342.84222
489.6167 -139.89029 165.29324
367.19626 -131.14137 -890.2392
365.2999 -156.55695 -906.58984
365.06134 -182.53044 -908.64691
366.28735 -209.30688 -898.07568
432.6214 -278.11356 -326.13123
432.54495 -308.96051 -326.7901
459.77676 -788.1886 -91.992348
459.18558 -819.97412 -97.089661
459.13431 -852.67798 -97.531418
459.34146 -885.87262 -95.745872
461.03812 -922.07623 -81.116425
540.62067 432.49673 294.30368
540.5199 396.38141 293.49271
480.92023 -128.24532 -186.12831
395.5542 -131.8512 -873.10114
393.17609 -157.27028 -892.23871
392.75989 -183.28775 -895.58813
393.94073 -210.10149 -886.08539
489.37793 -358.87704 -118.0659
494.04251 -790.46783 -80.528542
491.97574 -819.95953 -97.160263
491.84402 -852.52936 -98.220665
491.9538 -885.51678 -97.33699
492.53433 -919.39722 -92.665413
570.34387 427.75806 246.63641
570.28851 392.07349 246.21907
499.93198 -124.98289 -284.57996
424.16727 -132.5522 -856.18066
421.63239 -158.11209 -875.30481
421.19574 -184.27292 -878.59912
422.68921 -211.3445 -867.33173
524.29431 -360.45221 -100.78049
517.58521 -388.18863 -151.39679
524.79059 -819.98517 -97.036476
524.5517 -852.39642 -98.838806
524.59381 -885.25189 -98.521019
524.94995 -918.66229 -95.834015
599.44293 423.13623 200.14575
599.43713 387.87128 200.10477
517.99829 -121.88186 -378.16223
453.0845 -133.26006 -839.09106
450.4404 -158.97896 -857.86572
450.03458 -185.30829 -860.74719
451.78143 -212.603 -848.34326
558.14569 -820.80243 -93.090622
557.27148 -852.29742 -99.298012
557.2168 -884.99133 -99.686203
557.44312 -918.14154 -98.079086
559.521 -954.47693 -83.324829
630.81049 455.58554 174.03345
627.79169 418.52795 153.789
627.75 383.62503 153.5092
535.19196 -118.93143 -467.19855
482.31223 -133.97546 -821.81793
479.58862 -159.86266 -840.08301
479.19931 -186.35521 -842.69348
