# .PCD v0.7 - Point Cloud Data file format
VERSION 0.7
FIELDS x y z
SIZE 4 4 4
TYPE F F F
COUNT 1 1 1
WIDTH 1510
HEIGHT 1
VIEWPOINT 0 0 0 1 0 0 0
POINTS 1510
DATA ascii
-379.99969 126.66675 -233.77336
-380.1734 95.043518 -232.02621
-380.34402 63.390842 -230.31023
-380.50491 31.70875 -228.69165
-380.66757 0.00016537652 -227.05539
-380.832 -31.735905 -225.40131
-381.00156 -63.50008 -223.69609
-382.64706 -95.661743 -207.14339
-385.03699 -128.34555 -183.1026
-392.00201 -163.33405 -113.03989
-437.4086 -619.66211 343.71533
-437.71918 -656.57855 346.83939
-438.72559 -694.6488 356.9635
-440.31433 -733.85712 372.94464
-399.70691 -766.10486 -35.534409
-395.84628 -791.69244 -74.36937
-395.37933 -823.70679 -79.066269
-397.00681 -860.18127 -62.695454
-399.36288 -898.56647 -38.99511
-280.42761 1172.6974 -978.94739
-277.50681 1135.2552 -1010.9996
-276.89728 1107.5892 -1017.6883
-277.78058 1085.8696 -1007.9953
-279.56033 1067.4122 -988.4649
-281.36398 1048.7205 -968.672
-283.19009 1029.7823 -948.63281
-285.04105 1010.6003 -928.32092
-286.91537 991.16235 -907.75293
-288.81552 971.47052 -886.90112
-290.741 951.51611 -865.77136
-292.69128 931.29059 -844.36975
-294.66898 910.79517 -822.66711
-296.6496 889.94904 -800.93225
-298.61624 868.7019 -779.3512
-300.6102 847.17438 -757.46991
-302.62985 825.35431 -735.30701
-304.67795 803.24213 -712.83148
-306.75284 780.8255 -690.06256
-308.85733 758.10449 -666.96844
-310.98972 735.06677 -643.56818
-313.16388 711.73621 -619.70966
-315.80618 689.03186 -590.71381
-318.49347 665.94104 -561.22437
-321.27026 642.54077 -530.75238
-324.10117 618.73865 -499.68726
-326.98367 594.51599 -468.05545
-329.9826 569.96997 -435.14609
-332.94235 544.81488 -402.66653
-335.54279 518.56635 -374.13043
-338.06955 491.73764 -346.40244
-340.27032 464.00504 -322.2515
-342.19107 435.51605 -301.17429
-342.63937 404.93762 -296.25449
-342.54352 373.6839 -297.30624
-342.46222 342.46234 -298.19849
-342.46515 311.33215 -298.16653
-342.36212 280.11465 -299.297
-342.29251 248.94022 -300.06088
-342.31424 217.8365 -299.8222
-342.37955 186.7527 -299.10608
-342.38242 155.62845 -299.07416
-342.41867 124.51601 -298.67603
-342.46222 93.398979 -298.19858
-342.50433 62.27372 -297.73654
-342.65097 31.150225 -296.12683
-342.79346 0.00022664246 -294.56381
-342.93747 -31.175947 -292.98331
-343.08014 -62.378124 -291.41739
-343.38193 -93.649559 -288.10583
-344.82373 -125.39024 -272.28406
-346.71451 -157.59741 -251.53519
-352.83035 -192.45282 -184.42162
-399.94189 -618.09186 332.56586
-399.82513 -654.25916 331.28464
-400.66565 -692.05865 340.50833
-401.97711 -730.86731 354.89993
-371.08047 -742.16083 15.849424
-366.38971 -766.08746 -35.6255
-364.51718 -795.31012 -56.174126
-365.97653 -831.76471 -40.159557
-367.70511 -869.12091 -21.190821
-253.16568 1164.5623 -1000.2953
-249.59099 1123.1595 -1043.4458
-248.77873 1094.6266 -1053.2506
-249.42914 1072.5454 -1045.3995
-250.87206 1053.6627 -1027.9819
-252.4688 1035.1222 -1008.7077
-254.08685 1016.3475 -989.17584
-255.7249 997.32721 -969.40283
-257.3851 978.0636 -949.36224
-259.06702 958.54822 -929.05994
-260.77014 938.77258 -908.50171
-262.4967 918.73859 -887.65991
-264.24536 898.43439 -866.5517
-266.01843 877.86102 -845.14905
-267.81546 857.00964 -823.45691
-269.63593 835.87158 -801.48187
-271.44421 814.33282 -779.65399
-273.25555 792.44135 -757.789
-275.09229 770.25854 -735.61786
-276.95282 747.77277 -713.15924
-278.83975 724.98346 -690.38196
-280.7515 701.87897 -667.30518
-282.6907 678.45782 -643.89648
-284.65582 654.7085 -620.17572
-286.64844 630.62665 -596.12268
-288.67029 606.20776 -571.71704
-290.7876 581.57526 -546.15863
-293.35495 557.37457 -515.16766
-296.00742 532.81366 -483.14972
-298.60388 507.62671 -451.80759
-300.89957 481.43951 -424.09647
-302.92575 454.38864 -399.63831
-304.84268 426.77988 -376.49857
-306.13589 397.97678 -360.88821
-306.31589 367.57932 -358.7157
-306.25842 336.88431 -359.40921
-306.18823 306.18835 -360.25659
-306.14609 275.53168 -360.76492
-306.04535 244.83643 -361.98114
-305.94977 214.16499 -363.13522
-305.99438 183.59673 -362.59677
-306.05173 153.026 -361.90424
-306.19843 122.47943 -360.13348
-306.40277 91.920906 -357.66681
-306.60739 61.321648 -355.19717
-306.81226 30.681471 -352.72394
-307.07516 6.4438333e-05 -349.55029
-307.3681 -30.736662 -346.01419
-307.66159 -61.532265 -342.4715
-307.95566 -92.386459 -338.92206
-308.62842 -123.45117 -330.80106
-310.05865 -155.0293 -313.53625
-312.73282 -187.63963 -281.25632
-316.64597 -221.65202 -234.02055
-362.96194 -617.0351 325.06305
-362.21213 -651.98175 316.01175
-362.88846 -689.48804 324.1759
-363.98703 -727.97394 337.43665
-336.88022 -741.13635 10.228753
-334.03723 -768.28546 -24.089634
-334.56506 -802.95612 -17.717613
-336.19724 -840.49286 1.9843017
-226.90065 1159.7145 -1013.0167
-222.80754 1114.038 -1067.9143
-222.13831 1086.0096 -1076.8903
-222.4612 1062.8702 -1072.5597
-223.57301 1043.3409 -1057.6476
-224.8519 1024.3256 -1040.4949
-226.13853 1005.0602 -1023.2381
-227.42278 985.49872 -1006.0135
-228.72089 965.71051 -988.60278
-230.09875 945.96173 -970.12268
-231.59224 926.36914 -950.09155
-233.10443 906.51727 -929.80963
-234.63731 886.40771 -909.25012
-236.19049 866.03198 -888.41833
-237.76352 845.38153 -867.32037
-239.35851 824.45721 -845.92786
-240.97417 803.24738 -824.25818
-242.61267 781.7522 -802.28217
-244.27362 759.96252 -780.00507
-245.90623 737.71875 -758.10797
-247.55896 715.17047 -735.94104
-249.23311 692.31433 -713.48688
-250.931 669.1496 -690.71405
-252.65125 645.66437 -667.64178
-254.39621 621.85754 -644.23785
-256.16446 597.71729 -620.52185
-257.95844 573.24121 -596.46021
-259.7767 548.41766 -572.07281
-261.64877 523.29755 -546.96429
-263.52908 497.77728 -521.745
-265.39401 471.81158 -496.73199
-267.18506 445.30862 -472.71005
-268.77628 418.0965 -451.36801
-270.41974 390.60651 -429.32565
-271.17392 361.56537 -419.20996
-271.17947 331.4418 -419.13547
-271.2251 301.3613 -418.52362
-271.32193 271.32202 -417.22488
-271.40213 241.24641 -416.14935
-271.48572 211.15565 -415.02832
-271.59387 181.06276 -413.57755
-271.78589 150.99239 -411.00217
-271.98492 120.88227 -408.33282
-272.16293 90.721184 -405.94531
-272.3367 60.519508 -403.61475
-272.5163 30.279814 -401.20584
-272.71188 -6.2177614e-06 -398.58249
-272.96182 -30.328859 -395.23022
-273.21448 -60.714226 -391.84137
-273.47214 -91.157227 -388.38559
-273.73029 -121.65771 -384.92343
-274.78488 -152.6581 -370.77887
-276.04343 -184.02876 -353.89917
-279.3688 -217.28667 -309.29807
-284.55087 -252.9339 -239.79471
-326.63672 -616.98035 324.67358
-324.87924 -649.75836 301.10165
-325.4838 -687.13232 309.21021
-326.2998 -725.1106 320.15479
-307.15579 -716.69678 63.389553
-303.49701 -741.88141 14.316613
-303.03378 -774.41956 8.1038246
-304.27356 -811.39606 24.732107
-306.05249 -850.14557 48.591362
-196.70419 1106.4612 -1088.2385
-195.91142 1077.5129 -1100.2002
-196.00029 1053.5018 -1098.8595
-196.86298 1033.5309 -1085.8425
-197.97842 1014.6396 -1069.0116
-199.10591 995.52979 -1051.9991
-200.24631 976.20099 -1034.792
-201.40054 956.65265 -1017.3759
-202.55069 936.79718 -1000.0214
-203.70914 916.69116 -982.54211
-204.88161 896.35718 -964.85077
-206.06691 875.78455 -946.96576
-207.26605 854.97266 -928.8725
-208.51691 834.06787 -909.99817
-209.89612 813.34766 -889.18756
-211.29445 792.35425 -868.08844
-212.71153 771.07935 -846.70636
-214.14697 749.51459 -825.0473
-215.60271 727.6593 -803.08185
-217.07758 705.50232 -780.828
-218.56218 683.0069 -758.42694
-220.03099 660.09314 -736.26428
-221.51883 636.86676 -713.81451
-223.02777 613.32654 -691.04602
-224.55656 589.46112 -667.97845
-226.10735 565.26855 -644.57922
-227.67879 540.73724 -620.86786
-229.25613 515.82648 -597.06769
-230.87817 490.61624 -572.59302
-232.50491 465.00986 -548.04718
-233.98322 438.71863 -525.74133
-235.38423 411.92255 -504.60181
-236.5867 384.45364 -486.45807
-237.74763 356.62161 -468.94092
-237.96326 327.19952 -465.6871
-238.11365 297.64224 -463.41791
-238.16771 267.93878 -462.60233
-238.24785 238.24808 -461.39331
-238.28647 208.50093 -460.8103
-238.35896 178.76941 -459.71649
-238.48955 149.05618 -457.74628
-238.6503 119.32538 -455.32062
-238.81903 89.557251 -452.77435
-238.96179 59.740623 -450.62064
-239.10666 29.888411 -448.43478
-239.26241 3.8466034e-05 -446.08469
-239.46223 -29.932613 -443.06934
-239.68004 -59.919807 -439.78333
-239.89722 -89.961266 -436.50598
-240.11775 -120.05872 -433.17847
-240.563 -150.35187 -426.46021
-241.65999 -181.24486 -409.90784
-243.52654 -213.08556 -381.7439
-246.49678 -246.49652 -336.9263
-252.58299 -284.15573 -245.09251
-290.7301 -617.80133 330.5033
-287.81985 -647.59448 286.59076
-288.3013 -684.71539 293.85538
-288.98035 -722.45074 304.10126
-273.21143 -717.17987 66.166428
-271.09293 -745.50549 34.201134
-271.99628 -781.9892 47.831539
-273.39319 -820.17932 68.908859
-171.06723 1099.718 -1106.3267
-170.10976 1069.2615 -1122.8378
-170.06532 1044.687 -1123.6042
-170.65054 1023.9035 -1113.5121
-171.60841 1005.1353 -1096.9943
-172.57652 986.15161 -1080.2999
-173.5556 966.95282 -1063.4161
-174.54646 947.53809 -1046.3296
-175.5481 927.89716 -1029.0571
-176.56189 908.03278 -1011.5746
-177.58072 887.90381 -994.00568
-178.59898 867.4809 -976.44647
-179.62834 846.81946 -958.69556
-180.66965 825.91858 -940.73895
-181.72374 804.77661 -922.56195
-182.78955 783.38391 -904.18274
-183.86792 761.73871 -885.58661
-184.95912 739.83661 -866.76965
-186.0768 717.72491 -847.49609
-187.33287 695.80792 -825.83588
-188.606 673.59296 -803.88135
-189.89587 651.07172 -781.63824
-191.20422 628.24261 -759.07684
-192.50836 605.02649 -736.58734
-193.81 581.43005 -714.14203
-195.13007 557.51459 -691.37817
-196.46748 533.26898 -668.31512
-197.8188 508.67709 -645.01233
-199.18808 483.74255 -621.40015
-200.5076 458.30319 -598.64557
-201.82176 432.47528 -575.98364
-203.08107 406.16226 -554.26782
-204.13875 379.11505 -536.02863
-205.19115 351.7565 -517.88074
-205.68933 323.2262 -509.28967
-205.78647 293.9808 -507.61472
-205.85072 264.66531 -506.50677
-205.901 235.3157 -505.63989
-205.94141 205.94151 -504.94302
-205.97359 176.54889 -504.38831
-206.05859 147.18483 -502.92221
-206.17838 117.8164 -500.85666
-206.31071 88.418922 -498.57425
-206.44075 58.983204 -496.33212
-206.56265 29.509186 -494.22998
-206.68469 0.0001420732 -492.1254
-206.82686 -29.546537 -489.6741
-207.01169 -59.146141 -486.48663
-207.19769 -88.798904 -483.27911
-207.38403 -118.50497 -480.06595
-207.58243 -148.27306 -476.6445
-208.30135 -178.54384 -464.24744
-209.23022 -209.23022 -448.22922
-211.56908 -241.79306 -407.89761
-215.01732 -276.45062 -348.43442
-224.8288 -321.18387 -179.24174
-251.29105 -646.17676 277.08328
-251.33893 -682.20557 277.90945
-242.65625 -693.30353 128.18169
-239.6337 -718.90094 76.059715
-239.4563 -752.57672 73.000313
-240.51801 -790.27344 91.309311
-242.06342 -829.93152 117.95879
-145.83682 1093.7762 -1122.2653
-144.74254 1061.4454 -1144.2803
-144.55409 1035.9712 -1148.0719
-144.93625 1014.5538 -1140.3833
-145.72786 995.80719 -1124.4574
-146.54228 976.94867 -1108.0724
-147.36588 957.87823 -1091.5031
-148.19926 938.59546 -1074.7367
-149.04163 919.09021 -1057.7896
-149.89413 899.36493 -1040.6385
-150.75594 879.40973 -1023.3004
-151.62822 859.22681 -1005.7513
-152.51013 838.80591 -988.00842
-153.38849 818.07202 -970.3374
-154.27432 797.08405 -952.51593
-155.17099 775.85504 -934.47638
-156.07758 754.37506 -916.23694
-156.99484 732.6427 -897.7832
-157.92351 710.65588 -879.10004
-158.86264 688.40503 -860.20593
-159.81302 665.8877 -841.08557
-160.77486 643.09955 -821.73541
-161.7489 620.03766 -802.13867
-162.73424 596.69238 -782.31543
-163.8479 573.46777 -759.91022
-164.98433 549.94788 -737.04724
-166.10719 526.00623 -714.45679
-167.23784 501.71359 -691.71008
-168.36211 477.02606 -669.09155
-169.48531 451.96103 -646.49457
-170.61104 426.52774 -623.84656
-171.58269 400.35971 -604.29852
-172.56612 373.8934 -584.51324
-173.43933 346.87875 -566.94543
-174.15683 319.28763 -552.51074
-174.26079 290.43484 -550.41907
-174.338 261.50717 -548.86591
-174.35316 232.47104 -548.56079
-174.3911 203.45639 -547.7973
-174.40836 174.4084 -547.45026
-174.43457 145.36243 -546.92279
-174.53128 116.35435 -544.97742
-174.63155 87.315926 -542.96014
-174.7347 58.245117 -540.88507
-174.86501 29.144356 -538.263
-175.03653 0.000132128 -534.81226
-175.20839 -29.201271 -531.35498
-175.41826 -58.472637 -527.13251
-175.63635 -87.818024 -522.745
-175.85497 -117.23656 -518.34644
-176.07414 -146.72833 -513.93719
-176.51979 -176.51964 -504.97144
-177.26733 -206.81165 -489.93237
-178.56499 -238.08647 -463.82529
-180.36391 -270.54578 -427.63364
-183.90993 -306.51636 -356.29352
-215.15259 -645.4577 272.26053
-214.78355 -680.14783 264.83618
-208.35582 -694.51935 135.51996
-206.65125 -723.2793 101.22633
-207.37164 -760.36267 115.72015
-208.56877 -799.51355 139.80426
-217.55254 -870.20996 320.54349
-218.02817 -908.45056 330.11261
-217.89345 -944.20477 327.40231
-217.63202 -979.34393 322.14264
-121.01618 1089.1458 -1134.6864
-119.772 1053.9937 -1164.7236
-119.49146 1027.6268 -1171.4963
-119.73451 1005.7701 -1165.6287
-120.32323 986.65063 -1151.4156
-120.98947 967.91583 -1135.3313
-121.66312 948.97247 -1119.0679
-122.34472 929.82013 -1102.6127
-123.03359 910.44873 -1085.9818
-123.73068 890.86096 -1069.1525
-124.4353 871.04718 -1052.1417
-125.1484 851.00928 -1034.9257
-125.8693 830.73755 -1017.5218
-126.59856 810.2309 -999.91608
-127.33674 789.48798 -982.09442
-128.07779 768.46692 -964.20404
-128.81938 747.15253 -946.30054
-129.56915 725.58734 -928.19952
-130.3277 703.76971 -909.88647
-131.09564 681.69757 -891.34656
-131.87222 659.36133 -872.59833
-132.65807 636.75891 -853.62646
-133.45332 613.88538 -834.42719
-134.25867 590.73834 -814.98462
-135.07329 567.30792 -795.31787
-135.89786 543.59155 -775.41101
-136.73306 519.58569 -755.24731
-137.57809 495.28128 -734.84674
-138.42213 470.63547 -714.46942
-139.31783 445.81714 -692.84576
-140.19626 420.58881 -671.63824
-141.03439 394.89645 -651.40399
-141.83713 368.77667 -632.02423
-142.57043 342.16907 -614.32068
-143.27448 315.20407 -597.32404
-143.509 287.01813 -591.66138
-143.55276 258.39511 -590.60547
-143.58081 229.72946 -589.9281
-143.59317 201.0305 -589.62982
-143.65549 172.38667 -588.12494
-143.73476 143.735 -586.21149
-143.84283 115.07436 -583.60223
-143.98097 86.388748 -580.26727
-144.11882 57.647621 -576.93964
-144.23822 28.847731 -574.05676
-144.37827 0.00011176839 -570.67603
-144.51799 -28.903429 -567.30249
-144.67966 -57.871872 -563.39941
-144.85768 -86.914482 -559.10181
-145.03613 -116.0288 -554.7934
-145.21503 -145.21494 -550.47449
-145.4698 -174.56374 -544.32361
-146.06039 -204.48441 -530.06537
-146.88101 -235.00948 -510.2543
-148.33124 -266.99615 -475.24231
-150.3654 -300.73071 -426.13342
-154.83133 -340.62881 -318.31662
-179.55238 -646.38849 278.50241
-176.76489 -671.70642 211.20665
-174.17323 -696.69293 148.63861
-173.93159 -730.51245 142.80455
-174.74081 -768.8595 162.34125
-175.79456 -808.65472 187.78044
-178.70157 -857.76727 257.96179
-179.05611 -895.2804 266.52133
-179.46115 -933.19775 276.29984
-180.25464 -973.37488 295.45657
-180.83502 -1012.6759 309.46793
-96.59494 1086.6932 -1141.265
-95.187828 1047.0662 -1183.7286
-94.862411 1019.7711 -1193.549
-94.973091 997.21765 -1190.2089
-95.381554 977.66107 -1177.8824
-95.904854 959.04865 -1162.0907
-96.433907 940.23077 -1146.1248
-96.969162 921.20721 -1129.972
-97.510078 901.96832 -1113.6488
-98.057373 882.51648 -1097.1326
-98.610519 862.8421 -1080.4397
-99.169952 842.94476 -1063.5576
-99.736092 822.82294 -1046.4724
-100.3084 802.46735 -1029.2017
-100.88766 781.87952 -1011.7211
-101.4733 761.04974 -994.04779
-102.06612 739.97955 -976.15765
-102.66557 718.65918 -958.06793
-103.26192 697.01807 -940.07117
-103.86416 675.11719 -921.89734
-104.47382 652.96149 -903.49908
-105.09031 630.54205 -884.89484
-105.71411 607.85626 -866.06976
-106.34576 584.90173 -847.00824
-106.9846 561.66925 -827.72943
-107.63117 538.15607 -808.21747
-108.28561 514.35681 -788.46832
-108.94845 490.26819 -768.46527
-109.61332 465.85672 -748.40094
-110.26566 441.06271 -728.71472
-110.90279 415.88559 -709.48761
-111.52066 390.32236 -690.84174
-112.09797 364.3186 -673.42017
-112.64888 337.94687 -656.79492
-113.18038 311.24625 -640.75543
-113.5574 283.89359 -629.37775
-113.6426 255.69601 -626.8067
-113.70284 227.40591 -624.98877
-113.76227 199.08406 -623.19519
-113.80941 170.71434 -621.77271
-113.8716 142.33957 -619.89594
-113.94357 113.94372 -617.72412
-114.04484 85.533783 -614.66803
-114.15338 57.076897 -611.39252
-114.2448 28.561338 -608.63354
-114.33772 0.00017210506 -605.82983
-114.4477 -28.611757 -602.51044
-114.56683 -57.283218 -598.91534
-114.70638 -86.029716 -594.70435
-114.84579 -114.84563 -590.49701
-114.98602 -143.73245 -586.26569
-115.12656 -172.68965 -582.02423
-115.55302 -202.21777 -569.15448
-116.02799 -232.05583 -554.82111
-117.1287 -263.53943 -521.60406
-118.47601 -296.18991 -480.94556
-120.45209 -331.2431 -421.31204
-141.68944 -566.75763 219.58156
-141.34798 -600.72882 209.27728
-141.4446 -636.50055 212.19263
-141.61227 -672.6582 217.25304
-140.21422 -701.07092 175.06284
-140.64439 -738.383 188.04463
-141.32622 -777.29425 208.6207
-142.03873 -816.72266 230.12228
-142.59911 -855.59454 247.03323
-142.99812 -893.73804 259.07452
-143.49249 -932.70111 273.99396
-144.03337 -972.2251 290.31592
-144.63667 -1012.4565 308.52243
-70.926315 1040.2527 -1202.4211
-70.60434 1011.9956 -1215.3762
-70.657539 989.20569 -1213.2358
-70.988228 970.17261 -1199.9299
-71.334953 951.13287 -1185.9786
-71.685081 931.90619 -1171.8906
-72.059395 912.75244 -1156.8292
-72.457642 893.64435 -1140.8052
-72.860558 874.32684 -1124.5931
-73.267731 854.79028 -1108.2096
-73.679482 835.03424 -1091.6418
-74.096138 815.0578 -1074.877
-74.517281 794.8512 -1057.9315
-74.943497 774.41626 -1040.782
-75.374359 753.74371 -1023.4456
-75.810455 732.83459 -1005.8982
-76.251373 711.67963 -988.1571
-76.697449 690.27722 -970.20856
-77.14904 668.62512 -952.03784
-77.602158 646.68481 -933.80591
-78.055649 624.44531 -915.55859
-78.514481 601.94446 -897.0968
-78.978729 579.17749 -878.41687
-79.448792 556.14172 -859.50305
-79.924187 532.828 -840.37445
-80.405312 509.23383 -821.01556
-80.892563 485.35541 -801.41016
-81.385452 461.18439 -781.57782
-81.858833 436.58051 -762.5304
-82.33345 411.66745 -743.43329
-82.801468 386.40698 -724.60162
-83.222954 360.63287 -707.6424
-83.641769 334.56717 -690.79059
-84.033401 308.12268 -675.03247
-84.359894 281.19986 -661.89575
-84.438431 253.3154 -658.73535
-84.492485 225.31351 -656.5603
-84.512909 197.19688 -655.73883
-84.550842 169.10185 -654.21252
-84.582642 140.97122 -652.93298
-84.630066 112.84021 -651.0249
-84.697708 84.697929 -648.30298
-84.775246 56.516888 -645.18286
-84.847046 28.28257 -642.29376
-84.908501 0.00020628559 -639.82104
-84.977913 -28.325865 -637.02832
-85.060234 -56.70673 -633.71576
-85.16246 -85.162331 -629.60278
-85.265259 -113.68694 -625.46649
-85.368301 -142.28049 -621.32025
-85.471596 -170.94295 -617.164
-85.722931 -200.02007 -607.05096
-86.059349 -229.49138 -593.51501
-86.7323 -260.19666 -566.43738
-87.572166 -291.90714 -532.64355
-88.975037 -326.2417 -476.19653
-91.339859 -365.35919 -381.04343
-105.18827 -455.81564 176.17371
-104.67171 -488.46786 155.38873
-104.83302 -524.16504 161.87962
-105.05389 -560.28741 170.76689
-105.26967 -596.52808 179.44884
-105.52673 -633.16028 189.7924
-105.80435 -670.09412 200.96321
-105.60106 -704.00684 192.7831
-105.46915 -738.284 187.47581
-105.39552 -772.90039 184.51285
-105.46764 -808.58514 187.41489
-107.01373 -856.10968 249.62436
-107.46562 -895.54663 267.8071
-107.94302 -935.50598 287.01617
-108.48927 -976.40314 308.99521
-47.009323 1034.2052 -1219.012
-46.791939 1006.0269 -1232.1322
-46.974152 986.45734 -1221.1346
-47.158092 966.74097 -1210.0328
-47.35981 947.19629 -1197.8584
-47.563873 927.49554 -1185.542
-47.769855 907.62738 -1173.1095
-47.991421 887.84155 -1159.7368
-48.217117 867.90826 -1146.1152
-48.452286 847.91516 -1131.9215
-48.697182 827.85236 -1117.1404
-48.941967 807.54248 -1102.3666
-49.211132 787.37811 -1086.121
-49.489941 767.09418 -1069.2933
-49.771755 746.57648 -1052.2843
-50.056976 725.82629 -1035.0699
-50.345303 704.83447 -1017.6676
-50.636978 683.59937 -1000.0635
-50.932224 662.1192 -982.24377
-51.230759 640.3847 -964.22559
-51.532993 618.39606 -945.98407
-51.838631 596.14441 -927.53729
-52.142365 573.5661 -909.20544
-52.449677 550.72174 -890.65735
-52.760448 527.60468 -871.90088
-53.074921 504.21182 -852.92084
-53.393162 480.5386 -833.71301
-53.715443 456.58148 -814.26178
-54.027332 432.21884 -795.43781
-54.340645 407.55502 -776.5274
-54.643387 382.50381 -758.25513
-54.926311 357.02109 -741.17926
-55.204712 331.2283 -724.37616
-55.469608 305.08295 -708.38837
-55.715084 278.57547 -693.57288
-55.779171 251.0063 -689.70459
-55.815403 223.26166 -687.5177
-55.813923 195.34882 -687.60718
-55.841076 167.52335 -685.96838
-55.855507 139.63902 -685.09729
-55.881424 111.7631 -683.53302
-55.923325 83.885201 -681.00403
-55.96785 55.967979 -678.31677
-56.017784 28.009041 -675.30304
-56.057964 0.00016062167 -672.87799
-56.098206 -28.049059 -670.44928
-56.144291 -56.144093 -667.66785
-56.208515 -84.312691 -663.7915
-56.275684 -112.55133 -659.73737
-56.343014 -140.85733 -655.67377
-56.41029 -169.23067 -651.61328
-56.534447 -197.87041 -644.11975
-56.751724 -227.00688 -631.00574
-57.098206 -256.94174 -610.09393
-57.638702 -288.1933 -577.47198
-58.432991 -321.38129 -529.53265
-59.563648 -357.38168 -461.29123
-69.584824 -452.3013 143.54039
-69.542999 -486.80093 141.01584
-69.729141 -522.96844 152.25066
-69.943245 -559.5459 165.17281
-70.169388 -596.43964 178.82164
-70.407455 -633.66699 193.19022
-70.692352 -671.57721 210.38545
-70.175415 -701.75409 179.18565
-69.452599 -729.2522 135.55969
-69.280991 -762.09076 125.20209
-69.229088 -796.1344 122.06943
-69.251602 -831.01904 123.42831
-23.380333 1028.7347 -1234.0197
-23.432463 1007.596 -1227.7271
-23.510002 987.42023 -1218.3673
-23.592979 967.31219 -1208.351
-23.677307 947.09247 -1198.1715
-23.76232 926.73053 -1187.9098
-23.850964 906.33667 -1177.2096
-23.945578 885.98651 -1165.7887
-24.040945 865.47406 -1154.277
-24.137945 844.82831 -1142.5679
-24.242611 824.24902 -1129.9335
-24.349562 803.53571 -1117.0234
-24.458111 782.65967 -1103.9205
-24.573135 761.76733 -1090.0354
-24.691492 740.74493 -1075.7489
-24.816271 719.67206 -1060.6865
-24.946894 698.51318 -1044.9189
-25.075901 677.04944 -1029.3463
-25.220703 655.73834 -1011.8673
-25.367098 634.17761 -994.19598
-25.515291 612.36707 -976.30731
-25.665136 590.29828 -958.21954
-25.816751 567.96875 -939.91791
-25.970261 545.37555 -921.38763
-26.124121 522.4826 -902.81512
-26.278309 499.28806 -884.203
-26.43433 475.81805 -865.36951
-26.59231 452.06943 -846.29974
-26.749559 427.99313 -827.31793
-26.899418 403.49136 -809.22845
-27.048775 378.68295 -791.19958
-27.193153 353.51105 -773.77148
-27.328098 327.93735 -757.4823
-27.461618 302.07794 -741.36511
-27.581423 275.81439 -726.90326
-27.642551 248.78311 -719.52454
-27.652332 221.2189 -718.34381
-27.658058 193.60645 -717.65253
-27.660765 165.96474 -717.32568
-27.669415 138.34723 -716.28192
-27.677021 110.70819 -715.3634
-27.695803 83.087585 -713.09613
-27.717539 55.435287 -710.47247
-27.740355 27.740475 -707.71814
-27.760378 0.00017282175 -705.30151
-27.780115 -27.780039 -702.91913
-27.799982 -55.599785 -700.52087
-27.837273 -83.511673 -696.01929
-27.88006 -111.51998 -690.85468
-27.926161 -139.63063 -685.28961
-27.983179 -167.89899 -678.40692
-28.041927 -196.29326 -671.31543
-28.150351 -225.20276 -658.22772
-28.272446 -254.45192 -643.48932
-28.485451 -284.85434 -617.77747
-28.787167 -316.65866 -581.35693
-29.25489 -351.05869 -524.89777
-30.346254 -394.50119 -393.15848
-34.856464 -487.99042 151.27213
-34.992279 -524.88403 167.66614
-35.175575 -562.80914 189.79237
-35.408699 -601.94775 217.93279
-35.764847 -679.53192 260.92334
-35.670723 -713.41437 249.56169
-34.693497 -728.56348 131.60033
-34.293316 -754.45276 83.293716
-34.137302 -785.1579 64.461708
-34.113049 -818.71307 61.533882
-34.113369 -852.83398 61.572227
-34.168743 -888.38721 68.256554
-2.3103461e-22 1034.0133 -1219.5383
-1.1289705e-21 1012.8328 -1213.0262
-8.2181969e-22 991.58685 -1206.3923
-3.4804331e-22 968.61572 -1204.5134
-8.0872273e-22 947.19324 -1197.8676
-1.0407937e-21 926.32611 -1189.1619
-8.7043735e-22 905.8808 -1178.6577
-6.922286e-22 885.83923 -1166.2692
-6.4839853e-22 866.22247 -1151.7676
-6.7360512e-22 845.33655 -1140.8147
-1.0761105e-21 824.19995 -1130.1072
-7.5353145e-22 802.89691 -1119.3597
-1.3328049e-22 781.51996 -1108.2194
-9.2426528e-22 760.16803 -1096.2632
-2.5724772e-22 738.64697 -1084.1898
-9.6011718e-22 716.99323 -1071.8367
-9.7899734e-22 695.33722 -1058.6106
-4.6424805e-22 673.51361 -1045.1542
-2.7234498e-22 651.54663 -1031.3289
-6.2804617e-22 629.50409 -1016.7612
-2.9414692e-22 607.27759 -1001.9056
-8.9179925e-22 585.02515 -985.89441
-1.0485756e-21 562.65179 -969.09119
-1.6653898e-21 540.01697 -952.19
-1.2239866e-21 517.34601 -933.81683
-1.6087205e-21 494.40692 -915.21375
-1.1768244e-21 471.18933 -896.41022
-1.9345081e-22 447.6441 -877.72198
-1.0678001e-21 423.82022 -858.79987
-3.4723925e-22 399.52396 -841.15558
-3.443311e-23 374.95544 -823.33899
-1.3477956e-21 350.07205 -805.70532
-7.333873e-22 324.7049 -789.99695
-4.5271801e-22 299.10706 -773.96594
-4.3511508e-22 273.15298 -759.02771
-4.8850417e-22 246.5565 -749.3877
-1.7657701e-22 219.24963 -748.0553
-1.214137e-21 191.89494 -747.16663
-1.4550823e-21 164.45944 -747.61108
-9.5317106e-22 137.07915 -746.8949
-9.7597669e-22 109.69122 -746.05481
-1.2919886e-21 82.30526 -744.57141
-1.811346e-21 54.930813 -740.91901
-8.3681385e-22 27.488903 -738.078
-1.1343913e-21 0.00018154526 -732.39417
-8.4934818e-22 -27.58515 -726.44073
-8.2221864e-22 -55.282467 -719.67505
-2.0516979e-21 -83.105705 -712.35248
-1.0949896e-21 -111.0788 -704.17401
-1.309463e-21 -139.21417 -695.34442
-7.8563634e-22 -167.52626 -685.90442
-1.2301307e-21 -196.03661 -675.74146
-1.816499e-22 -224.8521 -663.51898
-8.411096e-22 -253.95348 -650.17474
-1.0311509e-21 -283.74857 -631.125
-1.1912079e-21 -314.17178 -608.64697
-8.5310554e-22 -346.18115 -573.96088
-1.0196268e-21 -383.21298 -497.97464
-1.7840753e-21 -682.06549 277.01974
-1.4028752e-21 -715.15747 260.08279
-1.9069361e-21 -753.01562 272.15494
-1.3150061e-21 -755.20728 87.433159
-5.4124022e-22 -780.47937 39.907242
-1.0022994e-21 -808.71271 11.2359
-1.6153788e-21 -841.07806 4.8091602
-4.6176681e-22 -874.53699 3.9541073
-1.665943e-21 -908.47662 5.3114552
-1.3114583e-21 -943.50677 11.273149
23.979811 959.19263 -1161.6562
24.008652 936.33746 -1158.1749
24.051254 913.94781 -1153.0322
24.107843 891.99036 -1146.2012
24.170267 870.12988 -1138.6661
24.183317 846.4162 -1137.0909
24.237652 824.08026 -1130.5321
24.310722 802.25403 -1121.7118
24.398729 780.75952 -1111.0881
24.505348 759.66589 -1098.2184
24.629242 738.87738 -1083.2631
24.738722 717.42297 -1070.0479
24.832294 695.30426 -1058.7523
24.925987 673.00177 -1047.4427
25.022009 650.57245 -1035.8519
25.126074 628.1521 -1023.29
25.230925 605.54236 -1010.6335
25.339098 582.79944 -997.57574
25.454203 559.99261 -983.68158
25.570354 536.97754 -969.66071
25.691164 513.82343 -955.07758
25.818111 490.54431 -939.75354
25.946228 467.03229 -924.28851
26.087198 443.48251 -907.27197
26.233643 419.73843 -889.59479
26.378139 395.67215 -872.1524
26.521362 371.29926 -854.86359
26.66441 346.63751 -837.59631
26.796686 321.56039 -821.62915
26.92594 296.18546 -806.0271
27.054951 270.54968 -790.45392
27.154455 244.39026 -778.44281
27.167509 217.34013 -776.86694
27.173338 190.21365 -776.16351
27.180374 163.08229 -775.31378
27.197584 135.98796 -773.23676
27.237415 108.94985 -768.42883
27.278376 81.835335 -763.48438
27.33481 54.669678 -756.672
27.393929 27.394028 -749.53577
27.461206 0.00012296361 -741.41455
27.530981 -27.530838 -732.99213
27.613249 -55.226227 -723.06134
27.696953 -83.090736 -712.95764
27.787889 -111.1514 -701.98047
27.799353 -138.99672 -700.59692
27.864197 -167.18507 -692.76923
27.948685 -195.64069 -682.57056
28.049316 -224.39432 -670.42352
28.16222 -253.45979 -656.79486
28.310251 -283.10245 -638.92572
28.558313 -314.14145 -608.98193
28.733122 -344.79739 -587.88068
29.036119 -377.46951 -551.30573
36.060661 -685.15247 296.63144
35.839523 -716.79034 269.93768
35.937706 -754.69165 281.7894
36.06863 -793.5097 297.59329
34.024731 -782.56873 50.872875
33.636044 -807.26495 3.9540057
33.337631 -833.44067 -32.067543
33.196922 -863.11993 -49.052238
33.168446 -895.54797 -52.489708
33.178932 -929.00989 -51.224121
33.194675 -962.64551 -49.323681
49.092087 859.11163 -1093.306
49.08651 834.47083 -1093.6427
49.156136 811.07654 -1089.4401
49.257656 788.12262 -1083.3131
49.376179 765.33081 -1076.1594
49.517296 742.75958 -1067.6425
49.54752 718.43921 -1065.8182
49.642944 695.00128 -1060.059
49.792 672.19208 -1051.0626
49.971169 649.62531 -1040.2488
50.192581 627.40741 -1026.8854
50.447639 605.37183 -1011.4911
50.708282 583.14539 -995.76001
50.904877 559.9538 -983.89441
51.102997 536.5816 -971.93652
51.303566 513.03583 -959.83136
51.522331 489.46219 -946.62769
51.742786 465.68515 -933.32196
51.971386 441.75693 -919.52466
52.21352 417.70822 -904.91077
52.452862 393.39661 -890.46533
52.689873 368.82919 -876.16034
52.93285 344.06363 -861.49542
53.170952 319.02588 -847.12451
53.405193 293.72876 -832.98682
53.63681 268.18411 -819.00769
53.845173 242.30342 -806.43207
53.96244 215.85005 -799.35413
54.028122 189.0985 -795.38977
54.124649 162.37413 -789.56384
54.232132 135.58058 -783.07672
54.355724 108.7115 -775.61737
54.495838 81.743835 -767.1604
54.646641 54.646725 -758.05872
54.820976 27.410717 -747.53705
54.825272 2.6531232e-05 -747.27771
54.949322 -27.474464 -739.79071
55.11422 -55.114136 -729.83807
55.424416 -83.136536 -711.11603
55.864639 -111.72913 -684.54596
56.150085 -140.37503 -667.31818
56.531399 -169.59398 -644.30365
65.876465 -230.5675 -80.278702
57.177979 -228.71172 -605.2793
57.1464 -257.15875 -607.18524
57.210258 -286.05121 -603.33075
57.049652 -313.77292 -613.02435
57.436813 -344.62079 -589.65698
57.956783 -376.71893 -558.27411
58.748878 -411.242 -510.46698
72.509277 -688.83801 320.04672
71.843781 -718.43762 279.88031
72.03434 -756.36035 291.38135
72.287743 -795.16498 306.67578
72.85878 -837.87579 341.14072
67.81546 -813.7854 36.749714
66.802277 -835.02838 -24.401363
66.138611 -859.80176 -64.457092
65.678871 -886.66467 -92.204819
65.510483 -917.14673 -102.36776
65.474579 -949.38129 -104.53498
65.480125 -982.20172 -104.2003
65.532402 -1015.7521 -101.04504
75.37513 728.62628 -1023.4144
75.411758 703.8432 -1021.9409
75.525459 679.72931 -1017.3655
75.704208 656.10327 -1010.1732
75.890862 632.42395 -1002.663
76.129158 609.03333 -993.07465
76.378746 585.5705 -983.03204
76.299156 559.52734 -986.23462
76.530724 535.71527 -976.91705
76.813728 512.09167 -965.52972
77.15255 488.63297 -951.89655
77.537178 465.22318 -936.42041
78.002609 442.01495 -917.69293
78.312767 417.66821 -905.21313
78.623154 393.11594 -892.72406
78.93573 368.36685 -880.14691
79.258499 343.45364 -867.15985
79.581039 318.32425 -854.18158
79.89724 292.95676 -841.45868
80.200493 267.33517 -829.25677
80.50341 241.51031 -817.06848
80.762428 215.36655 -806.64636
80.947823 188.87839 -799.1864
80.875938 161.75203 -802.07898
80.532234 134.22058 -815.90851
81.386047 108.51498 -781.55377
81.572815 81.57299 -774.03876
81.876778 54.584644 -761.80841
82.62793 27.54278 -731.58423
82.986664 4.7638405e-05 -717.14966
83.412575 -27.804071 -700.01257
84.077003 -56.051132 -673.27826
107.82525 -107.82517 282.27753
105.64661 -140.86211 194.61627
103.59809 -172.66333 112.19006
101.61063 -203.2211 32.220779
98.948685 -230.88019 -74.887726
96.505402 -257.3476 -173.19783
94.04966 -282.14877 -272.00955
87.229027 -290.76334 -546.45056
86.735367 -318.02954 -566.31372
86.820793 -347.28317 -562.87653
86.794807 -376.11081 -563.92212
87.838829 -409.91437 -521.91412
108.05892 -720.3927 291.68002
108.28723 -758.0105 300.8663
108.67114 -796.92145 316.31351
109.21722 -837.33179 338.28595
99.602928 -863.22528 -48.563297
98.589699 -887.30719 -89.332039
97.741455 -912.25342 -123.46297
97.175598 -939.36401 -146.23137
96.938805 -969.38788 -155.75932
96.914932 -1001.4541 -156.71991
96.921753 -1033.8319 -156.44539
96.985298 -1066.8383 -153.88824
103.21551 619.29315 -941.47223
102.92808 591.83655 -950.14594
103.04321 566.73779 -946.67133
103.22492 541.93091 -941.18768
103.48485 517.42432 -933.34393
103.75487 492.83585 -925.19537
104.10258 468.46179 -914.7019
104.45303 443.92551 -904.12665
104.30213 417.20862 -908.68036
104.62484 392.34326 -898.94159
105.00732 367.52567 -887.39948
105.42322 342.62564 -874.84833
105.86875 317.60635 -861.4035
106.31075 292.35464 -848.06494
106.75916 266.89801 -834.53265
107.20239 241.20551 -821.1571
107.50478 215.00972 -812.03186
107.70928 188.49133 -805.86017
107.00019 160.5005 -827.25928
106.20508 132.75645 -851.25354
109.01028 109.01035 -766.59924
110.07401 82.555702 -734.49847
110.97274 55.486458 -707.37689
154.5405 38.6353 607.39661
151.72536 0.00019043805 522.44232
149.33734 -37.33416 450.37738
146.77144 -73.385475 372.94449
144.15137 -108.1134 293.87671
141.2067 -141.20662 205.01367
138.46208 -173.07748 122.18777
135.65973 -203.48946 37.619156
132.11131 -231.19467 -69.464157
128.84425 -257.68829 -168.05602
125.50934 -282.39578 -268.69604
122.34068 -305.85153 -364.31897
117.44986 -322.98697 -511.91241
116.69102 -350.07288 -534.81256
116.35833 -378.16443 -544.85217
117.35558 -410.74435 -514.75775
144.56694 -722.83447 306.418
144.73784 -759.8736 311.5755
145.21277 -798.6701 325.90753
145.85643 -838.67426 345.33151
130.81392 -915.6972 -108.61647
129.66809 -940.09357 -143.1946
128.64684 -964.85107 -174.01384
127.90377 -991.25415 -196.43755
127.58501 -1020.6801 -206.05704
127.55788 -1052.3524 -206.87607
127.53905 -1084.0818 -207.44406
127.60773 -1116.5674 -205.37177
131.99355 475.17688 -869.66956
131.84477 448.27237 -873.26111
132.0899 422.68784 -867.34332
132.40414 397.21259 -859.75659
132.78467 371.79718 -850.56995
133.164 346.22659 -841.41205
133.57271 320.57462 -831.5451
134.04407 294.89713 -820.16541
134.53256 269.06531 -808.37213
135.0291 243.05251 -796.38489
135.51831 216.82941 -784.57422
135.19658 189.27544 -792.34131
133.08488 159.70192 -843.32227
132.85046 132.85049 -848.98145
133.28867 106.63107 -838.40216
199.69867 119.81938 764.87689
196.79491 78.718079 694.77411
193.69821 38.739868 620.013
190.21062 0.00016821828 535.81512
187.20731 -37.441334 463.30878
183.98994 -73.595856 385.6351
180.63936 -108.38349 304.74454
176.94116 -141.55275 215.46193
173.49452 -173.49434 132.25307
169.79884 -203.7585 43.031544
165.3644 -231.5099 -64.025864
161.26958 -258.03125 -162.88335
157.0235 -282.64209 -265.39288
153.05647 -306.11282 -361.16541
149.25098 -328.35196 -453.03799
147.25787 -353.41873 -501.15585
146.89334 -381.92267 -509.95633
146.53529 -410.29871 -518.60065
181.50969 -726.03851 325.75592
181.35464 -761.68945 322.01315
181.9178 -800.43823 335.6088
182.66142 -840.24237 353.56165
161.42976 -968.57843 -159.01631
160.1048 -992.64966 -191.00359
158.98564 -1017.5079 -218.02266
158.05048 -1043.1331 -240.59926
157.50288 -1071.0194 -253.81932
157.41785 -1101.9249 -255.87245
157.40704 -1133.3307 -256.13309
157.50897 -1165.5663 -253.67253
157.76808 -1199.0374 -247.41692
234.7953 626.12103 667.44122
235.64763 589.1192 684.58868
237.50911 554.18805 722.03851
238.81393 517.43054 748.28998
239.77397 479.54803 767.60413
240.93388 441.71222 790.93994
241.927 403.21188 810.92004
242.95781 364.43686 831.65808
243.97581 325.30118 852.13879
162.97372 190.13617 -777.49762
159.82809 159.82809 -840.78247
160.09746 133.41461 -835.36328
160.69806 107.13214 -823.28015
161.30437 80.652313 -811.08221
236.79202 78.930824 707.61212
233.06834 38.844913 632.69775
228.92134 0.00021193984 549.26605
225.29639 -37.549244 476.33786
221.42348 -73.807587 398.42078
217.31013 -108.6548 315.66678
212.85127 -141.9007 225.96165
208.69516 -173.91251 142.34718
204.02837 -204.02829 48.45829
198.70744 -231.82515 -58.590553
193.78044 -258.37384 -157.71419
188.59348 -282.89017 -262.06781
183.82478 -306.37451 -358.00613
179.51477 -329.11032 -444.71741
177.7262 -355.45221 -480.7005
177.26662 -384.07748 -489.94669
176.72362 -412.35504 -500.87082
219.33005 -731.1001 356.30453
218.18034 -763.63104 333.17419
218.81613 -802.32568 345.96518
219.62621 -841.90039 362.26288
191.62462 -1021.9979 -201.08578
190.07605 -1045.4182 -232.24045
188.793 -1069.8268 -258.05386
187.7188 -1095.0262 -279.66479
186.92274 -1121.5363 -295.68039
186.6963 -1151.2938 -300.23578
186.65598 -1182.1544 -301.04718
186.68129 -1213.4282 -300.53812
186.8237 -1245.4912 -297.67282
187.02901 -1278.0315 -293.54214
187.02663 -1371.5286 -293.5899
186.8839 -1401.6293 -296.46152
185.56294 -1422.649 -323.03748
185.48172 -1452.9401 -324.67126
185.61137 -1484.8909 -322.0629
276.19653 591.84991 706.56299
277.20151 554.4032 723.89325
278.19122 516.64099 740.96039
279.22141 478.66541 758.72528
280.25006 440.3931 776.46375
281.25555 401.79376 793.8031
282.28226 362.93436 811.50763
283.33365 323.81021 829.63818
191.40991 191.41013 -755.52997
187.33083 160.56943 -825.87122
187.66922 134.04965 -820.03552
188.3925 107.65297 -807.56287
281.11411 120.47762 791.36383
277.00439 79.144257 720.49426
272.65265 38.950542 645.45148
267.8595 5.1747491e-05 562.7962
263.60568 -37.65786 489.44208
259.07181 -74.020409 411.258
254.16504 -108.92768 326.64398
248.93837 -142.25035 236.51329
244.06589 -174.33255 152.49014
238.34863 -204.29866 53.899494
232.14244 -232.14238 -53.122387
226.36279 -258.70023 -152.78908
220.21887 -283.13843 -258.73694
214.64488 -306.63541 -354.85715
209.93405 -329.89639 -436.0921
208.17654 -356.87399 -466.39944
207.75772 -385.83566 -473.62213
207.65619 -415.31229 -475.37253
255.19176 -765.57501 344.3486
255.87871 -804.19006 356.1947
256.81668 -843.82599 372.36938
258.18472 -885.20459 395.96069
219.75587 -1098.7793 -266.72119
218.40532 -1123.2273 -290.01025
217.11345 -1147.5995 -312.28799
216.0889 -1173.0541 -329.95557
215.34959 -1199.8047 -342.7048
215.22701 -1229.8685 -344.81854
215.28198 -1260.9371 -343.87079
215.47772 -1292.8662 -340.4953
215.88116 -1326.1271 -333.53793
216.39899 -1360.2222 -324.60843
217.04839 -1395.311 -313.40988
215.58974 -1416.7324 -338.56342
214.42738 -1439.7267 -358.6077
214.36302 -1469.9177 -359.71747
323.34311 404.17926 822.59521
324.50897 365.07269 840.18665
325.64355 325.64374 857.30621
219.83263 192.35364 -739.25714
215.15912 161.36943 -809.77515
215.53156 134.70729 -804.15558
216.35434 108.17735 -791.74054
322.15735 120.80925 804.70349
317.43481 79.35891 733.44611
312.45291 39.056828 658.27478
307.02713 4.6396886e-05 576.40607
302.13718 -37.767101 502.62256
296.93774 -74.234413 424.16928
291.20551 -109.20199 337.67627
285.20514 -142.60248 247.13783
279.60791 -174.7549 162.6824
272.76001 -204.56993 59.355331
265.66785 -232.45932 -47.657383
258.90091 -258.90085 -149.76245
251.89877 -283.38608 -255.41643
245.51852 -306.89801 -351.68738
240.53148 -330.73077 -426.93558
238.87146 -358.30701 -451.98346
238.54083 -387.62869 -456.97208
239.8101 -419.66748 -437.82062
292.8262 -768.66876 362.13095
293.13876 -806.13153 366.84698
294.15555 -845.69696 382.18887
295.4465 -886.33942 401.66803
247.75206 -1176.8221 -317.98566
246.42133 -1201.304 -338.06458
245.31969 -1226.5983 -354.68732
245.19791 -1256.6392 -356.52496
246.07362 -1291.8865 -343.31113
247.29231 -1329.1962 -324.92252
249.62094 -1404.1177 -289.78644
247.24446 -1421.6555 -325.64474
246.17154 -1446.2577 -341.83377
246.32837 -1477.9701 -339.46735
248.81667 193.52409 -719.07227
243.22495 162.15013 -794.07025
243.65428 135.36357 -788.31177
244.58086 108.70276 -775.88422
363.42709 121.14244 818.11664
358.08508 79.574577 746.46844
352.47086 39.16357 671.1684
346.42441 9.5643278e-05 590.07184
340.89273 -37.876736 515.87946
335.02319 -74.449509 437.15549
328.43289 -109.4775 348.7644
321.65027 -142.95561 257.79398
315.32251 -175.17902 172.92395
307.26144 -204.84074 64.806252
299.28625 -232.77797 -42.159348
291.49081 -259.10287 -146.7141
283.63535 -283.63516 -252.07382
276.44391 -307.15973 -348.5274
271.39655 -331.70685 -416.22406
269.83591 -359.78104 -437.15585
269.21182 -388.86136 -445.52625
271.68985 -422.62851 -412.29019
331.78687 -774.16919 393.74863
330.67673 -808.32074 378.85934
331.71527 -847.71674 392.78873
333.01514 -888.04016 410.22278
279.3688 -1427.8849 -309.2981
278.39716 -1453.8516 -322.33026
278.15561 194.70908 -698.64032
271.66605 162.99976 -776.9762
272.08563 136.04291 -771.91144
273.11945 109.248 -759.43231
404.92746 121.47826 831.63104
398.95703 79.791611 759.56171
392.70825 39.271034 684.13245
386.05685 8.6328902e-05 603.84314
379.87436 -37.987301 529.21393
373.33008 -74.665901 450.21716
365.84866 -109.75439 359.90839
358.2764 -143.31042 268.50314
351.21091 -175.60535 183.21523
341.85596 -205.11334 70.290886
332.99698 -233.09784 -36.646152
324.13159 -259.30521 -143.66075
315.42642 -283.8837 -248.74165
307.4234 -307.42322 -345.34665
302.50165 -332.75165 -404.75766
301.10062 -361.32062 -421.66983
300.17786 -390.23111 -432.80814
304.69223 -426.56903 -378.31476
368.45239 -810.59509 391.33835
369.466 -849.77167 403.57376
370.82181 -889.97229 419.94009
372.72015 -931.80029 442.85483
300.45038 163.88216 -759.22375
300.80826 136.73119 -755.29663
301.95023 109.8001 -742.76471
446.65607 121.81551 845.19348
440.05481 80.010139 772.75293
433.16696 39.37899 697.16791
425.92493 8.3883584e-05 617.69629
419.08185 -38.098198 542.60229
411.86026 -74.883461 463.35477
403.45621 -110.03329 371.13116
395.08478 -143.66707 279.26562
387.27441 -176.03366 193.55676
376.54269 -205.3867 75.790245
366.79883 -233.41728 -31.13603
356.82343 -259.50793 -140.60284
347.27472 -284.13367 -245.38737
338.45609 -307.68732 -342.1604
333.95364 -333.95349 -391.56879
332.634 -362.87329 -406.05045
331.63202 -391.92865 -417.04572
407.63446 -815.26886 416.98209
407.48853 -852.0213 415.38065
408.82648 -891.98492 430.06281
410.48367 -932.9173 448.24835
329.54803 164.77414 -741.27838
329.80695 137.41963 -738.67401
331.06781 110.35619 -725.99048
489.14563 122.28663 864.14948
481.3757 80.229477 785.99017
473.84882 39.487511 710.27527
466.03076 0.00026913188 631.63184
458.52136 -38.209957 556.09302
450.61581 -75.102501 476.56961
441.25317 -110.31307 382.38892
432.07678 -144.02542 290.08151
423.26617 -176.36079 201.45354
411.32199 -205.66081 81.304314
400.69528 -233.73877 -25.592354
389.56641 -259.71082 -137.54019
379.17923 -284.38419 -242.02716
369.80875 -308.17383 -336.2865
365.62613 -335.1572 -378.36066
364.51794 -364.51785 -389.5079
363.62933 -393.93167 -398.44666
445.75797 -854.36926 427.70343
447.12808 -894.25598 441.48581
448.75546 -934.90717 457.85626
451.435 -978.10901 484.80991
358.96686 165.67712 -723.11133
359.06943 138.10378 -722.15887
360.48169 110.91753 -709.04541
522.92377 80.44989 799.30035
514.83057 39.602448 724.15088
506.37643 0.00029812657 645.65088
498.19293 -38.322411 569.66339
489.59863 -75.322655 489.86154
479.24286 -110.59433 393.70386
469.25391 -144.3857 300.95175
459.16888 -176.60324 207.30826
446.19424 -205.93568 86.833099
434.6832 -234.0601 -20.051918
422.35876 -259.91287 -134.49001
411.13824 -284.63403 -238.67726
401.36868 -308.745 -329.392
397.64526 -336.4689 -363.96564
396.7532 -366.2337 -372.24872
396.94116 -396.94095 -370.5032
485.67709 -859.27466 453.44839
485.68695 -896.65277 453.54022
487.3923 -937.29279 469.37506
489.4581 -978.91608 488.55682
388.70551 166.58826 -704.78223
388.62915 138.79634 -705.44073
390.19348 111.48395 -691.95264
556.12372 39.723343 738.72949
546.96417 6.5240303e-05 659.75427
538.09863 -38.435421 583.31378
528.75909 -75.536766 502.78647
517.42676 -110.87701 405.07687
506.6174 -144.74763 311.8765
495.17047 -176.84644 213.1792
481.15979 -206.21117 92.37632
468.76688 -234.38335 -14.477841
455.20422 -260.11661 -131.41754
443.15533 -284.88547 -235.30504
433.31769 -309.51245 -320.12781
430.00226 -337.85876 -348.71341
429.29333 -367.96567 -354.82617
431.57208 -400.74539 -335.17816
524.52802 -899.19067 466.30521
526.21338 -939.66656 480.83676
528.2431 -981.02264 498.33743
531.42566 -1024.8923 525.77832
418.73166 167.49277 -686.58319
418.48676 139.49564 -688.55402
420.19104 112.05101 -674.83911
587.79297 0.00011811816 673.91711
578.24054 -38.549355 597.04504
568.01105 -75.734749 514.72473
555.80634 -111.16113 416.50824
544.1687 -145.11156 322.85632
531.2713 -177.09024 219.0661
516.23114 -206.49225 98.032005
502.78186 -234.63135 -10.199432
488.1012 -260.32034 -128.34062
475.22705 -285.13608 -231.94376
465.65796 -310.43845 -308.94983
462.63165 -339.26315 -333.30347
461.8754 -369.50021 -339.38925
465.81735 -403.70819 -307.66675
567.62775 -908.20447 511.64026
565.31274 -942.18774 493.01022
567.32678 -983.36621 509.21783
569.84692 -1025.7242 529.49841
583.03162 -1166.063 635.60046
581.11609 -1200.9731 620.18567
448.99991 168.37502 -668.83264
448.68799 140.21519 -671.18622
450.49533 112.62399 -657.55048
628.88452 0.00016962878 688.29211
618.62073 -38.663677 610.85748
607.46918 -75.933556 526.72552
594.38306 -111.44674 427.99832
581.9093 -145.47722 333.89139
567.47192 -177.33481 224.96951
551.42932 -206.7858 103.93737
536.73163 -234.82002 -6.9476519
521.04974 -260.52472 -125.25854
507.35739 -285.38846 -228.55951
498.22186 -311.38852 -297.48154
495.64407 -340.75516 -316.92957
494.4494 -370.83685 -325.94296
501.91306 -407.80432 -269.63394
605.97839 -946.84119 515.47882
606.77301 -986.00598 521.47321
609.06506 -1027.7972 538.76569
611.60034 -1070.3005 557.89325
614.58075 -1113.9274 580.37836
616.08514 -1155.1595 591.72784
619.42926 -1200.1439 616.95721
479.57767 169.26297 -650.97266
479.20966 140.94423 -653.586
481.1037 113.20091 -640.13684
659.24139 -38.778805 624.7525
647.13501 -76.133247 538.78937
633.16168 -111.73419 439.57019
619.84058 -145.84464 344.98199
603.76965 -177.57912 230.8683
586.72766 -207.08031 109.85957
570.73865 -235.00998 -3.672219
554.0575 -260.73279 -122.11948
539.5423 -285.63989 -225.18614
531.28168 -312.51852 -283.84195
528.9505 -342.26205 -300.3949
527.67657 -372.47739 -309.44049
647.02435 -989.56647 538.00385
648.92725 -1030.649 551.51556
651.54425 -1073.1315 570.0979
654.6488 -1116.7537 592.14197
510.56436 170.18828 -632.35492
510.05038 141.68085 -635.80176
512.01746 113.7817 -622.61041
687.01019 -76.33432 550.91724
672.13757 -112.02287 451.17908
657.96399 -146.214 356.12881
640.17065 -177.82506 236.8042
622.12372 -207.37444 115.77904
604.80078 -235.20027 -0.39144525
587.18311 -260.97015 -118.53817
571.83844 -285.91907 -221.44182
564.6546 -313.69687 -269.61783
562.62451 -343.8259 -283.23212
561.63519 -374.42328 -289.86655
541.94012 171.1391 -613.22498
541.16479 142.41194 -618.15057
543.25 114.36852 -604.9032
727.59296 -76.588646 566.26349
711.31525 -112.3127 462.84802
696.28101 -146.58539 367.33255
676.67261 -178.07149 242.75645
657.6236 -207.67041 121.73476
638.91809 -235.39078 2.8947642
620.36639 -261.20676 -114.96789
604.75793 -286.46411 -214.13118
598.30316 -314.89627 -255.13936
596.75562 -345.48999 -264.97134
598.85254 -378.22256 -251.64955
573.62146 172.08652 -594.16388
572.56854 143.1422 -600.51843
574.83783 114.96779 -586.82245
750.69635 -112.60433 474.57767
734.79309 -146.95851 378.59299
713.27594 -178.31886 248.72554
693.22174 -207.96628 127.68795
673.09064 -235.58157 6.1859684
653.61273 -261.44501 -111.37342
637.86963 -287.0412 -206.39149
632.4115 -316.20554 -239.33472
631.22144 -347.17169 -246.51703
634.53088 -380.71844 -226.54276
605.64832 173.0424 -574.93158
604.34814 143.89241 -582.40509
606.77747 115.57674 -568.44122
772.69977 -147.18074 385.30133
749.98102 -178.56674 254.71101
728.92493 -208.26422 133.67801
707.31549 -235.77165 9.464282
686.91681 -261.68237 -107.79027
671.55322 -287.80847 -196.10165
666.86505 -317.55469 -223.04994
666.18835 -348.95566 -226.93965
671.42468 -383.67123 -196.84077
638.49933 174.1364 -552.9259
636.47516 144.65349 -564.0321
639.05481 116.19195 -549.87836
810.65619 -147.39183 391.67279
786.78827 -178.81526 260.7131
764.73041 -208.56271 139.68515
741.599 -235.96313 12.766168
720.28455 -261.92163 -104.18274
705.9104 -288.78146 -183.0517
701.73584 -318.97073 -205.95694
