# .PCD v0.7 - Point Cloud Data file format
VERSION 0.7
FIELDS x y z
SIZE 4 4 4
TYPE F F F
COUNT 1 1 1
WIDTH 1484
HEIGHT 1
VIEWPOINT 0 0 0 1 0 0 0
POINTS 1484
DATA ascii
-9.0691957 2.6674104 -2.2627153
-9.0630579 2.1324837 -2.3062992
-9.0624237 1.599252 -2.310796
-9.073041 1.0674151 -2.2354097
-9.0818148 0.53422159 -2.173111
-9.0867844 -1.8186013e-06 -2.1378238
-9.0928755 -0.5348773 -2.0945749
-9.0972195 -1.0702635 -2.0637305
-9.0993328 -1.6057665 -2.0487216
-9.0990934 -2.1409645 -2.0504205
-9.0955048 -2.6751485 -2.0759046
-9.0912819 -3.2086871 -2.1058891
-9.0851145 -3.740931 -2.1496861
-9.0776434 -4.2718358 -2.2027254
-9.0685225 -4.8009839 -2.2675004
-9.0641661 -5.3318624 -2.2984324
-9.0635319 -5.8646407 -2.3029261
-9.0619106 -6.3966417 -2.3144486
-9.0604067 -6.9285479 -2.3251185
-9.0609999 -7.4620028 -2.3209083
-9.0599718 -7.9940953 -2.3282096
-9.0617914 -8.5287476 -2.3152909
-9.0639277 -9.0639305 -2.3001156
-9.0444965 -9.5765285 -2.438096
-9.0247936 -10.086536 -2.577997
-9.0043182 -10.593316 -2.7233877
-8.981019 -11.094201 -2.8888261
-8.95784 -11.592502 -3.0534062
-8.9347811 -12.088234 -3.2171447
-8.9118404 -12.581423 -3.3800364
-8.8839951 -13.064702 -3.577755
-8.8562851 -13.544908 -3.7745159
-8.8287106 -14.022071 -3.9703131
-8.801343 -14.496333 -4.1646318
-8.771328 -14.962855 -4.3777599
-8.7402649 -15.423997 -4.5983286
-8.7094212 -15.881888 -4.8173361
-8.5915709 -16.172369 -5.6541514
-8.5592947 -16.615103 -5.8833342
-8.5280657 -17.056131 -6.1050816
-8.6609411 -17.831352 -5.1615758
-8.2283154 16.456629 -4.5818582
-8.2277603 15.941281 -4.5860419
-8.2288342 15.429064 -4.5779395
-8.6520376 5.9482751 -1.3851186
-8.6484756 5.4052963 -1.4119936
-8.6451836 4.8629165 -1.4368249
-8.6418953 4.3209457 -1.4616368
-8.6376915 3.7789884 -1.4933467
-8.6333399 3.2375016 -1.5261816
-8.6289549 2.6965475 -1.5592659
-8.6282301 2.1570575 -1.5647312
-8.6240406 1.6170073 -1.5963399
-8.5351915 1.0668963 -2.2666545
-8.5366459 0.53353924 -2.2556808
-8.5366459 -1.8156329e-06 -2.2556784
-8.5366087 -0.5335381 -2.2559626
-8.5366087 -1.0670789 -2.2559602
-8.6243067 -1.6170591 -1.5943284
-8.6247635 -2.1561933 -1.5908829
-8.6260967 -2.6956558 -1.5808265
-8.5100193 -3.1912606 -2.4565609
-8.5041656 -3.7205751 -2.5007203
-8.6084213 -4.3042126 -1.7141768
-8.597661 -4.8361864 -1.7953539
-8.5869284 -5.3668318 -1.8763314
-8.5761843 -5.8961272 -1.9573859
-8.5638523 -6.4228892 -2.0504224
-8.5491238 -6.9461637 -2.1615417
-8.5344458 -7.4676409 -2.2722826
-8.5198174 -7.98733 -2.3826389
-8.5039816 -8.5039825 -2.5021174
-8.4854746 -9.0158176 -2.6417384
-8.4670486 -9.5254307 -2.7807546
-8.4486656 -10.032792 -2.9194386
-8.4299994 -10.5375 -3.0602684
-8.4082289 -11.035801 -3.2245159
-8.3866415 -11.531635 -3.3873687
-8.3651667 -12.024927 -3.5493951
-8.3438005 -12.515703 -3.7105873
-8.3185034 -12.997663 -3.9014399
-8.292654 -13.475567 -4.0964513
-8.2670012 -13.950565 -4.2899938
-8.2415066 -14.422638 -4.4823375
-8.2141991 -14.888237 -4.6883578
-8.1852531 -15.347352 -4.9067321
-8.156477 -15.803176 -5.1238346
-8.1279364 -16.255875 -5.3391542
-8.0165663 -16.53417 -6.1793814
-7.987361 -16.973146 -6.3997121
-7.9946184 -17.488228 -6.3449683
-7.671104 16.365019 -4.9274278
-7.6709108 15.853216 -4.9289784
-7.709434 15.418868 -4.618969
-8.5717115 16.571976 2.320107
-8.1758127 1.6351618 -0.86584264
-7.9587622 1.0611665 -2.6125257
-7.9587278 0.5305807 -2.6128082
-7.9587278 -2.5955715e-06 -2.6128061
-7.9585896 -0.53057486 -2.6139174
-7.9584856 -1.0611318 -2.6147547
-8.0019169 -1.6003842 -2.2652483
-8.1776018 -2.1806941 -0.85144788
-8.1754112 -2.7251394 -0.86907339
-7.9340067 -3.1736059 -2.8117452
-7.9288197 -3.7001169 -2.8534887
-8.0261488 -4.2806144 -2.0702426
-8.0161724 -4.8097043 -2.1505299
-8.0062189 -5.337481 -2.2306211
-7.9962568 -5.8639216 -2.3107975
-7.9852047 -6.388166 -2.3997355
-7.9715452 -6.9086723 -2.5096612
-7.9578977 -7.4273729 -2.6194863
-7.9443312 -7.9443316 -2.7286596
-7.9299874 -8.4586544 -2.8440948
-7.9128213 -8.9678659 -2.9822295
-7.8957305 -9.4748793 -3.1197689
-7.8786788 -9.9796629 -3.2569888
-7.8617005 -10.482267 -3.3936188
-7.8414369 -10.978015 -3.5566888
-7.8214107 -11.471403 -3.7178457
-7.801487 -11.962281 -3.8781829
-7.7816639 -12.450664 -4.0377045
-7.7587519 -12.931254 -4.222085
-7.7347984 -13.406986 -4.4148493
-7.7109599 -13.879728 -4.6066899
-7.6873322 -14.349689 -4.7968292
-7.6625981 -14.814357 -4.9958735
-7.6356983 -15.271399 -5.2123437
-7.6090183 -15.725307 -5.4270501
-7.5825238 -16.176054 -5.6402593
-7.4790688 -16.453955 -6.4728012
-7.4519839 -16.891167 -6.6907611
-7.4253058 -17.325714 -6.9054551
-7.1201501 16.274628 -5.2684035
-7.1201501 15.766047 -5.2683997
-7.194654 15.417113 -4.6260185
-7.9991789 16.569727 2.3107467
-7.3873429 1.0553323 -2.9646165
-7.3871517 0.52765131 -2.9662678
-7.3871517 1.0282474e-07 -2.9662693
-7.386992 -0.52764243 -2.9676442
-7.3867679 -1.0552537 -2.9695725
-7.428081 -1.5917346 -2.6133611
-7.3643317 -3.1561434 -3.1630228
-7.3597026 -3.6798527 -3.2029359
-7.3545728 -4.2026148 -3.24717
-7.4410157 -4.7835116 -2.5018408
-7.4318275 -5.3084488 -2.5810633
-7.4226298 -5.832067 -2.6603632
-7.4127803 -6.3538117 -2.7452943
-7.4001355 -6.8715577 -2.8543141
-7.3875666 -7.3875675 -2.9626918
-7.3750396 -7.9018288 -3.0706966
-7.3620796 -8.413806 -3.1824417
-7.3462281 -8.9204197 -3.3191185
-7.3304129 -9.4248171 -3.455478
-7.3146968 -9.9270887 -3.5909853
-7.298986 -10.427126 -3.7264471
-7.2805195 -10.920781 -3.8856697
-7.2620225 -11.411752 -4.0451536
-7.2436194 -11.900232 -4.2038312
-7.2253094 -12.386246 -4.3617039
-7.2047219 -12.865579 -4.539207
-7.1825919 -13.339101 -4.7300215
-7.1605668 -13.809666 -4.9199252
-7.1387358 -14.277473 -5.1081557
-7.1164155 -14.741149 -5.3006029
-7.0915856 -15.196256 -5.5146961
-7.0669279 -15.648199 -5.7272954
-7.0424414 -16.09701 -5.9384212
-6.9467902 -16.374578 -6.763144
-6.9217262 -16.809906 -6.9792562
-6.8968697 -17.242176 -7.1935701
-6.5754414 16.185698 -5.6038594
-6.5754414 15.679896 -5.603858
-6.6808066 15.417244 -4.6254935
-7.4275308 16.569105 2.3081656
-6.8221426 1.049561 -3.3131294
-6.8218784 0.52475929 -3.3155801
-6.8218784 -2.8860225e-07 -3.3155794
-6.8216734 -0.5247454 -3.3174844
-6.8214383 -1.0494543 -3.3196623
-6.8566823 -1.5823133 -2.9924073
-6.8008623 -3.1388605 -3.5107241
-6.7966981 -3.6597617 -3.5493944
-6.7921314 -4.1797738 -3.5917931
-6.8720899 -4.7576013 -2.8493435
-6.8636503 -5.2797337 -2.9277067
-6.8552022 -5.8005581 -3.0061541
-6.8464494 -6.3198018 -3.0874283
-6.8348627 -6.8348651 -3.1950119
-6.8233156 -7.3481884 -3.3022337
-6.8118072 -7.8597808 -3.4090936
-6.8001628 -8.3694324 -3.5172164
-6.7855687 -8.873436 -3.6527293
-6.7710667 -9.3753252 -3.7873912
-6.7566257 -9.8750706 -3.9214785
-6.7421894 -10.372602 -4.0555272
-6.725534 -10.864325 -4.2101827
-6.7084503 -11.352765 -4.3688102
-6.6915374 -11.838875 -4.5258503
-6.6747098 -12.322543 -4.6821012
-6.6562915 -12.800564 -4.8531246
-6.6359205 -13.271844 -5.0422764
-6.6157017 -13.740306 -5.2300181
-6.595633 -14.20598 -5.4163642
-6.5756316 -14.668718 -5.6020889
-6.5528011 -15.121851 -5.8140821
-6.530128 -15.571846 -6.02461
-6.507638 -16.018803 -6.2334375
-6.4196224 -16.295967 -7.050703
-6.3965707 -16.729496 -7.2647433
-6.3737102 -17.15999 -7.4770188
-6.482574 -17.951746 -6.4661646
-6.0366273 16.097672 -5.9359231
-6.0366273 15.594621 -5.9359212
-6.1680145 15.420035 -4.6142645
-6.9437861 16.780817 3.1893902
-7.1033249 16.574425 4.7942376
-6.253283 1.5633208 -3.7565317
-6.2631736 1.0438612 -3.657037
-6.2627726 0.52189702 -3.6610763
-6.2627726 -7.6829707e-07 -3.6610799
-6.2627726 -0.52189916 -3.6610777
-6.2627993 -1.0438029 -3.6608078
-6.2931156 -1.5732809 -3.3558443
-6.2435565 -3.1217806 -3.8543715
-6.2398338 -3.6399045 -3.8918178
-6.2357974 -4.1571984 -3.9324257
-6.3092947 -4.7319727 -3.1930997
-6.3015871 -5.2513237 -3.2706242
-6.2939539 -5.7694597 -3.3474162
-6.2861767 -6.28618 -3.4256475
-6.2755947 -6.7985625 -3.5320911
-6.265049 -7.3092251 -3.6381795
-6.2545109 -7.81814 -3.7441788
-6.2439823 -8.3253107 -3.850091
-6.2308116 -8.8269844 -3.9825761
-6.2175646 -9.3263454 -4.1158352
-6.2043729 -9.8235931 -4.2485266
-6.1911597 -10.3186 -4.3814464
-6.1762571 -10.808452 -4.5313506
-6.1605711 -11.294381 -4.6891408
-6.1451197 -11.778148 -4.8445716
-6.129745 -12.259492 -4.999227
-6.1133504 -12.736149 -5.164144
-6.0947604 -13.205315 -5.3511457
-6.0762582 -13.671583 -5.537262
-6.0579429 -14.135202 -5.7215004
-6.0398126 -14.596214 -5.9038806
-6.0192666 -15.048168 -6.1105537
-5.9985166 -15.496171 -6.3192835
-5.977982 -15.941286 -6.525847
-5.8974686 -16.218039 -7.3357487
-5.8764167 -16.649847 -7.5475187
-5.8554902 -17.078516 -7.7580137
-5.9471893 -17.84157 -6.8355985
-5.5036874 16.511063 -6.2638946
-5.503665 16.01066 -6.2641454
-5.503665 15.510329 -6.264142
-6.4551425 17.604931 4.1770816
-6.4549251 17.01753 4.1747012
-6.5113182 16.574265 4.7935419
-5.6996036 1.5544356 -4.1139741
-5.7101932 1.0382156 -3.997766
-5.7099261 0.519081 -4.0006967
-5.7099261 -3.0206434e-06 -4.0006967
-5.7099261 -0.51908684 -4.0006967
-5.7101445 -1.038208 -3.9983013
-5.7381029 -1.5649396 -3.6914926
-5.6923318 -3.1049094 -4.1937718
-5.6889563 -3.6202464 -4.230813
-5.6854157 -4.1348495 -4.2696652
-5.7525296 -4.7066164 -3.5331771
-5.7455411 -5.2232189 -3.6098707
-5.738667 -5.738668 -3.6853037
-5.7318335 -6.2529116 -3.760287
-5.7222357 -6.7626443 -3.8656099
-5.712646 -7.2706428 -3.9708459
-5.7031126 -7.7769732 -4.0754633
-5.6935382 -8.2815123 -4.180531
-5.6818318 -8.7810144 -4.30899
-5.6698146 -9.2778788 -4.440866
-5.6578245 -9.7726068 -4.5724444
-5.6458373 -10.265162 -4.703989
-5.6326008 -10.753148 -4.8492384
-5.6182981 -11.236597 -5.0061913
-5.6042552 -11.717987 -5.160296
-5.5903053 -12.197032 -5.313375
-5.5758696 -12.672433 -5.4717922
-5.5589752 -13.139399 -5.6571817
-5.5422063 -13.603599 -5.8412004
-5.5255837 -14.065125 -6.0236101
-5.5091281 -14.524067 -6.2041883
-5.4908843 -14.97514 -6.4043946
-5.4720693 -15.421288 -6.6108646
-5.4534273 -15.864516 -6.8154373
-5.3802843 -16.140856 -7.6180854
-5.3611698 -16.57089 -7.8278427
-5.3421693 -16.997812 -8.0363522
-5.3553119 -17.526478 -7.8921232
-4.9764132 16.422163 -6.5890803
-4.9764132 15.924519 -6.5890818
-4.9764132 15.42688 -6.5890808
-5.9520464 17.260933 5.187851
-5.9520173 16.665646 5.1875043
-6.1411953 16.581226 7.4710851
-5.1521149 1.5456336 -4.4681702
-5.1631613 1.0326324 -4.3348308
-5.1630306 0.5163005 -4.3364105
-5.1630306 -2.0049786e-06 -4.3364096
-5.1630306 -0.51630437 -4.3364139
-5.1632485 -1.0326521 -4.333775
-5.188592 -1.5565808 -4.0278563
-5.1470327 -3.0882223 -4.5295186
-5.1440182 -3.6008158 -4.5659046
-5.1409431 -4.1127548 -4.6030307
-5.2017002 -4.6815314 -3.8696244
-5.1954141 -5.1954141 -3.9455049
-5.1892753 -5.7082043 -4.0196085
-5.1833053 -6.2199674 -4.0916739
-5.1746716 -6.7270751 -4.1958852
-5.1660671 -7.2324948 -4.2997556
-5.1574688 -7.7362065 -4.403542
-5.1488562 -8.2381706 -4.5075111
-5.1385412 -8.7355204 -4.6320238
-5.1277075 -9.2298756 -4.7627921
-5.116941 -9.722188 -4.8927603
-5.1061554 -10.212313 -5.0229516
-5.09448 -10.698409 -5.163887
-5.0816097 -11.179543 -5.3192487
-5.0689092 -11.658493 -5.4725533
-5.056356 -12.135256 -5.6240869
-5.0437393 -12.60935 -5.7763782
-5.0285335 -13.074188 -5.9599299
-5.0134397 -13.536289 -6.142128
-4.998477 -13.995738 -6.3227429
-4.9836645 -14.452631 -6.5015435
-4.9676256 -14.90288 -6.6951532
-4.9506855 -15.347129 -6.8996372
-4.9339004 -15.788483 -7.1022515
-4.9173675 -16.227314 -7.3018227
-4.8507481 -16.492546 -8.1059895
-4.8336568 -16.917799 -8.3123055
-4.8166852 -17.340069 -8.5171652
-4.4547858 16.334215 -6.9107852
-4.4547858 15.839239 -6.9107838
-4.4728651 15.406534 -6.668304
-5.4346271 17.511578 6.2311325
-5.4345999 16.907644 6.2307725
-5.5279651 16.583899 7.483016
-4.6109476 1.5369803 -4.8162971
-4.6219831 1.0271041 -4.6682854
-4.6219635 0.51355028 -4.6685486
-4.6219635 -1.620656e-06 -4.6685457
-4.6219635 -0.5135532 -4.6685495
-4.622139 -1.0271426 -4.6662002
-4.6449203 -1.5483087 -4.3606482
-4.6075835 -3.0717244 -4.8614187
-4.6048803 -3.5815737 -4.8976779
-4.6021996 -4.090847 -4.9336305
-4.6567111 -4.6567111 -4.2025051
-4.6511135 -5.1679039 -4.277585
-4.6456861 -5.6780615 -4.3503757
-4.6403694 -6.1871605 -4.4216866
-4.6328568 -6.6919069 -4.5224447
-4.6251931 -7.1947465 -4.6252308
-4.617516 -7.6958609 -4.7282004
-4.6098642 -8.1953154 -4.8308272
-4.6008315 -8.6904593 -4.9519825
-4.5912004 -9.1824045 -5.081151
-4.5815907 -9.6722479 -5.210042
-4.5719833 -10.159966 -5.3389001
-4.5618095 -10.644224 -5.4753513
-4.550343 -11.123064 -5.6291413
-4.5389719 -11.599597 -5.7816591
-4.5277872 -12.074101 -5.9316683
-4.5166583 -12.546274 -6.0809379
-4.5033307 -13.009625 -6.2596865
-4.4898615 -13.469586 -6.4403405
-4.4765458 -13.927033 -6.6189361
-4.4633446 -14.381889 -6.7959924
-4.4493928 -14.831311 -6.98312
-4.4342923 -15.273676 -7.1856508
-4.4193478 -15.713238 -7.3860927
-4.4045916 -16.150171 -7.5840058
-4.3451476 -16.415003 -8.3812895
-4.3298922 -16.83847 -8.5858984
-4.3147607 -17.259045 -8.7888479
-3.9387164 16.247206 -7.2290602
-3.9387164 15.754865 -7.2290583
-3.9759932 15.406973 -6.6665955
-4.9020333 17.157114 7.3062696
-4.9142661 16.585649 7.49085
-4.0759411 1.5284768 -5.1584973
-4.0866337 1.0216548 -4.9971609
-4.0866337 0.51082784 -4.9971604
-4.0866337 -1.2615236e-06 -4.9971619
-4.0866337 -0.51083028 -4.9971628
-4.0867362 -1.0216839 -4.995616
-4.1069956 -1.5401236 -4.6899242
-4.4313135 -2.2156589 0.20365492
-4.0738502 -3.0553868 -5.1900506
-4.0714898 -3.5625558 -5.2256627
-4.0691152 -4.0691171 -5.2614965
-4.1174698 -4.6321564 -4.5318756
-4.1125464 -5.1406856 -4.6061645
-4.1078248 -5.6482601 -4.6774139
-4.1031313 -6.1546993 -4.7482328
-4.0966773 -6.6571031 -4.8456097
-4.0899191 -7.1573596 -4.9475875
-4.0831823 -7.6559696 -5.0492311
-4.0764341 -8.1528702 -5.1510549
-4.0686574 -8.6458979 -5.2684031
-4.060184 -9.135416 -5.3962502
-4.0517292 -9.62286 -5.5238247
-4.0432763 -10.108191 -5.6513739
-4.0345082 -10.590584 -5.7836742
-4.0244179 -11.067154 -5.9359198
-4.0143785 -11.541338 -6.0874114
-4.0045033 -12.013512 -6.2364101
-3.9947095 -12.483468 -6.3841872
-3.9832735 -12.94564 -6.5567465
-3.9714344 -13.403592 -6.7353835
-3.9597297 -13.859055 -6.9119959
-3.9480937 -14.311841 -7.0875697
-3.9361134 -14.760427 -7.2683344
-3.9228029 -15.200864 -7.4691749
-3.9096608 -15.638645 -7.6674762
-3.8966837 -16.07382 -7.863286
-3.8442788 -16.338186 -8.6540098
-3.8308451 -16.759947 -8.8567142
-3.8175049 -17.178772 -9.0580053
-3.8826654 -17.957329 -8.0748034
-3.428102 16.161053 -7.5441985
-3.428102 15.671323 -7.544199
-3.4791074 15.407476 -6.6646409
-4.3535151 17.414061 8.4139814
-4.3534932 16.792044 8.413599
-4.468462 16.597141 10.396162
-3.5468082 1.5200585 -5.4971848
-3.5569341 1.0162637 -5.322566
-3.5569341 0.50813162 -5.3225684
-3.5569341 -1.336606e-06 -5.3225651
-3.5569341 -0.50813359 -5.3225675
-3.5569043 -1.01626 -5.3230772
-3.5747275 -1.5320274 -5.0157337
-3.7761185 -2.1577835 -1.54287
-3.5458517 -3.0393033 -5.5136814
-3.5437932 -3.5437932 -5.5491767
-3.5417519 -4.0477171 -5.5843778
-3.5838864 -4.6078563 -4.85779
-3.5796235 -5.1137495 -4.9313059
-3.5755651 -5.6187477 -5.0012894
-3.571501 -6.1225739 -5.0713725
-3.5660317 -6.6226325 -5.1656818
-3.560194 -7.1203895 -5.2663546
-3.5543454 -7.616456 -5.367208
-3.5485017 -8.1108608 -5.4679818
-3.5419133 -8.6017923 -5.5815911
-3.5345747 -9.0889072 -5.7081432
-3.5272372 -9.5739317 -5.834672
-3.5199156 -10.056905 -5.9609294
-3.5124943 -10.537484 -6.0889025
-3.5037539 -11.011799 -6.2396317
-3.4950566 -11.483757 -6.3896117
-3.486459 -11.953577 -6.5378637
-3.4779749 -12.421339 -6.6841736
-3.4683208 -12.882335 -6.8506517
-3.4580483 -13.338189 -7.0277891
-3.4479201 -13.791682 -7.2024455
-3.4378374 -14.242471 -7.3763165
-3.4277034 -14.690159 -7.5510716
-3.4161806 -15.128803 -7.7497711
-3.4047899 -15.564754 -7.9462023
-3.3935418 -15.998128 -8.1401672
-3.3480501 -16.261959 -8.9246445
-3.3364308 -16.682156 -9.1250105
-3.3248658 -17.099312 -9.3244438
-3.3772755 -17.851316 -8.4206696
-2.9228859 16.075871 -7.8557787
-2.9228973 15.588784 -7.8555441
-2.982177 15.407916 -6.6629319
-3.7870257 17.672789 9.5293694
-3.7882986 17.047344 9.5549784
-3.832314 16.606693 10.440504
-3.0235581 1.5117778 -5.8304081
-3.0327835 1.010926 -5.6448054
-3.0327835 0.50546235 -5.6448078
-3.0327835 6.6301391e-07 -5.6448092
-3.0327835 -0.50546581 -5.6448078
-3.0326202 -1.0108763 -5.6480889
-3.048027 -1.5240153 -5.3381362
-3.2017879 -2.134527 -2.2447023
-3.0233836 -3.0233865 -5.8339195
-3.0216503 -3.5252593 -5.8687944
-3.0199187 -4.0265594 -5.9036293
-3.055872 -4.5838113 -5.1803045
-3.0522814 -5.0871372 -5.2525411
-3.0488386 -5.5895395 -5.3218002
-3.045404 -6.0908108 -5.390902
-3.0408657 -6.5885453 -5.4822054
-3.035913 -7.083797 -5.5818472
-3.0309389 -7.5773492 -5.6819153
-3.0259938 -8.0693178 -5.7814116
-3.0205164 -8.5581303 -5.8916063
-3.0142899 -9.0428715 -6.0168757
-3.0080638 -9.5255356 -6.1421304
-3.0018516 -10.006173 -6.2671108
-2.9956646 -10.484828 -6.3915801
-2.9882717 -10.956998 -6.5403185
-2.9808905 -11.426748 -6.6888108
-2.9735582 -11.894234 -6.836328
-2.9663579 -12.359827 -6.9811869
-2.9583797 -12.819646 -7.1416993
-2.9496603 -13.273471 -7.317121
-2.9410629 -13.724961 -7.4900842
-2.9325037 -14.173769 -7.662282
-2.9239943 -14.619972 -7.8334789
-2.9143393 -15.057423 -8.0277224
-2.9046674 -15.491561 -8.2223072
-2.8951163 -15.923142 -8.4144554
-2.8564191 -16.186375 -9.1929865
-2.8465848 -16.60508 -9.3908367
-2.8367634 -17.020582 -9.5884295
-2.8510494 -17.581474 -9.3010101
-2.4230828 16.476961 -8.1613073
-2.4229579 15.991521 -8.1643229
-2.4230638 15.507607 -8.1617708
-3.2051308 17.307709 10.719007
-3.2056358 16.669306 10.731196
-2.5063906 1.5038314 -6.1500797
-2.5141218 1.0056478 -5.9634309
-2.5141218 0.50282156 -5.9634285
-2.5141218 -1.9790864e-06 -5.9634309
-2.5141218 -0.50282604 -5.9634275
-2.5139563 -1.0055853 -5.9674277
-2.5268071 -1.5160872 -5.6571808
-2.6466067 -2.1172855 -2.7649672
-2.5063493 -3.007621 -6.1510744
-2.50493 -3.5069013 -6.185338
-2.5035024 -4.0056062 -6.2198067
-2.5333502 -4.5600324 -5.4992161
-2.5304098 -5.060822 -5.570199
-2.5275602 -5.5606346 -5.6389966
-2.5247273 -6.0593491 -5.7073865
-2.5210781 -6.5548043 -5.7954898
-2.5169828 -7.047554 -5.8943605
-2.5128903 -7.5386739 -5.9931598
-2.5088007 -8.028163 -6.0918927
-2.5043855 -8.5149117 -6.1984854
-2.4992385 -8.997261 -6.3227444
-2.4941027 -9.4775934 -6.4467363
-2.4889777 -9.9559097 -6.570467
-2.4838736 -10.43227 -6.6936903
-2.4778948 -10.90274 -6.8380294
-2.4718049 -11.370304 -6.985054
-2.4657447 -11.835577 -7.1313581
-2.4597836 -12.298919 -7.2752743
-2.4533677 -12.757515 -7.430162
-2.4461815 -13.209382 -7.6036539
-2.439086 -13.658883 -7.7749562
-2.4320219 -14.105726 -7.9455023
-2.4249983 -14.549994 -8.1150599
-2.4172113 -14.986709 -8.3030634
-2.409236 -15.419112 -8.4955969
-2.4013419 -15.848858 -8.6861811
-2.3935084 -16.275858 -8.8752956
-2.3612449 -16.528715 -9.6542091
-2.3531351 -16.942574 -9.8499928
-2.345207 -17.354534 -10.04139
-1.9283402 16.390892 -8.4668903
-1.9282564 15.908115 -8.4694166
-1.9284163 15.427327 -8.4645929
-2.6033881 17.572866 11.904481
-2.6047208 16.930685 11.944705
-2.6582844 16.614277 13.56113
-2.7045381 11.494287 14.956956
-2.7033105 10.813241 14.919913
-2.7025177 10.13444 14.895982
-2.7019048 9.4566669 14.877488
-2.7012172 8.7789564 14.856742
-2.7004554 8.101366 14.833751
-2.6997986 7.4244447 14.81393
-2.6996346 6.7490849 14.808979
-2.6994703 6.0738087 14.804025
-2.6997688 5.3995376 14.813029
-2.6998286 4.7247005 14.814835
-2.6999776 4.0499678 14.819338
-2.7006495 3.3758113 14.83961
-2.701292 2.7012911 14.858998
-1.994622 1.4959633 -6.4666562
-2.0008407 1.0004201 -6.2789912
-2.0008407 0.50021064 -6.2789903
-2.0008407 -8.128676e-07 -6.2789912
-2.0008407 -0.50021029 -6.2789907
-2.0007179 -1.00036 -6.2827015
-2.0109828 -1.50824 -5.9729266
-2.1054282 -2.1054311 -3.122782
-1.9946628 -2.9919951 -6.4654293
-1.9935718 -3.4887512 -6.4983544
-1.9924167 -3.9848354 -6.5332031
-2.0162132 -4.5364804 -5.8150864
-2.0139019 -5.0347548 -5.884841
-2.0116456 -5.5320268 -5.95293
-2.0094023 -6.0282106 -6.0206175
-2.0065789 -6.5213833 -6.1058264
-2.0033441 -7.0117064 -6.2034435
-2.0000951 -7.5003572 -6.3014922
-1.9968648 -7.9874625 -6.3989739
-1.9934334 -8.4720945 -6.5025282
-1.9893651 -8.9521465 -6.6252947
-1.9852895 -9.4301252 -6.7482934
-1.9812382 -9.9061918 -6.8705473
-1.9771956 -10.380279 -6.9925437
-1.9725479 -10.849016 -7.1328025
-1.9677237 -11.314411 -7.278388
-1.962923 -11.77754 -7.4232559
-1.9581692 -12.23856 -7.5667152
-1.9532354 -12.696032 -7.7156091
-1.9475416 -13.145908 -7.8874335
-1.9419194 -13.593438 -8.0570993
-1.9363221 -14.038337 -8.2260132
-1.9307567 -14.480678 -8.3939619
-1.9247226 -14.916601 -8.5760584
-1.9184097 -15.347277 -8.766571
-1.9121602 -15.775323 -8.955162
-1.905944 -16.200523 -9.1427526
-1.8803265 -16.452858 -9.9158278
-1.8739197 -16.865278 -10.109172
-1.8676277 -17.275557 -10.299049
-2.054584 24.65501 16.010378
-2.0516036 23.935373 15.89045
-1.4387338 16.305649 -8.7695265
-1.4386829 15.82551 -8.7715721
-1.4441282 15.404032 -8.5524693
-2.0407445 21.087694 15.45352
-2.038507 20.385071 15.363494
-2.0362859 19.684097 15.274119
-2.0341487 18.985386 15.188118
-2.0321059 18.288954 15.105931
-1.9839941 17.194614 13.170058
-1.9955817 16.629848 13.636306
-2.0266416 16.213133 14.886059
-2.0251513 15.526159 14.826091
-2.0236073 14.839787 14.763966
-2.0221214 14.154848 14.704185
-2.0209165 13.472775 14.655697
-2.0198689 12.792503 14.613549
-2.0187781 12.112668 14.569652
-2.0178659 11.434573 14.532954
-2.0169992 10.757328 14.498081
-2.016444 10.08222 14.475743
-2.0158892 9.4074831 14.453413
-2.0152793 8.7328777 14.428869
-2.0147471 8.0589857 14.407461
-2.0143592 7.3859816 14.391859
-2.0142486 6.714159 14.387402
-2.0142817 6.0428438 14.388735
-2.0145586 5.3721552 14.399881
-2.014869 4.7013607 14.412364
-2.0151794 4.0303578 14.424854
-2.0154786 3.3591299 14.436904
-2.0157895 2.6877184 14.449399
-1.4881805 1.4881788 -6.7799368
-1.4928693 0.99524575 -6.5912867
-1.4928693 0.49762002 -6.5912833
-1.4928693 -2.7925919e-06 -6.5912848
-1.4928693 -0.49762356 -6.5912848
-1.4928023 -0.99520141 -6.5939784
-1.5004706 -1.5004719 -6.2854228
-1.5713419 -2.0951221 -3.4337873
-1.4882591 -2.9765205 -6.7767754
-1.4874736 -3.4707735 -6.8083873
-1.4865981 -3.9642613 -6.8436136
-1.5043902 -4.5131717 -6.1277146
-1.5026869 -5.0089579 -6.1962519
-1.501018 -5.5037327 -6.2634006
-1.4993467 -5.9973898 -6.3306465
-1.4973058 -6.488327 -6.4127693
-1.494898 -6.9761915 -6.5096488
-1.492486 -7.4624305 -6.6067057
-1.4900876 -7.9471364 -6.7032027
-1.4876003 -8.429738 -6.8032861
-1.4845797 -8.9074812 -6.9248285
-1.4815532 -9.383173 -7.0466046
-1.478539 -9.8569288 -7.1678858
-1.4755372 -10.328761 -7.2886739
-1.4721568 -10.795817 -7.4246869
-1.468574 -11.259068 -7.5688481
-1.4650085 -11.72007 -7.7123094
-1.4614605 -12.178839 -7.8550739
-1.4578946 -12.635088 -7.9985523
-1.4536709 -13.083038 -8.1685028
-1.4494945 -13.528615 -8.3365488
-1.4453363 -13.971586 -8.5038595
-1.4412019 -14.41202 -8.6702166
-1.4368261 -14.847205 -8.8462811
-1.4321351 -15.276113 -9.0350285
-1.4274915 -15.702407 -9.221879
-1.4228722 -16.125889 -9.4077415
-1.4038076 -16.377758 -10.174843
-1.3990515 -16.78862 -10.366214
-1.3943753 -17.197296 -10.554369
-1.4180962 -17.962553 -9.5999165
-1.3644799 25.24288 15.693947
-1.3625612 24.526102 15.578149
-1.3605797 23.810146 15.458549
-0.95419341 16.221289 -9.0690327
-0.95418596 15.744068 -9.0694828
-0.9625017 15.400024 -8.567585
-1.3532058 20.974689 15.013496
-1.3517226 20.275839 14.923975
-1.3502725 19.578953 14.836455
-1.3489448 18.885225 14.756322
-1.3476272 18.192968 14.67679
-1.343586 17.466616 14.432887
-1.3443331 16.804161 14.477977
-1.3439261 16.127111 14.453417
-1.3429135 15.443503 14.392304
-1.3419615 14.761577 14.334841
-1.3411139 14.081693 14.283688
-1.3403263 13.403265 14.236148
-1.3395983 12.726186 14.192212
-1.3389006 12.050102 14.150098
-1.3383209 11.375729 14.115109
-1.337749 10.701991 14.080594
-1.3373387 10.03004 14.055831
-1.3369067 9.3583479 14.029757
-1.3365263 8.6874208 14.00679
-1.3362336 8.0174017 13.989137
-1.3359925 7.3479562 13.974577
-1.3360143 6.6800699 13.975901
-1.3360436 6.0121956 13.977662
-1.3362336 5.3449364 13.989136
-1.3364311 4.6775079 14.001052
-1.336475 4.0094242 14.0037
-1.3364897 3.3412247 14.004584
-1.336614 2.6732278 14.012094
-0.98695159 1.4804264 -7.0918999
-0.99012107 0.99012113 -6.90061
-0.99012107 0.49506068 -6.900609
-0.99012107 2.4297086e-07 -6.9006085
-0.99010503 -0.49505547 -6.901577
-0.99008089 -0.99008077 -6.9030323
-0.99450439 -1.4917578 -6.6360559
-1.0422584 -2.0845189 -3.7538438
-0.98707128 -2.9612153 -7.0846801
-0.98656881 -3.452991 -7.1150079
-0.98597926 -3.9439187 -7.1505909
-0.99779999 -4.4900999 -6.4371414
-0.99668407 -4.9834204 -6.5044932
-0.99558288 -5.4757066 -6.5709596
-0.99448007 -5.9668808 -6.6375203
-0.99316955 -6.4556031 -6.7166185
-0.99157649 -6.9410353 -6.8127642
-0.98998863 -7.4249153 -6.9086027
-0.98840177 -7.9072161 -7.0043769
-0.98680007 -8.3878021 -7.101048
-0.98480225 -8.8632221 -7.2216287
-0.98280454 -9.3366451 -7.3421993
-0.98081899 -9.8081913 -7.4620409
-0.97883737 -10.277795 -7.581636
-0.97664893 -10.74314 -7.7137237
-0.97428364 -11.204262 -7.8564835
-0.97192979 -11.663158 -7.9985509
-0.96958727 -12.119843 -8.1399345
-0.9672789 -12.574629 -8.2792521
-0.96450144 -13.020771 -8.4468918
-0.96174353 -13.46441 -8.6133461
-0.95899761 -13.905468 -8.7790737
-0.9562673 -14.34401 -8.943862
-0.9534483 -14.778451 -9.114006
-0.95034981 -15.2056 -9.3010092
-0.94728255 -15.630162 -9.4861431
-0.94423497 -16.051994 -9.6700811
-0.93161935 -16.303339 -10.431502
-0.92848426 -16.712719 -10.620714
-0.9253915 -17.119743 -10.807387
-0.94003296 -17.860626 -9.9236937
-0.68534577 25.35779 16.06885
-0.6846233 24.646439 15.981641
-0.68392533 23.937386 15.897387
-0.47464108 16.137794 -9.3654528
-0.47466138 15.663825 -9.3630056
-0.48126414 15.400451 -8.5659838
-0.68093491 21.108982 15.536408
-0.68038082 20.411427 15.469532
-0.67964607 19.709736 15.380841
-0.67895824 19.010834 15.297812
-0.67823035 18.312216 15.209942
-0.67789894 17.625372 15.169943
-0.67751151 16.937784 15.123168
-0.66990578 16.077738 14.205073
-0.67410749 15.504472 14.712271
-0.67597735 14.8715 14.937975
-0.67562944 14.188219 14.895987
-0.67535287 13.507057 14.8626
-0.67496836 12.824396 14.816182
-0.6745283 12.14151 14.763067
-0.67423773 11.46204 14.727995
-0.67387307 10.781966 14.683975
-0.67360914 10.104135 14.652112
-0.67348278 9.4287586 14.63686
-0.67338252 8.7539701 14.624753
-0.67321169 8.0785427 14.604137
-0.67298901 7.4028773 14.577264
-0.67280358 6.7280359 14.554882
-0.67247379 6.0522609 14.515069
-0.67242193 5.3793736 14.508809
-0.67236638 4.7065639 14.502105
-0.67235899 4.0341525 14.501209
-0.67240345 3.3620155 14.506573
-0.67235899 2.6894345 14.501209
-0.49090832 1.4727249 -7.4018245
-0.49252623 0.98505336 -7.2065244
-0.49252427 0.49252307 -7.2067633
-0.49252623 -8.2572558e-07 -7.2065248
-0.49251831 -0.49251997 -7.2074833
-0.49250835 -0.98501819 -7.2086811
-0.4943189 -1.4829587 -6.9901276
-0.51947951 -2.0779214 -3.9529755
-0.491009 -2.9460552 -7.3896713
-0.49076822 -3.4353795 -7.418736
-0.49047056 -3.9237649 -7.4546685
-0.49636269 -4.467267 -6.743423
-0.49581441 -4.9581466 -6.8096046
-0.49526939 -5.4479661 -6.8753958
-0.4947255 -5.9367099 -6.9410453
-0.49409088 -6.4231811 -7.0176563
-0.49330431 -6.9062619 -7.1126013
-0.49251631 -7.3877463 -7.2077227
-0.49173278 -7.8677268 -7.3023024
-0.49094978 -8.3461485 -7.3968177
-0.48996863 -8.8194361 -7.5152559
-0.48897961 -9.290616 -7.6346369
-0.48799461 -9.7598934 -7.7535381
-0.48701355 -10.227287 -7.8719649
-0.48595327 -10.690975 -7.9999499
-0.48478204 -11.14999 -8.1413279
-0.48361647 -11.606796 -8.2820292
-0.48245651 -12.061414 -8.4220495
-0.48130587 -12.513953 -8.5609455
-0.47996628 -12.959091 -8.7226458
-0.47860035 -13.400811 -8.8875265
-0.47724029 -13.839971 -9.0516996
-0.47588798 -14.276642 -9.2149372
-0.47452673 -14.710329 -9.379261
-0.47299355 -15.135795 -9.5643301
-0.47147205 -15.55858 -9.7479839
-0.46996218 -15.978716 -9.9302464
-0.46370089 -16.229532 -10.686053
-0.46214056 -16.63706 -10.874404
-0.46062019 -17.042948 -11.057924
-0.46407983 -17.635036 -10.640311
1.9254662e-23 16.05522 -9.6586199
1.6306102e-23 15.584335 -9.6537685
2.5278492e-23 15.406462 -8.5433035
1.0146782e-23 15.994892 13.788393
2.2614078e-23 15.512263 14.753174
4.137024e-24 1.4650959 -7.7087736
7.9340585e-24 0.98003179 -7.5095606
1.1112679e-23 0.49001417 -7.5095577
1.3969341e-23 -7.0853389e-07 -7.5095592
7.2546284e-24 -0.49001262 -7.5100336
1.1515648e-23 -0.98000509 -7.5112214
-2.9784643e-24 -1.4742609 -7.3400512
2.7523401e-23 -2.0728321 -4.1065426
7.8119057e-24 -2.9310627 -7.691319
4.1899795e-25 -3.4179568 -7.7191467
8.1627146e-24 -3.9038165 -7.7556601
1.4028588e-23 -4.4446959 -7.0461235
-4.136307e-24 -4.9331441 -7.1113992
1.4214911e-23 -5.4204998 -7.1767697
2.5991443e-23 -5.906816 -7.241756
8.8145148e-24 -6.3911119 -7.3154469
6.2021846e-24 -6.8718042 -7.4096856
7.9895761e-24 -7.3509769 -7.5036244
7.6020017e-24 -7.828598 -7.5975032
1.6072009e-23 -8.3047066 -7.691081
1.1681634e-23 -8.7760487 -7.8062296
2.1303776e-23 -9.244998 -7.9244423
6.7763104e-24 -9.7120705 -8.0421829
1.8000156e-23 -10.177315 -8.159214
2.1069334e-23 -10.639311 -8.2834139
2.2331696e-23 -11.096239 -8.4234285
-9.6913988e-25 -11.550977 -8.5627775
1.698386e-23 -12.003547 -8.7014589
1.36988e-23 -12.453911 -8.8397055
2.4457997e-23 -12.897993 -8.9957981
1.3022353e-23 -13.337811 -9.1591339
2.0865253e-23 -13.77509 -9.321763
6.2573871e-24 -14.059631 -10.088117
1.0859694e-23 -14.485638 -10.254181
1.5499528e-23 -14.908755 -10.420774
8.2329242e-25 -15.330251 -10.583189
6.2857021e-24 -15.746156 -10.755906
1.161924e-23 -16.154621 -10.944417
2.1734918e-23 -16.562836 -11.123293
2.1964226e-23 -16.967096 -11.305389
1.5146019e-23 -17.369432 -11.484024
0.46986815 16.445385 -9.9415989
0.46980667 15.973426 -9.9490204
0.46986994 15.505708 -9.9413815
0.66315979 16.578993 13.390759
0.6630553 15.913325 13.378153
0.6740033 15.502072 14.69969
0.48586047 1.4575797 -8.0111551
0.48753086 0.97505951 -7.8095193
0.48753086 0.48752734 -7.8095193
0.48753086 -6.7240961e-08 -7.8095226
0.48752892 -0.48753008 -7.8097553
0.48752499 -0.97504985 -7.8102279
0.48855504 -1.4656661 -7.6858892
0.51760322 -2.0704129 -4.1794705
0.48603451 -2.9162068 -7.9901462
0.48581019 -3.4006717 -8.0172234
0.48551074 -3.8840868 -8.0533705
0.49137262 -4.4223552 -7.345778
0.49083728 -4.9083753 -7.4103966
0.49030313 -5.3933368 -7.4748783
0.48976815 -5.8772187 -7.5394559
0.4891814 -6.3593593 -7.6102819
0.48840651 -6.8376932 -7.7038198
0.48763603 -7.3145413 -7.7968268
0.48686597 -7.7898579 -7.8897796
0.48610032 -8.2637072 -7.9822016
0.48517311 -8.7331161 -8.0941238
0.48420334 -9.1998644 -8.2111855
0.48323748 -9.6647511 -8.3277731
0.48227546 -10.127785 -8.4439049
0.48127931 -10.588145 -8.5641527
0.47484601 -10.92146 -9.3407183
0.47367799 -11.368273 -9.4817066
0.47253954 -11.81349 -9.6191311
0.47141746 -12.256856 -9.7545786
0.47030073 -12.698121 -9.8893814
0.46905762 -13.133615 -10.039433
0.46781397 -13.566607 -10.189559
0.46650732 -13.995221 -10.347287
0.46515125 -14.419689 -10.510979
0.4637678 -14.84057 -10.677976
0.46237507 -15.258378 -10.846094
0.46099588 -15.673862 -11.012573
0.45948997 -16.082151 -11.194353
0.45803168 -16.489141 -11.370386
0.45654842 -16.892294 -11.549427
0.45508158 -17.293104 -11.726492
0.92735595 23.183897 -10.688819
0.92764127 22.727213 -10.671594
0.92795855 22.271006 -10.652446
0.92827606 21.814486 -10.633286
0.92859375 21.357656 -10.614106
0.9289223 20.900749 -10.59428
0.92925817 20.443678 -10.574012
0.9296084 19.98658 -10.552872
0.93008995 19.531885 -10.523809
0.93056834 19.076651 -10.49493
0.93103319 18.620661 -10.466879
0.93149489 18.16415 -10.439011
0.93195355 17.707115 -10.411331
0.93241608 17.249699 -10.38341
0.93296474 16.793364 -10.350298
0.93354613 16.337057 -10.315208
0.93414611 15.880484 -10.278997
0.93476117 15.423558 -10.241874
0.93537343 14.965975 -10.204919
0.93598652 14.507792 -10.167916
0.93665797 14.049869 -10.127396
0.93742377 13.592644 -10.081168
0.93819094 13.134673 -10.034867
0.93895942 12.675952 -9.9884892
0.93972909 12.216475 -9.9420347
0.94047463 11.755932 -9.8970346
0.94122499 11.2947 -9.8517466
0.94209659 10.834109 -9.7991457
0.94296604 10.372623 -9.7466669
0.94383711 9.9102888 -9.6940928
0.94470978 9.4470959 -9.6414194
0.94559515 8.9831533 -9.587986
0.94650412 8.5185347 -9.5331221
0.94751775 8.0538998 -9.4719448
0.94855571 7.5884447 -9.4092979
0.94959593 7.1219668 -9.3465147
0.95064217 6.6544952 -9.2833729
0.95168698 6.1859655 -9.2203131
0.9527452 5.7164693 -9.1564398
0.95389521 5.2464223 -9.0870295
0.95509666 4.7754822 -9.0145216
0.95630473 4.3033714 -8.9416027
0.95751977 3.8300765 -8.8682718
0.95873398 3.3555675 -8.7949839
0.95995522 2.8798645 -8.721283
0.96133453 2.4033356 -8.6380281
0.96262312 1.9252436 -8.560257
0.96388841 1.4458299 -8.4838877
0.97050053 0.97049886 -8.0848122
0.97038484 0.48519033 -8.0917969
0.97038484 -2.4335495e-06 -8.0917969
0.97038484 -0.48519292 -8.0917969
0.97038484 -0.97038585 -8.0917978
0.97221613 -1.458325 -7.981267
1.0343425 -2.0686858 -4.2316089
0.96717167 -2.9015164 -8.2857265
0.96672368 -3.3835354 -8.3127632
0.96613461 -3.8645422 -8.3483143
0.97783005 -4.4002366 -7.642437
0.97676998 -4.8838534 -7.7064133
0.96364498 -5.3000493 -8.4985828
0.96258515 -5.7755132 -8.5625496
0.9613952 -6.2490711 -8.6343679
0.96005708 -6.7203989 -8.7151308
0.95870763 -7.1903081 -8.7965736
0.95736587 -7.6589284 -8.8775587
0.95593041 -8.1254091 -8.9641962
0.95430529 -8.5887499 -9.0622797
0.95261878 -9.0498791 -9.1640682
0.95071989 -9.5071993 -9.2786818
0.948928 -9.9637451 -9.3868275
0.94709879 -10.418088 -9.4972315
0.94508648 -10.868495 -9.6186886
0.94277304 -11.313278 -9.7583122
0.94060862 -11.757609 -9.8889465
0.93840367 -12.199249 -10.02203
0.93619466 -12.63863 -10.155354
0.93376744 -13.072745 -10.301851
0.93126398 -13.503331 -10.452945
0.92871034 -13.930657 -10.607071
0.92606878 -14.354067 -10.766508
0.92336541 -14.773848 -10.929672
0.92057359 -15.189467 -11.098168
0.91800565 -15.606098 -11.253158
0.91850978 -16.073923 -11.222728
0.91901797 -16.542326 -11.192058
0.91946435 -17.01009 -11.165117
0.91989046 -17.477921 -11.139405
1.3840955 23.068258 -10.967999
1.3845298 22.613985 -10.950525
1.3850167 22.160265 -10.930937
1.385509 21.70631 -10.911119
1.3860072 21.252108 -10.891079
1.3865002 20.797504 -10.871237
1.3869938 20.342577 -10.851378
1.3875614 19.888378 -10.828547
1.3882766 19.435871 -10.799767
1.3889872 18.982824 -10.77117
1.3897041 18.529383 -10.742332
1.3904161 18.075409 -10.713676
1.3911184 17.620832 -10.685415
1.3918004 17.165537 -10.65798
1.3926524 16.711826 -10.623697
1.3935159 16.257685 -10.588946
1.3943808 15.802979 -10.554153
1.3952465 15.347709 -10.51932
1.3961346 14.892099 -10.483583
1.3970453 14.436133 -10.446946
1.3980796 13.980795 -10.405319
1.3992172 13.525765 -10.359546
1.4003352 13.069793 -10.314562
1.4014336 12.612902 -10.270367
1.4025337 12.155292 -10.226104
1.4036355 11.69696 -10.181771
1.4047713 11.23817 -10.136066
1.4060602 10.779793 -10.084209
1.4073514 10.320574 -10.032256
1.4086773 9.8607407 -9.978899
1.4100223 9.4001474 -9.9247856
1.411375 8.9387074 -9.8703518
1.4127251 8.4763489 -9.8160315
1.4142469 8.0140648 -9.7547951
1.415794 7.550899 -9.6925507
1.417339 7.0866938 -9.6303864
1.4189093 6.6215763 -9.5672054
1.4204884 6.1554484 -9.5036583
1.4220713 5.6882825 -9.43997
1.4237903 5.2205653 -9.3708
1.4255693 4.7518959 -9.2992268
1.4273524 4.2820559 -9.2274723
1.4291402 3.8110385 -9.1555414
1.4309324 3.338841 -9.0834332
1.4327458 2.8654919 -9.0104637
1.4348055 2.3913405 -8.9275856
1.4369614 1.9159476 -8.8408403
1.4386207 1.4386202 -8.7740774
1.43978 0.95985281 -8.7274313
1.4411678 0.48038784 -8.6715851
1.4425585 -1.6222323e-06 -8.615633
1.4433486 -0.4811165 -8.5838385
1.4436444 -0.96242845 -8.5719376
1.4441396 -1.4441402 -8.5520096
1.4444185 -1.9258949 -8.540782
1.4440883 -2.4068165 -8.5540733
1.4435818 -2.8871644 -8.5744572
1.4428313 -3.3666055 -8.6046581
1.4419395 -3.8451731 -8.6405363
1.4409015 -4.3227062 -8.6823053
1.4397008 -4.7990031 -8.7306175
1.4382083 -5.2734327 -8.7906647
1.4366344 -5.7465396 -8.8539925
1.4349461 -6.218101 -8.9219313
1.4330093 -6.6873779 -8.9998627
1.431005 -7.1550269 -9.0805063
1.4289783 -7.6212196 -9.1620464
1.4268798 -8.0856562 -9.2464905
1.4244715 -8.5468311 -9.3433962
1.4220105 -9.0060692 -9.4424152
1.4192501 -9.461669 -9.5534906
1.4166701 -9.9166918 -9.6572981
1.4138484 -10.368223 -9.770833
1.41075 -10.815753 -9.895504
1.4074433 -11.259546 -10.028558
1.404265 -11.702209 -10.156438
1.4010102 -12.14209 -10.287405
1.3977329 -12.579599 -10.419271
1.3942109 -13.012634 -10.560989
1.3925146 -13.460979 -10.629234
1.3934364 -13.934367 -10.592148
1.3942003 -14.406736 -10.561418
1.395103 -14.881099 -10.525094
1.3957994 -15.353794 -10.49707
1.3964965 -15.826962 -10.469019
1.3946832 -16.271309 -10.541976
1.3917317 -16.700781 -10.660744
1.398982 -17.254114 -10.369009
1.8582474 23.228096 -10.58212
1.858191 22.762836 -10.58383
1.8584101 22.30092 -10.577213
1.8586293 21.838892 -10.570596
1.8587426 21.37554 -10.567182
1.858693 20.910295 -10.568675
1.8586435 20.445078 -10.570171
1.8586011 19.979959 -10.57145
1.8585234 19.514492 -10.573798
1.8584456 19.049068 -10.576145
1.8583324 18.583324 -10.57956
1.8582193 18.117636 -10.582974
1.8580991 17.651937 -10.586603
1.857986 17.186371 -10.590014
1.857887 16.720982 -10.593
1.8579153 16.256758 -10.592148
1.8580214 15.79318 -10.588946
1.8581344 15.329607 -10.585535
1.8582404 14.865923 -10.582334
1.8583465 14.402184 -10.579133
1.8583747 13.937811 -10.578279
1.8584456 13.473728 -10.576145
1.8585093 13.009562 -10.574224
1.8592662 12.550046 -10.551379
1.8607185 12.094668 -10.507557
1.8621658 11.638535 -10.463878
1.8637007 11.182203 -10.417555
1.8654662 10.72643 -10.364279
1.8672349 10.269792 -10.310902
1.8690072 9.8122864 -10.257418
1.8707827 9.3539124 -10.203838
1.8725688 8.8947001 -10.149937
1.8743511 8.4345798 -10.09615
1.8763891 7.9746537 -10.034651
1.8784605 7.5138407 -9.9721394
1.8805364 7.0520091 -9.9094934
1.882617 6.589159 -9.8467093
1.884702 6.1252799 -9.7837839
1.8867918 5.6603761 -9.7207232
1.8890761 5.1949587 -9.6517878
1.8914247 4.7285624 -9.5809155
1.893779 4.2610006 -9.5098639
1.8961391 3.7922757 -9.4386396
1.8984832 3.3223436 -9.3679018
1.9008255 2.8512387 -9.2972183
1.9035445 2.3794303 -9.2151632
1.9064872 1.9064847 -9.126358
1.9085584 1.4314179 -9.0638542
1.9103875 0.95519209 -9.0086584
1.9122201 0.47805429 -8.9533558
1.9138012 -3.2081346e-06 -8.9056387
1.9147391 -0.47868696 -8.8773336
1.9154226 -0.95771289 -8.8567123
1.9157982 -1.4368488 -8.8453741
1.9161816 -1.916182 -8.833807
1.9159185 -2.3948991 -8.8417463
1.9152799 -2.8729205 -8.8610191
1.9143114 -3.3500473 -8.8902454
1.9131039 -3.8262086 -8.9266806
1.911741 -4.3014202 -8.9678087
1.909984 -4.7749619 -9.0208311
1.9080291 -5.2470808 -9.0798321
1.905944 -5.7178335 -9.1427517
1.9037448 -6.1871719 -9.2091188
1.9013065 -6.6545734 -9.2827034
1.8986973 -7.1201162 -9.3614416
1.895992 -7.5839682 -9.4430809
1.893243 -8.0462866 -9.5260372
1.8900704 -8.5053186 -9.6217775
1.8868793 -8.962678 -9.7180796
1.883401 -9.4170074 -9.8230457
1.8799936 -9.8699665 -9.9258785
1.8762811 -10.319547 -10.037912
1.8775866 -10.796124 -9.9985123
1.8786339 -11.271805 -9.9669056
1.8796823 -11.748015 -9.9352694
1.8805798 -12.22377 -9.9081831
1.8814493 -12.699784 -9.8819456
1.8825734 -13.178014 -9.8480244
1.8840694 -13.659507 -9.8028727
1.8824354 -14.118269 -9.8521843
1.8782148 -14.556169 -9.9795513
1.8871126 -15.096903 -9.7110405
1.8885355 -15.58042 -9.6680946
2.3616831 17.476456 -9.6436253
2.3615644 17.003263 -9.6464911
2.3569326 16.498528 -9.7583122
2.3568144 16.026337 -9.7611694
2.3566871 15.554134 -9.7642441
2.3565688 15.082038 -9.7671003
2.3564506 14.609992 -9.7699528
2.3565688 14.139412 -9.7670984
2.3565414 13.667939 -9.7677574
2.3564506 13.196121 -9.7699528
2.3563685 12.724389 -9.7719288
2.3562777 12.252643 -9.7741261
2.3563504 11.781752 -9.7723703
2.3564322 11.310873 -9.7703934
2.3564231 10.839545 -9.7706146
2.3563504 10.367942 -9.7723694
2.3562777 9.8963652 -9.7741261
2.3562868 9.4251442 -9.7739058
2.3562958 8.9539223 -9.7736855
2.3563139 8.482728 -9.7732458
2.3562684 8.0113134 -9.7743464
2.3561866 7.5397964 -9.7763214
2.3561049 7.0683122 -9.7782955
2.3560231 6.5968633 -9.7802715
2.3559413 6.1254449 -9.7822475
2.3559957 5.654388 -9.7809296
2.355932 5.1830497 -9.7824678
2.3560777 4.7121549 -9.7789564
2.3562684 4.2412829 -9.7743473
2.3583987 3.773438 -9.7229214
2.3612995 3.3058171 -9.6528854
2.3641984 2.8370371 -9.582901
2.3674991 2.3674977 -9.5032177
2.3709748 1.8967774 -9.4193029
2.3736854 1.4242086 -9.3538694
2.3763371 0.95053267 -9.2898474
2.3787076 0.47573972 -9.2326221
2.3802192 -1.0552637e-06 -9.1961269
2.3813891 -0.47627908 -9.167881
2.3824859 -0.95299512 -9.141407
2.3830624 -1.4298393 -9.1274824
2.3832207 -1.906576 -9.1236668
2.3829415 -2.3829448 -9.1304016
2.3823464 -2.8588176 -9.1447697
2.3811755 -3.3336468 -9.1730375
2.3796532 -3.8074448 -9.2097902
2.377883 -4.2801905 -9.2525282
2.3755786 -4.7511611 -9.3081532
2.3731685 -5.2209735 -9.3663435
2.3705883 -5.6894116 -9.4286404
2.3689415 -6.1592507 -9.4683933
2.3700635 -6.636179 -9.4413061
2.3711221 -7.1133695 -9.4157467
2.371887 -7.5900369 -9.3972883
2.3728917 -8.067832 -9.3730259
2.3744977 -8.5481939 -9.3342543
2.3759673 -9.028676 -9.2987823
2.3773644 -9.5094604 -9.265048
2.3785963 -9.9901047 -9.2353086
2.3796997 -10.470678 -9.2086706
2.3807948 -10.951658 -9.1822281
2.382179 -11.434461 -9.1488113
2.3769109 -11.884557 -9.2759981
2.374073 -12.345181 -9.3445082
2.3867147 -12.888262 -9.0393095
2.3883114 -13.374546 -9.0007629
2.3965621 -13.900062 -8.8015718
2.86778 17.206678 -8.9644232
2.8676901 16.728191 -8.9662313
2.9172871 16.531294 -7.9684143
3.8796644 16.165268 11.393124
3.8797672 15.519069 11.395189
2.8681169 8.6043501 -8.9576473
2.8680494 8.1261377 -8.9590025
2.8680608 7.6481614 -8.9587774
2.8682854 7.170712 -8.954257
2.8684986 6.6931634 -8.9499645
2.8687234 6.2155662 -8.9454432
2.868948 5.737896 -8.9409237
2.8691616 5.2601285 -8.9366302
2.8689706 4.7816162 -8.9404736
2.8687458 4.3031173 -8.9449911
2.8685098 3.8246772 -8.9497385
2.8682854 3.3463316 -8.9542599
2.8680494 2.868048 -8.9590006
2.8682516 2.3902094 -8.954936
2.8691616 1.9127724 -8.9366264
2.8696225 1.4348106 -8.9273577
2.8692627 0.95641816 -8.9345922
2.8685212 0.47808641 -8.9495134
2.8699372 -5.1097754e-07 -8.9210243
2.8704095 -0.47840223 -8.9115219
2.8699148 -0.95663863 -8.9214792
2.8699484 -1.4349755 -8.9208002
2.8699148 -1.9132775 -8.9214792
2.8705895 -2.3921592 -8.9079027
2.8719175 -2.8719177 -8.8811855
2.8734717 -3.3523865 -8.8499098
2.8751633 -3.8335526 -8.815876
2.8769701 -4.3154578 -8.7795296
2.8789151 -4.798193 -8.7404089
2.8807602 -5.2813945 -8.7032804
2.8818936 -5.7637877 -8.6804819
2.8836179 -6.2478423 -8.6457901
2.8852985 -6.7323666 -8.6119728
2.8866973 -7.2167444 -8.5838385
2.8879261 -7.701138 -8.5591125
2.8892815 -8.1863003 -8.5318451
2.8867197 -8.660162 -8.5833788
2.8825624 -9.1281166 -8.6670179
2.8807828 -9.6026125 -8.7028227
2.8978305 -10.142408 -8.3598509
2.8986676 -10.628448 -8.3430109
2.9003778 -11.118116 -8.3086061
2.9040685 -11.616275 -8.234355
3.3862946 17.415228 -8.2651415
3.3861468 16.930735 -8.2676859
3.4028242 16.528004 -7.9800997
3.5095377 16.54496 -6.1398926
4.5039253 16.085449 11.00771
4.5141783 15.477184 11.184516
3.3958206 2.4255836 -8.100873
3.3958881 1.9405041 -8.0997076
3.3979402 1.4562585 -8.0643215
3.3975348 0.97072488 -8.07131
3.3963737 0.48519549 -8.0913324
3.3979537 -1.9830406e-06 -8.0640869
3.398021 -0.48543388 -8.0629234
3.3979943 -0.97085762 -8.0633869
3.3987103 -1.4565928 -8.0510368
3.3989265 -1.9422466 -8.0473089
3.4000626 -2.428618 -8.0277195
3.4014428 -2.9155245 -8.0039186
3.4034882 -3.4034879 -7.9686508
3.404912 -3.8913295 -7.944098
3.4015238 -4.3733897 -8.0025206
3.3981562 -4.8545117 -8.0605917
3.3967516 -5.3377538 -8.0848141
3.4139838 -5.8525462 -7.7876582
3.4156892 -6.3434238 -7.7582479
3.4170139 -6.8340297 -7.7354031
3.4189003 -7.3262181 -7.7028756
3.4216516 -7.82092 -7.6554303
3.4229259 -8.3128223 -7.6334548
3.4264114 -8.8107729 -7.5733495
3.9175167 17.628826 -7.5489392
3.9173124 17.138239 -7.5520244
3.9172339 16.648243 -7.5532055
4.0098958 16.540817 -6.1550503
5.1220779 16.006491 10.626492
5.1596603 15.478977 11.193565
3.9480138 1.4805043 -7.0887742
3.9615605 0.99038708 -6.8843679
3.9614961 0.49518636 -6.8853407
3.9605162 -1.3606359e-06 -6.9001231
3.9599705 -0.49499843 -6.9083619
3.9611428 -0.99028796 -6.8906713
3.9763007 -1.4911149 -6.6619544
4.2051277 -2.1025648 -3.2092214
3.9507763 -3.9507782 -7.0470886
3.9529831 -4.4471083 -7.0137911
3.9554002 -4.9442511 -6.9773211
3.9602914 -5.4454021 -6.9035163
4.4616776 17.350969 -6.8183517
4.4615507 16.854746 -6.8200555
4.5104847 16.538441 -6.1637425
5.7341924 16.565443 10.248991
5.7341924 15.928313 10.248993
5.8052926 15.480779 11.202612
4.4898252 1.4966066 -6.4408312
4.497396 0.99941999 -6.3392906
4.5020761 0.50022978 -6.2765169
4.501689 -2.7798754e-07 -6.2817111
4.5006933 -0.50007737 -6.2950659
4.5000668 -1.0000153 -6.3034716
4.5228863 -1.5076317 -5.9974055
4.7770429 -2.123132 -2.5885828
5.0197468 17.569113 -6.0659943
5.0195408 17.066439 -6.0684838
5.0195203 16.564417 -6.0687318
5.1721725 16.550951 -4.2260561
6.3403563 16.484926 9.8751669
6.3403563 15.850892 9.8751678
6.4516544 15.48397 11.218661
5.0441146 1.0088205 -5.7718515
5.0538025 0.50537854 -5.654911
5.0542626 -1.1911076e-06 -5.6493526
5.0526104 -0.50526321 -5.6692972
5.0519834 -1.010397 -5.6768703
5.0615959 -1.518481 -5.5608287
5.36028 -2.1441135 -1.955397
5.5917482 17.283587 -5.2975411
5.591702 16.775103 -5.2980518
5.6889076 16.549551 -4.2313404
6.9406915 16.405272 9.5053539
6.9406915 15.774299 9.5053511
5.605659 1.0192096 -5.144896
5.6170063 0.51063597 -5.0203743
5.6175232 -2.042957e-06 -5.014699
5.6160898 -0.51055342 -5.030427
5.6154089 -1.0209864 -5.0378962
5.6285172 -1.5350502 -4.8940539
5.9688964 -2.1705091 -1.1588366
6.1787314 17.506403 -4.5064621
6.178627 16.991224 -4.5075116
6.2060814 16.549551 -4.2313404
6.4110293 16.561825 -2.1697264
7.5352139 16.326298 9.1387014
7.5352139 15.698362 9.1387043
6.1810255 1.0301697 -4.4833894
6.1921797 0.51601261 -4.371181
6.192337 4.4592468e-07 -4.3696032
6.1919966 -0.51600099 -4.3730226
6.1913428 -1.031891 -4.3796043
6.206502 -1.5516272 -4.2271113
6.5936337 -2.1978803 -0.33286622
6.7808442 17.212908 -3.6966023
6.7808442 16.691305 -3.6966021
6.9450994 16.56139 -2.1714222
8.1240816 16.248161 8.7759523
8.1242485 15.623553 8.7774935
6.7751417 1.0423286 -3.7495499
6.7850466 0.52192456 -3.6575754
6.7850761 -2.5106078e-06 -3.6573076
6.7850761 -0.52193117 -3.6573057
6.7824373 -1.0434515 -3.6818078
6.7971344 -1.5685704 -3.5453398
7.2393436 -2.2274923 0.56076878
7.3990145 17.440533 -2.863982
7.398982 16.911961 -2.8642571
7.4793377 16.56139 -2.1714222
8.7072964 16.170694 8.4162741
8.7078285 15.549693 8.4208641
7.3786373 1.0540904 -3.0396779
7.3935742 0.52811271 -2.9108932
7.3936057 -1.0839747e-06 -2.9106143
7.3936057 -0.52811515 -2.9106188
7.3911438 -1.0558795 -2.9318397
7.4038539 -1.5865422 -2.8222556
7.9326544 -2.2664745 1.7371643
8.0337181 17.138599 -2.0093284
8.0336828 16.602943 -2.0096118
8.2855568 16.571114 0.017316101
9.2850227 16.094038 8.0603914
9.2859173 15.476529 8.0675888
7.9926972 1.0656914 -2.3394401
8.0167332 0.5344466 -2.1460121
8.0167332 -1.3235771e-06 -2.1460164
8.0167685 -0.53445166 -2.1457329
8.014102 -1.0685478 -2.167186
8.0267124 -1.6053442 -2.0657139
8.6856976 17.371397 -1.1311678
8.6856594 16.828465 -1.1314611
8.8376884 16.570663 0.015505205
9.8572474 16.018026 7.7074852
9.9046268 15.475979 8.0649338
8.6209574 1.0776194 -1.6195987
8.6550274 0.54093719 -1.3625561
8.6550274 -2.3004325e-06 -1.362559
8.6550274 -0.54093939 -1.3625606
8.6519222 -1.0814903 -1.3859843
8.6679316 -1.6252373 -1.2652086
9.3553801 17.610125 -0.2306242
9.3555908 17.060196 -0.22912937
9.3897467 16.570137 0.01339596
9.7197018 16.580667 2.3562863
10.424878 16.557156 7.3634801
10.424145 15.942809 7.3582778
10.52612 15.479588 8.0823679
9.2655077 1.0900573 -0.86877686
9.3106031 0.54768211 -0.54857284
9.3106031 -2.9763169e-06 -0.54857159
9.3106451 -0.54768658 -0.54827404
9.3105612 -1.0953602 -0.54886901
9.3291836 -1.6463281 -0.41663852
