# .PCD v0.7 - Point Cloud Data file format
VERSION 0.7
FIELDS x y z
SIZE 4 4 4
TYPE F F F
COUNT 1 1 1
WIDTH 1530
HEIGHT 1
VIEWPOINT 0 0 0 1 0 0 0
POINTS 1530
DATA ascii
-309.1189 789.97076 89.719215
-308.89505 755.07715 86.716743
-308.67728 720.24719 83.796234
-308.45981 685.46649 80.879471
-308.26569 650.78314 78.27549
-308.07608 616.15228 75.732422
-307.88669 581.56403 73.192757
-307.82935 547.25238 72.423607
-307.6947 512.82458 70.617531
-307.57159 478.44485 68.966301
-307.49005 444.15247 67.872765
-307.41287 409.88394 66.837311
-307.32285 375.61694 65.629837
-307.1344 341.26059 63.102386
-306.9476 306.94778 60.597034
-306.75537 272.67157 58.01873
-306.53064 238.41298 55.004681
-306.31339 204.20903 52.090698
-306.11057 170.0616 49.370522
-305.90802 135.95923 46.654121
-305.75809 101.91962 44.642776
-305.66904 67.926582 43.448338
-305.58002 33.95343 42.254707
-305.56732 4.4324683e-05 42.084362
-305.70154 -33.966782 43.884518
-305.99582 -67.999031 47.83157
-306.32047 -102.10661 52.185745
-306.65292 -136.28996 56.644566
-306.98468 -170.54691 61.094196
-307.53156 -205.02089 68.429222
-308.0976 -239.63133 76.021347
-308.67297 -274.37582 83.738052
-309.27652 -309.2764 91.833092
-309.47192 -343.85764 94.454201
-309.38071 -378.13193 93.230736
-237.37939 -316.50568 -872.47247
-236.38133 -341.4397 -885.85852
-235.40756 -366.18939 -898.91919
-235.61562 -392.69254 -896.12872
-304.02591 -540.49036 21.410711
-304.05109 -574.31848 21.748093
-305.60123 -611.20221 42.538769
-277.81171 833.43512 135.57945
-275.65515 792.50885 103.03996
-275.39294 757.33087 99.08326
-275.224 722.4632 96.534218
-275.05527 687.63831 93.98793
-274.92657 652.95074 92.046471
-274.88675 618.4953 91.445099
-274.88287 584.12634 91.38681
-274.9343 549.86871 92.162842
-274.98706 515.60089 92.958855
-274.92145 481.1127 91.96875
-274.81088 446.56781 90.300652
-274.64267 411.96417 87.762222
-274.49002 377.4238 85.459137
-274.34521 342.93158 83.274361
-274.1929 308.46713 80.976021
-274.03693 274.03711 78.622643
-273.86963 239.63603 76.098297
-273.68726 205.26553 73.346542
-273.54712 170.96715 71.231941
-273.46695 136.7336 70.022179
-273.38681 102.5201 68.812958
-273.31815 68.329727 67.776924
-273.25842 34.157471 66.875778
-273.3334 0.00013569035 68.007103
-273.55859 -34.194801 71.405106
-273.85559 -68.463806 75.886543
-274.15454 -102.80787 80.397156
-274.53488 -137.26721 86.136078
-275.04239 -171.90143 93.7939
-275.55048 -206.66273 101.46021
-276.06174 -241.554 109.1747
-276.57883 -276.57877 116.97667
-276.76245 -311.35757 119.74756
-276.47214 -345.58997 115.36678
-275.86737 -379.31744 106.24158
-274.88416 -412.32605 91.40612
-209.67221 -340.71729 -892.56586
-208.98181 -365.71814 -902.98334
-208.50656 -390.94968 -910.1543
-269.85687 -539.71362 15.550227
-269.24612 -572.14795 6.3350325
-270.14215 -607.81976 19.855038
-242.65967 797.31049 128.24075
-241.75502 759.80182 112.64067
-241.68686 725.06085 111.46507
-241.66869 690.48224 111.15165
-241.69708 656.0351 111.64127
-241.74252 621.62372 112.42526
-241.81073 587.25482 113.60138
-241.90401 552.92365 115.20968
-241.88124 518.3172 114.81719
-241.82666 483.65341 113.87597
-241.69823 448.86826 111.66088
-241.56877 414.11804 109.42887
-241.43042 379.39087 107.04296
-241.29106 344.70175 104.6402
-241.15303 310.05402 102.25967
-241.01965 275.45111 99.959816
-240.9361 240.93622 98.518784
-240.8887 206.47618 97.701256
-240.83566 172.02559 96.786964
-240.78378 137.59088 95.892502
-240.73082 103.1705 94.978737
-240.80296 68.800972 96.222992
-240.88304 34.411903 97.604042
-240.96318 0.00011372777 98.985886
-241.04338 -34.434536 100.36877
-241.27977 -68.936905 104.44488
-241.70163 -103.58623 111.71966
-242.17285 -138.38434 119.8458
-242.6631 -173.33057 128.3
-243.15535 -208.41864 136.78838
-243.53305 -243.53291 143.30176
-243.61035 -278.41162 144.63461
-243.32909 -312.85153 139.78452
-242.76622 -346.80881 130.07806
-241.81413 -379.99344 113.66016
-240.89095 -412.9559 97.740288
-183.30035 -340.41492 -895.37402
-182.83763 -365.67514 -903.35339
-182.37206 -390.79712 -911.38177
-183.02049 -418.3324 -900.20026
-234.46144 -569.40625 -13.132653
-234.4807 -602.95026 -12.800731
-235.62599 -639.55603 6.9492025
-208.54213 764.65466 139.26822
-208.27707 728.96985 133.93535
-208.35779 694.52618 135.55969
-208.43858 660.0556 137.18483
-208.45633 625.36914 137.54211
-208.42477 590.53699 136.9072
-208.39424 555.7182 136.29271
-208.42084 521.05219 136.82822
-208.37453 486.20737 135.89658
-208.2692 451.25009 133.77695
-208.15511 416.31036 131.48151
-208.04015 381.4071 129.16899
-207.92729 346.54562 126.89857
-207.8959 311.84399 126.26727
-207.86453 277.15289 125.6358
-207.83218 242.4711 124.98528
-207.80084 207.80099 124.35457
-207.75674 173.13075 123.46786
-207.82533 138.55028 124.84729
-207.89491 103.94757 126.24742
-207.96555 69.322052 127.66827
-208.03621 34.672836 129.09001
-208.10693 0.00018322407 130.51283
-208.30264 -34.71701 134.45024
-208.56383 -69.521156 139.70499
-208.98708 -104.49336 148.21979
-209.41304 -139.60855 156.78918
-209.84073 -174.86711 165.39369
-209.98166 -209.98151 168.22937
-209.93668 -244.92589 167.32394
-209.60622 -279.47488 160.67613
-209.12589 -313.68869 151.0126
-208.42674 -347.37784 136.9472
-207.53958 -380.48907 119.09881
-206.44991 -412.89963 97.175842
-157.41423 -341.06409 -889.34595
-156.88084 -366.05518 -900.07666
-156.59882 -391.49692 -905.75043
-156.50374 -417.34317 -907.66339
-159.66888 -452.39511 -843.9856
-198.31586 -594.94739 -66.468666
-199.84892 -632.85486 -35.625538
-175.38326 806.76318 177.85114
-175.7912 773.48151 187.69922
-174.96889 734.86951 167.84703
-174.78905 699.15637 163.50552
-174.83147 664.3598 164.52994
-174.87476 629.54926 165.57457
-174.82317 594.39899 164.32895
-174.74081 559.17084 162.34116
-174.65855 523.97595 160.35509
-174.57639 488.81406 158.37122
-174.49428 453.68527 156.3889
-174.43875 418.65317 155.04857
-174.41556 383.71439 154.48883
-174.39238 348.78494 153.92894
-174.36919 313.86481 153.36926
-174.34602 278.95389 152.80971
-174.35182 244.09259 152.94971
-174.4023 209.28284 154.1689
-174.45367 174.4538 155.40878
-174.51334 139.61079 156.84927
-174.57388 104.7445 158.31093
-174.63365 69.853607 159.75369
-174.81068 34.962349 164.02757
-175.03058 8.1526625e-05 169.33681
-175.25105 -35.050083 174.65912
-175.47208 -70.188599 179.99495
-175.70709 -105.42411 185.66899
-175.9731 -140.77843 192.09106
-176.07095 -176.07094 194.45332
-175.82906 -210.99466 188.61349
-175.5576 -245.78049 182.06036
-175.02725 -280.04355 169.25615
-174.50505 -314.10895 156.64929
-173.78346 -347.56674 139.22855
-172.87314 -380.32068 117.25148
-171.83315 -412.39948 92.143661
-170.71983 -443.8714 65.265854
-131.03018 -366.88431 -892.92712
-130.79408 -392.38211 -898.62677
-130.61736 -417.9754 -902.89362
-131.07553 -445.65662 -891.83228
-162.87787 -586.36017 -124.05569
-164.22876 -624.06921 -91.442604
-139.81993 838.91974 163.16408
-138.38318 795.70331 119.80663
-139.43909 766.91498 151.6714
-141.64709 743.64734 218.3036
-140.99193 704.9599 198.53218
-140.90404 669.29425 195.87993
-140.86688 633.90118 194.75873
-140.82909 598.52393 193.618
-140.7859 563.14374 192.31476
-140.71107 527.66681 190.05655
-140.63699 492.22974 187.82115
-140.56232 456.82761 185.5677
-140.48772 421.46329 183.31651
-140.46153 386.26944 182.52617
-140.44273 351.10696 181.95894
-140.48033 316.0809 183.09369
-140.52199 281.04407 184.35071
-140.56299 245.9854 185.58792
-140.60469 210.90714 186.84634
-140.64641 175.80814 188.10567
-140.68884 140.68887 189.3858
-140.8419 105.63167 194.0049
-141.01561 70.507965 199.24693
-141.18974 35.297543 204.50169
-141.36497 0.00018839323 209.7901
-141.53998 -35.384769 215.07106
-141.67851 -70.839134 219.25172
-141.69763 -106.273 219.82892
-141.60204 -141.60194 216.94406
-141.39491 -176.74353 210.6933
-141.0596 -211.58926 200.57478
-140.64439 -246.12755 188.04451
-140.14467 -280.28922 172.96417
-139.52516 -313.93152 154.26869
-138.86317 -347.15778 134.29184
-138.00105 -379.50278 108.27474
-136.89847 -410.69528 75.000961
-135.38722 -440.00827 29.39526
-105.29404 -368.5289 -878.74707
-104.95743 -393.59021 -888.90491
-104.80695 -419.22775 -893.44611
-104.7524 -445.19763 -895.09222
-106.45787 -479.06024 -843.62512
-129.19434 -613.67303 -157.49126
-103.30721 826.45795 100.48589
-102.48525 785.72046 67.412384
-103.77517 761.01807 119.3151
-106.57386 674.96796 231.92558
-106.49095 638.94604 228.58951
-106.43592 603.13702 226.37531
-106.38095 567.36517 224.16336
-106.32655 531.63287 221.97433
-106.27169 495.93472 219.76718
-106.21791 460.27765 217.60323
-106.17236 424.68958 215.77075
-106.12686 389.13208 213.93977
-106.15805 353.86032 215.19455
-106.19027 318.57098 216.49103
-106.22252 283.26028 217.78841
-106.25478 247.9279 219.08681
-106.3127 212.62566 221.41714
-106.41536 177.35896 225.54826
-106.51823 142.02451 229.68713
-106.62645 106.62663 234.0416
-106.75919 71.172844 239.38298
-106.89279 35.631142 244.75815
-106.98931 0.00011480301 248.64188
-107.00437 -35.667938 249.24803
-106.91145 -71.274109 245.50928
-106.75558 -106.75555 239.23734
-106.57489 -142.09972 231.96695
-106.27477 -177.12442 219.89084
-105.96053 -211.92097 207.2469
-105.49239 -246.14879 188.41026
-105.04137 -280.11017 170.26309
-104.44798 -313.34384 146.38664
-103.78544 -345.95139 119.72804
-102.74709 -376.73917 77.947693
-101.48196 -405.92776 27.043522
-100.24763 -434.40628 -22.622192
-99.042961 -462.20032 -71.094566
-78.95977 -394.79871 -879.17957
-78.850723 -420.53708 -883.56726
-78.74929 -446.24594 -887.6485
-78.83239 -472.99417 -884.30505
-95.321243 -603.70105 -220.84476
-67.826736 813.9209 37.430122
-67.693611 778.47668 29.395342
-68.628914 754.91821 85.845985
-71.613365 644.52045 265.97333
-71.549202 608.1684 262.10062
-71.517853 572.14301 260.20901
-71.486885 536.15173 258.33954
-71.45594 500.19177 256.47205
-71.425026 464.2627 254.60623
-71.393791 428.36276 252.72102
-71.36293 392.49619 250.85829
-71.336937 356.68488 249.28969
-71.358772 321.11447 250.60728
-71.427803 285.71146 254.77377
-71.497322 250.24075 258.96954
-71.566971 214.7011 263.17343
-71.636765 179.09198 267.3855
-71.70668 143.41348 271.6058
-71.776398 107.66475 275.81308
-71.820251 71.820442 278.46021
-71.830437 35.91539 279.07471
-71.753609 0.00017854229 274.43793
-71.643051 -35.821404 267.76505
-71.509499 -71.509407 259.70477
-71.329323 -106.99385 248.83006
-71.150047 -142.30002 238.00996
-70.906944 -177.26727 223.33723
-70.601311 -211.80388 204.89085
-70.244537 -245.8557 183.35716
-69.835533 -279.34195 158.67169
-69.226479 -311.51907 121.91207
-68.424049 -342.12012 73.48114
-67.625061 -371.93765 25.258131
-66.793777 -400.76245 -24.914574
-65.991272 -428.94305 -73.349922
-65.208115 -456.45657 -120.61784
-64.443321 -483.3248 -166.77698
-52.740372 -421.92294 -873.11237
-52.672115 -447.71289 -877.23193
-52.626274 -473.63623 -879.99915
-53.219875 -505.58862 -844.17194
-63.021423 -630.21411 -252.59607
-33.806152 845.15375 24.488062
-33.438541 802.52502 -19.886845
-33.553238 771.72461 -6.0416088
-34.049648 749.09235 53.880569
-36.114555 613.94757 303.13684
-36.084396 577.35052 299.49637
-36.068096 541.02167 297.52902
-36.051815 504.7254 295.56329
-36.035545 468.46207 293.59943
-36.028652 432.34399 292.76749
-36.027237 396.29977 292.59674
-36.025826 360.25839 292.42627
-36.027237 324.24527 292.59695
-36.062431 288.49963 296.845
-36.097694 252.68405 301.10172
-36.132847 216.79724 305.34509
-36.168251 180.84138 309.61841
-36.170387 144.68173 309.87631
-36.167713 108.50324 309.55405
-36.114197 72.228615 303.09375
-36.059597 36.059669 296.5032
-35.987526 0.00014160393 287.80331
-35.894684 -35.894413 276.59625
-35.802147 -71.604141 265.42599
-35.681984 -107.04588 250.92113
-35.557117 -142.22832 235.84842
-35.4268 -177.13383 220.1176
-35.226517 -211.35887 195.94106
-34.970287 -244.79199 165.01201
-34.567471 -276.53967 116.38755
-34.167313 -307.50568 68.083954
-33.77631 -337.76294 20.885805
-33.389751 -367.28714 -25.775593
-32.977123 -395.72525 -75.584869
-32.585979 -423.61771 -122.79994
-32.204006 -450.85593 -168.90814
-31.830883 -477.46307 -213.94817
-26.459274 -423.34824 -862.35852
-26.424347 -449.21381 -866.57477
-26.390078 -475.02133 -870.71106
-26.401459 -501.62766 -869.33722
-31.080505 -621.60999 -304.52652
-3.3404087e-22 833.08917 -33.765137
-5.6211174e-23 792.50403 -70.28846
-2.1323524e-22 765.58783 -38.248806
-1.9321499e-21 582.6972 339.83267
-4.9272333e-22 546.12671 338.61264
-1.5212453e-21 509.75381 338.9176
-5.7721243e-22 473.37561 339.22263
-1.2206908e-21 436.99469 339.54932
-7.045218e-22 400.60629 339.85471
-1.248547e-21 364.19467 339.94171
-1.6556247e-21 327.76224 339.7673
-1.405854e-21 291.3356 339.63651
-1.1850873e-21 255.03876 341.70767
-1.3181034e-21 218.61761 341.96951
-1.6300215e-21 182.01543 337.95923
-4.2986916e-22 145.3976 331.48013
-9.2894089e-22 108.89355 325.258
-1.3357757e-21 72.4272 315.0849
-7.6004418e-22 36.125664 304.46588
-9.1581647e-22 7.9239049e-05 293.1727
-1.6470162e-21 -35.905224 277.88803
-1.1669434e-21 -71.551559 262.24786
-2.1175549e-21 -106.90971 245.44661
-3.6945115e-22 -141.89191 225.69304
-1.1757439e-21 -176.45988 203.84665
-1.8034226e-21 -209.58305 160.21483
-1.8881997e-21 -241.65372 110.89707
-1.2441036e-21 -272.98282 62.719833
-1.5766299e-21 -303.59439 15.624902
-1.3651267e-21 -333.51526 -30.386871
-1.5687778e-21 -362.75137 -75.549171
-8.0815773e-22 -390.89465 -124.17774
-9.1209072e-22 -418.42261 -171.03719
-6.3444768e-22 -445.39099 -216.02791
-1.2674231e-21 -471.74179 -259.9888
-1.4884103e-21 -497.49426 -302.97031
-4.3581988e-22 -450.71011 -855.94965
-9.3713737e-22 -476.59637 -860.14832
-8.9211146e-22 -502.42389 -864.27844
-7.7908842e-22 -532.22375 -844.02063
32.846924 821.17316 -91.30101
32.642593 783.42236 -115.96597
33.0406 759.93384 -67.92215
37.187111 594.99396 432.60617
36.732674 550.99017 377.75034
36.727165 514.18036 377.08533
36.729733 477.48666 377.39572
36.732304 440.78784 377.7059
36.735058 404.08591 378.03864
36.730103 367.30112 377.43982
36.722206 330.50006 376.48688
36.694141 293.55341 373.09924
36.646187 256.52353 367.31027
36.593796 219.56296 360.98639
36.522659 182.61345 352.39975
36.433002 145.73219 341.5769
36.343422 109.03028 330.76379
36.243015 72.486153 318.64343
36.121479 36.121613 303.97269
35.995285 0.00014625464 288.73993
35.84914 -35.848999 271.09897
35.683022 -71.365837 251.04645
35.484123 -106.45218 227.03716
35.175575 -140.70213 189.79237
34.851009 -174.25485 150.61342
34.476463 -206.85857 105.40162
34.078392 -238.5486 57.35054
33.689411 -269.51523 10.396535
33.309212 -299.78278 -35.498035
32.937347 -329.37341 -80.385757
32.573841 -358.31213 -124.26504
32.181995 -386.18393 -171.56474
31.798229 -413.37689 -217.88977
31.432514 -440.05508 -262.03522
31.076956 -466.15417 -304.95505
30.729353 -491.66943 -346.91443
26.634731 -452.79034 -841.17889
26.566633 -478.19931 -849.39911
26.532476 -504.11691 -853.52234
26.533146 -530.66278 -853.44141
27.137403 -569.88531 -780.50128
64.794014 809.92535 -145.61075
64.708977 776.50781 -150.74335
65.601746 754.42035 -96.859818
74.85965 561.44757 461.90399
74.104141 518.72925 416.30527
74.047005 481.3056 412.85651
74.004852 444.02924 410.31284
73.953079 406.74213 407.18774
73.85717 369.28616 401.39911
73.755951 331.90192 395.28998
73.64357 294.57449 388.50714
73.480774 257.18286 378.68176
73.306992 219.92104 368.19333
73.125664 182.81435 357.24893
72.886246 145.77271 342.79858
72.640129 108.96033 327.944
72.395309 72.395485 313.16797
72.101501 36.050865 295.43521
71.790771 5.5631823e-05 276.68109
71.375061 -35.687492 251.59067
70.743065 -70.742874 213.44626
70.086708 -105.12984 173.83171
69.442093 -138.88411 134.92557
68.809547 -172.0238 96.748154
68.076256 -204.22859 52.490265
67.292107 -235.52228 5.1626611
66.533653 -266.13443 -40.614166
65.792107 -296.06439 -85.370865
65.066902 -325.33438 -129.14081
64.357231 -353.96463 -171.97318
63.597286 -381.5835 -217.83998
62.84782 -408.51068 -263.0741
62.121063 -434.8472 -306.93765
61.426586 -460.69922 -348.85297
60.747463 -485.97946 -389.84158
60.083202 -510.70712 -429.9335
53.317211 -479.8548 -838.29712
53.24398 -505.81769 -842.71686
53.174034 -531.74017 -846.93872
53.419952 -560.90942 -832.09607
96.868919 839.53082 -158.5712
95.863159 798.85968 -199.04005
96.282791 770.26263 -182.155
97.692497 748.97595 -125.43288
112.48318 524.92169 469.69824
111.6218 483.69476 435.03894
111.45076 445.80301 428.15695
111.29037 408.06482 421.70316
111.06546 370.21829 412.65366
110.81806 332.45441 402.69894
110.57565 294.86847 392.94498
110.28846 257.33987 381.38947
109.93307 219.86636 367.08957
109.55927 182.59897 352.04898
109.15392 145.5388 335.73947
108.68722 108.68729 316.96048
108.21066 72.140564 297.78546
107.5658 35.855339 271.83826
106.7101 0.0001378489 237.40714
105.71352 -35.237728 197.30782
104.73588 -69.8237 157.97061
103.77663 -103.77649 119.37399
102.83434 -137.11226 81.45871
101.90899 -169.84819 44.225601
100.83702 -201.6739 1.0930709
99.674103 -232.57277 -45.699429
98.564133 -262.83749 -90.361176
97.479042 -292.43707 -134.02151
96.41758 -321.39182 -176.73149
95.379005 -349.72287 -218.52081
94.273338 -377.09314 -263.00922
93.175293 -403.75958 -307.1911
92.102531 -429.81165 -350.35593
91.074127 -455.37061 -391.73529
90.078384 -480.41791 -431.80109
89.104538 -504.92554 -470.98596
88.160332 -528.96179 -508.97769
80.136925 -507.5336 -831.81488
80.033325 -533.55542 -835.98322
79.985397 -559.89764 -837.91162
81.506752 -597.71606 -776.6972
127.3743 827.93298 -212.41577
126.3056 789.41034 -244.66667
127.42954 764.57739 -210.74879
129.26653 743.28247 -155.3132
149.49763 485.86758 455.21515
148.90901 446.72702 437.45139
148.58148 408.59924 427.56732
148.2554 370.63861 417.72693
147.79012 332.52795 403.68585
147.31668 294.63345 389.39838
146.86313 257.01056 375.7117
146.23386 219.35092 356.7218
145.58688 181.98367 337.19742
144.79846 144.79871 313.40475
143.8085 107.85658 283.53021
142.67596 71.338112 249.35251
141.56111 35.390385 215.709
140.42731 0.00015213081 181.49306
139.12682 -34.781551 142.24783
137.85669 -68.928299 103.91799
136.61015 -102.45743 66.300591
135.38535 -135.38533 29.338829
134.1823 -167.72778 -6.9663043
132.7883 -199.18224 -49.034229
131.26093 -229.70639 -95.126648
129.81129 -259.62244 -138.87329
128.39894 -288.89737 -181.49487
127.01753 -317.54373 -223.18242
125.66553 -345.58002 -263.9826
124.23582 -372.70728 -307.12787
122.80542 -399.1174 -350.29398
121.40759 -424.92645 -392.47714
120.04318 -450.16177 -433.65207
118.74604 -474.98404 -472.79697
117.47662 -499.27545 -511.10489
116.23038 -523.03662 -548.71326
107.22469 -509.31717 -820.48431
107.08246 -535.41217 -824.77643
106.94606 -561.46661 -828.89276
107.09924 -589.04572 -824.26996
157.08392 816.83667 -263.93369
156.20284 781.01416 -285.20547
158.08315 758.79938 -239.81102
188.29269 489.56097 489.51212
186.33551 447.20529 442.26123
185.72215 408.58899 427.45395
185.14923 370.2984 413.62241
184.48528 332.07367 397.59308
183.65785 293.85275 377.61743
182.80688 255.92969 357.07327
181.64342 217.9722 328.9848
180.23961 180.23978 295.09344
178.81641 143.05315 260.73425
177.41548 106.44948 226.91313
176.03636 70.414734 193.61806
174.6785 34.935753 160.83646
173.27763 7.8405923e-05 127.01698
171.68616 -34.336975 88.595078
170.13863 -68.055168 51.234146
168.61873 -101.17123 14.540893
167.12651 -133.70103 -21.484486
165.65973 -165.65967 -56.89576
163.95972 -196.75154 -97.937775
162.09656 -226.935 -142.91856
160.30254 -256.48404 -186.22951
158.57999 -285.44376 -227.81593
156.89337 -313.78665 -268.53412
155.24294 -341.53427 -308.37961
153.50871 -368.42084 -350.24728
151.76137 -394.57941 -392.43204
150.05399 -420.15106 -433.65186
148.38397 -445.15176 -473.96957
146.77243 -469.67175 -512.87543
145.22078 -493.75058 -550.33569
143.70102 -517.32355 -587.02594
142.63576 -542.01575 -612.74359
134.31464 -537.2583 -813.63348
134.13707 -563.37561 -817.9201
133.97659 -589.49689 -821.79443
135.8873 -625.08148 -775.66589
188.66772 849.00507 -260.57376
186.01085 806.047 -314.02594
185.99594 774.98309 -314.32596
188.41209 753.6485 -265.71689
223.62189 447.24387 442.64951
222.47513 407.87131 419.57846
221.50247 369.17093 400.01016
220.24187 330.36295 374.64853
218.7119 291.61606 343.86819
216.87389 253.01962 306.89035
215.06546 215.06566 270.50772
213.45738 177.88139 238.15547
211.79376 141.19595 204.686
210.15587 105.0782 171.73405
208.54312 69.514503 139.28822
206.95493 34.49263 107.33615
205.29413 0.00010973772 73.923523
203.42386 -33.903728 36.296379
201.61316 -67.204269 -0.13164267
199.83443 -99.917107 -35.917191
198.08769 -132.05835 -71.058754
196.37035 -163.64182 -105.60892
194.37863 -194.37849 -145.6796
192.19699 -224.22957 -189.57092
190.0654 -253.4203 -232.45488
188.04715 -282.07056 -273.05896
186.07132 -310.11874 -312.80948
184.13582 -337.58221 -351.74902
182.11665 -364.23306 -392.37143
180.06699 -390.14505 -433.60751
178.06293 -415.48007 -473.92593
176.10298 -440.25745 -513.35675
174.18642 -464.49698 -551.91522
172.35695 -488.34448 -588.7218
170.57341 -511.72012 -624.60345
169.1432 -535.62018 -653.37689
161.89505 -539.65009 -799.19855
161.52426 -565.33484 -806.65814
161.32326 -591.51855 -810.70215
161.40182 -618.70691 -809.1214
216.39899 834.68207 -324.60849
214.32639 796.0697 -360.34921
215.29549 768.91254 -343.63754
218.25146 748.29089 -292.66382
260.80222 447.08954 441.0979
257.93607 405.32825 391.673
255.94748 365.63947 357.38065
253.79001 326.30151 320.17639
251.66736 287.62003 283.5726
249.58115 249.58121 247.59717
247.52922 212.16814 212.21324
245.81708 175.58377 182.68832
243.92581 139.38632 150.07451
242.06342 103.74149 117.95889
240.22925 68.637016 86.329819
238.42267 34.060608 55.176369
236.50702 8.6685926e-05 22.142202
234.37915 -33.482594 -14.551713
232.31024 -66.374252 -50.228901
230.28577 -98.693764 -85.139542
228.29729 -130.45558 -119.42959
226.34186 -161.6725 -153.14992
224.07349 -192.0629 -192.2666
221.58722 -221.58694 -235.14066
219.15553 -250.46341 -277.07336
216.826 -278.77621 -317.24484
214.57411 -306.5343 -356.07721
212.36852 -333.7218 -394.11139
210.08157 -360.13974 -433.5484
207.74344 -385.80908 -473.86829
205.45677 -410.91345 -513.30011
203.21991 -435.47116 -551.87372
201.03122 -459.49979 -589.61627
198.9061 -483.05759 -626.26276
196.86989 -506.23672 -661.37592
195.10268 -529.56421 -691.85065
194.59398 -555.9826 -700.6225
189.09218 -567.27631 -795.4978
188.85745 -593.55188 -799.54523
188.62262 -619.75989 -803.59497
190.44513 -652.95459 -772.16693
244.12946 823.93695 -372.64664
242.24968 787.31165 -401.00986
244.27658 763.36444 -370.42667
247.67897 743.03699 -319.08853
298.41382 447.62103 446.44138
290.93018 400.02933 333.5217
288.49094 360.6138 296.71686
286.09232 321.85406 260.52399
283.73184 283.73196 224.90742
281.41135 246.23512 189.89394
279.18555 209.38919 156.30899
277.34497 173.34067 128.53703
275.24591 137.62317 96.864647
273.17078 102.43913 65.553413
271.12668 67.78196 34.710407
269.11298 33.639275 4.3257275
266.94818 8.5817839e-05 -28.338783
264.5759 -33.071793 -64.133652
262.25827 -65.564499 -99.103546
260.00046 -97.500122 -133.1714
257.78119 -128.8905 -166.65747
255.60062 -159.75026 -199.56004
253.06917 -189.80161 -237.75684
250.29387 -219.00702 -279.63251
247.5788 -247.57869 -320.59985
244.94139 -275.55884 -360.39536
242.42555 -303.0318 -398.35635
239.96185 -329.94745 -435.53033
237.42395 -356.13583 -473.82477
234.81056 -381.56702 -513.25787
232.25499 -406.4462 -551.8183
229.75354 -430.78775 -589.56207
227.30542 -454.61069 -626.50159
224.90891 -477.93118 -662.66217
222.60876 -500.86963 -697.36847
220.49409 -523.6734 -729.27643
219.6954 -549.23834 -741.32806
217.18988 -570.12335 -779.13324
216.60072 -595.65198 -788.02258
216.32806 -621.94305 -792.13702
216.40294 -649.20862 -791.00726
271.47232 814.41718 -415.20801
269.96371 779.89532 -435.44186
272.95282 758.20245 -395.35123
326.07776 434.77045 317.17621
322.77774 394.50632 272.91571
320.15198 355.72452 237.69807
317.52588 317.526 202.4761
314.94101 279.9476 167.80701
312.39935 242.9774 133.7175
310.02771 206.68532 101.90849
308.01007 171.11693 74.846962
305.78214 135.90343 44.965252
303.50534 101.16856 14.428646
301.26224 66.947227 -15.6565
299.05206 33.228207 -45.300472
296.64493 7.4852331e-05 -77.585007
294.04071 -32.671021 -112.51405
291.48438 -64.774246 -146.80029
289.00494 -96.334717 -180.05521
286.56735 -127.36311 -212.74905
284.17175 -157.87305 -244.87952
281.39008 -187.59323 -282.18835
278.33972 -216.48633 -323.10028
275.3548 -244.75969 -363.13513
272.4332 -272.43304 -402.32031
269.64883 -299.60971 -439.66525
266.93802 -326.25745 -476.02328
264.16611 -352.22128 -513.20123
261.28995 -377.41867 -551.77686
258.47577 -402.07321 -589.52148
255.72156 -426.20248 -626.46185
253.0264 -449.82455 -662.61023
250.38649 -472.95218 -698.01715
247.8067 -495.61331 -732.61835
245.33684 -517.93329 -765.74469
244.19511 -542.6557 -781.05768
244.78914 -571.17444 -773.09088
244.52386 -597.72491 -776.64862
244.34494 -624.43695 -779.04852
244.21318 -651.23505 -780.81567
246.12318 -683.67535 -755.19818
319.18753 -1028.493 224.7628
319.05661 -1063.5219 223.00673
318.40512 -1096.7286 214.26888
318.61685 -1132.86 217.10896
318.90887 -1169.3325 221.02525
301.99301 845.58063 -410.89703
298.68039 806.43713 -450.88431
297.73013 774.09851 -462.35468
301.18329 752.9585 -420.67139
356.4649 427.75806 246.63641
353.70172 389.07199 213.28191
350.96591 350.96609 180.25821
348.12531 313.31287 145.96841
345.32861 276.26294 112.20961
342.57812 239.80484 79.008072
340.0835 204.05028 48.895294
337.89822 168.94936 22.517099
335.56454 134.22588 -5.6529236
333.09665 99.929153 -35.443199
330.66479 66.133171 -64.798447
328.26816 32.826897 -93.728088
325.62433 0.00020536483 -125.64194
322.79993 -32.279816 -159.73561
320.02271 -64.004448 -193.25974
317.32437 -95.197197 -225.83147
314.67926 -125.87153 -257.76096
312.07919 -156.03954 -289.14642
309.05948 -185.43558 -325.59753
305.74728 -214.02296 -365.5791
302.50537 -242.00415 -404.71265
299.33148 -269.39828 -443.0249
296.26288 -296.26288 -480.06586
293.31866 -322.65036 -515.60602
290.32675 -348.39197 -551.7215
287.1998 -373.35947 -589.46729
284.13947 -397.7952 -626.40857
281.14368 -421.71536 -662.57123
278.21039 -445.13638 -697.97906
275.33768 -468.07394 -732.65558
272.52368 -490.54245 -766.62372
269.7934 -512.60736 -799.58124
268.23596 -536.47174 -818.38123
268.5144 -563.88007 -815.02014
271.08862 -596.39484 -783.94629
273.68109 -629.46637 -752.65247
353.79028 -849.09644 214.35109
352.91669 -882.29156 203.80569
352.26855 -915.89807 195.98195
351.86023 -950.02246 191.05309
351.51678 -984.24683 186.90726
351.22937 -1018.565 183.43828
351.12195 -1053.3657 182.14128
351.06659 -1088.3063 181.47304
351.07663 -1123.4451 181.5945
351.14041 -1158.7632 182.3643
351.26633 -1194.3054 183.88419
351.55042 -1230.4263 187.31334
328.69006 836.66583 -449.32996
326.89505 802.37891 -469.02795
325.91284 770.3396 -479.80634
328.9657 747.64954 -446.30533
386.14554 421.24979 181.16908
383.78351 383.78363 155.24864
380.96643 346.33316 124.33478
377.92331 309.21002 90.940712
374.92841 272.67532 58.075863
371.97894 236.71404 25.709124
369.38425 201.4825 -2.7645316
367.04041 166.83678 -28.485115
364.62079 132.58955 -55.037148
361.97165 98.719696 -84.10807
359.36075 65.338539 -112.75954
356.78876 32.435452 -140.98335
353.91205 0.00014543162 -172.55162
350.87704 -31.897743 -205.85655
347.8952 -63.253601 -238.57872
344.9827 -94.086121 -270.53931
342.14035 -124.41464 -301.73065
339.34439 -154.2473 -332.4126
336.09961 -183.32704 -368.01971
332.53818 -211.61513 -407.10187
329.05145 -239.31001 -445.36444
325.63702 -266.43011 -482.83295
322.29279 -292.99338 -519.53174
319.12109 -319.12091 -554.33722
315.92349 -344.64371 -589.4267
312.55823 -369.38681 -626.35571
309.26276 -393.60703 -662.51935
306.03604 -417.32181 -697.92804
302.87598 -440.54672 -732.60583
299.78052 -463.297 -766.57477
296.74765 -485.58694 -799.85626
294.19052 -508.14709 -827.91754
292.65842 -532.1062 -844.73016
291.74026 -556.95856 -854.80591
294.22052 -588.44098 -827.58826
387.95486 -811.17822 201.02428
387.69803 -845.88647 198.20567
387.70547 -881.1488 198.28743
387.66083 -916.28912 197.79759
387.71851 -951.67267 198.4303
387.71106 -986.9007 198.34848
387.78546 -1022.3434 199.1653
387.85992 -1057.7998 199.98232
387.94931 -1093.3116 200.96317
388.05176 -1128.8777 202.08746
388.17291 -1164.5187 203.41704
388.38934 -1200.4762 205.79202
388.48459 -1236.0872 206.83681
389.0007 -1273.0931 212.50098
355.67899 800.27783 -478.42114
354.54321 768.17712 -489.84616
356.57095 742.85632 -469.44873
422.65332 457.87454 195.28882
415.56836 415.56845 124.01954
413.06042 378.63898 98.791153
410.18518 341.82108 69.868538
406.95102 305.21332 37.335567
403.76746 269.17856 5.3115458
400.6315 233.70181 -26.23354
397.95486 198.97754 -53.158543
395.46094 164.77562 -78.245605
392.97882 130.99303 -103.21386
390.15778 97.53965 -131.59148
387.37692 64.563011 -159.56444
384.63547 32.053162 -187.14154
381.5325 0.0002077747 -218.35497
378.29892 -31.524759 -250.88203
375.12131 -62.520157 -282.84662
372.00287 -93.000587 -314.21558
368.97296 -122.99091 -344.69421
365.99197 -152.49655 -374.68073
362.53174 -181.26575 -409.48779
358.73294 -209.26076 -447.70068
355.01294 -236.67508 -485.121
351.36929 -263.52676 -521.77325
347.79971 -289.83289 -557.68054
344.36508 -315.66779 -592.23004
340.97659 -340.97647 -626.31573
337.38144 -365.49652 -662.48022
333.8613 -389.50479 -697.88995
330.41388 -413.01721 -732.56842
327.03815 -436.05057 -766.52606
323.77466 -458.68063 -799.354
321.29889 -481.94824 -824.25824
319.87656 -506.47107 -838.56567
318.97726 -531.62854 -847.61224
318.56345 -557.48584 -851.77484
318.81 -584.48474 -849.2948
425.38416 -815.31958 222.75902
425.43756 -850.875 223.2959
425.45602 -886.3667 223.48184
425.57925 -922.08826 224.72151
425.7005 -957.82599 225.94096
425.79306 -993.51691 226.87181
425.94531 -1029.3676 228.40323
426.03589 -1065.0895 229.31427
426.34698 -1101.3964 232.44403
426.66473 -1137.7725 235.64053
427.0947 -1174.5104 239.96571
426.97266 -1209.7557 238.73801
426.75772 -1244.7098 236.57555
426.84244 -1280.5272 237.42795
428.93176 -1322.5394 258.44482
433.34692 -1372.2651 302.85818
433.58777 -1409.1602 305.28079
384.95703 799.52625 -481.78146
383.85999 767.72009 -491.9678
384.34506 739.12537 -487.46362
388.9249 718.01544 -444.93802
448.45709 448.45728 107.84441
444.2081 410.03836 68.390854
441.56274 373.63022 43.827614
438.65234 337.42502 16.803225
435.23792 301.31873 -14.901676
431.87616 265.77023 -46.116688
428.56406 230.76541 -76.870872
425.82385 196.53413 -102.31493
423.18784 162.76465 -126.79141
420.58429 129.41063 -150.96667
417.67615 96.386864 -177.96992
414.73413 63.805412 -205.28793
411.83325 31.679686 -232.22394
408.50732 0.00021771055 -263.10657
405.08685 -31.160307 -294.86691
401.72321 -61.803505 -326.09979
398.41333 -91.941437 -356.83371
395.19839 -121.59936 -386.68585
392.04138 -150.78494 -416.00012
388.3761 -179.25041 -450.03394
384.35126 -206.95837 -487.40613
380.409 -234.09772 -524.01172
376.54678 -260.68607 -559.87384
372.76224 -286.73999 -595.01532
369.0687 -312.28879 -629.31165
365.50217 -337.38635 -662.42841
361.68854 -361.68835 -697.83923
357.95374 -385.48856 -732.51855
354.29523 -408.80209 -766.48932
350.87445 -431.84528 -798.25311
348.65454 -455.93262 -818.86591
347.19812 -480.73572 -832.38922
346.35321 -506.20844 -840.23438
346.10596 -532.47052 -842.53064
346.46884 -559.68036 -839.16101
349.10059 -590.78558 -814.72382
464.11603 -821.12817 253.24445
464.33719 -857.23767 255.29774
464.79816 -893.84247 259.57843
465.8638 -1290.0842 269.47357
465.79111 -1325.7131 268.79846
465.6821 -1361.2244 267.78595
465.0947 -1395.2841 262.33206
414.88519 800.1358 -479.05609
414.00174 768.86047 -486.67358
413.52731 738.44189 -490.76404
415.92038 713.00665 -470.13052
421.79321 692.94623 -419.49359
475.52252 441.55685 43.77058
472.09341 404.6517 14.204446
469.32089 368.75238 -9.7010221
466.39667 333.14069 -34.914562
462.81198 297.52203 -65.822197
459.28195 262.44696 -96.258682
455.82153 227.91078 -126.09476
453.01672 194.15013 -150.27873
450.24619 160.80234 -174.16682
447.50931 127.85994 -197.76437
444.55176 95.26133 -223.26527
441.45676 63.065361 -249.95099
438.40448 31.314857 -276.26807
434.86218 0.00013830326 -306.81082
431.26263 -30.804317 -337.84631
427.72223 -61.102985 -368.37259
424.23773 -90.90786 -398.41663
420.8371 -120.23907 -427.73758
417.51257 -149.11145 -456.40237
413.65036 -177.27849 -489.70291
409.41193 -204.70589 -526.24725
405.2579 -231.57584 -562.06451
401.18729 -257.90607 -597.16193
397.19766 -283.71246 -631.56158
393.28656 -309.0108 -665.28351
389.5152 -333.87006 -697.80115
385.49442 -357.95905 -732.46893
381.55441 -381.55432 -766.44043
378.09952 -405.10651 -796.22888
376.06998 -429.7941 -813.72839
374.67117 -454.95779 -825.7887
373.95871 -480.80389 -831.93213
373.80783 -507.31049 -833.23285
374.41888 -534.88403 -827.96436
502.92615 -1329.1617 280.04987
501.56491 -1361.3904 268.31332
501.12503 -1395.9911 264.52051
444.68124 770.78107 -477.75687
443.93243 739.88751 -483.78308
444.18115 710.69012 -481.78146
448.71747 688.03363 -445.27625
502.18839 435.23007 -14.975217
499.25784 399.40646 -38.558323
496.36136 363.99841 -61.867939
493.44739 328.96503 -85.317474
489.6998 293.82001 -115.47572
486.01083 259.20596 -145.16214
482.49112 225.16272 -173.48691
479.55774 191.82329 -197.09279
476.65982 158.88676 -220.41341
473.79672 126.34598 -243.45384
470.80884 94.16198 -267.49857
467.56857 62.342587 -293.57413
464.37262 30.958328 -319.2934
460.61658 9.467065e-05 -349.51917
456.84698 -30.456383 -379.8548
453.13672 -60.418091 -409.71283
449.48804 -89.89753 -439.07504
445.90848 -118.9088 -467.8812
442.42456 -147.47484 -495.91742
438.37643 -175.35049 -528.4942
433.9313 -202.50111 -564.26605
429.57544 -229.10678 -599.31964
425.30774 -255.18445 -633.66321
421.12241 -280.74805 -667.34393
417.01865 -305.81354 -700.36823
413.03439 -330.42728 -732.43158
408.81284 -354.30423 -766.40387
405.61215 -378.5712 -792.16089
403.57108 -403.57092 -808.58636
402.36127 -429.18515 -818.32227
401.70267 -455.26294 -823.62183
401.67044 -482.00443 -823.8811
402.69946 -510.08575 -815.60065
541.1756 -1370.9779 298.7691
540.82495 -1406.1448 295.94781
475.94385 773.409 -465.5563
475.19153 742.48694 -471.23215
474.43005 711.6452 -476.9769
476.18103 684.51038 -463.76718
481.84195 662.53284 -421.05893
537.02594 469.89795 -4.727736
528.77325 429.62842 -66.989029
525.72711 394.2955 -89.970757
522.71582 359.36734 -112.68935
519.73877 324.83682 -135.14883
515.92676 290.20883 -163.90872
512.08759 256.04398 -192.87268
508.52515 222.4799 -219.74954
505.47012 189.55151 -242.79805
502.45157 157.01617 -265.57108
499.46887 124.86727 -288.07379
496.46472 93.087181 -310.73819
493.08664 61.635895 -336.22406
489.75418 30.609632 -361.36542
485.79092 0.00020183042 -391.26599
481.85971 -30.116106 -420.92477
477.98965 -59.748653 -450.12192
474.1832 -88.909218 -478.83966
470.43686 -117.60909 -507.10339
466.79562 -145.87341 -534.57471
462.57043 -173.46381 -566.45111
457.92993 -200.34431 -601.46082
453.38162 -226.69072 -635.77533
448.92276 -252.51892 -669.41473
444.55075 -277.84406 -702.39917
440.26471 -302.68188 -734.73474
436.1463 -327.10965 -765.80573
433.19351 -351.96948 -788.08301
431.332 -377.41544 -802.12689
430.17807 -403.29184 -810.8327
429.58063 -429.58041 -815.34003
429.81625 -456.67966 -813.56226
431.30194 -485.21448 -802.35376
506.68744 745.12872 -458.47614
505.9567 714.29199 -463.66522
505.60437 684.0531 -466.16675
508.70801 658.32825 -444.12891
515.62439 636.94788 -395.01852
559.65137 460.88947 -82.399117
554.68005 424.16733 -117.6986
551.52747 389.31366 -140.08414
548.40808 354.85239 -162.23381
545.32373 320.7789 -184.13422
541.51685 286.68555 -211.16592
537.53589 252.95825 -239.43323
533.94611 219.86026 -264.92279
530.77588 187.33278 -287.4332
527.64307 155.18935 -309.6781
524.54706 123.42297 -331.66177
521.48718 92.027321 -353.38898
518.03265 60.94516 -377.91821
514.55579 30.268187 -402.60632
510.40454 0.00016688806 -432.08255
506.31772 -29.78339 -461.10159
502.29782 -59.093765 -489.64526
498.34128 -87.942451 -517.7395
494.44458 -116.33976 -545.40814
490.64307 -144.30655 -572.40149
486.24936 -171.61719 -603.59979
481.4227 -198.23276 -637.87177
476.69095 -224.32509 -671.47034
472.0513 -249.90927 -704.41492
467.50107 -275.00049 -736.72406
463.54993 -299.94388 -764.77979
461.0293 -325.43231 -782.67798
459.20358 -351.15567 -795.64154
458.12381 -377.27847 -803.30853
457.70908 -403.86084 -806.25336
458.14737 -431.19727 -803.1416
460.40042 -460.4003 -787.14325
537.72742 716.97003 -450.1954
536.961 686.117 -455.33521
537.05914 656.40582 -454.67703
542.39459 632.79382 -418.89688
583.8078 454.07297 -141.17351
579.93903 418.84494 -167.11806
576.68146 384.45444 -188.96365
573.46027 350.44809 -210.56554
570.27734 316.82074 -231.91054
566.49542 283.24799 -257.27283
562.37799 249.94597 -284.8847
558.77539 217.30156 -309.04471
555.49609 185.16551 -331.03577
552.25513 153.4044 -352.77032
549.05176 122.01173 -374.25275
545.88538 90.981018 -395.48697
542.42798 60.269871 -418.67291
538.77466 29.931921 -443.17218
534.47595 0.00013915985 -472.00024
530.24316 -29.457695 -500.38617
526.07892 -58.453129 -528.31189
521.97961 -86.996544 -555.80231
517.94171 -115.09802 -582.88141
513.98376 -142.77316 -609.42413
509.42944 -169.80969 -639.9657
504.42545 -196.16533 -673.52332
499.5188 -222.00816 -706.4281
494.86035 -247.43001 -737.66833
491.41949 -273.01065 -760.74329
489.12189 -298.90778 -776.15118
487.47562 -324.98373 -787.19128
486.37469 -351.27057 -794.5741
486.06363 -378.04935 -796.6604
486.66113 -405.55081 -792.65363
490.79022 -436.25784 -764.96307
568.87347 688.63641 -442.112
568.06781 657.76288 -447.23083
569.39563 629.33228 -438.7948
576.229 606.55707 -395.38141
608.19946 448.14709 -192.26663
604.57196 413.6546 -215.31265
601.2179 379.71664 -236.62187
597.90082 346.15329 -257.69589
594.62018 312.95813 -278.53867
590.87958 279.89044 -302.30289
586.6355 247.00455 -329.26648
583.03339 214.802 -352.15158
579.65088 183.04794 -373.64105
576.30743 151.65997 -394.88242
573.00238 120.63214 -415.88043
569.73499 89.958321 -436.63895
566.28625 59.609299 -458.54926
562.46173 29.603479 -482.84732
558.02063 0.00022162712 -511.06238
553.65137 -29.139421 -538.82129
549.34991 -57.826229 -566.14886
545.11273 -86.070259 -593.06873
540.9425 -113.88242 -619.56311
536.83557 -141.27237 -645.65509
532.12634 -168.03987 -675.57379
526.95331 -194.14062 -708.43872
522.55597 -220.02344 -736.37616
519.66687 -246.15796 -754.73108
517.59912 -272.42041 -767.86786
516.15216 -298.82474 -777.06091
515.26422 -325.42996 -782.70209
515.08929 -352.42947 -783.81335
515.81641 -380.07516 -779.19391
704.77496 -556.40106 421.29611
714.41718 -601.61432 482.55521
601.12451 691.2934 -428.16815
600.25757 660.28351 -433.40048
599.4812 629.45551 -438.08643
602.83868 602.83887 -417.8223
610.72699 580.1908 -370.21198
641.11786 480.83844 -186.7869
632.08228 442.4577 -241.32149
628.60187 408.59131 -262.32761
625.15692 375.09433 -283.11951
621.74951 341.96243 -303.68503
618.37909 309.18967 -324.02747
614.6925 276.61176 -346.27829
610.32867 244.13162 -372.61597
606.73962 212.35899 -394.27765
603.25946 180.978 -415.28247
599.81897 149.95494 -436.04794
596.41748 119.28352 -456.57755
593.05432 88.958221 -476.87585
589.6272 58.962837 -497.56061
585.63422 29.281914 -521.66046
581.06 0.00021022822 -549.26831
576.55896 -28.827818 -576.43427
572.12714 -57.212593 -603.18298
567.76068 -85.163895 -629.53674
563.46252 -112.69234 -655.47803
559.229 -139.80724 -681.02966
554.56 -166.36781 -709.20978
550.63409 -192.7218 -732.90485
548.15656 -219.26254 -747.85797
546.34857 -245.8567 -758.77026
545.16266 -272.58112 -765.92798
544.64124 -299.55255 -769.07477
544.88367 -326.93015 -767.61169
547.03406 -355.57205 -754.63275
681.57422 -477.10187 57.388885
695.07471 -521.30585 138.87137
749.70807 -599.76636 468.61307
632.66132 662.78815 -419.6575
631.73126 631.73138 -425.00366
631.58643 601.51093 -425.83606
637.07135 576.39819 -394.30807
645.6297 553.39709 -345.11374
661.21161 472.29422 -255.54688
655.61694 437.07809 -287.70569
652.04785 403.64883 -308.22128
648.52014 370.5831 -328.4989
645.02771 337.87183 -348.5741
641.57269 305.51093 -368.43387
637.95392 273.40891 -389.23508
633.52911 241.34454 -414.66949
629.91534 209.97185 -435.4418
626.34259 178.9552 -455.97849
622.81012 148.28828 -476.28348
619.31732 117.96539 -496.36069
615.86346 87.980614 -516.21375
612.44788 58.328526 -535.84705
608.30634 28.967009 -559.65326
603.60803 0.00012648875 -586.65948
598.98181 -28.522697 -613.25165
594.42365 -56.611736 -639.45239
589.93658 -84.276436 -665.24457
585.65015 -111.55225 -689.88348
582.20233 -138.61949 -709.70221
579.29254 -165.51192 -726.42822
577.04559 -192.34842 -739.34387
575.47211 -219.2274 -748.38855
574.52905 -246.22656 -753.80902
574.43494 -273.54028 -754.35016
575.40125 -301.40045 -748.79584
716.10474 -443.30273 59.985657
711.40894 -474.27249 32.993748
709.23077 -506.59326 20.47333
664.36011 634.16205 -411.03186
663.39471 603.08624 -416.32874
663.93707 573.40033 -413.35312
671.88062 549.72064 -369.76761
682.86108 465.58725 -309.51968
678.58624 431.8277 -332.97525
674.93622 398.82605 -353.00217
671.32532 366.17755 -372.81488
667.75281 333.87659 -392.41687
664.22083 301.91867 -411.79611
660.68286 270.27948 -431.20868
656.27502 238.64569 -455.39371
652.57318 207.63702 -475.70514
648.91284 176.97633 -495.78888
645.29333 146.65775 -515.64862
641.71399 116.67545 -535.2879
638.17413 87.023911 -554.71057
634.6731 57.697582 -573.91992
630.49866 28.659225 -596.82465
625.68036 5.4012224e-05 -623.26178
620.93512 -28.224209 -649.29797
616.52704 -56.04781 -673.48474
613.06586 -83.599777 -692.47571
610.34314 -110.97131 -707.41492
608.14758 -138.21524 -719.46161
606.25415 -165.34196 -729.85046
604.98553 -192.49532 -736.8111
604.44934 -219.79964 -739.7533
604.81573 -247.42456 -737.74274
607.73364 -276.24249 -721.7326
741.63983 -471.95245 12.990314
738.20831 -503.32373 -5.8378634
742.16431 -539.75574 15.867911
698.19751 637.4848 -391.93228
696.26697 605.44977 -402.06436
695.28418 574.36542 -407.22202
698.37354 546.55334 -391.00845
707.35504 522.82782 -343.87073
705.00275 459.78455 -356.21616
701.01019 426.70197 -377.17038
697.28412 394.11728 -396.72592
693.59747 361.87708 -416.0748
689.94946 329.97601 -435.22003
686.33978 298.40869 -454.16489
682.76758 267.17001 -472.91257
678.51782 236.00621 -495.21683
674.73254 205.35364 -515.08301
670.98938 175.04074 -534.72845
667.28748 145.06271 -554.15735
663.6261 115.41327 -573.3728
660.00476 86.087715 -592.37878
656.42273 57.080406 -611.17853
652.22412 28.357763 -633.21399
647.73108 0.00011266689 -656.79492
644.33228 -28.014299 -674.63281
641.63831 -55.794586 -688.77136
639.51575 -83.414932 -699.91119
637.67902 -110.90055 -709.55066
636.20477 -138.30527 -717.28809
635.08325 -165.67378 -723.17395
634.86139 -193.21863 -724.33862
636.09943 -221.25197 -717.841
768.01672 -500.88034 -25.500994
765.42126 -532.46674 -39.1227
729.40387 607.83679 -387.65738
728.31012 576.57898 -393.15817
727.68195 545.76147 -396.31802
733.00342 519.21075 -369.55304
736.26025 490.84024 -353.17236
726.7431 454.21442 -401.04001
722.90515 421.69485 -420.34341
719.11047 389.51837 -439.42926
715.35248 357.67633 -458.3302
711.63361 326.16541 -477.03464
707.95319 294.98056 -495.54581
704.31067 264.11658 -513.86633
700.27399 233.42471 -534.16901
696.40991 203.11974 -553.60406
692.5882 173.14716 -572.82544
688.80823 143.50191 -591.83765
685.34625 114.22446 -609.24988
681.99274 85.249222 -626.11682
679.05615 56.588123 -640.88672
676.12396 28.172024 -655.63458
673.47162 0.00019501139 -668.9751
671.25885 -27.968958 -680.10455
669.49237 -55.790962 -688.98877
668.08948 -83.51107 -696.0448
667.14404 -111.19048 -700.80023
666.96991 -138.95206 -701.6759
667.60376 -166.90086 -698.48779
798.02075 -498.76288 -42.540867
794.56464 -529.70966 -59.923775
793.80627 -562.27942 -63.738087
761.63898 578.8457 -378.75702
760.5697 547.61029 -383.91992
760.75244 517.31177 -383.03772
754.25702 482.72467 -414.40033
748.20062 448.9205 -443.64319
744.29523 416.80548 -462.50037
740.43036 385.0239 -481.16177
736.60541 353.57065 -499.63022
732.82263 322.44205 -517.89471
729.10461 291.64191 -535.84692
725.64484 261.23239 -552.55225
722.10132 231.07251 -569.66174
718.84821 201.27766 -585.36938
715.7135 171.77133 -600.50507
713.00989 142.60213 -613.55914
710.29095 113.6467 -626.68738
707.91455 84.94986 -638.16174
705.66235 56.45311 -649.03625
703.5592 28.142603 -659.19116
701.75537 9.4283176e-05 -667.90076
700.38513 -28.015282 -674.51678
699.63812 -55.970993 -678.12378
699.73938 -83.968681 -677.63464
701.28107 -112.20471 -670.19086
902.64197 -180.52827 302.06534
824.00262 -527.36157 -77.638847
821.15472 -558.38507 -91.389679
794.13983 549.78925 -369.30783
792.94965 518.46722 -374.83353
773.72211 476.13687 -464.10187
770.11273 444.2959 -480.85895
766.58917 412.77905 -497.21793
763.1922 381.59637 -512.98895
759.8797 350.71387 -528.36804
756.67676 320.13254 -543.23853
753.64929 289.86536 -557.29413
750.646 259.83902 -571.23755
747.87726 230.1162 -584.09186
745.34412 200.66968 -595.8526
742.9176 171.44273 -607.11829
740.69354 142.44115 -617.44403
738.59979 113.63074 -627.16461
736.77356 85.012474 -635.64349
734.96765 56.536083 -644.02771
733.46332 28.210249 -651.01184
732.69806 0.00017099665 -654.56494
733.41266 -28.208008 -651.24719
928.75104 -71.44223 255.65422
931.6731 -107.50053 269.22015
936.30872 -144.04733 290.742
943.48669 -181.43964 324.0675
854.62 -525.91992 -88.515549
850.36621 -556.00836 -108.26492
848.9903 -587.76251 -114.65239
828.14062 552.09381 -353.8526
827.909 521.27618 -354.88818
799.58093 473.82593 -481.5365
796.37378 442.42999 -495.87454
793.34143 411.3623 -509.43158
790.38562 380.55615 -522.6463
787.45801 349.98154 -535.73523
784.61713 319.65891 -548.43585
781.80286 289.55673 -561.01764
779.00873 259.66974 -573.50983
776.71179 230.13693 -583.77905
774.7973 200.87352 -592.33826
773.01874 171.78203 -600.28961
771.52441 142.87508 -606.97076
770.24512 114.11056 -612.69012
769.51294 85.501472 -615.9632
769.59961 57.007404 -615.57605
966.0882 -35.780872 262.87881
965.67902 -71.531631 261.0495
970.09027 -107.78767 280.77115
975.75494 -144.55617 306.09619
879.73163 -553.90491 -123.20128
876.76068 -584.50708 -136.48358
884.41125 -622.36334 -102.27969
829.55951 474.03409 -479.965
826.80859 442.93326 -491.82443
824.1452 412.07272 -503.30679
821.50214 381.41177 -514.70105
818.94452 350.97641 -525.72736
816.41248 320.73352 -536.64325
814.03772 290.72794 -546.88104
811.74084 260.91678 -556.78308
809.53967 231.29726 -566.27264
809.02386 202.25603 -568.49615
810.45514 173.66898 -562.32599
1006.63 0.00013584153 283.40274
1000.3199 -35.725643 256.19949
1003.9328 -71.709366 271.77478
1009.1387 -108.12183 294.21814
905.7821 -582.28821 -151.36235
903.67303 -613.20654 -160.45465
868.14258 478.97543 -442.68646
1038.2622 0.00023221943 265.42575
1037.7919 -35.785755 263.46799
1042.8005 -71.917183 284.31622
1049.0084 -108.51806 310.15598
935.64288 -580.74371 -161.72067
932.07336 -610.66876 -176.57851
933.30652 -643.65955 -171.44557
1080.6051 36.02029 291.74387
1072.6895 0.00012402255 259.89368
1076.3462 -35.878021 274.60718
1082.1652 -72.144127 298.0206
961.22375 -608.77484 -188.60971
958.59406 -639.0625 -199.19104
1112.2842 35.880344 274.83987
1110.386 0.00018130642 267.44858
1115.4713 -35.982803 287.25006
1122.3983 -72.412727 314.22324
992.49841 -608.3053 -191.59308
987.37341 -637.01495 -211.5491
986.10791 -668.00848 -216.47693
1146.1044 35.815987 267.06931
1149.0959 0.00015346881 278.35406
1155.1093 -36.096989 301.03748
1016.6676 -635.41711 -221.19304
1013.7653 -665.2832 -232.14157
1026.8057 -705.92871 -182.95036
1189.6456 72.099823 295.32852
1183.1776 35.853889 271.66919
1188.4384 0.0001779061 290.91248
1195.8956 -36.239056 318.19009
1042.8102 -663.60626 -241.78105
1040.791 -693.86047 -249.16667
1222.5878 71.917053 284.29489
1222.2169 35.94762 282.97818
1228.4927 0.00020445902 305.25934
1073.1179 -662.80798 -246.36972
1069.3918 -691.95929 -259.59863
1071.9803 -725.16296 -250.40857
1257.9551 71.883293 282.25632
1262.0861 36.059669 296.5032
1268.9751 0.00015637655 320.26282
