# .PCD v0.7 - Point Cloud Data file format
VERSION 0.7
FIELDS x y z
SIZE 4 4 4
TYPE F F F
COUNT 1 1 1
WIDTH 667
HEIGHT 1
VIEWPOINT 0 0 0 1 0 0 0
POINTS 667
DATA ascii
-8.950448 -15.12317 -10.617803
-8.6486006 -14.208415 -10.588535
-8.6338558 -14.492542 -10.652106
-8.6191607 -14.775702 -10.715458
-8.617383 -15.080421 -10.723118
-8.3526983 -13.302446 -10.530521
-8.3384647 -13.58861 -10.594157
-8.3240757 -13.873459 -10.658489
-8.3257952 -14.184688 -10.650804
-8.3280106 -14.496907 -10.640898
-8.3453712 -14.836214 -10.563282
-8.1064634 -12.159697 -10.237451
-8.0559025 -12.393696 -10.472195
-8.0420122 -12.681634 -10.536684
-8.0307026 -12.972673 -10.58919
-8.0330687 -13.28546 -10.578204
-8.0352402 -13.598097 -10.568126
-8.0578299 -13.946244 -10.463244
-7.7924705 -11.221156 -10.248108
-7.7580962 -11.481981 -10.414081
-7.7445889 -11.771775 -10.479298
-7.7373776 -12.070309 -10.514119
-7.7391996 -12.382719 -10.505321
-7.7412949 -12.695722 -10.495206
-7.7697306 -13.053148 -10.357903
-7.4796071 -10.284458 -10.253967
-7.4592571 -10.56728 -10.356317
-7.4462504 -10.859115 -10.421735
-7.4423966 -11.163593 -10.441119
-7.4442053 -11.476482 -10.432022
-7.4487171 -11.7938 -10.40933
-7.4795799 -12.154317 -10.254099
-8.1112328 12.695843 -5.3033791
-8.185236 12.455794 -4.914988
-8.2914028 12.256858 -4.3577909
-8.4288816 12.093615 -3.6362605
-8.6635141 12.053584 -2.4048409
-7.1721439 -9.35497 -10.231988
-7.1594949 -9.6497536 -10.298371
-7.1469917 -9.9436417 -10.363992
-7.146286 -10.253366 -10.367699
-7.148026 -10.566646 -10.358567
-7.1575727 -10.891957 -10.308464
-7.524416 12.654702 -6.5881486
-7.5162435 12.29931 -6.6329894
-7.5404911 11.996238 -6.4999466
-7.614511 11.767881 -6.0938101
-7.6875887 11.531384 -5.6928439
-7.7607455 11.288359 -5.2914429
-7.8482246 11.058864 -4.811461
-7.9645166 10.860705 -4.1733832
-8.0869722 10.660103 -3.5014856
-6.8709664 -8.4325495 -10.173526
-6.8588057 -8.7293873 -10.240251
-6.8470755 -9.0256891 -10.304614
-6.8489876 -9.3395271 -10.294124
-6.8506827 -9.6532345 -10.284822
-6.8648324 -9.9852095 -10.207186
-7.1677842 11.604986 -6.6721444
-7.1460176 11.229457 -6.7972622
-7.1358995 10.873754 -6.8554211
-7.1753478 10.592181 -6.6286697
-7.2609215 10.372746 -6.1367793
-7.318583 10.106616 -5.805336
-7.3771672 9.8362246 -5.468586
-7.4417539 9.5679703 -5.097332
-7.5592117 9.359026 -4.4221706
-7.680469 9.1434164 -3.7251678
-7.9686112 9.1069851 -2.0688889
-6.6144714 -7.2444215 -9.8526545
-6.5688519 -7.5072584 -10.114883
-6.5571852 -7.8061705 -10.181949
-6.5491052 -8.1084146 -10.228393
-6.5505433 -8.4221268 -10.220123
-6.5521674 -8.7362232 -10.210787
-6.5714192 -9.0748177 -10.100125
-6.7944698 10.191705 -6.8652301
-6.7716417 9.818882 -7.0030093
-6.7614527 9.4660349 -7.0645046
-6.7655296 9.1334667 -7.0398979
-6.8689189 8.9295959 -6.4158916
-6.9261475 8.6576853 -6.0704827
-6.9843388 8.3812075 -5.7192693
-7.0380001 8.0937004 -5.3953924
-7.1039333 7.8143287 -4.9974527
-7.1820488 7.5411525 -4.5259843
-7.2635179 7.2635188 -4.0342741
-7.4038911 7.0336971 -3.1870477
-6.2979879 -6.2979879 -9.861763
-6.2657962 -6.5790844 -10.056058
-6.2546501 -6.8801136 -10.12333
-6.2495241 -7.1869526 -10.154267
-6.2509212 -7.5011044 -10.145834
-6.2524743 -7.8155928 -10.13646
-6.2751489 -8.1576929 -9.999609
-10.054405 -18.097927 12.81022
-8.3641434 12.326108 5.2655416
-8.3033867 11.79955 4.8795366
-8.2294779 11.261393 4.4099851
-6.4083018 8.4319773 -7.1603003
-6.3925858 8.0748463 -7.2601452
-6.3848057 7.7289762 -7.309576
-6.3787212 7.3858886 -7.3482313
-6.5278144 7.2149544 -6.4010143
-6.5709014 6.916739 -6.1272755
-6.6065178 6.6065187 -5.9009957
-6.6425228 6.2929177 -5.6722503
-6.6844444 5.9808187 -5.4059134
-6.7466965 5.6814303 -5.0104156
-6.8101182 5.3764105 -4.60748
-6.87466 5.0655394 -4.1974373
-6.9424806 4.7501197 -3.7665608
-7.1134653 4.4927163 -2.6802599
-5.97892 -5.3495607 -9.8882446
-5.9617949 -5.648015 -9.9970465
-5.9511518 -5.9511499 -10.064665
-5.9487824 -6.2618742 -10.079718
-5.9500937 -6.5764184 -10.071386
-5.9534168 -6.8934302 -10.050272
-5.9772968 -7.2356749 -9.8985567
-9.5168114 -16.529198 12.588664
-9.4999018 -16.999821 12.48123
-9.5025444 -17.504686 12.498024
-9.5179482 -18.034006 12.595885
-8.1297331 12.646254 6.6457181
-8.0794773 12.119218 6.3086953
-8.0225248 11.588095 5.926765
-7.9646893 11.062069 5.538908
-7.913168 10.550891 5.193397
-7.8599305 10.043245 4.8363795
-7.7909455 9.5222673 4.3737555
-6.0908251 7.1059628 -7.0275044
-6.0361657 6.706852 -7.3940563
-6.0186586 6.3530293 -7.5114632
-6.0098519 6.0098529 -7.5705228
-6.0030479 5.6695461 -7.6161528
-6.011766 5.343792 -7.5576844
-6.1917081 5.1597595 -6.3509655
-6.2237935 4.8407292 -6.135797
-6.2557931 4.5180736 -5.9211998
-6.2878242 4.1918836 -5.7063937
-6.3309879 3.8689396 -5.4169378
-6.3761063 3.5422826 -5.1143646
-6.4253864 3.2126939 -4.7838845
-6.4843593 2.8819385 -4.3884039
-6.5489669 2.5468228 -3.9551365
-6.6540771 2.2180259 -3.2502532
-5.6671758 -4.4078026 -9.8685579
-5.6568632 -4.7140532 -9.9377165
-5.6467085 -5.0192952 -10.005816
-5.6468492 -5.3331337 -10.004872
-5.6480966 -5.6480961 -9.9965057
-5.6557932 -5.9700036 -9.9448891
-8.9836893 -14.972815 12.372473
-8.980279 -15.466035 12.34961
-8.9885273 -15.979606 12.404924
-9.0031261 -16.50573 12.502824
-7.8253093 12.888747 7.6911297
-7.8036938 12.394103 7.5376453
-7.7590094 11.866722 7.2203555
-7.7111387 11.339912 6.8804445
-7.6667585 10.823663 6.5653191
-7.6242065 10.315105 6.2631712
-7.5767522 9.8052111 5.9262195
-7.5266304 9.2976046 5.5703235
-7.4868131 8.8080187 5.2875948
-7.4476743 8.3238726 5.009685
-7.3974857 7.8326325 4.6533089
-7.3542123 7.3542151 4.3460417
-5.7145519 5.3784032 -7.2965708
-5.6805148 5.0122209 -7.53826
-5.6550059 4.6570649 -7.7193894
-5.6407537 4.3135185 -7.8205905
-5.6335168 3.9766009 -7.8719769
-5.6279054 3.6415861 -7.911818
-5.8203106 3.4237146 -6.5456214
-5.854332 3.099354 -6.3040462
-5.8951764 2.7742007 -6.014029
-5.9399619 2.4458671 -5.6960225
-5.9913244 2.1145861 -5.3313146
-6.044096 1.7776762 -4.956604
-6.116262 1.439122 -4.4441776
-6.225769 1.098666 -3.6666102
-6.391304 0.75191963 -2.4912074
-5.3607259 -3.468703 -9.8089609
-5.350956 -3.7771437 -9.878336
-5.3425169 -4.085453 -9.9382572
-5.343699 -4.4006939 -9.929863
-5.3448815 -4.7160707 -9.9214687
-5.3558559 -5.0408034 -9.843544
-8.494029 -12.990866 12.43946
-8.4661255 -13.446199 12.241327
-8.4628716 -13.938847 12.218223
-8.4761419 -14.459301 12.312451
-7.4829855 12.627542 8.5812836
-7.446332 12.100291 8.3047571
-7.4175634 11.589943 8.0877151
-7.3755589 11.063339 7.7708125
-7.3406739 10.552221 7.5076261
-7.3049436 10.044299 7.2380624
-7.2639766 9.5339708 6.9289899
-7.2285423 9.0356808 6.6616583
-7.1958032 8.5450153 6.4146562
-7.1594644 8.0543995 6.1405048
-7.1213317 7.5664167 5.8528175
-7.0886269 7.0886273 5.6060777
-7.0597558 6.6185222 5.3882647
-7.0327687 6.1536732 5.1846585
-7.0008354 5.6881809 4.9437428
-5.3871818 4.0403881 -7.2303381
-5.3528247 3.680069 -7.4895401
-5.3243089 3.3276942 -7.7046728
-5.3000393 2.9812746 -7.887774
-5.279726 2.6398635 -8.0410271
-5.2669983 2.3043134 -8.1370506
-5.2611775 1.9729427 -8.1809635
-5.264637 1.6452016 -8.1548653
-5.585146 1.3962878 -5.7368121
-5.6493144 1.0592479 -5.2526932
-5.7229362 0.71536934 -4.6972666
-5.8252983 0.36408216 -3.9249992
-5.9949498 8.6130746e-07 -2.6450753
-5.0687447 -2.5343707 -9.6327553
-5.0469794 -2.8389258 -9.7969637
-5.0382462 -3.1489022 -9.8628521
-5.0393634 -3.4645617 -9.8544235
-5.0404806 -3.7803607 -9.8459921
-5.0543103 -4.1066275 -9.7416553
-7.9663162 -11.451578 12.227734
-7.9508104 -11.926214 12.110747
-7.9522457 -12.425383 12.121579
-7.9652805 -12.943581 12.21992
-7.0277629 10.775904 8.6815882
-6.9878411 10.248836 8.360322
-6.9566755 9.7393484 8.10952
-6.9263678 9.2351599 7.8656201
-6.9012222 8.7415504 7.6632657
-6.8740759 8.2488918 7.444808
-6.8426743 7.7550325 7.1921058
-6.8114529 7.2655516 6.9408536
-6.7843099 6.7843113 6.7224283
-6.7619481 6.311151 6.5424719
-6.7336869 5.8358631 6.3150482
-6.7101912 5.3681531 6.1259651
-6.6885853 4.9049644 5.9520965
-6.6671181 4.444747 5.7793403
-6.6473598 3.9884162 5.6203394
-5.0250301 2.6800184 -7.4351654
-4.9976764 2.3322492 -7.6552892
-4.9732199 1.9892893 -7.8520999
-4.9504848 1.6501611 -8.0350552
-4.9279938 1.3141319 -8.2160511
-4.9123273 0.98246598 -8.342123
-4.914813 0.6553089 -8.3221245
-5.2834816 0.35223299 -5.3553019
-5.3785324 -2.0164777e-09 -4.590395
-5.5322928 -0.36881948 -3.3530245
-4.7525806 -2.2178693 -9.6276665
-4.7385349 -2.5272191 -9.7406969
-4.7366662 -2.8419988 -9.7557383
-4.7508373 -3.1672242 -9.641695
-7.4414153 -9.9218845 12.010403
-7.4376445 -10.412702 11.980061
-7.4438052 -10.91758 12.029634
-7.4561138 -11.432708 12.128691
-6.5753345 8.9236708 8.8203144
-6.5446239 8.4145184 8.5555143
-6.5192266 7.9162054 8.3365374
-6.4939575 7.4216661 8.1186581
-6.4718709 6.9341507 7.9282269
-6.4502378 6.4502411 7.7417026
-6.4223871 5.9636488 7.5015688
-6.4018474 5.4872994 7.3244724
-6.3825951 5.0148954 7.1584735
-6.3633595 4.5452566 6.9926205
-6.3439784 4.0782714 6.8255119
-6.3228664 3.6130681 6.6434798
-6.2995758 3.14979 6.4426699
-6.2767768 2.6900485 6.2460876
-4.6730356 1.6689432 -7.5816727
-4.6495299 1.3284384 -7.7843413
-4.6239176 0.99084002 -8.0051775
-4.5969229 0.65670437 -8.2379303
-4.5732927 0.32666457 -8.4416761
-4.8901038 8.952469e-07 -5.7100744
-4.9939609 -0.35670906 -4.8146005
-5.1760879 -0.73944014 -3.2442579
-4.4509687 -1.9075557 -9.496377
-4.4406142 -2.2203054 -9.5856581
-4.4514828 -2.5437028 -9.4919443
-6.952487 -7.9456973 12.072191
-6.9294357 -8.4143133 11.873437
-6.9267497 -8.9058199 11.850278
-6.9369593 -9.414444 11.938308
-6.1385984 7.0830007 9.1260824
-6.101438 6.5707803 8.7810373
-6.0804105 6.0804105 8.585783
-6.06113 5.5948906 8.4067583
-6.0419717 5.1124396 8.2288666
-6.0250263 4.6346359 8.0715179
-6.0084276 4.1596808 7.9173923
-5.9889741 3.6855233 7.7367573
-5.9675303 3.2132878 7.5376444
-5.945715 2.7441781 7.3350773
-5.9194641 2.2767189 7.0913296
-5.8947186 1.813761 6.861558
-4.3343692 1.0002408 -7.6269722
-4.3067031 0.66257101 -7.883863
-4.2791481 0.32916546 -8.1397209
-4.2494025 6.4086163e-07 -8.4159203
-4.238596 -0.32604381 -8.5162678
-4.677753 -0.71965462 -4.4385004
-4.9051809 -1.1319627 -2.3267322
-4.1582141 -1.5993117 -9.2626505
-4.1439767 -1.912605 -9.3948441
-6.4334636 -6.4334626 11.864038
-6.4205484 -6.9144359 11.744117
-6.4211607 -7.40903 11.7498
-6.4318013 -7.9160609 11.8486
-5.6623912 4.7186613 9.0857735
-5.6452127 4.2339115 8.9129744
-5.62673 3.7511535 8.7270508
-5.6068802 3.2706821 8.5273771
-5.5871992 2.7936003 8.3294029
-5.5617089 2.3173802 8.0729895
-5.538249 1.8460839 7.8369989
-5.504559 1.3761405 7.4981098
-5.4660144 0.91100311 7.1103768
-3.9803438 0.33169633 -7.8343163
-3.9500568 1.4110428e-06 -8.1389818
-3.9165227 -0.32637715 -8.476306
-3.9106538 -0.65177375 -8.5353451
-4.3939481 -1.0984873 -3.6737766
-3.8745842 -1.2915255 -8.8981771
-3.8478396 -1.6032655 -9.1672077
-3.8562632 -1.9281307 -9.0824738
-5.9179325 -4.9316096 11.656324
-5.9138269 -5.4210072 11.615023
-5.9182639 -5.9182639 11.659657
-5.9278903 -6.4218788 11.756487
-5.2250404 3.3250253 9.4645338
-5.2060328 2.8396537 9.2559481
-5.1832776 2.3560376 9.0062418
-5.1591544 1.8760569 8.741519
-5.1284313 1.3986648 8.404376
-5.0957932 0.92650902 8.0462112
-5.0487647 0.45898068 7.5301371
-3.6448874 8.4257823e-07 -7.8755879
-3.6122856 -0.32838801 -8.2333498
-3.5774329 -0.6504423 -8.6158152
-3.9528344 -1.0780454 -4.4962707
-3.5557168 -1.2929882 -8.8541183
-3.5453727 -1.6115307 -8.9676352
-5.4296055 -2.9616027 11.709369
-5.4114399 -3.4436419 11.510022
-5.4093246 -3.9340518 11.486814
-5.4167647 -4.4318981 11.568459
-5.4293318 -4.9357553 11.706363
-4.7625451 1.9050183 9.6155214
-4.7339272 1.4201798 9.2700729
-4.7024851 0.94049913 8.8905363
-4.6584129 0.46584374 8.3585348
-4.6031713 3.9550341e-07 7.69171
-3.3011272 -0.33011168 -8.0253525
-3.2666862 -0.65333569 -8.4410925
-3.2487447 -0.97462279 -8.6576643
-3.2477028 -1.2990799 -8.6702452
-3.2498116 -1.6249062 -8.644784
-4.9157295 -2.9494364 11.464617
-4.9352579 -3.45468 11.700355
-4.2922325 0.95382893 9.6952143
-4.2519188 0.47243536 9.1545191
-4.1975222 7.0020081e-07 8.4249382
-2.9871929 -0.33190784 -7.8083644
-2.952677 -0.65614992 -8.2712984
-2.9210045 -0.97366655 -8.696104
-2.9411738 -1.3071878 -8.4255819
-2.9461696 -1.6367599 -8.3585796
-3.7817552 1.2814296e-06 9.1887989
-3.7082744 -0.46353436 8.0800581
-2.634789 -0.65869564 -8.1175852
-2.6010778 -0.97540313 -8.6262474
-2.6327512 -1.3163747 -8.1483326
-2.6361003 -1.6475624 -8.0978031
-3.2818575 -0.46883422 8.7201204
-2.3143544 -0.66124332 -7.9638734
-2.2848668 -0.97922635 -8.4723654
-2.2696676 -1.2969522 -8.7344646
-2.3211768 -1.657981 -7.8462248
-2.6603642 -2.2803113 -1.9971445
-2.8434434 -0.47390553 9.332181
-1.9892581 -0.66308421 -7.8527026
-1.9622242 -0.98111254 -8.3965797
-1.9433905 -1.2955922 -8.7754869
-2.0041957 -1.6701617 -7.5521808
-2.2201874 -2.2201867 -3.2067602
-2.3913846 -0.47827584 9.8596478
-1.6608222 -0.66432911 -7.7776895
-1.6391063 -0.98346275 -8.3019581
-1.6196707 -1.2957356 -8.7711716
-1.677543 -1.6775419 -7.3740101
-1.8166586 -2.1799893 -4.0154638
-1.8539128 -0.92695498 8.0732861
-1.3127362 -0.98454994 -8.2581644
-1.2958796 -1.2958782 -8.7668591
-1.3439389 -1.6799222 -7.3165407
-1.3451345 -2.0177002 -7.2804604
-1.3959291 -0.93061811 8.2943687
-0.98556572 -0.98556465 -8.2173815
-0.97260731 -1.2968105 -8.7387867
-1.009294 -1.6821543 -7.2626295
-1.0111789 -2.0223556 -7.1867881
-0.93222988 -0.93222845 8.3915663
-0.65730858 -0.98596114 -8.2014017
-0.64862692 -1.2972522 -8.7253876
-0.67430764 -1.685768 -7.1754174
-0.67557478 -2.0267243 -7.0989366
-0.46670029 -0.93339813 8.4622259
-0.32883957 -0.98651922 -8.1790342
-0.32440183 -1.2976071 -8.7147141
-0.33735657 -1.6867825 -7.1509433
-0.33816999 -2.0290174 -7.0527544
-5.0546404e-24 -0.93271726 8.4210634
-5.0452404e-24 -0.98679078 -8.168066
-9.75675e-24 -1.2977585 -8.7101011
-3.5767656e-24 -1.6868138 -7.1501632
-5.0827105e-24 -2.0294235 -7.0446038
0.46559995 -0.93119758 8.3294039
0.32887641 -0.98662829 -8.1745901
0.32435048 -1.2974025 -8.7209158
0.33736947 -1.6868469 -7.1493845
0.33836746 -2.0302036 -7.0289187
0.92934287 -0.92934233 8.2173233
0.65764475 -0.98646605 -8.1811104
0.64844543 -1.2968886 -8.7363386
0.67475188 -1.686878 -7.1486049
0.67706525 -2.0311959 -7.0089779
1.3890239 -0.92601585 8.0165243
0.98615789 -0.98615819 -8.193553
0.9721278 -1.296168 -8.7580824
1.0121472 -1.6869093 -7.1478248
1.0160978 -2.0321956 -6.9888639
1.8480099 -0.92400461 7.8951521
1.3144161 -0.98581254 -8.207469
1.2953508 -1.2953485 -8.7828188
1.3495554 -1.6869444 -7.1470428
1.355459 -2.0331876 -6.9688873
2.3045001 -0.92179996 7.7620759
1.6424502 -0.98547083 -8.2212267
1.6180639 -1.2944509 -8.8099623
1.6869766 -1.6869757 -7.1462626
1.695152 -2.0341821 -6.9488902
2.7529821 -0.91765934 7.5122437
1.9702494 -0.98512346 -8.2351236
1.9403721 -1.2935799 -8.8362122
2.0244186 -1.6870143 -7.1453276
2.0357966 -2.0357957 -6.9164162
3.195714 -0.91306138 7.2346358
2.2974765 -0.98463303 -8.2549162
2.2624216 -1.2928103 -8.859417
2.3618667 -1.6870474 -7.1445484
2.3790004 -2.0391409 -6.8490911
3.6254661 -0.90636438 6.8305779
2.6239762 -0.98399067 -8.280735
2.5845246 -1.2922618 -8.8760176
2.6993279 -1.6870785 -7.1437688
4.051156 -0.90025562 6.4618249
2.9500508 -0.98334956 -8.3065233
2.9064388 -1.2917496 -8.8914595
3.0367906 -1.6871061 -7.1431417
4.4611125 -0.89222199 5.9769044
3.2757008 -0.98271024 -8.3322725
3.2285478 -1.2914174 -8.9014626
3.3743668 -1.6871815 -7.1412702
4.8479233 -0.88143772 5.3261652
3.6010747 -0.9821105 -8.3563766
3.5505698 -1.2911159 -8.9106007
3.7120454 -1.687292 -7.1386166
5.2244387 -0.87074018 4.6803145
3.9260664 -0.98151654 -8.3803034
3.872483 -1.2908257 -8.9193115
4.049768 -1.6874025 -7.1359634
5.5801487 -0.85848331 3.9406395
4.2506647 -0.98092222 -8.4042015
4.1948519 -1.2907228 -8.9224491
4.3875346 -1.6875129 -7.1333094
4.6451516 -0.66359133 -7.8220983
4.5741243 -0.98016888 -8.4345074
4.5192881 -1.2912233 -8.9073191
4.7253447 -1.6876233 -7.1306558
4.9760671 -0.66347426 -7.8291879
4.8979769 -0.97959512 -8.4576111
4.8446507 -1.2919054 -8.8867426
5.0631795 -1.687726 -7.1281576
7.5828013 -0.47392353 9.3343372
5.3081446 -0.66351765 -7.826622
5.221837 -0.97909385 -8.477766
5.1703577 -1.2925891 -8.8661451
5.4010773 -1.6878352 -7.1255031
8.0037975 -0.47081128 8.9585056
5.6414762 -0.66370177 -7.8154573
5.5470505 -0.97888941 -8.485939
5.4970951 -1.2934322 -8.8406544
5.7386003 -1.6878238 -7.1258154
8.4263229 -0.46812761 8.6346951
5.9753089 -0.66392273 -7.8021712
5.8718033 -0.97863382 -8.4962959
5.8253083 -1.2945129 -8.808095
6.062758 -1.6840973 -7.2157288
8.8387365 -0.46519536 8.2807236
6.3129568 -0.66451907 -7.7660446
6.1961555 -0.97833902 -8.5081072
6.154613 -1.2957067 -8.7720366
6.3842697 -1.6800699 -7.3129821
9.1138372 -2.878051 10.028489
9.1301966 -3.3637555 10.132424
9.1457148 -3.8508246 10.231012
6.6498337 -0.66498244 -7.738184
6.5251927 -0.97877854 -8.4904623
6.4854813 -1.2970945 -8.7301435
6.7616863 -1.6904216 -7.0630941
9.6278038 -3.8511205 10.235461
9.6204433 -4.3291979 10.19103
9.626173 -4.813086 10.225616
9.6319113 -5.2975507 10.260242
9.6393423 -5.7836046 10.305097
9.656251 -6.2765627 10.40715
9.6735382 -6.7714753 10.511486
6.9917216 -0.66587681 -7.6841745
6.8545246 -0.97921556 -8.4728022
6.8376985 -1.3024175 -8.569519
7.0869851 -1.6873747 -7.1365895
10.163801 -6.775866 10.549343
10.151529 -7.251092 10.478803
10.156713 -7.7384458 10.508599
10.162797 -8.2270241 10.543568
10.170844 -8.717864 10.589823
10.185686 -9.21562 10.675142
10.204343 -9.7184219 10.782383
7.3381977 -0.667108 -7.6099029
7.1881227 -0.98019814 -8.4333401
7.3406715 -1.3346653 -7.5963268
7.4006414 -1.6819642 -7.2672806
10.705679 -9.7324343 10.866964
10.69044 -10.204511 10.783353
10.692741 -10.692739 10.795975
10.698941 -11.185254 10.829988
10.707573 -11.680986 10.877351
10.720071 -12.181898 10.945933
10.739799 -12.692486 11.054168
10.768806 -13.216262 11.21333
7.6900702 -0.66870093 -7.5137606
7.5293522 -0.9820888 -8.3572569
7.6517572 -1.33074 -7.7148366
7.6710839 -1.667626 -7.6134081
11.253419 -12.721253 11.187727
11.237063 -13.191334 11.101892
11.235007 -13.677401 11.091101
11.240306 -14.172561 11.118911
11.249606 -14.673399 11.167721
11.26249 -15.179878 11.235339
11.280176 -15.694156 11.328155
11.303969 -16.218737 11.453029
8.0521145 -0.67100805 -7.3744726
7.871871 -0.9839825 -8.2810326
7.9614677 -1.3269089 -7.8303947
7.9678593 -1.6599687 -7.7982454
11.789657 -16.210775 11.42391
11.782757 -16.692236 11.389204
11.787816 -17.190563 11.414653
11.797026 -17.695536 11.460974
11.810603 -18.208014 11.529268
8.4364023 -0.67491156 -7.1389294
8.2343311 -0.98811865 -8.1146126
8.2872648 -1.3259602 -7.8590302
8.2560673 -1.6512121 -8.0096626
8.8489542 -0.6806882 -6.790277
8.6037626 -0.99274081 -7.9286366
8.5677748 -1.6476482 -8.0957203
8.5623283 -1.9759208 -8.1210041
9.3103971 -0.68965816 -6.2488732
9.0002432 -1.0000263 -7.6355014
8.9155836 -1.6510334 -8.0139971
8.8671141 -1.9704694 -8.23069
8.8593512 -2.2968671 -8.265398
8.8762827 -2.6300085 -8.1897039
9.4135695 -1.0085965 -7.2906842
9.1717243 -2.2929306 -8.3333035
9.1596985 -2.6170566 -8.3851452
9.1512356 -2.9414675 -8.4216309
9.1572161 -3.2704322 -8.3958492
9.1685867 -3.601943 -8.3468285
9.179986 -3.9342794 -8.2976828
9.8742237 -1.0214701 -6.7726469
9.4886284 -2.9447453 -8.3776636
9.4684734 -3.2649908 -8.4615545
9.4552946 -3.5864904 -8.5164137
9.4500122 -3.9103482 -8.5384016
9.4447355 -4.2338457 -8.5603619
9.4394655 -4.556983 -8.5823002
9.4486837 -4.887248 -8.5439301
9.4741631 -5.2271233 -8.4378738
9.4859152 -5.5607071 -8.3889589
10.504539 -1.0504518 -5.6064854
9.7983141 -4.245935 -8.4481096
9.7775393 -4.562851 -8.5317059
9.7560225 -4.8780107 -8.6182795
9.7418146 -5.1956329 -8.6754484
9.7363586 -5.5172696 -8.6974001
9.7309437 -5.8385658 -8.7191858
9.7257862 -6.1596637 -8.7399387
9.7292604 -6.4861717 -8.7259636
9.7588692 -6.8312078 -8.6068249
9.7904005 -7.179625 -8.4799576
10.085505 -5.8560991 -8.6016045
10.06413 -6.1683364 -8.6848392
10.040629 -6.4778237 -8.7763481
10.025992 -6.791801 -8.8333426
10.020436 -7.1112752 -8.8549795
10.014886 -7.4303985 -8.8765898
10.009967 -7.749649 -8.8957481
10.012756 -8.0748024 -8.8848839
10.035609 -8.4169617 -8.7958927
10.068064 -8.768959 -8.6695194
10.347017 -7.760263 -8.8423729
10.32299 -8.0648355 -8.9330063
10.307889 -8.3751602 -8.9899721
10.302199 -8.6924801 -9.0114365
10.296516 -9.0094519 -9.0328712
10.291929 -9.3270597 -9.0501757
10.293959 -9.6505871 -9.0425196
10.309699 -9.9875193 -8.9831467
10.342878 -10.342877 -8.8579855
10.627679 -9.3394747 -8.9985037
10.603252 -9.6393204 -9.0878506
10.588652 -9.9469156 -9.1412592
10.581713 -10.261055 -9.1666412
10.575976 -10.575975 -9.1876259
10.57163 -10.891981 -9.2035265
10.57286 -11.213638 -9.1990271
10.58414 -11.546334 -9.1577635
10.615025 -11.901695 -9.0447874
10.906064 -10.906062 -9.153533
10.881334 -11.201374 -9.2413254
10.867238 -11.506486 -9.2913752
10.859041 -11.817192 -9.3204737
10.853374 -12.130241 -9.3405952
10.849167 -12.444632 -9.3555326
10.84956 -12.764187 -9.3541384
10.86105 -13.097148 -9.3133459
10.884618 -13.445704 -9.2296715
11.182237 -12.460206 -9.3073273
11.157467 -12.75139 -9.3927555
11.143673 -13.054017 -9.4403286
11.134134 -13.36096 -9.4732294
11.128828 -13.672561 -9.4915266
11.124492 -13.985074 -9.5064859
11.124009 -14.302297 -9.5081482
11.135783 -14.635601 -9.4675407
11.151655 -14.97508 -9.4128008
11.456265 -14.002103 -9.4597702
11.432061 -14.290075 -9.5409307
11.417982 -14.589642 -9.5881395
11.407097 -14.892599 -9.6246376
11.402092 -15.202788 -9.6414194
11.397707 -15.513546 -9.6561232
11.729615 -15.533813 -9.6061916
