# .PCD v0.7 - Point Cloud Data file format
VERSION 0.7
FIELDS x y z
SIZE 4 4 4
TYPE F F F
COUNT 1 1 1
WIDTH 1500
HEIGHT 1
VIEWPOINT 0 0 0 1 0 0 0
POINTS 1500
DATA ascii
-9.4938869 4.746942 -38.251816
-9.4938574 4.0687962 -38.252064
-9.4938574 3.390662 -38.252068
-9.4938869 2.7125356 -38.251812
-9.4939156 2.034411 -38.25156
-9.4938869 1.3562672 -38.251812
-9.4938869 0.67813271 -38.251812
-9.4938869 -3.3282813e-06 -38.251812
-9.4939156 -0.67813814 -38.25156
-9.4940042 -1.3562855 -38.250797
-9.4940042 -2.0344307 -38.250797
-9.4941216 -2.7126069 -38.249783
-9.4943867 -3.3908551 -38.247505
-9.4948864 -4.0692377 -38.243187
-9.4957104 -4.7478576 -38.236084
-9.497241 -5.4269948 -38.222893
-9.4997435 -6.1069818 -38.201309
-9.5035744 -6.78827 -38.168289
-9.5100336 -7.4721694 -38.112595
-9.5208473 -8.1607275 -38.019352
-9.5434713 -8.8617973 -37.824276
-10.381872 -10.381873 -30.595427
-10.382154 -11.123737 -30.592999
-10.383068 -11.866364 -30.585115
-10.385216 -12.610618 -30.566608
-10.390074 -13.35867 -30.524706
-10.400125 -14.114458 -30.438051
-10.423615 -14.890879 -30.235518
-8.9376469 13.062713 -37.119968
-8.8504391 12.254454 -37.929733
-8.8301153 11.547072 -38.118454
-8.8233509 10.859509 -38.181244
-8.8193035 10.176116 -38.21883
-8.8169813 9.4952078 -38.240398
-8.8154793 8.8154764 -38.254349
-8.8145781 8.1365337 -38.262718
-8.8140039 7.4580035 -38.26804
-8.8136768 6.7797503 -38.27108
-8.8135672 6.1016974 -38.272095
-8.8135405 5.4237146 -38.27235
-8.8135405 4.7457519 -38.27235
-8.8135128 4.0677719 -38.272602
-8.8135405 3.3898237 -38.272346
-8.8135405 2.7118559 -38.27235
-8.8135405 2.0338929 -38.27235
-8.8135405 1.3559282 -38.27235
-8.8135405 0.67796522 -38.27235
-8.8135948 -2.4924759e-06 -38.271843
-8.8136225 -0.67797273 -38.271591
-8.8136492 -1.3559459 -38.271336
-8.8137579 -2.0339456 -38.270321
-8.8137579 -2.7119248 -38.270321
-8.8139772 -3.3899944 -38.268295
-8.814414 -4.0681925 -38.264236
-8.8152332 -4.7466664 -38.256626
-8.8165712 -5.4255838 -38.244205
-8.8188667 -6.105371 -38.222893
-8.8224487 -6.786499 -38.189632
-8.8285532 -7.4703145 -38.13295
-8.8387003 -8.1588011 -38.038731
-8.859643 -8.8596439 -37.844261
-8.9711227 -9.6612101 -36.809124
-9.6404085 -11.123551 -30.594517
-9.6413555 -11.866287 -30.585718
-9.6434793 -12.610704 -30.566002
-9.6480904 -13.358894 -30.52319
-9.6575537 -14.114887 -30.435314
-9.6794004 -14.891388 -30.232454
-8.2501354 13.062713 -37.119968
-8.1690512 12.253576 -37.935608
-8.1500149 11.545856 -38.127098
-8.1436472 10.858195 -38.191154
-8.139761 10.174699 -38.230247
-8.1375666 9.493824 -38.252319
-8.1361799 8.8141947 -38.266262
-8.1353235 8.1353254 -38.274887
-8.1347694 7.4568686 -38.28046
-8.1344671 6.7787218 -38.283501
-8.134366 6.1007724 -38.284515
-8.1343412 5.4228935 -38.284767
-8.1343412 4.7450299 -38.284771
-8.1343412 4.0671678 -38.284767
-8.1343412 3.3893063 -38.284771
-8.1343412 2.7114477 -38.284767
-8.1343412 2.0335822 -38.284767
-8.1343412 1.3557255 -38.284767
-8.1343918 0.67786252 -38.284264
-8.1343918 -1.0192944e-06 -38.284264
-8.1344166 -0.6778689 -38.284008
-8.1344166 -1.3557377 -38.284008
-8.1344919 -2.0336242 -38.283249
-8.1344919 -2.7114999 -38.283249
-8.1346436 -3.3894374 -38.281727
-8.135046 -4.0675254 -38.277672
-8.1357269 -4.745841 -38.270828
-8.1370125 -5.4246759 -38.2579
-8.1391296 -6.1043468 -38.236591
-8.142436 -6.7853665 -38.203342
-8.1480932 -7.4690876 -38.146423
-8.1572542 -8.1572571 -38.054276
-8.1772919 -8.8587351 -37.852715
-8.2811928 -9.6613932 -36.807549
-8.9011908 -11.126491 -30.570854
-8.902669 -11.870226 -30.555988
-8.9052649 -12.615794 -30.529875
-8.9102497 -13.365378 -30.479727
-8.9193268 -14.122267 -30.388424
-8.9403057 -14.900509 -30.177393
-7.562624 13.062713 -37.119968
-7.4867835 12.251099 -37.952217
-7.4703369 11.545065 -38.132694
-7.4643617 10.857253 -38.198261
-7.4608459 10.173878 -38.236847
-7.4588122 9.4930305 -38.259167
-7.4575186 8.8134298 -38.273365
-7.456687 8.1345682 -38.28249
-7.4561791 7.4561768 -38.288063
-7.455925 6.7781148 -38.290852
-7.4558325 6.1002264 -38.291862
-7.4557867 5.4223895 -38.292374
-7.4557633 4.7445769 -38.292625
-7.4557633 4.0667768 -38.292622
-7.4558096 3.3890026 -38.292114
-7.4558096 2.711201 -38.292118
-7.4558096 2.033402 -38.292118
-7.4558096 1.3555984 -38.292118
-7.4558096 0.67780161 -38.292118
-7.4558096 -2.0660816e-06 -38.292118
-7.4557867 -0.67779815 -38.292374
-7.4557867 -1.355598 -38.29237
-7.4558558 -2.0334158 -38.291611
-7.4558325 -2.7112134 -38.291862
-7.4559708 -3.3890784 -38.290344
-7.4562945 -4.0670705 -38.2868
-7.4569178 -4.7453136 -38.279953
-7.4581194 -5.424089 -38.266773
-7.4600372 -6.1036701 -38.245724
-7.4631357 -6.7846689 -38.211723
-7.4683213 -7.4683223 -38.154819
-7.4769025 -8.1566238 -38.06065
-7.4954772 -8.8582935 -37.856812
-7.5863576 -9.655365 -36.85952
-8.1654577 -11.134716 -30.504656
-8.1680889 -11.880859 -30.475773
-8.1717482 -12.629066 -30.435619
-8.1778822 -13.381992 -30.368305
-8.1880341 -14.142972 -30.256908
-8.2098398 -14.926983 -30.01762
-6.8751125 13.062713 -37.119968
-6.8055954 12.25007 -37.959114
-6.7908998 11.544528 -38.136509
-6.7854681 10.85675 -38.202072
-6.7822299 10.173345 -38.241161
-6.7803602 9.4925003 -38.263729
-6.7791629 8.8129148 -38.278179
-6.7784076 8.1340885 -38.2873
-6.7779455 7.4557366 -38.292877
-6.7777147 6.7777133 -38.295666
-6.7776308 6.0998678 -38.296677
-6.7775888 5.42207 -38.297184
-6.7775679 4.744297 -38.29744
-6.7775679 4.0665407 -38.297436
-6.7776103 3.3888066 -38.296932
-6.7776103 2.7110422 -38.296932
-6.7776103 2.0332813 -38.296932
-6.7776103 1.355522 -38.296932
-6.7776103 0.67775762 -38.296928
-6.7775888 7.8411631e-07 -38.297184
-6.7775888 -0.67775804 -38.297188
-6.7775888 -1.3555173 -38.297188
-6.7776308 -2.0332923 -38.296677
-6.7775888 -2.7110376 -38.29718
-6.7776942 -3.388849 -38.295918
-6.7779875 -4.0667934 -38.29237
-6.7785549 -4.7449903 -38.28553
-6.7796464 -5.4237189 -38.272346
-6.7814107 -6.103272 -38.251053
-6.7842269 -6.7842288 -38.217049
-6.7889824 -7.4678836 -38.159645
-6.796804 -8.156167 -38.065235
-6.8138161 -8.8579617 -37.859882
-6.887856 -9.6429996 -36.966148
-7.4457178 -11.168578 -30.232151
-7.4545174 -11.927227 -30.125935
-7.4704442 -12.699757 -29.933674
-7.4942832 -13.489711 -29.64592
-7.5462689 -14.337911 -29.018394
-7.4150705 -16.313156 -30.6021
-7.3631363 -16.935213 -31.229004
-7.3221736 -17.573221 -31.723463
-7.307384 -18.268465 -31.901989
-7.3121443 -19.011576 -31.844532
-6.1876016 13.062713 -37.119968
-6.1249218 12.249841 -37.960648
-6.1116581 11.54424 -38.138546
-6.106751 10.856446 -38.204357
-6.1038179 10.173028 -38.243694
-6.1021166 9.4921808 -38.266521
-6.1010394 8.8126097 -38.280964
-6.1003776 8.1338358 -38.289837
-6.0999622 7.4555106 -38.295414
-6.0997357 6.777483 -38.29845
-6.0996413 6.0996404 -38.299717
-6.0996218 5.4218836 -38.299973
-6.0996218 4.7441497 -38.299969
-6.0996218 4.0664148 -38.299973
-6.0996218 3.3886759 -38.299969
-6.0996218 2.7109394 -38.299973
-6.0996218 2.0332057 -38.299969
-6.0996218 1.3554708 -38.299973
-6.0996218 0.67773384 -38.299969
-6.0996218 2.1376118e-06 -38.299973
-6.0996218 -0.67773682 -38.299969
-6.0996413 -1.3554767 -38.299713
-6.0996413 -2.0332117 -38.299717
-6.0996218 -2.710942 -38.299969
-6.0997167 -3.3887339 -38.298706
-6.0999622 -4.0666409 -38.29541
-6.1004915 -4.7448277 -38.288315
-6.1014547 -5.4235182 -38.275391
-6.1030426 -6.1030445 -38.254093
-6.1055965 -6.7839985 -38.219841
-6.1098762 -7.4676266 -38.162445
-6.1169524 -8.1559391 -38.067528
-6.1323195 -8.8577986 -37.861423
-6.1990705 -9.6429996 -36.966148
-6.5863867 -10.97731 -31.771345
-6.5715117 -11.682693 -31.970846
-6.5599136 -12.390949 -32.126408
-6.5427885 -13.085576 -32.356094
-6.5370345 -13.800409 -32.433262
-6.5271792 -14.504843 -32.565449
-6.5186481 -15.210176 -32.679878
-6.5137334 -15.922461 -32.745789
-6.508934 -16.633945 -32.810158
-6.506741 -17.351309 -32.839573
-6.5059457 -18.072073 -32.850239
-6.5076432 -18.799858 -32.827469
-6.5177631 -19.553293 -32.69173
-5.4443412 12.249765 -37.961159
-5.4325175 11.544096 -38.139561
-5.4281559 10.856308 -38.205376
-5.4255657 10.172936 -38.244453
-5.4240532 9.4920921 -38.267281
-5.4230618 8.8124752 -38.282238
-5.4224739 8.133709 -38.291103
-5.4221215 7.4554186 -38.296425
-5.4219031 6.7773762 -38.299717
-5.4218364 6.0995646 -38.300728
-5.4218192 5.4218178 -38.30098
-5.4218192 4.7440901 -38.30098
-5.4218192 4.0663624 -38.300987
-5.4218192 3.3886356 -38.300983
-5.421803 2.710901 -38.301239
-5.421803 2.0331726 -38.301235
-5.4218192 1.3554528 -38.300987
-5.421803 0.67772138 -38.301239
-5.4218192 -2.5428292e-06 -38.300983
-5.4218192 -0.67772734 -38.300983
-5.4218192 -1.3554542 -38.30098
-5.4218192 -2.0331838 -38.300983
-5.4218192 -2.7109122 -38.300983
-5.4219031 -3.3886914 -38.299717
-5.4221382 -4.0666075 -38.296173
-5.4225917 -4.7447701 -38.289326
-5.4234142 -5.4234171 -38.276909
-5.42486 -6.1029696 -38.255108
-5.4271126 -6.7838922 -38.221111
-5.4309506 -7.4675574 -38.163208
-5.4372578 -8.1558895 -38.068035
-5.4509168 -8.8577414 -37.861931
-5.5103021 -9.6430292 -36.965885
-5.7858911 -10.848547 -32.807568
-5.7795696 -11.559141 -32.902946
-5.7772622 -12.276685 -32.937759
-5.7745571 -12.992758 -32.97858
-5.7721777 -13.708922 -33.014484
-5.7701802 -14.425452 -33.044621
-5.7684126 -15.142082 -33.071297
-5.7661524 -15.856922 -33.1054
-5.7652216 -16.575012 -33.119442
-5.765089 -17.295267 -33.121445
-5.7663612 -18.019878 -33.102253
-5.7702379 -18.753277 -33.043755
-5.7798181 -19.506887 -32.8992
-5.8162751 -20.356968 -32.349098
-4.7637982 12.249765 -37.961159
-4.7534528 11.544096 -38.139561
-4.7496362 10.856308 -38.205376
-4.747355 10.1729 -38.244709
-4.7460318 9.4920607 -38.267532
-4.7451792 8.8124752 -38.282238
-4.7446651 8.133709 -38.291103
-4.7443419 7.4553933 -38.296677
-4.7441654 6.7773762 -38.299717
-4.744092 6.0995474 -38.300987
-4.744092 5.4218178 -38.30098
-4.744092 4.7440901 -38.30098
-4.744092 4.0663624 -38.300987
-4.744092 3.3886356 -38.300983
-4.7440772 2.710901 -38.301239
-4.7440772 2.0331726 -38.301235
-4.7440772 1.3554479 -38.301235
-4.7440772 0.67772138 -38.301239
-4.7440772 -2.1862058e-06 -38.301235
-4.744092 -0.67772734 -38.300983
-4.744092 -1.3554542 -38.30098
-4.744092 -2.0331838 -38.300983
-4.744092 -2.7109122 -38.300983
-4.7441654 -3.3886914 -38.299717
-4.7443566 -4.0665936 -38.296425
-4.7447381 -4.7447381 -38.289837
-4.7454729 -5.4234014 -38.277164
-4.7467375 -6.1029482 -38.255363
-4.7487087 -6.7838712 -38.221363
-4.7520671 -7.4675345 -38.163456
-4.7575855 -8.1558638 -38.068291
-4.7695522 -8.8577414 -37.861931
-4.8215141 -9.6430292 -36.965885
-5.0475106 -10.816093 -33.068714
-5.043324 -11.527599 -33.140911
-5.0414152 -12.24344 -33.17382
-5.0408344 -12.96215 -33.18383
-5.0398402 -13.679569 -33.200989
-5.0389452 -14.396986 -33.216423
-5.0384483 -15.115348 -33.224995
-5.0379839 -15.833665 -33.232994
-5.0378842 -16.553053 -33.234707
-5.0383649 -17.274395 -33.226429
-5.040072 -18.000259 -33.196987
-5.0439878 -18.734816 -33.129463
-5.0526042 -19.488617 -32.980877
-5.0765605 -20.306242 -32.567768
-4.0832558 12.249765 -37.961159
-4.074388 11.544096 -38.139561
-4.0711164 10.856308 -38.205376
-4.0691614 10.1729 -38.244709
-4.068027 9.4920607 -38.267532
-4.0672965 8.8124752 -38.282238
-4.0668554 8.133709 -38.291103
-4.0665784 7.4553933 -38.296677
-4.0664277 6.7773762 -38.299717
-4.0663643 6.0995474 -38.300987
-4.0663643 5.4218178 -38.30098
-4.0663643 4.7440901 -38.30098
-4.0663643 4.0663624 -38.300987
-4.0663643 3.3886356 -38.300983
-4.0663519 2.710901 -38.301239
-4.0663519 2.0331726 -38.301235
-4.0663519 1.3554479 -38.301235
-4.0663519 0.67772138 -38.301239
-4.0663519 -2.1862058e-06 -38.301235
-4.0663643 -0.67772734 -38.300983
-4.0663643 -1.3554542 -38.30098
-4.0663643 -2.0331838 -38.300983
-4.0663643 -2.7109122 -38.300983
-4.0664277 -3.3886914 -38.299717
-4.0665913 -4.0665936 -38.296425
-4.0669184 -4.7447381 -38.289837
-4.0675483 -5.4234014 -38.277164
-4.0686321 -6.1029482 -38.255363
-4.0703216 -6.7838712 -38.221363
-4.0732002 -7.4675345 -38.163456
-4.0779305 -8.1558638 -38.068291
-4.0881877 -8.8577414 -37.861931
-4.1327267 -9.6430292 -36.965885
-4.3220382 -10.805098 -33.157227
-4.3184142 -11.515771 -33.230141
-4.3172641 -12.23225 -33.253273
-4.3170938 -12.951283 -33.256695
-4.3169379 -13.670304 -33.259838
-4.3168383 -14.389463 -33.261837
-4.3169661 -15.109385 -33.259266
-4.3170514 -15.829191 -33.257553
-4.3173494 -16.549841 -33.25156
-4.3182011 -17.272806 -33.234425
-4.3199768 -17.999905 -33.198696
-4.3237886 -18.73642 -33.122009
-4.3305464 -19.487459 -32.986053
-4.349349 -20.296967 -32.607773
-3.4027131 12.249765 -37.961159
-3.3953235 11.544096 -38.139561
-3.3925972 10.856308 -38.205376
-3.3909681 10.1729 -38.244709
-3.3900228 9.4920607 -38.267532
-3.3894138 8.8124752 -38.282238
-3.3890462 8.133709 -38.291103
-3.3888154 7.4553933 -38.296677
-3.3886895 6.7773762 -38.299717
-3.3886371 6.0995474 -38.300987
-3.3886371 5.4218178 -38.30098
-3.3886371 4.7440901 -38.30098
-3.3886371 4.0663624 -38.300987
-3.3886371 3.3886356 -38.300983
-3.3886263 2.710901 -38.301239
-3.3886263 2.0331726 -38.301235
-3.3886263 1.3554479 -38.301235
-3.3886263 0.67772138 -38.301239
-3.3886263 -2.1862058e-06 -38.301235
-3.3886371 -0.67772734 -38.300983
-3.3886371 -1.3554542 -38.30098
-3.3886371 -2.0331838 -38.300983
-3.3886371 -2.7109122 -38.300983
-3.3886895 -3.3886914 -38.299717
-3.3888259 -4.0665936 -38.296425
-3.3890986 -4.7447381 -38.289837
-3.3896239 -5.4234014 -38.277164
-3.3905265 -6.1029482 -38.255363
-3.3919349 -6.7838712 -38.221363
-3.3943334 -7.4675345 -38.163456
-3.3982756 -8.1558638 -38.068291
-3.4068232 -8.8577414 -37.861931
-3.4439387 -9.6430292 -36.965885
-3.6020539 -10.806161 -33.148647
-3.5989387 -11.516608 -33.22385
-3.5982878 -12.234179 -33.239567
-3.5985363 -12.95473 -33.233566
-3.5989151 -13.675877 -33.224426
-3.5991044 -14.396418 -33.219856
-3.5996606 -15.118577 -33.206421
-3.6003001 -15.84132 -33.190983
-3.6009991 -16.564594 -33.17411
-3.6020305 -17.289745 -33.149216
-3.604142 -18.020708 -33.09824
-3.6070879 -18.756863 -33.027115
-3.6124694 -19.507339 -32.897186
-3.6262829 -20.307186 -32.563705
-2.7221706 12.249765 -37.961159
-2.7162588 11.544096 -38.139561
-2.7140779 10.856308 -38.205376
-2.7127743 10.1729 -38.244709
-2.712018 9.4920607 -38.267532
-2.7115309 8.8124752 -38.282238
-2.711237 8.133709 -38.291103
-2.7110524 7.4553933 -38.296677
-2.7109516 6.7773762 -38.299717
-2.7109096 6.0995474 -38.300987
-2.7109096 5.4218178 -38.30098
-2.7109096 4.7440901 -38.30098
-2.7109096 4.0663624 -38.300987
-2.7109096 3.3886356 -38.300983
-2.7109015 2.710901 -38.301239
-2.7109015 2.0331726 -38.301235
-2.7109015 1.3554479 -38.301235
-2.7109015 0.67772138 -38.301239
-2.7109015 -2.1862058e-06 -38.301235
-2.7109096 -0.67772734 -38.300983
-2.7109096 -1.3554542 -38.30098
-2.7109096 -2.0331838 -38.300983
-2.7109096 -2.7109122 -38.300983
-2.7109516 -3.3886914 -38.299717
-2.7110608 -4.0665936 -38.296425
-2.7112789 -4.7447381 -38.289837
-2.711699 -5.4234014 -38.277164
-2.7124214 -6.1029482 -38.255363
-2.7135477 -6.7838712 -38.221363
-2.7154667 -7.4675345 -38.163456
-2.7186203 -8.1558638 -38.068291
-2.7254584 -8.8577414 -37.861931
-2.755151 -9.6430292 -36.965885
-2.8845866 -10.817203 -33.059822
-2.8825064 -11.530025 -33.122589
-2.8824308 -12.250331 -33.124882
-2.8830476 -12.973719 -33.106255
-2.8839023 -13.698535 -33.080471
-2.8844533 -14.422269 -33.063835
-2.8853657 -15.148175 -33.036297
-2.8862314 -15.874273 -33.010178
-2.8878021 -16.604866 -32.962772
-2.8890603 -17.334362 -32.924816
-2.8912261 -18.070164 -32.859463
-2.8943801 -18.813471 -32.764278
-2.8992491 -19.569933 -32.617336
-2.9141393 -20.398979 -32.167988
-2.0416279 12.249765 -37.961159
-2.037194 11.544096 -38.139561
-2.0355582 10.856308 -38.205376
-2.0345807 10.1729 -38.244709
-2.0340135 9.4920607 -38.267532
-2.0336483 8.8124752 -38.282238
-2.0334277 8.133709 -38.291103
-2.0332892 7.4553933 -38.296677
-2.0332139 6.7773762 -38.299717
-2.0331821 6.0995474 -38.300987
-2.0331821 5.4218178 -38.30098
-2.0331821 4.7440901 -38.30098
-2.0331821 4.0663624 -38.300987
-2.0331821 3.3886356 -38.300983
-2.0331759 2.710901 -38.301239
-2.0331759 2.0331726 -38.301235
-2.0331759 1.3554479 -38.301235
-2.0331759 0.67772138 -38.301239
-2.0331759 -2.1862058e-06 -38.301235
-2.0331821 -0.67772734 -38.300983
-2.0331821 -1.3554542 -38.30098
-2.0331821 -2.0331838 -38.300983
-2.0331821 -2.7109122 -38.300983
-2.0332139 -3.3886914 -38.299717
-2.0332956 -4.0665936 -38.296425
-2.0334592 -4.7447381 -38.289837
-2.0337741 -5.4234014 -38.277164
-2.0343161 -6.1029482 -38.255363
-2.0351608 -6.7838712 -38.221363
-2.0366001 -7.4675345 -38.163456
-2.0389652 -8.1558638 -38.068291
-2.0440938 -8.8577414 -37.861931
-2.0663633 -9.6430292 -36.965885
-2.1690784 -10.845397 -32.832939
-2.1681044 -11.563225 -32.872135
-2.169322 -12.292825 -32.823143
-2.1706917 -13.024155 -32.768024
-2.1718333 -13.754946 -32.722095
-2.1730263 -14.486848 -32.674084
-2.1751068 -15.225747 -32.590389
-2.17696 -15.964375 -32.515816
-2.1789176 -16.705036 -32.437046
-2.1815817 -17.452654 -32.329857
-2.1859465 -18.216225 -32.154228
-2.1939805 -19.014498 -31.830965
-1.3610853 12.249765 -37.961159
-1.3581294 11.544096 -38.139561
-1.357039 10.856308 -38.205376
-1.3563871 10.1729 -38.244709
-1.356009 9.4920607 -38.267532
-1.3557655 8.8124752 -38.282238
-1.3556185 8.133709 -38.291103
-1.3555262 7.4553933 -38.296677
-1.3554758 6.7773762 -38.299717
-1.3554548 6.0995474 -38.300987
-1.3554548 5.4218178 -38.30098
-1.3554548 4.7440901 -38.30098
-1.3554548 4.0663624 -38.300987
-1.3554548 3.3886356 -38.300983
-1.3554507 2.710901 -38.301239
-1.3554507 2.0331726 -38.301235
-1.3554507 1.3554479 -38.301235
-1.3554507 0.67772138 -38.301239
-1.3554507 -2.1862058e-06 -38.301235
-1.3554548 -0.67772734 -38.300983
-1.3554548 -1.3554542 -38.30098
-1.3554548 -2.0331838 -38.300983
-1.3554548 -2.7109122 -38.300983
-1.3554758 -3.3886914 -38.299717
-1.3555304 -4.0665936 -38.296425
-1.3556395 -4.7447381 -38.289837
-1.3558495 -5.4234014 -38.277164
-1.3562107 -6.1029482 -38.255363
-1.3567739 -6.7838712 -38.221363
-1.3577334 -7.4675345 -38.163456
-1.3593102 -8.1558638 -38.068291
-1.3627292 -8.8577414 -37.861931
-1.3775755 -9.6430292 -36.965885
-1.4577342 -10.93301 -32.127869
-1.4584191 -11.667354 -32.08654
-1.4624923 -12.431186 -31.840696
-1.4655329 -13.189798 -31.657183
-1.4701544 -13.966473 -31.378244
-1.4725182 -14.725185 -31.235577
-1.4757448 -15.495322 -31.040833
-1.4787709 -16.266483 -30.8582
-1.4870242 -17.100779 -30.360077
-1.5211958 -18.254349 -28.297632
-0.68054265 12.249765 -37.961159
-0.67906469 11.544096 -38.139561
-0.67851949 10.856308 -38.205376
-0.67819357 10.1729 -38.244709
-0.6780045 9.4920607 -38.267532
-0.67788273 8.8124752 -38.282238
-0.67780924 8.133709 -38.291103
-0.6777631 7.4553933 -38.296677
-0.67773789 6.7773762 -38.299717
-0.6777274 6.0995474 -38.300987
-0.6777274 5.4218178 -38.30098
-0.6777274 4.7440901 -38.30098
-0.6777274 4.0663624 -38.300987
-0.6777274 3.3886356 -38.300983
-0.67772537 2.710901 -38.301239
-0.67772537 2.0331726 -38.301235
-0.67772537 1.3554479 -38.301235
-0.67772537 0.67772138 -38.301239
-0.67772537 -2.1862058e-06 -38.301235
-0.6777274 -0.67772734 -38.300983
-0.6777274 -1.3554542 -38.30098
-0.6777274 -2.0331838 -38.300983
-0.6777274 -2.7109122 -38.300983
-0.67773789 -3.3886914 -38.299717
-0.67776519 -4.0665936 -38.296425
-0.67781973 -4.7447381 -38.289837
-0.67792475 -5.4234014 -38.277164
-0.67810535 -6.1029482 -38.255363
-0.67838693 -6.7838712 -38.221363
-0.67886668 -7.4675345 -38.163456
-0.67965508 -8.1558638 -38.068291
-0.6813646 -8.8577414 -37.861931
-0.68878776 -9.6430292 -36.965885
-0.85886991 -12.883049 -16.43515
-0.82122844 -13.139654 -20.978876
-0.80260038 -13.644209 -23.227484
-0.79722154 -14.349985 -23.876776
-0.79713148 -15.145502 -23.887634
-0.81675136 -16.335028 -21.51931
-1.6834834e-23 12.249765 -37.961159
1.0228049e-23 11.544096 -38.139561
1.6576808e-24 10.856308 -38.205376
1.4303197e-23 10.1729 -38.244709
7.6652036e-26 9.4920607 -38.267532
-3.5945425e-24 8.8124752 -38.282238
6.2073256e-24 8.133709 -38.291103
6.3516366e-24 7.4553933 -38.296677
1.3686345e-23 6.7773762 -38.299717
1.0616806e-25 6.0995474 -38.300987
2.7120527e-23 5.4218178 -38.30098
2.5024612e-23 4.7440901 -38.30098
4.4128185e-24 4.0663624 -38.300987
1.5551793e-23 3.3886356 -38.300983
1.1171993e-23 2.710901 -38.301239
9.0760782e-24 2.0331726 -38.301235
4.339669e-24 1.3554479 -38.301235
-1.363163e-23 0.67772138 -38.301239
-2.4926553e-24 -2.1862058e-06 -38.301235
-4.9451797e-24 -0.67772734 -38.300983
6.193795e-24 -1.3554542 -38.30098
-1.1777504e-23 -2.0331838 -38.300983
-6.3852926e-25 -2.7109122 -38.300983
5.9796477e-24 -3.3886914 -38.299717
-6.3249479e-24 -4.0665936 -38.296425
-1.0370974e-23 -4.7447381 -38.289837
1.4044248e-25 -5.4234014 -38.277164
9.8979388e-24 -6.1029482 -38.255363
1.9319648e-23 -6.7838712 -38.221363
2.3132242e-24 -7.4675345 -38.163456
1.7264265e-23 -8.1558638 -38.068291
4.9246283e-24 -8.8577414 -37.861931
2.1607847e-24 -9.6430292 -36.965885
0.68054265 12.249765 -37.961159
0.67906469 11.544096 -38.139561
0.67851949 10.856308 -38.205376
0.67819357 10.1729 -38.244709
0.6780045 9.4920607 -38.267532
0.67788273 8.8124752 -38.282238
0.67780924 8.133709 -38.291103
0.6777631 7.4553933 -38.296677
0.67773789 6.7773762 -38.299717
0.6777274 6.0995474 -38.300987
0.6777274 5.4218178 -38.30098
0.6777274 4.7440901 -38.30098
0.6777274 4.0663624 -38.300987
0.6777274 3.3886356 -38.300983
0.67772537 2.710901 -38.301239
0.67772537 2.0331726 -38.301235
0.67772537 1.3554479 -38.301235
0.67772537 0.67772138 -38.301239
0.67772537 -2.1862058e-06 -38.301235
0.6777274 -0.67772734 -38.300983
0.6777274 -1.3554542 -38.30098
0.6777274 -2.0331838 -38.300983
0.6777274 -2.7109122 -38.300983
0.67773789 -3.3886914 -38.299717
0.67776519 -4.0665936 -38.296425
0.67781973 -4.7447381 -38.289837
0.67792475 -5.4234014 -38.277164
0.67810535 -6.1029482 -38.255363
0.67838693 -6.7838712 -38.221363
0.67886668 -7.4675345 -38.163456
0.67965508 -8.1558638 -38.068291
0.6813646 -8.8577414 -37.861931
0.68878776 -9.6430292 -36.965885
1.3610853 12.249765 -37.961159
1.3581294 11.544096 -38.139561
1.357039 10.856308 -38.205376
1.3563871 10.1729 -38.244709
1.356009 9.4920607 -38.267532
1.3557655 8.8124752 -38.282238
1.3556185 8.133709 -38.291103
1.3555262 7.4553933 -38.296677
1.3554758 6.7773762 -38.299717
1.3554548 6.0995474 -38.300987
1.3554548 5.4218178 -38.30098
1.3554548 4.7440901 -38.30098
1.3554548 4.0663624 -38.300987
1.3554548 3.3886356 -38.300983
1.3554507 2.710901 -38.301239
1.3554507 2.0331726 -38.301235
1.3554507 1.3554479 -38.301235
1.3554507 0.67772138 -38.301239
1.3554507 -2.1862058e-06 -38.301235
1.3554548 -0.67772734 -38.300983
1.3554548 -1.3554542 -38.30098
1.3554548 -2.0331838 -38.300983
1.3554548 -2.7109122 -38.300983
1.3554758 -3.3886914 -38.299717
1.3555304 -4.0665936 -38.296425
1.3556395 -4.7447381 -38.289837
1.3558495 -5.4234014 -38.277164
1.3562107 -6.1029482 -38.255363
1.3567739 -6.7838712 -38.221363
1.3577334 -7.4675345 -38.163456
1.3593102 -8.1558638 -38.068291
1.3627292 -8.8577414 -37.861931
1.3775755 -9.6430292 -36.965885
2.0416279 12.249765 -37.961159
2.037194 11.544096 -38.139561
2.0355582 10.856308 -38.205376
2.0345807 10.1729 -38.244709
2.0340135 9.4920607 -38.267532
2.0336483 8.8124752 -38.282238
2.0334277 8.133709 -38.291103
2.0332892 7.4553933 -38.296677
2.0332139 6.7773762 -38.299717
2.0331821 6.0995474 -38.300987
2.0331821 5.4218178 -38.30098
2.0331821 4.7440901 -38.30098
2.0331821 4.0663624 -38.300987
2.0331821 3.3886356 -38.300983
2.0331759 2.710901 -38.301239
2.0331759 2.0331726 -38.301235
2.0331759 1.3554479 -38.301235
2.0331759 0.67772138 -38.301239
2.0331759 -2.1862058e-06 -38.301235
2.0331821 -0.67772734 -38.300983
2.0331821 -1.3554542 -38.30098
2.0331821 -2.0331838 -38.300983
2.0331821 -2.7109122 -38.300983
2.0332139 -3.3886914 -38.299717
2.0332956 -4.0665936 -38.296425
2.0334592 -4.7447381 -38.289837
2.0337741 -5.4234014 -38.277164
2.0343161 -6.1029482 -38.255363
2.0351608 -6.7838712 -38.221363
2.0366001 -7.4675345 -38.163456
2.0389652 -8.1558638 -38.068291
2.0440938 -8.8577414 -37.861931
2.0663633 -9.6430292 -36.965885
2.7221706 12.249765 -37.961159
2.7162588 11.544096 -38.139561
2.7140779 10.856308 -38.205376
2.7127743 10.1729 -38.244709
2.712018 9.4920607 -38.267532
2.7115309 8.8124752 -38.282238
2.711237 8.133709 -38.291103
2.7110524 7.4553933 -38.296677
2.7109516 6.7773762 -38.299717
2.7109096 6.0995474 -38.300987
2.7109096 5.4218178 -38.30098
2.7109096 4.7440901 -38.30098
2.7109096 4.0663624 -38.300987
2.7109096 3.3886356 -38.300983
2.7109015 2.710901 -38.301239
2.7109015 2.0331726 -38.301235
2.7109015 1.3554479 -38.301235
2.7109015 0.67772138 -38.301239
2.7109015 -2.1862058e-06 -38.301235
2.7109096 -0.67772734 -38.300983
2.7109096 -1.3554542 -38.30098
2.7109096 -2.0331838 -38.300983
2.7109096 -2.7109122 -38.300983
2.7109516 -3.3886914 -38.299717
2.7110608 -4.0665936 -38.296425
2.7112789 -4.7447381 -38.289837
2.711699 -5.4234014 -38.277164
2.7124214 -6.1029482 -38.255363
2.7135477 -6.7838712 -38.221363
2.7154667 -7.4675345 -38.163456
2.7186203 -8.1558638 -38.068291
2.7254584 -8.8577414 -37.861931
2.755151 -9.6430292 -36.965885
3.4027131 12.249765 -37.961159
3.3953235 11.544096 -38.139561
3.3925972 10.856308 -38.205376
3.3909681 10.1729 -38.244709
3.3900228 9.4920607 -38.267532
3.3894138 8.8124752 -38.282238
3.3890462 8.133709 -38.291103
3.3888154 7.4553933 -38.296677
3.3886895 6.7773762 -38.299717
3.3886371 6.0995474 -38.300987
3.3886371 5.4218178 -38.30098
3.3886371 4.7440901 -38.30098
3.3886371 4.0663624 -38.300987
3.3886371 3.3886356 -38.300983
3.3886263 2.710901 -38.301239
3.3886263 2.0331726 -38.301235
3.3886263 1.3554479 -38.301235
3.3886263 0.67772138 -38.301239
3.3886263 -2.1862058e-06 -38.301235
3.3886371 -0.67772734 -38.300983
3.3886371 -1.3554542 -38.30098
3.3886371 -2.0331838 -38.300983
3.3886371 -2.7109122 -38.300983
3.3886895 -3.3886914 -38.299717
3.3888259 -4.0665936 -38.296425
3.3890986 -4.7447381 -38.289837
3.3896239 -5.4234014 -38.277164
3.3905265 -6.1029482 -38.255363
3.3919349 -6.7838712 -38.221363
3.3943334 -7.4675345 -38.163456
3.3982756 -8.1558638 -38.068291
3.4068232 -8.8577414 -37.861931
3.4439387 -9.6430292 -36.965885
4.0832558 12.249765 -37.961159
4.074388 11.544096 -38.139561
4.0711164 10.856308 -38.205376
4.0691614 10.1729 -38.244709
4.068027 9.4920607 -38.267532
4.0672965 8.8124752 -38.282238
4.0668554 8.133709 -38.291103
4.0665784 7.4553933 -38.296677
4.0664277 6.7773762 -38.299717
4.0663643 6.0995474 -38.300987
4.0663643 5.4218178 -38.30098
4.0663643 4.7440901 -38.30098
4.0663643 4.0663624 -38.300987
4.0663643 3.3886356 -38.300983
4.0663519 2.710901 -38.301239
4.0663519 2.0331726 -38.301235
4.0663519 1.3554479 -38.301235
4.0663519 0.67772138 -38.301239
4.0663519 -2.1862058e-06 -38.301235
4.0663643 -0.67772734 -38.300983
4.0663643 -1.3554542 -38.30098
4.0663643 -2.0331838 -38.300983
4.0663643 -2.7109122 -38.300983
4.0664277 -3.3886914 -38.299717
4.0665913 -4.0665936 -38.296425
4.0669184 -4.7447381 -38.289837
4.0675483 -5.4234014 -38.277164
4.0686321 -6.1029482 -38.255363
4.0703216 -6.7838712 -38.221363
4.0732002 -7.4675345 -38.163456
4.0779305 -8.1558638 -38.068291
4.0881877 -8.8577414 -37.861931
4.1327267 -9.6430292 -36.965885
4.7637982 12.249765 -37.961159
4.7534528 11.544096 -38.139561
4.7496362 10.856308 -38.205376
4.747355 10.1729 -38.244709
4.7460318 9.4920607 -38.267532
4.7451792 8.8124752 -38.282238
4.7446651 8.133709 -38.291103
4.7443419 7.4553933 -38.296677
4.7441654 6.7773762 -38.299717
4.744092 6.0995474 -38.300987
4.744092 5.4218178 -38.30098
4.744092 4.7440901 -38.30098
4.744092 4.0663624 -38.300987
4.744092 3.3886356 -38.300983
4.7440772 2.710901 -38.301239
4.7440772 2.0331726 -38.301235
4.7440772 1.3554479 -38.301235
4.7440772 0.67772138 -38.301239
4.7440772 -2.1862058e-06 -38.301235
4.744092 -0.67772734 -38.300983
4.744092 -1.3554542 -38.30098
4.744092 -2.0331838 -38.300983
4.744092 -2.7109122 -38.300983
4.7441654 -3.3886914 -38.299717
4.7443566 -4.0665936 -38.296425
4.7447381 -4.7447381 -38.289837
4.7454729 -5.4234014 -38.277164
4.7467375 -6.1029482 -38.255363
4.7487087 -6.7838712 -38.221363
4.7520671 -7.4675345 -38.163456
4.7575855 -8.1558638 -38.068291
4.7695522 -8.8577414 -37.861931
4.8215141 -9.6430292 -36.965885
5.4443412 12.249765 -37.961159
5.4325175 11.544096 -38.139561
5.4281559 10.856308 -38.205376
5.4255486 10.1729 -38.244709
5.424036 9.4920607 -38.267532
5.4230618 8.8124752 -38.282238
5.4224739 8.133709 -38.291103
5.4221048 7.4553933 -38.296677
5.4219031 6.7773762 -38.299717
5.4218192 6.0995474 -38.300987
5.4218192 5.4218178 -38.30098
5.4218192 4.7440901 -38.30098
5.4218192 4.0663624 -38.300987
5.4218192 3.3886356 -38.300983
5.421803 2.710901 -38.301239
5.421803 2.0331726 -38.301235
5.421803 1.3554479 -38.301235
5.421803 0.67772138 -38.301239
5.421803 -2.1862058e-06 -38.301235
5.4218192 -0.67772734 -38.300983
5.4218192 -1.3554542 -38.30098
5.4218192 -2.0331838 -38.300983
5.4218192 -2.7109122 -38.300983
5.4219031 -3.3886914 -38.299717
5.4221215 -4.0665936 -38.296425
5.4225578 -4.7447381 -38.289837
5.423398 -5.4234014 -38.277164
5.4248428 -6.1029482 -38.255363
5.4270954 -6.7838712 -38.221363
5.4309335 -7.4675345 -38.163456
5.4372406 -8.1558638 -38.068291
5.4509168 -8.8577414 -37.861931
5.5103021 -9.6430292 -36.965885
6.1248837 12.249765 -37.961159
6.1115823 11.544096 -38.139561
6.1066756 10.856308 -38.205376
6.1037421 10.1729 -38.244709
6.1020408 9.4920607 -38.267532
6.1009445 8.8124752 -38.282238
6.1002831 8.133709 -38.291103
6.0998678 7.4553933 -38.296677
6.0996413 6.7773762 -38.299717
6.0995469 6.0995474 -38.300987
6.0995469 5.4218178 -38.30098
6.0995469 4.7440901 -38.30098
6.0995469 4.0663624 -38.300987
6.0995469 3.3886356 -38.300983
6.0995274 2.710901 -38.301239
6.0995274 2.0331726 -38.301235
6.0995274 1.3554479 -38.301235
6.0995274 0.67772138 -38.301239
6.0995274 -2.1862058e-06 -38.301235
6.0995469 -0.67772734 -38.300983
6.0995469 -1.3554542 -38.30098
6.0995469 -2.0331838 -38.300983
6.0995469 -2.7109122 -38.300983
6.0996413 -3.3886914 -38.299717
6.0998864 -4.0665936 -38.296425
6.1003776 -4.7447381 -38.289837
6.1013227 -5.4234014 -38.277164
6.1029482 -6.1029482 -38.255363
6.1054826 -6.7838712 -38.221363
6.1098003 -7.4675345 -38.163456
6.1168957 -8.1558638 -38.068291
6.1322813 -8.8577414 -37.861931
6.1990895 -9.6430292 -36.965885
6.8054261 12.249765 -37.961159
6.790647 11.544096 -38.139561
6.7851944 10.856308 -38.205376
6.7819362 10.1729 -38.244709
6.7800455 9.4920607 -38.267532
6.7788277 8.8124752 -38.282238
6.7780924 8.133709 -38.291103
6.7776308 7.4553933 -38.296677
6.777379 6.7773762 -38.299717
6.7772741 6.0995474 -38.300987
6.7772741 5.4218178 -38.30098
6.7772741 4.7440901 -38.30098
6.7772741 4.0663624 -38.300987
6.7772741 3.3886356 -38.300983
6.7772527 2.710901 -38.301239
6.7772527 2.0331726 -38.301235
6.7772527 1.3554479 -38.301235
6.7772527 0.67772138 -38.301239
6.7772527 -2.1862058e-06 -38.301235
6.7772741 -0.67772734 -38.300983
6.7772741 -1.3554542 -38.30098
6.7772741 -2.0331838 -38.300983
6.7772741 -2.7109122 -38.300983
6.777379 -3.3886914 -38.299717
6.7776518 -4.0665936 -38.296425
6.7781973 -4.7447381 -38.289837
6.7792478 -5.4234014 -38.277164
6.7810531 -6.1029482 -38.255363
6.7838697 -6.7838712 -38.221363
6.7886667 -7.4675345 -38.163456
6.7965512 -8.1558638 -38.068291
6.8136463 -8.8577414 -37.861931
6.8878775 -9.6430292 -36.965885
7.4859691 12.249765 -37.961159
7.4697118 11.544096 -38.139561
7.4637141 10.856308 -38.205376
7.4601297 10.1729 -38.244709
7.4580498 9.4920607 -38.267532
7.4567099 8.8124752 -38.282238
7.4559016 8.133709 -38.291103
7.4553943 7.4553933 -38.296677
7.4551167 6.7773762 -38.299717
7.4550018 6.0995474 -38.300987
7.4550018 5.4218178 -38.30098
7.4550018 4.7440901 -38.30098
7.4550018 4.0663624 -38.300987
7.4550018 3.3886356 -38.300983
7.4549785 2.710901 -38.301239
7.4549785 2.0331726 -38.301235
7.4549785 1.3554479 -38.301235
7.4549785 0.67772138 -38.301239
7.4549785 -2.1862058e-06 -38.301235
7.4550018 -0.67772734 -38.300983
7.4550018 -1.3554542 -38.30098
7.4550018 -2.0331838 -38.300983
7.4550018 -2.7109122 -38.300983
7.4551167 -3.3886914 -38.299717
7.4554172 -4.0665936 -38.296425
7.456017 -4.7447381 -38.289837
7.4571719 -5.4234014 -38.277164
7.4591589 -6.1029482 -38.255363
7.4622569 -6.7838712 -38.221363
7.4675341 -7.4675345 -38.163456
7.4762058 -8.1558638 -38.068291
7.4950109 -8.8577414 -37.861931
7.5766649 -9.6430292 -36.965885
8.1665115 12.249765 -37.961159
8.1487761 11.544096 -38.139561
8.1422329 10.856308 -38.205376
8.1383228 10.1729 -38.244709
8.136054 9.4920607 -38.267532
8.134593 8.8124752 -38.282238
8.1337109 8.133709 -38.291103
8.1331568 7.4553933 -38.296677
8.1328554 6.7773762 -38.299717
8.1327286 6.0995474 -38.300987
8.1327286 5.4218178 -38.30098
8.1327286 4.7440901 -38.30098
8.1327286 4.0663624 -38.300987
8.1327286 3.3886356 -38.300983
8.1327038 2.710901 -38.301239
8.1327038 2.0331726 -38.301235
8.1327038 1.3554479 -38.301235
8.1327038 0.67772138 -38.301239
8.1327038 -2.1862058e-06 -38.301235
8.1327286 -0.67772734 -38.300983
8.1327286 -1.3554542 -38.30098
8.1327286 -2.0331838 -38.300983
8.1327286 -2.7109122 -38.300983
8.1328554 -3.3886914 -38.299717
8.1331825 -4.0665936 -38.296425
8.1338367 -4.7447381 -38.289837
8.1350965 -5.4234014 -38.277164
8.1372643 -6.1029482 -38.255363
8.1406431 -6.7838712 -38.221363
8.1464005 -7.4675345 -38.163456
8.1558609 -8.1558638 -38.068291
8.1763754 -8.8577414 -37.861931
8.2654533 -9.6430292 -36.965885
8.8470545 12.249765 -37.961159
8.8278408 11.544096 -38.139561
8.8207531 10.856308 -38.205376
8.8165169 10.1729 -38.244709
8.8140583 9.4920607 -38.267532
8.8124762 8.8124752 -38.282238
8.8115206 8.133709 -38.291103
8.8109198 7.4553933 -38.296677
8.8105927 6.7773762 -38.299717
8.8104563 6.0995474 -38.300987
8.8104563 5.4218178 -38.30098
8.8104563 4.7440901 -38.30098
8.8104563 4.0663624 -38.300987
8.8104563 3.3886356 -38.300983
8.8104286 2.710901 -38.301239
8.8104286 2.0331726 -38.301235
8.8104286 1.3554479 -38.301235
8.8104286 0.67772138 -38.301239
8.8104286 -2.1862058e-06 -38.301235
8.8104563 -0.67772734 -38.300983
8.8104563 -1.3554542 -38.30098
8.8104563 -2.0331838 -38.300983
8.8104563 -2.7109122 -38.300983
8.8105927 -3.3886914 -38.299717
8.8109474 -4.0665936 -38.296425
8.811657 -4.7447381 -38.289837
8.8130217 -5.4234014 -38.277164
8.8153696 -6.1029482 -38.255363
8.8190308 -6.7838712 -38.221363
8.8252678 -7.4675345 -38.163456
8.835516 -8.1558638 -38.068291
8.8577404 -8.8577414 -37.861931
8.9542408 -9.6430292 -36.965885
9.5275965 12.249765 -37.961159
9.5069056 11.544096 -38.139561
9.4992723 10.856308 -38.205376
9.49471 10.1729 -38.244709
9.4920635 9.4920607 -38.267532
9.4903584 8.8124752 -38.282238
9.4893303 8.133709 -38.291103
9.4886837 7.4553933 -38.296677
9.4883308 6.7773762 -38.299717
9.488184 6.0995474 -38.300987
9.488184 5.4218178 -38.30098
9.488184 4.7440901 -38.30098
9.488184 4.0663624 -38.300987
9.488184 3.3886356 -38.300983
9.4881544 2.710901 -38.301239
9.4881544 2.0331726 -38.301235
9.4881544 1.3554479 -38.301235
9.4881544 0.67772138 -38.301239
9.4881544 -2.1862058e-06 -38.301235
9.488184 -0.67772734 -38.300983
9.488184 -1.3554542 -38.30098
9.488184 -2.0331838 -38.300983
9.488184 -2.7109122 -38.300983
9.4883308 -3.3886914 -38.299717
9.4887133 -4.0665936 -38.296425
9.4894762 -4.7447381 -38.289837
9.4909458 -5.4234014 -38.277164
9.493475 -6.1029482 -38.255363
9.4974174 -6.7838712 -38.221363
9.5041342 -7.4675345 -38.163456
9.5151711 -8.1558638 -38.068291
9.5391045 -8.8577414 -37.861931
9.6430283 -9.6430292 -36.965885
10.208139 12.249765 -37.961159
10.18597 11.544096 -38.139561
10.177793 10.856308 -38.205376
10.172904 10.1729 -38.244709
10.170069 9.4920607 -38.267532
10.168242 8.8124752 -38.282238
10.167139 8.133709 -38.291103
10.166447 7.4553933 -38.296677
10.166069 6.7773762 -38.299717
10.165912 6.0995474 -38.300987
10.165912 5.4218178 -38.30098
10.165912 4.7440901 -38.30098
10.165912 4.0663624 -38.300987
10.165912 3.3886356 -38.300983
10.165879 2.710901 -38.301239
10.165879 2.0331726 -38.301235
10.165879 1.3554479 -38.301235
10.165879 0.67772138 -38.301239
10.165879 -2.1862058e-06 -38.301235
10.165912 -0.67772734 -38.300983
10.165912 -1.3554542 -38.30098
10.165912 -2.0331838 -38.300983
10.165912 -2.7109122 -38.300983
10.166069 -3.3886914 -38.299717
10.166478 -4.0665936 -38.296425
10.167295 -4.7447381 -38.289837
10.16887 -5.4234014 -38.277164
10.171581 -6.1029482 -38.255363
10.175805 -6.7838712 -38.221363
10.183001 -7.4675345 -38.163456
10.194827 -8.1558638 -38.068291
10.220469 -8.8577414 -37.861931
10.331817 -9.6430292 -36.965885
10.888682 12.249765 -37.961159
10.865035 11.544096 -38.139561
10.856312 10.856308 -38.205376
10.851097 10.1729 -38.244709
10.848072 9.4920607 -38.267532
10.846124 8.8124752 -38.282238
10.844948 8.133709 -38.291103
10.84421 7.4553933 -38.296677
10.843806 6.7773762 -38.299717
10.843638 6.0995474 -38.300987
10.843638 5.4218178 -38.30098
10.843638 4.7440901 -38.30098
10.843638 4.0663624 -38.300987
10.843638 3.3886356 -38.300983
10.843606 2.710901 -38.301239
10.843606 2.0331726 -38.301235
10.843606 1.3554479 -38.301235
10.843606 0.67772138 -38.301239
10.843606 -2.1862058e-06 -38.301235
10.843638 -0.67772734 -38.300983
10.843638 -1.3554542 -38.30098
10.843638 -2.0331838 -38.300983
10.843638 -2.7109122 -38.300983
10.843806 -3.3886914 -38.299717
10.844243 -4.0665936 -38.296425
10.845116 -4.7447381 -38.289837
10.846796 -5.4234014 -38.277164
10.849686 -6.1029482 -38.255363
10.854191 -6.7838712 -38.221363
10.861867 -7.4675345 -38.163456
10.874481 -8.1558638 -38.068291
10.901834 -8.8577414 -37.861931
11.020604 -9.6430292 -36.965885
11.569225 12.249765 -37.961159
11.5441 11.544096 -38.139561
11.53483 10.856308 -38.205376
11.529291 10.1729 -38.244709
11.526076 9.4920607 -38.267532
11.524007 8.8124752 -38.282238
11.522758 8.133709 -38.291103
11.521972 7.4553933 -38.296677
11.521544 6.7773762 -38.299717
11.521365 6.0995474 -38.300987
11.521365 5.4218178 -38.30098
11.521365 4.7440901 -38.30098
11.521365 4.0663624 -38.300987
11.521365 3.3886356 -38.300983
11.52133 2.710901 -38.301239
11.52133 2.0331726 -38.301235
11.52133 1.3554479 -38.301235
11.52133 0.67772138 -38.301239
11.52133 -2.1862058e-06 -38.301235
11.521365 -0.67772734 -38.300983
11.521365 -1.3554542 -38.30098
11.521365 -2.0331838 -38.300983
11.521365 -2.7109122 -38.300983
11.521544 -3.3886914 -38.299717
11.522009 -4.0665936 -38.296425
11.522936 -4.7447381 -38.289837
11.52472 -5.4234014 -38.277164
11.527791 -6.1029482 -38.255363
11.532579 -6.7838712 -38.221363
11.540733 -7.4675345 -38.163456
11.554136 -8.1558638 -38.068291
11.583199 -8.8577414 -37.861931
11.709392 -9.6430292 -36.965885
12.249767 12.249765 -37.961159
12.223202 11.544131 -38.139305
12.213351 10.856308 -38.205376
12.207523 10.172936 -38.244453
12.204119 9.4920921 -38.267281
12.201927 8.8125 -38.281982
12.200605 8.1337337 -38.290852
12.199773 7.4554186 -38.296425
12.19932 6.7773972 -38.299465
12.199131 6.0995646 -38.300728
12.199094 5.4218178 -38.30098
12.199094 4.7440901 -38.30098
12.199094 4.0663624 -38.300987
12.199131 3.3886454 -38.300732
12.199094 2.7109094 -38.300987
12.199094 2.0331824 -38.300983
12.199094 1.3554528 -38.300987
12.199094 0.67772591 -38.300983
12.199094 -2.542829e-06 -38.300983
12.199094 -0.67772734 -38.300983
12.199131 -1.3554604 -38.300732
12.199131 -2.0331883 -38.300728
12.199131 -2.7109199 -38.300728
12.19932 -3.3887007 -38.299461
12.199811 -4.0666075 -38.296173
12.200831 -4.7447701 -38.289326
12.202721 -5.4234333 -38.276657
12.205935 -6.1029696 -38.255108
12.211003 -6.7838922 -38.221111
12.219639 -7.4675574 -38.163208
12.233829 -8.1558895 -38.068035
12.264602 -8.857769 -37.861679
12.398179 -9.6430292 -36.965885
13.109119 13.10912 -36.825142
12.93039 12.249841 -37.960648
12.902389 11.54424 -38.138546
12.89203 10.856446 -38.204357
12.885838 10.173028 -38.243694
12.882245 9.4921808 -38.266521
12.879972 8.8126097 -38.280964
12.878575 8.1338358 -38.289837
12.877699 7.4555106 -38.295414
12.87722 6.777483 -38.29845
12.877021 6.0996404 -38.299717
12.876981 5.4218836 -38.299973
12.876981 4.7441497 -38.299969
12.876981 4.0664148 -38.299973
12.877021 3.3886909 -38.299717
12.876981 2.7109394 -38.299973
12.876981 2.0332057 -38.299969
12.876981 1.3554708 -38.299973
12.876981 0.67773384 -38.299969
12.876981 2.1376118e-06 -38.299973
12.876981 -0.67773682 -38.299969
12.877021 -1.3554767 -38.299713
12.877021 -2.0332117 -38.299717
12.876981 -2.710942 -38.299969
12.87718 -3.3887339 -38.298706
12.877739 -4.0666537 -38.295158
12.878815 -4.7448277 -38.288315
12.880849 -5.4235182 -38.275391
12.884201 -6.1030445 -38.254093
12.889592 -6.7839985 -38.219841
12.898627 -7.4676266 -38.162445
12.913567 -8.1559391 -38.067528
12.946048 -8.8578243 -37.861168
13.086967 -9.6430292 -36.965885
13.750183 13.062671 -37.120232
13.611149 12.250034 -37.95937
13.581758 11.54449 -38.136761
13.570893 10.856713 -38.202328
13.564418 10.173311 -38.241413
13.560678 9.4924746 -38.263981
13.558285 8.8128843 -38.278435
13.556772 8.1340628 -38.287556
13.555891 7.4557366 -38.292877
13.555388 6.7776942 -38.295918
13.555221 6.0998487 -38.296928
13.555136 5.4220562 -38.29744
13.555094 4.7442818 -38.297691
13.555136 4.0665407 -38.297436
13.555178 3.3887916 -38.297184
13.555178 2.7110324 -38.297184
13.555178 2.0332751 -38.297184
13.555178 1.3555192 -38.297184
13.555178 0.67775995 -38.297184
13.555136 -1.7212187e-06 -38.29744
13.555094 -0.67775369 -38.297691
13.555136 -1.3555158 -38.29744
13.555221 -2.0332839 -38.296928
13.555136 -2.71103 -38.297436
13.555346 -3.3888366 -38.296169
13.555934 -4.066781 -38.292622
13.557067 -4.7449746 -38.285782
13.559251 -5.4237013 -38.272602
13.562778 -6.1032524 -38.251305
13.568412 -6.7842083 -38.217308
13.577924 -7.4678593 -38.159901
13.593566 -8.1561422 -38.065491
13.627632 -8.8579617 -37.859882
13.775712 -9.6429996 -36.966148
14.437692 13.062671 -37.120232
14.292461 12.250681 -37.955025
14.26142 11.544957 -38.133453
14.250013 10.857152 -38.199028
14.243258 10.173756 -38.237862
14.239374 9.4929161 -38.260178
14.236904 8.813324 -38.27438
14.235317 8.1344643 -38.283501
14.234347 7.4560847 -38.289074
14.233863 6.778029 -38.291862
14.233685 6.1001525 -38.292877
14.233598 5.4223199 -38.293385
14.233554 4.7445192 -38.293636
14.233554 4.0667257 -38.293636
14.233642 3.3889604 -38.293129
14.233642 2.7111707 -38.293133
14.233642 2.0333772 -38.293133
14.233642 1.3555852 -38.293129
14.233642 0.67779368 -38.293129
14.233598 -2.3788891e-06 -38.293385
14.233598 -0.67779106 -38.293381
14.233598 -1.3555816 -38.293385
14.233685 -2.0333848 -38.292877
14.233642 -2.711169 -38.293129
14.233906 -3.3890262 -38.291607
14.234523 -4.0670066 -38.288059
14.235714 -4.7452397 -38.281219
14.238051 -5.4240189 -38.267788
14.241756 -6.103611 -38.246483
14.247628 -6.7845869 -38.212738
14.257572 -7.4682517 -38.155582
14.273953 -8.1565447 -38.061413
14.309503 -8.8582649 -37.857067
14.481176 -9.6541176 -36.870274
15.125201 13.062671 -37.120232
14.976409 12.253425 -37.936626
14.94137 11.545605 -38.12888
14.929557 10.857859 -38.193691
14.922525 10.174448 -38.232277
14.918503 9.4935894 -38.254349
14.915915 8.8139496 -38.268543
14.914344 8.1350965 -38.277168
14.913327 7.4566636 -38.282745
14.912774 6.7785296 -38.285782
14.912542 6.1005816 -38.287048
14.912542 5.4227424 -38.287052
14.912497 4.744885 -38.287304
14.912497 4.0670419 -38.2873
14.912497 3.3892007 -38.287304
14.912542 2.711369 -38.287052
14.912542 2.0335257 -38.287048
14.912542 1.3556845 -38.287048
14.912589 0.67784613 -38.286797
14.912589 -2.0279269e-06 -38.286797
14.912589 -0.6778453 -38.286797
14.912589 -1.3556929 -38.286793
14.912589 -2.033534 -38.286797
14.912635 -2.7113905 -38.286545
14.912958 -3.3893082 -38.284767
14.913651 -4.0673585 -38.280968
14.914899 -4.7456489 -38.274124
14.917301 -5.4244752 -38.260941
14.921184 -6.1041222 -38.239639
14.927382 -6.7851748 -38.205627
14.937755 -7.4688792 -38.148712
14.954641 -8.1570768 -38.056065
14.991422 -8.8585691 -37.854252
15.182282 -9.6614542 -36.807026
15.81271 13.062671 -37.120232
15.658176 12.254225 -37.931263
15.621929 11.54664 -38.121506
15.610062 10.859172 -38.183788
15.602707 10.175676 -38.222385
15.59855 9.4947681 -38.244205
15.595843 8.8150415 -38.258404
15.59425 8.1361284 -38.266773
15.593235 7.4576302 -38.272099
15.592607 6.7793922 -38.275391
15.592462 6.1013961 -38.276154
15.592413 5.4234476 -38.276409
15.592365 4.7455029 -38.276661
15.592365 4.0675688 -38.276657
15.592413 3.3896554 -38.276405
15.592413 2.7117248 -38.276405
15.592413 2.0337944 -38.276405
15.592413 1.3558569 -38.276405
15.592413 0.67792827 -38.276405
15.592462 5.2732287e-07 -38.27615
15.59251 -0.67793733 -38.275898
15.592559 -1.3558742 -38.275646
15.592655 -2.0338266 -38.275135
15.592655 -2.7117679 -38.275139
15.592993 -3.3897858 -38.273365
15.593718 -4.0679293 -38.269562
15.59507 -4.7463279 -38.262463
15.597535 -5.4252295 -38.249531
15.601595 -6.1049743 -38.228218
15.607883 -6.7860384 -38.195217
15.61873 -7.46983 -38.138287
15.636728 -8.1582937 -38.043827
15.674069 -8.8592567 -37.847851
15.872037 -9.6612406 -36.808861
16.500219 13.062671 -37.120232
16.340492 12.255366 -37.923595
16.303471 11.548289 -38.109798
16.291183 10.860786 -38.171593
16.284063 10.177538 -38.207409
16.279673 9.4964762 -38.229488
16.276899 8.8166533 -38.243443
16.275234 8.1376181 -38.251812
16.274277 7.4590406 -38.256634
16.27367 6.780694 -38.259674
16.27347 6.1025491 -38.260693
16.27347 5.42449 -38.260689
16.27342 4.7464137 -38.260941
16.273369 4.0683432 -38.261196
16.27342 3.3902922 -38.260941
16.27342 2.712235 -38.260941
16.27342 2.0341778 -38.260941
16.27342 1.3561153 -38.260941
16.27342 0.67806017 -38.260944
16.27347 5.889982e-07 -38.260689
16.27352 -0.67806387 -38.260437
16.273621 -1.3561369 -38.25993
16.273722 -2.0342159 -38.259422
16.273823 -2.7123041 -38.258915
16.274176 -3.3904564 -38.257137
16.274982 -4.0687475 -38.253082
16.276495 -4.747314 -38.245468
16.279118 -5.4263754 -38.232277
16.283257 -6.1062236 -38.211468
16.289768 -6.7874064 -38.178703
16.300838 -7.4712205 -38.123028
16.31912 -8.1595602 -38.031082
16.358963 -8.8611069 -37.830688
17.187729 13.062671 -37.120232
17.023729 12.257083 -37.912086
16.986103 11.550549 -38.093761
16.973879 10.86328 -38.152782
16.966825 10.180095 -38.186836
16.962408 9.4989462 -38.208168
16.959621 8.8190022 -38.221622
16.957993 8.1398363 -38.229488
16.956993 7.4610748 -38.23431
16.956417 6.7825656 -38.237099
16.956205 6.1042328 -38.238117
16.956205 5.4259839 -38.238117
16.956205 4.7477365 -38.238113
16.956154 4.0694747 -38.238369
16.956154 3.3912289 -38.238369
16.956154 2.7129812 -38.238365
16.956205 2.0347421 -38.238117
16.956205 1.3564945 -38.238113
16.956205 0.6782456 -38.238113
16.956205 -1.2436795e-06 -38.238121
16.95631 -0.67825359 -38.237606
16.95652 -1.356523 -38.236591
16.95652 -2.0347831 -38.236595
16.956783 -2.7130849 -38.235325
16.95731 -3.3914626 -38.232788
16.958202 -4.0699687 -38.228474
16.959885 -4.7487702 -38.220352
16.962566 -5.4280229 -38.207405
16.966879 -6.108077 -38.186581
16.973511 -6.7894058 -38.15456
16.984785 -7.4733062 -38.100124
17.004156 -8.1619959 -38.006596
17.045258 -8.8635349 -37.808132
17.875237 13.062671 -37.120232
17.708368 12.259638 -37.894947
17.671251 11.554279 -38.067276
17.658915 10.867023 -38.124557
17.652122 10.183916 -38.156086
17.647688 9.5025978 -38.176674
17.645226 8.8226147 -38.188107
17.64353 8.1431665 -38.19598
17.642546 7.4641552 -38.20055
17.641943 6.7853622 -38.203342
17.641726 6.1067495 -38.204361
17.641726 5.4282198 -38.204357
17.641726 4.7496943 -38.204361
17.641726 4.0711679 -38.204357
17.641726 3.392638 -38.204361
17.641726 2.7141097 -38.204357
17.641726 2.035583 -38.204357
17.641726 1.3570552 -38.204361
17.641834 0.67853224 -38.20385
17.641943 -4.0120776e-06 -38.203342
17.642162 -0.67854702 -38.202324
17.642382 -1.3571092 -38.201313
17.642546 -2.0356796 -38.20055
17.643038 -2.7143133 -38.198261
17.643421 -3.3929663 -38.196487
17.644569 -4.0718246 -38.191154
17.646648 -4.7510214 -38.181499
17.649549 -5.4306312 -38.168034
17.653984 -6.1109948 -38.147442
17.660667 -6.7925663 -38.116413
17.67169 -7.4764838 -38.065235
17.690533 -8.1648636 -37.977753
17.733698 -8.8668518 -37.777355
18.563738 13.063369 -37.115799
18.401541 12.267694 -37.840931
18.36055 11.560343 -38.024193
