# .PCD v0.7 - Point Cloud Data file format
VERSION 0.7
FIELDS x y z
SIZE 4 4 4
TYPE F F F
COUNT 1 1 1
WIDTH 1118
HEIGHT 1
VIEWPOINT 0 0 0 1 0 0 0
POINTS 1118
DATA ascii
-471.07266 423.96539 -1341.3796
-471.07266 400.4118 -1341.3798
-471.07266 376.85825 -1341.3798
-471.07266 353.30457 -1341.3798
-471.07266 329.75101 -1341.3798
-471.07266 306.19727 -1341.3796
-471.07266 282.64371 -1341.3796
-471.07266 259.09012 -1341.3796
-471.01556 211.95703 -1341.7242
-471.05948 188.42384 -1341.4594
-471.01849 164.85651 -1341.7067
-471.02728 141.30833 -1341.6537
-471.03018 117.75761 -1341.636
-470.99362 94.198891 -1341.8568
-470.94971 70.642456 -1342.1218
-471.00241 47.100391 -1341.8038
-471.02728 23.551413 -1341.6537
-471.02289 5.9803388e-05 -1341.6802
-471.00974 -23.550304 -1341.7596
-471.02142 -47.102139 -1341.689
-471.01849 -70.652649 -1341.7067
-470.99948 -94.199875 -1341.8214
-471.01117 -117.75271 -1341.7507
-471.02875 -141.30855 -1341.6448
-471.04779 -164.86673 -1341.5299
-471.02582 -188.41028 -1341.6624
-470.99509 -211.94772 -1341.848
-471.02728 -235.51361 -1341.6536
-471.17221 -259.14465 -1340.7787
-474.69308 -284.81573 -1319.5287
-456.9895 240.52084 -1281.212
-447.34802 211.90175 -1342.4662
-447.36749 188.36531 -1342.3425
-447.38416 164.82585 -1342.2366
-447.40359 141.28548 -1342.113
-447.39667 117.73597 -1342.1571
-447.43698 94.197395 -1341.901
-447.37442 70.638214 -1342.2985
-447.35635 47.09016 -1342.4132
-447.3772 23.546244 -1342.2809
-447.3772 5.6895955e-05 -1342.2808
-447.37442 -23.545895 -1342.2985
-447.38138 -47.092609 -1342.2543
-447.39108 -70.640686 -1342.1925
-447.40503 -94.190453 -1342.104
-447.37164 -117.72926 -1342.3159
-447.33969 -141.26506 -1342.5192
-447.36609 -164.81895 -1342.3514
-447.38556 -188.37277 -1342.2278
-447.40359 -211.92789 -1342.113
-447.43976 -235.49454 -1341.8833
-447.4968 -259.07703 -1341.5211
-449.32468 -283.78387 -1329.9083
-424.95462 236.086 -1334.746
-423.74149 211.8708 -1342.8811
-423.7731 188.34367 -1342.6692
-423.80078 164.81148 -1342.4838
-423.84555 141.28191 -1342.1836
-423.84421 117.7345 -1342.1925
-423.83893 94.186516 -1342.2278
-423.80734 70.634727 -1342.4397
-423.806 47.089619 -1342.4486
-423.806 23.544806 -1342.4485
-423.78232 3.2313117e-05 -1342.6075
-423.74808 -23.541523 -1342.8369
-423.78098 -47.086716 -1342.6162
-423.82181 -70.636963 -1342.3425
-423.86002 -94.191048 -1342.0865
-423.82574 -117.72926 -1342.3159
-423.7731 -141.2576 -1342.6693
-423.80472 -164.81287 -1342.4574
-423.82315 -188.3658 -1342.3337
-423.83762 -211.91872 -1342.2366
-423.80078 -235.44479 -1342.4839
-423.87317 -259.03351 -1341.9982
-425.56711 -283.71136 -1330.6384
-400.89267 235.81929 -1337.9648
-400.1991 211.87018 -1342.8899
-400.22147 188.33966 -1342.7311
-400.21152 164.79306 -1342.8018
-400.26373 141.26973 -1342.4309
-400.23639 117.71667 -1342.6251
-400.25006 94.176651 -1342.5281
-400.25504 70.633255 -1342.4927
-400.25504 47.088894 -1342.4928
-400.24756 23.544085 -1342.5457
-400.23016 6.8299632e-06 -1342.6693
-400.21524 -23.541988 -1342.7753
-400.22394 -47.085018 -1342.7135
-400.25128 -70.632492 -1342.5192
-400.27493 -94.182236 -1342.3514
-400.28116 -117.72965 -1342.3074
-400.26993 -141.27162 -1342.3867
-400.27866 -164.82059 -1342.325
-400.2662 -188.3605 -1342.4132
-400.25253 -211.89824 -1342.5104
-400.23264 -235.43091 -1342.6516
-400.27493 -259.00131 -1342.3514
-401.91699 -283.70602 -1330.6919
-377.20514 235.75323 -1338.7617
-376.63455 211.85699 -1343.0664
-376.66501 188.33253 -1342.8369
-376.6673 164.79205 -1342.8193
-376.70242 141.26357 -1342.5546
-376.68604 117.71449 -1342.6781
-376.69189 94.173157 -1342.634
-376.69891 70.631126 -1342.5809
-376.70358 47.087967 -1342.5458
-376.69656 23.543598 -1342.5986
-376.7001 0.00018429769 -1342.5721
-376.68604 -23.54286 -1342.678
-376.69424 -47.086716 -1342.6162
-376.68954 -70.629158 -1342.6516
-376.7106 -94.177605 -1342.4928
-376.71646 -117.72377 -1342.4485
-376.71179 -141.26688 -1342.4838
-376.71292 -164.81181 -1342.4751
-376.70123 -188.35059 -1342.5632
-376.69656 -211.89177 -1342.5986
-376.6767 -235.42287 -1342.7487
-376.70825 -258.98688 -1342.5104
-378.26889 -283.7016 -1330.7363
-353.62982 235.75323 -1338.7617
-353.07956 211.84773 -1343.1899
-353.12781 188.33495 -1342.8016
-353.1322 164.79514 -1342.7665
-353.14975 141.25999 -1342.6251
-353.15414 117.71814 -1342.5897
-353.14426 94.171906 -1342.6693
-353.15305 70.630692 -1342.5986
-353.15305 47.087158 -1342.5988
-353.14209 23.542896 -1342.6869
-353.14865 0.00017107109 -1342.634
-353.15634 -23.543686 -1342.5723
-353.15854 -47.087791 -1342.5544
-353.15414 -70.630737 -1342.5897
-353.15414 -94.174339 -1342.5897
-353.15634 -117.7186 -1342.5721
-353.14755 -141.25896 -1342.6428
-353.1377 -164.79749 -1342.7222
-353.13879 -188.34062 -1342.7134
-353.14975 -211.88971 -1342.6251
-353.12451 -235.41623 -1342.8282
-353.15195 -258.97797 -1342.6074
-354.62045 -283.69626 -1330.7898
-330.0545 235.75323 -1338.7617
-329.52963 211.84055 -1343.2871
-329.58185 188.33253 -1342.8369
-329.59106 164.79553 -1342.7576
-329.60028 141.25737 -1342.6781
-329.60846 117.71743 -1342.6074
-329.59619 94.170441 -1342.7133
-329.6095 70.630692 -1342.5986
-329.60745 47.086876 -1342.6163
-329.59415 23.542492 -1342.7311
-329.60028 9.1781207e-05 -1342.6781
-329.61871 -23.544195 -1342.5192
-329.61871 -47.088299 -1342.519
-329.61459 -70.631729 -1342.5544
-329.60745 -94.173424 -1342.6163
-329.60132 -117.71468 -1342.6692
-329.59311 -141.25409 -1342.74
-329.58389 -164.7919 -1342.8193
-329.59415 -188.33946 -1342.731
-329.60336 -211.88776 -1342.6516
-329.58084 -235.41478 -1342.8458
-329.60132 -258.97232 -1342.6693
-330.95844 -283.67859 -1330.9678
-306.47919 235.75323 -1338.7617
-305.98706 211.8373 -1343.3313
-306.02032 188.32027 -1343.0223
-306.05548 164.79916 -1342.6957
-306.06689 141.2617 -1342.5898
-306.06024 117.71544 -1342.6515
-306.04599 94.168037 -1342.7839
-306.06787 70.631126 -1342.5809
-306.06406 47.086876 -1342.6163
-306.05457 23.542793 -1342.7046
-306.05933 8.9894085e-05 -1342.6604
-306.06976 -23.543835 -1342.5632
-306.07263 -47.088013 -1342.5369
-306.06882 -70.631287 -1342.5721
-306.05646 -94.171127 -1342.6868
-306.05933 -117.71502 -1342.6605
-306.0517 -141.25461 -1342.7311
-306.04599 -164.79393 -1342.7841
-306.04886 -188.33768 -1342.7574
-306.05835 -211.88644 -1342.6693
-306.03268 -235.40962 -1342.9076
-306.06595 -258.97885 -1342.5986
-307.26968 -283.63348 -1331.4218
-282.90472 235.754 -1338.7528
-282.44434 211.8333 -1343.3842
-282.46188 188.30792 -1343.2076
-282.50662 164.79553 -1342.7576
-282.53119 141.26566 -1342.5104
-282.5119 117.71332 -1342.7046
-282.49875 94.166245 -1342.837
-282.52505 70.631378 -1342.5721
-282.51981 47.086636 -1342.6251
-282.51453 23.542978 -1342.6781
-282.51804 8.8006964e-05 -1342.6428
-282.52155 -23.543306 -1342.6074
-282.52594 -47.087486 -1342.5634
-282.52332 -70.630737 -1342.5897
-282.50662 -94.168915 -1342.7574
-282.51276 -117.7136 -1342.6956
-282.51013 -141.25497 -1342.7222
-282.50839 -164.79649 -1342.7399
-282.51013 -188.34004 -1342.7222
-282.51276 -211.88449 -1342.6958
-282.48645 -235.40532 -1342.9606
-282.52856 -258.98447 -1342.5367
-283.58844 -283.58841 -1331.8755
-312.32721 -338.35449 -1042.7855
-310.33316 -362.0553 -1062.8442
-309.30197 -386.62735 -1073.2174
-308.6752 -411.56674 -1079.522
-259.32935 235.754 -1338.7528
-258.91052 211.83598 -1343.3489
-258.90811 188.29695 -1343.3752
-258.95798 164.7915 -1342.8282
-258.99417 141.26973 -1342.4309
-258.96362 117.71083 -1342.7665
-258.95557 94.165642 -1342.8546
-258.98129 70.631378 -1342.5721
-258.97485 47.086407 -1342.6427
-258.97006 23.542877 -1342.6958
-258.97086 7.2893243e-05 -1342.687
-258.97485 -23.543083 -1342.6427
-258.97888 -47.086979 -1342.5988
-258.97327 -70.62896 -1342.6605
-258.95877 -94.166733 -1342.8195
-258.96362 -117.71067 -1342.7664
-258.97006 -141.25621 -1342.6958
-258.97086 -164.79951 -1342.6869
-258.97165 -188.34286 -1342.6781
-258.96683 -211.88187 -1342.7311
-258.94107 -235.40089 -1343.0135
-258.98935 -258.98926 -1342.4838
-259.91635 -283.54495 -1332.3113
-284.3139 -336.00729 -1064.5798
-283.77774 -361.1716 -1070.4636
-283.42462 -386.48804 -1074.3386
-283.13583 -411.8338 -1077.5077
-235.36809 211.8313 -1343.4106
-235.36882 188.29517 -1343.4017
-235.41341 164.78957 -1342.8634
-235.44705 141.26828 -1342.4574
-235.42146 117.71083 -1342.7665
-235.41707 94.166893 -1342.8192
-235.44048 70.632309 -1342.5369
-235.43024 47.086147 -1342.6605
-235.42584 23.542711 -1342.7134
-235.42804 7.2893243e-05 -1342.687
-235.43097 -23.542946 -1342.6515
-235.43462 -47.086803 -1342.6074
-235.42731 -70.62809 -1342.6957
-235.41341 -94.165337 -1342.8634
-235.41853 -117.70919 -1342.8016
-235.42365 -141.25409 -1342.74
-235.42146 -164.79492 -1342.7664
-235.42291 -188.33826 -1342.7487
-235.43024 -211.88713 -1342.6604
-235.40756 -235.40752 -1342.934
-235.44778 -258.99255 -1342.4485
-236.27357 -283.52817 -1332.4803
-258.22501 -335.69238 -1067.5032
-258.15552 -361.4176 -1068.342
-258.12122 -387.18179 -1068.7559
-258.49185 -413.58682 -1064.282
-211.82471 211.82472 -1343.4989
-211.83061 188.29408 -1343.4196
-211.87074 164.78842 -1342.8811
-211.89775 141.26524 -1342.5192
-211.87932 117.71083 -1342.7665
-211.87997 94.168961 -1342.7577
-211.89578 70.632004 -1342.5457
-211.88524 47.085678 -1342.6869
-211.88261 23.542576 -1342.7222
-211.88655 6.8299632e-06 -1342.6693
-211.88788 -23.542946 -1342.6515
-211.89049 -47.086716 -1342.6162
-211.88194 -70.627258 -1342.7311
-211.86945 -94.164131 -1342.8987
-211.87404 -117.7077 -1342.837
-211.88261 -141.25497 -1342.7222
-211.87141 -164.78882 -1342.8723
-211.87274 -188.33122 -1342.8546
-211.88591 -211.88582 -1342.6781
-211.87404 -235.41556 -1342.8369
-211.90498 -258.99481 -1342.4221
-212.63895 -283.51852 -1332.578
-232.94063 -336.46976 -1060.2858
-233.34146 -362.97562 -1054.9094
-234.1481 -390.2468 -1044.0905
-188.28218 211.81747 -1343.5959
-188.29213 188.29231 -1343.446
-188.3278 164.78693 -1342.9077
-188.34946 141.26216 -1342.5809
-188.33775 117.7113 -1342.7576
-188.34184 94.171059 -1342.6958
-188.34886 70.63089 -1342.5898
-188.34068 47.085159 -1342.7134
-188.34419 23.543198 -1342.6604
-188.34769 3.2313117e-05 -1342.6075
-188.34477 -23.542946 -1342.6515
-188.34477 -47.086052 -1342.6516
-188.33717 -70.626373 -1342.7664
-188.32664 -94.163277 -1342.9252
-188.3325 -117.7077 -1342.837
-188.34184 -141.25621 -1342.6958
-188.32314 -164.78268 -1342.9781
-188.32607 -188.32597 -1342.9341
-188.34009 -211.88254 -1342.7223
-188.33891 -235.4236 -1342.7399
-188.36174 -258.99731 -1342.3955
-189.0065 -283.5097 -1332.667
-208.47302 -338.76868 -1038.9397
-209.52489 -366.66849 -1023.0682
-211.79536 -397.11627 -988.80939
-164.74179 211.81107 -1343.6842
-164.75357 188.28984 -1343.4812
-164.78325 164.7834 -1342.9695
-164.8027 141.25954 -1342.6339
-164.79553 117.7113 -1342.7576
-164.8027 94.173157 -1342.634
-164.80321 70.630066 -1342.6251
-164.79655 47.084816 -1342.74
-164.80475 23.543598 -1342.5986
-164.80833 6.4427688e-05 -1342.5367
-164.80219 -23.543083 -1342.6427
-164.79962 -47.085545 -1342.687
-164.79349 -70.62574 -1342.7928
-164.78377 -94.162003 -1342.9606
-164.79195 -117.70843 -1342.8192
-164.80014 -141.25725 -1342.6781
-164.78018 -164.78006 -1343.0225
-164.78273 -188.32309 -1342.9781
-164.79503 -211.87921 -1342.7665
-164.80219 -235.43164 -1342.6427
-164.81755 -258.99899 -1342.3778
-165.37502 -283.49991 -1332.7649
-184.53705 -342.71167 -1002.3271
-186.75162 -373.50317 -964.13837
-190.95224 -409.18329 -891.70142
-141.20551 211.80838 -1343.7194
-141.21646 188.28868 -1343.4989
-141.24147 164.78178 -1342.9958
-141.25858 141.25867 -1342.6517
-141.25287 117.71083 -1342.7665
-141.2621 94.174789 -1342.5811
-141.25682 70.628563 -1342.6869
-141.25156 47.083893 -1342.7928
-141.2621 23.543699 -1342.5809
-141.26517 0.00012671672 -1342.5192
-141.25815 -23.543016 -1342.6605
-141.25462 -47.084759 -1342.731
-141.24937 -70.624672 -1342.8369
-141.24147 -94.160851 -1342.9958
-141.25024 -117.70843 -1342.8192
-141.25682 -141.25673 -1342.6869
-141.23972 -164.77966 -1343.031
-141.24103 -188.32132 -1343.0046
-141.252 -211.87791 -1342.7839
-141.26122 -235.43523 -1342.5988
-141.27043 -258.9957 -1342.4132
-141.74692 -283.49377 -1332.8269
-161.95596 -350.90445 -926.25232
-161.50842 -376.85297 -935.25629
-161.58992 -403.97473 -933.61664
-163.09685 -434.9249 -903.29938
-117.67345 211.81238 -1343.6666
-117.68112 188.28984 -1343.4812
-117.70195 164.78278 -1342.9783
-117.71548 141.25867 -1342.6517
-117.71182 117.71201 -1342.7399
-117.72024 94.176346 -1342.5369
-117.71109 70.626709 -1342.7574
-117.7078 47.083321 -1342.837
-117.71658 23.543362 -1342.6251
-117.71914 4.7426842e-05 -1342.5634
-117.71475 -23.542881 -1342.6693
-117.71037 -47.084007 -1342.7751
-117.70598 -70.623482 -1342.8811
-117.70341 -94.162605 -1342.943
-117.7067 -117.70663 -1342.8635
-117.71255 -141.25497 -1342.7222
-117.69939 -164.77908 -1343.0399
-117.70122 -188.32188 -1342.9958
-117.71037 -211.87854 -1342.7751
-117.71731 -235.43459 -1342.6074
-117.72279 -258.99002 -1342.4751
-118.1217 -283.492 -1332.8447
-133.46919 -347.01974 -962.32361
-133.29079 -373.21399 -966.63062
-133.55527 -400.66571 -960.24524
-134.40608 -430.09933 -939.70502
-94.140221 211.81557 -1343.6223
-94.145477 188.29109 -1343.4635
-94.161568 164.78278 -1342.9783
-94.172386 141.25867 -1342.6517
-94.171509 117.71449 -1342.6781
-94.17765 94.177673 -1342.4926
-94.166252 70.624832 -1342.837
-94.165657 47.082935 -1342.8546
-94.172096 23.543198 -1342.6604
-94.173843 3.2313117e-05 -1342.6075
-94.171509 -23.54286 -1342.678
-94.166824 -47.08326 -1342.8193
-94.163322 -70.622406 -1342.9253
-94.165367 -94.165337 -1342.8634
-94.1642 -117.70522 -1342.8987
-94.168587 -141.25285 -1342.7665
-94.162437 -164.78418 -1342.9518
-94.161858 -188.32367 -1342.9694
-94.168877 -211.87991 -1342.7576
-94.173561 -235.43381 -1342.6163
-94.176483 -258.98529 -1342.528
-94.496765 -283.49017 -1332.8625
-105.53381 -342.9848 -999.79016
-105.14362 -368.00259 -1011.5654
-105.33616 -395.01053 -1005.7551
-106.62888 -426.51544 -966.74371
-70.606476 211.81947 -1343.5695
-70.60955 188.29231 -1343.446
-70.620735 164.78178 -1342.9958
-70.629288 141.25867 -1342.6517
-70.630165 117.71697 -1342.6163
-70.633675 94.178291 -1342.4751
-70.622711 70.622795 -1342.9165
-70.624023 47.082798 -1342.8635
-70.62841 23.542896 -1342.6869
-70.629723 0.00017107109 -1342.634
-70.62841 -23.542658 -1342.6869
-70.624245 -47.082752 -1342.8547
-70.621391 -70.621269 -1342.9695
-70.625778 -94.167694 -1342.7928
-70.624901 -117.70812 -1342.8281
-70.625565 -141.2511 -1342.8016
-70.624023 -164.78929 -1342.8634
-70.623589 -188.3295 -1342.8811
-70.626877 -211.88058 -1342.7488
-70.629951 -235.43307 -1342.6251
-70.631264 -258.98117 -1342.5723
-70.872353 -283.48938 -1332.8715
-78.22876 -338.99127 -1036.8723
-77.85907 -363.34229 -1051.7478
-77.701546 -388.5076 -1058.0862
-77.997162 -415.9848 -1046.1915
-47.072006 211.8241 -1343.5078
-47.073032 188.29231 -1343.446
-47.080051 164.78029 -1343.0225
-47.086048 141.25813 -1342.6604
-47.087803 117.71961 -1342.5544
-47.08868 94.177498 -1342.5016
-47.081074 70.62178 -1342.9606
-47.082535 47.082611 -1342.8723
-47.08532 23.542793 -1342.7046
-47.086338 8.8006964e-05 -1342.6428
-47.085461 -23.542637 -1342.6957
-47.082684 -47.082577 -1342.8634
-47.0821 -70.623154 -1342.8987
-47.085022 -94.169907 -1342.7222
-47.084438 -117.71104 -1342.7574
-47.083267 -141.24969 -1342.8281
-47.084145 -164.79446 -1342.7751
-47.083855 -188.33531 -1342.7928
-47.084587 -211.88058 -1342.7488
-47.086487 -235.43233 -1342.6339
-47.086632 -258.97647 -1342.6251
-47.248089 -283.48843 -1332.8804
-51.729778 -336.24344 -1062.3864
-51.46526 -360.25677 -1078.3514
-51.338013 -385.03491 -1086.0319
-51.375767 -411.00613 -1083.7526
-23.575613 235.75612 -1338.7263
-23.536224 211.8261 -1343.4813
-23.536808 188.29449 -1343.4106
-23.540245 164.78178 -1342.9958
-23.542877 141.25737 -1342.6781
-23.543827 117.71915 -1342.5632
-23.544121 94.176651 -1342.5281
-23.540392 70.621239 -1342.9783
-23.541267 47.082611 -1342.8723
-23.54266 23.542793 -1342.7046
-23.542877 9.1781207e-05 -1342.6781
-23.542439 -23.542349 -1342.7311
-23.54105 -47.082069 -1342.8988
-23.541267 -70.623726 -1342.8724
-23.542803 -94.171127 -1342.6868
-23.542439 -117.71211 -1342.731
-23.542072 -141.25238 -1342.7751
-23.542585 -164.79805 -1342.7134
-23.542364 -188.33888 -1342.7399
-23.542072 -211.87854 -1342.7751
-23.543097 -235.43091 -1342.6516
-23.543024 -258.97318 -1342.6605
-23.624044 -283.48843 -1332.8804
-25.661007 -333.59302 -1086.9969
-25.551994 -357.72784 -1100.156
-25.518097 -382.77127 -1104.2482
-25.561733 -408.98764 -1098.9806
1.7373967e-21 235.75612 -1338.7263
6.7236698e-22 211.82735 -1343.4636
1.0209578e-21 188.29749 -1343.3666
6.585638e-22 164.78485 -1342.943
1.4212284e-21 141.25505 -1342.7223
7.7039313e-22 117.71596 -1342.6427
1.0127025e-21 94.176346 -1342.5369
1.0160066e-21 70.621239 -1342.9783
4.9681627e-22 47.082611 -1342.8723
3.9538365e-22 23.542793 -1342.7046
1.3345137e-21 0.00014936218 -1342.7311
1.3680503e-21 -23.541988 -1342.7753
1.4131044e-21 -47.081383 -1342.9429
8.5713905e-22 -70.623726 -1342.8724
1.0750163e-21 -94.170822 -1342.6957
9.2711235e-22 -117.71211 -1342.731
1.3784066e-21 -141.25543 -1342.7134
1.4906802e-21 -164.79904 -1342.6958
8.9332457e-22 -188.34062 -1342.7134
9.8288121e-22 -211.87727 -1342.793
1.143807e-21 -235.42722 -1342.6957
1.3535441e-21 -258.97076 -1342.6869
4.8911527e-22 -283.48938 -1332.8715
9.0060784e-22 -330.59753 -1114.8116
1.6466256e-21 -354.7532 -1125.8042
-3.2071909e-22 -379.6864 -1129.0736
1.5408634e-21 -406.16159 -1120.3024
9.4884674e-22 -441.77167 -1047.698
23.575613 235.75612 -1338.7263
23.536516 211.82872 -1343.4459
23.537832 188.30275 -1343.287
23.541122 164.78796 -1342.89
23.542147 141.25296 -1342.7665
23.542585 117.71301 -1342.7135
23.543535 94.174301 -1342.5986
23.540831 70.622658 -1342.9253
23.541267 47.082611 -1342.8723
23.54273 23.542877 -1342.6958
23.542439 0.00014936218 -1342.7311
23.541634 -23.541544 -1342.8281
23.540831 -47.081543 -1342.9253
23.541489 -70.624313 -1342.8458
23.54273 -94.170822 -1342.6957
23.542439 -117.71211 -1342.731
23.543024 -141.25797 -1342.6604
23.542952 -164.80055 -1342.6693
23.542803 -188.34229 -1342.687
23.541998 -211.87791 -1342.7839
23.542439 -235.42433 -1342.7311
23.542585 -258.96835 -1342.7135
23.624191 -283.49017 -1332.8625
25.229267 -327.98035 -1139.1132
25.167351 -352.3429 -1146.5867
25.137714 -377.06573 -1150.1639
25.216253 -403.46002 -1140.6836
25.639999 -435.87979 -1089.5332
47.151226 235.75612 -1338.7263
47.073322 211.82997 -1343.4282
47.076981 188.30792 -1343.2076
47.082535 164.78883 -1342.8722
47.083561 141.25079 -1342.8105
47.083855 117.70975 -1342.7928
47.085461 94.171059 -1342.6958
47.082394 70.623604 -1342.8811
47.082684 47.082798 -1342.8635
47.085606 23.542896 -1342.6869
47.084877 0.00014936218 -1342.7311
47.082535 -23.541183 -1342.8723
47.082245 -47.082207 -1342.89
47.083561 -70.625298 -1342.8105
47.08532 -94.170448 -1342.7046
47.085754 -117.71425 -1342.6781
47.08707 -141.26118 -1342.5986
47.086338 -164.80212 -1342.6427
47.085903 -188.34351 -1342.6692
47.084293 -211.87921 -1342.7665
47.084293 -235.42134 -1342.7664
47.084728 -258.96594 -1342.7399
47.248825 -283.49286 -1332.8359
50.057259 -325.37216 -1163.3319
49.919106 -349.43375 -1171.6702
49.965675 -374.7424 -1168.8595
50.089516 -400.71597 -1161.3851
70.726845 235.75612 -1338.7263
70.610641 211.83203 -1343.4019
70.617439 188.31331 -1343.1282
70.623589 164.78842 -1342.8811
70.624466 141.24893 -1342.8458
70.624901 117.70828 -1342.8281
70.625778 94.16787 -1342.793
70.624901 70.624916 -1342.8281
70.624466 47.083015 -1342.8458
70.628632 23.542978 -1342.6781
70.627312 0.00014936218 -1342.7311
70.62249 -23.540737 -1342.9253
70.624023 -47.082577 -1342.8634
70.625999 -70.625824 -1342.7839
70.627975 -94.170448 -1342.7046
70.630165 -117.71692 -1342.6163
70.631927 -141.26376 -1342.5458
70.630608 -164.80467 -1342.5986
70.629074 -188.34413 -1342.6604
70.626877 -211.88058 -1342.7488
70.625336 -235.41776 -1342.8104
70.627098 -258.96594 -1342.7399
70.87368 -283.49463 -1332.8181
74.526436 -322.94778 -1185.8424
74.309891 -346.77939 -1194.5555
74.273964 -371.36966 -1196.0012
74.917397 -399.55927 -1170.1116
94.301865 235.75471 -1338.744
94.147232 211.8313 -1343.4106
94.156883 188.31378 -1343.1195
94.1642 164.78749 -1342.8987
94.16507 141.24763 -1342.8722
94.165657 117.70712 -1342.8547
94.166252 94.166245 -1342.837
94.167709 70.625847 -1342.7928
94.167122 47.08366 -1342.8104
94.170639 23.542793 -1342.7046
94.168877 0.00013236134 -1342.7576
94.163605 -23.540874 -1342.9165
94.166252 -47.083038 -1342.8369
94.168877 -70.626511 -1342.7576
94.171509 -94.171364 -1342.6781
94.172974 -117.71609 -1342.634
94.175606 -141.26337 -1342.5544
94.173843 -164.80409 -1342.6074
94.172676 -188.34529 -1342.6428
94.169456 -211.88116 -1342.74
94.166252 -235.41556 -1342.8369
94.167419 -258.9603 -1342.8018
94.497948 -283.49377 -1332.8269
98.69342 -320.75357 -1206.2174
98.351135 -344.22888 -1216.5469
98.403801 -369.01419 -1214.9572
98.882072 -395.52817 -1200.5245
117.87587 235.75174 -1338.7795
117.68259 211.82872 -1343.4459
117.69354 188.30969 -1343.1812
117.70415 164.78593 -1342.9253
117.70561 141.24678 -1342.89
117.70598 117.70604 -1342.8811
117.70817 94.166718 -1342.8282
117.71037 70.626328 -1342.775
117.70963 47.083893 -1342.7928
117.71109 23.542307 -1342.7576
117.7089 3.4183486e-05 -1342.8105
117.70634 -23.541183 -1342.8723
117.70853 -47.08326 -1342.8193
117.71182 -70.6269 -1342.7399
117.71439 -94.171364 -1342.6781
117.71292 -117.71288 -1342.7134
117.71621 -141.25948 -1342.6339
117.71512 -164.80107 -1342.6604
117.71584 -188.34529 -1342.6428
117.71182 -211.88116 -1342.74
117.70744 -235.41478 -1342.8458
117.70488 -258.95071 -1342.9076
118.1217 -283.492 -1332.8447
122.69688 -319.01175 -1222.3901
122.02322 -341.66489 -1238.6537
122.28311 -366.84921 -1232.3794
123.09626 -393.90802 -1212.748
141.44885 235.74817 -1338.8237
141.21777 211.82666 -1343.4723
141.22919 188.30574 -1343.2429
141.24498 164.78593 -1342.9253
141.24585 141.24585 -1342.9076
141.24629 117.70528 -1342.8988
141.25024 94.166893 -1342.8192
141.25375 70.627014 -1342.7487
141.25244 47.084202 -1342.775
141.25067 23.54199 -1342.8105
141.24805 9.1764457e-05 -1342.8635
141.25024 -23.541744 -1342.8192
141.25113 -47.083702 -1342.8016
141.25551 -70.627647 -1342.7134
141.25682 -94.171127 -1342.6868
141.252 -117.70997 -1342.7839
141.25507 -141.25497 -1342.7222
141.25815 -164.80107 -1342.6604
141.25945 -188.34586 -1342.6339
141.25462 -211.88187 -1342.7311
141.25024 -235.41704 -1342.8193
141.2419 -258.94339 -1342.9871
141.74471 -283.48938 -1332.8715
146.82408 -318.11868 -1230.6825
145.37549 -339.20944 -1259.8258
145.46059 -363.6514 -1258.1136
147.42003 -393.12003 -1218.6927
165.02161 235.74522 -1338.8591
164.75203 211.8241 -1343.5078
164.76381 188.30167 -1343.3048
164.7858 164.78593 -1342.9253
164.7858 141.24513 -1342.9253
164.78683 117.70498 -1342.9076
164.79349 94.16787 -1342.793
164.79707 70.627396 -1342.7311
164.79553 47.084587 -1342.7574
164.79092 23.541689 -1342.837
164.78938 9.1764457e-05 -1342.8635
164.79451 -23.541988 -1342.7753
164.79451 -47.084007 -1342.7751
164.79912 -70.62809 -1342.6957
164.79962 -94.171127 -1342.6868
164.79401 -117.70997 -1342.7839
164.79297 -141.2511 -1342.8016
164.80168 -164.80161 -1342.6516
164.8027 -188.34586 -1342.6339
164.79758 -211.88254 -1342.7223
164.79349 -235.41919 -1342.7927
164.77812 -258.93701 -1343.0576
165.36678 -283.48581 -1332.907
171.47913 -318.46121 -1227.5031
170.25792 -340.51578 -1248.562
169.30972 -362.80649 -1264.913
172.35045 -393.94376 -1212.4779
188.59377 235.74225 -1338.8945
188.28629 211.82216 -1343.5343
188.29973 188.29988 -1343.3313
188.32664 164.78593 -1342.9253
188.32547 141.2442 -1342.9429
188.32664 117.70426 -1342.9252
188.33717 94.168709 -1342.7665
188.34128 70.628021 -1342.7046
188.33835 47.084671 -1342.7487
188.33365 23.541906 -1342.8193
188.33365 0.00010687819 -1342.8193
188.33951 -23.542349 -1342.7311
188.34009 -47.084999 -1342.7223
188.34128 -70.627953 -1342.7045
188.34184 -94.170822 -1342.6957
188.33542 -117.7096 -1342.7928
188.33131 -141.24835 -1342.8546
188.34477 -164.80161 -1342.6516
188.34595 -188.34586 -1342.6339
188.34128 -211.8838 -1342.7046
188.33717 -235.42134 -1342.7664
188.31319 -258.93051 -1343.1283
188.98883 -283.48318 -1332.9337
197.28215 -320.58347 -1207.797
196.47086 -343.82394 -1220.0382
195.52046 -366.6008 -1234.3785
212.13962 235.71075 -1339.275
211.82008 211.8201 -1343.5607
211.83852 188.30103 -1343.3136
211.86813 164.78635 -1342.9164
211.86353 141.24251 -1342.9783
211.87207 117.70682 -1342.8635
211.87997 94.168961 -1342.7577
211.88524 70.628563 -1342.6869
211.88129 47.084816 -1342.74
211.87537 23.541906 -1342.8193
211.87537 0.00010687819 -1342.8193
211.88194 -23.542349 -1342.7311
211.88261 -47.084999 -1342.7223
211.88261 -70.627563 -1342.7222
211.88327 -94.170143 -1342.7135
211.87604 -117.70877 -1342.8105
211.87207 -141.24788 -1342.8635
211.88524 -164.79951 -1342.6869
211.88721 -188.34413 -1342.6604
211.88458 -211.88449 -1342.6958
211.87997 -235.42209 -1342.7576
211.85497 -258.93375 -1343.0929
212.61774 -283.49017 -1332.8625
224.72922 -324.60892 -1170.4193
235.67036 235.67052 -1339.7617
235.35713 211.82141 -1343.543
235.38271 188.30614 -1343.2341
235.40976 164.78693 -1342.9077
235.40025 141.24025 -1343.0225
235.42146 117.71083 -1342.7665
235.42365 94.169441 -1342.7399
235.42511 70.62764 -1342.7222
235.42365 47.084816 -1342.74
235.4178 23.54199 -1342.8105
235.4156 0.00010876531 -1342.8369
235.42291 -23.542128 -1342.7488
235.42584 -47.085018 -1342.7135
235.42511 -70.627563 -1342.7222
235.42365 -94.169464 -1342.7399
235.4156 -117.7077 -1342.837
235.42 -141.25186 -1342.7841
235.42511 -164.79749 -1342.7222
235.42657 -188.3412 -1342.7046
235.42291 -211.88058 -1342.7488
235.42146 -235.42134 -1342.7664
235.40099 -258.94098 -1343.0134
236.25002 -283.49991 -1332.7649
259.19308 235.63017 -1340.2482
258.89444 211.82278 -1343.5254
258.93304 188.31509 -1343.1017
258.95154 164.78749 -1342.8987
258.93707 141.23849 -1343.0576
258.97244 117.71473 -1342.6692
258.97568 94.173157 -1342.634
258.9628 70.626328 -1342.775
258.96603 47.084816 -1342.74
258.96362 23.542173 -1342.7664
258.96118 0.00012387903 -1342.7927
258.96362 -23.542126 -1342.7664
258.97327 -47.086033 -1342.6603
258.97327 -70.62896 -1342.6605
258.96362 -94.168549 -1342.7665
258.95959 -117.70877 -1342.8105
258.96924 -141.25591 -1342.7046
258.96362 -164.79492 -1342.7664
258.96442 -188.33768 -1342.7574
258.95877 -211.87521 -1342.8193
258.9628 -235.42061 -1342.7751
258.94751 -258.94742 -1342.943
259.88312 -283.50873 -1332.6759
282.70773 235.58987 -1340.7345
282.43204 211.8241 -1343.5078
282.48557 188.32382 -1342.9694
282.48907 164.78542 -1342.9341
282.47241 141.23633 -1343.1018
282.52332 117.71814 -1342.5897
282.53119 94.177193 -1342.5104
282.4996 70.624916 -1342.8281
282.50751 47.084671 -1342.7487
282.51013 23.542576 -1342.7222
282.50839 6.629806e-05 -1342.7399
282.504 -23.541904 -1342.7841
282.52155 -47.086803 -1342.6074
282.52155 -70.630295 -1342.6074
282.50226 -94.167343 -1342.8016
282.50925 -117.71211 -1342.731
282.51981 -141.25984 -1342.625
282.50574 -164.79492 -1342.7664
282.4996 -188.33307 -1342.8281
282.49435 -211.87068 -1342.8811
282.50751 -235.42287 -1342.7487
282.49875 -258.95706 -1342.8369
283.51682 -283.51669 -1332.5958
306.2515 235.57822 -1340.876
305.96997 211.82547 -1343.4901
306.03363 188.32854 -1342.8988
306.03079 164.78593 -1342.9253
306.01178 141.23633 -1343.1018
306.06882 117.7189 -1342.572
306.08118 94.178833 -1342.4574
306.03934 70.624535 -1342.8458
306.04788 47.084347 -1342.7664
306.05548 23.542877 -1342.6958
306.05264 0.0001285871 -1342.7223
306.04504 -23.541832 -1342.7927
306.06787 -47.08733 -1342.5809
306.06689 -70.630737 -1342.5897
306.04504 -94.167694 -1342.7928
306.0574 -117.71425 -1342.6781
306.06976 -141.26283 -1342.5632
306.05457 -164.79852 -1342.7046
306.03839 -188.33122 -1342.8546
306.03174 -211.8681 -1342.9164
306.05264 -235.42502 -1342.7223
306.05075 -258.96594 -1342.7399
307.14801 -283.52115 -1332.5514
329.87799 235.62721 -1340.2836
329.50815 211.82666 -1343.4723
329.56854 188.32491 -1342.9518
329.58493 164.79259 -1342.8105
329.55829 141.23935 -1343.0399
329.61053 117.71814 -1342.5897
329.61563 94.176041 -1342.5457
329.58801 70.626152 -1342.7841
329.59415 47.085056 -1342.7311
329.59311 23.542473 -1342.74
329.59106 0.00013236134 -1342.7576
329.58084 -23.541323 -1342.8458
329.60437 -47.086292 -1342.6428
329.60437 -70.629402 -1342.6428
329.58289 -94.166428 -1342.8282
329.60132 -117.71468 -1342.6692
329.61459 -141.26337 -1342.5544
329.60132 -164.80055 -1342.6693
329.58594 -188.33473 -1342.8018
329.57877 -211.87201 -1342.8634
329.59515 -235.42502 -1342.7223
329.59515 -258.96756 -1342.7222
330.77478 -283.52115 -1332.5514
353.51547 235.67714 -1339.6821
353.04773 211.82872 -1343.4459
353.1015 188.32095 -1343.0135
353.1355 164.79663 -1342.7399
353.10696 141.24297 -1342.9694
353.15085 117.71697 -1342.6163
353.14975 94.173454 -1342.6251
353.1366 70.627396 -1342.7311
353.13879 47.085159 -1342.7134
353.1311 23.542154 -1342.7753
353.12781 0.00011724761 -1342.8018
353.11575 -23.540941 -1342.8987
353.13989 -47.08522 -1342.7046
353.13989 -70.627953 -1342.7045
353.12125 -94.165642 -1342.8546
353.14316 -117.71425 -1342.6781
353.15854 -141.26337 -1342.5544
353.15634 -164.80624 -1342.572
353.1366 -188.33946 -1342.731
353.12671 -211.87596 -1342.8104
353.13989 -235.42659 -1342.7045
353.14099 -258.96991 -1342.6957
354.39932 -283.51938 -1332.5692
377.1629 235.72685 -1339.0804
376.58777 211.83067 -1343.4196
376.63574 188.31796 -1343.0576
376.68723 164.80078 -1342.6692
376.6568 141.24637 -1342.8988
376.6907 117.71596 -1342.6427
376.68484 94.171234 -1342.6868
376.68018 70.62764 -1342.7222
376.68256 47.085461 -1342.7046
376.67435 23.542173 -1342.7664
376.66382 8.9877336e-05 -1342.8458
376.64975 -23.540495 -1342.9517
376.67551 -47.084335 -1342.7576
376.6767 -70.626816 -1342.7488
376.65915 -94.164673 -1342.8811
376.68256 -117.71318 -1342.7046
376.70358 -141.26376 -1342.5458
376.71179 -164.81129 -1342.4839
376.69189 -188.34586 -1342.6339
376.67316 -211.87854 -1342.7751
376.68484 -235.42802 -1342.6869
376.68723 -258.97232 -1342.6693
378.02243 -283.51669 -1332.5958
400.13318 211.83536 -1343.3578
400.17545 188.31796 -1343.0576
400.23016 164.80078 -1342.6692
400.21152 141.25125 -1342.8016
400.23511 117.71626 -1342.6339
400.22641 94.171059 -1342.6958
400.22147 70.627396 -1342.7311
400.22891 47.085865 -1342.678
400.21896 23.542391 -1342.7488
400.21896 4.7410089e-05 -1342.7488
400.20529 -23.541323 -1342.8458
400.23138 -47.086033 -1342.6603
400.22769 -70.628395 -1342.6869
400.20776 -94.166428 -1342.8282
400.23264 -117.71539 -1342.6515
400.25006 -141.2646 -1342.5278
400.25751 -164.81181 -1342.4751
400.23511 -188.34586 -1342.6339
400.22021 -211.88116 -1342.74
400.23138 -235.43007 -1342.6604
400.23639 -258.97647 -1342.6251
401.70267 -283.55475 -1332.2134
423.68231 211.84117 -1343.2782
423.71387 188.3174 -1343.0665
423.76782 164.79871 -1342.7046
423.76917 141.25644 -1342.6957
423.78363 117.71774 -1342.5986
423.77838 94.173157 -1342.634
423.76123 70.627014 -1342.7487
423.77441 47.086147 -1342.6605
423.76917 23.542877 -1342.6958
423.78497 0.00012200866 -1342.5897
423.77838 -23.543169 -1342.6339
423.78232 -47.086803 -1342.6074
423.77048 -70.628395 -1342.6869
423.76782 -94.170448 -1342.7046
423.79285 -117.72019 -1342.5369
423.79156 -141.26376 -1342.5458
423.79156 -164.80769 -1342.5457
423.76917 -188.34171 -1342.6958
423.77182 -211.88582 -1342.6781
423.78098 -235.43381 -1342.6163
423.78757 -258.98117 -1342.5723
425.37866 -283.58569 -1331.9022
447.23407 211.84773 -1343.1899
447.25214 188.31671 -1343.0753
447.30634 164.79721 -1342.7311
447.32996 141.26216 -1342.5809
447.33551 117.71998 -1342.5457
447.33829 94.176651 -1342.5281
447.29941 70.626328 -1342.775
447.32025 47.086407 -1342.6427
447.32581 23.543463 -1342.6074
447.34106 8.1428538e-05 -1342.5103
447.35498 -23.545002 -1342.4221
447.31744 -47.086033 -1342.6603
447.30493 -70.6269 -1342.7399
447.32996 -94.17469 -1342.5809
447.33414 -117.71943 -1342.5544
447.33276 -141.26283 -1342.5632
447.32718 -164.80467 -1342.5986
447.32025 -188.34529 -1342.6428
447.32437 -211.8904 -1342.6163
447.33133 -235.43748 -1342.5721
447.33969 -258.98602 -1342.5192
449.03043 -283.59808 -1331.7777
470.78879 211.85506 -1343.093
470.7771 188.31091 -1343.1636
470.85608 164.7997 -1342.687
470.88239 141.26472 -1342.528
470.88824 117.72216 -1342.4927
470.89996 94.180084 -1342.422
470.85022 70.62764 -1342.7222
470.8707 47.087158 -1342.5988
470.86777 23.543381 -1342.6162
470.88531 8.1428538e-05 -1342.5103
470.9014 -23.544867 -1342.4132
470.85901 -47.085831 -1342.6692
470.84436 -70.626511 -1342.7576
470.88385 -94.176697 -1342.5192
470.88531 -117.72126 -1342.5104
470.88239 -141.2646 -1342.5278
470.87656 -164.80676 -1342.5634
470.86047 -188.34413 -1342.6604
470.8663 -211.88971 -1342.6251
470.88095 -235.44043 -1342.5367
470.89117 -258.99002 -1342.4751
472.73581 -283.64148 -1331.3417
494.34821 211.86362 -1342.9783
494.29449 188.30275 -1343.287
494.3989 164.7997 -1342.687
494.4296 141.26566 -1342.5104
494.43884 117.72369 -1342.4574
494.46341 94.183578 -1342.3162
494.41272 70.630508 -1342.6074
494.4296 47.088612 -1342.5103
494.40811 23.543278 -1342.6339
494.41425 0.00016729685 -1342.5988
494.42499 -23.543974 -1342.5367
494.40045 -47.085682 -1342.6782
494.39273 -70.627563 -1342.7222
494.45877 -94.182541 -1342.3425
494.45264 -117.72675 -1342.3778
494.44037 -141.26857 -1342.4485
494.43884 -164.81287 -1342.4574
494.41116 -188.34702 -1342.6163
494.39737 -211.88449 -1342.6958
494.43729 -235.44621 -1342.4662
494.44342 -258.99408 -1342.4308
496.48254 -283.70422 -1330.7097
518.69739 235.77158 -1338.5405
517.91595 211.87474 -1342.8281
517.90948 188.33076 -1342.8634
517.961 164.80582 -1342.5811
517.99475 141.2713 -1342.3955
517.96259 117.7189 -1342.572
518.00122 94.182175 -1342.3602
517.961 70.631126 -1342.5809
517.99323 47.090397 -1342.4043
517.97229 23.544321 -1342.519
517.98993 2.0073319e-05 -1342.422
518.00928 -23.545673 -1342.3162
517.97546 -47.088676 -1342.5015
517.96259 -70.631287 -1342.5721
518.02539 -94.186417 -1342.2279
518.02051 -117.73192 -1342.2542
517.98035 -141.26723 -1342.4751
518.01569 -164.82315 -1342.2808
517.98676 -188.35866 -1342.4398
517.95459 -211.8904 -1342.6163
517.961 -235.43675 -1342.5809
518.03986 -259.01981 -1342.1483
520.19275 -283.74146 -1330.3357
542.26276 235.76653 -1338.6024
541.47272 211.88075 -1342.7488
541.5484 188.36485 -1342.3514
541.56189 164.82336 -1342.2808
541.57874 141.28145 -1342.1925
541.53333 117.72471 -1342.431
541.53662 94.180382 -1342.4132
541.56696 70.639267 -1342.2542
541.5686 47.09301 -1342.2454
541.53162 23.544952 -1342.4398
541.55347 4.178223e-05 -1342.325
541.58209 -23.546917 -1342.1747
541.56018 -47.092216 -1342.2896
541.55176 -70.637115 -1342.3336
541.6073 -94.192513 -1342.0424
541.57031 -117.73268 -1342.2366
541.52991 -141.26857 -1342.4485
541.57367 -164.82669 -1342.2189
541.58545 -188.3775 -1342.1571
541.55853 -211.91412 -1342.2983
541.52655 -235.44621 -1342.4662
541.68475 -259.06653 -1341.636
543.85822 -283.75204 -1330.2288
565.28723 423.96539 -1341.3796
565.28723 400.4118 -1341.3798
565.28723 376.85825 -1341.3798
565.28723 353.30457 -1341.3798
565.28723 329.75101 -1341.3798
565.28723 306.19727 -1341.3796
565.28723 282.64371 -1341.3796
565.28723 259.09012 -1341.3796
565.10803 211.9156 -1342.2806
565.20459 188.40164 -1341.7949
565.2749 164.8719 -1341.4417
565.25909 141.31493 -1341.5211
565.20288 117.75065 -1341.8038
565.24152 94.207069 -1341.6095
565.22223 70.652924 -1341.7067
565.12213 47.093613 -1342.2102
565.12915 23.547152 -1342.1748
565.14142 -5.3763288e-06 -1342.1129
565.13794 -23.547277 -1342.1306
565.16248 -47.096813 -1342.007
565.18359 -70.647888 -1341.901
565.1994 -94.199875 -1341.8214
565.19757 -117.74937 -1341.8303
565.1853 -141.29626 -1341.8922
565.15723 -164.83743 -1342.0336
565.17474 -188.39146 -1341.9452
565.20111 -211.95032 -1341.8126
565.1994 -235.49973 -1341.8214
565.42603 -259.1535 -1340.6815
568.09271 -284.0463 -1327.2692
