# .PCD v0.7 - Point Cloud Data file format
VERSION 0.7
FIELDS x y z
SIZE 4 4 4
TYPE F F F
COUNT 1 1 1
WIDTH 1501
HEIGHT 1
VIEWPOINT 0 0 0 1 0 0 0
POINTS 1501
DATA ascii
-1184.7323 303.07108 -858.74475
-1181.3566 274.73422 -868.22113
-1181.2709 247.24281 -868.46161
-1181.3865 219.79285 -868.13696
-1181.4594 192.33064 -867.93256
-1181.2751 164.82927 -868.44958
-1181.3907 137.37115 -868.125
-1181.3822 109.89611 -868.14899
-1181.3094 82.416939 -868.35327
-1181.425 54.950047 -868.02875
-1181.3779 27.473986 -868.16113
-1181.3265 1.9131699e-05 -868.30524
-1181.3522 -27.473274 -868.23309
-1181.3522 -54.946503 -868.23309
-1181.3265 -82.418007 -868.30542
-1181.3436 -109.8924 -868.25714
-1181.2581 -137.35545 -868.49768
-1181.1082 -164.80566 -868.91827
-1181.2494 -192.29633 -868.52167
-1181.8063 -219.87094 -866.95831
-1148.7112 300.85309 -883.08575
-1146.2291 272.9118 -890.21912
-1146.2374 245.62238 -890.19537
-1146.2291 218.32948 -890.21912
-1146.3076 191.05136 -889.99365
-1146.2333 163.74777 -890.20721
-1146.2787 136.46185 -890.0766
-1146.2457 109.16631 -890.17151
-1146.2002 81.871658 -890.30225
-1146.2787 54.584736 -890.07666
-1146.2539 27.291842 -890.14777
-1146.2085 -2.1833643e-05 -890.27832
-1146.2457 -27.29138 -890.17163
-1146.3035 -54.585815 -890.00531
-1146.3407 -81.881447 -889.89862
-1146.225 -109.16422 -890.23096
-1146.1879 -136.45094 -890.33765
-1145.7753 -163.68211 -891.52338
-1146.1301 -191.02153 -890.50385
-1146.8982 -218.45667 -888.29602
-1113.4528 298.73132 -906.36835
-1111.6045 271.1232 -911.81
-1111.6205 244.0144 -911.76318
-1111.6283 216.90324 -911.73981
-1111.6682 189.79721 -911.62268
-1111.5966 162.67279 -911.83344
-1111.6283 135.56454 -911.73969
-1111.6205 108.45091 -911.76331
-1111.5927 81.336189 -911.84509
-1111.6881 54.228706 -911.56403
-1111.6482 27.11351 -911.68121
-1111.6006 0.00014222582 -911.82178
-1111.6045 -27.112246 -911.81
-1111.6562 -54.227058 -911.65765
-1111.6721 -81.341713 -911.61102
-1111.5886 -108.4475 -911.85687
-1111.5449 -135.5542 -911.98566
-1111.4574 -162.65221 -912.24323
-1111.4653 -189.76228 -912.21967
-1112.4722 -217.06776 -909.25549
-1078.7382 296.65314 -929.17432
-1077.4882 269.37222 -932.94647
-1077.4921 242.43587 -932.93481
-1077.5342 215.5069 -932.80774
-1077.5955 188.57935 -932.62274
-1077.5112 161.62683 -932.87708
-1077.4768 134.68478 -932.98108
-1077.4882 107.74888 -932.94641
-1077.5188 80.813995 -932.854
-1077.4806 53.874043 -932.96948
-1077.4844 26.937096 -932.95782
-1077.4729 -2.7160002e-05 -932.99255
-1077.5035 -26.937534 -932.90027
-1077.5419 -53.876972 -932.78467
-1077.5342 -80.815041 -932.80768
-1077.45 -107.7448 -933.06207
-1077.4575 -134.68219 -933.03888
-1077.3695 -161.60521 -933.30475
-1077.3427 -188.53484 -933.38556
-1139.6469 -227.92931 -745.36621
-1044.6583 294.64731 -951.18524
-1043.8761 267.66068 -953.60614
-1043.8761 240.89452 -953.6062
-1043.9241 214.13837 -953.45776
-1043.972 187.37962 -953.30939
-1043.9056 160.601 -953.51495
-1043.8577 133.82803 -953.66327
-1043.8724 107.06393 -953.61755
-1043.9203 80.301636 -953.4693
-1043.854 53.531071 -953.67462
-1043.8577 26.765661 -953.66327
-1043.8613 8.9439964e-05 -953.65198
-1043.8909 -26.766327 -953.56042
-1043.9498 -53.535812 -953.37805
-1043.9351 -80.302559 -953.42358
-1043.8135 -107.05764 -953.80005
-1043.843 -133.82594 -953.70898
-1043.7692 -160.5797 -953.93713
-1043.5997 -187.31256 -954.46179
-1026.3022 324.09555 -924.40607
-1011.1533 292.70239 -972.52844
-1010.7382 265.9837 -973.84729
-1010.7097 239.37869 -973.9375
-1010.7523 212.79005 -973.80225
-1010.7842 186.19722 -973.70074
-1010.7559 159.59311 -973.79089
-1010.7275 132.99059 -973.8811
-1010.7452 106.39429 -973.82471
-1010.8019 79.800217 -973.64447
-1010.731 53.196423 -973.86993
-1010.7346 26.598387 -973.85858
-1010.731 7.0172631e-05 -973.86969
-1010.7346 -26.598251 -973.85858
-1010.8268 -53.201237 -973.56561
-1010.8268 -79.802101 -973.56549
-1010.6778 -106.38708 -974.039
-1010.6459 -132.97961 -974.14032
-1010.6813 -159.58116 -974.02759
-1010.2807 -186.10428 -975.30029
-989.73224 320.99432 -955.60181
-978.12531 290.79419 -993.46918
-977.94794 264.3103 -994.04785
-977.95471 237.88092 -994.02563
-978.00592 211.46083 -993.85864
-978.02631 185.03215 -993.79187
-977.99567 158.59398 -993.89209
-977.9718 132.15842 -993.96997
-978.01617 105.7315 -993.82538
-978.06726 79.302765 -993.65833
-977.99567 52.864826 -993.89209
-977.99567 26.432302 -993.89209
-977.99567 5.5765304e-05 -993.89209
-977.93768 -26.430695 -994.0813
-978.01947 -52.865902 -993.81415
-978.05023 -79.301201 -993.71405
-977.9411 -105.72325 -994.07001
-977.87286 -132.14482 -994.29266
-977.89331 -158.57727 -994.22595
-977.43658 -184.92038 -995.71594
-979.18756 -211.71613 -990.00372
-954.49957 318.1666 -984.04675
-945.60712 288.93552 -1013.864
-945.44653 262.62411 -1014.4023
-945.61035 236.40262 -1013.8529
-945.62341 210.13858 -1013.809
-945.60712 183.86809 -1013.864
-945.59723 157.59961 -1013.8969
-945.60376 131.33392 -1013.8749
-945.63 105.07003 -1013.787
-945.67255 78.806168 -1013.6441
-945.63324 52.535229 -1013.776
-945.61035 26.267015 -1013.8529
-945.61035 0.00013714556 -1013.8529
-945.49896 -26.263752 -1014.2264
-945.52844 -52.529209 -1014.1276
-945.49896 -78.791435 -1014.2266
-945.57098 -105.06341 -1013.9846
-945.52185 -131.32242 -1014.1497
-945.34161 -157.55692 -1014.7537
-945.08954 -183.76733 -1015.5994
-946.13507 -210.25217 -1012.0936
-920.27472 315.52286 -1010.6409
-913.53961 287.11255 -1033.8695
-913.53644 261.01053 -1033.8802
-913.66864 234.94344 -1033.4246
-913.53644 208.80849 -1033.8802
-913.53644 182.70747 -1033.8804
-913.59937 156.61713 -1033.6633
-913.65283 130.52194 -1033.4788
-913.67487 104.42003 -1033.4028
-913.68121 78.315681 -1033.3811
-913.67804 52.210251 -1033.3918
-913.64661 26.104286 -1033.5005
-913.63715 6.3555897e-05 -1033.533
-913.53961 -26.100996 -1033.8695
-913.4295 -52.195835 -1034.2493
-913.36346 -78.288147 -1034.4771
-913.59937 -104.4112 -1033.6633
-913.56793 -130.5096 -1033.7719
-913.24084 -156.55539 -1034.9001
-913.14014 -182.62787 -1035.2471
-913.9079 -208.89319 -1032.5994
-887.50262 313.23633 -1033.6416
-881.81689 285.29379 -1053.8278
-881.94971 259.39709 -1053.3563
-882.03729 233.48047 -1053.0454
-881.92554 207.51198 -1053.4419
-881.93768 181.57545 -1053.399
-881.98291 155.64407 -1053.2383
-882.03424 129.71101 -1053.0562
-882.05237 103.77103 -1052.9918
-882.04938 77.827911 -1053.0026
-882.04327 51.884884 -1053.0239
-882.01312 25.941616 -1053.1311
-882.01013 6.9318834e-05 -1053.142
-881.91351 -25.938469 -1053.4849
-881.81995 -51.871704 -1053.817
-881.75055 -77.801453 -1054.0635
-881.98291 -103.76261 -1053.2383
-881.95575 -129.69926 -1053.3348
-881.66003 -155.58694 -1054.3849
-881.59662 -181.50513 -1054.6097
-881.95575 -207.51895 -1053.3348
-855.46545 311.07846 -1055.3484
-850.60645 283.53555 -1073.1219
-850.7077 257.79034 -1072.7516
-850.75684 232.02469 -1072.5715
-850.7511 206.24281 -1072.5928
-850.77423 180.46739 -1072.5083
-850.73663 154.6794 -1072.6458
-850.75977 128.90314 -1072.5612
-850.77716 103.12461 -1072.4976
-850.76556 77.342461 -1072.5399
-850.74823 51.560577 -1072.6035
-850.7337 25.779852 -1072.6562
-850.73663 0.00016938643 -1072.6459
-850.63538 -25.776827 -1073.0162
-850.64691 -51.554226 -1072.974
-850.58612 -77.325951 -1073.1962
-850.71924 -103.11736 -1072.7092
-850.69031 -128.89238 -1072.8152
-850.48785 -154.63397 -1073.5559
-850.45312 -180.39911 -1073.6827
-850.57751 -206.2005 -1073.228
-823.84418 308.94168 -1076.8428
-819.77551 281.79788 -1092.1906
-819.84753 256.20239 -1091.9186
-819.8642 230.58685 -1091.8561
-819.93903 204.98488 -1091.5736
-819.91132 179.35568 -1091.6781
-819.87805 153.72726 -1091.8036
-819.87244 128.10513 -1091.8246
-819.8808 102.48524 -1091.7932
-819.86969 76.862976 -1091.8351
-819.84473 51.240364 -1091.9292
-819.8642 25.62081 -1091.8561
-819.86694 -6.6528155e-06 -1091.8455
-819.80322 -25.618776 -1092.0858
-819.85315 -51.240715 -1091.8978
-819.80048 -76.856232 -1092.0964
-819.84473 -102.48049 -1091.9292
-819.81152 -128.0954 -1092.0546
-819.73114 -153.69942 -1092.3578
-819.68964 -179.30707 -1092.5144
-819.77826 -204.94443 -1092.1801
-821.32678 397.41635 -986.3963
-817.1673 369.04343 -1002.5928
-792.71857 306.85883 -1097.7937
-789.33875 280.08795 -1110.9543
-789.39178 254.64253 -1110.7478
-789.38641 229.1768 -1110.7684
-789.46075 203.7318 -1110.4792
-789.43689 178.26004 -1110.5723
-789.40503 152.78825 -1110.6962
-789.39978 127.32257 -1110.7168
-789.39441 101.85744 -1110.7374
-789.38385 76.392059 -1110.7787
-789.36261 50.926723 -1110.8615
-789.39709 25.464582 -1110.7272
-789.39978 0.0001667702 -1110.7168
-789.36792 -25.463371 -1110.8408
-789.41559 -50.929886 -1110.6549
-789.39178 -76.392609 -1110.7478
-789.37848 -101.85519 -1110.7993
-789.34399 -127.31347 -1110.9337
-789.30957 -152.76953 -1111.068
-789.26978 -178.22205 -1111.2228
-789.34131 -203.70082 -1110.9441
-794.09387 397.04703 -989.36761
-792.86438 370.00351 -994.31482
-797.49774 345.58237 -975.67181
-761.99957 304.7999 -1118.5051
-759.28687 278.40533 -1129.4204
-759.32739 253.1093 -1129.2572
-759.3147 227.79448 -1129.3081
-759.38318 202.50224 -1129.0326
-759.34265 177.18011 -1129.1959
-759.31219 151.86253 -1129.3185
-759.32996 126.55502 -1129.2469
-759.30969 101.24144 -1129.3286
-759.2995 75.930153 -1129.3694
-759.30713 50.620575 -1129.3389
-759.32233 25.310776 -1129.2777
-759.32233 5.6250778e-05 -1129.2776
-759.28687 -25.309538 -1129.4205
-759.32489 -50.621674 -1129.2673
-759.35535 -75.935493 -1129.1449
-759.30713 -101.24078 -1129.3389
-759.27667 -126.546 -1129.4613
-759.21844 -151.84354 -1129.6958
-759.19049 -177.1443 -1129.8081
-759.26398 -202.47038 -1129.5122
-778.14209 429.31992 -945.58716
-768.19293 397.34125 -986.99994
-768.32446 370.91547 -986.45221
-770.6955 345.48434 -976.58331
-731.68036 302.76434 -1138.9811
-729.59149 276.74173 -1147.6759
-729.62299 251.59416 -1147.5449
-729.60114 226.42798 -1147.6357
-729.66418 201.28667 -1147.3735
-729.61566 176.11424 -1147.5751
-729.58423 150.94858 -1147.7063
-729.62299 125.79718 -1147.5449
-729.59393 100.63377 -1147.6659
-729.5769 75.473495 -1147.7366
-729.6109 50.31813 -1147.5953
-729.61566 25.159243 -1147.5753
-729.60846 0.00014623762 -1147.6055
-729.57458 -25.157606 -1147.7466
-729.6109 -50.31794 -1147.5953
-729.67383 -75.483467 -1147.3333
-729.60358 -100.63487 -1147.6256
-729.57458 -125.78874 -1147.7466
-729.49463 -150.92984 -1148.0792
-729.46796 -176.07834 -1148.1902
-729.55518 -201.25655 -1147.8271
-746.77771 426.73029 -965.12439
-743.42633 398.26425 -979.57281
-742.68738 371.34372 -982.75842
-719.22668 333.92679 -1083.8999
-701.92358 300.82446 -1158.495
-700.25354 275.09967 -1165.6949
-700.27197 250.09726 -1165.6151
-700.242 225.07782 -1165.7446
-700.302 200.08633 -1165.4856
-700.24664 175.06171 -1165.7249
-700.23047 150.04939 -1165.7944
-700.2674 125.04783 -1165.635
-700.23737 100.03402 -1165.7646
-700.23273 75.024979 -1165.7845
-700.2674 50.019211 -1165.635
-700.27197 25.009846 -1165.6151
-700.25354 0.00013431563 -1165.6948
-700.22119 -25.007774 -1165.8342
-700.25818 -50.018349 -1165.6748
-700.33673 -75.036026 -1165.3361
-700.2674 -100.03815 -1165.6351
-700.23273 -125.0414 -1165.7845
-700.13336 -150.02849 -1166.2128
-700.10565 -175.02635 -1166.3323
-700.19806 -200.05644 -1165.934
-720.28705 426.83688 -964.31976
-716.68201 398.1568 -980.43726
-717.11151 371.83575 -978.51691
-684.54694 329.59674 -1124.1056
-672.61426 298.93967 -1177.454
-671.27924 273.48431 -1183.4224
-671.28143 248.62286 -1183.4125
-671.23962 223.74661 -1183.5995
-671.28589 198.89952 -1183.3928
-671.23083 174.02289 -1183.6389
-671.22205 149.16061 -1183.6783
-671.25507 124.30668 -1183.5306
-671.22638 99.44101 -1183.6584
-671.25067 74.583542 -1183.5503
-671.27924 49.724461 -1183.4224
-671.28369 24.862436 -1183.4026
-671.26605 3.3028453e-05 -1183.4813
-671.23523 -24.860493 -1183.6191
-671.27484 -49.72401 -1183.442
-671.33429 -74.592545 -1183.1761
-671.25946 -99.445732 -1183.511
-671.24622 -124.3048 -1183.5701
-671.15375 -149.14514 -1183.9835
-671.11414 -173.99251 -1184.1605
-671.17798 -198.86749 -1183.8751
-693.9151 427.02481 -962.90222
-692.12115 399.30078 -971.23083
-691.83929 372.5289 -972.53967
-653.65863 326.82938 -1149.8018
-643.64673 297.06778 -1196.2843
-642.63074 271.88235 -1201.0011
-642.62866 247.16495 -1201.011
-642.58673 222.43387 -1201.2054
-642.61188 197.72687 -1201.0887
-642.58881 173.00476 -1201.1958
-642.58252 148.28841 -1201.225
-642.58673 123.57449 -1201.2056
-642.58459 98.859261 -1201.2152
-642.61188 74.147591 -1201.0887
-642.63074 49.433182 -1201.0012
-642.64124 24.717009 -1200.9525
-642.62445 6.3812127e-05 -1201.0304
-642.58881 -24.71483 -1201.1958
-642.64124 -49.433907 -1200.9526
-642.67053 -74.15416 -1200.8163
-642.60559 -98.862328 -1201.118
-642.59723 -123.57639 -1201.1569
-642.5155 -148.27264 -1201.5363
-642.46521 -172.97124 -1201.7698
-642.49872 -197.6918 -1201.6141
-667.29425 427.06848 -962.57312
-666.57349 399.94418 -966.05316
-666.74945 373.37982 -965.20367
-623.5863 324.26501 -1173.6139
-614.98987 295.19534 -1215.1211
-614.31787 270.29993 -1218.3658
-614.30591 245.72247 -1218.4235
-614.26807 221.13657 -1218.6062
-614.27008 196.56645 -1218.5966
-614.284 171.99962 -1218.5292
-614.27606 147.42639 -1218.5677
-614.25214 122.8506 -1218.6831
-614.28204 98.285095 -1218.5388
-614.30792 73.717064 -1218.4138
-614.31586 49.145313 -1218.3752
-614.3338 24.573515 -1218.2888
-614.31586 5.8849186e-05 -1218.3755
-614.28601 -24.571331 -1218.5197
-614.3418 -49.147144 -1218.2504
-614.3418 -73.720871 -1218.2504
-614.28601 -98.285591 -1218.5197
-614.28003 -122.85584 -1218.5485
-614.20831 -147.40993 -1218.8947
-614.15057 -171.96205 -1219.1735
-614.15656 -196.52997 -1219.1445
-641.28455 427.5231 -959.14246
-640.03442 400.02164 -965.43011
-640.55957 373.65991 -962.78876
-594.00543 321.75314 -1196.9381
-586.8396 293.41992 -1232.9794
-586.29297 268.71774 -1235.729
-586.29675 244.29044 -1235.71
-586.26459 219.84924 -1235.8716
-586.26837 195.42285 -1235.8525
-586.27216 170.99622 -1235.8336
-586.2627 146.56584 -1235.881
-586.24194 122.13388 -1235.9856
-586.27972 97.713402 -1235.7955
-586.30432 73.288116 -1235.6719
-586.30811 48.859104 -1235.653
-586.31183 24.429707 -1235.6339
-586.29675 6.1622894e-05 -1235.71
-586.28729 -24.428534 -1235.7576
-586.33832 -48.861446 -1235.5007
-586.31561 -73.289337 -1235.6149
-586.27783 -97.71283 -1235.8051
-586.32507 -122.15096 -1235.5674
-586.20789 -146.55196 -1236.1566
-586.14746 -170.95953 -1236.4607
-586.15125 -195.38362 -1236.4417
-620.84668 458.88672 -926.17126
-615.04578 427.858 -956.61591
-614.15942 400.53882 -961.26764
-615.14343 374.4353 -956.10327
-565.00208 319.34912 -1219.2599
-559.04926 291.67807 -1250.5018
-558.57629 267.14532 -1252.984
-558.60315 242.871 -1252.8431
-558.57812 218.57408 -1252.9746
-558.59424 194.29375 -1252.89
-558.57092 169.99991 -1253.0122
-558.56024 145.71144 -1253.0686
-558.55487 121.42503 -1253.0967
-558.59064 97.146263 -1252.9088
-558.61212 72.86261 -1252.7961
-558.60675 48.57457 -1252.8245
-558.59961 24.287079 -1252.8619
-558.58527 7.4010641e-05 -1252.937
-558.59424 -24.286631 -1252.8901
-558.64612 -48.577789 -1252.6177
-558.60492 -72.861572 -1252.8336
-558.5835 -97.144928 -1252.9464
-558.70343 -121.45723 -1252.3169
-558.52264 -145.70145 -1253.2659
-558.45819 -169.96547 -1253.6038
-558.47614 -194.25249 -1253.51
-593.4137 458.54703 -928.58344
-589.30273 428.58389 -951.13953
-588.59955 401.31793 -954.99768
-589.64246 375.22711 -949.27557
-536.44611 316.99091 -1241.1559
-531.53613 289.92877 -1268.0963
-531.18048 265.59039 -1270.0476
-531.20587 241.45723 -1269.9082
-531.22107 217.31781 -1269.8247
-531.23804 193.17757 -1269.7319
-531.19739 169.0174 -1269.9547
-531.18896 144.86983 -1270.0011
-531.18561 120.72409 -1270.0198
-531.21942 96.585411 -1269.8341
-531.23804 72.441605 -1269.7319
-531.22791 48.293503 -1269.7876
-531.21771 24.146379 -1269.8433
-531.20929 7.9872938e-05 -1269.8898
-531.22107 -24.14641 -1269.8247
-531.26172 -48.29644 -1269.6019
-531.216 -72.438354 -1269.8525
-531.20422 -96.582382 -1269.9176
-531.39551 -120.77159 -1268.8679
-531.17035 -144.86453 -1270.1033
-531.08746 -168.98228 -1270.5582
-531.12292 -193.13556 -1270.3633
-565.39795 457.70316 -934.57513
-562.21423 428.35385 -952.87573
-562.39899 401.71371 -951.81366
-563.8595 375.90637 -943.41833
-508.43869 314.7478 -1261.9843
-504.41489 288.23718 -1285.1136
-504.12088 264.06345 -1286.8035
-504.14807 240.0705 -1286.6475
-504.172 216.07388 -1286.5099
-504.18637 192.07108 -1286.4272
-504.14645 168.04887 -1286.6566
-504.14487 144.0415 -1286.6658
-504.14328 120.03413 -1286.675
-504.1752 96.033501 -1286.4915
-504.18637 72.026794 -1286.4271
-504.17679 48.016823 -1286.4822
-504.16562 24.008072 -1286.5466
-504.15762 9.6064032e-06 -1286.5924
-504.17041 -24.008022 -1286.5189
-504.20078 -48.019066 -1286.3445
-504.15924 -72.022614 -1286.5833
-504.15445 -96.029312 -1286.6108
-504.33337 -120.07923 -1285.5822
-504.14328 -144.04086 -1286.6749
-504.05704 -168.01891 -1287.1707
-504.0762 -192.02896 -1287.0604
-540.63501 459.53986 -921.53387
-536.40472 429.12393 -947.06592
-536.36487 402.27371 -947.30646
-537.77881 376.44516 -938.7724
-480.98206 312.63837 -1281.5714
-477.60382 286.56238 -1301.9607
-477.39322 262.56638 -1303.2318
-477.41727 238.70868 -1303.0867
-477.4278 214.84254 -1303.0229
-477.43381 190.97353 -1302.9868
-477.40674 167.09236 -1303.1501
-477.41428 143.22433 -1303.1047
-477.41727 119.35451 -1303.0867
-477.44284 95.488655 -1302.9323
-477.45038 71.617569 -1302.8868
-477.44434 47.744473 -1302.9232
-477.42929 23.871508 -1303.0139
-477.41727 4.2836251e-05 -1303.0865
-477.43231 -23.871519 -1302.9958
-477.45941 -47.745861 -1302.8324
-477.43079 -71.614525 -1303.0048
-477.42477 -95.484863 -1303.0413
-477.50449 -119.37602 -1302.5599
-477.4353 -143.23053 -1302.9777
-477.35715 -167.07492 -1303.4496
-477.3331 -190.93317 -1303.5947
-514.53003 460.36908 -915.64575
-511.34708 430.60815 -935.8678
-511.01682 403.43439 -937.96613
-512.04895 377.29938 -931.40863
-454.03979 310.65897 -1299.952
-451.10251 284.90692 -1318.6132
-450.97113 261.08871 -1319.448
-450.98666 237.3615 -1319.3491
-450.99515 213.62932 -1319.2954
-450.9895 189.89038 -1319.3312
-450.96829 166.14635 -1319.4658
-450.97678 142.41373 -1319.412
-450.99371 118.68254 -1319.3043
-451.00925 94.949318 -1319.2056
-451.01633 71.213219 -1319.1606
-451.01489 47.475235 -1319.1697
-450.98807 23.736311 -1319.3402
-450.97678 0.00016018949 -1319.412
-450.99371 -23.736395 -1319.3043
-451.01773 -47.475403 -1319.1517
-451.00644 -71.211403 -1319.2235
-451.02197 -94.951912 -1319.1249
-450.9895 -118.68136 -1319.3312
-450.97253 -142.41229 -1319.439
-450.95984 -166.14297 -1319.5198
-450.91321 -189.85812 -1319.8157
-490.48865 463.23932 -895.26501
-486.62006 432.55124 -921.20801
-485.95096 404.95923 -925.69525
-486.59058 378.4595 -921.40588
-427.40714 308.68298 -1318.299
-424.89108 283.26083 -1335.1719
-424.86728 259.64111 -1335.3317
-424.88315 236.0463 -1335.2251
-424.89108 212.44563 -1335.1719
-424.90698 188.8476 -1335.0654
-424.88184 165.23189 -1335.2341
-424.89108 141.63042 -1335.1718
-424.89636 118.02685 -1335.1365
-424.89505 94.421173 -1335.1453
-424.90167 70.817055 -1335.101
-424.89374 47.210552 -1335.1541
-424.88974 23.60507 -1335.1809
-424.87918 0.00010486955 -1335.2517
-424.89108 -23.604904 -1335.1719
-424.90961 -47.212059 -1335.0476
-424.90298 -70.817047 -1335.092
-424.8858 -94.418922 -1335.2075
-424.87918 -118.02201 -1335.2517
-424.85403 -141.61794 -1335.4203
-424.85538 -165.22144 -1335.4115
-424.83417 -188.81509 -1335.5535
-462.07626 434.89548 -903.52307
-461.17316 406.91757 -909.93567
-461.3598 379.94345 -908.61047
-401.01749 306.66055 -1337.0789
-399.06607 281.69385 -1350.9351
-399.07104 258.22256 -1350.8998
-399.07968 234.75288 -1350.8384
-399.11304 211.29523 -1350.6013
-399.12912 187.82558 -1350.4873
-399.09451 164.33307 -1350.7329
-399.09573 140.85736 -1350.7242
-399.09946 117.3822 -1350.6979
-399.08585 93.902679 -1350.7946
-399.07596 70.425316 -1350.8646
-399.06485 46.948799 -1350.9437
-399.07104 23.474854 -1350.8998
-399.07721 8.1357583e-05 -1350.8558
-399.08707 -23.475517 -1350.7858
-399.10068 -46.952999 -1350.6892
-399.09946 -70.429161 -1350.698
-399.06113 -93.896606 -1350.97
-399.07843 -117.37596 -1350.8473
-399.03024 -140.83417 -1351.1896
-399.04877 -164.31418 -1351.0577
-399.05124 -187.78876 -1351.0403
-399.47815 -211.48831 -1348.0092
-436.50156 436.50168 -891.40485
-435.79089 408.55402 -896.76636
-435.81595 381.33914 -896.57727
-375.07693 304.75012 -1354.8179
-373.60236 280.20181 -1365.9429
-373.4838 256.7702 -1366.837
-373.58853 233.49295 -1366.0471
-373.54019 210.11639 -1366.4116
-373.49994 186.75005 -1366.7155
-373.44699 163.38321 -1367.1147
-373.5632 140.08638 -1366.2382
-373.62997 116.75935 -1365.7344
-373.539 93.384819 -1366.4204
-373.47345 70.026367 -1366.9152
-373.44586 46.68079 -1367.1234
-373.46655 23.341799 -1366.9672
-373.48148 4.3021741e-05 -1366.8544
-373.48267 -23.342522 -1366.8457
-373.49994 -46.687386 -1366.7155
-373.57126 -70.044487 -1366.1772
-373.6127 -93.403107 -1365.8646
-373.60809 -116.75239 -1365.8994
-373.50912 -140.0658 -1366.6461
-373.4516 -163.38496 -1367.0801
-373.44586 -186.72282 -1367.1234
-373.71634 -210.21535 -1365.0828
-410.02313 437.35818 -884.94336
-409.59027 409.59036 -888.42682
-394.7431 368.42694 -1007.9075
-349.69406 303.06827 -1370.4341
-348.3407 278.67267 -1381.3253
-348.3418 255.45071 -1381.3167
-348.31189 232.20805 -1381.5571
-348.32043 208.9924 -1381.4884
-348.30548 185.76292 -1381.6086
-348.27347 162.52768 -1381.8662
-348.29373 139.31747 -1381.703
-348.32257 116.10756 -1381.4712
-348.31937 92.8853 -1381.4971
-348.31296 69.662651 -1381.5485
-348.30658 46.441017 -1381.6001
-348.30869 23.220634 -1381.5829
-348.30338 2.4608202e-05 -1381.6259
-348.28946 -23.21921 -1381.7375
-348.30441 -46.440449 -1381.6172
-348.35138 -69.670235 -1381.2393
-348.30121 -92.880188 -1381.6429
-348.30548 -116.10179 -1381.6086
-348.29373 -139.31741 -1381.7031
-348.2959 -162.53809 -1381.6858
-348.29694 -185.75829 -1381.6775
-348.40262 -209.04141 -1380.827
-348.40582 -232.27054 -1380.8011
-362.30258 439.93896 -1060.7124
-362.6828 414.49475 -1057.4342
-363.04391 388.97568 -1054.3206
-363.47052 363.47061 -1050.6425
-324.97559 301.76324 -1382.5531
-324.49951 278.14261 -1386.658
-324.46973 254.94061 -1386.9147
-324.44791 231.74857 -1387.1029
-324.4628 208.58327 -1386.9744
-324.45584 185.40349 -1387.0343
-324.42212 162.21109 -1387.3252
-324.4003 139.02879 -1387.5133
-324.38739 115.85275 -1387.6244
-324.39734 92.684975 -1387.5391
-324.39435 69.513168 -1387.5646
-324.37946 46.340012 -1387.693
-324.38245 23.170326 -1387.6674
-324.38245 4.8334321e-05 -1387.6672
-324.39734 -23.171099 -1387.5389
-324.45685 -46.350861 -1387.0259
-324.40625 -69.51545 -1387.4622
-324.39532 -92.684311 -1387.5562
-324.39633 -115.85574 -1387.5476
-324.41519 -139.03502 -1387.385
-324.46082 -162.23036 -1386.9915
-324.53625 -185.44919 -1386.3412
-324.56601 -208.64958 -1386.0844
-324.83929 -232.02803 -1383.7283
-324.92981 -255.3019 -1382.9476
-324.92981 -278.5112 -1382.9478
-324.92981 -301.72043 -1382.9478
-324.92981 -324.92969 -1382.9478
-324.92981 -348.13898 -1382.9478
-324.92981 -371.3483 -1382.9476
-324.92981 -394.55759 -1382.9478
-334.0444 436.82739 -1082.8064
-334.88235 412.16309 -1075.0258
-335.7886 387.44855 -1066.6108
-336.64224 362.5379 -1058.6844
-304.84714 304.84726 -1353.916
-304.55688 281.12952 -1356.611
-304.40631 257.57465 -1358.0092
-304.51828 234.24498 -1356.9695
-304.49005 210.80087 -1357.2316
-304.45148 187.3548 -1357.5898
-304.51547 163.96997 -1356.9956
-304.47217 140.5257 -1357.3976
-304.38565 117.07143 -1358.2013
-304.37341 93.653503 -1358.3147
-304.36868 70.239029 -1358.3584
-304.4223 46.834332 -1357.8606
-304.34518 23.411253 -1358.5765
-304.33673 4.4405569e-05 -1358.6553
-304.39786 -23.41511 -1358.0878
-304.36682 -46.825573 -1358.3759
-304.31888 -70.227402 -1358.821
-304.36588 -93.65097 -1358.3846
-304.44299 -117.09339 -1357.6685
-304.42889 -140.50563 -1357.7996
-304.42514 -163.92117 -1357.8345
-304.70853 -187.51283 -1355.2029
-307.79767 436.04675 -1088.3494
-308.68988 411.58661 -1079.3743
-310.11304 387.64136 -1065.0586
-311.41174 363.31375 -1051.9944
-284.69992 308.42499 -1320.6946
-284.3252 284.32523 -1324.464
-284.33853 260.64365 -1324.33
-284.27454 236.89545 -1324.9736
-284.27988 213.21002 -1324.9202
-284.31808 189.54541 -1324.5356
-284.24344 165.80873 -1325.2866
-284.25143 142.12587 -1325.2061
-284.28165 118.45073 -1324.9022
-284.23279 94.744362 -1325.3938
-284.21857 71.054642 -1325.5367
-284.26123 47.376934 -1325.1078
-284.24255 23.686964 -1325.2955
-284.22922 4.5840567e-05 -1325.4294
-284.22745 -23.685551 -1325.4474
-284.22302 -47.37043 -1325.4921
-284.29675 -71.074112 -1324.7501
-284.33231 -94.77739 -1324.3927
-284.32343 -118.46802 -1324.4819
-284.35986 -142.17978 -1324.1154
-284.2843 -165.83246 -1324.8754
-284.41235 -189.60815 -1323.5875
-285.05151 -213.78859 -1317.158
-286.60608 442.93677 -1039.4263
-285.07907 414.66055 -1056.183
-285.83759 389.77869 -1047.8593
-286.79736 365.01498 -1037.3273
-269.2392 318.19196 -1230.0052
-263.86023 287.8476 -1289.0323
-263.7951 263.79517 -1289.7469
-263.71417 239.74028 -1290.6353
-263.65744 215.71988 -1291.2576
-263.60825 191.71507 -1291.7974
-263.68161 167.79741 -1290.9922
-263.71167 143.84286 -1290.6627
-263.68829 119.85843 -1290.9189
-263.68747 95.886421 -1290.9281
-263.67413 71.911156 -1291.0746
-263.6174 47.930504 -1291.6968
-263.61407 23.964903 -1291.7333
-263.67996 0.00011642198 -1291.0105
-263.61075 -23.9646 -1291.7699
-263.60327 -47.927711 -1291.8523
-263.67331 -71.910828 -1291.0837
-263.71582 -95.896652 -1290.6169
-263.62659 -119.83021 -1291.5962
-263.67413 -143.82216 -1291.0745
-263.75754 -167.84564 -1290.1591
-263.83853 -191.88252 -1289.2705
-264.16205 -216.13246 -1285.72
-264.80896 450.17532 -988.02783
-262.16977 419.47174 -1019.8856
-262.00842 393.01279 -1021.8331
-262.60492 367.64703 -1014.633
-263.31934 342.31531 -1006.0092
-243.02748 291.63306 -1250.9535
-242.76669 267.04337 -1254.1014
-242.76825 242.76836 -1254.0829
-242.77058 218.49368 -1254.0546
-242.74026 194.19225 -1254.4207
-242.64778 169.85349 -1255.5371
-242.62137 145.57289 -1255.8558
-242.52663 121.26337 -1256.9993
-242.60817 97.043335 -1256.0153
-242.65088 72.795364 -1255.4995
-242.55458 48.511032 -1256.662
-242.62369 24.262524 -1255.8278
-242.62137 0.0001184733 -1255.856
-242.60738 -24.26074 -1256.0245
-242.50336 -48.500587 -1257.2804
-242.55304 -72.765831 -1256.6807
-242.45448 -96.981697 -1257.8702
-242.48085 -121.24029 -1257.552
-242.55536 -145.53322 -1256.6526
-242.67418 -169.87189 -1255.2181
-242.74103 -194.19278 -1254.4113
-241.71831 456.57907 -942.55688
-238.94926 424.7988 -979.69629
-238.16911 396.94861 -990.15973
-238.47139 370.95572 -986.10565
-239.03047 345.26636 -978.60693
-221.50061 295.33426 -1213.7228
-221.15874 270.30518 -1218.3081
-221.15083 245.7233 -1218.4139
-221.15515 221.15535 -1218.3562
-221.15228 196.5799 -1218.3945
-221.15083 172.00626 -1218.4138
-221.15157 147.4344 -1218.4042
-221.15228 122.86241 -1218.3947
-221.15515 98.291267 -1218.3562
-221.158 73.719513 -1218.3176
-221.15874 49.146542 -1218.3081
-221.1107 24.56789 -1218.9523
-220.89442 2.7511807e-05 -1221.8528
-220.93236 -24.548012 -1221.3441
-220.9252 -49.09444 -1221.4403
-220.94882 -73.649529 -1221.1233
-220.93808 -98.194618 -1221.2673
-220.97173 -122.76199 -1220.8162
-221.00969 -147.33965 -1220.3073
-220.96385 -171.86075 -1220.9218
-221.09636 -196.52997 -1219.1445
-215.34456 430.68924 -935.25623
-214.14055 401.51361 -953.42358
-214.20258 374.85464 -952.48743
-214.65686 348.81747 -945.633
-199.50363 299.25552 -1174.2778
-198.96022 273.57031 -1182.4769
-198.9478 248.68491 -1182.6641
-198.95305 223.82216 -1182.5852
-198.95042 198.95052 -1182.6246
-198.94847 174.08003 -1182.6542
-198.95172 149.21399 -1182.605
-198.95238 124.34532 -1182.5951
-198.95435 99.477303 -1182.5656
-198.9563 74.608734 -1182.5361
-198.9563 49.739189 -1182.5359
-198.955 24.869486 -1182.5555
-198.95369 4.972699e-05 -1182.5754
-198.94586 -24.868198 -1182.6936
-198.93802 -49.734467 -1182.8118
-198.9465 -74.604836 -1182.6837
-198.95238 -99.476112 -1182.595
-198.96608 -124.35363 -1182.3882
-198.95435 -149.21571 -1182.5656
-198.93085 -174.06448 -1182.9202
-198.93214 -198.93213 -1182.9005
-190.86774 436.26929 -893.15851
-189.78477 406.68173 -911.83337
-189.69044 379.38092 -913.46002
-190.00298 352.86279 -908.0708
-177.01028 303.44629 -1132.1218
-176.21886 276.91541 -1145.7695
-176.19603 251.70868 -1146.1631
-176.20891 226.55434 -1145.941
-176.20538 201.37772 -1146.0017
-176.20305 176.20306 -1146.042
-176.20715 151.03474 -1145.9713
-176.20949 125.86397 -1145.931
-176.21124 100.69226 -1145.9006
-176.21242 75.519768 -1145.8805
-176.21242 50.346603 -1145.8805
-176.20949 25.17292 -1145.931
-176.20772 0.00010129812 -1145.9613
-176.19954 -25.17127 -1146.1024
-176.19661 -50.341908 -1146.153
-176.20128 -75.514702 -1146.0723
-176.213 -100.69302 -1145.8704
-176.22353 -125.87389 -1145.6887
-176.20538 -151.0331 -1146.0015
-176.18433 -176.1842 -1146.365
-176.18784 -201.35739 -1146.3043
-166.28172 443.418 -839.22479
-164.83984 412.09979 -868.23315
-164.65302 384.1904 -871.99176
-164.85957 357.19577 -867.8363
-153.8374 307.67484 -1089.5854
-152.92578 280.36407 -1107.9255
-152.89595 254.82668 -1108.5258
-152.9119 229.36798 -1108.205
-152.90881 203.87859 -1108.2671
-152.90675 178.39131 -1108.3085
-152.90984 152.90999 -1108.2463
-152.91344 127.42789 -1108.1741
-152.91446 101.94307 -1108.1532
-152.9155 76.457809 -1108.1326
-152.91498 50.971798 -1108.1429
-152.91293 25.485596 -1108.1842
-152.90984 8.7526692e-05 -1108.2463
-152.90263 -25.483696 -1108.3911
-152.90007 -50.966629 -1108.4429
-152.90419 -76.452095 -1108.3601
-152.91806 -101.94533 -1108.0809
-152.91652 -127.43029 -1108.1118
-152.89545 -152.89531 -1108.536
-152.87848 -178.35814 -1108.8772
-152.88516 -203.84685 -1108.7428
-140.75984 450.43161 -786.31152
-139.35236 418.05722 -820.29126
-138.92422 388.98792 -830.6272
-139.06596 361.57153 -827.20538
-130.12964 312.31122 -1042.9475
-129.06633 283.94601 -1068.618
-129.03557 258.07114 -1069.3607
-129.04742 232.28549 -1069.0742
-129.04567 206.47321 -1069.1167
-129.04303 180.66025 -1069.1804
-129.04567 154.85497 -1069.1168
-129.04742 129.04749 -1069.0743
-129.04875 103.23904 -1069.0424
-129.04962 77.429871 -1069.0214
-129.04962 51.619911 -1069.0212
-129.04742 25.809555 -1069.0742
-129.04523 0.00019379554 -1069.1273
-129.03995 -25.807846 -1069.2546
-129.03732 -51.61488 -1069.3184
-129.04039 -77.424118 -1069.244
-129.05138 -103.24104 -1068.9789
-129.02281 -129.02272 -1069.6685
-129.00832 -154.80991 -1070.0183
-128.99164 -180.58824 -1070.421
-129.04039 -206.46458 -1069.2443
-114.61446 458.45798 -725.75757
-113.03026 423.86359 -773.56476
-112.65517 394.29309 -784.8844
-112.71214 366.31448 -783.16534
-105.95097 317.85309 -987.20111
-104.59148 287.62668 -1028.2277
-104.55937 261.39859 -1029.1967
-104.56731 235.27655 -1028.9572
-104.56659 209.13319 -1028.9789
-104.56478 182.98843 -1029.0333
-104.56694 156.85045 -1028.968
-104.56731 130.70921 -1028.957
-104.56803 104.56801 -1028.9353
-104.56911 78.426949 -1028.9027
-104.56911 52.284664 -1028.9027
-104.56767 26.141979 -1028.9463
-104.5655 9.4284369e-05 -1029.0116
-104.56226 -26.140512 -1029.1095
-104.55793 -52.278923 -1029.2401
-104.56226 -78.421532 -1029.1094
-104.56911 -104.56907 -1028.9026
-104.52477 -130.65588 -1030.2411
-104.51539 -156.77301 -1030.5239
-104.49954 -182.87421 -1031.0021
-104.60809 -209.21611 -1027.7266
-85.894264 429.47147 -728.43634
-85.624481 399.58112 -739.29156
-85.607071 370.96408 -739.99213
-81.116951 324.46793 -920.66077
-79.495461 291.4834 -985.9043
-79.447128 264.82376 -987.84918
-79.448792 238.34642 -987.7821
-79.448517 211.86278 -987.79327
-79.447411 185.37735 -987.83801
-79.448242 158.89661 -987.80444
-79.448242 132.41391 -987.8045
-79.449074 105.93217 -987.77087
-79.449905 79.449989 -987.73743
-79.450188 52.966854 -987.72626
-79.448792 26.483068 -987.78198
-79.447411 8.3437531e-05 -987.83783
-79.445465 -26.48181 -987.91614
-79.440742 -52.960453 -988.10608
-79.444908 -79.444733 -987.93848
-79.449074 -105.93211 -987.77075
-79.397186 -132.32863 -989.85852
-79.393311 -158.78654 -990.01465
-79.379723 -185.21928 -990.56134
-58.108032 435.81049 -677.42493
-57.81612 404.71292 -695.0434
-57.803329 375.72162 -695.815
-57.896503 347.37912 -690.19147
-53.743366 295.58862 -940.85559
-53.66497 268.32486 -945.58716
-53.664215 241.489 -945.633
-53.664402 214.65765 -945.62158
-53.663639 187.82286 -945.66736
-53.663834 160.99152 -945.65594
-53.663834 134.15961 -945.65594
-53.664402 107.32897 -945.62158
-53.66497 80.497536 -945.5871
-53.665165 53.665222 -945.57574
-53.664215 26.832287 -945.63312
-53.663265 6.1145452e-05 -945.69049
-53.661934 -26.830816 -945.77069
-53.658512 -53.658363 -945.97717
-53.661934 -80.492752 -945.77069
-53.653008 -107.30593 -946.30951
-53.630795 -134.07687 -947.65015
-53.618652 -160.85579 -948.38287
-53.609173 -187.63206 -948.95508
-29.472639 442.08972 -626.89233
-29.310665 410.34927 -646.4444
-29.287331 380.73553 -649.26123
-29.336988 352.04388 -643.26691
-27.250837 299.75937 -895.08765
-27.187489 271.87509 -902.7345
-27.186905 244.68219 -902.80511
-27.187098 217.49684 -902.78162
-27.186806 190.30771 -902.81689
-27.18671 163.12024 -902.82861
-27.186806 135.93413 -902.81683
-27.187002 108.74815 -902.79327
-27.187393 81.562248 -902.74634
-27.187393 54.374905 -902.74609
-27.18671 27.186817 -902.82855
-27.186222 0.00013023404 -902.88757
-27.185831 -27.185747 -902.93463
-27.184174 -54.368214 -903.1347
-27.186319 -81.558914 -902.87561
-27.183685 -108.73472 -903.19336
-27.173355 -135.86662 -904.4408
-27.168388 -163.01007 -905.04047
-27.164198 -190.14925 -905.54578
9.8237098e-22 447.92874 -579.90308
5.2172115e-22 416.55844 -592.90894
8.9340807e-22 403.03442 -442.20514
1.7660132e-21 371.83395 -444.19418
1.4639355e-21 304.22141 -846.12231
1.0798439e-21 275.52017 -858.73254
2.2578991e-22 247.96104 -858.82941
9.415456e-22 220.41133 -858.80518
6.4848456e-23 192.86078 -858.79321
1.69455e-21 165.30786 -858.81726
9.7883103e-22 137.7562 -858.82941
1.0587933e-21 110.20576 -858.8053
5.1097558e-22 82.655617 -858.75684
8.6102383e-22 55.103783 -858.74463
1.4623579e-21 27.55092 -858.87756
1.4102096e-21 7.9894613e-05 -858.93811
1.2885548e-21 -27.550142 -858.95013
1.1955879e-21 -55.096924 -859.15564
8.3309528e-22 -82.653595 -858.82941
7.156432e-22 -110.20228 -858.90198
1.3824837e-21 -137.70451 -860.07416
6.2932339e-22 -165.22379 -860.50903
9.5933342e-22 -192.73511 -860.95593
30.802538 431.23575 -466.35941
30.839012 400.90723 -461.95639
30.884636 370.61572 -456.44958
28.084471 308.92929 -794.45917
27.926546 279.26562 -813.5224
27.924795 251.32329 -813.73358
27.925722 223.40596 -813.62183
27.926033 195.48236 -813.58459
27.926033 167.55629 -813.58441
27.925518 139.62762 -813.64648
27.925722 111.70297 -813.62177
27.926239 83.778732 -813.55969
27.92634 55.85273 -813.54724
27.9249 27.924971 -813.72119
27.924284 4.6781985e-05 -813.79553
27.924591 -27.924406 -813.75842
27.92284 -55.845604 -813.96954
27.926033 -83.777924 -813.58466
27.927473 -111.70978 -813.41077
27.918623 -139.59297 -814.47864
27.91626 -167.49733 -814.76422
27.91338 -195.39359 -815.11163
61.35918 429.51428 -481.20062
61.62236 400.54544 -465.31638
61.824947 370.94971 -453.08884
57.134846 314.24176 -736.1618
56.62323 283.11636 -767.04065
56.617306 254.77798 -767.39807
56.620693 226.48293 -767.19379
56.621746 198.17621 -767.13007
56.62196 169.86589 -767.11707
56.620693 141.55185 -767.19391
56.620693 113.24133 -767.19366
56.621746 84.932709 -767.12994
56.622169 56.622303 -767.10449
56.619209 28.309696 -767.2832
56.617306 0.00010829893 -767.39813
56.618366 -28.309149 -767.33405
56.614979 -56.614929 -767.53833
56.62196 -84.932877 -767.11707
56.625557 -113.25108 -766.90002
56.617519 -141.54362 -767.38538
56.611595 -169.83475 -767.74261
56.607578 -198.1264 -767.98517
93.345863 435.61417 -428.60727
92.975204 402.89276 -443.52142
93.174858 372.69958 -435.48761
87.194801 319.71448 -676.10681
86.133446 287.11154 -718.81262
86.112244 258.33685 -719.66577
86.123009 229.66147 -719.23273
86.127892 200.96519 -719.03577
86.128555 172.25716 -719.00958
86.126915 143.54503 -719.07532
86.126595 114.83556 -719.0882
86.128227 86.12822 -719.02258
86.128876 57.419449 -718.9964
86.124306 28.708166 -719.18005
86.113869 8.4648804e-05 -719.6001
86.115501 -28.705046 -719.53467
86.110603 -57.40699 -719.73132
86.121696 -86.121658 -719.2851
86.127571 -114.83668 -719.04883
86.123657 -143.53937 -719.20654
86.113869 -172.22763 -719.60028
86.108978 -200.92078 -719.79712
126.59635 443.08728 -364.17194
125.46824 407.77182 -398.21579
125.42826 376.28497 -399.42218
118.52249 325.93704 -607.8222
116.51041 291.27615 -668.54193
116.44865 262.00943 -670.4057
116.4585 232.91711 -670.10883
116.49162 203.86041 -669.1095
116.49251 174.73888 -669.08252
116.49026 145.61287 -669.14996
116.47012 116.47018 -669.75763
116.4934 87.370056 -669.05524
116.49429 58.247211 -669.02826
116.48848 29.122227 -669.20404
116.45178 6.6658882e-05 -670.31134
116.45267 -29.112991 -670.28442
116.44687 -58.223286 -670.45984
116.4831 -87.362183 -669.36615
116.46878 -116.46877 -669.79828
116.46252 -145.57812 -669.98724
116.44955 -174.67416 -670.37885
116.45 -203.78732 -670.36536
163.71144 458.39209 -232.21085
159.4044 414.45151 -336.19193
158.90239 381.36594 -348.31165
152.78932 336.13663 -495.89401
147.8479 295.69577 -615.19055
147.66124 265.79031 -619.69714
147.6716 236.27477 -619.44714
147.74298 206.84027 -617.72345
147.74472 177.29375 -617.6817
147.72859 147.72861 -618.07098
147.68311 118.14654 -619.16919
147.74702 88.648361 -617.62616
147.74875 59.099518 -617.58435
147.72743 29.545507 -618.09894
147.66641 0.00015573351 -619.57214
147.66469 -29.532864 -619.61371
147.65836 -59.063133 -619.76672
147.74759 -88.648544 -617.61212
147.68541 -118.14826 -619.11365
147.67677 -147.67664 -619.32202
147.65952 -177.19128 -619.73895
147.79024 -206.90623 -616.58276
194.51082 421.44019 -271.29913
193.67737 387.35495 -288.06711
193.76154 355.22964 -286.3735
180.28033 300.46729 -557.5943
179.79205 269.68814 -567.41785
179.79846 239.73141 -567.28918
179.87883 209.85867 -565.67206
179.92438 179.9245 -564.7558
179.87312 149.89432 -565.78668
179.80769 119.87189 -567.10309
179.89876 89.949478 -565.27142
179.9308 59.97702 -564.62671
179.8717 29.978714 -565.81519
179.79633 6.8911395e-05 -567.33191
179.78922 -29.964828 -567.47498
179.78282 -59.927521 -567.6037
179.908 -89.953934 -565.08514
179.8148 -119.8765 -566.95996
179.80344 -149.83614 -567.18878
179.7814 -179.78139 -567.63232
230.5126 428.09497 -209.50728
229.24455 392.99072 -231.37407
229.46765 360.59225 -227.52669
213.88263 305.54678 -496.28082
212.88188 273.70535 -513.53802
212.87846 243.28981 -513.59705
212.96393 212.96405 -512.12354
213.07256 182.63373 -510.25006
212.97418 152.12445 -511.94647
212.88445 121.64847 -513.49396
212.99385 91.283257 -511.60733
213.08369 60.88121 -510.05829
212.97162 30.424593 -511.99075
212.88188 0.00010915541 -513.53815
212.86736 -30.409389 -513.78864
212.86224 -60.817776 -513.87683
213.03062 -91.29863 -510.97318
212.89897 -121.65646 -513.24347
212.88359 -152.05954 -513.50873
212.85712 -182.44885 -513.96533
267.71448 435.0361 -145.05501
265.93195 398.89813 -171.95137
266.2005 366.02573 -167.89908
248.65482 310.81873 -432.64313
246.98849 277.86212 -457.78613
246.97441 246.97444 -457.99863
247.06299 216.18018 -456.6622
247.17781 185.38347 -454.92957
247.09824 154.43651 -456.13043
246.97743 123.48885 -457.953
247.10728 92.665428 -455.99387
247.19191 61.798122 -454.71667
247.08714 30.886019 -456.29761
246.98145 0.00012573677 -457.89246
246.96536 -30.870495 -458.13528
246.95934 -61.739647 -458.22632
247.10124 -92.662964 -456.08481
246.99957 -123.4996 -457.61905
246.98145 -154.36327 -457.89236
246.94826 -185.21118 -458.39322
284.78232 316.42477 -364.96951
282.15521 282.1553 -400.20505
282.12836 250.78081 -400.56485
282.21591 219.50134 -399.39075
282.30472 188.20314 -398.19995
282.28717 156.82629 -398.43509
282.13889 125.39528 -400.42419
282.27899 94.093086 -398.54474
282.32104 62.738167 -397.9808
282.25916 31.362165 -398.81107
282.13889 0.00011153 -400.42401
282.12723 -31.347332 -400.5806
282.11786 -62.692783 -400.70581
282.17975 -94.059814 -399.87622
282.15872 -125.40388 -400.15796
282.13889 -156.74377 -400.42416
282.09805 -188.06512 -400.97192
322.40012 322.40027 -292.84082
318.55017 286.69525 -339.31406
318.3869 254.70964 -341.28488
318.46719 222.92709 -340.31586
318.51538 191.10941 -339.73419
318.51938 159.25986 -339.68573
318.41098 127.36437 -340.99408
318.52875 95.558678 -339.57251
318.53412 63.706921 -339.50784
318.53009 31.853127 -339.55637
318.39761 7.1405513e-05 -341.15561
318.39359 -31.839306 -341.20401
318.37753 -63.675343 -341.39783
318.41232 -95.523666 -340.97803
318.41766 -127.36694 -340.91345
318.39627 -159.19803 -341.17181
318.34946 -191.00963 -341.73682
403.59302 440.28333 244.35329
403.10901 403.10922 239.04211
363.43582 330.39642 -196.31953
355.91348 291.20218 -278.86761
355.79956 258.7634 -280.11783
355.86639 226.46053 -279.38446
355.86334 194.10725 -279.41766
355.86639 161.75763 -279.38443
355.84058 129.39671 -279.66769
355.87704 97.057495 -279.26776
355.88309 64.706024 -279.20096
355.87854 32.352665 -279.25101
355.81476 0.00013909269 -279.95126
355.81476 -32.346645 -279.95105
355.78592 -64.688217 -280.26779
355.8269 -97.043594 -279.81787
355.8284 -129.39203 -279.80112
355.80411 -161.72906 -280.06769
355.75403 -194.04741 -280.61768
436.75217 473.14822 208.83281
436.93893 436.93912 210.71135
437.64963 401.17899 217.8606
438.53391 365.44489 226.75555
394.66714 296.00034 -214.50992
394.40015 262.93356 -217.19586
394.41208 230.07391 -217.07553
394.40866 197.20444 -217.10992
394.41037 164.33774 -217.09256
394.41724 131.47252 -217.0238
394.45828 98.614655 -216.61089
394.46515 65.744308 -216.54187
394.45999 32.871716 -216.59348
394.42407 0.00020831813 -216.95502
394.42236 -32.868504 -216.97211
394.38644 -65.73098 -217.3334
394.43265 -98.608093 -216.86896
394.4292 -131.47626 -216.90329
394.40015 -164.33327 -217.19588
394.35736 -197.1786 -217.62605
472.47198 436.12817 202.55432
474.70755 401.67572 223.31212
476.32559 366.40436 238.33636
435.35324 301.3985 -142.10983
434.21735 267.21069 -152.65697
434.23456 233.81862 -152.49702
434.22498 200.41159 -152.58588
434.22693 167.01045 -152.5683
434.32263 133.63786 -151.67955
434.39923 100.2461 -150.96808
434.40689 66.831963 -150.89703
434.40305 33.415775 -150.93271
434.25943 -1.3522423e-05 -152.26601
434.23267 -33.402534 -152.51482
434.20584 -66.800804 -152.76369
434.25562 -100.21272 -152.30156
434.24799 -133.61461 -152.37271
434.20776 -167.00284 -152.74603
434.19629 -200.39819 -152.85251
516.43408 442.65802 268.23865
515.41302 404.96756 259.43491
516.66046 369.04324 270.19025
477.29309 306.83133 -69.2425
475.35785 271.63324 -85.92878
475.37274 237.68651 -85.80024
475.35785 203.72501 -85.92878
475.35785 169.77074 -85.928696
475.58582 135.88176 -83.963005
475.686 101.9329 -83.098778
475.69244 67.956306 -83.043709
475.68817 33.977768 -83.080399
475.53036 9.0432615e-05 -84.440796
475.35785 -33.953979 -85.928726
475.34079 -67.905647 -86.075653
475.39188 -101.86959 -85.634903
475.38123 -135.82301 -85.726753
475.33652 -169.76295 -86.112099
475.67535 -203.86069 -83.19075
571.31128 457.04901 413.00351
560.11621 410.75201 322.91254
560.21838 373.47906 323.73431
521.15466 312.69284 9.3739786
517.8877 276.20691 -16.916388
517.89008 241.68222 -16.897469
517.88062 207.15237 -16.973431
517.90424 172.63489 -16.783476
518.25842 138.20239 -13.933391
518.38599 103.6773 -12.906449
518.39307 69.119255 -12.849305
518.38837 34.55928 -12.887341
518.2135 4.1152045e-05 -14.29463
517.95612 -34.530289 -16.365658
517.87122 -69.049408 -17.049353
517.91132 -103.58224 -16.726376
517.89478 -138.10504 -16.859491
517.8476 -172.61568 -17.239172
609.68372 419.15781 415.15332
607.66107 379.78821 399.89374
567.28143 319.09592 95.253136
561.9342 280.96729 54.911457
561.9212 245.84068 54.813202
561.91595 210.71866 54.773956
561.92639 175.60207 54.852684
562.30945 140.57744 57.742554
562.46594 105.46244 58.923386
562.47119 70.308998 58.962524
562.46594 35.154156 58.923241
562.27557 8.058986e-05 57.486832
562.02795 -35.126606 55.618801
561.89777 -70.237129 54.636467
561.94202 -105.36405 54.970524
561.92383 -140.48083 54.832878
561.87177 -175.58469 54.439999
661.44781 427.99579 512.1402
657.55542 386.79742 484.50159
616.33173 326.29333 191.78773
607.65173 285.95374 130.15407
607.57434 250.17783 129.60449
607.57721 214.43912 129.625
607.57141 178.6976 129.5842
607.77496 143.006 131.02913
607.97284 107.28935 132.43452
607.96716 71.525658 132.39375
607.96136 35.762543 132.35297
607.75488 0.00011786608 130.88672
607.56287 -35.738876 129.52322
607.56573 -71.478325 129.54367
607.6001 -107.22334 129.78763
607.58008 -142.95992 129.64517
607.52277 -178.68318 129.23854
714.70355 436.76331 608.35339
708.54865 393.63824 567.07782
708.75482 354.37772 568.46045
655.12823 291.16812 208.8329
654.86407 254.66959 207.0611
654.88293 218.29448 207.18767
654.87982 181.91112 207.16663
654.89551 145.53255 207.27194
655.08417 109.18086 208.53741
655.06848 72.785561 208.43179
655.06219 36.392403 208.3898
654.87982 9.5151969e-05 207.1666
654.86407 -36.381226 207.06123
654.87347 -72.76358 207.12447
654.89862 -109.14976 207.29311
654.87982 -145.52873 207.16666
654.81378 -181.89262 206.72398
772.43848 447.20123 722.89667
761.63989 400.86337 654.29071
763.37207 361.59735 665.29565
704.07227 296.45169 288.55243
703.90015 259.33185 287.45917
703.93805 222.29637 287.69949
703.93109 185.24519 287.65579
703.94836 148.19991 287.76517
703.95526 111.15106 287.80887
703.93805 74.098938 287.69965
703.93109 37.049068 287.65601
703.92773 0.00016076713 287.63397
703.91046 -37.047722 287.52469
703.84509 -74.088745 287.10941
703.94141 -111.14841 287.72147
703.84509 -148.17781 287.10934
703.77631 -185.20416 286.67218
756.12439 302.44983 379.05957
754.81775 264.18631 371.17352
754.86285 226.45901 371.44553
754.85156 188.71304 371.37744
754.78015 150.95615 370.9465
754.64862 113.1974 370.15259
754.87415 75.487602 371.51364
754.84412 37.742397 371.33212
754.68622 0.00013565851 370.37955
754.83655 -37.74168 371.28674
754.4007 -75.439926 368.65656
754.88165 -113.23209 371.55914
754.41577 -150.88316 368.74725
754.33691 -188.58417 368.27136
810.10779 308.61273 472.048
807.68622 269.22882 458.12866
807.72717 230.77936 458.36429
807.71906 192.31424 458.31708
807.2724 153.76631 455.75018
807.06775 115.29563 454.57361
807.69849 76.92382 458.19952
807.32159 38.444035 456.03275
807.14966 0.00015779553 455.04425
807.69849 -38.461697 458.19925
806.83862 -76.841629 453.25656
807.76416 -115.39479 458.57645
806.86316 -153.68806 453.39771
806.78137 -192.09068 452.92761
867.51794 315.46109 575.38507
862.14825 274.32004 545.92267
862.17059 235.13754 546.04498
862.15723 195.9449 545.97186
862.01013 156.72917 545.16467
861.69385 117.50373 543.42914
862.17059 78.379333 546.04517
862.03687 39.183517 545.31134
861.84521 1.3724852e-05 544.26007
862.13934 -39.188122 545.87384
861.51129 -78.319115 542.42737
862.18842 -117.57095 546.14288
861.51575 -156.63904 542.45178
861.43555 -195.78084 542.01239
931.30518 323.9325 703.20544
918.5307 279.55307 636.16101
918.53558 239.61823 636.18658
918.51135 199.67657 636.05939
918.49683 159.73862 635.98334
918.49683 119.80421 635.98322
918.50171 79.869781 636.00867
918.50171 39.934921 636.00867
918.50171 0.00017537284 636.00873
918.47748 -39.933773 635.88171
918.44849 -79.86496 635.72919
918.52588 -119.80761 636.13586
918.41455 -159.72409 635.55157
918.47748 -199.66888 635.88165
977.94659 285.23441 734.13696
977.90454 244.47614 733.92529
977.88879 203.72694 733.84613
977.88879 162.98155 733.84601
977.9151 122.23952 733.97833
977.93616 81.494804 734.08417
977.9151 40.746494 733.97839
977.8783 0.00012013279 733.79321
977.60498 -40.733418 732.41858
977.32129 -81.443443 730.99194
977.10608 -122.13804 729.90912
977.79938 -162.96645 733.39648
979.45807 -204.0537 741.73883
1038.3063 290.72598 828.83136
1037.9764 249.11436 827.2384
1038.1128 207.62277 827.8974
1038.9269 166.22842 831.82806
