# .PCD v0.7 - Point Cloud Data file format
VERSION 0.7
FIELDS x y z
SIZE 4 4 4
TYPE F F F
COUNT 1 1 1
WIDTH 1508
HEIGHT 1
VIEWPOINT 0 0 0 1 0 0 0
POINTS 1508
DATA ascii
-363.81558 -382.96378 -911.64417
-365.41217 -403.87653 -901.50092
-367.02283 -424.97385 -891.26807
-368.64771 -446.25772 -880.94482
-370.2883 -467.73254 -870.52179
-371.94229 -489.39771 -860.01361
-373.61115 -511.25732 -849.41113
-375.29507 -533.31396 -838.71289
-377.69772 -556.60712 -823.44836
-431.46948 263.67581 -329.53665
-428.56754 238.09319 -348.99765
-427.2692 213.63469 -357.70416
-425.97873 189.3239 -366.35825
-424.69608 165.1597 -374.96024
-423.42108 141.14046 -383.51038
-422.15372 117.26498 -392.00955
-420.8956 93.532417 -400.44666
-419.64331 69.940659 -408.8447
-418.39844 46.488754 -417.19305
-417.16092 23.175722 -425.4921
-415.93069 -5.1591996e-08 -433.74188
-414.7077 -23.039225 -441.94351
-413.49191 -45.943531 -450.09677
-412.2832 -68.713852 -458.20255
-411.08157 -91.351395 -466.26099
-326.01303 -90.559212 -1036.7433
-323.06805 -107.68934 -1056.4926
-324.3956 -126.15376 -1047.5901
-325.73511 -144.77109 -1038.6072
-327.08572 -163.54283 -1029.5497
-328.44757 -182.47087 -1020.4169
-329.81976 -201.55649 -1011.2146
-331.19724 -220.79814 -1001.9772
-332.59363 -240.20651 -992.61285
-334.0018 -259.77914 -983.16913
-335.42203 -279.51834 -973.64514
-336.85431 -299.42599 -964.03992
-338.30002 -319.50555 -954.34491
-339.75705 -339.75693 -944.57385
-341.22672 -360.18375 -934.71796
-342.70914 -380.78799 -924.77655
-344.2045 -401.57193 -914.74854
-345.71298 -422.53799 -904.63263
-347.23474 -443.68869 -894.42749
-348.7699 -465.02649 -884.1322
-350.31876 -486.55377 -873.74542
-351.88141 -508.27307 -863.26605
-353.45926 -530.1889 -852.68475
-354.97577 -552.18445 -842.51495
-410.08548 265.34946 -311.17084
-408.82684 240.48636 -320.1077
-407.57593 215.77562 -328.99008
-406.33267 191.21533 -337.81808
-405.09692 166.80466 -346.59244
-403.86868 142.54196 -355.31363
-402.64789 118.4259 -363.98209
-401.43445 94.455223 -372.59842
-400.22827 70.628571 -381.16278
-399.02939 46.94479 -389.67596
-397.83762 23.402334 -398.13831
-396.65292 0.00011392004 -406.55014
-395.47531 -23.263191 -414.91205
-394.30621 -46.388863 -423.21329
-393.14246 -69.378014 -431.47665
-391.98553 -92.231903 -439.69147
-306.50516 -90.148468 -1046.656
-303.5723 -107.14311 -1067.4811
-304.73474 -125.47893 -1059.2271
-305.98633 -143.99352 -1050.3401
-307.2482 -162.66074 -1041.38
-308.51956 -181.48201 -1032.3524
-309.75122 -200.42722 -1023.6069
-311.0961 -219.59724 -1014.0574
-312.39368 -238.88927 -1004.8438
-313.70908 -258.34857 -995.50372
-315.03558 -277.97256 -986.08453
-316.37338 -297.76309 -976.58539
-317.72256 -317.7225 -967.00519
-319.08334 -337.85294 -957.34302
-320.45578 -358.1564 -947.59772
-321.84009 -378.63535 -937.76819
-323.23749 -399.2933 -927.84595
-324.646 -420.13 -917.84454
-326.06683 -441.14926 -907.75562
-327.50015 -462.35306 -897.57831
-328.94614 -483.74435 -887.31079
-330.40497 -505.32513 -876.95239
-331.87677 -527.09833 -866.50159
-333.31137 -548.9834 -856.31506
-392.64774 294.48587 -260.73672
-389.89404 268.05219 -281.51154
-388.68524 242.92838 -290.63129
-387.48395 217.95979 -299.69455
-386.29001 193.14497 -308.7019
-385.10342 168.4828 -317.65408
-383.9241 143.97171 -326.55142
-382.75198 119.61005 -335.39438
-381.58701 95.396851 -344.1835
-380.42908 71.330605 -352.91925
-379.2782 47.409874 -361.60211
-378.13422 23.633362 -370.2326
-376.99716 0.00012359957 -378.81137
-375.86688 -23.491526 -387.33853
-374.74338 -46.842884 -395.81458
-373.62656 -70.054901 -404.24045
-372.51639 -93.12899 -412.61606
-287.17249 -89.74131 -1056.486
-284.27417 -106.60272 -1078.3522
-285.28311 -124.8113 -1070.7401
-286.44855 -143.2242 -1061.9479
-287.62262 -161.78769 -1053.09
-288.80728 -180.50452 -1044.1526
-290.01071 -199.38232 -1035.0732
-291.19879 -218.39908 -1026.1097
-292.41315 -237.58566 -1016.9482
-293.63861 -256.93372 -1007.7031
-294.87341 -276.44382 -998.3869
-296.11868 -296.11862 -988.99231
-297.37448 -315.96036 -979.51788
-298.64102 -335.9711 -969.96277
-299.91833 -356.15289 -960.32599
-301.2067 -376.50827 -950.60632
-302.5061 -397.03922 -940.80273
-303.8168 -417.74811 -930.91425
-305.13892 -438.63721 -920.93976
-306.47256 -459.70883 -910.87817
-307.81897 -480.9671 -900.7204
-309.17621 -502.41129 -890.4809
-310.54547 -524.04547 -880.15051
-311.88629 -545.8009 -870.03479
-370.45105 296.36099 -241.87529
-369.28711 270.81061 -251.24191
-368.13046 245.42029 -260.54993
-366.98105 220.18874 -269.79984
-365.83875 195.11407 -278.99219
-364.70358 170.19514 -288.12747
-363.57541 145.43018 -297.20615
-362.45422 120.81808 -306.22891
-361.33987 96.357376 -315.19635
-360.23242 72.046577 -324.10852
-359.13171 47.884197 -332.96631
-358.03769 23.869305 -341.77036
-356.95035 4.4388536e-05 -350.52057
-355.86957 -23.724539 -359.21817
-354.80826 -47.307709 -367.75891
-353.69464 -70.738831 -376.7204
-352.61642 -94.031067 -385.39713
-268.0145 -89.338081 -1066.2208
-265.16971 -106.06787 -1089.114
-266.03738 -124.1507 -1082.1315
-267.11761 -142.46269 -1073.4387
-268.20743 -160.92438 -1064.6685
-269.29791 -179.53186 -1055.8929
-270.40732 -198.29861 -1046.9652
-271.5242 -217.21935 -1037.9771
-272.65036 -236.29695 -1028.9144
-273.78589 -255.53343 -1019.7764
-274.93091 -274.93085 -1010.5619
-276.08557 -294.49127 -1001.2698
-277.24997 -314.21655 -991.8996
-278.42514 -334.11008 -982.44275
-279.60941 -354.17188 -972.91248
-280.80377 -374.40503 -963.30096
-282.00836 -394.81161 -953.60706
-283.22339 -415.39413 -943.82947
-284.44888 -436.15494 -933.96716
-285.68506 -457.09613 -924.01923
-286.93201 -478.21997 -913.98468
-288.18991 -499.52911 -903.86182
-289.45886 -521.026 -893.6499
-290.70819 -542.65527 -883.59631
-351.93335 326.79523 -188.59843
-349.36075 299.45209 -210.77997
-348.25165 273.62637 -220.34294
-347.1496 247.96411 -229.84521
-346.05444 222.4637 -239.28748
-344.96622 197.12364 -248.67038
-343.8848 171.94252 -257.99448
-342.81018 146.91879 -267.26044
-341.74222 122.05081 -276.46838
-340.68088 97.337425 -285.61935
-339.62613 72.777092 -294.71371
-338.57788 48.368378 -303.75171
-337.5863 24.113386 -312.30154
-336.45639 -4.4892244e-05 -322.04376
-335.41656 -23.958225 -331.00934
-334.39685 -47.770962 -339.80145
-333.3847 -71.439507 -348.52859
-332.37726 -94.964813 -357.21484
-249.02792 -88.938515 -1075.8688
-246.25603 -105.53831 -1099.7686
-246.99358 -123.49679 -1093.4092
-247.9919 -141.70958 -1084.8015
-248.96875 -160.05127 -1076.379
-250.01907 -178.58496 -1067.3229
-251.02972 -197.23766 -1058.6089
-252.061 -216.0522 -1049.7169
-253.1008 -235.02216 -1040.7516
-254.1492 -254.1492 -1031.712
-255.20634 -273.4353 -1022.5972
-256.27231 -292.88266 -1013.4063
-257.3472 -312.49304 -1004.1382
-258.43118 -332.26859 -994.79218
-259.52429 -352.21146 -985.36707
-260.62671 -372.32385 -975.86176
-261.73853 -392.60782 -966.27539
-262.86072 -413.06677 -956.59973
-263.9917 -433.70065 -946.84802
-265.13251 -454.51285 -937.0119
-266.2832 -475.50565 -927.09058
-267.44388 -496.68152 -917.08252
-268.61478 -518.04266 -906.98718
-269.78348 -539.56683 -896.9104
-328.88425 328.88428 -169.20103
-327.82581 302.60846 -179.02927
-326.77414 276.50125 -188.79443
-325.72922 250.56099 -198.49709
-324.69095 224.78613 -208.13809
-323.65927 199.17502 -217.71765
-322.63412 173.72614 -227.23636
-321.61545 148.43799 -236.69516
-320.60321 123.30904 -246.09442
-319.60538 98.340233 -255.3597
-318.5415 73.509651 -265.23792
-317.54318 48.852886 -274.50812
-316.55899 24.350708 -283.64655
-315.58221 5.4544395e-05 -292.71637
-314.61011 -24.200735 -301.74271
-313.64529 -48.253071 -310.70142
-312.68509 -72.158066 -319.61737
-311.73206 -95.917519 -328.46689
-230.21043 -88.542381 -1085.4308
-227.53027 -105.01392 -1110.3171
-228.15002 -122.84994 -1104.5625
-229.05144 -140.95467 -1096.1924
-229.99973 -159.2305 -1087.3872
-230.91794 -177.62912 -1078.8612
-231.8577 -196.18724 -1070.1353
-232.80511 -214.89697 -1061.3379
-233.76031 -233.7603 -1052.4684
-234.7234 -252.77907 -1043.5258
-235.69518 -271.95593 -1034.5024
-236.67429 -291.29138 -1025.4109
-237.66158 -310.78818 -1016.2435
-238.65714 -330.4483 -1006.9993
-239.66107 -350.27383 -997.67737
-240.67349 -370.26691 -988.27667
-241.69449 -390.42957 -978.79614
-242.7242 -410.76401 -969.23492
-243.76271 -431.2724 -959.59186
-244.81015 -451.95715 -949.86591
-245.86743 -472.82199 -940.04858
-246.93307 -493.86612 -930.15369
-248.008 -515.09351 -920.17249
-249.09233 -536.50647 -910.10413
-309.18787 360.7193 -112.84538
-306.83005 332.39923 -136.56302
-305.83206 305.83215 -146.60211
-304.84055 279.43726 -156.57603
-303.85544 253.21294 -166.4857
-302.87668 227.15762 -176.33125
-301.90155 201.26781 -186.13983
-300.90689 175.52911 -196.14551
-299.91232 149.95622 -206.15022
-298.95749 124.56557 -215.75507
-298.01376 99.337975 -225.24828
-297.07474 74.268776 -234.6942
-296.14285 49.357307 -244.06822
-295.21555 24.601425 -253.39613
-294.29404 1.8284863e-05 -262.66568
-293.37949 -24.448303 -271.8653
-292.46939 -48.744846 -281.02026
-291.56613 -72.891464 -290.10641
-286.18558 -95.395187 -344.23035
-211.5598 -88.149857 -1094.9078
-208.98967 -104.4948 -1120.7614
-209.50281 -122.20991 -1115.5996
-210.33253 -140.22163 -1107.2532
-211.17969 -158.38474 -1098.7316
-212.0311 -176.6926 -1090.1669
-212.88942 -195.14853 -1081.5328
-213.75471 -213.75467 -1072.8287
-214.62708 -232.51265 -1064.0533
-215.50659 -251.42432 -1055.2062
-216.39333 -270.49164 -1046.2863
-217.28741 -289.71658 -1037.2925
-218.1889 -309.10089 -1028.2242
-219.0979 -328.64682 -1019.0803
-220.01521 -348.35736 -1009.853
-220.93953 -368.23245 -1000.5551
-221.87164 -388.27527 -991.17871
-222.81166 -408.48798 -981.7229
-223.75967 -428.87271 -972.18652
-224.71579 -449.43155 -962.56879
-225.68011 -470.16684 -952.86853
-226.65274 -491.08096 -943.08447
-227.63379 -512.17609 -933.21582
-228.62338 -533.45453 -923.26147
-229.56818 -554.78973 -913.75751
-285.2402 363.03314 -92.895302
-284.29935 335.99023 -103.21995
-283.36469 309.12521 -113.47673
-282.42249 282.42258 -123.81623
-281.44705 255.86093 -134.52032
-280.52362 229.51939 -144.65343
-279.61603 203.35725 -154.61325
-278.71548 177.36449 -164.49547
-277.81952 151.53796 -174.32764
-276.93048 125.87756 -184.0836
-276.04593 100.38033 -193.79025
-275.16821 75.045982 -203.42241
-274.29486 49.871849 -213.00615
-273.42822 24.857124 -222.51642
-272.56586 8.0124082e-06 -231.97957
-271.71008 -24.70084 -241.37059
-270.85852 -49.247005 -250.71545
-267.44705 -72.940125 -288.15179
-261.16525 -94.969078 -357.08652
-193.07381 -87.76078 -1104.3014
-190.63147 -103.98077 -1131.103
-191.03526 -121.56781 -1126.6719
-191.8188 -139.50453 -1118.0737
-192.56949 -157.55687 -1109.8356
-193.34181 -175.76524 -1101.3605
-194.12036 -194.1203 -1092.817
-194.90578 -212.6245 -1084.1979
-195.69699 -231.27826 -1075.5154
-196.49466 -250.08408 -1066.7621
-197.29884 -269.04382 -1057.9371
-198.10965 -288.15945 -1049.0398
-198.92714 -307.4328 -1040.0688
-199.7514 -326.86588 -1031.0236
-200.58253 -346.46063 -1021.903
-201.42061 -366.21921 -1012.7062
-202.2657 -386.14355 -1003.4324
-203.11858 -406.23718 -994.07318
-203.97801 -426.49939 -984.64209
-204.84476 -446.93396 -975.13062
-205.7189 -467.54294 -965.53796
-206.60054 -488.32852 -955.86316
-207.48978 -509.29306 -946.10504
-208.38667 -530.43878 -936.26257
-209.28729 -551.75739 -926.37958
-268.14755 402.22144 13.792298
-262.17776 367.04895 -58.269669
-261.21924 339.58508 -69.839783
-260.33157 312.39789 -80.555252
-259.4718 285.41907 -90.933586
-258.61884 258.61887 -101.22952
-257.77032 231.99333 -111.4719
-256.9285 205.54297 -121.63369
-256.09103 179.26378 -131.74268
-255.26013 153.1562 -141.77267
-254.4335 127.21674 -151.75114
-253.6133 101.4454 -161.6519
-252.79726 75.839272 -171.50235
-251.98755 50.397556 -181.27621
-251.18193 25.118214 -191.00092
-250.38254 5.4127988e-05 -200.65073
-249.58713 -24.958593 -210.25198
-248.0683 -49.613613 -228.58588
-242.02786 -72.608345 -301.50034
-236.36835 -94.547241 -369.81674
-174.74979 -87.374817 -1113.6187
-172.64017 -103.58411 -1139.0839
-172.79091 -120.95364 -1137.2642
-173.46407 -138.77119 -1129.1387
-174.15337 -156.73801 -1120.818
-174.84819 -174.84816 -1112.4308
-175.54858 -193.10342 -1103.9764
-176.25458 -211.50543 -1095.454
-176.96631 -230.05618 -1086.8628
-177.68381 -248.75729 -1078.202
-178.40712 -267.61063 -1069.4707
-179.13692 -286.61908 -1060.6613
-179.87215 -305.78256 -1051.7861
-180.61345 -325.10413 -1042.838
-181.36087 -344.58563 -1033.8158
-182.11452 -364.229 -1024.7185
-182.87445 -384.03629 -1015.5453
-183.64073 -404.00961 -1006.2952
-184.4135 -424.151 -996.96735
-185.19276 -444.46259 -987.56061
-185.97865 -464.94659 -978.07404
-186.77187 -485.60672 -968.49951
-187.57124 -506.44232 -958.85004
-188.37749 -527.45697 -949.11761
-189.16005 -548.56415 -939.67133
-239.71851 399.53101 -7.8590717
-239.48358 372.53006 -11.010012
-237.67323 343.30576 -35.290909
-236.87811 315.83759 -45.955498
-236.0872 288.55109 -56.563122
-235.30264 261.44748 -67.085976
-234.52222 234.52231 -77.553284
-233.74799 207.77603 -87.937416
-232.97784 181.20512 -98.266998
-232.21378 154.80919 -108.51494
-231.45366 128.58549 -118.70968
-230.69954 102.53321 -128.8244
-229.94931 76.649757 -138.88657
-229.20493 50.934475 -148.87041
-228.46437 25.384979 -158.80298
-227.72957 -3.9722683e-05 -168.65834
-226.99849 -25.221972 -178.46379
-222.13342 -49.362904 -243.71555
-216.83882 -72.279572 -314.72806
-211.79076 -94.12915 -382.43448
-157.24374 -87.357559 -1114.0353
-155.76587 -103.84383 -1133.8568
-155.39455 -120.8624 -1138.8374
-155.75156 -138.4458 -1134.0488
-156.12369 -156.12364 -1129.0577
-156.54655 -173.94057 -1123.3861
-157.17035 -192.09706 -1115.0195
-157.79916 -210.39888 -1106.5859
-158.433 -228.8476 -1098.0846
-159.07196 -247.44525 -1089.5146
-159.71609 -266.19342 -1080.8752
-160.36546 -285.09406 -1072.1658
-161.02014 -304.14914 -1063.3851
-161.68018 -323.36032 -1054.5323
-162.34566 -342.72964 -1045.6069
-163.01714 -362.26022 -1036.6008
-163.69368 -381.9519 -1027.5267
-164.37589 -401.80765 -1018.377
-165.06377 -421.82962 -1009.1507
-165.75746 -442.01978 -999.84692
-166.45699 -462.3804 -990.46454
-167.16246 -482.91376 -981.00262
-167.87392 -503.6217 -971.46027
-168.59148 -524.50684 -961.83612
-169.289 -545.48676 -952.48071
-216.89223 433.78452 49.616066
-215.08318 403.2811 22.319511
-214.35066 375.11377 11.266673
-213.62996 347.14877 0.39214858
-213.58014 320.37027 -0.35969895
-212.18372 291.75272 -21.430098
-211.46982 264.33734 -32.201832
-210.76167 237.10686 -42.88699
-210.0573 210.05739 -53.515282
-209.35857 183.18884 -64.05825
-208.66353 156.49773 -74.5457
-207.97401 129.98378 -84.949577
-207.28812 103.6442 -95.298927
-206.60765 77.477867 -105.56625
-205.93074 51.482742 -115.78011
-205.25914 25.657433 -125.91376
-204.59102 7.2837043e-05 -135.99512
-201.43526 -25.179319 -183.61168
-196.53952 -49.134872 -257.48285
-191.87688 -71.953796 -327.83664
-187.4296 -93.714798 -394.94095
-140.5145 -87.821495 -1102.8351
-139.70699 -104.7802 -1115.0194
-139.64516 -122.18944 -1115.9524
-139.64807 -139.64804 -1115.9083
-139.65057 -157.10689 -1115.8705
-139.65311 -174.56628 -1115.8326
-139.71535 -192.1086 -1114.8933
-140.0518 -210.07764 -1109.8167
-140.3903 -228.1342 -1104.7089
-140.72537 -246.2693 -1099.6534
-141.222 -264.79114 -1092.1599
-141.79312 -283.58618 -1083.542
-142.36891 -302.53381 -1074.8542
-142.94939 -321.63608 -1066.0956
-143.53461 -340.89468 -1057.2651
-144.12465 -360.31161 -1048.3621
-144.71956 -379.88876 -1039.3856
-145.31941 -399.6283 -1030.3346
-145.9247 -419.53345 -1021.2015
-146.53459 -439.60373 -1011.9989
-147.14961 -459.8425 -1002.7189
-147.76981 -480.2518 -993.36102
-148.39525 -500.83392 -983.92365
-149.02603 -521.591 -974.40607
-149.64682 -542.46979 -965.03876
-190.99419 436.55814 70.541618
-190.33408 407.8588 59.158512
-189.67853 379.35718 47.853729
-189.02745 351.05112 36.626591
-188.38171 322.94025 25.491213
-187.73175 295.00714 14.282958
-187.50348 267.86227 10.346435
-187.78093 241.43265 15.131017
-185.84145 212.39024 -18.314119
-185.21643 185.21646 -29.09223
-184.59476 158.22409 -39.812668
-183.97723 131.4124 -50.46146
-183.36465 104.77985 -61.024853
-182.75534 78.323784 -71.532143
-182.15086 52.043194 -81.956001
-181.54956 25.935709 -92.324959
-179.90063 4.6277273e-05 -120.75965
-175.42578 -25.060822 -197.92578
-171.18176 -48.909046 -271.11111
-167.13824 -71.630615 -340.83914
-163.28134 -93.303574 -407.349
-159.59843 -113.99875 -470.85873
-156.07085 -133.77493 -531.68982
-152.6787 -152.67871 -590.18512
-123.7766 -141.45898 -1088.584
-123.77923 -159.14465 -1088.5387
-123.78147 -176.83064 -1088.5
-123.78373 -194.51723 -1088.4612
-123.78635 -212.20515 -1088.4159
-123.7886 -229.89308 -1088.3771
-123.7901 -247.58014 -1088.3512
-123.79123 -265.26688 -1088.3318
-123.98391 -283.39175 -1085.009
-124.28673 -301.83914 -1079.7874
-124.58609 -320.36417 -1074.625
-124.92393 -339.07916 -1068.7991
-125.43472 -358.38489 -1059.9907
-125.9497 -377.84903 -1051.1102
-126.46893 -397.47369 -1042.1565
-126.99246 -417.26089 -1033.1285
-127.52034 -437.21262 -1024.0255
-128.05263 -457.33072 -1014.8467
-128.58937 -477.61768 -1005.5906
-129.13106 -498.07687 -996.24982
-129.67691 -518.70764 -986.83685
-130.2224 -539.49274 -977.43024
-167.12608 473.52396 139.28195
-165.59555 441.58807 108.49002
-165.01665 412.54163 96.843536
-164.44177 383.69748 85.278214
-163.87091 355.05365 73.793152
-163.30475 326.60965 62.402748
-162.74174 298.36005 51.075691
-162.18259 270.30441 39.826431
-161.64143 242.46216 28.93948
-161.25298 215.00401 21.124249
-161.36143 188.25514 23.306259
-159.98901 159.98917 -4.3049588
-159.44785 132.87332 -15.192055
-158.91107 105.94077 -25.991182
-158.37718 79.188675 -36.732342
-157.84756 52.615982 -47.387344
-157.32079 26.22014 -57.985424
-153.44662 3.8426831e-05 -135.92744
-149.66014 -24.943304 -212.10568
-146.05602 -48.685219 -284.61499
-142.6214 -71.310646 -353.71384
-139.34464 -92.896385 -419.63766
-136.21503 -113.5125 -482.60034
-133.20824 -133.20821 -543.09241
-130.32549 -152.04634 -601.08862
-127.56441 -170.08583 -656.63745
-124.9179 -187.3768 -709.88104
-122.37939 -203.96567 -760.95178
-119.9416 -219.89288 -809.99652
-107.49666 -214.9933 -1060.3693
-107.49898 -232.91446 -1060.3228
-107.50095 -250.83554 -1060.283
-107.50294 -268.75723 -1060.2432
-107.50524 -286.68063 -1060.1967
-107.50656 -304.6019 -1060.17
-107.50789 -322.52353 -1060.1436
-107.50887 -340.44476 -1060.1237
-107.53396 -358.44653 -1059.6189
-107.80006 -377.30017 -1054.2655
-108.06214 -396.22778 -1048.9927
-108.32449 -415.24384 -1043.7145
-108.71216 -434.84863 -1035.9154
-109.16348 -454.84781 -1026.8354
-109.61855 -475.0137 -1017.6801
-110.07745 -495.34848 -1008.4479
-110.54018 -515.85425 -999.13818
-111.00684 -536.53302 -989.75
-111.92739 -559.63696 -971.22986
-113.33921 -585.58582 -942.82642
-140.10135 476.34473 159.31082
-139.6048 446.7355 147.323
-139.1111 417.33334 135.40398
-138.62086 388.13855 123.5687
-138.13408 359.14871 111.81681
-137.65137 330.3634 100.16279
-137.17136 301.7771 88.574371
-136.69469 273.38943 77.066353
-136.2213 245.19843 65.638069
-135.75121 217.20204 54.288876
-135.28558 189.39983 43.047909
-134.82689 161.79242 31.973841
-134.89294 134.89304 33.568424
-133.90894 107.12723 9.812542
-133.45464 80.072868 -1.1554503
-133.00278 53.201187 -12.063805
-130.54712 26.109495 -71.349022
-127.26001 7.4152427e-05 -150.70676
-124.1349 -24.826918 -226.15329
-121.1591 -48.463497 -297.99564
-118.32263 -70.993576 -366.47403
-115.61594 -92.492752 -431.81943
-113.02987 -113.02985 -494.25262
-110.53853 -132.64609 -554.39899
-108.15626 -151.41875 -611.91211
-105.87411 -169.3985 -667.00781
-103.68666 -186.63582 -719.81781
-101.58741 -203.1748 -770.49805
-99.571472 -219.05724 -819.16699
-97.634323 -234.32234 -865.93402
-95.77079 -249.00395 -910.92371
-93.977364 -263.13654 -954.2207
-92.316109 -276.94827 -994.32703
-91.48423 -292.74948 -1014.4105
-90.782249 -308.65961 -1031.3575
-90.784233 -326.82318 -1031.3099
-90.785927 -344.98645 -1031.269
-90.787338 -363.14935 -1031.2349
-90.788467 -381.31152 -1031.2076
-90.789314 -399.4729 -1031.1873
-90.790443 -417.63602 -1031.1599
-90.791298 -435.79816 -1031.1394
-90.915718 -454.57861 -1028.1353
-91.139145 -473.92343 -1022.7416
-91.362801 -493.35913 -1017.3418
-91.613152 -513.03363 -1011.2979
-91.99778 -533.5871 -1002.0121
-92.420464 -554.52277 -991.80762
-94.047615 -583.09521 -952.52466
-94.342491 -603.79187 -945.40594
-94.669907 -624.82129 -937.50128
-95.056229 -646.38226 -928.1748
-95.50943 -668.56598 -917.23346
-96.053185 -691.58289 -904.10602
-115.28796 518.7959 256.08673
-113.40769 481.98282 199.3446
-113.00101 452.00403 187.07188
-112.59669 422.23773 174.87073
-112.19525 392.68356 162.75624
-111.79667 363.33926 150.72789
-111.40091 334.20276 138.78473
-111.00847 305.27325 126.94183
-110.61826 276.54568 115.16605
-110.23078 248.01942 103.47289
-109.84601 219.69214 91.861504
-109.46442 191.56279 80.346268
-109.08498 163.62752 68.895348
-108.70815 135.88531 57.523434
-108.33894 108.33898 46.381752
-108.27665 81.207497 44.501801
-106.65593 53.327942 -4.4077468
-103.92776 25.982014 -86.737457
-101.32338 2.8680779e-06 -165.33162
-98.846329 -24.711479 -240.08318
-96.487503 -48.24366 -311.26712
-94.238632 -70.678909 -379.13278
-92.092575 -92.092545 -443.89584
-90.034439 -112.54301 -506.00565
-88.059647 -132.08942 -565.60028
-86.169296 -150.79616 -622.64655
-84.358711 -168.71735 -677.28583
-82.622353 -185.90025 -729.68488
-80.956039 -202.39005 -779.97046
-79.355873 -218.22853 -828.25989
-77.817482 -233.45233 -874.685
-76.337601 -248.09715 -919.3443
-74.913193 -262.19614 -962.32953
-73.578972 -275.92117 -1002.5931
-73.243393 -292.97357 -1012.7202
-73.417038 -312.02237 -1007.4801
-73.590103 -331.15543 -1002.2571
-73.806435 -350.58054 -995.72888
-74.016296 -370.08136 -989.39594
-74.545837 -391.36563 -973.41528
-73.613541 -404.87442 -1001.55
-73.614929 -423.2858 -1001.508
-73.615623 -441.69366 -1001.4871
-73.616554 -460.10345 -1001.459
-73.617256 -478.51208 -1001.438
-73.618187 -496.92267 -1001.4099
-73.618881 -515.33209 -1001.389
-73.619804 -533.74353 -1001.361
-75.519638 -566.39722 -944.0285
-75.545784 -585.47974 -943.23938
-75.652008 -605.216 -940.03387
-75.79911 -625.34259 -935.59454
-75.966309 -645.7135 -930.54901
-76.164795 -666.44177 -924.55927
-76.389046 -687.50128 -917.79187
-76.638763 -708.90851 -910.25586
-86.389618 518.33783 253.01463
-86.074562 487.75607 240.33777
-85.762207 457.39859 227.76976
-85.451698 427.2587 215.27591
-85.14344 397.33615 202.87225
-84.837387 367.62872 190.55769
-84.533524 338.13422 178.33145
-84.232246 308.85172 166.20859
-83.932693 279.77579 154.15572
-83.635277 250.90587 142.18837
-83.339943 222.23987 130.30554
-83.046707 193.77576 118.50631
-82.755905 165.51186 106.80549
-82.466751 137.44467 95.170631
-82.179611 109.57284 83.617073
-81.738884 81.738884 65.883842
-79.603256 53.068905 -20.047586
-77.567093 25.855764 -101.97622
-75.6325 5.4352739e-05 -179.8181
-73.792068 -24.597212 -253.87164
-72.03907 -48.026031 -324.40665
-70.367432 -70.367363 -391.66833
-68.771614 -91.695374 -455.87906
-67.237274 -112.06209 -517.61603
-65.768433 -131.53677 -576.71814
-64.362381 -150.1788 -633.29297
-63.015423 -168.04112 -687.49036
-61.723465 -185.17038 -739.47455
-60.483631 -201.612 -789.36163
-59.292427 -217.4055 -837.29211
-58.147232 -232.58897 -883.37097
-57.045628 -247.19769 -927.69629
-55.984806 -261.26239 -970.38049
-55.458427 -277.29211 -991.56036
-55.393169 -295.43021 -994.18604
-55.411751 -313.99982 -993.43848
-55.455791 -332.73471 -991.66638
-55.526299 -351.66644 -988.82935
-55.616055 -370.77365 -985.21783
-56.442577 -395.09796 -951.96118
-56.439121 -413.88681 -952.10034
-56.453854 -432.81281 -951.50732
-56.524742 -452.19781 -948.65533
-56.623245 -471.86026 -944.69171
-55.969952 -485.07297 -970.97803
-55.970848 -503.73752 -970.94214
-55.991249 -522.58496 -970.12128
-57.434021 -650.91895 -912.0686
-57.417824 -669.87463 -912.72028
-57.482658 -689.79187 -910.11157
-57.578285 -710.1322 -906.26373
-59.718563 567.32642 381.29895
-58.293873 524.64502 295.31131
-58.078705 493.66913 282.32462
-57.865112 462.92108 269.43341
-57.653374 432.40048 256.65366
-57.442894 402.10031 243.9501
-57.233948 372.02066 231.33928
-57.026516 342.1593 218.81952
-56.820858 312.51477 206.40698
-56.616405 283.08209 194.06711
-56.413414 253.86052 181.81563
-56.21188 224.84755 169.65186
-56.011776 196.04128 157.57465
-55.813358 167.4402 145.59892
-55.616077 139.04018 133.69215
-55.420189 110.84035 121.86908
-54.215755 81.323753 49.175194
-52.805523 52.805523 -35.939671
-51.461353 25.73073 -117.06767
-50.183914 2.1716496e-05 -194.1678
-48.968361 -24.484062 -267.53305
-47.810299 -47.810287 -337.42816
-46.70575 -70.058548 -404.09378
-45.624855 -91.249687 -469.33145
-44.633945 -111.58487 -529.13812
-43.662945 -130.98871 -587.74316
-42.733452 -149.56708 -643.84314
-41.842556 -167.3701 -697.61365
-40.988045 -184.44614 -749.18768
-40.167877 -200.83928 -798.68927
-39.379753 -216.58861 -846.25671
-38.622093 -231.7325 -891.98566
-37.892914 -246.30391 -935.99548
-37.507015 -262.54904 -959.28644
-37.447105 -280.85321 -962.90228
-37.448307 -299.58643 -962.8299
-37.449627 -318.32175 -962.75006
-37.450829 -337.05746 -962.67755
-37.452152 -355.79547 -962.59772
-38.157074 -381.57071 -920.05194
-38.154331 -400.62045 -920.21759
-38.152084 -419.67285 -920.35309
-38.149715 -438.72168 -920.49603
-38.147472 -457.76962 -920.63153
-38.145103 -476.81381 -920.77429
-38.14286 -495.85715 -920.90973
-38.149963 -515.02454 -920.48096
-29.617044 562.72394 352.05856
-29.505966 531.10754 338.65009
-29.39572 499.72723 325.34195
-29.286291 468.58078 312.13303
-29.177822 437.66751 299.03967
-29.070009 406.98026 286.02536
-28.962988 376.51892 273.10684
-28.856754 346.28119 260.28323
-28.751295 316.26431 247.55319
-28.646746 286.46753 234.93297
-28.542812 256.88538 222.38739
-28.439634 227.51717 209.93227
-28.337196 198.36038 197.5672
-28.235495 169.41298 185.29063
-28.134655 140.67339 173.11836
-27.709568 110.83833 121.80544
-26.97061 80.911942 32.605442
-26.272289 52.544582 -51.689281
-25.606745 25.606756 -132.02751
-24.974089 3.7132944e-05 -208.3959
-24.372042 -24.371954 -281.06949
-23.798243 -47.596386 -350.33337
-23.250837 -69.752441 -416.4108
-22.725573 -90.902313 -479.81573
-22.222334 -111.11161 -540.56226
-21.740976 -130.4458 -598.66699
-21.279955 -148.95964 -654.31708
-20.838081 -166.70453 -707.65619
-20.414253 -183.7282 -758.81671
-20.007257 -200.07256 -807.94562
-19.616236 -215.77849 -855.146
-19.240143 -230.88164 -900.54437
-19.028723 -247.37334 -926.06519
-18.990034 -265.86035 -930.73547
-18.990711 -284.86066 -930.65338
-18.991392 -303.86221 -930.57129
-18.992008 -322.8642 -930.4967
-18.992689 -341.86841 -930.41461
-19.350414 -367.65784 -887.2334
-19.348875 -386.97745 -887.41925
-19.347721 -406.30215 -887.55853
-19.346502 -425.62308 -887.70551
-19.345348 -444.94302 -887.84479
-19.344131 -464.25909 -887.99194
-19.342978 -483.57434 -888.13129
-19.341761 -502.88568 -888.2782
2.6350294e-22 619.40491 515.4043
-3.1665157e-22 569.76874 396.81519
4.9751259e-22 537.7312 383.06998
-7.2321465e-22 505.93604 369.42831
2.1226811e-22 474.38062 355.8898
1.2716717e-22 443.06433 342.47086
-1.9808302e-22 411.97998 329.13434
-2.9582193e-22 381.12711 315.897
2.0896545e-22 350.50354 302.75815
-2.8820449e-22 320.10666 289.71643
-2.1895628e-22 289.93488 276.78821
1.2553985e-22 259.98331 263.93753
-5.3934195e-22 230.25087 251.18079
8.2691328e-23 200.73508 238.51732
-8.0314108e-22 171.43382 225.94554
-5.8745005e-22 141.70673 198.06522
-4.0107875e-22 110.27252 104.72968
-2.999936e-22 80.504631 16.217693
-1.9200794e-22 52.28648 -67.269684
-2.9262726e-22 25.484154 -146.83052
1.7708521e-22 4.5278972e-05 -222.47806
-2.5940332e-22 -24.260773 -294.49463
4.5754846e-22 -47.38438 -363.13501
-3.1558728e-23 -69.44873 -428.63159
-7.9772523e-22 -90.509682 -491.66141
4.2467313e-22 -110.64247 -551.89008
4.3037439e-22 -129.90692 -609.51025
3.4815792e-22 -148.35715 -664.70636
-7.9650263e-23 -166.04485 -717.61047
-4.1256976e-22 -183.01524 -768.37933
-3.06054e-22 -199.31157 -817.13153
-2.2967813e-22 -214.97377 -863.97711
-2.788986e-22 -231.74553 -891.85449
-1.0031127e-21 -250.43539 -897.63202
-3.0637257e-22 -269.7095 -897.54755
2.7399792e-22 -288.98404 -897.47076
-6.8315476e-22 -308.2608 -897.38641
-1.1730798e-22 -327.53903 -897.30188
1.8112731e-22 -353.34271 -853.46582
-2.5989365e-22 -372.94022 -853.6731
-1.9399274e-22 -392.54358 -853.82446
-3.504835e-22 -412.14584 -853.96783
-5.344391e-22 -431.74429 -854.11914
-5.172699e-22 -451.34171 -854.26245
3.1946741e-22 -470.93524 -854.4137
8.6780102e-23 -490.52786 -854.55701
30.485519 609.71057 456.8927
30.368004 576.99213 442.70694
30.251232 544.5224 428.6116
30.135355 512.30127 414.62399
30.020361 480.32596 400.74332
29.906244 448.59381 386.96786
29.793144 417.10406 373.31543
29.680742 385.84979 359.74765
29.569187 354.83035 346.28174
29.458467 324.0433 332.91647
29.348574 293.48581 319.65125
29.239643 263.15689 306.50204
29.131372 233.05104 293.43271
29.023901 203.16734 280.45978
28.917221 173.50339 267.58231
28.188864 140.94443 179.66171
27.426149 109.70467 87.594093
26.700325 80.100937 -0.020674471
26.015406 52.030838 -82.697891
25.36265 25.362766 -161.4924
24.741852 5.1507926e-05 -236.42924
24.150719 -24.150682 -307.78564
23.58717 -47.174202 -375.8118
23.047594 -69.142677 -440.94424
22.530155 -90.120483 -503.405
22.035519 -110.17763 -563.11249
21.562059 -129.37236 -620.26434
21.108515 -147.75961 -675.01196
20.673731 -165.38983 -727.495
20.256426 -182.3078 -777.86804
19.855703 -198.55701 -826.23969
19.604115 -215.6452 -856.60925
19.546545 -234.55846 -863.55847
19.547266 -254.11436 -863.4715
19.54792 -273.67084 -863.3924
19.548641 -293.22958 -863.30548
19.549294 -312.7887 -863.2265
19.918169 -338.60873 -818.69958
19.91613 -358.49033 -818.9455
19.914907 -378.38321 -819.09314
19.913616 -398.27234 -819.24896
19.912394 -418.16019 -819.39667
19.911102 -438.04425 -819.55237
19.90988 -457.92715 -819.69995
64.299782 675.14777 657.80005
61.757011 617.57019 504.33011
61.515892 584.40112 489.77728
61.276325 551.487 475.31812
61.038616 518.82843 460.97131
60.802746 486.42206 446.73529
60.568691 454.26529 432.60886
60.336742 422.35715 418.60956
60.106258 390.69064 404.69839
59.877522 359.26532 390.89304
59.650524 328.07791 377.19235
59.42524 297.12628 363.59528
59.20195 266.409 350.11862
58.980034 235.92015 336.72488
58.759777 205.65927 323.43115
57.685844 173.05768 258.61377
56.076073 140.19032 161.45515
54.571552 109.14322 70.649338
53.134529 79.701897 -16.082533
51.777447 51.777531 -97.989868
50.48468 25.242422 -176.01505
49.254692 0.00012663644 -250.2515
48.08321 -24.041512 -320.9566
46.96616 -46.966137 -388.37659
45.893337 -68.839897 -453.12711
44.867573 -89.735023 -515.03766
43.88649 -109.71609 -574.2511
42.947395 -128.84216 -630.93024
42.047802 -147.16733 -685.22565
41.184975 -164.73984 -737.30194
40.356991 -181.60645 -787.27533
39.81012 -199.05045 -820.28186
39.674431 -218.20938 -828.47144
39.675915 -238.05536 -828.38196
39.677261 -257.90225 -828.30042
39.678745 -277.75122 -828.211
39.680096 -297.60062 -828.12958
40.429382 -323.43503 -782.90607
40.424904 -343.61154 -783.17657
40.422382 -363.80142 -783.32849
40.419724 -383.98734 -783.48914
40.417206 -404.172 -783.64105
40.414543 -424.35275 -783.80145
40.412029 -444.53226 -783.95343
94.219902 659.53943 568.08118
93.845276 625.63531 553.00696
93.473602 591.99957 538.05212
93.105362 558.63232 523.23517
92.739517 525.52399 508.51474
92.376541 492.67493 493.90982
92.016388 460.08206 479.41849
91.659035 427.74222 465.0397
91.304932 395.65472 450.79153
90.953072 363.81235 436.63394
90.603912 332.21457 422.58487
90.257431 300.85809 408.64343
89.91404 269.74207 394.82675
89.579681 238.87927 381.37289
88.584167 206.69649 341.31647
86.055107 172.1102 239.5549
83.692032 139.48688 144.47209
81.440109 108.58692 53.861973
79.306213 79.30632 -31.999523
77.290146 51.526814 -113.11986
75.369179 25.123146 -190.4137
73.541374 0.00015389941 -263.95871
71.800423 -23.933468 -334.00906
70.096764 -46.731121 -402.55927
68.539864 -68.539833 -465.20361
67.014465 -89.3526 -526.58148
65.555222 -109.25867 -585.29657
64.158417 -128.3167 -641.49988
62.819668 -146.57922 -695.36694
61.535645 -164.09502 -747.03204
60.645958 -181.93781 -782.83002
60.409775 -201.36586 -792.33337
60.412067 -221.51089 -792.24127
60.41436 -241.65749 -792.14893
60.416653 -261.80536 -792.05682
60.418736 -281.95407 -791.9729
61.56052 -307.80261 -746.03094
61.553165 -328.28348 -746.32709
61.549053 -348.77795 -746.49243
61.545158 -369.2709 -746.64923
61.54105 -389.75992 -746.81445
61.537159 -410.24774 -746.97095
61.533047 -430.73132 -747.13641
127.29557 668.30182 618.44824
126.78271 633.9137 602.97186
126.27398 599.80151 587.61951
125.76999 565.9649 572.41016
125.26934 532.39484 557.30164
124.77265 499.09082 542.31281
124.27989 466.04984 527.44238
123.79101 433.26868 512.68903
123.36589 400.93924 499.85992
122.857 368.57104 484.50275
122.37666 336.5358 470.00729
121.9007 304.75177 455.64386
121.42779 273.21268 441.37268
120.95854 241.91714 427.21167
117.45039 205.53824 321.34396
114.11546 171.17325 220.70355
111.00794 138.7599 126.92592
108.03668 108.03683 37.260021
105.21037 78.907936 -48.031254
102.55699 51.27858 -128.10411
100.02002 25.004999 -204.66393
97.60553 9.4720905e-05 -277.52765
95.304863 -23.826256 -346.95636
93.100136 -46.550011 -413.49002
90.990143 -68.242546 -477.1647
88.973328 -88.973282 -538.02753
87.044304 -108.80535 -596.24066
85.196846 -127.79522 -651.99286
83.426178 -145.99568 -705.42749
82.141907 -164.28375 -744.18365
81.780853 -184.00687 -755.07959
81.784012 -204.45993 -754.98444
81.787155 -224.91466 -754.88922
81.790024 -245.37001 -754.80292
81.793167 -265.82779 -754.70782
83.340424 -291.69147 -708.01538
83.329117 -312.48416 -708.35651
83.323769 -333.29504 -708.51788
83.318123 -354.10202 -708.68829
83.312767 -374.90744 -708.84985
83.307121 -395.7088 -709.02032
83.301773 -416.50876 -709.18176
161.92574 712.47333 686.19818
161.26192 677.30029 670.17194
160.60352 642.41418 654.27655
159.95045 607.81183 638.51062
159.36969 573.73102 624.48932
158.70415 539.5943 608.4223
158.07585 505.84277 593.25342
157.43976 472.31943 577.89685
156.80876 439.06461 562.66327
156.18282 406.07538 547.55145
155.56183 373.34836 532.55957
154.94576 340.88074 517.68658
154.33458 308.66925 502.93097
153.72897 276.71225 488.31085
150.36472 240.58368 407.09055
145.99492 204.39307 301.59406
141.87193 170.24643 202.05623
138.04132 138.04143 109.57716
134.36449 107.49164 20.810606
130.85497 78.512993 -63.916649
127.58154 51.032661 -142.94447
124.44028 24.8881 -218.78096
121.44999 0.0001150856 -290.97293
118.60004 -23.719948 -359.77652
115.86102 -46.344292 -425.90295
113.24607 -67.947571 -489.03308
110.74656 -88.597206 -549.37659
108.35541 -108.35534 -607.10413
106.06495 -127.27783 -662.40088
104.3297 -146.06151 -704.29358
103.81685 -166.10696 -716.67474
103.82128 -186.87828 -716.56769
103.82534 -207.65063 -716.46954
103.82903 -228.42384 -716.38043
103.8331 -249.19933 -716.28241
105.7989 -275.07709 -668.82385
105.78355 -296.19394 -669.19403
105.77666 -317.32999 -669.36066
105.76937 -338.46191 -669.5365
105.76247 -359.59244 -669.70294
105.7552 -380.71863 -669.87885
105.7483 -401.84351 -670.04535
197.11363 722.74994 742.5849
196.19168 686.67108 724.0368
195.42323 651.41083 708.57678
194.6132 616.27521 692.27997
193.80984 581.42957 676.11768
193.01309 546.87054 660.08832
192.22287 512.59442 644.19031
191.43909 478.59784 628.42175
190.66167 444.87726 612.78143
189.89055 411.42969 597.26746
189.12561 378.25134 581.87866
188.36684 345.33914 566.61316
187.61412 312.69022 551.46979
184.91109 277.36667 497.08878
179.40807 239.21094 386.37628
174.22311 203.26031 282.06314
169.40723 169.4073 185.17531
164.79536 137.32957 92.391724
160.4287 106.95251 4.5409179
156.24353 78.121925 -79.658096
152.36656 50.789005 -157.65662
148.63316 24.772287 -232.76665
145.07777 4.5923944e-06 -304.2959
141.67072 -23.611778 -372.84039
138.4211 -46.140347 -438.2175
135.31044 -67.655136 -500.79941
132.33701 -88.224548 -560.62018
129.49097 -107.90903 -617.87811
127.24741 -127.24743 -663.01483
126.54996 -147.64157 -677.04669
126.55499 -168.73993 -676.94543
126.56048 -189.84059 -676.83508
126.56505 -210.94177 -676.74298
126.57008 -232.04506 -676.64185
128.96838 -257.93668 -628.3916
128.94891 -279.38934 -628.78308
128.93942 -300.85861 -628.97412
128.93089 -322.32715 -629.14612
128.92186 -343.79169 -629.32739
128.91333 -365.25439 -629.49933
128.90431 -386.71283 -629.68073
231.13008 660.37164 762.66034
230.15891 624.7171 745.91302
229.19585 589.36072 729.30585
228.24083 554.29926 712.83716
227.29373 519.52856 696.50513
226.35446 485.04535 680.3078
225.42293 450.84595 664.24414
224.49902 416.92685 648.31219
223.58267 383.28482 632.51001
222.67377 349.91617 616.83643
221.3038 316.14835 593.21222
214.46826 275.745 475.33777
208.12181 237.85365 365.897
202.14017 202.14029 262.74725
196.60054 168.51482 167.21959
191.2758 136.62563 75.398033
186.23189 106.41825 -11.580962
181.38435 77.736137 -95.173798
176.91672 50.547745 -172.21574
172.60114 24.65748 -246.63516
168.49109 0.00012681792 -317.51041
164.5497 -23.506939 -385.47723
160.78343 -45.938072 -450.42419
157.18631 -67.365578 -512.45422
153.74603 -87.854774 -571.77954
150.92996 -107.80708 -620.34131
150.01347 -128.58292 -636.14526
150.01955 -150.0195 -636.04059
150.02615 -171.45837 -635.92676
150.03166 -192.8978 -635.83185
150.03772 -214.33955 -635.72711
152.88321 -240.24506 -586.65851
152.86034 -262.04611 -587.0531
152.84718 -283.85901 -587.27991
152.83688 -305.67383 -587.45728
152.82602 -327.48425 -587.64459
152.81575 -349.293 -587.82202
152.80489 -371.0975 -588.00922
266.05536 631.88147 791.42987
266.54736 599.73157 798.85394
264.43881 561.93256 767.03876
263.32651 526.65314 750.25458
262.22345 491.66901 733.61121
261.12964 456.97687 717.10669
260.04489 422.573 700.7392
258.96912 388.45374 684.50726
257.90222 354.61572 668.40881
251.3004 314.12558 568.7951
243.68181 274.14206 453.83939
236.51157 236.51158 345.64902
229.75122 201.03244 243.64314
223.50772 167.63095 149.43608
217.48515 135.92833 58.562378
211.77957 105.88981 -27.527975
206.2782 77.354385 -110.53722
201.23476 50.308777 -186.63715
196.34863 24.543598 -260.36304
191.57463 -3.4917415e-05 -332.39725
187.21695 -23.402029 -398.14966
182.95056 -45.737621 -462.52429
178.87498 -67.078049 -524.02026
175.41541 -87.707657 -576.22101
174.24255 -108.90158 -593.91785
174.25037 -130.6877 -593.80029
174.25751 -152.47517 -593.69238
174.26466 -174.26459 -593.58447
174.27182 -196.05579 -593.47644
177.58058 -221.97571 -543.55096
177.5529 -244.13522 -543.96875
177.53603 -266.30402 -544.22333
177.52321 -288.47516 -544.41669
177.51106 -310.64435 -544.59998
177.49823 -332.80911 -544.79352
177.4861 -354.9722 -544.97656
297.85291 628.80072 771.85687
298.57233 597.14484 781.50592
299.5546 565.82544 794.68018
300.54507 534.30237 807.9649
299.08566 498.47614 788.39044
297.82083 463.27707 771.42676
296.56671 428.37418 754.60571
295.32309 393.76416 737.92603
290.0423 354.49628 667.09839
281.02829 312.25372 546.20001
272.55771 272.55783 432.58975
264.58279 235.18483 325.62796
257.22113 200.06096 226.89113
250.13531 166.75702 131.85411
243.42943 135.23865 41.912716
237.07372 105.36613 -43.331963
230.92871 76.976295 -125.75063
225.32397 50.071972 -200.92276
219.87805 24.430964 -273.96509
214.66638 3.2964359e-05 -343.86575
209.68263 -23.297958 -410.70926
204.92586 -45.539074 -474.50845
200.74533 -66.915161 -530.5791
199.27652 -88.567284 -550.27924
199.28484 -110.71368 -550.16772
199.2939 -132.86258 -550.04602
199.30222 -155.0128 -549.93445
199.30978 -177.16412 -549.83307
203.09825 -203.09825 -499.02078
203.06607 -225.62891 -499.45251
203.0441 -248.16493 -499.74719
203.02997 -270.70651 -499.93668
203.01506 -293.2439 -500.13657
203.00095 -315.77917 -500.32599
329.34381 625.75323 752.49634
330.32224 594.58008 764.30688
331.40427 563.38733 777.36816
332.4953 531.99255 790.53821
333.59357 500.39047 803.79523
334.69717 468.57608 817.11713
334.10522 434.33701 809.97211
330.82767 396.99332 770.40802
320.29761 352.32739 643.29907
310.40399 310.40417 523.87262
301.10172 270.99158 411.58435
292.34079 233.87263 305.83044
284.27585 198.9931 208.47801
276.48541 165.89133 114.43881
269.11053 134.55527 25.416441
262.1189 104.84763 -58.980309
255.33942 76.601921 -140.81578
249.18652 49.837296 -215.08755
243.19244 24.319246 -287.44266
237.43744 1.5590811e-05 -356.91171
231.95036 -23.194933 -423.14648
226.96416 -45.392754 -483.33539
225.15555 -67.54657 -505.16727
225.1651 -90.065948 -505.052
225.17467 -112.58728 -504.93646
225.18507 -135.11107 -504.81067
225.19377 -157.63554 -504.70593
229.47842 -183.58269 -452.9856
229.44145 -206.49734 -453.43185
229.4144 -229.41437 -453.75836
229.39815 -252.33789 -453.95438
229.38104 -275.2572 -454.16104
229.36481 -298.17422 -454.35684
360.6261 622.89954 734.36682
361.80054 592.03729 747.25476
362.98267 560.97345 760.22705
364.17047 529.70258 773.26178
365.36816 498.22946 786.40491
366.57166 466.54575 799.61145
367.78522 434.65536 812.92877
361.64569 394.52271 745.55548
350.18689 350.18686 619.81012
339.43195 308.57455 501.78857
329.31793 269.44199 390.80051
319.80194 232.58324 286.37488
311.0448 197.93774 190.27655
302.56473 165.03534 97.219017
294.53479 133.87956 9.1006012
286.92004 104.33472 -74.461266
279.51257 76.230797 -155.74855
272.82761 49.605087 -229.10753
266.02768 24.184458 -303.72757
260.00305 7.2169132e-05 -369.83994
254.11951 -23.101667 -434.40439
251.92218 -45.803978 -458.51703
251.93405 -68.709251 -458.38687
251.94492 -91.616211 -458.26776
251.9558 -114.52537 -458.14825
251.96667 -137.43628 -458.02893
256.76556 -163.39621 -405.3674
256.72449 -186.70863 -405.81821
256.69061 -210.01953 -406.18976
256.67111 -233.33734 -406.40375
256.65265 -256.65256 -406.60641
256.63318 -279.96341 -406.82019
391.74042 620.2558 717.56952
393.01077 589.51617 730.34808
394.2894 558.57684 743.20984
395.57413 527.43225 756.13312
396.86948 496.08694 769.1637
398.17111 464.53308 782.2569
399.48358 432.77402 795.45929
392.06274 392.06281 720.81146
379.71518 348.07239 596.60474
368.12164 306.76813 479.98282
357.21509 267.91138 370.27118
347.20959 231.47319 269.62375
337.52966 196.89235 172.25107
328.37482 164.18752 80.160255
319.70346 133.2099 -7.0667043
311.4783 103.82611 -89.805382
303.45395 75.863594 -170.52411
296.2493 49.37495 -242.99728
289.14587 24.09553 -314.45212
282.36719 6.855114e-05 -382.64044
279.62485 -23.302038 -410.2265
279.63712 -46.606091 -410.10297
279.65051 -69.912529 -409.96823
279.66281 -93.220856 -409.8447
279.67508 -116.5312 -409.72119
285.00839 -142.50409 -356.07208
284.96088 -166.22713 -356.55035
284.92029 -189.94682 -356.95825
284.89828 -213.6736 -357.17981
284.87741 -237.3978 -357.38953
284.85541 -261.11734 -357.61105
422.59177 617.63422 700.91394
423.95633 587.01648 713.58478
425.32977 556.2005 726.3374
426.70969 525.18115 739.15094
428.10104 493.96292 752.07013
429.49908 462.53763 765.05151
430.90872 430.90872 778.14044
422.10284 389.63348 696.37415
408.88904 345.98312 573.67804
396.47739 304.9826 458.43076
384.79709 266.39789 349.97375
374.11325 230.22362 250.76988
363.73798 195.85901 154.43108
353.92267 163.34898 63.291462
344.62317 132.54747 -23.058563
335.79984 103.32307 -104.98684
327.1658 75.499901 -185.15799
319.44931 49.146202 -256.80881
311.8089 23.985308 -327.75333
308.31125 0.00014447712 -360.23038
308.32629 -23.717365 -360.0907
308.34009 -47.436825 -359.96289
308.35513 -71.158829 -359.82306
308.3689 -94.882668 -359.69528
314.25577 -120.86752 -305.03326
314.20239 -145.01653 -305.52844
314.15298 -169.15924 -305.98737
314.12958 -193.3105 -306.20468
314.10486 -217.45717 -306.43414
314.08148 -241.6011 -306.65134
453.18338 615.03479 684.3988
454.64059 584.53802 696.96295
456.10715 553.84454 709.60822
457.58069 522.94946 722.31311
459.06635 491.85681 735.1225
460.55905 460.55905 747.99316
462.06415 429.0596 760.97021
451.77298 387.23398 672.23804
437.71472 343.91876 551.02484
424.505 303.21777 437.12808
412.3894 265.10754 332.66531
400.72601 228.98634 232.10138
389.67081 194.83542 136.78105
379.2092 162.5183 46.578781
369.29459 131.89093 -38.906399
359.88522 102.82449 -120.03577
350.65137 75.13958 -199.65207
342.41089 48.915909 -270.70309
338.03732 24.14559 -308.41263
338.0527 -4.7490539e-06 -308.28003
338.06949 -24.147818 -308.13525
338.08487 -48.297775 -308.00275
338.10165 -72.450317 -307.85797
344.56335 -98.446587 -252.14415
344.50381 -123.03696 -252.65756
344.44574 -147.6196 -253.15825
344.41812 -172.20895 -253.39616
344.392 -196.7953 -253.62132
344.36444 -221.37715 -253.85901
489.09296 652.12408 712.88104
483.52127 612.46033 668.0437
485.06677 582.0802 680.48096
486.62494 551.50842 693.01984
488.19037 520.73663 705.61755
489.76865 489.7688 718.31873
491.35446 458.59747 731.08008
492.96439 427.23587 744.03607
481.07993 384.86395 648.39709
466.19849 341.87897 528.64056
452.21005 301.47357 416.07065
439.45532 263.67322 313.42828
427.0564 227.76349 213.64926
415.33594 193.82353 119.33041
404.24164 161.69675 30.050377
393.72461 131.24165 -54.584068
383.74097 102.33097 -134.92645
373.91388 74.782806 -214.00858
373.35269 49.780327 -218.52478
369.28555 24.619089 -251.25456
368.89349 0.00016216644 -254.40953
368.91217 -24.594059 -254.25934
368.92923 -49.190536 -254.1217
375.98987 -75.197914 -197.30232
375.92529 -100.24671 -197.82184
375.85913 -125.28636 -198.35423
375.82526 -150.33009 -198.62694
375.79623 -175.37149 -198.86053
375.76556 -200.40823 -199.10713
517.46765 646.83459 680.95679
513.60339 609.90405 651.80341
515.23822 579.64301 664.13708
516.88629 549.19171 676.57092
518.54211 518.54211 689.06287
520.21143 487.69839 701.6571
521.89447 456.65768 714.35474
523.63245 425.45148 727.4668
510.0303 382.52295 624.84637
494.34634 339.86322 506.52005
479.59821 299.7489 395.25391
466.19037 262.23218 294.0997
453.1048 226.55255 195.37668
440.7338 192.82106 102.04453
429.02032 160.88266 13.673445
417.91339 130.59798 -70.122009
407.36703 101.8418 -149.68823
400.94223 75.176773 -198.15968
400.99216 50.12405 -197.78285
401.21091 25.075762 -196.13254
401.47476 4.1952211e-05 -194.14188
402.16107 -25.135071 -188.96428
408.60022 -51.074982 -140.38428
408.52698 -76.598724 -140.93716
408.45374 -102.1134 -141.48975
408.41263 -127.62881 -141.7997
408.37872 -153.14201 -142.0556
545.33777 641.57397 649.20575
543.43549 607.36908 635.69812
545.15802 577.22607 647.92932
546.89453 546.89459 660.25946
548.6391 516.36621 672.64716
550.39789 485.64539 685.13574
552.22327 454.77213 698.09717
554.01141 423.65591 710.7937
538.63062 380.20987 601.58038
522.16425 337.87112 484.659
507.01648 298.24515 377.10056
492.63232 260.80548 274.96393
478.88 225.3553 177.31384
465.87247 191.82994 84.951935
453.55286 160.07755 -2.5249071
441.86804 129.96118 -85.494423
434.40952 102.21407 -138.45457
434.20615 76.624687 -139.89883
434.30875 51.0952 -139.17009
434.41144 25.553669 -138.44115
434.51602 -2.4570665e-05 -137.69824
442.45905 -26.026846 -81.297874
442.3782 -52.044399 -81.871964
442.29736 -78.052406 -82.446045
442.24612 -104.0579 -82.809906
442.21063 -130.0618 -83.061836
572.65204 636.28027 617.255
573.02063 604.85529 619.72626
574.82941 574.82953 631.85632
576.65271 544.61664 644.08405
578.48462 514.2085 656.36859
580.3537 483.62808 668.90332
582.25751 452.86707 681.67078
584.13818 421.87766 694.28265
566.88715 377.92487 578.59418
549.6579 335.90201 463.05261
534.047 296.69278 358.36356
518.79065 259.39539 256.05237
504.38181 224.16974 159.4245
490.75171 190.84792 68.01889
477.8389 159.27963 -18.576368
469.22668 130.34087 -76.331253
468.71805 104.15971 -79.742203
468.83099 78.13855 -78.984779
468.94397 52.104996 -78.227081
469.05701 26.058706 -77.469017
477.6412 9.5888754e-05 -19.902014
477.55222 -26.530579 -20.498934
477.46542 -53.051567 -21.081043
477.4025 -79.567001 -21.502859
477.36346 -106.08068 -21.764675
601.62659 633.2912 599.21545
602.36182 602.36194 603.88593
604.25537 572.45251 615.91602
606.16412 542.35748 628.04297
608.125 512.10535 640.50079
610.08856 481.64908 652.97565
612.04456 450.98022 665.40247
614.00977 420.11203 677.8877
