# .PCD v0.7 - Point Cloud Data file format
VERSION 0.7
FIELDS x y z
SIZE 4 4 4
TYPE F F F
COUNT 1 1 1
WIDTH 1499
HEIGHT 1
VIEWPOINT 0 0 0 1 0 0 0
POINTS 1499
DATA ascii
-20.366049 4.2136602 -35.337524
-20.365263 3.5112491 -35.34079
-20.365002 2.808965 -35.341881
-20.364742 2.1066961 -35.342964
-20.364479 1.4044465 -35.344055
-20.364218 0.70221549 -35.345142
-20.364021 2.1630819e-07 -35.345959
-20.364021 -0.70220977 -35.345959
-20.363958 -1.40441 -35.34623
-20.363892 -2.1066082 -35.346504
-20.363827 -2.8088048 -35.346775
-20.363827 -3.5110083 -35.346771
-20.363827 -4.2132096 -35.346771
-20.363892 -4.9154243 -35.3465
-20.363958 -5.6176424 -35.34623
-20.364153 -6.3199096 -35.345417
-20.364611 -7.0222788 -35.343513
-20.365524 -7.7248564 -35.339699
-20.367092 -8.4277639 -35.333176
-20.369576 -9.1311903 -35.322838
-20.373695 -9.8355799 -35.305691
-20.380695 -10.541741 -35.276558
-20.400282 -11.255329 -35.195038
-20.671473 -12.11776 -34.066216
-25.281033 21.669456 -11.120964
-24.971287 20.512127 -12.456308
-24.870054 19.54076 -12.892739
-24.805731 18.6043 -13.17004
-24.760332 17.685951 -13.365755
-24.735149 16.784563 -13.474323
-24.717192 15.889625 -13.551735
-24.710814 15.002995 -13.579236
-24.716194 14.12354 -13.556033
-24.72168 13.243755 -13.532395
-19.937366 9.9686804 -34.158028
-19.827391 9.2055759 -34.632141
-19.795305 8.4837027 -34.770462
-19.777037 7.7695484 -34.84922
-19.764601 7.058785 -34.902836
-19.757017 6.3504705 -34.935528
-19.753578 5.6438804 -34.950352
-19.751413 4.9378529 -34.959682
-19.750143 4.2321706 -34.965176
-19.749504 3.5266981 -34.967915
-19.74925 2.8213189 -34.969013
-19.748995 2.1159627 -34.970112
-19.748804 1.4106281 -34.970932
-19.747404 0.70526147 -34.976967
-19.747341 -2.5997751e-06 -34.977245
-19.747213 -0.70525753 -34.977791
-19.747087 -1.4105057 -34.97834
-19.747087 -2.1157596 -34.97834
-19.747087 -2.8210111 -34.97834
-19.747087 -3.5262673 -34.97834
-19.747087 -4.2315202 -34.97834
-19.747087 -4.9367714 -34.97834
-19.74715 -5.642045 -34.978065
-19.748169 -6.3476262 -34.973679
-19.749058 -7.0532365 -34.969837
-19.750076 -7.7589583 -34.965446
-19.751541 -8.4649496 -34.959133
-19.754025 -9.1715155 -34.948429
-19.75791 -9.8789558 -34.931686
-19.768808 -10.590433 -34.884701
-19.785976 -11.306273 -34.810684
-20.047977 -12.171988 -33.681168
-24.193014 20.608864 -11.948617
-24.091236 19.629894 -12.403651
-24.021025 18.683018 -12.717546
-23.976194 17.760147 -12.917968
-23.943943 16.849443 -13.062151
-23.92882 15.952547 -13.129772
-23.927269 15.065318 -13.136699
-23.932211 14.182052 -13.114605
-23.94598 13.30332 -13.053042
-19.334129 10.025103 -33.671555
-19.213629 9.2510071 -34.210281
-19.177404 8.5232906 -34.372234
-19.161301 7.8064542 -34.444233
-19.149813 7.0925226 -34.49559
-19.142059 6.3806863 -34.530251
-19.138651 5.670711 -34.545498
-19.136419 4.9612927 -34.555466
-19.135242 4.2522779 -34.560734
-19.134438 3.5434134 -34.564335
-19.134003 2.8346643 -34.566273
-19.133631 2.1259587 -34.567932
-19.133322 1.4172825 -34.569317
-19.131216 0.70856267 -34.578732
-19.12973 -1.4931734e-06 -34.585381
-19.129604 -0.7085039 -34.58593
-19.129543 -1.4170033 -34.586208
-19.129482 -2.1254995 -34.586487
-19.129482 -2.833997 -34.586483
-19.129482 -3.5424974 -34.586487
-19.129482 -4.2509966 -34.586483
-19.129482 -4.9594975 -34.586483
-19.129543 -5.6680131 -34.586208
-19.130907 -6.3769708 -34.58012
-19.133446 -7.0864635 -34.568764
-19.134312 -7.7954621 -34.564888
-19.135799 -8.5048018 -34.558239
-19.138092 -9.2146387 -34.547989
-19.141874 -9.925416 -34.531082
-19.14851 -10.638062 -34.501411
-19.17137 -11.360815 -34.399208
-19.418941 -12.226744 -33.292374
-23.421816 20.719299 -11.369023
-23.305468 19.720011 -11.9092
-23.231829 18.764168 -12.25108
-23.18375 17.833654 -12.474298
-23.151306 16.918262 -12.624921
-23.134272 16.016037 -12.704015
-23.132013 15.124779 -12.714491
-23.1402 14.240121 -12.676496
-23.160633 13.361904 -12.581622
-18.761929 10.102578 -33.003574
-18.597548 9.2987719 -33.76675
-18.558428 8.5654278 -33.948368
-18.544519 7.8457561 -34.012939
-18.533226 7.1281648 -34.065372
-18.525021 6.4125071 -34.103462
-18.518932 5.698133 -34.131733
-18.516642 4.985249 -34.142365
-18.514956 4.2726822 -34.150192
-18.513872 3.5603588 -34.155231
-18.513269 2.8481925 -34.158024
-18.512667 2.1360745 -34.16082
-18.512245 1.4240205 -34.162781
-18.511824 0.71199381 -34.164734
-18.511583 -4.1225749e-06 -34.165852
-18.511402 -0.7119776 -34.166691
-18.511282 -1.4239432 -34.167252
-18.511221 -2.13591 -34.167526
-18.511162 -2.8478734 -34.167812
-18.511101 -3.5598259 -34.168091
-18.511162 -4.2718081 -34.167809
-18.511162 -4.9837747 -34.167809
-18.511221 -5.6957631 -34.167534
-18.511402 -6.4077959 -34.166691
-18.511824 -7.1199341 -34.164734
-18.512547 -7.8322325 -34.161381
-18.513811 -8.544836 -34.155506
-18.51598 -9.2579918 -34.145439
-18.519114 -9.9718313 -34.130894
-18.529665 -10.690192 -34.081902
-18.55147 -11.416293 -33.980659
-18.784161 -12.281955 -32.900352
-22.635284 20.824461 -10.817098
-22.51236 19.810879 -11.410631
-22.437405 18.847418 -11.772548
-22.385727 17.908583 -12.022074
-22.352716 16.98806 -12.181462
-22.334469 16.080818 -12.269568
-22.331915 15.1857 -12.28189
-22.341398 14.298494 -12.236103
-22.367607 13.420565 -12.109555
-22.410389 12.549819 -11.902994
-17.981861 9.3505659 -33.285812
-17.950775 8.6163712 -33.435917
-17.93095 7.889616 -33.531628
-17.919325 7.1677279 -33.587769
-17.91082 6.4478922 -33.62883
-17.903494 5.7291174 -33.6642
-17.900801 5.0122247 -33.677208
-17.898399 4.2956166 -33.688801
-17.896761 3.5793498 -33.696716
-17.895533 2.8632812 -33.702648
-17.892256 2.1470687 -33.718468
-17.891495 1.4313196 -33.722141
-17.890734 0.71563023 -33.725811
-17.890326 -3.588837e-06 -33.727791
-17.889973 -0.71559858 -33.729488
-17.88974 -1.431182 -33.730618
-17.889622 -2.146755 -33.731182
-17.889505 -2.8623235 -33.731747
-17.889505 -3.5779047 -33.731747
-17.889505 -4.2934842 -33.731743
-17.889505 -5.0090632 -33.731747
-17.889622 -5.7246804 -33.731178
-17.88974 -6.4403057 -33.730614
-17.889973 -7.1559892 -33.729488
-17.890617 -7.8718729 -33.726376
-17.89366 -8.5889597 -33.711689
-17.895355 -9.3055859 -33.703495
-17.897873 -10.022813 -33.691341
-17.905487 -10.743295 -33.654579
-17.932537 -11.476826 -33.523968
-21.85754 20.94681 -10.17499
-21.713076 19.903652 -10.901572
-21.637503 18.932817 -11.281685
-21.582209 17.985176 -11.559793
-21.549452 17.059982 -11.724551
-21.530991 16.148239 -11.817393
-21.526758 15.24812 -11.838697
-21.540703 14.360466 -11.768547
-21.562895 13.47681 -11.656926
-21.614355 12.608371 -11.398105
-21.735268 11.77327 -10.789969
-21.547682 10.773842 -11.733444
-17.377426 7.9646544 -32.708221
-17.351137 7.2296419 -32.840439
-17.334877 6.500577 -32.92223
-17.323214 5.7744031 -32.980881
-17.309286 5.0485392 -33.050934
-17.305637 4.3264089 -33.069286
-17.302502 3.604687 -33.085056
-17.299767 2.8832948 -33.098812
-17.297659 2.1622064 -33.109413
-17.296007 1.4413332 -33.117722
-17.290827 0.72044921 -33.143776
-17.285023 1.0028801e-06 -33.172966
-17.284342 -0.72018212 -33.176399
-17.283943 -1.4403317 -33.178398
-17.283659 -2.1604576 -33.179829
-17.283489 -2.8805816 -33.180687
-17.283489 -3.6007259 -33.180687
-17.283432 -4.320859 -33.180973
-17.283432 -5.0410004 -33.180973
-17.283489 -5.7611661 -33.180687
-17.283545 -6.4813309 -33.180401
-17.283714 -7.2015514 -33.179546
-17.284227 -7.9219389 -33.176971
-17.292706 -8.6463528 -33.134327
-17.293274 -9.3671923 -33.131462
-17.294186 -10.088276 -33.126884
-17.310085 -10.818803 -33.046917
-21.063108 21.063108 -9.5646152
-20.909138 20.000044 -10.3727
-20.834717 19.022999 -10.763271
-20.775047 18.06526 -11.076443
-20.740896 17.133783 -11.255676
-20.722113 16.217302 -11.354248
-20.71751 15.31294 -11.378419
-20.729536 14.420546 -11.31529
-20.75338 13.534812 -11.190158
-20.800798 12.661356 -10.941289
-20.926693 11.828133 -10.280549
-20.748419 10.825264 -11.216199
-20.663765 9.8826675 -11.660481
-20.598661 8.9559364 -12.00217
-20.550732 8.0415907 -12.253718
-20.514719 7.135551 -12.442711
-20.49868 6.2387276 -12.526884
-20.510958 5.350687 -12.462455
-20.553751 4.4682045 -12.237867
-20.65266 3.5917683 -11.718772
-16.715019 2.1802182 -32.384651
-16.625811 1.4457238 -32.852833
-16.56427 0.72018546 -33.175827
-16.535324 -1.3399768e-06 -33.327732
-16.52523 -0.71849191 -33.380718
-16.534401 -1.4377774 -33.332581
-16.562035 -2.1602683 -33.18755
-16.621584 -2.8907108 -32.875015
-16.711412 -3.6329134 -32.403576
-16.802776 -4.3833323 -31.924072
-16.789831 -5.1099491 -31.992012
-16.789606 -5.8398638 -31.993189
-16.789663 -6.5698676 -31.992893
-16.789663 -7.2998533 -31.992891
-16.789663 -8.0298414 -31.992889
-16.789606 -8.7597952 -31.993187
-16.789551 -9.489748 -31.993483
-16.792967 -10.221807 -31.975552
-20.278151 21.199884 -8.846777
-20.103331 20.103333 -9.8059855
-20.021584 19.111507 -10.25452
-19.962072 18.147337 -10.581044
-19.92622 17.209007 -10.777755
-19.907356 16.287834 -10.881259
-19.9053 15.381366 -10.89255
-19.912954 14.482147 -10.850546
-19.941238 13.596299 -10.695349
-19.985435 12.718005 -10.452856
-20.101652 11.878248 -9.8151903
-19.946526 10.879921 -10.666344
-19.856297 9.9281511 -11.161416
-19.79174 8.9962425 -11.515616
-19.741758 8.0761757 -11.789868
-19.706211 7.1658945 -11.984915
-19.691544 6.2654915 -12.065385
-19.700005 5.3727241 -12.018973
-19.742891 4.4870224 -11.783651
-19.841326 3.6075137 -11.243569
-15.88873 2.1666453 -32.930859
-15.843667 1.4403346 -33.178112
-15.807986 0.71854222 -33.373886
-15.789845 -1.5917432e-06 -33.473431
-15.78115 -0.71732491 -33.52113
-15.788342 -1.4353076 -33.48167
-15.806742 -2.1554685 -33.380718
-15.841164 -2.8802114 -33.191841
-15.885689 -3.6103845 -32.94754
-16.125126 -4.3977628 -31.633781
-16.114334 -5.1272888 -31.693001
-16.114225 -5.8597212 -31.693594
-16.114225 -6.5921845 -31.693592
-16.114225 -7.3246508 -31.693588
-16.114172 -8.0570879 -31.693888
-16.114225 -8.7895813 -31.69359
-16.114225 -9.5220423 -31.693594
-16.1173 -10.256465 -31.676725
-19.490696 21.346952 -8.0749178
-19.289156 20.207687 -9.2333822
-19.201729 19.201723 -9.735939
-19.144943 18.233278 -10.062348
-19.107697 17.287914 -10.276438
-19.087147 16.360409 -10.39457
-19.082628 15.447842 -10.420533
-19.093727 14.547599 -10.35674
-19.118267 13.655906 -10.215681
-19.159067 12.772709 -9.9811525
-19.264015 11.925344 -9.377903
-19.127018 10.929726 -10.16538
-19.040655 9.9736738 -10.661808
-18.97784 9.0370693 -11.022872
-18.925955 8.111124 -11.321116
-18.89072 7.1964645 -11.523657
-18.875748 6.2919126 -11.609715
-18.885752 5.3959274 -11.552205
-18.928215 4.5067182 -11.308127
-19.022688 3.6233726 -10.765086
-15.220352 2.1743355 -32.621395
-15.177532 1.4454798 -32.867527
-15.146523 0.72126234 -33.045769
-15.129972 -1.2898175e-06 -33.140911
-15.121658 -0.72008055 -33.188694
-15.129075 -1.4408654 -33.146069
-15.145427 -2.1636348 -33.052078
-15.175077 -2.8904896 -32.881641
-15.216724 -3.6230299 -32.642246
-15.461443 -4.4175572 -31.23558
-15.453074 -5.1510262 -31.283684
-15.452138 -5.8865304 -31.289059
-15.452138 -6.6223474 -31.289059
-15.452138 -7.3581595 -31.289059
-15.452138 -8.093977 -31.289062
-15.452138 -8.8297968 -31.289057
-15.452138 -9.5656109 -31.289059
-15.456711 -10.304476 -31.262774
-18.468903 20.315792 -8.640233
-18.378492 19.297417 -9.1859035
-18.320116 18.320114 -9.5382442
-18.283005 17.368853 -9.7622147
-18.259212 16.433287 -9.905818
-18.253199 15.515217 -9.9421234
-18.264164 14.611331 -9.8759365
-18.287283 13.715459 -9.7364006
-18.330854 12.831596 -9.4734154
-18.426998 11.977551 -8.8931446
-18.307627 10.984577 -9.6136169
-18.21924 10.02058 -10.147076
-18.157122 9.0785618 -10.521991
-18.106131 8.1477604 -10.829759
-18.070776 7.2283072 -11.043129
-18.055796 6.3195291 -11.133554
-18.067047 5.4201145 -11.065639
-18.105307 4.5263271 -10.83473
-18.192286 3.638453 -10.30976
-14.561584 2.1842339 -32.222988
-14.516869 1.4516865 -32.49287
-14.487467 0.72437239 -32.670326
-14.470179 -1.3615834e-06 -32.77467
-14.463771 -0.72318965 -32.813335
-14.469652 -1.4469658 -32.77784
-14.486411 -2.1729617 -32.676689
-14.514558 -2.9029117 -32.506809
-14.558097 -3.6395247 -32.24403
-14.793956 -4.4381843 -30.820498
-14.784513 -5.1745796 -30.877493
-14.784513 -5.9138055 -30.877495
-14.784563 -6.6530547 -30.877192
-14.784563 -7.3922844 -30.877188
-14.784513 -8.1314831 -30.877491
-14.784513 -8.8707066 -30.877493
-14.784513 -9.6099367 -30.877489
-14.790557 -10.353392 -30.841009
-17.639526 20.424713 -8.0426054
-17.547825 19.39497 -8.6251841
-17.490114 18.410648 -8.9918394
-17.450777 17.450773 -9.2417555
-17.427448 16.510214 -9.3899689
-17.421461 15.587624 -9.4279966
-17.43037 14.678208 -9.3714046
-17.453926 13.779414 -9.2217484
-17.489231 12.886799 -8.9974413
-17.573036 12.023656 -8.4650106
-17.48313 11.041976 -9.0362129
-17.394064 10.070245 -9.6020603
-17.329626 9.1208563 -10.011446
-17.279367 8.1849623 -10.330747
-17.243689 7.2605009 -10.557431
-17.227402 6.3469353 -10.6609
-17.236683 5.4431643 -10.601933
-17.278866 4.5470695 -10.333941
-17.362185 3.6551976 -9.8045988
-13.896462 2.1941772 -31.822998
-13.852997 1.4582101 -32.099152
-13.825273 0.72764558 -32.275284
-13.808609 -4.8882043e-08 -32.381153
-13.80114 -0.72637743 -32.428608
-13.807921 -1.453465 -32.385521
-13.824583 -2.1828315 -32.279663
-13.851751 -2.916158 -32.107063
-13.89456 -3.6564646 -31.835094
-14.118288 -4.4584098 -30.4137
-14.111725 -5.199059 -30.455399
-14.111773 -5.9418025 -30.455093
-14.111725 -6.6845036 -30.4554
-14.111773 -7.4272504 -30.455097
-14.111773 -8.1699753 -30.455099
-14.111725 -8.9126682 -30.4554
-14.111725 -9.6553898 -30.455402
-14.118624 -10.403196 -30.411572
-16.802782 20.536734 -7.4279575
-16.707443 19.492018 -8.0673151
-16.649265 18.499184 -8.4574585
-16.6101 17.532881 -8.7201223
-16.589117 16.589113 -8.8608274
-16.581228 15.660048 -8.9137373
-16.589886 14.746563 -8.8556767
-16.609188 13.840994 -8.7262306
-16.64575 12.946694 -8.4810505
-16.719498 12.075189 -7.9864826
-16.644695 11.096462 -8.4881182
-16.560389 10.120237 -9.0534878
-16.493212 9.1628981 -9.5039921
-16.447218 8.223609 -9.8124247
-16.412275 7.2943454 -10.046756
-16.395815 6.3761516 -10.157146
-16.40346 5.4678197 -10.105876
-16.444746 4.5679865 -9.8290043
-16.528639 3.6730318 -9.2664118
-13.225705 2.2042837 -31.416374
-13.183838 1.4648705 -31.697145
-13.157597 0.73097456 -31.873121
-13.140569 -2.7421383e-06 -31.98731
-13.133472 -0.72963792 -32.034897
-13.139911 -1.4599929 -31.991716
-13.157597 -2.192935 -31.873121
-13.183793 -2.9297335 -31.697437
-13.225749 -3.6738217 -31.416079
-13.437352 -4.4791198 -29.997034
-13.43103 -5.2231798 -30.039431
-13.431076 -5.969368 -30.039124
-13.43103 -6.7155156 -30.039431
-13.431076 -7.4617119 -30.039118
-13.431076 -8.2078838 -30.039122
-13.43103 -8.9540195 -30.039433
-13.431076 -9.7002211 -30.039122
-13.439965 -10.453309 -29.979511
-15.955306 20.648045 -6.8172226
-15.862665 19.595057 -7.4750333
-15.805123 18.594263 -7.8836145
-15.762809 17.617258 -8.1840754
-15.739871 16.665749 -8.3469439
-15.732883 15.732883 -8.3965645
-15.738208 14.812434 -8.3587646
-15.758002 13.904118 -8.2182045
-15.790904 13.004277 -7.9845819
-15.859824 12.1281 -7.4951968
-15.803647 11.155516 -7.8940997
-15.715873 10.169092 -8.5173492
-15.653855 9.208149 -8.9577093
-15.607368 8.2627239 -9.2877998
-15.573663 7.3287778 -9.527132
-15.557448 6.4060087 -9.6422586
-15.565518 5.49371 -9.5849552
-15.600956 4.5885162 -9.333333
-15.67978 3.6893594 -8.7736368
-12.552973 2.2152305 -30.975927
-12.509757 1.4717358 -31.282785
-12.483316 0.73431236 -31.470531
-12.469093 -2.3202949e-06 -31.57152
-12.462746 -0.73310417 -31.616594
-12.468884 -1.4669285 -31.573006
-12.483316 -2.2029402 -31.47053
-12.509715 -2.9434643 -31.283085
-12.553396 -3.6921763 -30.972919
-12.750366 -4.5001292 -29.574308
-12.743686 -5.2473979 -29.621754
-12.743686 -5.9970255 -29.621752
-12.743641 -6.7466359 -29.622057
-12.743686 -7.4962859 -29.621752
-12.743686 -8.2459135 -29.62175
-12.743686 -8.9955425 -29.62175
-12.743773 -9.7452402 -29.621126
-12.757142 -10.505886 -29.526196
-15.102175 20.76549 -6.1728148
-15.007363 19.697165 -6.8881068
-14.947409 18.684263 -7.3404288
-14.909546 17.705084 -7.6260891
-14.88635 16.747147 -7.8010874
-14.878128 15.808011 -7.863112
-14.882427 14.882426 -7.8306708
-14.899714 13.968479 -7.7002654
-14.92963 13.063426 -7.4745541
-14.992266 12.181215 -7.0020075
-14.949068 11.211802 -7.3279114
-14.864298 10.219205 -7.9674444
-14.803852 9.252409 -8.4234829
-14.761359 8.3032608 -8.7440672
-14.726969 7.3634877 -9.00352
-14.710329 6.4357648 -9.1290569
-14.718861 5.5195751 -9.0646906
-14.749546 4.6092329 -8.8331881
-14.821458 3.7053647 -8.2906599
-11.870749 2.2257638 -30.55204
-11.829808 1.4787245 -30.860912
-11.803731 0.73773062 -31.057646
-11.791093 -6.6124528e-07 -31.15299
-11.78522 -0.73657763 -31.1973
-11.791133 -1.4738958 -31.152691
-11.80397 -2.213248 -31.055843
-11.830127 -2.9575336 -30.858501
-11.875419 -3.711071 -30.516809
-12.055618 -4.5208592 -29.157301
-12.051469 -5.2725205 -29.188602
-12.051469 -6.0257359 -29.188601
-12.051469 -6.7789545 -29.188601
-12.051469 -7.5321732 -29.188601
-12.051512 -8.2854118 -29.188293
-12.051469 -9.0386028 -29.188606
-12.051636 -9.7919559 -29.187355
-12.067041 -10.558664 -29.071121
-14.241999 20.888264 -5.4991612
-14.14103 19.79744 -6.3116894
-14.085217 18.780289 -6.7608471
-14.047913 17.794022 -7.0610504
-14.02391 16.828691 -7.2542005
-14.014871 15.883522 -7.3269506
-14.017922 14.952453 -7.3023901
-14.034162 14.034161 -7.1717129
-14.063016 13.125484 -6.9395137
-14.111977 12.23038 -6.5455003
-14.084492 11.26759 -6.7666755
-14.00423 10.269768 -7.4125829
-13.949253 9.2995024 -7.8550081
-13.904885 8.3429317 -8.2120476
-13.874331 7.3996425 -8.4579372
-13.859629 6.4678283 -8.5762386
-13.862731 5.5450883 -8.5512743
-13.895234 4.6317401 -8.2897072
-13.961828 3.7231545 -7.7538018
-11.182043 2.2364063 -30.123789
-11.14318 1.4857576 -30.436531
-11.119593 0.7413063 -30.626352
-11.106127 -2.5102834e-06 -30.734716
-11.100718 -0.74004775 -30.778231
-11.106277 -1.4808373 -30.733505
-11.120571 -2.2241147 -30.618469
-11.143558 -2.9716191 -30.433489
-11.190351 -3.7301159 -30.056927
-11.355147 -4.5420618 -28.730755
-11.352595 -5.2978745 -28.751293
-11.352634 -6.0547385 -28.750975
-11.352634 -6.8115826 -28.750977
-11.352634 -7.5684233 -28.750975
-11.352634 -8.3252668 -28.750973
-11.352634 -9.0821104 -28.750973
-11.352791 -9.8390884 -28.749712
-11.372611 -10.61444 -28.590212
-13.364303 21.001045 -4.8803458
-13.268416 19.902624 -5.7070923
-13.213718 18.876736 -6.1787081
-13.176843 17.88286 -6.4966674
-13.153088 16.91111 -6.7014885
-13.142651 15.958931 -6.7914701
-13.145413 15.023329 -6.7676473
-13.158905 14.098825 -6.6513262
-13.184609 13.18461 -6.4296985
-13.231977 12.286834 -6.0212827
-13.217822 11.329557 -6.1433244
-13.136791 10.321763 -6.8419943
-13.083394 9.3452816 -7.3023858
-13.043076 8.3848333 -7.6500263
-13.011673 7.4352379 -7.9207788
-12.995615 6.4978061 -8.0592356
-13.000578 5.5716724 -8.0164518
-13.029489 4.653389 -7.7671819
-13.094912 3.741406 -7.2030869
-10.486324 2.2470667 -29.69483
-10.450311 1.4929012 -30.005331
-10.428404 0.74488235 -30.194223
-10.415112 -1.2882138e-06 -30.30883
-10.410017 -0.74357402 -30.352757
-10.415396 -1.4879154 -30.306387
-10.429682 -2.2349346 -30.183208
-10.450881 -2.9859684 -30.000418
-10.49595 -3.7485547 -29.611828
-10.649296 -4.5639873 -28.289648
-10.646152 -5.3230748 -28.316769
-10.646152 -6.083519 -28.316763
-10.646152 -6.8439584 -28.316769
-10.646152 -7.6043921 -28.316771
-10.646188 -8.3648605 -28.31645
-10.646152 -9.1252708 -28.316769
-10.646373 -9.8859167 -28.314857
-12.488412 21.134233 -4.1495619
-12.386966 20.00971 -5.0915322
-12.332902 18.973696 -5.5935497
-12.297615 17.97344 -5.9211917
-12.27348 16.994051 -6.145298
-12.262691 16.035824 -6.2454839
-12.266813 15.097615 -6.2071939
-12.278883 14.16794 -6.0951285
-12.299743 13.245877 -5.9014473
-12.341942 12.34194 -5.5096045
-12.34071 11.391423 -5.5210309
-12.259942 10.373796 -6.2709961
-12.210069 9.3923626 -6.7340956
-12.169806 8.4252501 -7.1079564
-12.14109 7.4714403 -7.3745942
-12.126809 6.5298219 -7.5071969
-12.128981 5.5979896 -7.4870362
-12.155302 4.675117 -7.2426329
-12.213791 3.75809 -6.6995416
-9.7835703 2.2577429 -29.265194
-9.7516832 1.5002581 -29.561279
-9.7300415 0.74846351 -29.76223
-9.7178135 -2.8835016e-06 -29.87578
-9.7131023 -0.74716318 -29.919518
-9.7182112 -1.4951096 -29.872082
-9.7312059 -2.2456639 -29.751415
-9.7528534 -3.000879 -29.550413
-9.7949533 -3.7672949 -29.159494
-9.9365978 -4.5861235 -27.844269
-9.9328852 -5.3484783 -27.878738
-9.9328852 -6.1125464 -27.878735
-9.9328852 -6.8766098 -27.87874
-9.9328852 -7.6406827 -27.878736
-9.9328852 -8.4047508 -27.878735
-9.9328852 -9.1688175 -27.87874
-9.9331284 -9.9331293 -27.87648
-11.594887 21.257298 -3.4743609
-11.495223 20.11664 -4.4769063
-11.443038 19.07173 -5.0018349
-11.409437 18.064939 -5.339848
-11.388215 17.082319 -5.553328
-11.377854 16.118628 -5.6575427
-11.378298 15.171064 -5.6530738
-11.387918 14.234896 -5.5563092
-11.407901 13.309214 -5.3552985
-11.444036 12.397704 -4.9918046
-11.452619 11.452618 -4.9054732
-11.374505 10.426629 -5.6912389
-11.328144 9.4401226 -6.1575837
-11.29031 8.4677286 -6.5381737
-11.263825 7.5092168 -6.8045955
-11.249208 6.5620375 -6.9516253
-11.252582 5.6262913 -6.9176946
-11.276543 4.6985626 -6.6766567
-11.327803 3.7759316 -6.1610184
-9.0752974 2.2688241 -28.819475
-9.0449514 1.5074909 -29.124733
-9.0247822 0.75206172 -29.327623
-9.0140657 -1.1308069e-06 -29.435423
-9.00986 -0.75082397 -29.477722
-9.0145912 -1.5024321 -29.430132
-9.0258055 -2.2564516 -29.317329
-9.0465412 -3.0155103 -29.108751
-9.0892735 -3.7871997 -28.678892
-9.2169828 -4.6084957 -27.394226
-9.212781 -5.3741264 -27.436501
-9.212781 -6.1418509 -27.436506
-9.212781 -6.9095855 -27.436506
-9.212781 -7.6773171 -27.436504
-9.212781 -8.4450493 -27.436501
-9.212781 -9.2127838 -27.436502
-9.2137499 -9.9815626 -27.426752
-10.696406 21.392815 -2.7307847
-10.596044 20.228809 -3.83213
-10.547443 19.177166 -4.3654566
-10.514326 18.161106 -4.7288842
-10.493017 17.170391 -4.9627061
-10.483105 16.20116 -5.0715022
-10.481689 15.246094 -5.0870299
-10.490229 14.304856 -4.9933109
-10.507672 13.373405 -4.8019004
-10.538764 12.454904 -4.4607038
-10.558127 11.517961 -4.2482138
-10.48 10.480001 -5.1055536
-10.435984 9.4872618 -5.5885844
-10.401898 8.510644 -5.9626265
-10.376347 7.5464301 -6.243032
-10.363215 6.5947709 -6.3871255
-10.363349 5.6527338 -6.3856521
-10.384401 4.7201853 -6.1546335
-10.435306 3.7946577 -5.5960288
-8.3611727 2.280318 -28.356936
-8.3317757 1.5148669 -28.679525
-8.3126183 0.75569117 -28.889763
-8.3037882 2.2393277e-07 -28.986658
-8.3000088 -0.75454867 -29.028124
-8.3042459 -1.5098656 -28.98163
-8.3136225 -2.2673526 -28.878738
-8.3332472 -3.0302758 -28.663383
-8.3763571 -3.8074331 -28.190308
-8.4896564 -4.630723 -26.946995
-8.4866934 -5.4006224 -26.979506
-8.4866934 -6.172143 -26.979506
-8.4866638 -6.9436364 -26.979832
-8.4866934 -7.715178 -26.979504
-8.4866934 -8.4866982 -26.979502
-8.4866638 -9.2581797 -26.979832
-8.4883089 -10.031641 -26.961777
-9.8022614 21.56497 -1.7861565
-9.6839523 20.3363 -3.2142777
-9.6407442 19.281485 -3.7358484
-9.6078196 18.254856 -4.1332746
-9.5892153 17.260584 -4.3578501
-9.5781364 16.282833 -4.4915767
-9.5770473 15.323274 -4.5047278
-9.5835886 14.375383 -4.4257679
-9.5979614 13.437148 -4.2522783
-9.6253119 12.512908 -3.922132
-9.6596775 11.591616 -3.5073047
-9.5777178 10.535491 -4.496635
-9.5383587 9.5383606 -4.9717422
-9.5068321 8.5561485 -5.3523088
-9.4828196 7.5862579 -5.6421704
-9.468298 6.6278062 -5.8174529
-9.4692812 5.6815696 -5.8055873
-9.487916 4.7439585 -5.5806427
-9.5316715 3.8126693 -5.0524688
-7.6391349 2.2917366 -27.897408
-7.611084 1.5222142 -28.236013
-7.5945516 0.75945348 -28.435568
-7.5859447 -2.8964967e-06 -28.539467
-7.5825286 -0.75825381 -28.580702
-7.5865231 -1.517307 -28.532482
-7.5954747 -2.278645 -28.424429
-7.6130161 -3.0452092 -28.212683
-7.6530504 -3.8265264 -27.729431
-7.7553878 -4.653235 -26.494102
-7.7534103 -5.4273911 -26.517975
-7.7534103 -6.2027326 -26.517977
-7.7533827 -6.9780445 -26.518312
-7.7534103 -7.7534132 -26.517977
-7.7534103 -8.5287523 -26.517975
-7.7533827 -9.3040619 -26.518311
-7.7550306 -10.081543 -26.498413
-8.9165134 21.795918 -0.51899183
-8.7655077 20.452854 -2.5443246
-8.7228127 19.384024 -3.1169636
-8.696166 18.358572 -3.4743564
-8.6776628 17.355326 -3.7225206
-8.6669731 16.370951 -3.8659015
-8.663847 15.402395 -3.9078193
-8.6685743 14.447624 -3.8444109
-8.6816015 13.504713 -3.6696844
-8.7025814 12.570392 -3.3883057
-8.7472916 11.663054 -2.7886438
-8.6657906 10.591525 -3.8817518
-8.6299915 9.5888777 -4.3619118
-8.6003761 8.6003761 -4.7591109
-8.579812 7.6265011 -5.0349278
-8.5664549 6.6627955 -5.2140746
-8.5660076 5.7106719 -5.2200713
-8.5823917 4.7679958 -5.0003319
-8.61938 3.8308356 -4.5042224
-6.9095373 2.3031764 -27.437153
-6.8836536 1.5296996 -27.784306
-6.8696828 0.76329601 -27.971689
-6.8608303 -3.5767482e-06 -28.090422
-6.8578205 -0.76198053 -28.130787
-6.8613319 -1.5247412 -28.083691
-6.8706174 -2.2902102 -27.959154
-6.8856511 -3.0602877 -27.757523
-6.9232326 -3.846242 -27.253458
-7.0139461 -4.6759648 -26.036785
-7.0128226 -5.4544196 -26.051853
-7.0128226 -6.2336187 -26.051853
-7.0127974 -7.0128007 -26.052187
-7.0128226 -7.7920275 -26.051851
-7.0128226 -8.5712299 -26.051853
-7.012773 -9.3503647 -26.052523
-7.0137963 -10.131042 -26.038795
-7.8359833 20.569456 -1.8740557
-7.7980509 19.495125 -2.4464192
-7.7730231 18.46093 -2.8240576
-7.7565303 17.452188 -3.0729129
-7.7454481 16.459076 -3.2401328
-7.7440438 15.488087 -3.2613211
-7.7448316 14.521558 -3.2494388
-7.7545037 13.57038 -3.1034899
-7.7717123 12.629032 -2.8438339
-7.8162556 11.724384 -2.1717236
-7.7420921 10.645376 -3.2907715
-7.7107606 9.6384544 -3.7635219
-7.6860538 8.6468086 -4.1363244
-7.6665354 7.6665392 -4.4308348
-7.6561775 6.6991539 -4.5871201
-7.6542697 5.7407017 -4.6159081
-7.6675763 4.7922335 -4.4151306
-7.7013674 3.8506844 -3.9052694
-6.1733594 2.3150089 -26.961119
-6.1488633 1.5372149 -27.330738
-6.1359353 0.76699042 -27.525812
-6.1280546 1.166478e-06 -27.644722
-6.1254392 -0.76568025 -27.684181
-6.1286764 -1.5321718 -27.635336
-6.1369886 -2.3013709 -27.509905
-6.1515632 -3.0757811 -27.289997
-6.1927691 -3.8704793 -26.668257
-6.2651796 -4.6988897 -25.575651
-6.2645974 -5.4815283 -25.584444
-6.2645974 -6.2646003 -25.584444
-6.264575 -7.047647 -25.584782
-6.264575 -7.8307195 -25.584784
-6.2645974 -8.6138229 -25.58445
-6.2645526 -9.3968306 -25.585127
-6.265337 -10.181173 -25.573288
-6.8959241 20.687777 -1.1939617
-6.8626895 19.607689 -1.7670815
-6.8401093 18.566011 -2.15646
-6.8254828 17.551241 -2.4086795
-6.8170705 16.555742 -2.5537384
-6.8124943 15.571413 -2.6326699
-6.8136759 14.600731 -2.6122882
-6.8192859 13.638571 -2.515543
-6.8319354 12.687881 -2.2974138
-6.868319 11.77426 -1.6699984
-6.8096476 10.700877 -2.6817465
-6.7822471 9.6889248 -3.1542509
-6.7620726 8.6940899 -3.5021551
-6.7466187 7.7104211 -3.7686422
-6.7355261 6.7355242 -3.9599257
-6.7331877 5.7713008 -4.0002475
-6.7449856 4.8178473 -3.7968132
-6.7725935 3.8700531 -3.3207154
-5.4289641 2.3266969 -26.490786
-5.4071035 1.5448846 -26.867758
-5.3950324 0.77071923 -27.075916
-5.3882399 -2.8753002e-06 -27.193047
-5.3859291 -0.76942098 -27.232897
-5.3888083 -1.5396612 -27.183245
-5.3962674 -2.3126888 -27.054619
-5.4098339 -3.0913355 -26.820677
-5.4531169 -3.8950865 -26.07428
-5.5089774 -4.7219806 -25.111
-5.5085225 -5.5085216 -25.11886
-5.5085225 -6.2954545 -25.118853
-5.5085225 -7.0823898 -25.118856
-5.5085225 -7.8693175 -25.118858
-5.5085225 -8.656251 -25.11886
-5.5085025 -9.4431505 -25.119196
-5.5094924 -10.231915 -25.102123
-5.9443688 20.805296 -0.51844674
-5.9160914 19.720303 -1.0873595
-5.8971233 18.674223 -1.4689653
-5.8845983 17.653791 -1.7209424
-5.8764353 16.6499 -1.8851681
-5.8723621 15.659636 -1.9671072
-5.8722053 14.680513 -1.9702806
-5.8749371 13.708187 -1.9153163
-5.8812776 12.742768 -1.787747
-5.9014425 11.802886 -1.3820591
-5.8655958 10.753591 -2.1032438
-5.8470278 9.7450447 -2.4768031
-5.8297672 8.744647 -2.8240521
-5.8155947 7.7541251 -3.1091969
-5.8059788 6.7736416 -3.3026531
-5.8034902 5.8034897 -3.3527186
-5.8119917 4.8433223 -3.1816823
-5.8348184 3.8898785 -2.7224393
-4.6763306 2.3381636 -26.029415
-4.6579695 1.5526528 -26.398806
-4.6472721 0.77454227 -26.614027
-4.6414742 -2.851101e-06 -26.730665
-4.639523 -0.77325517 -26.769926
-4.6419663 -1.5473239 -26.720766
-4.6483083 -2.3241525 -26.593176
-4.6598701 -3.1065817 -26.360569
-4.7043724 -3.9203122 -25.46526
-4.7453046 -4.745307 -24.641762
-4.7449789 -5.5358109 -24.648319
-4.7449789 -6.3266425 -24.648315
-4.7449789 -7.1174674 -24.648317
-4.7449789 -7.908299 -24.648314
-4.7449789 -8.6991262 -24.648317
-4.7449617 -9.4899254 -24.648657
-4.7460766 -10.283172 -24.626234
-4.9837561 20.931774 0.208597
-4.9580846 19.83234 -0.41117048
-4.9443755 18.788624 -0.74213433
-4.9335876 17.760914 -1.0025829
-4.926991 16.751766 -1.1618365
-4.9226689 15.752542 -1.266175
-4.9206991 14.762096 -1.3137308
-4.9217615 13.780932 -1.2880855
-4.9237103 12.801645 -1.2410433
-4.921031 11.810477 -1.3057202
-4.9119973 10.806394 -1.5238035
-4.8981471 9.7962952 -1.8581786
-4.8853998 8.7937183 -2.1659353
-4.8756056 7.8009682 -2.4023824
-4.8677988 6.8149147 -2.5908616
-4.8648558 5.8378243 -2.6619103
-4.8694448 4.8694425 -2.5511243
-4.886796 3.9094367 -2.1322286
-3.916312 2.3497868 -25.561783
-3.9011929 1.5604745 -25.926788
-3.8921466 0.77842689 -26.145182
-3.887377 1.7254463e-06 -26.260336
-3.8855138 -0.77710563 -26.305313
-3.8877776 -1.5551132 -26.250664
-3.8932545 -2.3359551 -26.118437
-3.9027512 -3.1222062 -25.889172
-3.9630697 -3.9630699 -24.432951
-3.9740789 -4.7688951 -24.167166
-3.9738336 -5.5633698 -24.173088
-3.9738336 -6.3581347 -24.173088
-3.9738336 -7.1529031 -24.17309
-3.9738336 -7.9476686 -24.173088
-3.9738336 -8.7424335 -24.173088
-3.9738336 -9.5372019 -24.17309
-3.9750605 -10.33516 -24.143471
-4.0113368 21.059517 0.94287878
-3.9906759 19.953386 0.31937951
-3.9791224 18.900829 -0.029275041
-3.9714875 17.871696 -0.25968373
-3.9656053 16.853823 -0.43719703
-3.9623566 15.849426 -0.53522992
-3.9605644 14.852118 -0.58932304
-3.9592209 13.857272 -0.62985587
-3.9575386 12.862 -0.68062693
-3.9541249 11.862373 -0.78364551
-3.9486499 10.858788 -0.94886345
-3.9409184 9.852294 -1.1821855
-3.932528 8.8481865 -1.4353846
-3.9241557 7.8483081 -1.6880442
-3.9166772 6.8541875 -1.9137299
-3.9141557 5.8712335 -1.9898152
-3.9166071 4.8957601 -1.9158419
-3.9297214 3.929723 -1.5200843
-3.1488588 2.3616405 -25.084694
-3.1367762 1.5683881 -25.449324
-3.1296225 0.78240472 -25.665205
-3.1255336 -2.2052652e-06 -25.788601
-3.1237938 -0.78095055 -25.841105
-3.1260357 -1.5630171 -25.773449
-3.1305628 -2.3479218 -25.636835
-3.1383729 -3.1383779 -25.401133
-3.2394805 -4.0493522 -22.349941
-3.1951468 -4.7927198 -23.68783
-3.194972 -5.5912032 -23.693108
-3.194972 -6.3899465 -23.693104
-3.1949837 -7.1887188 -23.692753
-3.194972 -7.9874291 -23.693106
-3.194972 -8.7861757 -23.693106
-3.194972 -9.5849199 -23.693104
-3.1962433 -10.387794 -23.654737
-3.0324414 21.227087 1.9061007
-3.0139987 20.093323 1.1640167
-3.0056932 19.036057 0.82984161
-2.9998574 17.999147 0.59502506
-2.9953551 16.973682 0.41386765
-2.9928706 15.961976 0.31388882
-2.9907441 14.953724 0.22832511
-2.988811 13.947783 0.1505464
-2.9856582 12.937851 0.0236906
-2.9825933 11.930369 -0.099631466
-2.978832 10.922381 -0.25098512
-2.9736111 9.9120359 -0.46104315
-2.968087 8.9042587 -0.68331772
-2.961848 7.898262 -0.93435186
-2.9570866 6.8998656 -1.1259463
-2.9541197 5.9082379 -1.2453178
-2.9540668 4.9234428 -1.2474622
-2.9632649 3.9510188 -0.8773458
-2.3740163 2.3740151 -24.58688
-2.3644335 1.5762875 -24.97246
-2.3591242 0.78637552 -25.18609
-2.3559585 -2.1730066e-06 -25.313463
-2.3546576 -0.78488725 -25.365818
-2.356415 -1.5709436 -25.295099
-2.3598871 -2.3598876 -25.155388
-2.365694 -3.154263 -24.921734
-2.4367964 -4.0613294 -22.060801
-2.4084635 -4.8169289 -23.20083
-2.4083486 -5.619482 -23.205454
-2.4083486 -6.4222636 -23.205452
-2.4083486 -7.2250447 -23.205454
-2.4083486 -8.0278311 -23.205454
-2.4083486 -8.8306122 -23.205454
-2.4083486 -9.6333971 -23.205456
-2.409586 -10.441541 -23.15567
-2.0500391 20.500391 3.620888
-2.0456324 19.433508 3.3549225
-2.0230196 18.207174 1.9901172
-2.0186911 17.158873 1.7288598
-2.0152154 16.121725 1.5190871
-2.0123899 15.092923 1.3485585
-2.0094893 14.066425 1.1734835
-2.0070293 13.045688 1.0250196
-2.0045295 12.027174 0.87414551
-2.0015509 11.008526 0.6943664
-1.9977237 9.9886169 0.46336904
-1.9947016 8.9761572 0.28097028
-1.9904569 7.9618244 0.024784235
-1.9863565 6.9522452 -0.2227041
-1.9834764 5.9504299 -0.39652708
-1.9832158 4.9580388 -0.41225979
-1.9877365 3.9754734 -0.13941307
-1.5912205 2.3868287 -24.07126
-1.584264 1.584264 -24.491123
-1.5807172 0.79035777 -24.705193
-1.5786252 2.236947e-06 -24.831459
-1.5777889 -0.78889602 -24.881935
-1.5790124 -1.5790147 -24.80809
-1.5812882 -2.3719358 -24.670727
-1.5853026 -3.1706047 -24.428448
-1.6295017 -4.0737553 -21.760794
-1.613793 -4.8413806 -22.708893
-1.6137335 -5.648068 -22.712486
-1.6137335 -6.4549346 -22.712482
-1.6137335 -7.2618051 -22.712482
-1.6137335 -8.0686665 -22.712486
-1.6137335 -8.875535 -22.712486
-1.6137395 -9.6824379 -22.71213
-1.6152579 -10.499176 -22.620483
-1.0284632 21.597729 4.0365801
-1.0199993 20.399984 3.0148854
-1.0183715 19.349056 2.8183892
-1.0173254 18.311852 2.6921237
-1.0165128 17.280718 2.5940299
-1.0158381 16.25341 2.5125897
-1.0152539 15.228806 2.4420683
-1.0146421 14.204987 2.3682137
-1.013998 13.181976 2.2904785
-1.0133173 12.159808 2.2083092
-1.0128204 11.141024 2.1483135
-1.0120945 10.120945 2.0606937
-1.0114257 9.1028328 1.9799608
-1.0108604 8.0868845 1.9117327
-1.0103005 7.0721054 1.8441491
-1.009732 6.0583906 1.7755134
-1.0094991 5.0474954 1.7474064
-1.0110892 4.0443559 1.9393551
-0.79954833 2.3986402 -23.595898
-0.79624122 1.5924789 -23.995096
-0.79435712 0.7943539 -24.22253
-0.79330051 2.8247348e-07 -24.350077
-0.7930131 -0.79301393 -24.384769
-0.7934702 -1.5869412 -24.329596
-0.79470319 -2.384114 -24.18075
-0.79671371 -3.1868558 -23.938074
-0.81604189 -4.0802078 -21.604956
-0.81101346 -4.8660817 -22.211935
-0.81099242 -5.6769509 -22.214472
-0.81099242 -6.487937 -22.214476
-0.81099242 -7.2989335 -22.214476
-0.81099242 -8.1099262 -22.214474
-0.81099242 -8.9209175 -22.214472
-0.8109954 -9.731945 -22.214117
-0.81218106 -10.558355 -22.070992
-1.6486404e-23 21.639723 4.2779608
1.2764416e-24 20.431309 3.2039456
5.1967151e-24 19.364466 2.9162779
1.055445e-23 18.319098 2.7406623
6.0756103e-24 17.283047 2.6105633
6.6663377e-24 16.253031 2.5097511
-1.3800173e-23 15.227258 2.429558
-1.5798517e-23 14.202222 2.3443699
-3.399444e-23 13.177702 2.2507942
-1.2233111e-23 12.154181 2.151711
2.2768417e-23 11.131185 2.0403616
6.1241461e-24 10.108975 1.9162471
-2.0936996e-24 9.0884275 1.7867589
1.7336832e-24 8.0701094 1.6586705
-6.0969533e-24 7.0539675 1.5314088
-1.8558232e-23 6.0406685 1.4189467
-1.8988265e-23 5.0313935 1.3586055
-1.1738547e-23 4.0284286 1.4586446
2.3194751e-24 2.4109843 -23.099424
1.0903825e-24 1.6007682 -23.494963
-7.3855588e-24 0.79839063 -23.736015
1.7130941e-23 -4.6240535e-07 -23.851879
-2.6820602e-23 -0.79715347 -23.884836
-1.5428734e-23 -1.5951229 -23.835747
2.632934e-23 -2.3962953 -23.690641
-2.1301848e-23 -3.2036331 -23.431683
5.2494497e-24 -4.0944996 -21.259998
-1.0283941e-23 -4.8910527 -21.709515
-1.2794803e-23 -5.7061033 -21.711712
-1.9900234e-23 -6.5212588 -21.711712
1.2139776e-23 -7.3364449 -21.711344
-2.8052878e-23 -8.1516037 -21.711346
-3.4599083e-23 -8.9667311 -21.711716
-1.0451397e-24 -9.7819996 -21.710615
-3.7912769e-23 -10.626093 -21.441998
1.0395563 21.830679 5.3756161
1.0257546 20.515087 3.7096078
1.0225104 19.4277 3.3180089
1.0206271 18.371284 3.0906677
1.0192441 17.327145 2.9237235
1.0184236 16.294781 2.8246813
1.0176944 15.265414 2.7366621
1.0170844 14.239177 2.6630237
1.0164043 13.213251 2.5809267
1.0154564 12.185477 2.4665148
1.0143082 11.157388 2.3279183
1.0131907 10.131907 2.1930203
1.0117109 9.1053982 2.014385
1.0102773 8.0822153 1.841337
1.0089453 7.0626173 1.680557
1.0077887 6.046731 1.5409288
1.0074639 5.0373197 1.5017338
1.008936 4.0357428 1.6794425
0.80793005 2.4237905 -22.584143
0.80457997 1.6091576 -22.988523
0.80251503 0.8025133 -23.237783
0.80156571 -3.3062145e-07 -23.352379
0.80129582 -0.80129737 -23.38496
0.80172133 -1.6034473 -23.33359
0.80296248 -2.4088874 -23.183773
0.80521637 -3.2208681 -22.911705
0.82249063 -4.1124525 -20.826523
0.81938386 -4.9163055 -21.201532
0.81936854 -5.7355814 -21.203384
0.81936854 -6.5549521 -21.203384
0.81936854 -7.3743196 -21.203382
0.81937158 -8.1937189 -21.203014
0.81936854 -9.013052 -21.20339
0.81938082 -9.8325739 -21.201906
2.062052 20.620518 4.3459272
2.0536938 19.510092 3.8414631
2.0491562 18.442404 3.5676069
2.0460818 17.391699 3.3820398
2.0438178 16.350544 3.2453992
2.0428641 15.32148 3.187834
2.0420349 14.294248 3.1377907
2.0409877 13.266417 3.0745876
2.0394852 12.236911 2.9839113
2.0370274 11.20365 2.8355534
2.0339229 10.169611 2.6481929
2.0304701 9.1371145 2.4397938
2.02686 8.1074381 2.2219048
2.0238707 7.0835457 2.0414886
2.021385 6.0641551 1.8914518
2.0215063 5.0537648 1.8987802
2.0259314 4.0518637 2.1658561
1.6246938 2.437036 -22.050976
1.6173884 1.6173856 -22.49189
1.6134361 0.80671561 -22.730433
1.6113871 3.3413721e-07 -22.854099
1.6108654 -0.80543256 -22.885599
1.6117195 -1.6117208 -22.834047
1.6141858 -2.4212816 -22.685188
1.6186922 -3.2373843 -22.41321
1.6528255 -4.1320682 -20.353069
1.6472591 -4.9417758 -20.689039
1.6472282 -5.7652984 -20.69091
1.6472282 -6.5889134 -20.690907
1.6472282 -7.4125299 -20.690907
1.6472282 -8.236145 -20.690903
1.6472343 -9.0597897 -20.690533
1.6472591 -9.8835564 -20.689037
3.1099834 20.733225 5.0261593
3.0963159 19.610003 4.4762139
3.0879142 18.527487 4.1381645
3.0820735 17.465078 3.9031348
3.0784032 16.41815 3.7554662
3.0766723 15.383358 3.6858213
3.075923 14.354309 3.655664
3.0767877 13.332747 3.6904609
3.0762832 12.305131 3.6701608
3.0720375 11.264139 3.4993258
3.0654261 10.218087 3.2333019
3.0583017 9.1749077 2.9466417
3.0523593 8.1396255 2.7075334
3.0474155 7.1106372 2.5086076
3.0444062 6.088809 2.3875198
3.0448294 5.0747147 2.4045646
3.052629 4.0701714 2.7183828
2.4501717 2.4501684 -21.522623
2.438525 1.6256834 -21.991257
2.4330585 0.81101918 -22.211212
2.4295654 6.2315286e-07 -22.351751
2.4287927 -0.8095994 -22.382847
2.4300599 -1.6200423 -22.331856
2.4341137 -2.4341176 -22.168749
2.4405823 -3.2541091 -21.908474
2.4909759 -4.1516285 -19.880787
2.4837492 -4.9675007 -20.171572
2.4837115 -5.7953253 -20.173088
2.4837115 -6.6232314 -20.17309
2.4837115 -7.4511328 -20.173088
2.4837115 -8.2790384 -20.17309
2.4837208 -9.1069784 -20.172705
2.4837773 -9.935111 -20.170439
4.17134 20.856705 5.7714105
4.1488261 19.706917 5.0919766
4.1361055 18.612474 4.7081108
4.1279345 17.543722 4.4615254
4.123055 16.492222 4.3142753
4.1206875 15.45258 4.2428355
4.1205907 14.422066 4.2399116
4.123405 13.401063 4.3248301
4.1298623 12.389585 4.5197024
4.1252313 11.344383 4.3799429
4.1091609 10.272902 3.89499
4.0968356 9.2178812 3.523042
4.0876164 8.1752348 3.2448218
4.0805297 7.1409254 3.0309553
4.0767102 6.1150694 2.9156981
4.0785718 5.0982146 2.9718645
4.0893159 4.089313 3.2960987
3.2843347 2.4632523 -20.996355
3.2684567 1.6342285 -21.475515
3.2612247 0.81530386 -21.693748
3.2566154 1.3400057e-06 -21.832863
3.2555737 -0.81389773 -21.864285
3.2572575 -1.6286272 -21.813484
3.2628293 -2.4471228 -21.645338
3.2715955 -3.2715957 -21.380795
3.3373289 -4.1716595 -19.397108
3.3289919 -4.9934855 -19.648703
3.328954 -5.8256674 -19.649845
3.328954 -6.6579103 -19.649845
3.328954 -7.4901485 -19.649843
3.328954 -8.3223886 -19.649841
3.3289666 -9.1546621 -19.649464
3.3291061 -9.9873171 -19.64526
5.2449369 20.979752 6.5140572
5.2138772 19.812737 5.7642112
5.19519 18.702681 5.3130732
5.1846809 17.62792 5.0593534
5.1775188 16.568054 4.8864431
5.1737981 15.521395 4.7966185
5.1755114 14.491426 4.8379717
5.1800671 13.468175 4.9479723
5.19344 12.464254 5.2708158
5.1924543 11.423399 5.2470236
5.1628146 10.325632 4.5314569
5.1451693 9.2613039 4.1054468
5.1324286 8.2118835 3.7978706
5.1229391 7.1721177 3.568758
5.1183381 6.142005 3.4577005
5.1219797 5.1219802 3.5456076
5.138236 4.1105852 3.938072
4.1274352 2.4764585 -20.464811
4.1069126 1.6427649 -20.960278
4.0981007 0.81961966 -21.173019
4.092247 6.3149781e-07 -21.314339
4.0910077 -0.81820297 -21.34425
4.0931344 -1.6372558 -21.292908
4.1005421 -2.460326 -21.114075
4.1119275 -3.2895455 -20.839199
4.1925168 -4.1925163 -18.893614
4.183126 -5.019752 -19.120325
4.183094 -5.8563337 -19.121098
4.183094 -6.6929517 -19.121098
4.183094 -7.5295691 -19.121099
4.183094 -8.3661919 -19.121092
4.183094 -9.2028093 -19.121092
4.1833658 -10.040078 -19.114532
6.3367753 21.122583 7.3761511
6.2905178 19.919977 6.4455223
6.2665644 18.79969 5.9636202
6.2510242 17.711229 5.6509728
6.2412801 16.643412 5.4549408
6.2383747 15.595938 5.3964801
6.2406869 14.561601 5.4430008
6.2479315 13.537183 5.5887499
6.2647109 12.529421 5.9263339
6.271832 11.498358 6.0695877
6.2291131 10.38185 5.2101564
6.205771 9.3086529 4.7405515
6.1878467 8.2504635 4.3799419
6.1753931 7.2046223 4.1293969
6.1706924 6.1706924 4.0348272
6.1757126 5.1464229 4.1358242
6.1958456 4.1305637 4.5408678
4.9794397 2.4897201 -19.931339
4.9540625 1.6513544 -20.441885
4.9435816 0.82393163 -20.652733
4.9365759 -2.8715892e-06 -20.793674
4.9351106 -0.82251847 -20.82316
4.9377637 -1.6459239 -20.769775
4.9469709 -2.4734862 -20.584549
4.9613051 -3.3075402 -20.296165
5.0562978 -4.2135859 -18.385054
5.0462923 -5.0462942 -18.586359
5.0462537 -5.8872972 -18.587137
5.0462537 -6.7283406 -18.587137
5.0462537 -7.5693836 -18.587135
5.0462537 -8.4104233 -18.587143
5.0462732 -9.251502 -18.586746
5.0466995 -10.093399 -18.578169
7.4453554 21.272446 8.2806292
7.3796582 20.0305 7.1477313
7.3481588 18.895267 6.6045427
7.3298087 17.800962 6.288106
7.3169971 16.724564 6.0671735
7.3128409 15.670374 5.9955144
7.3159838 14.631966 6.0497036
7.3269696 13.607227 6.2391505
7.3469958 12.594846 6.5844946
7.3675928 11.577646 6.9396725
7.3076444 10.439496 5.9058928
7.2757878 9.3545847 5.3565512
7.2541885 8.2905016 4.9840889
7.2391768 7.2391768 4.7252121
7.23282 6.1995606 4.6155972
7.2403393 5.1716733 4.745266
7.2652655 4.1515818 5.1750927
5.8417287 2.5036004 -19.372917
5.8108439 1.6602381 -19.905499
5.7974758 0.82821304 -20.13603
5.7895017 -7.3808661e-07 -20.273537
5.7877302 -0.82682121 -20.304085
5.7919087 -1.6548357 -20.232019
5.8018885 -2.4865239 -20.059937
5.8181262 -3.3246489 -19.779926
5.9276567 -4.2340426 -17.891144
5.9186344 -5.0731168 -18.046717
5.9185886 -5.9185901 -18.047512
5.9185886 -6.764101 -18.047514
5.9186115 -7.6096439 -18.047115
5.9185886 -8.4551287 -18.047508
5.9185886 -9.3006382 -18.04751
5.9193659 -10.147487 -18.034103
8.5748138 21.437038 9.2740231
8.4831305 20.14743 7.890635
8.4445515 19.00024 7.3085189
8.4193373 17.891088 6.9280653
8.4036999 16.807396 6.6921191
8.3986616 15.747487 6.6160874
8.4039011 14.706831 6.6951604
8.4135923 13.672085 6.8413906
8.4388943 12.65834 7.2231674
8.4786119 11.658092 7.8224549
8.3978558 10.497321 6.6039362
8.359767 9.4047365 6.0292292
8.3329935 8.3329926 5.6252403
8.3126602 7.2735786 5.318428
8.306035 6.2295256 5.2184734
8.3142385 5.1963987 5.3422561
8.3434362 4.1717157 5.7828064
6.71456 2.5179594 -18.795023
6.6772542 1.6693107 -19.357929
6.6611753 0.83264387 -19.600544
6.6522675 -1.5270364e-06 -19.734951
6.6500697 -0.83126014 -19.76812
6.6550236 -1.6637566 -19.693375
6.6665521 -2.4999588 -19.519424
6.6855907 -3.3427973 -19.232143
6.8079147 -4.2549467 -17.386421
6.8002739 -5.1002073 -17.501711
6.8002477 -5.9502182 -17.502111
6.8002477 -6.8002477 -17.502113
6.8002739 -7.6503081 -17.501717
6.8002477 -8.5003109 -17.50211
6.8002477 -9.3503399 -17.502113
6.8014364 -10.202156 -17.484173
9.6001234 20.266928 8.6497908
9.5520363 19.104073 8.0048389
9.5218868 17.985788 7.6004567
9.5040617 16.896109 7.3613958
9.4969139 15.82819 7.2655272
9.5012207 14.779674 7.3232679
9.5149422 13.743802 7.5073128
9.541811 12.722416 7.8676939
9.5936718 11.725595 8.5632582
9.4980135 10.553349 7.2802668
9.456068 9.4560719 6.7176776
9.4216957 8.3748407 6.256669
9.3995771 7.3107843 5.9600086
9.3917351 6.2611542 5.8548312
9.3998909 5.2221642 5.96422
9.4366798 4.1940832 6.4576445
7.6004834 2.5334914 -18.169971
7.5539098 1.6786479 -18.794638
7.5356183 0.83728975 -19.039965
7.5251975 -1.2445458e-06 -19.179737
7.5231571 -0.83590513 -19.207104
7.5268941 -1.6726424 -19.156982
7.5417051 -2.5139005 -18.958326
7.5637708 -3.3616774 -18.662369
7.6991954 -4.2773318 -16.846024
7.6913795 -5.1275864 -16.95085
7.6913495 -5.9821615 -16.951256
7.6913495 -6.8367548 -16.951254
7.6914091 -7.6914091 -16.950453
7.6913795 -8.5459757 -16.950851
7.6913495 -9.4005384 -16.951252
7.6930614 -10.257418 -16.928288
10.733287 20.39324 9.4523077
10.675023 19.215044 8.7490139
10.638083 18.084743 8.3030977
10.615587 16.984936 8.031558
10.608333 15.912496 7.9439859
10.612139 14.856994 7.9899278
10.627752 13.816075 8.1783905
10.656313 12.787574 8.5231619
10.72319 11.795511 9.3304358
10.613734 10.613733 8.0091896
10.562975 9.5066729 7.3964591
10.5265 8.4211998 6.9561672
10.499082 7.3493581 6.6252108
10.488869 6.2933187 6.5019255
10.50155 5.2507777 6.6550012
10.539222 4.2156858 7.1097422
8.513402 2.5540218 -17.34407
8.4419851 1.6883923 -18.206144
8.4206791 0.84206748 -18.463324
8.4074507 1.8388181e-06 -18.623018
8.40448 -0.84044772 -18.658867
8.4110041 -1.6822021 -18.580122
8.4282017 -2.5284646 -18.37252
8.4516668 -3.3806663 -18.089285
8.6000042 -4.300005 -16.298685
8.5921049 -5.1552615 -16.394047
8.5921049 -6.0144749 -16.394041
8.5921049 -6.8736839 -16.394047
8.5921717 -7.732955 -16.393227
8.5921049 -8.592103 -16.394045
8.5921049 -9.4513168 -16.394039
8.5954113 -10.314496 -16.354124
11.881074 20.521858 10.269392
11.812175 19.329016 9.5133276
11.767606 18.186302 9.0242405
11.74178 17.078955 8.7408476
11.73194 15.998098 8.6328459
11.735828 14.936513 8.6755247
11.751983 13.88871 8.8527918
11.785521 12.856936 9.2208214
11.862751 11.86275 10.068328
11.742011 10.674556 8.7433577
11.683379 9.5591297 8.0999565
11.642082 8.4669714 7.6467719
11.612379 7.3896918 7.3208189
11.601523 6.3281021 7.201695
11.611539 5.2779727 7.3115926
11.655326 4.238297 7.7921133
9.6550312 2.6331882 -14.158513
9.3406906 1.6983085 -17.608002
9.3169432 0.84699363 -17.868595
9.303586 2.0604493e-06 -18.015169
9.2987356 -0.8453418 -18.068398
9.3070755 -1.6921964 -17.976892
9.325387 -2.5432892 -17.775928
9.3533916 -3.4012353 -17.468624
9.5104132 -4.3229184 -15.745516
9.5026426 -5.1832614 -15.830778
9.5026426 -6.0471406 -15.830778
9.5026426 -6.9110107 -15.830783
9.502718 -7.7749524 -15.829961
9.5026426 -8.6387663 -15.83078
9.5026426 -9.5026455 -15.83078
9.5095863 -10.374095 -15.754585
13.044531 20.653837 11.10793
12.959636 19.439453 10.253951
12.910396 18.289724 9.7586298
12.879943 17.173256 9.4523087
12.86789 16.084864 9.3310757
12.870918 15.016065 9.361517
12.889235 13.963338 9.5457706
12.921891 12.921892 9.8742781
13.007965 11.923967 10.740108
12.884367 10.73697 9.4967957
12.819282 9.6144619 8.8420877
12.773956 8.5159693 8.386157
12.736728 7.4297595 8.011672
12.723032 6.3615141 7.8738918
12.735123 5.3063016 7.995522
12.780483 4.2601585 8.451808
10.456697 2.6141729 -14.923673
10.32674 1.7211221 -16.230934
10.318586 0.85988045 -16.312958
10.31498 -2.6367043e-06 -16.349239
10.315183 -0.85959899 -16.347198
10.316519 -1.7194175 -16.333754
10.320533 -2.5801337 -16.293386
10.332428 -3.4441442 -16.173721
10.430287 -4.3459554 -15.189333
10.422961 -5.2114797 -15.263034
10.422961 -6.0800586 -15.263036
10.423002 -6.9486709 -15.262616
10.423043 -7.8172836 -15.262198
10.422961 -8.6857996 -15.263033
10.422961 -9.5543785 -15.263035
10.432773 -10.432773 -15.16433
14.220563 20.783895 11.934215
14.122036 19.553589 11.019359
14.067092 18.395426 10.509171
14.03282 17.271162 10.190947
14.016024 16.172333 10.034982
14.021411 15.099975 10.085006
14.038913 14.03891 10.247521
14.074049 12.991428 10.573777
14.159492 11.981113 11.367155
14.03635 10.797194 10.22373
13.968959 9.6708202 9.5979605
13.91091 8.5605583 9.0589609
13.874891 7.4710946 8.7245064
