# .PCD v0.7 - Point Cloud Data file format
VERSION 0.7
FIELDS x y z
SIZE 4 4 4
TYPE F F F
COUNT 1 1 1
WIDTH 1505
HEIGHT 1
VIEWPOINT 0 0 0 1 0 0 0
POINTS 1505
DATA ascii
-648.19147 -228.77341 -921.75177
-648.20844 -247.84436 -921.69171
-650.48578 -267.84708 -913.60608
-824.95032 -363.94858 -294.20236
-826.86462 -389.11264 -287.4061
-640.37018 388.10315 -880.62561
-640.37018 368.69803 -880.62561
-640.37018 349.29282 -880.62561
-640.37018 329.8877 -880.62561
-640.37018 310.48251 -880.62561
-640.37018 291.07739 -880.62567
-640.37018 271.67221 -880.62561
-640.37018 252.26707 -880.62561
-640.37018 232.86195 -880.62567
-633.38196 211.12743 -906.18756
-631.84052 191.46689 -911.82605
-631.84052 172.32014 -911.82611
-631.84052 153.17357 -911.82617
-631.84052 134.02681 -911.82617
-631.84052 114.88013 -911.82611
-631.84052 95.733521 -911.82611
-631.84052 76.586746 -911.82611
-631.84052 57.440098 -911.82605
-631.84052 38.293411 -911.82617
-631.84052 19.146769 -911.82617
-631.84052 1.6686079e-05 -911.82617
-631.84052 -19.146631 -911.82611
-631.84052 -38.293304 -911.82605
-631.84052 -57.440083 -911.82611
-631.84052 -76.586609 -911.82617
-631.84052 -95.733383 -911.82617
-631.84052 -114.88006 -911.82617
-631.84052 -134.02667 -911.82605
-631.84052 -153.17343 -911.82611
-631.84052 -172.3201 -911.82611
-631.84052 -191.46683 -911.82605
-631.84052 -210.61343 -911.82611
-631.84052 -229.76013 -911.82617
-631.87988 -248.92233 -911.68213
-634.37689 -269.12958 -902.54822
-804.33447 -365.60651 -280.8606
-806.20605 -390.88782 -274.01434
-618.10486 212.47363 -891.41473
-615.3479 192.29633 -901.81445
-615.3479 173.06665 -901.81439
-615.3479 153.83705 -901.81439
-615.3479 134.60745 -901.81439
-615.3479 115.37785 -901.81439
-615.3479 96.148148 -901.81451
-615.3479 76.918457 -901.81439
-615.3479 57.688885 -901.81439
-615.3479 38.45929 -901.81445
-615.3479 19.22966 -901.81445
-615.3479 8.7895169e-05 -901.81451
-615.3479 -19.229607 -901.81439
-615.3479 -38.459179 -901.81439
-615.3479 -57.688808 -901.81439
-615.3479 -76.918381 -901.81445
-615.3479 -96.148033 -901.81445
-615.3479 -115.37767 -901.81439
-615.3479 -134.60727 -901.81433
-615.3479 -153.83701 -901.81445
-615.3479 -173.06657 -901.81451
-615.3479 -192.29617 -901.81445
-615.3479 -211.52576 -901.81439
-615.3479 -230.75546 -901.81439
-615.46143 -250.03122 -901.38605
-781.70032 -341.99377 -274.29834
-783.52661 -367.27805 -267.40921
-785.35815 -392.67902 -260.50009
-602.38483 213.74959 -877.41315
-602.38684 194.31842 -877.40533
-602.38684 174.88658 -877.40521
-602.38684 155.45473 -877.40533
-602.38684 136.02286 -877.40527
-602.38684 116.59108 -877.40527
-602.38684 97.159164 -877.40533
-603.58234 77.881615 -872.75031
-598.9892 57.966801 -890.63525
-598.9892 38.644543 -890.63531
-598.9892 19.3223 -890.63519
-598.9892 4.1446285e-05 -890.63525
-598.9892 -19.32217 -890.63519
-598.9892 -38.644428 -890.63525
-741.70966 -71.778374 -334.89716
-743.40375 -95.922974 -328.30045
-745.10254 -120.17769 -321.68555
-746.81226 -144.54425 -315.02823
-748.52673 -169.02211 -308.35233
-750.25214 -193.6134 -301.63376
-751.98242 -218.31747 -294.89606
-753.72382 -243.1366 -288.11526
-755.47021 -268.07001 -281.31506
-757.19934 -293.10931 -274.58206
-758.9682 -318.27704 -267.69418
-760.74213 -343.56094 -260.78659
-762.52771 -368.9649 -253.83398
-764.32159 -394.48853 -246.8488
-584.6228 214.36174 -870.69458
-584.57013 194.85675 -870.90662
-584.57013 175.37112 -870.90668
-584.57013 155.88547 -870.90662
-584.57013 136.3998 -870.90656
-584.57013 116.91406 -870.90674
-584.57013 97.428368 -870.90662
-585.81964 78.109406 -865.87891
-579.25098 57.925087 -892.30939
-579.25098 38.616749 -892.30933
-579.25098 19.308407 -892.30933
-579.25098 5.9599497e-05 -892.30927
-579.25098 -19.308411 -892.30933
-579.25098 -38.616661 -892.30945
-721.00171 -72.100082 -321.94821
-722.65594 -96.354027 -315.29224
-724.31476 -120.71912 -308.61752
-725.98425 -145.1969 -301.90005
-727.65839 -169.78699 -295.1637
-729.34332 -194.49146 -288.38416
-731.03302 -219.30986 -281.58527
-732.73364 -244.2444 -274.74249
-734.52539 -269.32599 -267.53299
-736.13098 -294.4523 -261.073
-737.85846 -319.73859 -254.12184
-739.59106 -345.14246 -247.15036
-741.33496 -370.66745 -240.13365
-743.08704 -396.31302 -233.08376
-567.92999 215.42171 -859.06226
-567.61005 195.72771 -860.39392
-567.61005 176.15498 -860.39392
-567.61005 156.58217 -860.39386
-567.61005 137.00946 -860.39392
-567.61005 117.43667 -860.39386
-567.61005 97.863815 -860.39392
-568.74274 78.447388 -855.67896
-562.25983 58.164913 -882.66394
-562.25983 38.776581 -882.664
-562.25983 19.388319 -882.66394
-562.25983 5.6211378e-05 -882.66394
-562.25983 -19.388174 -882.66394
-562.29712 -38.779045 -882.50848
-700.11011 -72.425095 -308.87064
-701.72076 -96.78904 -302.16641
-703.34174 -121.26578 -295.41913
-704.96735 -145.85519 -288.65295
-706.60333 -170.55934 -281.84317
-708.24402 -195.37758 -275.01389
-709.89532 -220.3123 -268.14032
-711.5603 -245.36559 -261.20996
-713.19409 -270.52185 -254.40945
-714.86865 -295.80765 -247.43947
-716.55396 -321.21381 -240.42406
-718.24738 -346.74008 -233.37549
-719.94568 -372.38559 -226.30643
-722.30481 -398.51291 -216.48657
-551.07123 216.49236 -847.31433
-550.49768 196.6064 -849.78674
-550.49768 176.94577 -849.78668
-550.49768 157.28508 -849.78687
-550.49768 137.62442 -849.78674
-550.49768 117.96386 -849.7868
-550.49768 98.3032 -849.78668
-551.51746 78.788322 -845.3905
-545.30933 58.426105 -872.1543
-545.30933 38.950779 -872.1543
-545.30933 19.475458 -872.15442
-545.30933 6.7428395e-05 -872.1543
-545.30933 -19.47526 -872.1543
-545.40759 -38.957645 -871.73077
-679.02649 -72.752823 -295.68674
-680.59576 -97.227921 -288.92169
-682.17511 -121.81688 -282.11316
-683.75885 -146.51964 -275.28516
-685.35297 -171.33813 -268.41306
-686.9516 -196.27184 -261.52118
-688.56055 -221.32297 -254.5845
-690.15387 -246.48344 -247.71597
-691.77789 -271.76974 -240.71449
-693.41254 -297.17676 -233.66725
-695.052 -322.70276 -226.59938
-696.70215 -348.35107 -219.48526
-698.35724 -374.11984 -212.35023
-701.4231 -400.81305 -199.13321
-534.0459 217.5743 -835.44092
-533.23102 197.49306 -839.08398
-533.23102 177.74374 -839.08398
-533.23102 157.9944 -839.08398
-533.23102 138.24507 -839.08398
-533.23102 118.49586 -839.08392
-533.23102 98.746521 -839.08392
-534.14001 79.131943 -835.0202
-528.20599 58.689602 -861.54987
-528.20599 39.126411 -861.54987
-528.20599 19.563276 -861.54993
-528.20599 8.2652426e-05 -861.54993
-528.20599 -19.56311 -861.54993
-528.36182 -39.13789 -860.85333
-657.75128 -73.083496 -282.38312
-659.27826 -97.6707 -275.5564
-660.81512 -122.37309 -268.68552
-662.35632 -147.19022 -261.79489
-663.90765 -172.1241 -254.85962
-665.46332 -197.17422 -247.90434
-667.05743 -222.35246 -240.77751
-668.58258 -247.62318 -233.95888
-670.16321 -273.02933 -226.89255
-671.75409 -298.55734 -219.77974
-673.34973 -324.20541 -212.64604
-674.95587 -349.97708 -205.46542
-676.5697 -375.87201 -198.25034
-680.30182 -403.14175 -181.56502
-516.84778 218.66637 -823.45648
-515.80615 198.38704 -828.2923
-515.80615 178.54842 -828.29236
-515.80615 158.70969 -828.29242
-515.80615 138.87096 -828.2923
-515.80615 119.03223 -828.29242
-515.80615 99.193512 -828.2923
-516.61206 79.478828 -824.5509
-510.94589 58.955322 -850.8573
-510.94589 39.303585 -850.85736
-510.94589 19.651814 -850.85736
-510.94589 7.4737596e-05 -850.85742
-510.94589 -19.65176 -850.8573
-511.1575 -39.319786 -849.87463
-636.2818 -73.417015 -268.95795
-637.76837 -98.118118 -262.05624
-639.25922 -122.93431 -255.13475
-640.75977 -147.86755 -248.16815
-642.26459 -172.91727 -241.18144
-643.7793 -198.08585 -234.14899
-645.27917 -223.36584 -227.18541
-646.81097 -248.77345 -220.07408
-648.34717 -274.30063 -212.94191
-649.89349 -299.95074 -205.7627
-651.44727 -325.7236 -198.54897
-653.00562 -351.61832 -191.31403
-654.57428 -377.63885 -184.03119
-499.47614 219.76955 -811.35101
-498.22449 199.28993 -817.39435
-498.22449 179.36089 -817.39429
-498.22449 159.43196 -817.39441
-498.22449 139.50294 -817.39435
-498.22449 119.5739 -817.39429
-498.22449 99.644974 -817.39441
-498.92969 79.828835 -813.9895
-493.53043 59.223637 -840.05945
-493.53043 39.482414 -840.05951
-493.53043 19.741289 -840.05939
-493.53043 3.4221808e-05 -840.05939
-493.53043 -19.741188 -840.05945
-493.79092 -39.503242 -838.8017
-614.61536 -73.753784 -255.40971
-616.05792 -98.569199 -248.44446
-617.50464 -123.50088 -241.45895
-618.96082 -148.55052 -234.42805
-620.4212 -173.7178 -227.37656
-621.87262 -198.99908 -220.36844
-623.34949 -224.40579 -213.23744
-624.83606 -249.93439 -206.05963
-626.32971 -275.58511 -198.84755
-627.82788 -301.3573 -191.61398
-629.33588 -327.25458 -184.33266
-630.84851 -353.27509 -177.02921
-632.37103 -379.42267 -169.67744
-481.92831 220.88388 -799.12286
-480.48209 200.20097 -806.39673
-480.48209 180.18092 -806.39679
-480.48209 160.16078 -806.39673
-480.48209 140.14072 -806.39673
-480.48209 120.12066 -806.39673
-480.48209 100.1005 -806.39685
-481.09091 80.181816 -803.33459
-475.95407 59.49435 -829.17096
-475.95407 39.662903 -829.17096
-475.95407 19.831484 -829.17096
-475.95407 3.4060387e-05 -829.17096
-475.95407 -19.831352 -829.17102
-476.26312 -39.688541 -827.61658
-592.74927 -74.09359 -241.73651
-594.14691 -99.024414 -234.70691
-595.54871 -124.07266 -227.65662
-596.95959 -149.23982 -220.56032
-598.35931 -174.52141 -213.52031
-599.78357 -199.92776 -206.35672
-601.21716 -225.45644 -199.146
-602.65515 -251.10628 -191.91393
-604.10254 -276.88037 -184.63388
-605.55432 -302.77716 -177.33195
-607.01575 -328.80017 -169.98178
-608.48419 -354.94907 -162.59581
-609.95715 -381.22314 -155.18774
-464.20163 222.00951 -786.77014
-462.57675 201.12041 -795.29816
-462.57675 181.0083 -795.2981
-462.57675 160.89627 -795.29816
-462.57675 140.78424 -795.2981
-462.57675 120.67231 -795.2981
-462.57675 100.56024 -795.29803
-463.09366 80.538132 -792.58508
-458.21793 59.767681 -818.17438
-458.21793 39.845123 -818.17426
-458.21793 19.922636 -818.17432
-458.21793 8.6069464e-05 -818.17426
-458.21793 -19.922401 -818.17432
-458.57007 -39.875603 -816.32617
-570.68323 -74.436874 -227.9239
-572.03265 -99.483955 -220.84167
-573.39093 -124.65022 -213.71304
-574.75323 -149.93549 -206.56348
-576.10962 -175.33772 -199.44443
-577.48737 -200.86513 -192.21381
-578.87421 -226.51591 -184.93523
-580.2652 -252.28915 -177.63493
-581.66541 -278.18784 -170.28592
-583.07245 -304.2117 -162.90154
-584.4837 -330.36029 -155.49478
-585.90442 -356.63748 -148.0386
-587.32947 -383.04092 -140.55951
-446.2934 223.14677 -774.29077
-444.50461 202.04758 -784.10547
-444.50461 181.8428 -784.10541
-444.50461 161.63806 -784.10547
-444.50461 141.43333 -784.10553
-444.50461 121.22861 -784.10553
-444.50461 101.02386 -784.10553
-444.93579 80.897453 -781.7395
-440.31659 60.043259 -807.08447
-440.31659 40.028759 -807.08441
-440.31659 20.014427 -807.08441
-440.31659 0.00012727706 -807.08447
-440.31659 -20.014399 -807.08441
-440.70947 -40.064442 -804.92883
-548.40936 -74.782928 -213.99588
-549.71216 -99.947594 -206.84741
-551.02356 -125.23261 -199.6521
-552.35309 -150.64172 -192.35718
-553.65088 -176.16159 -185.23637
-554.98108 -201.81126 -177.93739
-556.32025 -227.58549 -170.59004
-557.66571 -253.4843 -163.20724
-559.01544 -279.50757 -155.80191
-560.37402 -305.65851 -148.34715
-561.73688 -331.93546 -140.86964
-563.10883 -358.34192 -133.3421
-564.48743 -384.87775 -125.77766
-426.26654 202.98413 -772.8006
-426.26654 182.6857 -772.80066
-426.26654 162.38736 -772.8006
-426.26654 142.08891 -772.80072
-426.26654 121.7905 -772.80054
-426.26654 101.49207 -772.80066
-426.61517 81.260063 -770.79688
-422.25085 60.321533 -795.88342
-422.25085 40.214348 -795.88342
-422.25085 20.107195 -795.88348
-422.25085 9.058931e-06 -795.88348
-422.25085 -20.1071 -795.88342
-422.67889 -40.255032 -793.42303
-525.92737 -75.132401 -199.93753
-527.18262 -100.41575 -192.72205
-528.45074 -125.82153 -185.43303
-529.70209 -151.34338 -178.24016
-530.98004 -176.99326 -170.89423
-532.26416 -202.76718 -163.51283
-533.55225 -228.66521 -156.10896
-534.84888 -254.68997 -148.65569
-536.14941 -280.84009 -141.17984
-537.4588 -307.1192 -133.65363
-538.77441 -333.52704 -126.09075
-540.09424 -360.06281 -118.50449
-541.42291 -386.73062 -110.86715
-407.85864 203.92943 -761.39056
-407.85864 183.53648 -761.39056
-407.85864 163.14352 -761.3905
-407.85864 142.75056 -761.39056
-407.85864 122.35767 -761.39062
-407.85864 101.96466 -761.3905
-408.12955 81.625961 -759.75549
-404.01678 60.6026 -784.57812
-404.01678 40.401688 -784.57812
-404.01678 20.200909 -784.57812
-404.01678 6.625973e-05 -784.57806
-404.01678 -20.200783 -784.57812
-404.47589 -40.447548 -781.80713
-503.23434 -75.485153 -185.74702
-504.44327 -100.88853 -178.45064
-505.64487 -126.41116 -171.19821
-506.86761 -152.06029 -163.81827
-508.09412 -177.83282 -156.416
-509.32874 -203.73146 -148.96425
-510.56714 -229.75511 -141.48969
-511.81387 -255.90692 -133.96515
-513.06665 -282.18661 -126.40398
-514.32336 -308.59396 -118.81902
-515.5885 -335.13251 -111.18327
-516.8576 -361.8002 -103.52377
-518.13519 -388.60126 -95.812485
-389.2771 204.8828 -749.88239
-389.27847 184.39516 -749.87372
-389.27847 163.90685 -749.87366
-389.27847 143.41843 -749.87372
-389.27847 122.93012 -749.87372
-389.27847 102.4418 -749.87366
-389.47668 81.995155 -748.61444
-385.61075 60.885941 -773.17554
-385.61075 40.590691 -773.17554
-385.61075 20.295351 -773.17542
-385.61075 -3.0143965e-06 -773.17548
-385.61075 -20.295221 -773.17548
-386.09799 -40.641953 -770.07965
-480.32727 -75.841164 -171.42287
-481.52426 -101.37352 -163.8183
-482.64108 -127.0107 -156.7229
-483.81378 -152.78317 -149.27264
-484.99002 -178.68045 -141.79973
-486.17416 -204.70476 -134.27673
-487.36407 -230.85661 -126.7169
-488.55768 -257.13559 -119.13353
-489.75931 -283.54483 -111.49937
-490.96469 -310.08289 -103.84128
-492.17819 -336.75354 -96.131508
-493.39777 -363.55624 -88.383575
-494.62115 -390.49039 -80.611244
-370.52231 205.84583 -738.25726
-370.52231 185.26122 -738.25732
-370.52231 164.67665 -738.25732
-370.52231 144.09207 -738.25726
-370.52231 123.50742 -738.25726
-370.52231 102.92292 -738.25732
-370.6622 82.369431 -737.31952
-367.03302 61.172295 -761.65717
-367.03302 40.781532 -761.6571
-367.03302 20.3908 -761.6571
-367.03302 6.9415837e-05 -761.6571
-367.03302 -20.390726 -761.65704
-367.54269 -40.837986 -758.23901
-457.20508 -76.200745 -156.94963
-458.30389 -101.84525 -149.58096
-459.41803 -127.61617 -142.10942
-460.53961 -153.51309 -134.58803
-461.66666 -179.53699 -127.02975
-462.79724 -205.68756 -119.44794
-463.93539 -231.96774 -111.81527
-465.07712 -258.37616 -104.15885
-466.2265 -284.91614 -96.450729
-467.38165 -311.58762 -88.704399
-468.54041 -338.39026 -80.933472
-469.707 -365.32755 -73.110092
-470.87735 -392.39771 -65.261719
-351.59039 206.81789 -726.52246
-351.59039 186.13612 -726.52252
-351.59039 165.45427 -726.5224
-351.59039 144.77254 -726.52246
-351.59039 124.09081 -726.5224
-351.59039 103.40906 -726.52246
-351.67389 82.746895 -725.92975
-348.27856 61.460983 -750.03851
-348.27856 40.97406 -750.03857
-348.27856 20.487078 -750.03857
-348.27856 4.9669688e-05 -750.0387
-348.27856 -20.486933 -750.0387
-348.8074 -41.036182 -746.28351
-433.85117 -76.561867 -142.41939
-434.91022 -102.33176 -134.89925
-435.97446 -128.22771 -127.34253
-437.04199 -154.25009 -119.76243
-438.1167 -180.40096 -112.13135
-439.19479 -206.67975 -104.47634
-440.28009 -233.08943 -96.769798
-441.37082 -259.62994 -89.024925
-442.46497 -286.30075 -81.255806
-443.56656 -313.10574 -73.433952
-444.67166 -340.04303 -65.587021
-445.78424 -367.11639 -57.686775
-446.90247 -394.32568 -49.746925
-332.47882 207.79938 -714.67627
-332.47882 187.01942 -714.67621
-332.47882 166.23949 -714.67621
-332.47882 145.45953 -714.67621
-332.47882 124.67962 -714.67621
-332.47882 103.89966 -714.67621
-332.51196 83.128098 -714.42621
-329.34738 61.752697 -738.30115
-329.34738 41.168449 -738.30115
-329.34738 20.584167 -738.30109
-329.34738 0.00011110892 -738.30109
-329.34738 -20.584074 -738.30121
-329.88947 -41.23613 -734.21136
-410.28745 -76.928886 -127.65529
-411.29199 -102.82288 -120.07677
-412.30328 -128.84467 -112.44714
-413.31772 -154.99406 -104.79368
-414.33902 -181.27332 -97.088638
-415.36536 -207.68259 -89.345634
-416.39493 -234.22198 -81.578003
-417.43149 -260.89462 -73.757637
-418.47137 -287.69901 -65.912437
-419.51831 -314.6387 -58.013748
-420.5705 -341.7135 -50.075531
-421.6261 -368.92279 -42.111835
-422.75778 -396.33536 -33.573971
-313.18387 208.78932 -702.72607
-313.18387 187.91034 -702.72607
-313.18387 167.03154 -702.72607
-313.18387 146.15251 -702.72601
-313.18387 125.2736 -702.72614
-313.18387 104.39472 -702.72601
-313.18387 83.515808 -702.72614
-310.23453 62.046974 -726.46057
-310.23453 41.364624 -726.46045
-310.23453 20.682323 -726.46051
-310.23453 0.00012692687 -726.46057
-310.23453 -20.682333 -726.46045
-310.78616 -41.43808 -722.02124
-386.49506 -77.298935 -112.76299
-387.44592 -103.31892 -105.11106
-388.4032 -129.46764 -97.407745
-389.36517 -155.74605 -89.665977
-390.33023 -182.15399 -81.900085
-391.30182 -208.69432 -74.08123
-392.27646 -235.36578 -66.237762
-393.25781 -262.17178 -58.3409
-394.24402 -289.11221 -50.40411
-395.23343 -316.18668 -42.442146
-396.22961 -343.39893 -34.425537
-397.22903 -370.74698 -26.382818
-398.82297 -398.82285 -13.555612
-293.70523 209.78955 -690.65234
-293.70523 188.81058 -690.6524
-293.70523 167.83163 -690.65234
-293.70523 146.85263 -690.65234
-293.70523 125.87376 -690.6524
-293.70523 104.89474 -690.6524
-293.70523 83.91581 -690.65228
-290.93967 62.344265 -714.4975
-290.93967 41.56292 -714.49762
-290.93967 20.781437 -714.4975
-290.93967 9.1660084e-05 -714.49762
-290.93967 -20.781382 -714.49756
-291.49484 -41.642075 -709.71082
-362.47266 -77.672661 -97.726402
-363.37033 -103.82008 -89.986374
-364.27087 -130.09671 -82.222023
-365.17749 -156.50456 -74.404869
-366.08698 -183.04335 -66.562988
-367.00269 -209.71567 -58.667671
-367.92297 -236.52185 -50.732662
-368.84625 -263.46164 -42.772209
-369.77582 -290.53806 -34.757309
-370.7084 -317.75003 -26.716412
-371.6474 -345.10107 -18.620205
-372.59116 -372.59109 -10.482743
-374.56351 -401.31793 6.5230842
-274.03909 210.79935 -678.4624
-274.03909 189.71938 -678.4624
-274.03909 168.63957 -678.46246
-274.03909 147.5596 -678.46246
-274.03909 126.47963 -678.46246
-274.03909 105.39972 -678.46259
-274.03909 84.319771 -678.46234
-271.45901 62.644341 -702.41943
-271.45901 41.762959 -702.41956
-271.45901 20.881453 -702.41949
-271.45901 0.00014941292 -702.41956
-271.45901 -20.881386 -702.41949
-272.0127 -41.848061 -697.27869
-338.21686 -78.04998 -82.544014
-339.05853 -104.32561 -74.728424
-339.90292 -130.73184 -66.888191
-340.75302 -157.27057 -58.994484
-341.60742 -183.9424 -51.061188
-342.46454 -210.74724 -43.10239
-343.32751 -237.68816 -35.089088
-344.19333 -264.7641 -27.049753
-345.06506 -291.978 -18.955294
-345.94122 -319.33035 -10.819588
-346.82025 -346.82022 -2.6573253
-347.70538 -374.45187 5.5612187
-254.18271 211.81898 -666.1546
-254.18271 190.63704 -666.1546
-254.18271 169.45522 -666.1546
-254.18271 148.27328 -666.1546
-254.18271 127.09139 -666.15466
-254.18271 105.90949 -666.15454
-254.18271 84.727623 -666.1546
-251.78897 62.947304 -690.23364
-251.78897 41.964832 -690.23358
-251.78897 20.982515 -690.2337
-251.78897 1.1994778e-05 -690.23358
-251.78897 -20.982306 -690.2337
-252.33679 -42.056118 -684.72296
-313.72421 -78.431015 -67.213234
-314.50879 -104.83618 -59.321144
-315.29727 -131.37372 -51.389614
-316.08829 -158.04398 -43.4324
-316.88477 -184.84943 -35.420715
-317.68378 -211.78908 -27.38308
-318.48828 -238.86612 -19.290277
-319.29691 -266.08063 -11.156468
-320.10815 -293.43231 -2.9959204
-320.92502 -320.9249 5.2211795
-321.74457 -348.55661 13.465289
-322.56982 -376.33142 21.766642
-234.13243 212.84773 -653.73657
-234.13243 191.56288 -653.73645
-234.13243 170.2782 -653.73639
-234.13243 148.99341 -653.73645
-234.13243 127.70872 -653.73657
-234.13243 106.42386 -653.73651
-234.13243 85.139023 -653.73639
-231.92865 63.253349 -677.92029
-231.92865 42.168953 -677.92023
-231.92865 21.08453 -677.92017
-231.92865 3.8446524e-06 -677.92017
-231.92865 -21.084419 -677.9201
-232.46432 -42.266228 -672.04169
-288.99127 -78.815826 -51.732059
-289.71753 -105.35188 -43.762234
-290.44748 -132.02161 -35.752308
-291.17975 -158.82518 -27.716503
-291.91708 -185.7654 -19.62536
-292.65811 -212.84227 -11.493024
-293.40164 -240.05579 -3.3341784
-294.15027 -267.40924 4.880899
-294.90134 -294.90131 13.123329
-295.65768 -322.53555 21.42296
-296.41788 -350.31201 29.765097
-297.18063 -378.2298 38.135216
-213.88724 213.88734 -641.18774
-213.88724 192.49863 -641.18768
-213.88724 171.10988 -641.18781
-213.88724 149.72116 -641.18774
-213.88724 128.33246 -641.18768
-213.88724 106.94363 -641.18774
-213.88724 85.554924 -641.18768
-211.8735 63.562115 -665.49573
-211.8735 42.374729 -665.49573
-211.8735 21.187452 -665.49567
-211.8735 6.8460322e-05 -665.49567
-211.8735 -21.187315 -665.49573
-212.3923 -42.47839 -659.23315
-264.01569 -79.204681 -36.08387
-264.68127 -105.87243 -28.049761
-265.35141 -132.67569 -19.960201
-266.02374 -159.61417 -11.844446
-266.70071 -186.69046 -3.6726048
-267.38116 -213.90486 4.541007
-268.06381 -241.25749 12.781629
-268.75122 -268.75116 21.079281
-269.4422 -296.38638 29.419806
-270.13544 -324.16238 37.788101
-270.83353 -352.08347 46.214767
-271.53397 -380.14743 54.669945
-193.44331 214.93704 -628.51575
-193.44331 193.44336 -628.51562
-193.44331 171.94969 -628.51569
-193.44331 150.45601 -628.51581
-193.44331 128.96216 -628.51569
-193.44331 107.4686 -628.51569
-193.44331 85.974884 -628.51575
-191.62228 63.874203 -652.94
-191.62228 42.582691 -652.93982
-191.62228 21.291466 -652.93988
-191.62228 0.00011313577 -652.94
-191.62228 -21.291368 -652.93994
-192.11771 -42.692657 -646.29547
-238.79131 -79.596992 -20.295084
-239.39627 -106.39833 -12.180791
-240.00543 -133.33629 -4.0108652
-240.61768 -160.41171 4.2009597
-241.23196 -187.62479 12.439823
-241.85051 -214.97812 20.735912
-242.4711 -242.4711 29.059587
-243.09602 -270.10666 37.441101
-243.72418 -297.88495 45.865974
-244.35443 -325.80576 54.319294
-244.98911 -353.87308 62.831844
-245.62711 -382.08649 71.388626
-172.86168 216.07721 -614.75372
-172.79771 194.39748 -615.71869
-172.79771 172.79778 -615.71869
-172.79771 151.19807 -615.71863
-172.79771 129.59827 -615.71869
-172.79771 107.9986 -615.71875
-172.79771 86.398888 -615.71869
-171.17062 64.188988 -640.26978
-171.17062 42.79266 -640.26978
-171.17062 21.396296 -640.26971
-171.17062 3.5577439e-05 -640.26959
-171.17062 -21.396168 -640.26978
-171.63681 -42.909122 -633.23584
-213.31575 -79.993385 -4.3490133
-213.85986 -106.9298 3.861011
-214.40578 -134.00357 12.098281
-214.95547 -161.21657 20.392515
-215.507 -188.56854 28.714455
-216.06236 -216.0623 37.094154
-216.62059 -243.69814 45.517315
-217.18071 -271.47577 53.968758
-217.74474 -299.39896 62.479473
-218.3107 -327.466 71.018982
-218.88063 -355.68103 79.618599
-219.45354 -384.04355 88.263039
-152.08376 217.26256 -600.44458
-151.9469 195.36037 -602.80457
-151.9469 173.65367 -602.80475
-151.9469 151.94695 -602.80463
-151.9469 130.24025 -602.80457
-151.9469 108.53364 -602.80469
-151.9469 86.82682 -602.80469
-150.5313 64.513382 -627.21582
-150.51688 43.004917 -627.4646
-150.51688 21.50243 -627.46448
-150.51688 5.3150256e-05 -627.46436
-150.51688 -21.502274 -627.46454
-150.9478 -43.127781 -620.03369
-187.58525 -80.393578 11.756559
-188.06613 -107.46627 20.049223
-188.54861 -134.67755 28.369249
-189.03444 -162.0294 36.747189
-189.5228 -189.52277 45.168621
-190.0128 -217.1575 53.618343
-190.50623 -244.93652 62.12722
-191.00133 -272.85898 70.664871
-191.49989 -300.92834 79.262398
-192.0011 -329.14468 87.905334
-192.50401 -357.50735 96.577644
-193.01048 -386.02084 105.31121
-131.07658 218.461 -585.97784
-130.88898 196.3336 -589.7522
-130.88898 174.51863 -589.7522
-130.88898 152.70378 -589.75208
-130.88898 130.88907 -589.75232
-130.88898 109.07421 -589.7522
-130.88898 87.259361 -589.75214
-129.68611 64.843102 -613.95197
-129.6573 43.219242 -614.53162
-129.6573 21.609629 -614.53156
-129.6573 3.9550701e-05 -614.53143
-129.6573 -21.609421 -614.53162
-130.04677 -43.348885 -606.69617
-161.59595 -80.797951 28.024355
-162.0123 -108.0081 36.400402
-162.43079 -135.35887 44.819916
-162.85069 -162.85069 53.26791
-163.27354 -190.48576 61.774822
-163.69781 -218.26373 70.310829
-164.12509 -246.18747 78.906532
-164.5546 -274.2576 87.547424
-164.98557 -302.47354 96.21801
-165.41957 -330.83905 104.94974
-165.8551 -359.35266 113.71178
-166.29372 -388.01859 122.53599
-109.83637 219.67282 -571.3504
-109.62022 197.31651 -576.56903
-109.62022 175.39243 -576.56909
-109.62022 153.46829 -576.56891
-109.62022 131.5443 -576.56891
-109.62022 109.62027 -576.56885
-109.62022 87.696167 -576.56891
-108.6268 65.176208 -600.55212
-108.58842 43.435387 -601.47894
-108.58842 21.717726 -601.47876
-108.58842 0.00013833052 -601.479
-108.58842 -21.717592 -601.47894
-108.93046 -43.572121 -593.22137
-135.34456 -81.206573 44.471405
-135.6944 -108.55547 52.917667
-136.04669 -136.04671 61.422817
-136.40019 -163.68018 69.956902
-136.75616 -191.45853 78.550652
-137.114 -219.38239 87.189857
-137.47307 -247.45154 95.858429
-137.83469 -275.66919 104.58827
-138.19753 -304.03448 113.34841
-138.56296 -332.55106 122.17073
-138.93034 -361.21875 131.0397
-139.30165 -390.04456 140.00406
-88.35955 220.89896 -556.54987
-88.137421 198.30927 -563.25323
-88.137421 176.2749 -563.25323
-88.137421 154.24049 -563.25311
-88.137421 132.2061 -563.25305
-88.137421 110.17185 -563.25323
-88.137421 88.137451 -563.25317
-87.350395 65.512886 -587.00378
-87.307938 43.654068 -588.28516
-87.307938 21.826962 -588.28503
-87.307938 6.1572973e-05 -588.28503
-87.307938 -21.826916 -588.2851
-87.595505 -43.797726 -579.60681
-108.82569 -81.619247 61.070732
-109.10842 -109.10831 69.602829
-109.39314 -136.74141 78.195114
-109.67934 -164.51892 86.832062
-109.97017 -192.44771 95.608284
-110.25525 -220.51038 104.21114
-110.53761 -248.70958 112.73254
-110.8409 -277.10214 121.88489
-111.21255 -305.83453 133.10062
-112.44866 -337.34601 170.40344
-112.45136 -365.46686 170.48502
-66.640869 222.13637 -541.61383
-66.437103 199.31139 -549.81281
-66.437103 177.16568 -549.81268
-66.437103 155.02003 -549.81281
-66.437103 132.87425 -549.81281
-66.437103 110.72845 -549.81268
-66.437103 88.582909 -549.81274
-65.852753 65.852852 -573.32483
-65.811928 43.874653 -574.96777
-65.811928 21.937393 -574.96771
-65.811928 6.034441e-06 -574.96777
-65.811928 -21.937252 -574.96771
-66.038506 -44.025616 -565.85089
-82.037552 -82.037491 77.901184
-82.399231 -109.86565 92.454155
-83.147644 -138.57939 122.56786
-83.149223 -166.29845 122.63143
-83.162651 -194.04607 123.17146
-83.302284 -222.13931 128.79012
-83.443199 -250.32948 134.45982
-83.584175 -278.61386 140.13252
-83.782921 -307.20392 148.12924
-84.006371 -336.02542 157.12041
-84.231033 -365.00107 166.15985
-84.457291 -394.13403 175.26401
-44.676991 223.38509 -526.54034
-44.516518 200.32442 -536.22552
-44.516518 178.06609 -536.22552
-44.516518 155.80791 -536.22552
-44.516518 133.54958 -536.22546
-44.516518 111.29129 -536.22552
-44.516518 89.033089 -536.22546
-44.130844 66.19635 -559.50299
-44.097672 44.097652 -561.505
-44.097672 22.048897 -561.50507
-44.097672 9.9155041e-05 -561.50507
-44.097672 -22.048759 -561.50513
-44.255974 -44.255955 -551.95087
-54.977833 -82.466652 95.170731
-55.116692 -110.23333 103.55156
-55.261478 -138.15358 112.29039
-55.407299 -166.22182 121.09109
-55.553886 -194.43852 129.93864
-55.700985 -222.80388 138.81674
-55.849133 -251.32111 147.75844
-55.998074 -279.9903 156.74747
-56.147808 -308.81281 165.78479
-56.298073 -337.78836 174.85431
-56.443142 -366.88043 183.60995
-56.65432 -396.58011 196.35532
-22.464693 224.64703 -511.30688
-22.371969 201.34785 -522.49963
-22.371969 178.97577 -522.49963
-22.371969 156.60384 -522.49957
-22.371969 134.23187 -522.49951
-22.371969 111.85994 -522.49969
-22.371969 89.487968 -522.49963
-22.181211 66.543625 -545.52612
-22.161421 44.322876 -547.91492
-22.161421 22.16148 -547.91479
-22.161421 5.5817349e-05 -547.91498
-22.161421 -22.161367 -547.91486
-22.244349 -44.488525 -537.90472
-27.627733 -82.883057 111.92726
-27.700626 -110.80242 120.7261
-27.773903 -138.86943 129.57169
-27.847569 -167.08531 138.46388
-27.921495 -195.45039 147.3875
-27.995949 -223.96758 156.37483
-28.070797 -252.63712 165.41014
-28.145916 -281.45908 174.47749
-28.221571 -310.43716 183.60994
-28.297361 -339.56824 192.75847
-28.373972 -368.86151 202.00632
-28.506155 -399.08606 217.96228
-4.5409641e-22 202.38162 -508.63263
7.7375618e-23 179.89479 -508.63263
-2.381853e-22 157.40797 -508.63263
-4.2674315e-22 134.92113 -508.63263
1.0472887e-22 112.43429 -508.63263
-8.3828979e-23 89.947449 -508.6326
-2.4147651e-22 66.894493 -531.41223
3.4648533e-22 44.550564 -534.17499
-6.2678142e-22 22.2754 -534.17517
-5.8402359e-22 0.00010874741 -534.17505
4.3277025e-22 -22.275173 -534.17493
-1.1409968e-22 -44.723873 -523.7099
3.8147746e-22 -83.312607 129.20482
-3.7724601e-22 -111.37804 138.09525
3.0857512e-23 -139.59209 147.01683
-1.0547984e-22 -167.95708 156.00197
-8.9160518e-22 -196.47368 165.03528
-5.0462097e-22 -225.14224 174.10065
-1.1739346e-22 -253.96584 183.23116
-1.5174013e-22 -282.9447 192.41078
1.3141802e-22 -312.08026 201.64014
2.6931242e-22 -341.37204 210.90273
-7.6018953e-22 -370.82254 220.21552
-5.265043e-22 -401.62399 239.84412
22.602821 203.42548 -494.63312
22.602821 180.82262 -494.633
22.602821 158.2198 -494.63318
22.602821 135.61696 -494.63309
22.602821 113.01424 -494.63318
22.602821 90.411377 -494.63306
22.416298 67.248985 -517.14868
22.390245 44.780514 -520.29327
22.390245 22.390339 -520.29327
22.390245 7.538197e-05 -520.29333
22.390245 -22.390188 -520.2934
22.480785 -44.961529 -509.36438
27.915352 -83.745895 146.64603
27.989775 -111.95899 155.62943
28.06459 -140.32286 164.6606
28.139809 -168.83884 173.74049
28.215296 -197.5071 182.85252
28.291327 -226.33055 192.03021
28.367767 -255.30977 201.25729
28.444485 -284.44476 210.51788
28.519667 -313.71628 219.59317
28.599308 -343.19156 229.20674
28.677284 -372.80463 238.6192
45.440178 204.48091 -480.47781
45.440178 181.76085 -480.47781
45.440178 159.04063 -480.47781
45.440178 136.32056 -480.47775
45.440178 113.60046 -480.47772
45.440178 90.880371 -480.47766
45.071266 67.606964 -502.74341
45.012707 45.012806 -506.27798
45.012707 22.506418 -506.27798
45.012707 4.3565698e-05 -506.27802
45.012707 -22.506269 -506.27798
45.201794 -45.201675 -494.8656
56.122978 -84.184425 164.28619
56.27338 -112.54676 173.36392
56.42432 -141.06071 182.47391
56.576347 -169.72897 191.64951
56.729195 -198.55212 200.87477
56.882591 -227.53033 210.13307
57.037102 -256.66693 219.45862
57.190773 -285.95383 228.73334
57.34837 -315.41602 238.24522
57.505138 -345.03085 247.70721
57.662769 -374.80792 257.22076
68.515732 205.54732 -466.1748
68.515732 182.70865 -466.17477
68.515732 159.87007 -466.17468
68.515732 137.03152 -466.17487
68.515732 114.19296 -466.17477
68.515732 91.35437 -466.17465
67.969009 67.969017 -488.17355
67.871269 45.247482 -492.10583
67.871269 22.623869 -492.1059
67.871269 -5.4458214e-06 -492.10583
67.871269 -22.623634 -492.1059
68.166901 -45.444618 -480.21085
84.627075 -84.626953 182.09544
84.855064 -113.14002 191.26897
85.084282 -141.80705 200.49211
85.314331 -170.6286 209.74837
85.546043 -199.6073 219.07173
85.779015 -228.74388 228.44583
86.01326 -258.03976 237.87125
86.248367 -287.49442 247.33098
86.484756 -317.11069 256.84268
86.72245 -346.88977 266.40686
86.961449 -376.83282 276.02353
91.832886 206.62401 -451.73273
91.832886 183.66583 -451.73267
91.832886 160.70757 -451.7327
91.832886 137.74937 -451.73264
91.832886 114.79111 -451.73267
91.832886 91.832924 -451.73257
91.112991 68.334717 -473.45746
90.969223 45.48468 -477.79584
90.969223 22.742363 -477.79599
90.969223 1.9988614e-05 -477.7959
90.969223 -22.742224 -477.79596
91.373978 -45.686874 -465.58151
113.43303 -85.074692 200.10954
113.74024 -113.74009 209.38049
114.04857 -142.56061 218.68507
114.35913 -171.53862 228.05711
114.67139 -200.6749 237.48024
114.98479 -229.96953 246.93793
115.30219 -259.42984 256.51633
115.61734 -289.04318 266.02661
115.93594 -318.82376 275.6413
116.2563 -348.76886 285.30911
116.57902 -378.88177 295.048
115.39607 207.71307 -437.12756
115.39607 184.63383 -437.12759
115.39607 161.55461 -437.12759
115.39607 138.47537 -437.12762
115.39607 115.39615 -437.12762
115.39607 92.317024 -437.12759
114.50739 68.704521 -458.58234
114.31097 45.724533 -463.32443
114.31097 22.862246 -463.32428
114.31097 6.8142428e-05 -463.32434
114.31097 -22.86208 -463.3244
142.15939 -56.86367 208.99603
142.54471 -85.526733 218.29846
142.93282 -114.34618 227.66844
143.32304 -143.32298 237.08946
143.71472 -172.4576 246.54514
144.10924 -201.75284 256.06952
144.49878 -231.19803 265.47394
144.9041 -260.82727 275.25925
145.30446 -290.60886 284.92484
145.70705 -320.55533 294.64392
146.11259 -350.67014 304.43491
146.51967 -380.95114 314.26266
139.20894 208.81348 -422.36768
139.20894 185.61205 -422.36758
139.20894 162.41051 -422.36758
139.20894 139.20897 -422.36752
139.20894 116.00744 -422.36749
139.20894 92.80603 -422.36768
138.15683 69.078522 -443.53418
137.89955 45.966591 -448.71042
137.89955 22.983326 -448.71024
137.89955 0.00010085781 -448.71036
137.89955 -22.983238 -448.71027
171.50008 -57.166553 227.27977
171.96823 -85.983994 236.69867
172.43898 -114.95921 246.16925
172.91145 -144.09279 255.67468
173.38736 -173.38728 265.2493
173.86592 -202.84351 274.87701
174.34625 -232.46156 284.54065
174.82924 -262.24374 294.25766
175.31491 -292.19138 304.02869
175.8033 -322.30594 313.85425
176.2953 -352.59052 323.75253
176.78917 -383.04312 333.6882
163.27548 209.92567 -407.45044
163.27548 186.60071 -407.45047
163.27548 163.27551 -407.45035
163.27548 139.95045 -407.45044
163.27548 116.62549 -407.45047
163.27548 93.300293 -407.45035
162.06453 69.456314 -428.33243
161.73994 46.211479 -433.92978
161.73994 23.105833 -433.92966
161.73994 5.6321685e-05 -433.9296
161.73994 -23.105577 -433.92975
201.15602 -57.473003 245.77643
201.70712 -86.445869 255.27966
202.26224 -115.57832 264.85229
202.82042 -144.87157 274.47775
203.38068 -174.3262 284.13907
203.94505 -203.94495 293.87146
204.51157 -233.7274 303.64035
205.08121 -263.67572 313.46365
205.65405 -293.79132 323.34186
206.23112 -324.07742 333.2933
206.81041 -354.53207 343.28278
207.39297 -385.15829 353.32864
187.599 211.04897 -392.38474
187.599 187.59912 -392.38486
187.599 164.14915 -392.38474
187.599 140.69933 -392.38486
187.599 117.24934 -392.38474
187.599 93.799507 -392.38483
186.23592 69.83857 -412.95221
185.83571 46.459068 -418.99069
185.83571 23.229549 -418.9906
185.83571 0.00013017614 -418.99072
185.83571 -23.229401 -418.99063
231.13054 -57.782627 264.45535
231.76831 -86.913132 274.07864
232.40961 -116.20479 283.7551
233.05331 -145.6582 293.4678
233.68655 -175.26489 303.0228
234.35266 -205.05846 313.07324
235.00717 -235.00705 322.94931
235.66536 -265.1235 332.88058
236.32845 -295.4104 342.88574
236.99406 -325.86679 352.92941
237.66345 -356.49521 363.02957
238.33664 -387.29706 373.18701
212.18507 212.1852 -377.14569
212.18507 188.60898 -377.1456
212.18507 165.03293 -377.14575
212.18507 141.45682 -377.14557
212.18507 117.88076 -377.14575
212.18507 94.304543 -377.14563
214.74095 71.580414 -342.86548
210.37871 46.750774 -401.37332
210.37871 23.375458 -401.37329
210.37785 4.2233798e-05 -401.38477
210.37785 -23.375273 -401.38474
261.43091 -58.095634 283.35379
262.15488 -87.384956 293.06433
262.88422 -116.83733 302.84628
263.61761 -146.45412 312.68286
264.35379 -176.23581 322.5567
265.09412 -206.18423 332.48587
265.83856 -236.3009 342.47083
266.58856 -266.58841 352.53003
267.34143 -297.04599 362.62802
268.0986 -327.67599 372.78308
268.86008 -358.48004 382.996
269.62723 -389.46143 393.28558
237.03732 213.33372 -361.74155
237.03732 189.62994 -361.74149
237.03732 165.92628 -361.74158
237.03732 142.2225 -361.74149
237.03732 118.51885 -361.74161
237.03732 94.815056 -361.74152
236.35974 70.907921 -369.92065
235.81453 47.163033 -376.50192
235.81453 23.581533 -376.50186
235.81453 5.1213243e-05 -376.50183
235.81453 -23.581417 -376.50177
292.05997 -58.411907 302.44061
292.87466 -87.86235 312.27493
293.69247 -117.47691 322.14645
294.5163 -147.25813 332.09125
295.34329 -177.20599 342.07401
296.17496 -207.32236 352.11273
297.01129 -237.60898 362.20837
297.85391 -268.06845 372.37964
298.69977 -298.69974 382.59012
299.55048 -329.50543 392.8588
300.40601 -360.48709 403.18622
301.26801 -391.64838 413.59146
262.16006 214.49469 -346.16968
262.16006 190.66199 -346.1698
262.16006 166.82916 -346.16971
262.16006 142.99644 -346.16983
262.16006 119.16373 -346.16968
262.16006 95.331017 -346.16977
260.43332 71.02729 -365.11853
259.68762 47.215931 -373.30145
259.68762 23.608053 -373.30154
259.68762 0.00016168087 -373.30161
259.68762 -23.607975 -373.30154
323.02597 -58.731876 321.75412
323.93033 -88.344589 331.67886
324.83325 -118.12117 341.58707
325.7561 -148.07088 351.71378
326.67587 -178.1868 361.80725
327.60086 -208.47318 371.95773
328.53278 -238.9328 382.18427
329.46832 -269.56497 392.45071
330.40918 -300.37192 402.7757
331.35547 -331.35541 413.15988
332.30893 -362.51868 423.62256
333.26614 -393.85986 434.12671
287.55658 215.66756 -330.43948
287.55658 191.70447 -330.43954
287.55658 167.74132 -330.43933
287.55658 143.77832 -330.43933
287.55658 119.81534 -330.43933
287.55658 95.852234 -330.43939
285.707 71.426811 -349.04456
284.845 47.474255 -357.71591
284.84616 23.737261 -357.70425
284.84616 9.314745e-05 -357.70419
284.84616 -23.737175 -357.70419
354.3313 -59.05513 341.26245
355.33063 -88.832573 351.31491
356.3338 -118.77785 361.4061
357.34262 -148.89261 371.55414
358.35721 -179.17848 381.76001
359.37943 -209.63788 392.0426
360.40558 -240.2704 402.36533
361.43768 -271.07822 412.74716
362.47568 -302.06293 423.18854
363.52155 -333.22803 433.7092
364.57156 -364.57144 444.27155
366.10153 -396.60989 459.66205
313.27502 216.88272 -314.13983
313.23361 192.75925 -314.5242
313.23361 168.66438 -314.52417
313.23361 144.56953 -314.52417
313.23361 120.47458 -314.52423
313.23361 96.379715 -314.52417
311.26788 71.831116 -332.77673
310.2803 47.735474 -341.94699
310.2803 23.8678 -341.94696
310.28159 6.5156564e-05 -341.93518
310.28159 -23.867712 -341.93521
385.98508 -59.382317 361.005
387.07773 -89.325676 371.15094
388.17664 -119.43889 381.35434
389.28174 -149.72375 391.61618
390.39319 -180.18135 401.93634
391.51303 -210.81473 412.33447
392.63727 -241.62286 422.7735
393.76801 -272.60852 433.27258
394.90729 -303.77484 443.85168
396.05115 -335.12018 454.47281
397.20166 -366.64758 465.15564
399.36722 -399.36716 485.26385
339.43854 218.21057 -296.33118
339.19479 193.82568 -298.43274
339.19479 169.59752 -298.43271
339.19479 145.36934 -298.43268
339.19479 121.14106 -298.43271
339.19479 96.912888 -298.43271
337.11841 72.2397 -316.33578
335.99713 47.999619 -326.00354
335.99713 23.999868 -326.0036
335.99713 0.00011614477 -326.00366
335.99854 -23.999809 -325.99176
417.98935 -59.712696 380.94888
419.1792 -89.823982 391.20822
420.37585 -120.10727 401.52606
421.57941 -150.56392 411.90305
422.79202 -181.19649 422.35846
424.00943 -212.00468 432.85541
425.23389 -242.99077 443.41284
426.46542 -274.15637 454.03143
427.70636 -305.50452 464.73093
428.95227 -337.03381 475.47351
430.20547 -368.7475 486.27896
365.9259 219.55565 -278.29086
365.44482 194.90396 -282.16211
365.44482 170.54091 -282.16214
365.44482 146.17795 -282.16214
365.44482 121.81501 -282.16214
365.44482 97.45195 -282.16217
363.26468 72.653008 -299.70657
362.00015 48.266781 -309.88281
362.00015 24.133469 -309.88272
362.00015 6.1392035e-05 -309.88269
362.00015 -24.13335 -309.88266
450.35178 -60.04678 401.11594
451.64096 -90.328094 411.4906
452.93756 -120.78331 421.92499
454.24399 -151.41455 432.43802
455.55557 -182.22214 442.99304
456.87479 -213.20824 453.60928
458.20166 -244.37411 464.28717
459.53867 -275.72305 475.04651
460.88107 -307.25397 485.8493
462.23135 -338.96967 496.71567
463.58957 -370.87152 507.64557
392.73688 220.91463 -260.06424
391.98691 195.99348 -265.72205
391.98691 171.49429 -265.72205
391.98691 146.99513 -265.72211
391.98691 122.49593 -265.72211
391.98691 97.996742 -265.72211
389.7135 73.071358 -282.87405
388.2926 48.536621 -293.59357
388.29422 24.268456 -293.58145
388.29422 0.00016161069 -293.58151
388.29422 -24.268372 -293.58142
483.07843 -60.384724 421.51016
484.46909 -90.837914 432.00195
485.87033 -121.4676 442.57367
487.27719 -152.27406 453.18735
488.69217 -183.25941 463.86264
490.11542 -214.4254 474.60022
491.54956 -245.77472 485.41989
492.98953 -277.30652 496.28366
494.43793 -309.02368 507.21118
495.8949 -340.92764 518.20306
497.3631 -373.02228 529.27991
419.87476 222.28676 -241.66083
418.82919 197.09615 -249.08466
418.82919 172.45926 -249.08475
418.82919 147.82214 -249.08466
418.82919 123.18501 -249.08456
418.82919 98.548134 -249.08466
416.46863 73.494476 -265.84619
414.88248 48.809738 -277.10892
414.88248 24.404867 -277.10895
414.88419 0.000126431 -277.0968
414.88419 -24.404985 -277.09665
516.17548 -60.726494 442.13507
517.66986 -91.353424 452.74612
519.17566 -122.15899 463.43835
520.6875 -153.14334 474.17343
522.20819 -184.30869 484.97113
523.74054 -215.65788 495.85184
525.27911 -247.19014 506.77682
526.82678 -278.90826 517.76611
528.38361 -310.81378 528.82031
529.95245 -342.91031 539.96021
531.52777 -375.19608 551.14636
447.3537 223.67691 -223.01468
445.97522 198.21124 -232.25887
445.97522 173.43486 -232.25893
445.97522 148.65848 -232.25899
445.97522 123.88197 -232.25883
445.97522 99.10569 -232.25883
443.53735 73.922958 -248.6075
441.77325 49.085953 -260.43787
441.77325 24.543039 -260.43784
441.77325 1.3844744e-05 -260.43787
441.77515 -24.54302 -260.42526
549.64929 -61.072117 462.99478
551.25256 -91.875435 473.7467
552.86237 -122.85822 484.54187
554.48151 -154.02264 495.40051
556.11017 -185.36995 506.32263
557.75146 -216.90326 517.3291
559.39948 -248.62187 528.38086
561.05719 -280.52859 539.49817
562.72485 -312.62485 550.6814
564.40546 -344.91425 561.95154
566.09302 -377.39523 573.26904
475.17651 225.08359 -204.14671
473.43015 199.339 -215.24165
473.43015 174.42166 -215.24173
473.43015 149.50443 -215.24173
473.43015 124.58694 -215.24158
473.43015 99.669594 -215.24164
470.92154 74.356194 -231.17958
468.97018 49.365276 -243.57684
468.97018 24.682642 -243.57693
468.97018 0.00011732378 -243.57697
468.97018 -24.682646 -243.57684
583.50934 -61.421932 484.11273
585.21808 -92.402794 494.96881
586.93689 -123.56554 505.88852
588.66577 -154.91203 516.87268
590.40808 -186.44456 527.94165
592.15753 -218.16319 539.05609
593.91736 -250.07034 550.23669
595.68768 -282.16776 561.48401
597.47186 -314.45877 572.81909
599.26349 -346.94193 584.20178
601.06586 -379.62039 595.65259
664.33978 398.60403 786.61011
664.33978 365.38708 786.61011
664.33978 332.17004 786.61005
664.33978 298.95309 786.61005
501.19714 200.47891 -198.04268
501.19714 175.41914 -198.04277
501.19714 150.35925 -198.04265
501.19714 125.29939 -198.04282
501.19714 100.23949 -198.04271
503.32547 75.49894 -185.19714
496.47629 49.647705 -226.53584
496.47839 24.824068 -226.52303
496.47839 0.00012476197 -226.52304
496.47839 -24.823805 -226.52307
617.75635 -61.775623 505.4545
619.57581 -92.936401 516.43604
621.40607 -124.2812 527.48248
623.25049 -155.81256 538.61432
625.10248 -187.53064 549.79236
626.96558 -219.43794 561.03705
628.83984 -251.53577 572.34882
630.72864 -283.82785 583.74915
632.62549 -316.31274 595.19745
634.53375 -348.99338 606.71466
636.45355 -381.87198 618.3017
529.28583 201.63275 -180.63266
529.28583 176.42863 -180.63277
529.28583 151.22466 -180.63283
529.28583 126.02053 -180.63268
529.28583 100.81644 -180.63281
531.44269 75.920418 -168.23471
524.30109 49.933514 -209.28558
524.30109 24.966803 -209.28554
524.30334 6.6861292e-05 -209.27258
524.30334 -24.966738 -209.27261
652.39996 -62.13324 527.04315
654.33264 -93.476089 538.15259
656.28033 -125.00565 549.34796
658.23615 -156.72284 560.59003
660.20355 -188.62959 571.89929
662.1828 -220.72754 583.27625
664.17755 -253.02003 594.74231
666.18079 -285.50595 606.25684
668.19611 -318.18848 617.84113
670.22363 -351.06934 629.49561
672.26715 -384.15265 641.24243
557.69965 202.79999 -163.02126
557.69965 177.44997 -163.02121
557.69965 152.09996 -163.02118
557.69965 126.74993 -163.02113
557.69965 101.40005 -163.02132
559.87323 76.346367 -151.095
552.44812 50.222683 -191.83575
552.44812 25.111305 -191.83568
552.44812 0.00017403418 -191.83574
552.4505 -25.111252 -191.82274
687.44714 -62.495014 548.88348
689.49554 -94.022018 560.1228
691.55988 -125.73808 571.44946
693.63287 -157.64371 582.82385
695.71838 -189.74132 594.26672
697.81641 -222.03241 605.77832
699.93097 -254.52028 617.38049
702.05457 -287.2041 629.03235
704.29144 -320.13248 641.30609
706.25909 -353.12955 652.10175
586.44183 203.97984 -145.21812
586.44183 178.48235 -145.21802
586.44183 152.98497 -145.21812
586.44183 127.48735 -145.21806
586.44183 101.98998 -145.21815
588.62726 76.777496 -133.74844
580.92303 50.515221 -174.18257
580.92303 25.257601 -174.18251
580.92303 -2.2233822e-05 -174.18246
580.92303 -25.257399 -174.18256
722.90491 -62.861202 570.9798
725.0755 -94.574974 582.37177
727.25531 -126.4791 593.81183
729.43628 -158.57309 605.2583
731.70221 -190.87871 617.15033
737.15369 -224.35106 645.7616
737.1618 -256.40405 645.80408
615.52307 205.17442 -127.19286
615.52307 179.52763 -127.19288
615.52307 153.88087 -127.19291
615.52307 128.2341 -127.19293
615.52307 102.58732 -127.19295
617.70776 77.21357 -116.2049
609.73145 50.811024 -156.32254
609.73145 25.405596 -156.3226
609.73145 3.7478098e-05 -156.32246
609.73145 -25.405392 -156.32253
761.41565 -63.451244 606.58997
761.42395 -95.177834 606.63141
761.43219 -126.90533 606.67316
761.44458 -158.63425 606.73553
761.45288 -190.36308 606.7771
761.46118 -222.09273 606.81873
761.46942 -253.82304 606.86053
644.94696 206.38315 -108.95549
644.94696 180.58516 -108.95538
644.94696 154.78731 -108.95547
644.94696 128.98956 -108.95551
644.94696 103.1916 -108.95539
647.12048 77.654503 -98.460876
638.87671 51.110199 -138.26558
638.87671 25.555033 -138.2655
638.87952 0.00011463445 -138.25201
638.87952 -25.555164 -138.252
785.23767 -62.818958 568.42792
785.24615 -94.229477 568.46869
785.25458 -125.64059 568.50946
785.263 -157.05249 568.55029
785.27148 -188.46516 568.59125
785.27991 -219.87828 568.6319
785.28839 -251.29218 568.67261
674.7196 207.60608 -90.501846
674.7196 181.65546 -90.501892
674.7196 155.70461 -90.501801
674.7196 129.75388 -90.501915
674.7196 103.80302 -90.501816
676.88019 78.101601 -80.471138
668.37006 51.413261 -119.98112
668.37006 25.70656 -119.98109
668.37006 -2.1490436e-05 -119.981
668.37299 -25.706596 -119.96736
808.58533 -62.198826 530.99915
808.59399 -93.299263 531.03906
808.6026 -124.40025 531.07904
808.61121 -155.50204 531.11902
808.61981 -186.60451 531.15894
808.63275 -217.70868 531.21899
808.64136 -248.81273 531.25909
704.84412 208.8427 -71.842285
704.84412 182.73741 -71.842285
704.84412 156.63211 -71.842278
704.84412 130.52681 -71.842278
704.84412 104.42142 -71.842354
706.99091 78.554665 -62.244625
698.21515 51.719692 -101.47854
698.21515 25.859886 -101.47839
698.21515 0.00010059964 -101.4785
698.21515 -25.859812 -101.47841
831.47656 -61.590691 494.30185
831.48975 -92.387634 494.36075
831.49847 -123.18497 494.40002
831.50726 -153.98285 494.43924
831.51599 -184.78127 494.47836
831.52484 -215.58041 494.5177
831.53357 -246.38031 494.55685
735.33289 210.0952 -52.944824
735.33289 183.83331 -52.944778
735.33289 157.57132 -52.944801
735.33289 131.30943 -52.944759
735.33289 105.04755 -52.944717
737.45618 79.013229 -43.791061
728.4184 52.030052 -82.75399
728.4184 26.015009 -82.753838
728.4184 9.5781521e-05 -82.753899
728.4184 -26.014816 -82.753952
853.92902 -60.994873 458.33447
853.93793 -91.493332 458.37302
853.94684 -121.99237 458.41153
853.95575 -152.49207 458.44992
853.96472 -182.99246 458.48846
853.97357 -213.49339 458.52695
853.98254 -243.995 458.56534
766.18951 211.36278 -33.819389
766.18951 184.9424 -33.819309
766.18951 158.522 -33.819221
766.18951 132.10175 -33.819359
766.18951 105.68137 -33.819275
