# .PCD v0.7 - Point Cloud Data file format
VERSION 0.7
FIELDS x y z
SIZE 4 4 4
TYPE F F F
COUNT 1 1 1
WIDTH 1520
HEIGHT 1
VIEWPOINT 0 0 0 1 0 0 0
POINTS 1520
DATA ascii
-20.934591 6.9781795 -57.284649
-20.941101 4.6535616 -57.197334
-20.953419 2.3281379 -57.032139
-20.976503 -1.9190267e-05 -56.722546
-21.070393 -2.3411672 -55.463291
-24.935526 -5.5412455 -3.6229455
-24.75399 -8.251338 -6.0577598
-24.665422 -10.962417 -7.2456694
-24.628019 -13.682243 -7.7473345
-24.66432 -16.4429 -7.2604361
-24.690788 -19.203962 -6.9054303
-24.780762 -22.027351 -5.6986861
-24.897972 -24.897989 -4.126617
-25.031834 -27.813162 -2.3312504
-25.170124 -30.763487 -0.47644737
-25.317263 -33.756351 1.4970087
-25.47036 -36.790535 3.5504036
-25.643528 -39.889954 5.8729792
-25.977699 -43.296181 10.354995
-18.767693 32.843449 -54.883022
-18.679556 30.354265 -56.212887
-18.654993 27.982475 -56.583553
-18.638487 25.627909 -56.832596
-18.627241 23.284031 -57.002285
-18.619469 20.946882 -57.11956
-18.614031 18.614025 -57.201611
-18.610643 16.2843 -57.25272
-18.607962 13.955964 -57.29319
-18.605846 11.628642 -57.325115
-18.606199 9.3030891 -57.31979
-18.608526 6.9781795 -57.284649
-18.614313 4.6535616 -57.197334
-18.625332 2.3281467 -57.031082
-18.645781 -1.9190267e-05 -56.722546
-18.729237 -2.3411672 -55.463291
-22.14591 -5.5364947 -3.9096484
-21.974977 -8.2406359 -6.4888206
-21.885519 -10.942775 -7.838635
-21.849279 -13.655812 -8.3854704
-21.880251 -16.4102 -7.9181433
-21.880447 -19.145401 -7.915204
-21.942657 -21.942671 -6.9765129
-22.053671 -24.810392 -5.301434
-22.166014 -27.707531 -3.6063366
-22.296608 -30.657852 -1.6357861
-22.419636 -33.629475 0.22054708
-22.549311 -36.642632 2.1771615
-22.717653 -39.755913 4.7172775
-22.992638 -43.111206 8.8664684
-16.424559 32.849094 -54.834282
-16.344486 30.354034 -56.215038
-16.323057 27.98237 -56.584606
-16.308678 25.627909 -56.832596
-16.298775 23.283947 -57.003353
-16.292034 20.946882 -57.11956
-16.287277 18.614025 -57.201611
-16.284313 16.2843 -57.25272
-16.281967 13.955964 -57.29319
-16.280115 11.628642 -57.325115
-16.280424 9.3030891 -57.31979
-16.282461 6.9781795 -57.284649
-16.287523 4.6535616 -57.197334
-16.297165 2.3281467 -57.031082
-16.315058 -1.9190267e-05 -56.722546
-16.388144 -2.3411708 -55.462208
-19.355577 -5.5301871 -4.290657
-19.202143 -8.2295065 -6.9365368
-19.116928 -10.923974 -8.4060154
-19.092537 -13.637547 -8.8266115
-19.108679 -16.378876 -8.5483055
-19.114037 -19.114048 -8.4558973
-19.149147 -21.884745 -7.8504281
-19.249653 -24.749563 -6.1172915
-19.349298 -27.641878 -4.398921
-19.462852 -30.584496 -2.4407773
-19.567665 -33.544579 -0.63332766
-19.68651 -36.56068 1.416086
-19.844055 -39.688126 4.1328464
-20.095119 -43.060986 8.4622736
-14.08067 32.854877 -54.784431
-14.009455 30.353802 -56.21719
-13.991138 27.982267 -56.585693
-13.978866 25.627909 -56.832596
-13.970377 23.283947 -57.003353
-13.964602 20.946882 -57.11956
-13.960523 18.614025 -57.201611
-13.957982 16.2843 -57.25272
-13.955971 13.955964 -57.29319
-13.954384 11.628642 -57.325115
-13.954649 9.3030891 -57.31979
-13.956395 6.9781795 -57.284649
-13.960735 4.6535616 -57.197334
-13.968999 2.3281467 -57.031082
-13.984335 -1.9190267e-05 -56.722546
-14.046981 -2.3411708 -55.462208
-16.561909 -5.5206466 -4.8658013
-16.428057 -8.2140408 -7.5586538
-16.360813 -10.907223 -8.9115
-16.340841 -13.617388 -9.3132877
-16.352385 -16.352396 -9.0810919
-16.362705 -19.089844 -8.8734474
-16.391994 -21.855995 -8.2841911
-16.478651 -24.717995 -6.5407758
-16.559225 -27.598717 -4.9197583
-16.655273 -30.534674 -2.987438
-16.744972 -33.489964 -1.1828098
-16.847664 -36.503281 0.88317019
-16.992075 -39.648178 3.7884948
-17.204906 -43.012283 8.0703487
-11.735911 32.860538 -54.735683
-11.674457 30.353584 -56.219341
-11.659238 27.982162 -56.58675
-11.649054 25.627909 -56.832596
-11.641981 23.283947 -57.003353
-11.637123 20.946802 -57.120632
-11.633769 18.614025 -57.201611
-11.631652 16.2843 -57.25272
-11.629976 13.955964 -57.29319
-11.628654 11.628642 -57.325115
-11.628874 9.3030891 -57.31979
-11.630329 6.9781795 -57.284649
-11.633945 4.6535616 -57.197334
-11.640833 2.3281467 -57.031082
-11.653612 -1.9190267e-05 -56.722546
-11.705818 -2.3411708 -55.462208
-13.774755 -5.5099173 -5.5136113
-13.666811 -8.2001066 -8.1196384
-13.615797 -10.892642 -9.3512373
-13.603359 -13.603374 -9.6514883
-13.612231 -16.334692 -9.4372721
-13.619 -19.066614 -9.2738781
-13.650998 -21.84161 -8.5013762
-13.716982 -24.690577 -6.9083972
-13.784844 -27.56971 -5.2700348
-13.86008 -30.492178 -3.4537218
-13.934241 -33.442181 -1.6633027
-14.020277 -36.452736 0.4137893
-14.140481 -39.593361 3.3157835
-14.330791 -42.99239 7.9102659
-9.3903456 32.866207 -54.686897
-9.3394947 30.353338 -56.22147
-9.3273191 27.981943 -56.588894
-9.3192434 25.627909 -56.832596
-9.3135843 23.283947 -57.003353
-9.3096991 20.946802 -57.120632
-9.3070154 18.614025 -57.201611
-9.3053217 16.2843 -57.25272
-9.3039808 13.955964 -57.29319
-9.3029232 11.628642 -57.325115
-9.3030996 9.3030891 -57.31979
-9.3042631 6.9781795 -57.284649
-9.3071566 4.6535616 -57.197334
-9.3126659 2.3281467 -57.031082
-9.3228903 -1.9190267e-05 -56.722546
-9.3646536 -2.3411708 -55.462208
-10.999357 -5.499692 -6.1306772
-10.916282 -8.1872301 -8.6376944
-10.883073 -10.883087 -9.6398582
-10.872466 -13.590589 -9.9599495
-10.877236 -16.315866 -9.8159876
-10.886018 -19.050549 -9.5509892
-10.919099 -21.838211 -8.5526943
-10.96623 -24.674023 -7.1303663
-11.018222 -27.545563 -5.5613914
-11.077353 -30.462742 -3.776916
-11.136366 -33.409119 -1.9960705
-11.206951 -36.422604 0.13401799
-11.300301 -39.55106 2.9510825
-11.455643 -42.958675 7.6389565
-7.0439987 32.871986 -54.63702
-7.0045667 30.353106 -56.223621
-6.9954629 27.981836 -56.589951
-6.9894328 25.627909 -56.832596
-6.9851885 23.283947 -57.003353
-6.9822736 20.946802 -57.120632
-6.9802613 18.614025 -57.201611
-6.978991 16.2843 -57.25272
-6.9779854 13.955964 -57.29319
-6.9771919 11.628642 -57.325115
-6.9773245 9.3030891 -57.31979
-6.9781976 6.9781795 -57.284649
-6.9803677 4.6535616 -57.197334
-6.9844995 2.3281467 -57.031082
-6.9921675 -1.9190267e-05 -56.722546
-7.0234904 -2.3411708 -55.462208
-8.2355289 -5.4903717 -6.6935544
-8.1766281 -8.1766405 -9.0635672
-8.1547832 -10.873058 -9.9425077
-8.1453648 -13.575615 -10.321498
-8.1512442 -16.302502 -10.084901
-8.1639338 -19.049189 -9.5743065
-8.1879034 -21.834415 -8.6098595
-8.2232761 -24.669842 -7.1865516
-8.2601805 -27.533945 -5.7016592
-8.3035173 -30.446234 -3.9578972
-8.3476534 -33.390625 -2.1820133
-8.3940973 -36.374428 -0.31325683
-8.4664927 -39.510319 2.5997376
-8.581398 -42.907001 7.2231336
-4.6968083 32.87764 -54.588184
-4.6696758 30.352888 -56.225769
-4.6636238 27.981733 -56.591034
-4.6596217 25.627909 -56.832596
-4.6567922 23.283947 -57.003353
-4.6548495 20.946802 -57.120632
-4.6535077 18.614025 -57.201611
-4.6526608 16.2843 -57.25272
-4.6519904 13.955964 -57.29319
-4.6514616 11.628642 -57.325115
-4.6515498 9.3030891 -57.31979
-4.6521139 6.9781556 -57.285713
-4.6535606 4.6535397 -57.198399
-4.656333 2.3281467 -57.031082
-4.6614451 -1.9190267e-05 -56.722546
-4.6823268 -2.3411708 -55.462208
-5.4813519 -5.4813676 -7.2368007
-5.4451346 -8.1677208 -9.4227018
-5.4325747 -10.865163 -10.180747
-5.4290657 -13.572671 -10.392552
-5.4331522 -16.299469 -10.14591
-5.4469714 -19.064409 -9.3118286
-5.4642897 -21.85717 -8.2665749
-5.4853702 -24.684179 -6.9942675
-5.5096302 -27.548153 -5.5300508
-5.5364027 -30.450222 -3.9141831
-5.5646982 -33.388203 -2.2063751
-5.5938201 -36.359837 -0.44874907
-5.6375346 -39.462757 2.1896641
-5.7133131 -42.849865 6.7633328
-2.3488176 32.883427 -54.538269
-2.33482 30.352655 -56.227924
-2.3318031 27.981617 -56.592094
-2.3298109 25.627909 -56.832596
-2.3283961 23.283947 -57.003353
-2.3274248 20.946802 -57.120632
-2.3267539 18.614025 -57.201611
-2.3263304 16.2843 -57.25272
-2.3259952 13.955964 -57.29319
-2.3257308 11.628642 -57.325115
-2.3257749 9.3030891 -57.31979
-2.326057 6.9781556 -57.285713
-2.3267803 4.6535397 -57.198399
-2.3281665 2.3281467 -57.031082
-2.3307226 -1.9190267e-05 -56.722546
-2.3411634 -2.3411708 -55.462208
-2.736593 -5.4731984 -7.72965
-2.7204545 -8.1613865 -9.6777105
-2.7153738 -10.861517 -10.29102
-2.7150853 -13.575437 -10.325842
-2.7193453 -16.316086 -9.8116064
-2.7280631 -19.096453 -8.7592821
-2.7373989 -21.89921 -7.6323638
-2.7465897 -24.719316 -6.5229716
-2.7579234 -27.579245 -5.1548629
-2.770026 -30.470297 -3.6939251
-2.7835104 -33.402142 -2.066211
-2.7974455 -36.366814 -0.3840856
-2.8158178 -39.421459 1.8336211
-2.8520887 -42.781345 6.2119241
-2.7352938e-23 32.886959 -54.507877
4.2865503e-23 30.352539 -56.228985
3.8921406e-23 27.981525 -56.593174
-2.3994328e-23 25.627909 -56.832596
7.7347938e-24 23.283947 -57.003353
2.6459859e-23 20.946802 -57.120632
-2.4567571e-23 18.614025 -57.201611
5.700555e-24 16.2843 -57.25272
-3.1105574e-23 13.955964 -57.29319
-3.7010457e-23 11.628642 -57.325115
3.1860678e-23 9.3030891 -57.31979
3.3251964e-23 6.9781556 -57.285713
4.7943564e-23 4.6535397 -57.198399
5.7443381e-23 2.3281467 -57.031082
6.6749144e-23 -1.9190267e-05 -56.722546
9.488436e-23 -2.3411975 -55.461113
6.1165491e-23 -5.4671016 -8.0975809
1.3535244e-23 -8.1542587 -9.9643059
3.3096337e-23 -10.862852 -10.250399
1.5179593e-23 -13.598495 -9.7694139
2.8324351e-23 -16.35545 -9.0196943
-2.764422e-23 -19.144716 -7.9269686
7.2889612e-23 -21.951803 -6.8387909
-1.1559901e-23 -24.793236 -5.5315366
6.6421381e-23 -27.643486 -4.3793759
3.1127069e-23 -30.541319 -2.9146502
6.5182081e-23 -33.464542 -1.4385208
9.720806e-23 -36.412971 0.044487864
-6.2132086e-23 -39.442814 2.0177941
-4.8539104e-23 -42.751526 5.9720192
2.3486648 32.881298 -54.556721
2.3348291 30.352758 -56.226837
2.3318031 27.981617 -56.592094
2.3298109 25.627909 -56.832596
2.3283961 23.283947 -57.003353
2.3274248 20.946802 -57.120632
2.3267539 18.614025 -57.201611
2.3263304 16.2843 -57.25272
2.3259952 13.955964 -57.29319
2.3257308 11.628642 -57.325115
2.3257749 9.3030891 -57.31979
2.326057 6.9781556 -57.285713
2.3267803 4.6535397 -57.198399
2.3281665 2.3281467 -57.031082
2.3307226 -1.9190267e-05 -56.722546
2.3411725 -2.3411975 -55.461113
2.7307343 -5.4614878 -8.4368286
2.7234011 -8.1702166 -9.3220472
2.7244411 -10.89778 -9.1965103
2.7283788 -13.641912 -8.7212048
2.7376308 -16.425793 -7.6043644
2.7463191 -19.224245 -6.5556078
2.7528622 -22.022907 -5.7657824
2.7664914 -24.898439 -4.1205845
2.774385 -27.743866 -3.1677337
2.7874813 -30.662308 -1.5868853
2.7986708 -33.584072 -0.23620601
2.8092296 -36.519993 1.038355
2.8234501 -39.528316 2.7549312
2.8483019 -42.724545 5.7548232
4.6965027 32.875507 -54.606636
4.6696935 30.352989 -56.224686
4.6636415 27.981836 -56.589951
4.6596217 25.627909 -56.832596
4.6567922 23.283947 -57.003353
4.6548495 20.946802 -57.120632
4.6535077 18.614025 -57.201611
4.6526608 16.2843 -57.25272
4.6519904 13.955964 -57.29319
4.6514616 11.628642 -57.325115
4.6515498 9.3030891 -57.31979
4.6521139 6.9781556 -57.285713
4.6535783 4.6535616 -57.197334
4.656333 2.3281467 -57.031082
4.6614451 -1.9190267e-05 -56.722546
4.6823449 -2.3411975 -55.461113
5.7349153 -5.7349238 8.0671034
5.4913845 -8.2370901 -6.6312628
5.4900575 -10.98014 -6.711338
5.5057983 -13.764515 -5.7613049
5.5149293 -16.544792 -5.2102261
5.5312366 -19.359346 -4.2259521
5.5543709 -22.217501 -2.8296812
5.576128 -25.092592 -1.516537
5.5883427 -27.941732 -0.77931172
5.613524 -30.87439 0.74050868
5.6334972 -33.800995 1.9459732
5.6506443 -36.729202 2.9809449
5.6697297 -39.688126 4.1328464
5.706326 -42.797459 6.3415909
7.043541 32.869846 -54.655453
7.0045938 30.353235 -56.222557
6.9954891 27.981943 -56.588894
6.9894328 25.627909 -56.832596
6.9851885 23.283947 -57.003353
6.9822736 20.946802 -57.120632
6.9802613 18.614025 -57.201611
6.978991 16.2843 -57.25272
6.9779854 13.955964 -57.29319
6.9771919 11.628642 -57.325115
6.9773245 9.3030891 -57.31979
6.9781976 6.9781795 -57.284649
6.9803677 4.6535616 -57.197334
6.9844995 2.3281467 -57.031082
6.9921675 -1.9190267e-05 -56.722546
7.0235176 -2.3411975 -55.461113
8.6002827 -5.7335329 7.9830251
8.5389204 -8.5389299 5.5139618
8.5206966 -11.360951 4.7807484
8.5405846 -14.234317 5.5809155
8.5676565 -17.135328 6.6702466
8.5811577 -20.022717 7.2134638
8.6108637 -22.962324 8.4087887
8.657196 -25.971609 10.273057
8.7387428 -29.129154 13.554204
8.5952225 -37.245975 7.7793922
8.5977926 -40.123043 7.8828077
8.6239357 -43.11969 8.9347467
9.3897343 32.864063 -54.705326
9.33953 30.353455 -56.220406
9.3273544 27.982044 -56.587811
9.3192434 25.627909 -56.832596
9.3135843 23.283947 -57.003353
9.3096991 20.946802 -57.120632
9.3070154 18.614025 -57.201611
9.3053217 16.2843 -57.25272
9.3039808 13.955964 -57.29319
9.3029232 11.628642 -57.325115
9.3030996 9.3030891 -57.31979
9.3042631 6.9781795 -57.284649
9.3071566 4.6535616 -57.197334
9.3126659 2.3281467 -57.031082
9.3228903 -1.9190267e-05 -56.722546
9.3646898 -2.3411975 -55.461113
11.464045 -5.7320333 7.8924894
11.381689 -8.5362873 5.4072132
11.356881 -11.356893 4.6585722
11.381583 -14.226993 5.4040322
11.418227 -17.127352 6.5098495
11.437171 -20.01506 7.0815115
11.474013 -22.948038 8.1933384
11.539238 -25.963303 10.161672
11.648836 -29.122103 13.469077
11.735148 32.858406 -54.754105
11.6745 30.353685 -56.218254
11.659238 27.982162 -56.58675
11.649054 25.627909 -56.832596
11.641981 23.283947 -57.003353
11.637123 20.946802 -57.120632
11.633769 18.614025 -57.201611
11.631652 16.2843 -57.25272
11.629976 13.955964 -57.29319
11.628654 11.628642 -57.325115
11.628874 9.3030891 -57.31979
11.630329 6.9781795 -57.284649
11.633945 4.6535616 -57.197334
11.640833 2.3281467 -57.031082
11.653612 -1.9190267e-05 -56.722546
11.705862 -2.3411975 -55.461113
14.333537 -5.7334208 7.9765372
14.223945 -8.534379 5.3307552
14.193737 -11.355008 4.6014948
14.220054 -14.22007 5.2368588
14.267141 -17.120586 6.3736348
14.291735 -20.00844 6.9673524
14.341108 -22.945787 8.1593428
14.419234 -25.954634 10.045472
14.557452 -29.114918 13.382333
14.079754 32.852737 -54.802864
14.009507 30.353918 -56.216103
13.991138 27.982267 -56.585693
13.978866 25.627909 -56.832596
13.970377 23.283947 -57.003353
13.964602 20.946882 -57.11956
13.960523 18.614025 -57.201611
13.957982 16.2843 -57.25272
13.955971 13.955964 -57.29319
13.954384 11.628642 -57.325115
13.954649 9.3030891 -57.31979
13.956395 6.9781795 -57.284649
13.960735 4.6535616 -57.197334
13.968999 2.3281467 -57.031082
13.984335 -1.9190267e-05 -56.722546
14.047035 -2.3411975 -55.461113
17.195585 -5.7318673 7.8827868
17.069763 -8.5348988 5.3514671
17.032562 -11.355056 4.6030741
17.060032 -14.216699 5.1557069
17.11643 -17.116444 6.29036
17.147606 -20.005556 6.9175415
17.202576 -22.936769 8.0234375
17.297146 -25.945734 9.9260712
17.464964 -29.108282 13.302302
16.423491 32.846973 -54.852695
16.344549 30.354151 -56.213978
16.323057 27.98237 -56.584606
16.308678 25.627909 -56.832596
16.298775 23.283947 -57.003353
16.292034 20.946882 -57.11956
16.287277 18.614025 -57.201611
16.284313 16.2843 -57.25272
16.281967 13.955964 -57.29319
16.280115 11.628642 -57.325115
16.280424 9.3030891 -57.31979
16.282461 6.9781795 -57.284649
16.287523 4.6535616 -57.197334
16.297165 2.3281467 -57.031082
16.315058 -1.9190267e-05 -56.722546
16.388206 -2.3411975 -55.461113
18.655643 -5.3301959 -16.360598
18.688438 -8.0093451 -15.795053
18.763144 -10.721808 -14.506792
18.867832 -13.477039 -12.701535
18.979225 -16.267923 -10.780606
19.062962 -19.062975 -9.3366461
19.257679 -22.008787 -5.9788628
19.416218 -24.963713 -3.2449627
19.555281 -27.936125 -0.84689486
19.643291 -30.868044 0.67078233
19.741802 -33.843098 2.3695357
19.883743 -36.926968 4.8172483
20.050463 -40.100945 7.6922274
20.175358 -43.232929 9.8459597
20.330555 -46.469845 12.522218
18.766474 32.841312 -54.901417
18.679628 30.354382 -56.211823
18.654993 27.982475 -56.583553
18.638487 25.627909 -56.832596
18.627241 23.284031 -57.002285
18.619539 20.946962 -57.118488
18.614031 18.614025 -57.201611
18.610643 16.2843 -57.25272
18.607962 13.955964 -57.29319
18.605846 11.628642 -57.325115
18.606199 9.3030891 -57.31979
18.608526 6.9781795 -57.284649
18.614313 4.6535616 -57.197334
18.625261 2.3281379 -57.032139
18.645781 -1.9190267e-05 -56.722546
18.72938 -2.3411975 -55.461113
21.261353 -5.315351 -17.25662
21.172483 -7.9397001 -18.597549
21.230726 -10.615376 -17.718721
21.289017 -13.305646 -16.839203
21.408709 -16.056549 -15.033188
21.565226 -18.869595 -12.671516
21.654659 -21.654671 -11.32207
21.859983 -24.592497 -8.2239685
22.034266 -27.54285 -5.594234
22.191568 -30.513424 -3.2207339
22.352962 -33.529465 -0.78544921
22.450603 -36.482243 0.68782198
22.634682 -39.610699 3.4653251
22.84836 -42.840691 6.689508
23.053221 -46.106461 9.7806005
21.10857 32.835548 -54.951218
21.014742 30.354612 -56.209667
20.986866 27.982475 -56.583553
20.968298 25.627909 -56.832596
20.955725 23.284122 -57.001205
20.946981 20.946962 -57.118488
20.940784 18.614025 -57.201611
20.936974 16.2843 -57.25272
20.933956 13.955964 -57.29319
20.931578 11.628642 -57.325115
20.931973 9.3030891 -57.31979
20.934591 6.9781795 -57.284649
20.941101 4.6535616 -57.197334
20.953419 2.3281379 -57.032139
20.976503 -1.9190267e-05 -56.722546
21.070551 -2.3411975 -55.461113
23.917984 -5.315125 -17.270525
23.804359 -7.9348073 -18.794495
23.780882 -10.569293 -19.109362
23.85104 -13.250594 -18.168406
23.935089 -15.956746 -17.041077
24.086266 -18.733774 -15.013472
24.207064 -21.517399 -13.393317
24.374718 -24.374741 -11.14467
24.552349 -27.280411 -8.7622042
24.767092 -30.270901 -5.8820519
24.940706 -33.254284 -3.5534623
25.10273 -36.259502 -1.3803726
25.312504 -39.375015 1.4331864
25.546953 -42.578259 4.5777073
25.81146 -45.887051 8.1253529
23.449932 32.829899 -54.999905
23.349892 30.354847 -56.207546
23.318741 27.982475 -56.583553
23.298107 25.627909 -56.832596
23.284138 23.284122 -57.001205
23.274424 20.946962 -57.118488
23.267538 18.614025 -57.201611
23.263304 16.2843 -57.25272
23.259953 13.955964 -57.29319
23.257307 11.628642 -57.325115
23.257748 9.3030891 -57.31979
23.260658 6.9781795 -57.284649
23.267981 4.6535726 -57.196274
23.281576 2.3281379 -57.032139
23.307224 -1.9190267e-05 -56.722546
23.411724 -2.3411975 -55.461113
26.570358 -5.3140841 -17.333042
26.438574 -7.9315801 -18.923834
26.39399 -10.557617 -19.461996
26.404554 -13.202301 -19.33448
26.499437 -15.89967 -18.189133
26.628595 -18.640039 -16.630058
26.78694 -21.429565 -14.718684
26.924473 -24.23204 -13.058493
27.122528 -27.12254 -10.667765
27.346292 -30.080933 -7.9666929
27.547409 -33.056904 -5.5389948
27.748241 -36.072716 -3.1147366
27.996666 -39.195347 -0.11597084
28.243076 -42.364635 2.8584764
28.547562 -45.676113 6.5339079
25.790491 32.824245 -55.048592
25.685076 30.355078 -56.205395
25.650616 27.982475 -56.583553
25.62792 25.627909 -56.832596
25.61265 23.284216 -57.000156
25.601963 20.947046 -57.117451
25.594292 18.614025 -57.201611
25.589634 16.2843 -57.25272
25.585947 13.955964 -57.29319
25.583038 11.628642 -57.325115
25.583523 9.3030891 -57.31979
25.586723 6.9781795 -57.284649
25.594776 4.6535726 -57.196274
25.609735 2.3281379 -57.032139
25.637947 -1.9190267e-05 -56.722546
25.752897 -2.3411975 -55.461113
29.241579 -5.3166704 -17.177387
29.082432 -7.9315801 -18.923834
29.023775 -10.554117 -19.567505
29.002199 -13.182824 -19.804287
29.06377 -15.852977 -19.128605
29.169159 -18.562199 -17.972088
29.331936 -21.33234 -16.18582
29.509438 -24.144093 -14.237981
29.70504 -27.004595 -12.091474
29.930044 -29.930056 -9.6223841
30.160503 -32.902374 -7.0933895
30.398098 -35.925034 -4.4861012
30.675116 -39.041069 -1.4461734
30.959076 -42.216942 1.6699182
31.291082 -45.514309 5.3132443
28.130135 32.818489 -55.098331
28.020294 30.355309 -56.203239
27.982491 27.982475 -56.583553
27.957731 25.627909 -56.832596
27.941072 23.284216 -57.000156
27.929413 20.947046 -57.117451
27.921045 18.614025 -57.201611
27.915964 16.2843 -57.25272
27.911942 13.955964 -57.29319
27.908768 11.628642 -57.325115
27.909298 9.3030891 -57.31979
27.91279 6.9781795 -57.284649
27.921576 4.6535726 -57.196274
27.937893 2.3281379 -57.032139
27.96867 -1.9190267e-05 -56.722546
28.09407 -2.3411975 -55.461113
31.912901 -5.3188314 -17.046646
31.743935 -7.935997 -18.746328
31.663935 -10.554652 -19.551071
31.635225 -13.181355 -19.839848
31.65876 -15.82939 -19.603111
31.752422 -18.522263 -18.660925
31.881945 -21.254641 -17.358032
32.074589 -24.055948 -15.420192
32.274242 -26.895218 -13.411816
32.512829 -29.803431 -11.011868
32.773045 -32.773056 -8.3942938
33.046803 -35.800724 -5.6404886
33.35582 -38.915138 -2.5320027
33.660511 -42.075657 0.53295362
34.047325 -45.396442 4.4240093
30.469076 32.812843 -55.146976
30.355551 30.35553 -56.201092
30.314363 27.982475 -56.583553
30.287542 25.627909 -56.832596
30.269611 23.284298 -56.999088
30.256979 20.947128 -57.116375
30.247799 18.614025 -57.201611
30.242296 16.2843 -57.25272
30.237938 13.955964 -57.29319
30.234499 11.628642 -57.325115
30.235073 9.3030891 -57.31979
30.238855 6.9781795 -57.284649
30.248375 4.6535726 -57.196274
30.266048 2.3281379 -57.032139
30.299162 -1.5347725e-05 -56.724678
30.435242 -2.3411975 -55.461113
34.595402 -5.3223801 -16.83223
34.412704 -7.941412 -18.528641
34.30835 -10.556424 -19.497635
34.271641 -13.18142 -19.838465
34.270611 -15.817217 -19.848047
34.388374 -18.51683 -18.754568
34.476368 -21.21624 -17.937487
34.64183 -23.982822 -16.401108
34.851929 -26.809193 -14.450239
35.106113 -29.705196 -12.09004
35.402012 -32.678795 -9.3424711
35.721653 -35.721676 -6.3744693
36.048584 -38.821556 -3.3387864
36.389687 -41.988117 -0.17146835
36.867043 -45.37484 4.2609596
32.807087 32.807068 -55.196663
32.690842 30.355776 -56.198963
32.646236 27.982475 -56.583553
32.617355 25.627909 -56.832596
32.598167 23.284388 -56.998009
32.584438 20.947128 -57.116375
32.574554 18.614025 -57.201611
32.568626 16.2843 -57.25272
32.563934 13.955964 -57.29319
32.56023 11.628642 -57.325115
32.560848 9.3030891 -57.31979
32.564922 6.9781795 -57.284649
32.575169 4.6535726 -57.196274
32.594208 2.3281379 -57.032139
32.62962 -2.2862598e-05 -56.726814
32.776413 -2.3411975 -55.461113
37.278252 -5.3254862 -16.645407
37.074234 -7.9445014 -18.404505
36.956352 -10.558971 -19.420891
36.897301 -13.177628 -19.930058
36.903957 -15.81599 -19.872652
36.978947 -18.489483 -19.226099
37.114601 -21.208347 -18.056456
37.225262 -23.930548 -17.102301
37.432911 -26.737816 -15.311913
37.700382 -29.621744 -13.005711
38.047733 -32.61235 -10.010814
38.402397 -35.659378 -6.9528251
38.770737 -38.770756 -3.7769234
39.141037 -41.936836 -0.58413219
39.718025 -45.392036 4.3907599
35.147495 32.804321 -55.220444
35.026035 30.355877 -56.197876
34.978111 27.982475 -56.583553
34.947163 25.627909 -56.832596
34.926605 23.284388 -56.998009
34.9119 20.947128 -57.116375
34.901306 18.614025 -57.201611
34.894958 16.2843 -57.25272
34.889927 13.955964 -57.29319
34.88596 11.628642 -57.325115
34.886623 9.3030891 -57.31979
34.890987 6.9781795 -57.284649
34.90197 4.6535726 -57.196274
34.922363 2.3281379 -57.032139
34.960304 -2.2862598e-05 -56.726814
35.117588 -2.3411975 -55.461113
39.951042 -5.326817 -16.56448
39.732681 -7.9465551 -18.321705
39.599163 -10.559793 -19.396191
39.524502 -13.174851 -19.997009
39.537235 -15.814903 -19.894529
39.580765 -18.471043 -19.54421
39.753105 -21.201672 -18.157343
39.830524 -23.898327 -17.534321
40.031326 -26.687559 -15.918405
40.338207 -29.581366 -13.448805
40.714027 -32.571239 -10.42444
41.100773 -35.620678 -7.3121452
41.512344 -38.744869 -4.0000825
41.928993 -41.929005 -0.64715463
42.590275 -45.429642 4.6744471
37.489799 32.803558 -55.226917
37.361103 30.355877 -56.197876
37.309986 27.982475 -56.583553
37.276974 25.627909 -56.832596
37.255047 23.284388 -56.998009
37.239357 20.947128 -57.116375
37.228062 18.614025 -57.201611
37.221287 16.2843 -57.25272
37.215923 13.955964 -57.29319
37.211693 11.628642 -57.325115
37.212399 9.3030891 -57.31979
37.217052 6.9781795 -57.284649
37.228767 4.6535726 -57.196274
37.250523 2.3281379 -57.032139
37.29142 -1.4114439e-05 -56.723625
37.458759 -2.3411975 -55.461113
42.622585 -5.3278413 -16.503065
42.386284 -7.9474411 -18.285816
42.238922 -10.559739 -19.397579
42.151863 -13.172466 -20.054367
42.170155 -15.813831 -19.916384
42.199703 -18.462393 -19.69346
42.38665 -21.193336 -18.28306
42.473579 -23.891403 -17.627228
42.63184 -26.644903 -16.433245
42.988792 -29.554815 -13.740223
43.391441 -32.543591 -10.702498
43.826145 -35.608753 -7.4229016
44.258274 -38.726006 -4.1627541
44.733223 -41.937408 -0.57950586
45.452557 -45.452564 4.8474131
39.832153 32.802933 -55.232315
39.696171 30.355877 -56.197876
39.641857 27.982475 -56.583553
39.606785 25.627909 -56.832596
39.583485 23.284388 -56.998009
39.566818 20.947128 -57.116375
39.554817 18.614025 -57.201611
39.547615 16.2843 -57.25272
39.54192 13.955964 -57.29319
39.537422 11.628642 -57.325115
39.53817 9.3030891 -57.31979
39.543118 6.9781795 -57.284649
39.555565 4.6535726 -57.196274
39.578682 2.3281379 -57.032139
39.622284 -1.9190267e-05 -56.722546
39.799931 -2.3411975 -55.461113
45.277256 -5.3267455 -16.568672
45.03212 -7.9468608 -18.309273
44.871517 -10.558021 -19.449657
44.776936 -13.169697 -20.12126
44.805599 -15.813755 -19.917759
44.834873 -18.461433 -19.709877
45.017933 -21.184925 -18.410028
45.138138 -23.896681 -17.556501
45.285316 -26.638445 -16.511436
45.688396 -29.563097 -13.649301
46.111153 -32.549057 -10.647509
46.564865 -35.608429 -7.4258561
47.044777 -38.742767 -4.0181766
47.55072 -41.956528 -0.4256551
48.308773 -45.467087 4.9569955
42.174416 32.802311 -55.237713
42.031242 30.355877 -56.197876
41.973732 27.982475 -56.583553
41.936596 25.627909 -56.832596
41.911926 23.284388 -56.998009
41.894279 20.947128 -57.116375
41.881569 18.614025 -57.201611
41.873947 16.2843 -57.25272
41.867912 13.955964 -57.29319
41.863155 11.628642 -57.325115
41.863945 9.3030891 -57.31979
41.869183 6.9781795 -57.284649
41.882362 4.6535726 -57.196274
41.906837 2.3281379 -57.032139
41.953007 -1.9190267e-05 -56.722546
42.141102 -2.3411975 -55.461113
47.927521 -5.3252935 -16.656578
47.667076 -7.9445295 -18.403131
47.497738 -10.555067 -19.53874
47.403141 -13.167547 -20.173132
47.446926 -15.815657 -19.879499
47.472218 -18.461433 -19.709877
47.673866 -21.1884 -18.357584
47.805737 -23.902887 -17.473267
47.972485 -26.651392 -16.355007
48.3927 -29.57333 -13.537003
48.848839 -32.565907 -10.47806
49.339878 -35.634373 -7.1850672
49.828972 -38.755886 -3.9051294
50.387794 -41.989841 -0.15759692
51.191246 -45.503338 5.2304792
44.51659 32.801689 -55.243137
44.36631 30.355877 -56.197876
44.305607 27.982475 -56.583553
44.266407 25.627909 -56.832596
44.240368 23.284388 -56.998009
44.221741 20.947128 -57.116375
44.208321 18.614025 -57.201611
44.200275 16.2843 -57.25272
44.193909 13.955964 -57.29319
44.188885 11.628642 -57.325115
44.189724 9.3030891 -57.31979
44.195251 6.9781795 -57.284649
44.20916 4.6535726 -57.196274
44.234997 2.3281379 -57.032139
44.283726 -1.9190267e-05 -56.722546
44.482277 -2.3411975 -55.461113
50.574356 -5.3236256 -16.756969
50.297882 -7.9417882 -18.51347
50.126369 -10.552927 -19.603113
50.035145 -13.16716 -20.182669
50.094707 -15.819388 -19.804293
50.111286 -18.462063 -19.698946
50.347626 -21.199015 -18.197426
50.470787 -23.907234 -17.414957
50.684078 -26.675842 -16.059879
51.141464 -29.608229 -13.154023
51.611973 -32.59705 -10.164765
52.11055 -35.654594 -6.9972239
52.639053 -38.786674 -3.6395619
53.215034 -42.011887 0.019780586
54.06152 -45.525501 5.3976355
46.858498 32.800938 -55.249603
46.701382 30.355877 -56.197876
46.637482 27.982475 -56.583553
46.596394 25.628002 -56.83152
46.56881 23.284388 -56.998009
46.549202 20.947128 -57.116375
46.535076 18.614025 -57.201611
46.526608 16.2843 -57.25272
46.519905 13.955964 -57.29319
46.514614 11.628642 -57.325115
46.515495 9.3030891 -57.31979
46.521317 6.9781795 -57.284649
46.535782 4.6535616 -57.197334
46.563332 2.3281467 -57.031082
46.614449 -1.9190267e-05 -56.722546
46.823448 -2.3411975 -55.461113
53.21608 -5.3216271 -16.878191
52.926636 -7.9390106 -18.625116
52.762333 -10.552469 -19.616812
52.679882 -13.16998 -20.114445
52.765961 -15.829801 -19.594889
52.774128 -18.470966 -19.545586
53.01284 -21.205154 -18.104839
53.146469 -23.915922 -17.298304
53.439957 -26.719994 -15.526974
53.876137 -29.631889 -12.894381
54.353901 -32.61235 -10.010814
54.887318 -35.676773 -6.7913814
55.469139 -38.828415 -3.2797699
56.062405 -42.046818 0.30091506
56.982704 -45.586178 5.8554044
49.200481 32.800301 -55.255001
49.036446 30.355877 -56.197876
48.969357 27.982475 -56.583553
48.926399 25.628107 -56.830463
48.897251 23.284388 -56.998009
48.876659 20.947128 -57.116375
48.861832 18.614025 -57.201611
48.852936 16.2843 -57.25272
48.845898 13.955964 -57.29319
48.840343 11.628642 -57.325115
48.84127 9.3030891 -57.31979
48.847382 6.9781795 -57.284649
48.862572 4.6535616 -57.197334
48.891499 2.3281467 -57.031082
48.945171 -1.9190267e-05 -56.722546
49.16481 -2.3412006 -55.460033
55.865498 -5.3205333 -16.943645
55.555237 -7.9364715 -18.727041
55.400444 -10.552469 -19.616812
55.334068 -13.174798 -19.998369
55.435486 -15.838718 -19.415401
55.446457 -18.482166 -19.352322
55.665409 -21.205879 -18.093781
55.843704 -23.933027 -17.068911
56.203007 -26.763348 -15.003596
56.646049 -29.671747 -12.456934
57.168335 -32.667625 -9.4547787
57.737827 -35.742477 -6.1812315
58.327232 -38.884846 -2.7932694
58.950363 -42.107426 0.78857517
59.862415 -45.609478 6.031168
51.542374 32.799675 -55.260399
51.371517 30.355877 -56.197876
51.301231 27.982475 -56.583553
51.256424 25.628201 -56.829388
51.225883 23.284483 -56.99696
51.204121 20.947128 -57.116375
51.188583 18.614025 -57.201611
51.179268 16.2843 -57.25272
51.171894 13.955964 -57.29319
51.166077 11.628642 -57.325115
51.167046 9.3030891 -57.31979
51.173447 6.9781795 -57.284649
51.189358 4.6535616 -57.197334
51.219666 2.3281467 -57.031082
51.275894 -1.9190267e-05 -56.722546
51.505989 -2.3412006 -55.460033
58.511547 -5.3192458 -17.021601
58.192196 -7.9353242 -18.773842
58.044556 -10.553569 -19.583931
57.99094 -13.17977 -19.878119
58.083267 -15.840902 -19.371531
58.124287 -18.494101 -19.14646
58.357235 -21.220825 -17.868282
58.623619 -23.982401 -16.406693
58.988438 -26.812941 -14.404984
59.487587 -29.743813 -11.66624
60.046494 -32.752655 -8.5995932
60.623077 -35.82275 -5.4359417
61.243622 -38.973221 -2.0311537
61.916168 -42.21558 1.6590065
62.759373 -45.643196 6.2855568
53.884182 32.799053 -55.2658
53.706589 30.355877 -56.197876
53.633102 27.982475 -56.583553
53.586464 25.628292 -56.828308
53.554333 23.284483 -56.99696
53.531582 20.947128 -57.116375
53.515339 18.614025 -57.201611
53.505596 16.2843 -57.25272
53.49789 13.955964 -57.29319
53.491806 11.628642 -57.325115
53.492821 9.3030891 -57.31979
53.499512 6.9781795 -57.284649
53.516148 4.6535616 -57.197334
53.547832 2.3281467 -57.031082
53.606617 -1.9190267e-05 -56.722546
53.847172 -2.3412006 -55.460033
61.162148 -5.3184657 -17.068907
60.837029 -7.9352684 -18.775232
60.695465 -10.555751 -19.51819
60.655552 -13.185998 -19.727684
60.741974 -15.845752 -19.274124
60.851727 -18.5201 -18.69813
61.062111 -21.239004 -17.59396
61.435612 -24.040041 -15.633683
61.865208 -26.897921 -13.37909
62.399746 -29.84337 -10.573668
62.959892 -32.84866 -7.6338382
63.580566 -35.936863 -4.3763685
64.227333 -39.09491 -0.98195219
64.914261 -42.335388 2.6232252
65.811272 -45.781769 7.3310308
56.225689 32.798302 -55.272289
56.04166 30.355877 -56.197876
55.964981 27.982475 -56.583553
55.916519 25.628397 -56.827251
55.882992 23.284563 -56.995892
55.858826 20.947046 -57.117451
55.842091 18.614025 -57.201611
55.831928 16.2843 -57.25272
55.823883 13.955964 -57.29319
55.817535 11.628642 -57.325115
55.818596 9.3030891 -57.31979
55.825581 6.9781795 -57.284649
55.842941 4.6535616 -57.197334
55.875996 2.3281467 -57.031082
55.93734 -1.9190267e-05 -56.722546
56.188351 -2.3412006 -55.460033
63.821651 -5.3184843 -17.067526
63.495808 -7.9369869 -18.706388
63.354843 -10.559148 -19.415403
63.346939 -13.197293 -19.455139
63.452579 -15.863159 -18.923824
63.590412 -18.54722 -18.23057
63.869263 -21.289764 -16.828053
64.329376 -24.123529 -14.51386
64.852676 -27.021957 -11.881883
65.392975 -29.97179 -9.1643839
65.94088 -32.970451 -6.4086428
66.65004 -36.102112 -2.8418403
67.346581 -39.285522 0.66148978
68.104729 -42.565464 4.4746976
69.034187 -46.022804 9.1494989
58.567307 32.79768 -55.277691
58.376724 30.355877 -56.197876
58.296852 27.982475 -56.583553
58.246601 25.62849 -56.826176
58.211674 23.284655 -56.994816
58.186275 20.947046 -57.117451
58.168846 18.614025 -57.201611
58.15826 16.2843 -57.25272
58.149879 13.955964 -57.29319
58.143269 11.628642 -57.325115
58.144367 9.3030891 -57.31979
58.151642 6.9781795 -57.284649
58.169727 4.6535616 -57.197334
58.204163 2.3281467 -57.031082
58.268284 -6.5995664e-06 -56.721485
58.529537 -2.3412006 -55.460033
66.478584 -5.3183084 -17.078646
66.156586 -7.9388089 -18.633373
66.040939 -10.566564 -19.191776
66.06057 -13.212126 -19.097
66.175423 -15.882109 -18.542433
66.439705 -18.603125 -17.266356
66.822937 -21.383348 -15.41598
67.35907 -24.249285 -12.82727
67.86512 -27.146061 -10.383847
68.579079 -30.174816 -6.9365277
69.080986 -33.15889 -4.5131283
69.977295 -36.388206 -0.18536568
70.730446 -39.609055 3.4511528
71.608803 -42.965286 7.6922174
72.560692 -46.438858 12.288383
60.908833 32.797058 -55.283089
60.711792 30.355877 -56.197876
60.628727 27.982475 -56.583553
60.576698 25.628595 -56.825119
60.540138 23.284655 -56.994816
60.513725 20.947046 -57.117451
60.495598 18.614025 -57.201611
60.484592 16.2843 -57.25272
60.475876 13.955964 -57.29319
60.468998 11.628642 -57.325115
60.470146 9.3030891 -57.31979
60.477711 6.9781795 -57.284649
60.496288 4.6535397 -57.198399
60.53233 2.3281467 -57.031082
60.599014 -6.5995664e-06 -56.721485
60.870716 -2.3412006 -55.460033
69.150314 -5.3192649 -17.02022
68.852448 -7.9445295 -18.403131
68.748589 -10.576724 -18.885311
68.731705 -13.217648 -18.963697
69.029121 -15.92981 -17.582859
69.362892 -18.674643 -16.033255
69.924461 -21.515226 -13.42606
70.560371 -24.424763 -10.473697
71.146339 -27.363981 -7.7532268
71.973236 -30.450222 -3.9141831
72.812927 -33.605972 -0.015718956
73.766472 -36.883255 4.4113512
74.678497 -40.211506 8.6455822
75.475258 -43.543423 12.344729
63.251244 32.796928 -55.284153
63.04686 30.355877 -56.197876
62.960598 27.982475 -56.583553
62.906567 25.628595 -56.825119
62.868843 23.284737 -56.993744
62.841419 20.947128 -57.116375
62.822357 18.614025 -57.201611
62.810917 16.2843 -57.25272
62.801872 13.955964 -57.29319
62.794731 11.628642 -57.325115
62.795921 9.3030891 -57.31979
62.803776 6.9781795 -57.284649
62.823303 4.6535616 -57.197334
62.860497 2.3281467 -57.031082
62.930466 -1.3895447e-05 -56.718273
63.215031 -2.3413062 -55.446022
71.842018 -5.3216453 -16.87681
71.52655 -7.9474111 -18.287188
71.376465 -10.574298 -18.9582
71.755508 -13.288068 -17.263571
72.038208 -16.008497 -15.999658
72.587776 -18.819063 -13.542703
73.302765 -21.719349 -10.346142
73.838608 -24.612877 -7.9505124
75.420303 -27.933466 -0.87912154
65.594131 32.797058 -55.283089
65.381935 30.355877 -56.197876
65.292473 27.982475 -56.583553
65.236435 25.628595 -56.825119
65.197319 23.284737 -56.993744
65.168877 20.947128 -57.116375
65.149109 18.614025 -57.201611
65.137253 16.2843 -57.25272
65.127869 13.955964 -57.29319
65.120461 11.628642 -57.325115
65.121696 9.3030891 -57.31979
65.129845 6.9781795 -57.284649
65.150093 4.6535616 -57.197334
65.18866 2.3281467 -57.031082
65.262711 -1.0437664e-05 -56.711868
65.560585 -2.3414612 -55.427685
74.529007 -5.323504 -16.763948
74.329407 -7.9638815 -17.62446
74.613495 -10.659087 -16.399708
74.973312 -13.388113 -14.8485
75.949799 -16.274967 -10.638811
84.186363 -21.046612 24.869829
84.287971 -24.082291 25.30788
84.53392 -27.171633 26.368196
67.936775 32.797058 -55.283089
67.717003 30.355877 -56.197876
67.624344 27.982475 -56.583553
67.566307 25.628595 -56.825119
67.525795 23.284737 -56.993744
67.496338 20.947128 -57.116375
67.475861 18.614025 -57.201611
67.463585 16.2843 -57.25272
67.453857 13.955964 -57.29319
67.44619 11.628642 -57.325115
67.447472 9.3030891 -57.31979
67.455902 6.9781795 -57.284649
67.476883 4.6535616 -57.197334
67.51683 2.3281467 -57.031082
67.595062 -1.3288994e-05 -56.705437
67.906441 -2.3416123 -55.409344
87.616806 -6.0425525 26.633793
85.276138 -8.8216734 16.890936
84.76709 -11.692034 14.772044
84.780014 -14.617261 14.825836
87.521988 -18.108011 26.239122
87.576691 -21.139221 26.466852
87.64183 -24.177076 26.737986
87.797089 -27.247381 27.384209
70.279694 32.797173 -55.281994
70.052071 30.355877 -56.197876
69.956482 27.98258 -56.58247
69.896187 25.628595 -56.825119
69.854271 23.284737 -56.993744
69.823799 20.947128 -57.116375
69.802612 18.614025 -57.201611
69.789917 16.2843 -57.25272
69.779854 13.955964 -57.29319
69.771919 11.628642 -57.325115
69.773247 9.3030891 -57.31979
69.781975 6.9781795 -57.284649
69.803673 4.6535616 -57.197334
69.844727 2.3281379 -57.032139
69.927254 -8.3833766e-06 -56.700115
70.252602 -2.3417656 -55.391006
84.271095 -5.618083 1.0150735
83.490921 -8.3491144 -2.124115
83.093277 -11.07912 -3.7240946
83.067398 -13.844575 -3.8282242
83.286163 -16.657248 -2.9480157
83.450417 -19.471781 -2.2870836
84.155121 -22.441374 0.5484224
86.436996 -25.931108 9.7299442
72.622627 32.797295 -55.280922
72.387138 30.355877 -56.197876
72.2892 27.982906 -56.579269
72.226608 25.62878 -56.822968
72.182747 23.284737 -56.993744
72.15126 20.947128 -57.116375
72.129372 18.614025 -57.201611
72.116241 16.2843 -57.25272
72.10585 13.955964 -57.29319
72.097656 11.628642 -57.325115
72.099014 9.3030891 -57.31979
72.10804 6.9781795 -57.284649
72.130737 4.6535726 -57.196274
72.17289 2.3281379 -57.032139
72.259529 -8.1643839e-06 -56.694759
72.59906 -2.3419189 -55.372665
84.046768 -5.4223895 -10.796525
83.173874 -8.0491009 -14.195492
82.801643 -10.684106 -15.644923
82.731407 -13.343777 -15.918411
82.853218 -16.036121 -15.444073
82.935593 -18.727402 -15.123329
83.446457 -21.534584 -13.134064
84.571465 -24.553015 -8.7534189
89.563011 -28.89131 10.683125
74.965286 32.797295 -55.280922
74.722206 30.355877 -56.197876
74.621956 27.983217 -56.576042
74.557068 25.628977 -56.820831
74.511223 23.284737 -56.993744
74.478714 20.947128 -57.116375
74.456123 18.614025 -57.201611
74.442574 16.2843 -57.25272
74.431847 13.955964 -57.29319
74.423386 11.628642 -57.325115
74.424797 9.3030891 -57.31979
74.434105 6.9781795 -57.284649
74.457535 4.6535726 -57.196274
74.501045 2.3281379 -57.032139
74.590202 -1.7127091e-05 -56.69582
74.945831 -2.3420722 -55.354324
84.082771 -5.2551918 -20.887873
83.237564 -7.803534 -24.07617
82.876717 -10.359598 -25.437376
82.734581 -12.927297 -25.973539
82.850487 -15.53448 -25.536301
82.927475 -18.14039 -25.245907
83.253448 -20.813379 -24.016239
83.941139 -23.608465 -21.422155
86.211281 -26.94104 -12.858692
77.308548 32.79755 -55.278755
77.057274 30.355877 -56.197876
76.954178 27.983322 -56.574989
76.887268 25.629084 -56.819778
76.839989 23.284842 -56.992691
76.806175 20.947128 -57.116375
76.782883 18.614025 -57.201611
76.768906 16.2843 -57.25272
76.757843 13.955964 -57.29319
76.749115 11.628642 -57.325115
76.750572 9.3030891 -57.31979
76.76046 6.9782138 -57.283607
76.784622 4.6535945 -57.195213
76.829498 2.3281467 -57.031082
76.923485 -8.1599401e-06 -56.687275
77.336006 -2.3435302 -55.178299
84.384811 -5.1142464 -29.394478
83.587387 -7.5988746 -32.311386
83.190369 -10.083697 -33.763638
83.099892 -12.590905 -34.094612
83.202675 -15.127774 -33.71862
83.231407 -17.655159 -33.613537
83.434105 -20.226461 -32.872059
83.877914 -22.875813 -31.248657
85.122391 -25.794676 -26.696518
79.651833 32.797794 -55.276596
79.392342 30.355877 -56.197876
79.286133 27.983322 -56.574989
79.217178 25.629084 -56.819778
79.16938 23.285109 -56.989494
79.134239 20.947289 -57.114235
79.110527 18.614235 -57.198418
79.09523 16.2843 -57.25272
79.083839 13.955964 -57.29319
79.074844 11.628642 -57.325115
79.07634 9.3030891 -57.31979
79.08683 6.9782376 -57.282543
79.111732 4.6536164 -57.194145
79.158562 2.3281782 -57.027878
79.260223 -1.8906458e-05 -56.666965
79.797485 -2.346993 -54.759529
84.904037 -4.9943628 -36.629627
84.208969 -7.4302244 -39.09734
83.887939 -9.869195 -40.237087
83.781479 -12.320816 -40.615089
83.846809 -14.796516 -40.383133
83.889969 -17.271475 -40.229904
84.028175 -19.771358 -39.739216
84.346184 -22.326958 -38.61018
85.015808 -25.004662 -36.232819
87.370163 -28.266836 -27.874132
81.995163 32.798046 -55.274429
81.727417 30.355877 -56.197876
81.620247 27.984076 -56.567497
81.548332 25.629463 -56.815491
81.498505 23.285271 -56.987354
81.462029 20.947357 -57.113171
81.437935 18.614359 -57.19627
81.421875 16.284357 -57.251659
81.409828 13.955964 -57.29319
81.400574 11.628642 -57.325115
81.402122 9.3030891 -57.31979
81.413544 6.9782934 -57.280407
81.439163 4.6536498 -57.19202
81.487991 2.3282187 -57.023613
81.595123 -2.030551e-05 -56.654125
82.199181 -2.3485661 -54.570831
85.646423 -4.8940954 -42.681686
85.167816 -7.3001089 -44.332371
84.90213 -9.7031107 -45.248657
84.79586 -12.113704 -45.615189
84.800545 -14.537245 -45.599033
84.812599 -16.962534 -45.557453
84.935043 -19.413738 -45.135166
85.131012 -21.890844 -44.45929
85.553276 -24.443796 -43.002972
86.796776 -27.278996 -38.714283
84.343681 32.800301 -55.255001
84.06472 30.356701 -56.190376
83.953209 27.984388 -56.564274
83.879242 25.629766 -56.812302
83.827675 23.285456 -56.985226
83.790146 20.947519 -57.111031
83.765045 18.614429 -57.19521
83.748215 16.284357 -57.251659
83.735512 13.955905 -57.294243
83.726311 11.628642 -57.325115
83.72789 9.3030891 -57.31979
83.740273 6.9783378 -57.278275
83.766632 4.6536937 -57.189892
83.81781 2.3282576 -57.018272
83.933746 -1.6022281e-05 -56.629536
84.813942 -2.3559599 -53.678181
86.709457 -4.817205 -47.322395
86.340347 -7.1950431 -48.560055
86.15007 -9.5722427 -49.198036
86.044022 -11.950576 -49.553631
86.041336 -14.340243 -49.56263
86.082581 -16.7383 -49.424324
86.12085 -19.137985 -49.296024
86.23349 -21.558382 -48.91835
86.451859 -24.014418 -48.186119
86.99942 -26.583174 -46.350117
86.696487 32.804066 -55.22261
86.405113 30.358543 -56.173214
86.28524 27.984388 -56.564274
86.209221 25.629766 -56.812302
86.156219 23.285456 -56.985226
86.117653 20.947519 -57.111031
86.091522 18.614359 -57.19627
86.074554 16.284357 -57.251659
86.061501 13.955905 -57.294243
86.051712 11.628596 -57.326164
86.053665 9.3030891 -57.31979
86.066391 6.9783378 -57.278275
86.09446 4.653749 -57.186703
86.149681 2.3283565 -57.006546
86.28524 -1.720939e-05 -56.56427
87.62648 -2.3682933 -52.188549
88.003204 -4.7569404 -50.959518
87.73011 -7.113266 -51.850483
87.590981 -9.4693136 -52.304371
87.552475 -11.831429 -52.430019
87.547745 -14.196946 -52.445435
87.546394 -16.562857 -52.449833
87.583885 -18.937069 -52.327538
87.623779 -21.313896 -52.197388
87.724007 -23.709202 -51.870399
87.976257 -26.155128 -51.047417
89.131699 -28.907587 -47.277866
88.743088 30.359459 -56.164608
88.61795 27.984598 -56.562138
88.539536 25.629847 -56.81123
88.4851 23.285538 -56.984158
88.445496 20.947613 -57.109982
88.417984 18.614305 -57.197357
88.401558 16.284485 -57.249538
88.388153 13.956007 -57.292107
88.377769 11.628642 -57.325115
88.380447 9.3031902 -57.316601
88.394188 6.9784832 -57.272957
88.424026 4.6538892 -57.178173
88.48275 2.3284755 -56.991627
88.664459 -1.5450292e-05 -56.414406
89.88929 -2.3655243 -52.523621
89.453697 -4.7081013 -53.907322
89.321747 -7.0517378 -54.326443
89.251656 -9.394928 -54.549122
89.235596 -11.741538 -54.600113
89.231499 -14.089194 -54.613152
89.230476 -16.437218 -54.61639
89.244133 -18.78826 -54.572998
89.275238 -21.144156 -54.474209
89.302254 -23.500607 -54.388412
89.392303 -25.876734 -54.102337
89.701836 -28.326906 -53.119064
91.243401 30.414459 -55.654034
90.973518 27.991837 -56.489368
90.884369 25.634047 -56.765301
90.822624 23.287832 -56.956413
90.78334 20.949987 -57.077988
90.755096 18.616421 -57.165398
90.736519 16.28603 -57.222912
90.722412 13.957285 -57.266575
90.711754 11.629694 -57.299568
90.715187 9.3041067 -57.288906
90.731697 6.9793434 -57.237812
90.768875 4.6548014 -57.122768
90.856071 2.329623 -56.852871
91.199936 -6.446201e-06 -55.788574
91.152687 -2.3372617 -55.934803
91.10791 -4.672215 -56.073395
91.071503 -7.0055227 -56.186069
91.066307 -9.3401585 -56.20216
91.064919 -11.675014 -56.206455
91.064568 -14.009937 -56.207539
91.084679 -16.348553 -56.145298
91.085716 -18.684263 -56.142075
91.089531 -21.020668 -56.13028
91.099243 -23.358801 -56.10022
91.119011 -25.700249 -56.039021
91.170052 -28.052336 -55.881058
94.010651 35.253979 -54.363415
94.217812 32.976219 -53.738232
93.43512 30.3664 -56.10022
93.391029 28.01729 -56.233273
93.366516 25.675779 -56.307251
93.351242 23.337801 -56.35334
93.337395 21.000898 -56.395115
93.328171 18.665627 -56.422985
93.318947 16.330801 -56.450825
93.311844 13.996765 -56.47224
93.306168 11.663253 -56.489372
93.300491 9.3300371 -56.506504
93.295883 6.99718 -56.520412
93.291275 4.6645455 -56.534313
93.287018 2.3321612 -56.547157
93.283112 -9.4635777e-07 -56.558941
93.279922 -2.3320172 -56.568558
93.279572 -4.6639876 -56.569645
93.279922 -6.9960108 -56.568562
93.279572 -9.3279667 -56.569637
93.279572 -11.659966 -56.569626
93.280281 -13.992049 -56.567497
93.280991 -16.324192 -56.56535
93.282059 -18.656429 -56.562145
93.287369 -20.989683 -56.546085
93.296951 -23.324251 -56.517189
93.314682 -25.661558 -56.463669
93.357285 -28.007202 -56.335125
96.360916 35.253979 -54.363415
96.573257 32.976219 -53.738232
95.747665 30.359007 -56.168911
95.712334 28.013353 -56.272945
95.68721 25.672157 -56.346909
95.67083 23.334339 -56.39513
95.656647 20.997791 -56.436905
95.64682 18.66279 -56.465813
95.637367 16.328318 -56.493652
95.62973 13.994578 -56.516121
95.623558 11.661398 -56.534313
95.617371 9.3285141 -56.552509
95.612648 6.9960365 -56.566437
95.607925 4.6637936 -56.580338
95.603203 2.331764 -56.594234
95.59848 -6.4486771e-06 -56.608154
95.595215 -2.3316088 -56.617767
95.594841 -4.6631751 -56.618847
95.595215 -6.9947867 -56.61776
95.594841 -9.3263435 -56.618835
95.595215 -11.657975 -56.617764
95.596298 -13.989717 -56.614563
95.597389 -16.32152 -56.611362
95.598846 -18.653452 -56.607071
95.603569 -20.986158 -56.593174
95.61338 -23.32036 -56.564274
95.631554 -25.657251 -56.510777
95.674835 -28.002401 -56.383354
98.711182 35.253979 -54.363415
98.928703 32.976219 -53.738232
98.075516 30.356701 -56.190376
98.039314 28.011223 -56.294395
98.013588 25.670216 -56.36834
97.996063 23.332388 -56.418701
97.981163 20.995947 -56.461521
97.971474 18.661215 -56.489365
97.961418 16.326885 -56.518261
97.953606 13.99336 -56.540749
97.946899 11.660322 -56.560001
97.940575 9.327652 -56.57819
97.935356 6.9953647 -56.593174
97.930519 4.6633444 -56.607059
97.925316 2.3315423 -56.622055
97.920471 -5.4415295e-06 -56.63596
97.917122 -2.3313689 -56.645576
97.917122 -4.6627398 -56.64558
97.917122 -6.9940977 -56.645576
97.917122 -9.3254576 -56.645569
97.917122 -11.656816 -56.645561
97.91787 -13.988284 -56.643429
97.919731 -16.319971 -56.638092
97.921593 -18.651739 -56.63274
97.926796 -20.984318 -56.617775
97.937218 -23.318403 -56.587811
97.956581 -25.65531 -56.532185
98.001289 -28.000378 -56.403694
101.06145 35.253979 -54.363415
101.28415 32.976219 -53.738232
100.40911 30.356226 -56.19466
100.3713 28.010584 -56.300819
100.34496 25.669626 -56.374767
100.3274 23.331936 -56.424049
100.31176 20.995461 -56.467941
100.30147 18.660721 -56.496849
100.29117 16.326464 -56.525757
100.28278 13.992938 -56.549301
100.27592 11.659975 -56.568569
100.26907 9.3273382 -56.587818
100.26373 6.9951196 -56.602787
100.25839 4.6631765 -56.617775
100.25344 2.3314514 -56.631668
100.24849 -1.1338358e-05 -56.64558
100.24506 -2.3312917 -56.655212
100.2443 -4.6625414 -56.657337
100.24506 -6.9938583 -56.655201
100.24468 -9.3251066 -56.656273
100.24468 -11.65637 -56.656269
100.2462 -13.987856 -56.651981
100.24773 -16.31941 -56.647705
100.24963 -18.651108 -56.642368
100.25534 -20.98369 -56.626324
100.26601 -23.317692 -56.596371
100.28621 -25.654621 -56.53968
100.33236 -27.999739 -56.410133
103.54816 35.300495 -53.989079
103.78543 33.022625 -53.338165
102.74617 30.356806 -56.189293
102.70824 28.011326 -56.293312
102.6809 25.670216 -56.36834
102.66293 23.332479 -56.417622
102.64693 20.995947 -56.461521
102.63679 18.661215 -56.489365
