# .PCD v0.7 - Point Cloud Data file format
VERSION 0.7
FIELDS x y z
SIZE 4 4 4
TYPE F F F
COUNT 1 1 1
WIDTH 1507
HEIGHT 1
VIEWPOINT 0 0 0 1 0 0 0
POINTS 1507
DATA ascii
-1373.8905 108.4651 179.74115
-1379.8478 72.623627 198.66544
-1385.5305 36.461433 216.7168
-1392.121 0.00022046217 237.65211
-1397.9188 -36.787212 256.0697
-1404.6622 -73.929382 277.49081
-1370.4047 185.18999 286.32266
-1335.7853 144.40933 173.37927
-1330.7772 107.90093 157.04045
-1335.709 72.200645 173.12997
-1341.6398 36.260773 192.47868
-1347.6881 9.197605e-05 212.2114
-1353.4122 -36.578617 230.88599
-1359.1985 -73.470093 249.76311
-1365.6193 -110.72575 270.711
-1371.6648 -148.28806 290.43433
-1378.0146 -186.21805 311.15036
-1384.9912 -224.59299 333.91055
-1321.9507 183.60442 248.0443
-1291.4088 143.49002 145.63474
-1287.4294 107.28589 132.29178
-1292.5406 71.808014 149.42998
-1298.2174 36.061653 168.46465
-1303.558 -1.5433649e-05 186.37221
-1309.1249 -36.364445 205.03824
-1314.9993 -73.055359 224.73544
-1320.7476 -110.06207 244.01015
-1326.6689 -147.40758 263.86517
-1332.6501 -185.09032 283.92059
-1338.9615 -223.16006 305.08286
-1345.0211 -261.53171 325.40137
-1351.3234 -300.29395 346.53302
-1357.9484 -339.48697 368.7471
-1280.1683 182.88127 230.58778
-1247.8342 142.60985 119.07129
-1244.5906 106.67934 107.88419
-1249.5448 71.402679 124.97099
-1255.0076 35.857433 143.81131
-1260.5004 0.00016674797 162.75526
-1266.2349 -36.178017 182.53285
-1271.1134 -72.634972 199.35861
-1276.6133 -109.42387 218.32663
-1282.3903 -146.55875 238.25072
-1287.8944 -183.98474 257.23419
-1294.0582 -221.83839 278.49219
-1299.5424 -259.90839 297.40619
-1305.8569 -298.4816 319.18457
-1312.0449 -337.38287 340.5264
-1331.9418 -418.61017 409.1481
-1331.9619 -456.67252 409.21725
-1272.8643 224.62318 334.51324
-1232.8109 181.29597 192.3111
-1204.9261 141.75627 93.311729
-1202.1997 106.07661 83.631783
-1206.9919 70.999565 100.64597
-1212.2673 35.655087 119.37501
-1217.52 0.00018974216 138.02338
-1222.8938 -35.967297 157.1021
-1228.3035 -72.253052 176.30849
-1233.7554 -108.86066 195.66441
-1238.5054 -145.70645 212.52837
-1244.0784 -182.95267 232.31451
-1249.5443 -220.50761 251.71992
-1255.2296 -258.42953 271.90454
-1260.9669 -296.69803 292.2738
-1267.2864 -335.45795 314.71008
-1237.0037 224.90993 340.28009
-1187.9298 179.98949 160.77292
-1162.5072 140.91006 67.779839
-1160.2637 105.47859 59.572945
-1164.8843 70.59922 76.474701
-1170.0508 35.456177 95.373322
-1175.0865 0.00017984974 113.79351
-1180.0657 -35.759373 132.00661
-1185.2668 -71.834122 151.03201
-1190.5198 -108.2289 170.24666
-1195.9739 -144.96629 190.19711
-1201.0627 -181.979 208.81169
-1205.9565 -219.26482 226.71307
-1211.2833 -256.93887 246.19807
-1216.8173 -294.98596 266.44058
-1222.5873 -333.43286 287.54663
-1153.3618 324.38312 166.16675
-1147.4137 286.85361 143.72951
-1221.2832 267.15576 422.38049
-1205.5951 226.04919 363.20135
-1141.4032 178.34431 121.05629
-1120.5553 140.0696 42.413876
-1118.7771 104.88548 35.705875
-1123.3894 70.211998 53.104725
-1128.1713 35.255417 71.142784
-1133.0415 9.6714874e-05 89.514305
-1137.8206 -35.556812 107.54201
-1142.7693 -71.422867 126.20965
-1147.8048 -107.60651 145.20445
-1152.8848 -144.11044 164.36729
-1157.9657 -180.93198 183.53371
-1163.4153 -218.14026 204.09059
-1168.1676 -255.53647 222.01695
-1173.5774 -293.39423 242.42421
-1178.5851 -331.47696 261.31393
-1112.6362 323.02341 147.93172
-1105.4794 285.28516 120.06351
-1110.3488 250.72401 139.02452
-1175.2349 227.465 391.68372
-1097.8699 177.076 90.433067
-1079.2498 139.25804 17.928112
-1077.7693 104.30044 12.163584
-1082.3224 69.827477 29.892672
-1086.733 35.055996 47.067429
-1091.4028 0.00016503793 65.251236
-1096.0312 -35.355717 83.273285
-1100.8175 -71.020287 101.91071
-1105.6251 -106.99584 120.63065
-1110.4537 -143.28415 139.43315
-1115.3672 -179.89787 158.5656
-1120.5701 -216.88435 178.82513
-1125.207 -254.07889 196.88113
-1130.2251 -291.67087 216.4203
-1135.1399 -329.55661 235.55823
-1067.2426 320.17294 109.69762
-1063.9065 283.70856 96.274429
-1066.967 248.95924 108.58924
-1074.5768 214.91541 139.20854
-1054.9026 175.81728 60.045387
-1038.4247 138.45674 -6.256752
-1037.2213 103.72221 -11.098261
-1041.6455 69.44326 6.7029743
-1045.8622 34.862183 23.6695
-1050.2344 6.0278089e-05 41.262001
-1054.7656 -35.158779 59.494091
-1059.3361 -70.622292 77.884407
-1063.9314 -106.39295 96.374504
-1068.5416 -142.47217 114.92493
-1073.2681 -178.87793 133.94254
-1078.1949 -215.63896 153.7668
-1082.6515 -252.61856 171.69847
-1087.5247 -290.00659 191.3064
-1092.1899 -327.65689 210.07787
-1024.9418 318.08539 81.701004
-1022.962 282.19656 73.460175
-1025.2334 247.47031 82.91497
-1031.3918 213.39163 108.54893
-1012.8638 174.63174 31.427206
-998.06219 137.66382 -30.183506
-997.12482 103.15102 -34.085258
-1001.4138 69.063148 -16.232788
-1005.4407 34.670555 0.52890998
-1009.5326 5.9753056e-05 17.561291
-1013.9572 -34.963852 35.978416
-1018.3264 -70.22937 54.165203
-1022.7097 -105.79739 72.40995
-1027.0924 -141.66792 90.653023
-1031.6436 -177.86945 109.59702
-1036.1864 -214.38321 128.50623
-1040.5231 -251.16068 146.5575
-1045.1794 -288.32513 165.93909
-1049.6169 -325.74301 184.4099
-983.95026 316.26999 57.349026
-982.00598 280.57324 48.967106
-984.53918 246.1348 59.888088
-989.86212 212.11349 82.835289
-971.72162 173.52191 4.6301327
-958.15076 136.87875 -53.875397
-957.47198 102.58636 -56.801537
-961.53284 68.681129 -39.294666
-965.4043 34.478722 -22.604549
-969.35132 0.00017329065 -5.5887895
-973.58966 -34.770885 12.683519
-977.77069 -69.840538 30.708246
-981.94696 -105.20836 48.712215
-986.10852 -140.87247 66.653427
-990.47198 -176.86983 85.464584
-994.66901 -213.14325 103.55837
-998.94873 -249.73708 122.0089
-1003.3224 -286.66351 140.8644
-1007.548 -323.85458 159.08107
-1007.6681 410.53152 320.49301
-1002.7645 371.39438 298.57019
-944.0509 314.68365 36.075947
-941.80444 279.05325 26.032539
-944.29486 244.81729 37.166534
-949.34625 210.96596 59.749992
-931.28992 172.46124 -20.975458
-918.69604 136.10324 -77.279808
-918.25494 102.02837 -79.251968
-922.08252 68.302475 -62.139748
-925.77448 34.288136 -45.633694
-929.61871 0.00010000984 -28.447088
-933.62268 -34.578556 -10.546057
-937.61841 -69.453163 7.3176336
-941.60516 -104.6226 25.141235
-945.56909 -140.08424 42.863338
-949.73401 -175.87657 61.483704
-953.65576 -211.92345 79.016808
-957.89233 -248.34244 97.95784
-961.94519 -285.02066 116.07693
-965.97321 -321.99094 134.08504
-954.38147 403.77682 246.36971
-934.8479 359.55695 155.68079
-904.1264 312.96692 13.049593
-902.4328 277.67169 5.1866879
-904.43353 243.50157 14.475137
-909.38397 209.85785 37.458927
-891.04309 171.35457 -47.692638
-879.72131 135.34186 -100.25673
-879.45819 101.47613 -101.47803
-883.06854 67.928505 -84.716393
-886.5849 34.099575 -68.390701
-890.34662 0.00013904253 -50.926304
-894.0957 -34.388252 -33.520138
-897.90106 -69.069305 -15.852792
-901.70599 -104.04288 1.8121828
-905.46417 -139.30209 19.260523
-909.41754 -174.88785 37.614647
-913.21088 -210.74081 55.225941
-917.26642 -246.95619 74.054787
-921.0567 -283.40186 91.652046
-924.89581 -320.15619 109.47613
-903.17291 397.39624 176.34987
-900.56281 360.22519 163.74733
-863.80725 310.97061 -13.724167
-862.81598 276.10126 -18.510702
-865.25897 242.27258 -6.714653
-869.85919 208.7662 15.497053
-851.32483 170.26509 -73.99498
-841.24365 134.59909 -122.67122
-841.07935 100.92957 -123.46445
-844.4494 67.556114 -107.19234
-847.8808 33.915333 -90.624298
-851.49695 8.7885164e-05 -73.163353
-855.0014 -34.200058 -56.242596
-858.62042 -68.689568 -38.768635
-862.24658 -103.46943 -21.259785
-865.80469 -138.52872 -4.0798931
-869.55579 -173.91109 14.031999
-873.23889 -209.57719 31.815708
-877.0752 -245.58081 50.33873
-880.68726 -281.81992 67.779778
-884.33759 -318.36148 85.404861
-876.38739 401.67755 223.33351
-867.27753 361.36581 177.51434
-824.97473 309.36557 -35.252224
-824.11127 274.70386 -39.5952
-826.41779 241.03853 -27.993908
-830.80798 207.70215 -5.91325
-812.33331 169.23611 -98.833672
-803.18604 133.86447 -144.84111
-803.11157 100.38908 -145.21559
-806.24426 67.187187 -129.45908
-809.62854 33.734615 -112.43734
-813.05957 0.00010503652 -95.181046
-816.33282 -34.013721 -78.717857
-819.77295 -68.31427 -61.415188
-823.21613 -102.90192 -44.097404
-826.57935 -137.76314 -27.181746
-830.12927 -172.94341 -9.327014
-833.70599 -208.42641 8.6627016
-837.3252 -244.21965 26.866051
-840.76233 -280.25397 44.152847
-844.23151 -316.58673 61.602077
-848.10907 -353.37869 81.104248
-856.27551 409.52325 309.42761
-793.98956 345.21304 -17.466942
-786.28906 307.67838 -57.881313
-785.37146 273.17282 -62.697056
-787.87421 239.78793 -49.562294
-791.74994 206.54361 -29.221224
-773.8136 168.22037 -123.35623
-765.55505 133.14014 -166.69939
-765.56854 99.856796 -166.62888
-768.48816 66.825226 -151.3062
-771.77838 33.555725 -134.0376
-775.03503 8.2879211e-05 -116.94584
-778.13159 -33.831665 -100.69411
-781.3476 -67.943039 -83.815918
-784.61145 -102.3405 -66.686241
-787.79938 -137.00838 -49.954838
-791.1319 -171.98497 -32.465179
-794.60486 -207.28818 -14.237497
-798.01355 -242.87367 3.6522067
-801.2821 -278.70673 20.806612
-804.55157 -314.82434 37.965508
-807.99762 -351.30331 56.051476
-922.83807 461.41904 878.91827
-756.79663 343.99863 -32.125839
-747.65741 305.85995 -82.271065
-747.3056 271.74765 -84.201797
-749.64752 238.52429 -71.351944
-753.83685 205.5921 -48.365852
-735.91589 167.25377 -146.69534
-728.33551 132.42473 -188.28773
-728.43414 99.332031 -187.74677
-731.18781 66.471779 -172.6376
-734.28241 33.376595 -155.65785
-737.37396 0.00010157434 -138.69495
-740.31409 -33.650551 -122.56282
-743.34735 -67.576828 -105.91982
-746.42908 -101.78564 -89.011299
-749.44537 -136.26279 -72.461174
-752.56427 -171.03716 -55.34819
-755.85657 -206.14265 -37.283714
-759.12939 -241.54115 -19.326223
-762.23206 -277.17523 -2.3024991
-765.30042 -313.07733 14.533022
-768.42194 -349.28259 31.66028
-887.28998 464.7713 915.70154
-717.29169 341.56757 -61.471027
-709.02466 303.86783 -108.99067
-709.21106 270.17581 -107.91918
-711.7644 237.25502 -93.242485
-715.88812 204.53949 -69.538719
-698.46967 166.30247 -169.66203
-691.51373 131.717 -209.64557
-691.68512 98.812386 -208.6609
-694.28003 66.122009 -193.74438
-697.18457 33.199413 -177.04884
-700.1012 0.00010493313 -160.28358
-702.88086 -33.470417 -144.30568
-705.77039 -67.216179 -127.69668
-708.68048 -101.24001 -110.96878
-711.5257 -135.52861 -94.614281
-714.44513 -170.10583 -77.83297
-717.53735 -205.01065 -60.05825
-720.64026 -240.21327 -42.222675
-723.612 -275.66159 -25.140329
-726.48248 -311.34952 -8.6408625
-729.48608 -347.37427 8.6243305
-852.7782 469.02814 962.41754
-675.86377 337.93201 -105.35587
-671.41785 302.13818 -132.18932
-672.83954 269.13589 -123.6088
-675.93915 236.57883 -104.90116
-679.47534 203.84268 -83.558311
-661.21912 165.30499 -193.74463
-655.0835 131.01677 -230.77599
-655.32141 98.298271 -229.3401
-657.76715 65.776878 -214.57895
-660.47858 33.024017 -198.21367
-663.22699 3.6527923e-05 -181.62546
-665.85797 -33.292873 -165.74638
-668.58954 -66.858864 -149.2601
-671.3316 -100.69972 -132.70988
-674.01544 -134.80304 -116.51176
-676.75098 -169.18773 -100.00116
-679.66119 -203.89816 -82.43679
-682.5719 -238.90007 -64.868797
-685.41162 -274.16464 -47.729816
-688.10938 -309.64914 -31.447317
-690.9765 -345.48804 -14.142536
-637.59845 335.57825 -133.76837
-634.87158 300.72882 -151.0927
-638.46918 268.82932 -128.23634
-641.95038 236.50818 -106.11968
-645.02155 203.6911 -86.608032
-624.49396 164.34073 -217.02383
-619.0412 130.32451 -251.66614
-619.33405 97.789665 -249.80536
-621.63885 65.435699 -235.16272
-624.1853 32.851906 -218.98445
-626.74188 0.00010784277 -202.74222
-629.22589 -33.117054 -186.96083
-631.79346 -66.504486 -170.64845
-634.38208 -100.16549 -154.20256
-636.90466 -134.08522 -138.17599
-639.46729 -168.28076 -121.89542
-642.19086 -202.79692 -104.5919
-644.91467 -237.60013 -87.28698
-647.61212 -272.67865 -70.149536
-650.17078 -307.97549 -53.893982
-652.8385 -343.599 -36.945488
-607.49188 337.49567 -110.62411
-607.09442 303.54718 -113.28916
-607.61902 270.0531 -109.77122
-609.83008 237.1562 -94.943382
-612.33209 204.11084 -78.164764
-588.25055 163.40303 -239.65891
-583.37775 129.6396 -272.33667
-583.71722 97.286301 -270.05994
-585.8858 65.098534 -255.51744
-588.27087 32.681908 -239.5228
-590.63965 3.8855047e-05 -223.63745
-592.98114 -32.943188 -207.93501
-595.38544 -66.153847 -191.81102
-597.81989 -99.636581 -175.48572
-600.19501 -133.37653 -159.5578
-602.59973 -167.3886 -143.43126
-605.12579 -201.70857 -126.49096
-607.66772 -236.31525 -109.44436
-610.21204 -271.20529 -92.38224
-612.64008 -306.32001 -76.099297
-615.10419 -341.72446 -59.574772
-561.17938 297.09512 -199.82866
-580.57043 273.20972 -62.139755
-580.31158 238.95187 -63.978184
-581.10461 205.0959 -58.346813
-552.4184 162.47601 -262.03711
-548.08954 128.96233 -292.77475
-548.46521 96.788033 -290.10733
-550.49701 64.764458 -275.67999
-552.72412 32.51329 -259.86618
-554.91669 0.00023584595 -244.29756
-557.1123 -32.771168 -228.70747
-559.35938 -65.806839 -212.75195
-561.64417 -99.113617 -196.52803
-563.87372 -132.67598 -180.69705
-566.11853 -166.50526 -164.75748
-568.45404 -200.63063 -148.17409
-570.82153 -235.04413 -131.36342
-573.2088 -269.74524 -114.41224
-575.51068 -304.68213 -98.067162
-577.77673 -339.86862 -81.976852
-531.99927 332.49957 -170.93005
-526.27081 296.02737 -214.14818
-527.75275 263.87643 -202.96765
-553.23767 207.46423 -10.698576
-517.01031 161.56587 -284.01328
-513.13776 128.28452 -313.22958
-513.55066 96.290932 -310.11426
-515.46741 64.433617 -295.65332
-517.54211 32.346447 -280.00104
-519.57123 0.00016810396 -264.69266
-521.61853 -32.601055 -249.2469
-523.70917 -65.463661 -233.47401
-525.84399 -98.595642 -217.36787
-527.92969 -131.98239 -201.63277
-530.02271 -165.63202 -185.84233
-532.16504 -199.56184 -169.6795
-534.36957 -233.78658 -153.04788
-536.59949 -268.29959 -136.2242
-538.76196 -303.0535 -119.9097
-540.85504 -338.03439 -104.11869
-495.08063 330.05377 -200.45322
-491.36996 294.82224 -230.31473
-491.32324 262.03928 -230.69066
-494.02856 230.54675 -208.92003
-501.12823 200.4514 -151.78606
-482.05191 160.6841 -305.3006
-478.54135 127.61106 -333.55142
-478.98291 95.796715 -329.99789
-480.7879 64.105247 -315.47272
-482.71103 32.180897 -299.9964
-484.59384 0.00021863967 -284.8447
-486.49139 -32.432682 -269.57422
-488.43115 -65.124001 -253.96445
-490.41183 -98.082161 -238.02519
-492.35745 -131.29523 -222.36804
-494.30136 -164.767 -206.72444
-496.26068 -198.5041 -190.95714
-498.30551 -232.54253 -174.50151
-500.38046 -266.86935 -157.80385
-502.4017 -301.44098 -141.5379
-504.32965 -336.21967 -126.02274
-459.34659 328.10477 -223.98038
-456.40836 293.40555 -249.31473
-456.33966 260.76575 -249.9071
-457.78882 228.89452 -237.41209
-461.05322 197.59439 -209.26543
-447.47302 159.81197 -326.35654
-444.30814 126.94521 -353.64511
-444.76819 95.307564 -349.67862
-446.46002 63.780182 -335.09097
-448.23679 32.01693 -319.77148
-449.97809 0.00017511782 -304.75766
-451.72913 -32.26614 -289.65967
-453.5191 -64.788284 -274.22653
-455.34476 -97.573776 -258.48508
-457.13791 -130.61064 -243.02429
-458.93729 -163.90619 -227.50943
-460.73489 -197.45775 -212.01028
-462.62329 -231.31149 -195.72821
-464.54758 -265.45566 -179.13696
-466.42841 -299.84674 -162.91954
-468.1944 -334.42444 -147.69315
-425.02725 326.94409 -237.99094
-421.53571 291.83255 -270.41183
-421.56091 259.42218 -270.1774
-423.08884 227.81718 -255.98994
-425.32083 196.30205 -235.26521
-413.27618 158.95251 -347.10474
-410.44397 126.29053 -373.40326
-410.901 94.823418 -369.15909
-412.47855 63.458267 -354.51126
-414.11002 31.854738 -339.3624
-415.71408 9.7808261e-05 -324.46808
-417.32001 -32.101437 -309.55637
-418.96512 -64.456146 -294.2807
-420.63223 -97.068901 -278.80081
-422.28369 -129.93344 -263.46619
-423.93723 -163.0526 -248.11243
-425.58908 -196.42561 -232.77422
-427.3187 -230.09459 -216.71416
-429.08859 -264.05444 -200.27988
-430.82043 -298.26031 -184.19862
-432.45621 -332.65848 -169.0099
-390.91791 325.76511 -252.22411
-387.29868 290.47406 -288.63123
-387.21289 258.14203 -289.49377
-388.54962 226.65405 -276.04745
-390.62912 195.31471 -255.12926
-379.44675 158.10283 -367.61499
-376.92737 125.64253 -392.95865
-377.37622 94.344307 -388.44312
-378.83823 63.139812 -373.73651
-380.32748 31.694021 -358.75574
-381.79642 0.00016711322 -343.9794
-383.26059 -31.93819 -329.2507
-384.76376 -64.127296 -314.13019
-386.27872 -96.569664 -298.89075
-387.78912 -129.263 -283.69714
-389.29977 -162.20807 -268.50174
-390.8356 -195.41774 -253.05223
-392.38196 -228.88939 -237.49721
-394.00201 -262.66785 -221.20068
-395.577 -296.6825 -205.35773
-397.10043 -330.91696 -190.03267
-356.4126 324.01157 -273.39041
-353.19324 288.97641 -308.71896
-353.28903 256.9375 -307.66772
-354.50443 225.59392 -294.33044
-356.34402 194.36948 -274.14279
-345.97559 157.26178 -387.92316
-343.76001 125.00365 -412.23636
-344.19144 93.870399 -407.50156
-345.5325 62.824284 -392.78571
-346.88687 31.535198 -377.92279
-348.21991 0.00019442204 -363.29437
-349.54715 -31.776833 -348.72995
-350.90961 -63.801693 -333.77844
-352.27533 -96.074905 -318.79169
-353.64722 -128.5988 -303.73712
-355.01923 -161.37228 -288.68094
-356.43698 -194.4201 -273.12302
-357.80927 -227.69675 -258.06375
-359.28195 -261.29581 -241.90317
-360.69812 -295.11642 -226.36246
-362.11447 -329.19498 -210.81955
-321.33118 321.33124 -305.74442
-319.37442 287.4371 -329.36432
-319.5697 255.65578 -327.00726
-320.67715 224.47418 -313.63901
-322.40152 193.44099 -292.82428
-312.84836 156.42424 -408.14087
-310.92694 124.37076 -431.33459
-311.35486 93.406487 -426.1691
-312.56451 62.513103 -411.56744
-313.78098 31.378187 -396.88318
-314.97946 0.00015462856 -382.41602
-316.17264 -31.61726 -368.01312
-317.39883 -63.479687 -353.21191
-318.61847 -95.585457 -338.48959
-319.85294 -127.94117 -323.58823
-321.09021 -160.54492 -308.65332
-322.38641 -193.43175 -293.00659
-323.59641 -226.51749 -278.40051
-324.92136 -259.93701 -262.40714
-326.18558 -293.56689 -247.14665
-327.48938 -327.48923 -231.40825
-287.25903 319.17691 -331.75122
-286.03748 286.03769 -348.13474
-286.20795 254.40724 -345.84872
-287.23724 223.40686 -332.0433
-288.80496 192.53685 -311.01657
-280.07208 155.5957 -428.14441
-278.42578 123.74485 -450.22528
-278.84125 92.947197 -444.65305
-279.92038 62.204567 -430.17944
-281.00208 31.222553 -415.6712
-282.0712 8.8492037e-05 -401.33179
-283.13321 -31.459093 -387.08786
-284.21747 -63.159405 -372.54556
-285.30408 -95.101158 -357.97177
-286.40262 -127.29005 -343.2374
-287.50726 -159.72614 -328.422
-288.68152 -192.45427 -312.67224
-289.73489 -225.34926 -298.54428
-290.91751 -258.59317 -282.68231
-292.04608 -292.04605 -267.54587
-293.22122 -325.80136 -251.78447
-254.09998 317.62506 -350.48212
-253.02995 284.65875 -366.62735
-253.17789 253.17809 -364.39545
-254.10211 222.33949 -350.44998
-255.49954 191.62469 -329.36435
-247.64525 154.77843 -447.87625
-246.25517 123.1276 -468.85117
-246.63884 92.489578 -463.06186
-247.59167 61.898129 -448.68512
-248.54373 31.068048 -434.31946
-249.48671 0.00022905348 -420.09116
-250.42238 -31.302732 -405.97266
-251.36824 -62.841911 -391.70099
-252.32442 -94.621498 -377.27341
-253.29213 -126.64603 -362.67169
-254.26515 -158.91568 -347.9899
-255.31447 -191.48572 -332.15692
-256.22083 -224.19305 -318.48114
-257.27002 -257.2699 -302.65002
-258.2739 -290.55798 -287.50269
-259.3045 -324.13055 -271.95193
-220.90338 315.57642 -375.21243
-220.14345 283.04169 -388.31714
-220.4325 251.92297 -383.33231
-221.41878 221.41884 -366.32452
-220.13431 188.68661 -388.47443
-215.55907 153.97092 -467.37164
-214.40475 122.51715 -487.27728
-214.75104 92.036346 -481.30557
-215.57747 61.593662 -467.05426
-216.40233 30.914709 -452.83017
-217.2184 0.00012589856 -438.75742
-218.02992 -31.146982 -424.76346
-218.85202 -62.529018 -410.58682
-219.67853 -94.147896 -396.33423
-220.51588 -126.00902 -381.89438
-221.36426 -158.11737 -367.26462
-222.2825 -190.52774 -351.43002
-223.04982 -223.04985 -338.19833
-223.96416 -255.95895 -322.43088
-224.84412 -289.08527 -307.25693
-225.73483 -322.47818 -291.89697
-226.65974 -356.17953 -275.94711
-188.29587 313.82642 -396.33414
-187.76715 281.65091 -406.97141
-188.58795 251.4507 -390.45819
-189.56123 221.15498 -370.87717
-187.51627 187.51625 -412.01855
-183.8067 153.17223 -486.64954
-182.8679 121.91207 -505.5365
-183.17436 91.587173 -499.37106
-183.87582 61.292042 -485.25894
-184.57593 30.762648 -471.17392
-185.2693 0.00013871677 -457.22421
-185.95726 -30.992737 -443.38361
-186.658 -62.219284 -429.28555
-187.3602 -93.680008 -415.15872
-188.07004 -125.37997 -400.8779
-188.79073 -157.32555 -386.3783
-189.56441 -189.56419 -370.81351
-190.21544 -221.91797 -357.71545
-190.99844 -254.66446 -341.96289
-191.75072 -287.62595 -326.8284
-192.49426 -320.82364 -311.86932
-193.25264 -354.29648 -296.61191
-156.38286 312.76599 -409.13849
-156.5211 281.73816 -405.80109
-157.38507 251.81631 -384.9429
-158.21504 221.50121 -364.90582
-155.29335 186.35217 -435.44153
-152.40097 152.40112 -505.27005
-151.64226 121.31382 -523.58673
-151.90427 91.142624 -517.26129
-152.48314 60.993374 -503.28601
-153.06149 30.612337 -489.32327
-153.63304 4.8494425e-05 -475.52484
-154.20261 -30.840502 -461.77466
-154.78461 -61.913799 -447.7236
-155.36148 -93.216667 -433.79684
-155.94716 -124.75766 -419.65735
-156.54503 -156.54495 -405.22345
-157.17422 -188.60899 -390.03329
-157.71326 -220.79854 -377.01981
-158.36713 -253.38719 -361.23425
-158.98706 -286.17667 -346.2674
-159.58835 -319.17654 -331.75116
-160.16508 -352.36304 -317.82745
-126.5937 284.83594 -364.25177
-126.71011 253.42029 -360.73877
-127.10593 222.43552 -348.79434
-123.47112 185.20677 -458.48422
-121.31478 151.64359 -523.55737
-120.72103 120.72118 -541.47534
-120.93776 90.703529 -534.93506
-121.39543 60.697762 -521.1236
-121.85314 30.463345 -507.31094
-122.30593 9.1583344e-05 -493.647
-122.7611 -30.690193 -479.91089
-123.22218 -61.610912 -465.9967
-123.67764 -92.758179 -452.25156
-124.14158 -124.14156 -438.25113
-124.6172 -155.77141 -423.89798
-125.10835 -187.66243 -409.07617
-125.54514 -219.7038 -395.89505
-126.06094 -252.12175 -380.32916
-126.55196 -284.74176 -365.51166
-127.01804 -317.54498 -351.4462
-127.47526 -350.55695 -337.64844
-96.353188 224.82411 -307.60196
-92.038765 184.07764 -481.20056
-90.536087 150.89372 -541.66394
-90.101585 120.1356 -559.14667
-90.268295 90.268387 -552.43903
-90.60717 60.4049 -538.80402
-90.947144 30.31571 -525.12433
-91.283813 6.1230552e-05 -511.57776
-91.624832 -30.541479 -497.85635
-91.967285 -61.311447 -484.07666
-92.303696 -92.303535 -470.54086
-92.648239 -123.53094 -456.67752
-93.003349 -155.00555 -442.38885
-93.363113 -186.72614 -427.91296
-93.695923 -218.62372 -414.52188
-94.075867 -250.86893 -399.23395
-94.438499 -283.31543 -384.64276
-94.779434 -315.93149 -370.92468
-95.135574 -348.83035 -356.59473
-60.988838 182.96658 -503.55267
-60.060349 150.15094 -559.59216
-59.777996 119.55602 -576.6333
-59.891613 89.837425 -569.776
-60.114662 60.11478 -556.31421
-60.339134 30.169678 -542.76593
-60.561417 6.436657e-05 -529.34991
-60.788757 -30.394209 -515.62885
-61.014862 -61.014709 -501.98221
-61.235977 -91.853928 -488.63657
-61.463436 -122.92672 -474.90842
-61.698612 -154.24648 -460.71393
-61.932819 -185.79831 -446.57846
-62.158352 -217.55428 -432.96613
-62.403259 -249.61281 -418.18484
-62.643631 -281.89627 -403.67703
-62.866821 -314.33411 -390.20645
-63.112358 -347.11777 -375.38693
-30.328087 181.96861 -523.63074
-29.883224 149.41629 -577.33051
-29.745644 118.98265 -593.93805
-29.803547 89.410759 -586.94843
-29.913656 59.82737 -573.65692
-30.02482 30.024853 -560.23828
-30.135017 6.8966045e-05 -546.9364
-30.248438 -30.248344 -533.24512
-30.360527 -60.720848 -519.7149
-30.469652 -91.408913 -506.54214
-30.582529 -122.32999 -492.91696
-30.6991 -153.49548 -478.84537
-30.813435 -184.88042 -465.04422
-30.92799 -216.49582 -451.21585
-31.046202 -248.36955 -436.94653
-31.165575 -280.48999 -422.53705
-31.275154 -312.75153 -409.30975
-31.39838 -345.38193 -394.43524
4.6094932e-22 180.9678 -543.76599
1.2180258e-21 148.68681 -594.93835
8.2537388e-22 118.41433 -611.09143
4.2794752e-22 88.987984 -603.95837
2.2621229e-22 59.543106 -590.8208
-3.1755072e-23 29.881624 -577.54388
-4.4121064e-22 0.00011774224 -564.26886
8.245881e-22 -30.103874 -550.67896
9.5738401e-22 -60.430084 -537.27759
3.3341765e-22 -90.969139 -524.23126
5.7099656e-22 -121.73901 -510.75183
3.7441787e-23 -152.75159 -496.80118
3.6360742e-22 -183.97534 -483.25342
1.203014e-21 -215.44524 -469.33401
3.2786584e-22 -247.13741 -455.53781
2.7325879e-22 -279.0932 -441.27109
9.5048364e-22 -311.18863 -428.17535
1.0862979e-21 -343.66504 -413.27829
29.999386 179.9964 -563.30841
29.589323 147.94678 -612.80768
29.462902 117.85162 -628.06781
29.523159 88.569649 -620.79437
29.631666 59.263454 -607.69635
29.740391 29.740559 -594.5722
29.848858 6.5854874e-05 -581.47906
29.960487 -29.960459 -568.00415
30.070686 -60.141281 -554.70166
30.177855 -90.533371 -541.7655
30.288574 -121.1543 -528.40033
30.403034 -152.01497 -514.58386
30.514311 -183.08574 -501.1517
30.628878 -214.40204 -487.32227
30.739693 -245.91745 -473.94522
30.856342 -277.70688 -459.8649
30.965019 -309.65009 -446.74652
31.08606 -341.94662 -432.13525
59.688778 179.06654 -582.01825
58.885513 147.21396 -630.49976
58.646961 117.29395 -644.89752
58.770206 88.155434 -637.45898
58.98634 58.98653 -624.41406
59.20153 29.600826 -611.42633
59.415493 -9.5852774e-06 -598.51239
59.636173 -29.818094 -585.19318
59.854481 -59.854404 -572.01721
60.066772 -90.100105 -559.20416
60.286091 -120.57216 -545.96704
60.513058 -151.28253 -532.26862
60.733952 -182.20171 -518.93652
60.961857 -213.36653 -505.18115
61.177402 -244.70956 -492.17212
61.407906 -276.33557 -478.25977
61.628124 -308.14053 -464.96848
61.862549 -340.2439 -450.81967
89.072609 178.14539 -600.54962
87.892906 146.4883 -648.01746
87.556786 116.74244 -661.5415
87.744667 87.744774 -653.98193
88.067894 58.712086 -640.9762
88.387672 29.462646 -628.1095
88.70459 1.580682e-05 -615.3576
89.030754 -29.676682 -602.23383
89.355469 -59.570251 -589.16833
89.67054 -89.670448 -576.49115
89.996727 -119.99557 -563.36572
90.333565 -150.55592 -549.81262
90.662453 -181.32489 -536.57941
91.000282 -212.33388 -522.98602
91.321945 -243.52496 -510.04355
91.661392 -274.98407 -496.38489
91.992218 -306.64066 -483.07373
92.332558 -338.55258 -469.37933
118.15616 177.23434 -618.87726
116.61529 145.76929 -665.37708
116.19601 116.19613 -678.02985
116.45222 87.339218 -670.29767
116.87967 58.439926 -657.39868
117.30209 29.325529 -644.65088
117.72025 8.2635532e-05 -632.03174
118.14832 -29.537088 -619.11353
118.5772 -59.28849 -606.17114
118.99284 -89.244568 -593.62799
119.42271 -119.42259 -580.65576
119.86943 -149.83669 -567.17462
120.30375 -180.45547 -554.06793
120.74989 -211.31235 -540.60443
121.17657 -242.3531 -527.72803
121.61995 -273.64462 -514.34827
122.06117 -305.15274 -501.03317
122.50264 -336.88226 -487.71054
149.1004 328.02106 -584.95239
148.4718 296.94376 -600.12842
146.94775 176.33751 -636.92255
145.07431 145.07439 -682.15131
144.56842 115.65479 -694.3642
144.89513 86.937103 -686.47681
145.42619 58.170647 -673.65619
145.94821 29.189732 -661.05292
146.46553 8.5341075e-05 -648.56415
146.99335 -29.398722 -635.82135
147.52441 -59.009586 -623.00031
148.03677 -88.821991 -610.63086
148.56844 -118.85461 -597.79535
149.12389 -149.12375 -584.38586
149.66339 -179.59592 -571.3609
150.21396 -210.29941 -558.06891
150.74461 -241.19128 -545.25787
151.2899 -272.32169 -532.09369
151.84035 -303.68057 -518.80444
152.38564 -335.2482 -505.64001
178.0936 326.50507 -601.58844
177.43271 295.72144 -614.88434
178.10057 267.15106 -601.44806
179.94717 239.92966 -564.2973
175.47646 175.47652 -654.24066
173.26859 144.39058 -698.6601
172.67838 115.11906 -710.53418
173.07799 86.539131 -702.49451
173.71075 57.903721 -689.7644
174.32944 29.055073 -677.31738
174.94447 0.00011243291 -664.9436
175.56862 -29.261488 -652.38696
176.20064 -58.733334 -639.67181
176.80766 -88.403732 -627.45947
177.43825 -118.29203 -614.77283
178.10197 -148.41832 -601.41986
178.74467 -178.74446 -588.48993
179.39766 -209.29715 -575.35229
180.03125 -240.04149 -562.60596
180.68221 -271.02332 -549.50928
181.33284 -302.22144 -536.41949
181.98164 -333.633 -523.36682
206.93056 325.1767 -616.16534
206.00887 294.2984 -632.05927
206.52052 265.52652 -623.23608
207.662 237.32808 -603.5517
209.37328 209.37334 -574.04163
203.72801 174.62408 -671.39087
201.19832 143.71323 -715.01392
200.52831 114.58769 -726.56824
201.00392 86.1446 -718.36597
201.73695 57.639263 -705.72552
202.45062 28.921661 -693.41876
203.16159 7.3595285e-05 -681.15851
203.88225 -29.125793 -668.73126
204.60884 -58.45953 -656.2016
205.30804 -87.989159 -644.14404
206.03525 -117.73436 -631.60394
206.80632 -147.7188 -618.30731
207.55231 -177.90182 -605.4433
208.3037 -208.30354 -592.48596
209.03833 -238.90086 -579.81799
209.79639 -269.7381 -566.74548
210.54327 -300.77606 -553.86615
211.29295 -332.03165 -540.93829
235.22586 323.43561 -635.27063
234.58603 293.23267 -644.92493
234.89413 264.25595 -640.276
235.84441 235.84441 -625.93732
237.3085 207.64493 -603.84619
231.70108 173.77583 -688.45551
228.86722 143.0421 -731.21521
228.12318 114.06169 -742.44147
228.67557 85.753433 -734.10663
229.50833 57.377201 -721.5415
230.31392 28.789362 -709.38605
231.11902 0.00011295068 -697.23816
231.93509 -28.991741 -684.92474
232.75424 -58.188362 -672.56445
233.54323 -87.578537 -660.65961
234.36476 -117.18233 -648.26361
235.24228 -147.02632 -635.02271
236.08868 -177.06644 -622.2514
236.93938 -207.32179 -609.41565
237.77196 -237.77182 -596.85303
238.63484 -268.46408 -583.83301
239.47656 -299.34555 -571.13251
240.3252 -330.44705 -558.32758
263.48517 322.03751 -650.61316
262.67239 291.85825 -661.51434
262.96912 262.9693 -657.53479
263.93585 234.60977 -644.56885
265.3642 206.39447 -625.41144
259.39877 172.93256 -705.42114
256.27313 142.37415 -747.3432
255.46303 113.53925 -758.20868
256.0961 85.365356 -749.71777
257.02542 57.116817 -737.25323
257.92252 28.658175 -725.22119
258.82098 0.00015388661 -713.17065
259.73065 -28.858845 -700.9696
260.63583 -57.918999 -688.82947
261.51523 -87.171707 -677.03491
262.42984 -116.63529 -664.7677
263.40784 -146.33752 -651.65051
264.35934 -176.23947 -638.88861
265.30743 -206.35004 -626.17273
266.23425 -236.65248 -613.74164
267.20004 -267.19983 -600.78833
268.13385 -297.92633 -588.26367
269.08163 -328.87744 -575.55145
291.79416 320.97369 -662.28754
290.81888 290.81903 -674.0603
291.01096 261.90997 -671.74176
291.94928 233.55946 -660.41504
293.30856 205.31612 -644.00714
286.84091 172.10474 -722.07892
283.41473 141.70744 -763.4364
282.54935 113.01981 -773.88263
283.26535 84.979721 -765.23956
284.2865 56.85733 -752.91327
285.2699 28.527056 -741.0423
286.26016 0.00023362286 -729.08905
287.26276 -28.726126 -716.98669
288.26801 -57.653545 -704.85205
289.23505 -86.770561 -693.17877
290.23639 -116.09447 -681.09155
291.31186 -145.65579 -668.10962
292.366 -175.41951 -655.38495
293.40964 -205.38663 -642.78711
294.42984 -235.54381 -630.47217
295.4975 -265.94757 -617.58447
296.51492 -296.51483 -605.30334
297.56619 -327.32285 -592.61273
298.90414 -358.68481 -576.46259
319.7756 319.77582 -675.43396
318.45633 289.50583 -689.91113
318.68887 260.74551 -687.35968
319.63092 232.45888 -677.0213
321.16031 204.37482 -660.23865
314.02386 171.28592 -738.55188
310.30447 141.04755 -779.36719
309.39008 112.50558 -789.40131
310.19131 84.597694 -780.60889
311.29172 56.59848 -768.53357
312.36832 28.397219 -756.71924
313.4465 9.487545e-06 -744.88763
314.54044 -28.594481 -732.883
315.64566 -57.390026 -720.7547
316.70569 -86.374222 -709.12195
317.7959 -115.56206 -697.15851
318.96808 -144.98541 -684.29529
320.11081 -174.6058 -671.75519
321.24942 -204.43126 -659.26086
322.3562 -234.44077 -647.11487
323.52969 -264.70602 -634.23743
324.6283 -295.11661 -622.18195
325.78146 -325.78134 -609.52734
327.09293 -356.82861 -595.13544
347.46664 318.51126 -689.31042
345.88739 288.23959 -705.19623
346.01111 259.50839 -703.95178
347.15891 231.4393 -692.4057
348.72705 203.42429 -676.63147
340.9494 170.47476 -754.86884
336.94623 140.39438 -795.13763
335.98645 111.99564 -804.79205
336.87634 84.219131 -795.84039
338.05219 56.342098 -784.01251
339.22107 28.268446 -772.25415
340.3866 0.00011265679 -760.52966
341.56918 -28.464016 -748.63403
342.76645 -57.12756 -736.5907
343.92661 -85.981598 -724.92035
345.10382 -115.03438 -713.07861
346.36691 -144.31953 -700.37256
347.60077 -173.80037 -687.961
348.83008 -203.48419 -675.59534
350.01822 -233.3455 -663.64319
351.29999 -263.47482 -650.74976
352.4928 -293.74384 -638.75116
353.72534 -324.24814 -626.35272
355.08435 -355.08429 -612.68195
375.29803 317.55984 -699.74884
373.16153 287.04736 -719.58691
373.37363 258.48959 -717.61755
374.50906 230.46729 -707.07446
376.13043 202.532 -692.01935
367.62112 169.67134 -771.03198
363.34235 139.74719 -810.76257
362.34543 111.49103 -820.01898
363.32224 83.843651 -810.94897
364.56989 56.087769 -799.36407
365.83157 28.141087 -787.64911
367.08282 3.4160403e-05 -776.03021
368.35373 -28.334698 -764.22955
369.63901 -56.867432 -752.29523
370.90115 -85.592384 -740.57568
372.16351 -114.51175 -728.854
373.4968 -143.65251 -716.474
374.83679 -173.00146 -704.03131
376.15775 -202.54633 -691.76587
377.43164 -232.26559 -679.93719
378.8132 -262.25513 -667.10907
380.10074 -292.38513 -655.15332
381.42218 -322.74167 -642.88324
382.82425 -353.37604 -629.8645
401.95151 315.81915 -718.85205
400.3287 285.94925 -732.84399
400.34683 257.36594 -732.68762
401.48001 229.41727 -722.91742
403.1734 201.58672 -708.31641
394.04266 168.87538 -787.04346
389.49619 139.10587 -826.24402
388.46799 110.99104 -835.10938
389.53482 83.471939 -825.91125
390.85068 55.83596 -814.56549
392.19717 28.014153 -802.95557
393.53842 6.1685845e-05 -791.39117
394.89767 -28.206888 -779.6712
396.26932 -56.609787 -767.8446
397.63269 -85.206841 -756.08997
398.9769 -113.99326 -744.49969
400.37708 -142.9917 -732.42719
401.81299 -172.20534 -720.04651
403.23315 -201.61644 -707.80115
404.59247 -231.19565 -696.08112
406.07281 -261.04663 -683.3175
407.45291 -291.0376 -671.41791
408.86133 -321.24808 -659.27429
410.29218 -351.67899 -646.93707
429.01913 314.61423 -732.07538
427.07373 284.71591 -747.73047
427.24387 256.3465 -746.36139
428.39508 228.47751 -737.09747
430.26459 200.79021 -722.05255
420.21747 168.08702 -802.9054
415.4263 138.47552 -841.46198
414.36029 110.49628 -850.04071
415.51437 83.102936 -840.7533
416.89648 55.586342 -829.63104
418.32632 27.888609 -818.12476
419.75665 0.00016816807 -806.61414
421.20306 -28.080189 -794.97406
422.65948 -56.354561 -783.25378
424.11493 -84.822884 -771.54144
425.55014 -113.47986 -759.99152
427.01117 -142.33696 -748.23401
428.52911 -171.41162 -736.01874
430.06277 -200.69583 -723.67706
431.50421 -230.13547 -712.07709
433.08072 -259.84833 -699.3905
434.55414 -289.7027 -687.53339
436.04761 -319.76822 -675.5144
437.53625 -350.02896 -663.53479
455.26657 312.99585 -749.8338
453.51443 283.44659 -763.05255
453.60944 255.15541 -762.33588
454.98465 227.49251 -751.96039
456.88931 199.88918 -737.59106
446.14905 167.30591 -818.62
441.12405 137.85126 -856.53058
440.02274 110.00574 -864.83948
441.26694 82.73774 -855.45282
442.70886 55.338718 -844.57465
444.22037 27.763716 -833.17053
445.74066 0.00013580176 -821.70117
447.27139 -27.954319 -810.15259
448.81265 -56.101402 -798.52484
450.3512 -84.440788 -786.91724
451.88516 -112.9711 -775.34442
453.4025 -141.68814 -763.89703
455.00177 -170.62552 -751.83154
456.64499 -199.78218 -739.4342
458.17029 -229.08501 -727.927
459.84003 -258.65991 -715.32977
461.40781 -288.37991 -703.50153
462.98459 -318.30179 -691.60583
464.55255 -348.41437 -679.77606
481.44852 311.52563 -765.96777
479.72931 282.19385 -778.17529
480.02963 254.13344 -776.04291
481.33701 226.51166 -766.75958
483.40854 199.05063 -752.05048
471.84073 166.53212 -834.18945
466.5946 137.23381 -871.43982
465.46347 109.52089 -879.47156
466.79242 82.375092 -870.0354
468.29568 55.093567 -859.36115
469.88577 27.640448 -848.0705
471.49536 3.1818126e-05 -836.64154
473.10904 -27.829985 -825.18341
474.73029 -55.850449 -813.67145
476.35214 -84.062035 -802.1554
477.97977 -112.46577 -790.5979
479.55435 -141.04533 -779.41772
481.23093 -169.84615 -767.5127
482.98627 -198.87651 -755.04889
484.59219 -228.04332 -743.64557
486.33917 -257.47357 -731.24127
488.01743 -287.069 -719.32458
489.67563 -316.84879 -707.55011
491.31708 -346.81189 -695.89502
507.91086 310.38998 -778.42883
505.77536 280.98639 -792.74963
505.8898 252.94501 -791.98248
507.33661 225.48303 -782.27985
509.62811 198.18874 -766.91296
497.29941 165.76656 -849.59106
491.84857 136.62465 -886.14496
490.69327 109.043 -893.89264
492.09521 82.016037 -884.49115
493.68018 54.853424 -873.86188
495.34918 27.519405 -862.66962
497.02945 0.00012932056 -851.40149
498.72113 -27.706726 -840.05634
500.42258 -55.602413 -828.64642
502.12277 -83.687065 -817.24487
503.82706 -111.96146 -805.81567
505.47363 -140.40919 -794.77338
507.22156 -169.0737 -783.05151
509.08798 -197.97862 -770.53503
510.77682 -227.01192 -759.20923
512.55591 -256.27777 -747.27875
514.39008 -285.77219 -734.97833
516.12415 -315.40897 -723.34967
517.83649 -345.22424 -711.86609
533.6109 308.93274 -794.42145
531.55438 279.76559 -807.487
531.80566 251.90807 -805.89062
533.30847 224.55109 -796.34271
535.69135 197.36 -781.20398
522.52509 165.00803 -864.85156
516.87933 136.02094 -900.72003
515.70203 108.56887 -908.19989
517.18939 81.661621 -898.75037
518.84613 54.615501 -888.22491
520.59064 27.399519 -877.14142
522.35071 0.00012290158 -865.95935
524.11127 -27.584766 -854.77417
525.89148 -55.356865 -843.46442
527.67023 -83.316292 -832.16345
529.46301 -111.46587 -820.77374
531.19946 -139.78917 -809.742
533.02026 -168.32201 -798.17377
534.9649 -197.09213 -785.81915
536.73364 -225.99295 -774.58197
538.56451 -255.10942 -762.95032
540.51129 -284.47968 -750.5816
542.33746 -313.98483 -738.9801
544.10602 -343.64572 -727.7442
558.77802 307.328 -812.03101
557.14307 278.57172 -821.89886
557.3418 250.80391 -820.69952
558.88104 223.55247 -811.4093
561.41272 196.49457 -796.12933
547.521 164.25641 -879.97308
541.68994 135.42255 -915.16687
540.49426 108.09888 -922.38336
542.06964 81.310547 -912.87494
543.79266 54.379387 -902.47552
545.61517 27.280891 -891.47614
547.45178 8.56517e-05 -880.39075
549.27698 -27.463718 -869.37494
551.13641 -55.113594 -858.15198
552.99237 -82.948753 -846.95074
554.86487 -110.97289 -835.64893
556.69904 -139.17479 -824.57874
558.59064 -167.57704 -813.16211
560.59668 -196.20872 -801.05444
562.46063 -224.98413 -789.80469
564.36853 -253.96573 -778.28955
566.37189 -283.18582 -766.19781
568.32355 -312.57785 -754.41864
570.14062 -342.08429 -743.45142
603.1535 373.38089 -717.55176
604.68658 345.53534 -708.73901
584.255 306.03848 -826.18237
582.23724 277.25595 -837.7807
582.78522 249.7652 -834.6311
584.64777 222.72311 -823.9248
587.20831 195.73628 -809.20654
572.2923 163.51221 -894.94568
566.28314 134.82941 -929.48712
565.08075 107.63447 -936.39844
566.73285 80.961868 -926.9021
568.52448 54.145313 -916.60339
570.42157 27.163065 -905.69879
572.33551 2.2593944e-05 -894.69727
574.22504 -27.34387 -883.83618
576.15833 -54.872162 -872.72339
578.0921 -82.584465 -861.60785
580.04095 -110.48379 -850.40533
581.97754 -138.56595 -839.27386
583.93774 -166.83923 -828.00598
585.98676 -195.32898 -816.22815
587.96112 -223.98515 -804.87946
589.9444 -252.83325 -793.479
591.99841 -281.9039 -781.67236
594.05566 -311.17178 -769.84705
595.93976 -340.53705 -759.01685
638.72308 406.46027 -679.9776
631.6189 373.22943 -718.95697
631.61176 344.51569 -718.99658
608.7002 304.35019 -844.70856
607.04468 275.92953 -853.79218
607.86359 248.67162 -849.29913
610.09674 221.8535 -837.04596
612.9115 195.01738 -821.60229
596.83795 162.77406 -909.79504
590.66394 134.24193 -943.6709
589.45898 107.17445 -950.28217
591.18335 80.616035 -940.82092
593.04431 53.913219 -930.61017
595.01685 27.046278 -919.78705
597.0047 6.2422107e-05 -908.88025
598.9649 -27.225607 -898.12457
600.96411 -54.632927 -887.15558
602.97229 -82.223564 -876.13678
604.99835 -109.9997 -865.02014
607.03143 -137.96175 -853.86487
609.06262 -166.10793 -842.71979
611.15234 -194.45755 -831.25421
613.23608 -222.99486 -819.82098
615.29095 -251.70972 -808.54633
617.39392 -280.63348 -797.00775
619.55505 -309.7775 -785.14978
621.52972 -339.01602 -774.315
669.37659 407.44672 -671.47174
660.52655 373.34125 -717.91968
660.46149 344.58871 -718.26105
634.12048 303.27515 -856.50635
632.01208 274.78796 -867.57184
633.67554 247.96011 -858.84143
636.35681 221.3416 -844.76953
639.67999 194.68542 -827.32867
621.16309 162.04269 -924.51068
614.83099 133.65901 -957.7431
613.62976 106.71828 -964.04761
615.42798 80.273308 -954.61005
617.3548 53.683167 -944.49756
619.40161 26.930494 -933.75513
621.45978 0.0001050531 -922.95331
623.49158 -27.108202 -912.2901
625.55463 -54.395981 -901.46234
627.63818 -81.865753 -890.52734
629.7356 -109.51913 -879.51941
631.84485 -137.35745 -868.44965
633.96826 -165.3829 -857.30518
636.09204 -193.59314 -846.15887
638.28625 -222.01248 -834.64319
640.41559 -250.59735 -823.46783
642.5639 -279.37558 -812.19269
644.82452 -308.39426 -800.32831
646.89935 -337.51263 -789.43909
703.57019 410.41611 -645.86981
690.50372 374.02301 -711.58929
689.71295 344.85654 -715.56659
659.02252 302.05215 -869.92737
657.39569 273.91492 -878.10986
660.4032 247.65131 -862.98322
664.08752 221.3627 -844.45251
667.77887 194.76886 -825.88635
645.27045 161.31772 -939.09485
638.76672 133.07657 -971.80646
637.58667 106.26451 -977.74146
639.46741 79.933601 -968.28235
641.46094 53.455254 -958.25519
643.57635 26.815771 -947.61554
645.70801 6.7907815e-05 -936.8941
647.81 -26.991865 -926.3222
649.93268 -54.160954 -915.64569
652.08807 -81.510994 -904.80524
654.26007 -109.04333 -893.88062
656.43951 -136.75809 -882.91907
658.64069 -164.66019 -871.84778
660.8183 -192.7386 -860.89545
663.12146 -221.04042 -849.31128
665.31909 -249.49455 -838.258
667.51172 -278.12985 -827.22998
669.87177 -307.02438 -815.35999
672.04492 -336.02231 -804.42993
734.30304 411.20996 -639.02618
722.76489 375.83795 -694.73718
691.35394 331.8501 -846.40259
684.29004 301.08777 -880.51019
685.96484 274.38611 -872.42352
690.44446 248.56015 -850.79407
693.97998 222.07373 -833.72314
697.82166 195.39009 -815.17365
669.30975 160.63445 -952.84149
662.44598 132.48932 -985.9826
661.31995 105.8112 -991.41974
663.31342 79.597656 -981.79443
665.37262 53.229927 -971.85162
667.51758 26.700886 -961.49481
669.72137 7.2654184e-05 -950.85364
671.89691 -26.875725 -940.34937
674.12738 -53.930012 -929.57983
676.35345 -81.162323 -918.8316
678.58936 -108.57433 -908.03552
680.83514 -136.16692 -897.19177
683.08856 -163.94119 -886.31128
685.32965 -191.8922 -875.49072
687.74524 -220.07843 -863.82709
690.00189 -248.40045 -852.93097
692.23547 -276.8942 -842.14594
694.69757 -305.66687 -830.2583
696.95398 -334.53787 -819.36285
760.23083 409.35516 -655.01733
749.66504 374.83264 -704.07117
748.57428 345.49591 -709.13513
750.16455 317.37735 -701.75201
754.11505 290.04431 -683.41107
758.68817 262.62299 -662.17932
731.45667 225.06369 -788.60736
732.50629 197.21338 -783.73444
693.15356 159.9586 -966.43811
685.91724 131.90727 -1000.0342
684.854 105.36224 -1004.9705
686.95752 79.264305 -995.20465
689.08362 53.006523 -985.33374
691.25439 26.586853 -975.25525
693.52679 0.0001677874 -964.70508
695.77002 -26.760279 -954.29071
698.12659 -53.701923 -943.34943
700.42957 -80.818695 -932.65747
702.73529 -108.11298 -921.95294
705.05109 -135.58658 -911.20105
707.35431 -163.2355 -900.50787
709.68542 -191.06908 -889.68506
712.12457 -219.1151 -878.36084
714.46918 -247.31621 -867.47546
716.75879 -275.67645 -856.84521
719.26276 -304.30341 -845.22058
721.60699 -333.04935 -834.33649
789.59534 409.41995 -654.4588
778.02765 374.60614 -706.17529
777.13239 345.39236 -710.17804
779.43243 317.54657 -699.89496
785.06641 290.76538 -674.70673
789.99774 263.33267 -652.65973
793.94574 235.24316 -635.00897
797.2713 206.70006 -620.14148
716.69714 159.26604 -980.36975
709.18317 131.33031 -1013.9628
708.18909 104.91692 -1018.407
710.40442 78.933861 -1008.503
712.59631 52.784996 -998.70325
714.81683 26.474768 -988.77594
717.13165 9.8372882e-05 -978.42706
719.48932 -26.647684 -967.88647
721.92108 -53.475548 -957.0144
724.30017 -80.477646 -946.37842
726.6795 -107.65604 -935.74091
729.05109 -135.00951 -925.13788
731.39117 -162.53136 -914.67603
733.83057 -190.25229 -903.7702
736.2995 -218.16278 -892.73199
738.72638 -246.2421 -881.8819
741.05933 -274.46637 -871.45178
743.59888 -302.9476 -860.09851
746.00079 -331.55594 -849.35986
817.7384 408.86942 -659.2066
807.54663 374.93262 -703.14398
807.36536 346.01385 -703.92542
810.80817 318.53189 -689.08325
816.98907 291.78195 -662.43689
822.6203 264.41367 -638.1601
826.69031 236.19724 -620.61371
829.51794 207.37964 -608.4234
739.99127 158.56966 -994.38159
732.2439 130.75786 -1027.7811
731.32538 104.47509 -1031.7412
733.65662 78.606262 -1021.691
735.91339 52.565289 -1011.9617
738.19702 26.364285 -1002.1168
740.53357 4.6830315e-05 -992.0437
743.01764 -26.536203 -981.33466
745.51843 -53.251129 -970.55371
747.9649 -80.139 -960.00641
750.41956 -107.20267 -949.4245
752.82086 -134.4321 -939.07184
755.22418 -161.83363 -928.711
757.77014 -189.44238 -917.73547
760.26245 -217.21765 -906.99084
762.77112 -245.17638 -896.17542
765.164 -273.27274 -885.85962
767.76636 -301.62247 -874.6405
770.19635 -330.08408 -864.16455
773.388 -359.07278 -850.4054
845.16821 408.01248 -666.59503
835.80548 374.67154 -705.56677
836.89722 346.30243 -701.02289
841.74036 319.28085 -680.86328
848.52271 292.59409 -652.63232
853.88635 264.99936 -630.30652
857.73535 236.61678 -614.28528
860.58685 207.72787 -602.41608
763.276 157.91933 -1007.4662
755.20837 130.20847 -1041.0474
754.36072 104.04989 -1044.5756
756.70868 78.280388 -1034.8024
759.0451 52.348049 -1025.0773
761.39069 26.254925 -1015.3139
763.76941 6.3344116e-05 -1005.4125
766.32336 -26.424856 -994.78223
768.9024 -53.027771 -984.04657
771.42584 -79.802681 -973.54297
773.81604 -106.73321 -963.59399
776.07581 -133.80609 -954.18805
778.63281 -161.09639 -943.54443
781.22339 -188.57095 -932.76147
783.83691 -216.23079 -921.88324
786.31873 -244.02974 -911.55249
788.79657 -271.99869 -901.23853
791.64069 -300.2774 -889.40021
794.22968 -328.64664 -878.62372
797.24036 -357.38339 -866.09192
872.77148 407.29358 -672.79364
866.10205 375.31091 -699.62933
867.71515 347.08606 -693.13873
873.90198 320.43091 -668.24469
880.03467 293.34506 -643.56873
885.02246 265.50681 -623.49933
889.33594 237.15633 -606.14319
892.93005 208.35052 -591.68182
786.62366 157.32475 -1019.4258
778.0791 129.67995 -1053.8064
777.23322 103.63119 -1057.2097
779.54633 77.954758 -1047.9023
781.99438 52.133064 -1038.0525
784.17633 26.139343 -1029.2727
786.66711 7.6841796e-05 -1019.2505
789.14099 -26.304571 -1009.2967
791.59174 -52.772614 -999.43555
794.10504 -79.4104 -989.32281
796.69012 -106.22528 -978.92151
799.27521 -133.21254 -968.51965
801.8941 -160.37872 -957.98199
804.49609 -187.71576 -947.51251
807.16364 -215.24361 -936.77881
809.82886 -242.94867 -926.05505
812.47974 -270.82651 -915.38873
815.22693 -298.91647 -904.33496
818.03992 -327.21588 -893.01648
821.00275 -355.76776 -881.09479
925.11414 447.63602 -582.25952
901.06134 406.93103 -675.91833
897.49866 376.37061 -689.79108
899.59503 348.2305 -681.62817
905.48578 321.30148 -658.69025
911.82568 294.13745 -634.00336
917.74554 266.44226 -610.95178
922.52045 238.06995 -592.35907
927.17694 209.36263 -574.22705
809.59241 156.69531 -1032.0889
798.41907 128.7774 -1075.5964
799.38348 103.14627 -1071.8411
801.776 77.591347 -1062.5248
804.271 51.888634 -1052.8096
806.76215 26.024708 -1043.1091
809.28833 0.00012351603 -1033.2726
811.85846 -26.188982 -1023.2649
814.57202 -52.552929 -1012.6987
817.12189 -79.076263 -1002.7698
819.80493 -105.78117 -992.32227
822.6756 -132.68959 -981.14398
825.18951 -159.714 -971.35504
827.73059 -186.9068 -961.46075
830.41632 -214.3009 -951.0025
833.15515 -241.88364 -940.33789
835.75739 -269.59912 -930.20502
838.73517 -297.61554 -918.60992
841.60144 -325.78113 -907.44867
