# .PCD v0.7 - Point Cloud Data file format
VERSION 0.7
FIELDS x y z
SIZE 4 4 4
TYPE F F F
COUNT 1 1 1
WIDTH 1489
HEIGHT 1
VIEWPOINT 0 0 0 1 0 0 0
POINTS 1489
DATA ascii
-74.102753 -12.350471 -89.593613
-74.05455 -14.399511 -89.755234
-74.069695 -16.459951 -89.704445
-74.08783 -18.521969 -89.643639
-74.037415 -20.565958 -89.812675
-74.014099 -22.615438 -89.890854
-74.038658 -24.679573 -89.808495
-74.068451 -26.746954 -89.708603
-74.241486 -28.871698 -89.128433
-72.003029 34.972893 -89.736092
-70.603218 32.275738 -94.563866
-70.374619 30.160526 -95.352287
-70.280411 28.112148 -95.677177
-70.216072 26.08024 -95.899094
-70.202065 24.069271 -95.947395
-70.188065 22.059088 -95.995659
-70.175911 20.050243 -96.03759
-70.164909 18.042398 -96.075554
-70.154129 16.035212 -96.112709
-70.162842 14.032557 -96.082672
-70.18853 12.032302 -95.994087
-70.21331 10.030453 -95.9086
-70.226402 8.0258598 -95.863464
-70.21698 6.0185928 -95.895935
-70.208488 4.0118999 -95.925224
-70.199997 2.0056996 -95.954514
-70.190826 -2.0819209e-05 -95.98616
-70.239952 -2.0068641 -95.816719
-70.292603 -4.0167389 -95.635124
-70.292603 -6.0250936 -95.635124
-70.292603 -8.033452 -95.635124
-70.292603 -10.041823 -95.635124
-70.218361 -12.03745 -95.891174
-70.194031 -14.038827 -95.97509
-70.205734 -16.047039 -95.934731
-70.221123 -18.056868 -95.881676
-70.191505 -20.054731 -95.983788
-70.146111 -22.045935 -96.140366
-70.167885 -24.057577 -96.065269
-70.195869 -26.072763 -95.968758
-70.296516 -28.118614 -95.621643
-67.845848 33.922909 -97.191582
-66.833778 31.451181 -100.78471
-66.717079 29.433985 -101.19907
-66.633324 27.437233 -101.49641
-66.595886 25.463114 -101.62934
-66.58313 23.499907 -101.67461
-66.570595 21.537529 -101.71913
-66.561462 19.576887 -101.75155
-66.553604 17.617121 -101.77945
-66.54554 15.657756 -101.8081
-66.539383 13.699265 -101.82995
-66.533653 11.741216 -101.85029
-66.527496 9.7834473 -101.87214
-66.537895 7.8279777 -101.83522
-66.547234 5.8717985 -101.80206
-66.542564 3.9142578 -101.81864
-66.589294 1.9584926 -101.65273
-66.595886 -1.5243533e-05 -101.62934
-66.591637 -1.9585887 -101.64443
-66.590996 -3.9171407 -101.64669
-66.590782 -5.8756771 -101.64745
-66.590782 -7.8342247 -101.64745
-66.590782 -9.7927771 -101.64745
-66.591843 -11.751517 -101.64368
-66.595459 -13.710844 -101.63085
-66.547447 -15.658241 -101.80131
-66.542778 -17.614279 -101.81789
-66.521133 -19.565046 -101.89473
-66.529617 -21.524303 -101.8646
-66.542564 -23.48563 -101.81864
-66.561676 -25.450066 -101.75079
-66.600136 -27.423605 -101.61423
-66.810448 -29.475212 -100.86755
-65.155533 33.564957 -99.733269
-63.568901 30.82127 -105.53699
-63.507294 28.866938 -105.76236
-63.479416 26.930647 -105.86433
-63.467281 25.002253 -105.90872
-63.458527 23.075817 -105.94073
-63.451763 21.150576 -105.96547
-63.446198 19.226103 -105.98583
-63.440632 17.301971 -106.0062
-63.435066 15.378186 -106.02656
-63.431686 13.455189 -106.03891
-63.428509 11.532436 -106.05054
-63.422943 9.6095266 -106.07089
-63.418373 7.6870637 -106.08761
-63.416786 5.7651453 -106.09341
-63.415195 3.8433273 -106.09924
-63.413406 1.9216018 -106.10577
-63.412018 -8.8420647e-06 -106.11086
-63.410633 -1.9215442 -106.11594
-63.410435 -3.8430698 -106.11668
-63.410435 -5.7645988 -106.11666
-63.410435 -7.68613 -106.11666
-63.410633 -9.6076908 -106.11594
-63.410229 -11.529146 -106.11739
-63.410034 -13.450628 -106.11813
-63.409039 -15.371901 -106.12176
-63.408047 -17.293118 -106.12538
-63.407455 -19.214394 -106.12756
-63.40884 -21.136297 -106.12247
-63.414204 -23.059723 -106.10287
-63.421951 -24.984419 -106.07452
-63.441628 -26.914654 -106.00256
-63.482803 -28.855835 -105.85195
-74.468536 -40.619225 -65.667221
-73.303551 -42.205093 -69.928635
-72.985931 -44.23391 -71.090462
-62.953415 33.443993 -100.59222
-61.899696 30.949829 -104.56708
-61.836723 28.985949 -104.80463
-61.820175 27.046316 -104.86705
-61.808304 25.109608 -104.91184
-61.797211 23.173937 -104.95366
-61.787292 21.23937 -104.99107
-61.781265 19.306631 -105.01381
-61.775631 17.374382 -105.03508
-61.769993 15.442478 -105.05634
-61.766106 13.51132 -105.07099
-61.762604 11.58047 -105.0842
-61.759113 9.6498404 -105.09738
-61.756001 7.7194862 -105.10911
-61.749207 5.7889757 -105.13475
-61.741051 3.8588045 -105.16551
-61.737358 1.9292748 -105.17943
-61.735031 -1.7840608e-05 -105.18822
-61.73328 -1.9291862 -105.19481
-61.732704 -3.8583083 -105.19702
-61.732895 -5.787477 -105.19627
-61.732895 -7.7166247 -105.19627
-61.732895 -9.6457767 -105.19628
-61.732895 -11.57493 -105.19628
-61.732895 -13.504081 -105.19627
-61.73328 -15.433338 -105.19482
-61.733479 -17.362555 -105.19408
-61.734642 -19.292089 -105.18969
-61.737167 -21.22216 -105.18017
-61.743378 -23.153784 -105.15672
-61.752895 -25.08713 -105.12083
-61.771935 -27.025238 -105.049
-61.829128 -28.98242 -104.83327
-73.111679 -36.555855 -62.273144
-71.620537 -38.048424 -67.898033
-71.051102 -39.966267 -70.046051
-70.741081 -42.002537 -71.215515
-70.601425 -44.125908 -71.742332
-70.609802 -46.337704 -71.710716
-60.934147 33.415489 -100.79459
-60.237854 31.090494 -103.50588
-60.167545 29.113312 -103.77969
-60.144905 27.162205 -103.86784
-60.132736 25.216948 -103.91523
-60.122849 23.27334 -103.95371
-60.112968 21.330397 -103.9922
-60.107075 19.389368 -104.01513
-60.101379 17.448772 -104.03731
-60.09549 15.508496 -104.06023
-60.091312 13.568995 -104.0765
-60.087326 11.629785 -104.09203
-60.08353 9.6908779 -104.1068
-60.080494 7.7523117 -104.11863
-60.077835 5.8139715 -104.12897
-60.074993 3.875797 -104.14005
-60.072147 1.9377981 -104.15115
-60.069489 -5.1999273e-06 -104.16148
-60.067211 -1.9376709 -104.17034
-60.066647 -3.8752816 -104.17256
-60.066647 -5.8129139 -104.17255
-60.066837 -7.7505679 -104.17182
-60.066837 -9.6882172 -104.17183
-60.066837 -11.625856 -104.17182
-60.067402 -13.563617 -104.16961
-60.068352 -15.50152 -104.16592
-60.069679 -17.439602 -104.16074
-60.071579 -19.377951 -104.15336
-60.074993 -21.316946 -104.14006
-60.081821 -23.257492 -104.11346
-60.091694 -25.199759 -104.07502
-60.109737 -27.146345 -104.00477
-60.171349 -29.115179 -103.76485
-69.422409 -35.830925 -67.742233
-68.873878 -37.769562 -69.878143
-68.577866 -39.819416 -71.0308
-68.468254 -41.964424 -71.457596
-68.454208 -44.164021 -71.512283
-68.534126 -46.42635 -71.201103
-59.044575 33.458576 -100.48862
-58.557869 31.230846 -102.44698
-58.485302 29.24264 -102.73895
-58.46468 27.283506 -102.82192
-58.45113 25.32881 -102.87647
-58.441849 23.376726 -102.9138
-58.432388 21.4252 -102.95187
-58.426823 19.475588 -102.97426
-58.421074 17.526304 -102.9974
-58.415508 15.577456 -103.01977
-58.411247 13.629271 -103.03693
-58.407169 11.681425 -103.05333
-58.403091 9.7338266 -103.06974
-58.399754 7.7866273 -103.08316
-58.39698 5.8396778 -103.09435
-58.394012 3.8929157 -103.10627
-58.391235 1.9463608 -103.11745
-58.388271 -2.1364196e-05 -103.12938
-58.385494 -1.9462008 -103.14056
-58.385311 -3.8923709 -103.1413
-58.385311 -5.8385406 -103.1413
-58.385311 -7.7847266 -103.1413
-58.385311 -9.730896 -103.1413
-58.385311 -11.677078 -103.14131
-58.385864 -13.623384 -103.13907
-58.387535 -15.570022 -103.13236
-58.389198 -17.516775 -103.12566
-58.391605 -19.463888 -103.11596
-58.3955 -21.411692 -103.10031
-58.402168 -23.360888 -103.07347
-58.411804 -25.311796 -103.03468
-58.428303 -27.266556 -102.96829
-58.502403 -29.251213 -102.67014
-66.692223 -35.569206 -69.716835
-66.418114 -37.636948 -70.819763
-66.33889 -39.803345 -71.138588
-66.333626 -42.011303 -71.159752
-66.399193 -44.26614 -70.895935
-66.583664 -46.60857 -70.153679
-57.257523 33.564739 -99.734795
-56.866276 31.374477 -101.36335
-56.791492 29.374903 -101.67461
-56.766853 27.404665 -101.77718
-56.752182 25.440624 -101.83823
-56.7435 23.480051 -101.87439
-56.734997 21.520161 -101.90979
-56.724865 19.560287 -101.95196
-56.717628 17.602011 -101.98206
-56.712208 15.644734 -102.00463
-56.708054 13.688131 -102.02193
-56.704258 11.7319 -102.03773
-56.700825 9.7759886 -102.05202
-56.697575 7.8203416 -102.06557
-56.694862 5.8649769 -102.07684
-56.691971 3.9097724 -102.08887
-56.689083 1.954784 -102.10091
-56.68655 -8.3651503e-06 -102.11143
-56.684208 -1.9546417 -102.12121
-56.683662 -3.9092317 -102.12345
-56.683846 -5.8638616 -102.1227
-56.683846 -7.8184714 -102.12271
-56.683662 -9.7730598 -102.12345
-56.684025 -11.72775 -102.12196
-56.684563 -13.682492 -102.11971
-56.685833 -15.637486 -102.11443
-56.687458 -17.592674 -102.10767
-56.689442 -19.548103 -102.0994
-56.693054 -21.504276 -102.08436
-56.699558 -23.461908 -102.05729
-56.708775 -25.42119 -102.01894
-56.724319 -27.384172 -101.95422
-56.816883 -29.38806 -101.56893
-64.250786 -35.448719 -70.625793
-64.200241 -37.634644 -70.836151
-64.212296 -39.855915 -70.786018
-64.294434 -42.123959 -70.444099
-64.393089 -44.409031 -70.033455
-64.800209 -46.924297 -68.338852
-55.522007 33.709782 -98.704956
-55.15498 31.517117 -100.28725
-55.078938 29.506569 -100.61507
-55.05299 27.526485 -100.72694
-55.038353 25.553505 -100.79003
-55.030418 23.584452 -100.82425
-55.022312 21.615894 -100.85919
-55.014557 19.648035 -100.89262
-55.0098 17.681707 -100.91312
-55.005222 15.715766 -100.93286
-55.001701 13.750408 -100.94806
-54.998531 11.785382 -100.96172
-54.995361 9.8205881 -100.97537
-54.992371 7.8560414 -100.98828
-54.989727 5.8917418 -100.99966
-54.987267 3.9276443 -101.01029
-54.984978 1.9637344 -101.02015
-54.982685 -2.172956e-05 -101.03001
-54.968437 -1.9631726 -101.09145
-54.968086 -3.9263134 -101.09296
-54.968086 -5.8894515 -101.09296
-54.968086 -7.8525987 -101.09296
-54.968086 -9.8157501 -101.09296
-54.968262 -11.778929 -101.0922
-54.968613 -13.742165 -101.09068
-54.978992 -15.708295 -101.04595
-54.982513 -17.672964 -101.03077
-54.984447 -19.63732 -101.02243
-54.987087 -21.602087 -101.01104
-54.992542 -23.568247 -100.98752
-55.001347 -25.536354 -100.94957
-55.015789 -27.507915 -100.8873
-55.113041 -29.52486 -100.46804
-62.048908 -35.456535 -70.566879
-62.075363 -37.688625 -70.452812
-62.180065 -39.972908 -70.001434
-62.377621 -42.327682 -69.149773
-62.58646 -44.704632 -68.249428
-53.771431 33.856068 -97.666168
-53.441147 31.668814 -99.142784
-53.351994 29.639986 -99.541367
-53.334644 27.654989 -99.618935
-53.320396 25.67277 -99.68264
-53.307697 23.692299 -99.739403
-53.294495 21.712561 -99.798439
-53.289177 19.736719 -99.822205
-53.284893 17.76162 -99.841354
-53.279411 15.786483 -99.865875
-53.274952 13.812006 -99.885796
-53.272213 11.838254 -99.898048
-53.26947 9.8647079 -99.910301
-53.267075 7.8914032 -99.921028
-53.265018 5.9183235 -99.930214
-53.263134 3.9454076 -99.938637
-53.261253 1.9726254 -99.947052
-53.259369 -1.3118175e-05 -99.955475
-53.257824 -1.9725291 -99.962364
-53.257652 -3.9450247 -99.963135
-53.257652 -5.9175353 -99.963135
-53.257652 -7.8900385 -99.963142
-53.257484 -9.8625145 -99.963898
-53.257652 -11.835046 -99.963135
-53.257999 -13.80765 -99.961601
-53.257824 -15.780119 -99.962364
-53.258171 -17.752739 -99.960838
-53.259197 -19.725641 -99.956245
-53.26091 -21.698906 -99.948593
-53.265358 -23.673502 -99.928688
-53.273239 -25.650099 -99.893448
-53.290379 -27.632069 -99.816841
-53.397739 -29.665426 -99.336853
-59.928543 -35.513229 -70.139153
-60.029095 -37.796116 -69.689613
-60.201435 -40.134308 -68.919128
-60.558838 -42.615498 -67.321243
-61.148087 -45.294891 -64.686867
-52.005424 34.003529 -96.61911
-51.706551 31.819408 -98.006683
-51.622723 29.782324 -98.395897
-51.597839 27.783438 -98.511391
-51.582157 25.791058 -98.584213
-51.572819 23.802832 -98.627563
-51.561317 21.814394 -98.680969
-51.556484 19.829403 -98.703407
-51.552986 17.845245 -98.71965
-51.544823 15.859929 -98.757553
-51.540157 13.876178 -98.779205
-51.537827 11.893327 -98.790016
-51.535831 9.910718 -98.799294
-51.534164 7.9283218 -98.807022
-51.532833 5.9460883 -98.81321
-51.53117 3.9639289 -98.820938
-51.529503 1.9818854 -98.828659
-51.520515 -1.7772058e-05 -98.870384
-51.519184 -1.9815255 -98.876564
-51.519184 -3.9630356 -98.876564
-51.51902 -5.9445171 -98.877335
-51.51902 -7.9260268 -98.877342
-51.51902 -9.9075155 -98.877342
-51.51902 -11.889027 -98.877335
-51.518852 -13.870477 -98.878113
-51.518353 -15.851818 -98.88044
-51.520016 -17.833868 -98.872711
-51.525509 -19.817516 -98.847214
-51.526508 -21.799694 -98.842567
-51.530502 -23.783325 -98.824028
-51.542992 -25.771511 -98.766052
-51.56765 -27.767216 -98.651566
-51.74194 -29.851135 -97.842384
-57.874161 -35.614883 -69.372192
-58.041149 -37.949993 -68.596954
-58.302067 -40.362984 -67.385567
-58.901386 -43.043331 -64.603096
-60.456161 -46.504761 -57.384689
-50.231365 34.15731 -95.527153
-49.988918 31.992887 -96.6978
-49.866055 29.919613 -97.291023
-49.84742 27.914539 -97.381012
-49.831551 25.91239 -97.457649
-49.825722 23.91633 -97.485779
-49.816822 21.919392 -97.528755
-49.81245 19.924967 -97.549843
-49.804367 17.92956 -97.58889
-49.796444 15.934854 -97.627144
-49.79208 13.941764 -97.648224
-49.790462 11.949707 -97.656021
-49.788685 9.9577198 -97.664597
-49.785454 7.9656649 -97.680214
-49.784481 5.974122 -97.684898
-49.783352 3.9826517 -97.690353
-49.775761 1.9910152 -97.72702
-49.767036 -1.072549e-05 -97.769127
-49.766392 -1.9906676 -97.77224
-49.766392 -3.9813275 -97.772247
-49.766232 -5.9719629 -97.773018
-49.766392 -7.9626412 -97.772247
-49.766392 -9.9532957 -97.77224
-49.766071 -11.943872 -97.773811
-49.766716 -13.934691 -97.770683
-49.778828 -15.929238 -97.712196
-49.777374 -17.919872 -97.719208
-49.778667 -19.911482 -97.712975
-49.778667 -21.90263 -97.712975
-49.781574 -23.895172 -97.698936
-49.791756 -25.891727 -97.64978
-49.815041 -27.896439 -97.537338
-50.082115 -30.049284 -96.247795
-55.82972 -35.731041 -68.495911
-56.228603 -38.235466 -66.569916
-56.627373 -40.771725 -64.644485
-57.741405 -43.883492 -59.265442
-48.699444 32.466286 -93.126366
-48.1469 30.091797 -95.905434
-48.072083 28.042034 -96.281738
-48.028805 26.015589 -96.499405
-48.009544 24.004765 -96.596283
-47.988579 21.994745 -96.701729
-47.967945 19.986633 -96.805519
-47.950451 17.9814 -96.893501
-47.934841 15.978269 -96.972023
-47.924541 13.977979 -97.023811
-47.925636 11.981392 -97.018311
-47.928909 9.9851694 -97.001839
-47.933903 7.9889731 -96.976723
-47.950603 5.9938111 -96.892723
-47.975288 3.9979274 -96.76857
-48.028961 2.0011847 -96.498611
-48.427803 -1.65125e-05 -94.492599
-49.667442 -2.0694916 -88.257698
-48.110722 -4.0092483 -96.087418
-48.045731 -6.005734 -96.414284
-48.045414 -8.0075817 -96.415863
-48.045261 -10.009435 -96.416649
-48.044788 -12.011215 -96.419006
-48.056076 -14.016376 -96.362228
-48.071453 -16.02384 -96.284897
-48.069416 -18.026043 -96.295151
-48.068157 -20.028414 -96.301476
-48.09705 -22.044498 -96.156174
-48.098774 -24.049408 -96.147476
-48.13195 -26.071491 -95.980629
-48.200485 -28.116961 -95.635933
-53.813557 -33.63348 -67.404373
-53.963829 -35.975895 -66.648529
-54.574844 -38.6572 -63.575375
-55.418606 -41.563965 -59.331562
-46.480602 32.33432 -94.121941
-46.296848 30.193586 -95.086327
-46.218307 28.132874 -95.498558
-46.169765 26.095938 -95.753304
-46.140179 24.073118 -95.9086
-46.11982 22.057285 -96.015442
-46.09948 20.043236 -96.122192
-46.081413 18.031841 -96.216995
-46.074642 16.02594 -96.252533
-46.069229 14.021063 -96.280952
-46.065468 12.01706 -96.30069
-46.061108 10.013269 -96.32357
-46.056446 8.0098019 -96.348022
-46.077801 6.0101337 -96.235962
-46.102943 4.0089393 -96.104012
-46.138821 2.0060256 -95.915733
-46.32238 -1.7802302e-05 -94.952332
-47.333099 -2.0579731 -89.647789
-62.010643 -5.3922443 -12.61576
-61.90184 -8.0741758 -13.186798
-47.404491 -8.244277 -89.273102
-47.044174 -10.227007 -91.164146
-46.956982 -12.249657 -91.62178
-47.001709 -14.30488 -91.387024
-47.043545 -16.362989 -91.167442
-47.03994 -18.40695 -91.186378
-47.147755 -20.499048 -90.620529
-51.266308 -24.518688 -69.005165
-51.368576 -26.801008 -68.468445
-51.497547 -29.107319 -67.791565
-51.657787 -31.443882 -66.950569
-52.015572 -33.923206 -65.072815
-52.295658 -36.379601 -63.602848
-53.192581 -39.316277 -58.895527
-44.663017 32.482178 -93.006416
-44.488285 30.332909 -93.965141
-44.415527 28.264408 -94.364357
-44.37479 26.221443 -94.587875
-44.337326 24.183977 -94.793419
-44.318115 22.159044 -94.898849
-44.298622 20.135729 -95.005791
-44.280746 18.114834 -95.103867
-44.274212 16.099705 -95.139732
-44.268982 14.085578 -95.168411
-44.265209 12.07231 -95.189117
-44.264774 10.060157 -95.191513
-44.267387 8.0485973 -95.17717
-44.279438 6.0380917 -95.111031
-44.297604 4.0270338 -95.011368
-44.324223 2.0147216 -94.865318
-44.446239 -1.5789976e-05 -94.195839
-45.165607 -2.0530014 -90.248772
-49.820869 -4.5291882 -64.706032
-59.466618 -8.1090994 -11.781281
-52.829212 -9.6053209 -48.199734
-50.661587 -11.51401 -60.093163
-49.556198 -13.515348 -66.158249
-49.159855 -15.641789 -68.332939
-49.019173 -17.825171 -69.104828
-49.021309 -20.054182 -69.093124
-49.070141 -22.304621 -68.825203
-49.165047 -24.582546 -68.304451
-49.336662 -26.910923 -67.362823
-49.586601 -29.30118 -65.991447
-49.834854 -31.71311 -64.629326
-50.28038 -34.282082 -62.184799
-50.816074 -36.957161 -59.245499
-42.827446 32.630421 -91.888008
-42.667187 30.476549 -92.809212
-42.599472 28.399635 -93.198441
-42.556137 26.344257 -93.447548
-42.518921 24.296518 -93.661461
-42.495079 22.259319 -93.798492
-42.476448 20.22687 -93.905602
-42.465248 18.199375 -93.969978
-42.459229 16.174934 -94.00457
-42.453915 14.151285 -94.035126
-42.447483 12.127831 -94.072105
-42.444405 10.105798 -94.08979
-42.446781 8.0850849 -94.076126
-42.45797 6.0654144 -94.011803
-42.478271 4.0455332 -93.895142
-42.503071 2.023942 -93.752563
-42.595249 -9.7119018e-06 -93.222725
-43.105701 -2.0526669 -90.288574
-46.683544 -4.4460588 -69.722679
-49.910423 -7.1300735 -51.174164
-48.00206 -9.1432657 -62.143688
-47.212296 -11.241037 -66.683342
-46.914722 -13.404217 -68.393845
-46.802078 -15.600708 -69.041328
-46.80106 -17.828981 -69.047203
-46.854668 -20.080578 -68.739044
-46.985893 -22.374247 -67.984749
-47.134228 -24.689369 -67.13208
-47.353016 -27.05888 -65.874458
-47.722565 -29.542553 -63.750237
-48.104931 -32.069981 -61.552349
-48.735046 -34.810764 -57.930393
-41.026424 32.821117 -90.449287
-40.828079 30.621054 -91.646378
-40.766228 28.536345 -92.019684
-40.720371 26.468229 -92.296471
-40.684189 24.410505 -92.514854
-40.658169 22.361984 -92.671883
-40.642281 20.321129 -92.767792
-40.632591 18.284655 -92.826271
-40.627075 16.250814 -92.859558
-40.62035 14.217111 -92.900146
-40.610268 12.18307 -92.960991
-40.606907 10.151708 -92.98127
-40.608788 8.1217508 -92.969925
-40.623177 6.0934639 -92.883102
-40.642952 4.0642834 -92.763725
-40.665985 2.0332851 -92.624718
-40.740784 -2.2720043e-05 -92.173256
-41.064728 -2.0532539 -90.218086
-44.470024 -4.4470134 -69.665314
-45.375443 -6.8063202 -64.200623
-44.913567 -8.9827242 -66.988281
-44.700546 -11.175148 -68.273987
-44.611328 -13.383411 -68.812477
-44.601921 -15.610681 -68.869232
-44.653374 -17.861359 -68.558708
-44.745369 -20.135437 -68.003441
-44.912415 -22.456217 -66.995224
-45.156197 -24.835917 -65.523888
-45.454441 -27.272684 -63.72382
-45.915707 -29.845222 -60.939827
-46.561916 -32.593361 -57.039616
-38.972103 30.767431 -90.468323
-38.911484 28.671606 -90.853455
-38.866726 26.593012 -91.13781
-38.832157 24.525557 -91.357437
-38.80695 22.467165 -91.517586
-38.79158 20.416613 -91.615219
-38.782162 18.370478 -91.675056
-38.776745 16.32703 -91.709496
-38.770039 14.283687 -91.752106
-38.760239 12.240053 -91.814339
-38.75663 10.199096 -91.837257
-38.758434 8.1596537 -91.825798
-38.771973 6.1218696 -91.739807
-38.790806 4.0832314 -91.62014
-38.812634 2.0427566 -91.481468
-38.879948 -1.4848029e-05 -91.053802
-39.112274 -2.0585546 -89.577782
-42.255558 -4.4479704 -69.607903
-42.664455 -6.7365088 -67.010101
-42.489201 -8.945117 -68.123535
-42.429813 -11.165755 -68.500816
-42.423637 -13.396954 -68.540054
-42.472637 -15.647827 -68.228783
-42.547665 -17.914822 -67.752098
-42.670856 -20.212524 -66.969421
-42.915127 -22.586926 -65.417511
-43.252052 -25.04068 -63.27697
-43.662235 -27.576159 -60.671001
-44.329361 -30.330633 -56.432606
-45.954372 -33.86113 -46.108627
-37.098419 30.915342 -89.278114
-37.039196 28.808247 -89.675285
-36.995396 26.718878 -89.969009
-36.962708 24.641794 -90.188217
-36.938354 22.57342 -90.351555
-36.923161 20.512856 -90.453415
-36.914154 18.457056 -90.513832
-36.90897 16.403971 -90.548592
-36.902561 14.350975 -90.591599
-36.893436 12.297798 -90.652779
-36.889492 10.247068 -90.679207
-36.891094 8.1980066 -90.668472
-36.903542 6.1505747 -90.584976
-36.92131 4.1023536 -90.465828
-36.941689 2.052304 -90.329178
-37.001347 -1.4555522e-05 -89.929108
-37.197758 -2.0665574 -88.611923
-40.040142 -4.4489226 -69.550461
-40.280087 -6.7133684 -67.941391
-40.241924 -8.9426718 -68.197304
-40.24691 -11.179714 -68.163879
-40.294342 -13.43146 -67.845787
-40.393822 -15.708714 -67.178658
-40.594715 -18.042109 -65.831436
-40.749443 -20.374733 -64.793793
-41.006516 -22.781414 -63.069843
-41.493839 -25.357357 -59.801781
-42.158802 -28.105879 -55.342449
-35.206757 31.064768 -88.075569
-35.148857 28.946106 -88.486671
-35.106152 26.845865 -88.789932
-35.075336 24.759047 -89.008713
-35.052116 22.680765 -89.173607
-35.037045 20.61001 -89.280624
-35.028572 18.544523 -89.340782
-35.023396 16.481583 -89.377525
-35.017521 14.418973 -89.419273
-35.00882 12.356035 -89.481026
-35.004589 10.295449 -89.511055
-35.006115 8.2367163 -89.500214
-35.017754 6.1795907 -89.417603
-35.034222 4.1216588 -89.300674
-35.053291 2.0619483 -89.165237
-35.104851 -2.2608556e-05 -88.799149
-35.301369 -2.0765567 -87.403763
-37.827759 -4.4503398 -69.464767
-38.05146 -6.7149782 -67.87635
-38.067711 -8.957119 -67.760986
-38.121281 -11.212154 -67.380615
-38.217518 -13.488558 -66.69725
-38.385593 -15.805848 -65.503822
-38.653458 -18.18988 -63.601814
-39.023533 -20.659531 -60.974064
-39.435028 -23.197086 -58.052181
-40.029354 -25.901367 -53.832069
-33.299427 31.218189 -86.840874
-33.241581 29.086374 -87.27729
-33.199871 26.974884 -87.591957
-33.169807 24.87734 -87.818779
-33.148861 22.789824 -87.976791
-33.133869 20.708656 -88.089905
-33.125259 18.632944 -88.154861
-33.119671 16.559828 -88.197014
-33.114086 14.487393 -88.239151
-33.105824 12.414661 -88.301506
-33.102695 10.344573 -88.325081
-33.104149 8.2760201 -88.31414
-33.114979 6.2090454 -88.232407
-33.12962 4.141181 -88.121964
-33.148525 2.0717669 -87.979324
-33.194595 -2.0521429e-05 -87.631767
-33.381859 -2.0863819 -86.218956
-35.623657 -4.4529796 -69.305901
-35.895775 -6.7304664 -67.252953
-35.949276 -8.9873295 -66.849304
-36.04974 -11.265568 -66.091354
-36.221462 -13.58306 -64.795799
-36.503368 -15.970231 -62.669003
-36.889095 -18.444571 -59.758904
-37.339931 -21.003723 -56.357632
-38.021099 -23.763199 -51.218616
-31.373161 31.373144 -85.593948
-31.315727 29.227991 -86.056129
-31.275076 27.105059 -86.383278
-31.246086 24.996857 -86.616554
-31.227428 22.900097 -86.766724
-31.212599 20.808382 -86.886032
-31.203287 18.721952 -86.960976
-31.19768 16.638752 -87.006088
-31.192499 14.556491 -87.047791
-31.184679 12.47386 -87.110733
-31.182882 10.394278 -87.125183
-31.184149 8.3157568 -87.11499
-31.194191 6.2388172 -87.034172
-31.206461 4.16085 -86.935432
-31.225836 2.0817077 -86.779503
-31.266573 -1.2827282e-05 -86.451675
-31.444338 -2.096303 -85.021156
-33.416824 -4.4555864 -69.147812
-41.875191 -8.3750572 -1.0801086
-34.454315 -9.1878376 -60.798729
-34.34528 -11.448442 -61.676182
-34.575211 -13.830096 -59.825817
-35.009647 -16.337847 -56.329777
-36.088139 -19.247023 -47.650726
-42.060833 -25.236509 0.41379297
-42.402485 -28.26833 3.1632073
-29.427778 31.529741 -84.333687
-29.371027 29.37101 -84.823021
-29.331713 27.236576 -85.162018
-29.303795 25.117519 -85.402725
-29.287308 23.011442 -85.544876
-29.272837 20.909155 -85.669655
-29.262865 18.811823 -85.75563
-29.257181 16.718369 -85.804619
-29.252399 14.62619 -85.845863
-29.245726 12.53387 -85.903397
-29.244532 10.444454 -85.913696
-29.245726 8.3559103 -85.903389
-29.254889 6.268887 -85.824387
-29.264956 4.1806884 -85.737579
-29.284512 2.0917382 -85.56897
-29.319899 -1.2448702e-05 -85.263878
-29.48951 -2.1064146 -83.801445
-31.207392 -4.4582195 -68.989525
-39.270237 -8.4150534 0.5298512
-39.240814 -11.211673 0.27617943
-39.233109 -14.011832 0.20971088
-39.24189 -16.817963 0.28545409
-39.257313 -19.628675 0.41843364
-39.308155 -22.461807 0.85679746
-39.448425 -25.359718 2.0662317
-39.790516 -28.421816 5.015801
-27.462788 31.687815 -83.061676
-27.406921 29.515129 -83.580406
-27.369398 27.369387 -83.928833
-27.342564 25.239269 -84.177994
-27.327293 23.123085 -84.319778
-27.314098 21.010836 -84.442299
-27.30372 18.902554 -84.538666
-27.298113 16.798826 -84.590729
-27.293722 14.696604 -84.631508
-27.288586 12.59472 -84.679199
-27.287373 10.495137 -84.69046
-27.288401 8.39641 -84.680923
-27.296806 6.2992539 -84.602875
-27.304842 4.2007318 -84.528259
-27.324486 2.1018713 -84.345863
-27.354662 -1.1546771e-05 -84.065666
-27.519924 -2.1169376 -82.531128
-29.158493 -4.48594 -67.316299
-36.638924 -8.4551516 2.1427786
-36.614201 -11.265924 1.9132088
-36.604958 -14.078835 1.8273841
-36.61269 -16.898182 1.8991653
-36.629501 -19.723589 2.0552936
-36.678349 -22.571302 2.5088654
-36.814632 -25.487057 3.7742999
-37.168381 -28.591082 7.0590143
-36.054451 -38.827888 -3.284301
-36.003021 -41.541962 -3.7618418
-25.478872 31.848581 -81.767975
-25.423269 29.660461 -82.327293
-25.387766 27.503395 -82.684448
-25.362316 25.362301 -82.940445
-25.347383 23.235086 -83.090637
-25.336308 21.113575 -83.20208
-25.325586 18.994179 -83.309906
-25.320101 16.880045 -83.365105
-25.316093 14.767714 -83.405388
-25.312351 12.656163 -83.443039
-25.31122 10.546327 -83.454414
-25.312092 8.4373493 -83.445671
-25.318707 6.3296599 -83.379112
-25.32576 4.2209549 -83.308159
-25.345377 2.1121039 -83.110832
-25.370792 -1.8474871e-05 -82.855171
-25.530558 -2.1275623 -81.248055
-27.282467 -4.5470867 -63.625221
-33.982426 -8.4956131 3.7711334
-32.015312 -10.671788 -16.016464
-31.960001 -13.316676 -16.572866
-32.028683 -16.01436 -15.881969
-32.127495 -18.741047 -14.887995
-32.23708 -21.491402 -13.785664
-32.344143 -24.258112 -12.708691
-32.411491 -27.009592 -12.031215
-32.494171 -29.786335 -11.19951
-32.570213 -32.570229 -10.43458
-32.668343 -35.39072 -9.4474802
-32.808384 -38.276463 -8.0387831
-32.922668 -41.153358 -6.8891425
-23.477667 32.014984 -80.42881
-23.420067 29.807344 -81.060898
-23.386469 27.638544 -81.429596
-23.362587 25.48645 -81.691673
-23.3482 23.348185 -81.849548
-23.338593 21.216892 -81.954979
-23.328186 19.086678 -82.069176
-23.322783 16.962013 -82.128448
-23.319239 14.839502 -82.167358
-23.316742 12.718203 -82.194771
-23.315613 10.597987 -82.207138
-23.31642 8.4786825 -82.198303
-23.321173 6.3603115 -82.146141
-23.327621 4.2413726 -82.075371
-23.346342 2.1223767 -81.869926
-23.367846 -1.5230059e-05 -81.633972
-23.521114 -2.1382973 -79.952026
-25.354679 -4.6099558 -59.831062
-28.901596 -7.8822656 -20.908239
-28.937534 -10.522751 -20.513882
-29.018036 -13.190036 -19.630487
-29.112289 -15.879447 -18.596184
-29.178368 -18.568071 -17.871046
-29.323145 -21.32593 -16.282322
-29.425293 -24.075258 -15.161356
-29.53126 -26.846615 -13.998513
-29.640985 -29.640999 -12.794412
-29.697067 -32.396824 -12.178977
-29.811323 -35.231579 -10.92519
-29.961802 -38.133217 -9.2738867
-30.112328 -41.062275 -7.6220565
-21.455214 32.182804 -79.078308
-21.397224 29.956099 -79.77829
-21.365631 27.775309 -80.159668
-21.343407 25.612074 -80.427917
-21.329681 23.462635 -80.593613
-21.32086 21.320843 -80.700089
-21.311382 19.180229 -80.814514
-21.306126 17.04488 -80.877945
-21.302946 14.912045 -80.916336
-21.300949 12.780553 -80.940437
-21.299765 10.649871 -80.954735
-21.300579 8.5202198 -80.944908
-21.304352 6.3912849 -80.899376
-21.31027 4.2620411 -80.827919
-21.327456 2.1327369 -80.620468
-21.346601 -3.6421413e-06 -80.389374
-21.455439 -2.1455607 -79.0756
-23.373106 -4.6746359 -55.927288
-26.251245 -7.8753924 -21.185062
-26.2572 -10.50289 -21.113209
-26.302677 -13.151361 -20.564243
-26.378897 -15.827352 -19.644196
-26.44017 -18.508139 -18.904562
-26.54656 -21.237267 -17.620291
-26.650572 -23.985518 -16.36479
-26.764036 -26.764038 -14.995146
-26.861998 -29.548203 -13.812659
-26.947533 -32.337048 -12.780144
-27.066412 -35.186348 -11.34515
-27.209372 -38.093132 -9.6194534
-27.374111 -41.06118 -7.6309071
-19.413696 32.356148 -77.683365
-19.354021 30.106237 -78.483734
-19.324965 27.91383 -78.873466
-19.304426 25.739222 -79.148926
-19.291344 23.578295 -79.324417
-19.283123 21.425676 -79.434654
-19.274778 19.274761 -79.546593
-19.2698 17.128696 -79.61335
-19.266977 14.985411 -79.651222
-19.264557 12.843027 -79.683678
-19.263412 10.701885 -79.698997
-19.264153 8.5618401 -79.689095
-19.268053 6.4226618 -79.636795
-19.273363 4.2829638 -79.565544
-19.288918 2.1431971 -79.356949
-19.306519 -1.1735398e-05 -79.120857
-19.404554 -2.1560726 -77.805977
-23.847641 -5.2994871 -18.214001
-23.680632 -7.893548 -20.453968
-23.626122 -10.50051 -21.185076
-23.653244 -13.140707 -20.821285
-23.716228 -15.81083 -19.976517
-23.777298 -18.493464 -19.15745
-23.855057 -21.204506 -18.114521
-23.936335 -23.936356 -17.024385
-24.050283 -26.722544 -15.496073
-24.142923 -29.508034 -14.253563
-24.23628 -32.315052 -13.001439
-24.361597 -35.188984 -11.320642
-24.48811 -38.092621 -9.6238384
-24.660463 -41.100792 -7.3121457
-17.360502 32.550934 -76.115898
-17.290907 30.259068 -77.166031
-17.263783 28.053631 -77.575294
-17.245039 25.867548 -77.858093
-17.23287 23.695179 -78.041718
-17.224888 21.53109 -78.162163
-17.217999 19.370237 -78.266113
-17.21335 17.213341 -78.336266
-17.210875 15.059501 -78.373604
-17.20816 12.906108 -78.414566
-17.207134 10.754441 -78.430046
-17.207737 8.6038523 -78.420944
-17.211597 6.4543304 -78.362671
-17.216429 4.3040891 -78.289803
-17.230268 2.1537664 -78.080971
-17.24625 -1.9136836e-05 -77.839806
-17.333466 -2.1666973 -76.523857
-21.277203 -5.3193145 -17.017437
-21.113375 -7.9175267 -19.489414
-21.039885 -10.519962 -20.59827
-21.038261 -13.14892 -20.622772
-21.064356 -15.798291 -20.229052
-21.127644 -18.4867 -19.274117
-21.193142 -21.193148 -18.28582
-21.27416 -23.933445 -17.063354
-21.36742 -26.709291 -15.656148
-21.45775 -29.504423 -14.293181
-21.561152 -32.34174 -12.732996
-21.669573 -35.21307 -11.097049
-21.788176 -38.129326 -9.307456
-21.974092 -41.201435 -6.502183
-15.2637 32.707916 -74.852577
-15.207059 30.414097 -75.829285
-15.181848 28.194851 -76.264046
-15.165014 25.997162 -76.554321
-15.153832 23.813152 -76.747162
-15.146297 21.63755 -76.877113
-15.140744 19.466661 -76.97287
-15.136475 17.298817 -77.046486
-15.13434 15.134323 -77.083275
-15.131461 12.96981 -77.132927
-15.130502 10.80749 -77.149483
-15.131035 8.6462955 -77.140289
-15.13482 6.4863391 -77.074997
-15.139035 4.3254271 -77.002319
-15.151158 2.164433 -76.793259
-15.165443 -5.9823474e-06 -76.546944
-15.241869 -2.1774261 -75.229027
-18.691448 -5.3404198 -15.743158
-18.537996 -7.9448762 -18.389334
-18.470945 -10.554841 -19.545589
-18.440571 -13.171845 -20.069387
-18.461576 -15.824226 -19.707157
-18.494171 -18.494177 -19.145084
-18.552652 -21.203043 -18.136631
-18.616907 -23.936039 -17.028551
-18.705614 -26.722326 -15.498877
-18.79558 -29.535931 -13.947451
-18.89082 -32.384277 -12.305124
-18.991142 -35.269276 -10.575117
-19.111568 -38.223148 -8.4984426
-19.288643 -41.332817 -5.4449282
-13.19284 32.982086 -72.646202
-13.101704 30.570629 -74.479736
-13.078848 28.337494 -74.939545
-13.063995 26.127974 -75.23835
-13.054035 23.932386 -75.438736
-13.04705 21.745068 -75.579277
-13.042704 19.564041 -75.666695
-13.03887 17.385141 -75.743835
-13.037023 15.209848 -75.780998
-13.034161 13.034155 -75.838577
-13.033284 10.861053 -75.856216
-13.033746 8.6891479 -75.846931
-13.037068 6.5185175 -75.780083
-13.040994 4.3469782 -75.701096
-13.051351 2.1752124 -75.492744
-13.063903 -8.9259038e-06 -75.240219
-13.129459 -2.1882658 -73.92131
-16.084593 -5.3615484 -14.468616
-15.945806 -7.9729137 -17.260788
-15.878265 -10.585525 -18.619608
-15.8458 -13.204857 -19.272743
-15.868889 -15.868902 -18.808258
-15.872036 -18.51738 -18.744947
-15.914233 -21.21899 -17.895975
-15.973691 -23.960543 -16.699804
-16.057371 -26.762299 -15.016279
-16.139669 -29.589403 -13.360578
-16.231112 -32.462234 -11.520886
-16.320267 -35.360592 -9.7272234
-16.439941 -38.359875 -7.3195324
-16.59042 -41.47607 -4.2921667
-10.974486 30.728539 -73.118103
-10.954461 28.481579 -73.601562
-10.941685 26.260031 -73.910011
-10.933066 24.052731 -74.118065
-10.926952 21.853891 -74.265671
-10.923568 19.662401 -74.347389
-10.920262 17.472403 -74.427193
-10.918669 15.286119 -74.46566
-10.915949 13.099129 -74.531319
-10.915173 10.915152 -74.550072
-10.915561 8.732439 -74.540695
-10.918319 6.5509682 -74.474091
-10.921895 4.3687491 -74.387764
-10.930495 2.1860936 -74.180138
-10.941256 -2.2322769e-05 -73.920372
-10.995925 -2.199199 -72.600533
-13.448957 -5.3795943 -13.379085
-13.333742 -8.0002575 -16.160641
-13.270639 -10.616514 -17.684071
-13.245886 -13.245898 -18.281681
-13.255672 -15.906818 -18.045391
-13.260944 -18.56534 -17.918106
-13.282246 -21.251608 -17.403852
-13.340119 -24.012234 -16.006664
-13.412501 -26.825022 -14.259218
-13.488459 -29.674623 -12.425429
-13.568882 -32.565327 -10.483854
-13.647112 -35.482502 -8.5952024
-13.76252 -38.535065 -5.8090253
-13.901092 -41.703297 -2.4635892
-8.8252096 30.888212 -71.741379
-8.8083591 28.627159 -72.249908
-8.7978125 26.393417 -72.568176
-8.7906895 24.174387 -72.783104
-8.7855606 21.963892 -72.937897
-8.7830143 19.761776 -73.014755
-8.7802486 17.56048 -73.098206
-8.7789927 15.363222 -73.136108
-8.7766685 13.164989 -73.206223
-8.7758532 10.969795 -73.23085
-8.7761669 8.7761526 -73.221375
-8.7783642 6.5837536 -73.15506
-8.7815056 4.3907413 -73.060272
-8.7883606 2.1970723 -72.853401
-8.7971811 -1.854292e-05 -72.587204
-8.8409462 -2.2102523 -71.266464
-10.787873 -5.3939471 -12.512759
-10.696469 -8.0223722 -15.27112
-10.646309 -10.646311 -16.784853
-10.632518 -13.29066 -17.201021
-10.633532 -15.950315 -17.170446
-10.644 -18.627018 -16.854519
-10.653472 -21.30695 -16.568674
-10.70809 -24.093214 -14.920425
-10.765915 -26.914797 -13.175416
-10.830435 -29.78371 -11.228354
-10.892492 -32.67749 -9.3556156
-10.959521 -35.618462 -7.3328285
-11.062174 -38.717625 -4.2349939
-11.181624 -41.931095 -0.63026041
-6.6534562 31.049446 -70.351242
-6.6402063 28.77421 -70.884361
-6.6320481 26.528181 -71.212631
-6.6265087 24.297186 -71.435524
-6.6225271 22.075077 -71.595726
-6.6205974 19.861778 -71.673363
-6.6185498 17.649448 -71.755745
-6.6175985 15.441049 -71.794044
-6.6158862 13.231755 -71.862946
-6.6150298 11.025029 -71.897385
-6.6152439 8.8203115 -71.888786
-6.6168609 6.6168509 -71.823723
-6.619431 4.4129314 -71.720299
-6.624577 2.208178 -71.513252
-6.6313314 -1.3124377e-05 -71.241486
-6.6642003 -2.2214229 -69.91893
-8.1129446 -5.4086456 -11.625956
-8.045496 -8.0455084 -14.339886
-8.0104818 -10.68065 -15.748757
-8.0016708 -13.336135 -16.103264
-8.000906 -16.001825 -16.134045
-8.0110741 -18.69252 -15.72491
-8.0204639 -21.387918 -15.347076
-8.0638952 -24.191698 -13.599568
-8.1077271 -27.025776 -11.835896
-8.154747 -29.900751 -9.9439583
-8.2053499 -32.821411 -7.9078431
-8.2542162 -35.768276 -5.9416237
-8.3330278 -38.887478 -2.7704923
-8.4283838 -42.141933 1.0663202
-4.4588957 31.212259 -68.947495
-4.44976 28.92342 -69.498871
-4.4440551 26.664312 -69.843185
-4.4402442 24.421331 -70.073212
-4.4374661 22.187321 -70.240875
-4.4360862 19.962376 -70.324142
-4.4348359 17.739328 -70.39962
-4.4341946 15.519663 -70.438301
-4.4330578 13.299154 -70.50695
-4.4323211 11.080784 -70.551407
-4.4324651 8.8649206 -70.542717
-4.433538 6.6502991 -70.477959
-4.4353809 4.4353628 -70.366714
-4.4388146 2.2193887 -70.159485
-4.4434276 -1.1915189e-05 -69.881065
-4.4653535 -2.2326941 -68.557716
-5.4233308 -5.4233532 -10.738661
-5.3805737 -8.070878 -13.31928
-5.3589554 -10.717921 -14.624063
-5.353858 -13.384664 -14.931706
-5.3547697 -16.064325 -14.876719
-5.3593769 -18.75783 -14.598643
-5.3712473 -21.484999 -13.882202
-5.4003224 -24.301468 -12.12735
-5.4283929 -27.141972 -10.43313
-5.4588933 -30.023933 -8.5922766
-5.4935479 -32.9613 -6.500699
-5.5282965 -35.933937 -4.4034505
-5.576128 -39.032906 -1.5165383
-5.6465101 -42.348843 2.7313964
-2.2411585 31.376204 -67.533882
-2.2364938 29.0744 -68.09697
-2.2334895 26.801861 -68.459618
-2.2315154 24.546661 -68.697899
-2.2300715 22.300709 -68.872169
-2.2293425 20.064066 -68.960205
-2.2287674 17.830126 -69.029617
-2.228452 15.599151 -69.067719
-2.2278852 13.367295 -69.136101
-2.2274244 11.137114 -69.19175
-2.2274971 8.9099712 -69.182953
-2.2280309 6.6840734 -69.118507
-2.2290266 4.4580393 -68.998322
-2.2307367 2.2307279 -68.791908
-2.2330911 -9.0835983e-06 -68.507698
-2.2440684 -2.2440932 -67.18261
-2.7196105 -5.4392257 -9.7796154
-2.6988547 -8.0965776 -12.285051
-2.6900508 -10.760217 -13.347755
-2.6869996 -13.435014 -13.716084
-2.6878591 -16.127163 -13.612365
-2.6907351 -18.835157 -13.265175
-2.7002444 -21.601961 -12.117305
-2.7125525 -24.412998 -10.631567
-2.7284636 -27.284655 -8.7109451
-2.7450287 -30.195333 -6.7113476
-2.7606161 -33.127407 -4.8297987
-2.779022 -36.127293 -2.6080058
-2.8009319 -39.213066 0.036767766
-2.8386424 -42.579651 4.5888181
5.1394061e-23 31.541658 -66.107338
-1.4467987e-23 29.226654 -66.683342
7.2883212e-23 26.940834 -67.061684
2.7225054e-23 24.673368 -67.307396
1.2940462e-23 22.415337 -67.488419
2.9361176e-23 20.166803 -67.582291
6.8176098e-23 17.921854 -67.6455
4.6872222e-24 15.679393 -67.684013
-7.5862166e-24 13.436138 -67.751114
3.4020056e-23 11.194001 -67.818176
2.2036962e-23 8.9554977 -67.809311
2.2640964e-23 6.7181845 -67.74617
1.2331581e-23 4.4809308 -67.616859
-1.5738229e-23 2.2421694 -67.410294
4.067972e-23 -1.7127622e-05 -67.125145
9.1283923e-23 -2.2555943 -65.793396
-4.1461122e-23 -5.4562521 -8.7519665
-3.3022262e-24 -8.1258173 -11.108594
2.5775956e-23 -10.801138 -12.113005
-5.3052057e-23 -13.488173 -12.432604
-2.2719529e-23 -16.195778 -12.232034
-5.8553239e-23 -18.942314 -11.417199
-3.4819573e-23 -21.733 -10.140102
1.7960017e-23 -24.578373 -8.413353
1.6642564e-23 -27.455208 -6.6520405
2.8174293e-23 -30.379089 -4.6948133
1.8052851e-23 -33.350994 -2.5806575
7.1722615e-23 -36.351891 -0.52258933
3.2265768e-23 -39.466568 2.2225063
-5.6722141e-23 -42.851051 6.7729602
2.2649276 31.708975 -64.664658
2.2600553 29.380713 -65.252815
2.2567801 27.081352 -65.648186
2.2546985 24.801674 -65.89946
2.2531419 22.531404 -66.087364
2.2523146 20.270823 -66.18721
2.2517939 18.01433 -66.250061
2.2514715 15.760285 -66.288971
2.2509181 13.505498 -66.355782
2.2503238 11.251614 -66.427536
2.2503979 9.0015831 -66.418564
2.25091 6.7527199 -66.356773
2.2520087 4.5040007 -66.224129
2.253746 2.2537313 -66.014435
2.2561245 -6.725144e-06 -65.727333
2.269628 -2.2696519 -64.097282
2.7366295 -5.4732652 -7.7252369
2.7188511 -8.1565628 -9.8712664
2.7129843 -10.851955 -10.579452
2.7109704 -13.554855 -10.822557
2.7151935 -16.291168 -10.312788
2.7264144 -19.084909 -8.9583044
2.7404432 -21.923555 -7.2648854
2.7539494 -24.785557 -5.6345239
2.7696259 -27.696272 -3.7422175
2.7892175 -30.681406 -1.3773144
2.8089852 -33.707836 1.0088657
2.829035 -36.777473 3.4291232
2.8513994 -39.919605 6.1287322
2.8875384 -43.313095 10.491094
4.5540643 31.878437 -63.203548
4.5440636 29.5364 -63.807133
4.5373259 27.223938 -64.213791
4.5330181 24.931583 -64.473778
4.5298052 22.649006 -64.667686
4.5280504 20.376217 -64.773636
4.5268641 18.107443 -64.845215
4.5262132 15.841725 -64.884514
4.5251117 13.575329 -64.951004
4.5239935 11.309978 -65.018463
4.5241437 9.0482759 -65.009399
4.5251617 6.787724 -64.947975
4.5273652 4.5273461 -64.814957
4.5308757 2.265425 -64.603088
4.5356827 -2.2812175e-05 -64.312981
4.5627007 -2.2813635 -62.682308
5.4936213 -5.4936304 -6.4962482
5.4606423 -8.1909781 -8.4867163
5.4485917 -10.897193 -9.2140255
5.4598651 -13.64967 -8.533639
5.4785128 -16.435549 -7.4081349
5.5103226 -19.286146 -5.4882317
5.5356536 -22.142618 -3.9594028
5.6008925 -25.204031 -0.021872176
5.6343508 -28.171759 1.997492
6.0370979 -45.278248 26.305443
6.8693118 32.056778 -61.665874
6.8524332 29.693865 -62.345009
6.8420916 27.368359 -62.761135
6.8353581 25.062965 -63.032063
6.8303866 22.767948 -63.232117
6.8275743 20.482706 -63.345268
6.8257008 18.201849 -63.420647
6.8245869 15.924025 -63.465469
6.822968 13.645916 -63.530605
6.8213749 11.368941 -63.594696
6.8216028 9.0954638 -63.585552
6.8230948 6.8230844 -63.525528
6.8264599 4.5509567 -63.390091
6.8317556 2.2772274 -63.177017
6.8390155 -9.998349e-06 -62.884914
6.8795819 -2.2932186 -61.252636
8.269495 -5.5130038 -5.3268695
8.2664871 -8.266489 -5.4479136
8.2713909 -11.028524 -5.2506089
8.3132305 -13.855401 -3.5670516
8.7206488 -17.441309 12.826195
8.7372074 -20.386826 13.492442
8.7862968 -23.430145 15.467657
8.8328876 -26.498672 17.342323
8.9424019 -38.750427 21.748865
8.9390144 -41.715408 21.612543
8.9532776 -44.766407 22.186409
9.2105055 32.236759 -60.11404
9.1855135 29.852907 -60.868271
9.1714392 27.514307 -61.292988
9.1620913 25.195742 -61.575081
9.1552553 22.888121 -61.781345
9.1512613 20.590328 -61.90189
9.1488056 18.297602 -61.976028
9.1469641 16.00717 -62.031586
9.1448164 13.717204 -62.096378
9.1428747 11.428583 -62.154991
9.1431475 9.1431389 -62.146774
9.1450891 6.8588104 -62.088161
9.1496239 4.5748019 -61.951317
9.156724 2.2891715 -61.73703
9.1664715 -1.999604e-05 -61.442883
9.2206459 -2.3051746 -59.808056
11.728556 -5.8642941 15.87483
11.635139 -8.7263746 13.055763
11.614271 -11.614291 12.425992
11.643254 -14.554083 13.300634
11.683385 -17.525095 14.511688
11.708691 -20.490221 15.275375
11.774697 -23.549416 17.267317
11.835629 -26.63018 19.106058
11.776845 -32.386341 17.332104
11.775659 -35.326988 17.296286
11.793937 -38.330315 17.847898
11.832718 -41.414528 19.018225
11.865671 -44.496288 20.012672
11.975332 -47.901348 23.32201
11.581941 32.429432 -58.452862
11.543719 30.013662 -59.37561
11.525763 27.661823 -59.809113
11.513564 25.329821 -60.103596
11.504756 23.009497 -60.316257
11.499495 20.699078 -60.443272
11.496478 18.39435 -60.516109
11.493721 16.091192 -60.582653
11.491053 13.789251 -60.647114
11.488857 11.488838 -60.700081
11.489159 9.1913109 -60.69281
11.491526 6.8948984 -60.635666
11.497297 4.5989103 -60.496353
11.506224 2.301224 -60.280827
11.51845 -1.8813782e-06 -59.985676
11.586271 -2.3172708 -58.348312
14.732015 -5.8928142 17.596647
14.620658 -8.7724085 14.908265
14.594991 -11.676016 14.288592
14.634048 -14.634066 15.231538
14.685118 -17.62216 16.464449
14.714913 -20.600889 17.183786
14.797318 -23.675726 19.173237
14.550616 -26.191122 13.217295
14.543856 -29.087732 13.054097
14.556417 -32.02412 13.357318
14.58576 -35.00584 14.065776
14.641452 -38.06778 15.41027
14.734775 -41.257378 17.663254
14.795534 -44.386608 19.130161
14.960187 -47.872612 23.105221
13.986514 32.635178 -56.678711
13.927512 30.17626 -57.865738
13.905469 27.810932 -58.309219
13.890253 25.465458 -58.615337
13.87936 23.132252 -58.83448
13.872665 20.808973 -58.969166
13.869059 18.492064 -59.041733
13.865246 16.176105 -59.118446
13.862113 13.862089 -59.181461
13.859712 11.549748 -59.229771
13.860077 9.2400341 -59.222424
13.862792 6.9313726 -59.167805
13.869791 4.6232452 -59.026997
13.880616 2.3134263 -58.809227
13.895339 -7.1859049e-06 -58.513016
13.976795 -2.3294771 -56.874229
17.764322 -5.9214578 19.324942
17.634295 -8.8171663 16.709003
17.608906 -11.739273 16.198189
17.652731 -14.710619 17.079868
17.717129 -17.717138 18.375475
17.237938 -20.110931 8.7348852
17.24157 -22.988773 8.807972
17.263725 -25.895609 9.2537069
17.313742 -28.856247 10.259945
17.367325 -31.840111 11.337971
17.415884 -34.831776 12.314887
17.520323 -37.960705 14.416036
17.629314 -41.135086 16.608767
17.752329 -44.380833 19.083652
18.016804 -48.044827 24.404448
16.412067 32.824116 -55.049656
16.337461 30.340986 -56.336189
16.310968 27.961634 -56.79306
16.292528 25.602533 -57.111038
16.279373 23.256233 -57.337872
16.271172 20.920059 -57.479317
16.267042 18.590893 -57.550526
16.261929 16.261908 -57.638691
16.258299 13.935678 -57.701336
16.255836 11.6113 -57.743782
16.256205 9.2892437 -57.737408
16.259344 6.9682832 -57.683281
16.267597 4.6478753 -57.54097
16.2803 2.3257463 -57.321926
16.297537 -1.9456169e-05 -57.024681
16.392712 -2.3418305 -55.383465
20.833117 -5.952323 21.188583
20.687609 -8.8661251 18.679369
20.659742 -11.805582 18.198879
19.819328 -14.156672 3.7064722
19.821798 -16.990129 3.7490566
19.86342 -19.863434 4.4667697
19.938946 -22.787378 5.7691774
20.012718 -25.730654 7.041327
20.110363 -28.729103 8.7251577
20.1819 -31.714424 9.9587631
20.279963 -34.765659 11.649778
20.407063 -37.898838 13.841558
20.550507 -41.101025 16.315157
20.726044 -44.412971 19.342201
21.114054 -48.260712 26.033169
18.774874 30.509151 -54.774689
18.742466 28.113682 -55.263641
18.720737 25.741003 -55.591553
18.705326 23.381651 -55.82407
18.695494 21.032419 -55.972416
18.690796 18.690783 -56.043312
18.684179 16.348652 -56.143162
18.680054 14.010025 -56.205395
18.677637 11.673508 -56.241859
18.677994 9.3389835 -56.236481
18.681477 7.0055451 -56.183941
18.69101 4.6727467 -56.040096
18.70561 2.3381922 -55.819767
18.725451 -1.4711475e-05 -55.520405
18.834379 -2.3543084 -53.876789
23.934198 -5.9835601 23.073521
22.388447 -8.3956842 -0.25007656
22.38916 -11.194586 -0.23930591
22.418098 -14.011333 0.19736856
22.475895 -16.85693 1.0694155
22.540611 -19.723051 2.0459142
22.654427 -22.654449 3.7632647
22.774891 -25.621773 5.5809321
22.909681 -28.637119 7.6147599
23.026075 -31.660872 9.3710108
23.156979 -34.735474 11.346193
23.301985 -37.865746 13.534171
23.487753 -41.10358 16.337206
23.717466 -44.470261 19.803299
21.23937 30.679081 -53.19688
21.200556 28.267385 -53.717484
21.175432 25.881075 -54.054443
21.157501 23.508322 -54.294926
21.145916 21.145901 -54.45031
21.140574 18.791599 -54.521984
21.132807 16.436613 -54.62616
21.127872 14.085239 -54.692314
21.12553 11.736382 -54.723751
21.125853 9.3892508 -54.719421
21.129652 7.0432076 -54.668457
21.140574 4.6978846 -54.521992
21.157097 2.3507719 -54.300358
21.179495 -1.7645765e-05 -53.999954
21.302216 -2.3669262 -52.353992
24.9128 -5.5361981 -3.9277453
24.939131 -8.3130522 -3.5746126
24.997498 -11.110012 -2.7917459
25.072411 -13.929127 -1.7870307
25.18034 -16.786911 -0.33943397
25.278437 -19.661016 0.97626966
25.394222 -22.572653 2.5292177
25.543173 -25.543184 4.5269923
25.716976 -28.574429 6.858078
25.881266 -31.632666 9.061595
26.049759 -34.733021 11.32148
26.228306 -37.885349 13.716209
26.4645 -41.167015 16.884144
26.750917 -44.584881 20.725632
23.731199 30.850554 -51.604725
23.685667 28.422787 -52.15435
23.656992 26.022676 -52.500515
23.636484 23.636463 -52.74802
23.622925 21.260614 -52.911701
23.616924 18.893528 -52.984165
23.60829 16.525784 -53.088364
23.602205 14.161304 -53.161816
23.599936 11.799962 -53.189217
23.600208 9.4400702 -53.185936
23.604294 7.0812721 -53.136604
23.61656 4.7233067 -52.988548
23.635118 2.3635013 -52.764523
23.660093 -1.4305871e-05 -52.463047
23.796642 -2.3796792 -50.814762
27.708643 -5.5417356 -3.5927503
27.607153 -8.282155 -4.8178158
27.695009 -11.078015 -3.7573128
27.779903 -13.88997 -2.7325523
27.906763 -16.74407 -1.2012055
28.054146 -19.637922 0.57785928
28.172529 -22.53804 2.0068715
28.363195 -25.52688 4.3084278
28.534283 -28.534292 6.3736343
28.754402 -31.629854 9.0306978
28.950323 -34.740406 11.395666
29.195812 -37.954571 14.359017
29.477619 -41.268681 17.760693
29.847885 -44.771847 22.230219
26.25104 31.023933 -49.994663
26.198153 28.579796 -50.575027
26.165751 26.165743 -50.930584
26.142542 23.76593 -51.185291
26.126957 21.376589 -51.356319
26.120384 18.996632 -51.428448
26.110884 16.616011 -51.532688
26.103813 14.238436 -51.610271
26.101292 11.864218 -51.637962
26.101492 9.4914379 -51.63575
26.105936 7.1197925 -51.586998
26.119574 4.7490029 -51.437309
26.14011 2.376353 -51.211945
26.167679 -6.6709017e-06 -50.909435
26.31809 -2.3925655 -49.258881
30.63279 -5.5696049 -1.9106498
30.478956 -8.3124571 -3.5987732
30.475101 -11.081868 -3.641073
30.571596 -13.896193 -2.5821755
30.691576 -16.740868 -1.265543
30.857021 -19.636293 0.54997617
31.010714 -22.553259 2.2365634
31.194036 -25.522415 4.2483039
31.401295 -28.546642 6.5226684
31.644375 -31.64439 9.1901979
31.893513 -34.792938 11.924134
