# .PCD v0.7 - Point Cloud Data file format
VERSION 0.7
FIELDS x y z
SIZE 4 4 4
TYPE F F F
COUNT 1 1 1
WIDTH 1504
HEIGHT 1
VIEWPOINT 0 0 0 1 0 0 0
POINTS 1504
DATA ascii
-28.518888 -32.321419 -108.56335
-26.536549 30.327461 -109.26244
-26.525158 28.419794 -109.36065
-26.520735 26.520716 -109.39879
-26.519835 24.625549 -109.40656
-26.519835 22.731277 -109.40656
-26.520653 20.837639 -109.39949
-26.521963 18.944246 -109.3882
-26.523275 17.050665 -109.3769
-26.524422 15.156801 -109.36701
-26.524912 13.262448 -109.36278
-26.525158 11.367908 -109.36066
-26.525158 9.473259 -109.36066
-26.525158 7.5786037 -109.36066
-26.525158 5.6839404 -109.36066
-26.524994 3.7892659 -109.36208
-26.524256 1.8945801 -109.36842
-26.523438 -1.4406369e-05 -109.37548
-26.522701 -1.894497 -109.38184
-26.521881 -3.7888556 -109.3889
-26.521145 -5.6831183 -109.39527
-26.520571 -7.577322 -109.4002
-26.520161 -9.4714985 -109.40372
-26.519835 -11.365655 -109.40656
-26.519506 -13.259766 -109.40938
-26.519917 -15.154253 -109.40584
-26.520409 -17.048845 -109.40161
-26.520899 -18.943516 -109.39737
-26.522535 -20.839149 -109.38326
-26.524666 -22.735447 -109.36489
-26.526796 -24.632038 -109.34653
-26.533432 -26.533447 -109.28931
-26.542042 -28.437916 -109.21508
-26.567738 -30.363146 -108.99352
-26.61763 -32.321419 -108.56335
-24.641081 30.327461 -109.26244
-24.630503 28.419794 -109.36065
-24.626398 26.520716 -109.39879
-24.625561 24.625549 -109.40656
-24.625561 22.731277 -109.40656
-24.626322 20.837639 -109.39949
-24.627537 18.944246 -109.3882
-24.628832 17.050709 -109.37619
-24.62982 15.156801 -109.36701
-24.630276 13.262448 -109.36278
-24.630503 11.367908 -109.36066
-24.630503 9.473259 -109.36066
-24.630503 7.5786037 -109.36066
-24.630503 5.6839404 -109.36066
-24.630352 3.7892659 -109.36208
-24.629667 1.8945801 -109.36842
-24.628983 -8.49151e-06 -109.37479
-24.628298 -1.8944992 -109.38113
-24.62746 -3.7888556 -109.3889
-24.626778 -5.6831183 -109.39527
-24.626244 -7.577322 -109.4002
-24.625864 -9.4714985 -109.40372
-24.625484 -11.365623 -109.40726
-24.625181 -13.259732 -109.41009
-24.625637 -15.154253 -109.40584
-24.626017 -17.048798 -109.40231
-24.626472 -18.943455 -109.39808
-24.627995 -20.839087 -109.38396
-24.629971 -22.735365 -109.36561
-24.632101 -24.63212 -109.34582
-24.638187 -26.533447 -109.28931
-24.646257 -28.438004 -109.21437
-24.670042 -30.363146 -108.99352
-22.745613 30.327461 -109.26244
-22.735779 28.419712 -109.36137
-22.732059 26.520716 -109.39879
-22.731285 24.625549 -109.40656
-22.731285 22.731277 -109.40656
-22.731989 20.837639 -109.39949
-22.733183 18.944302 -109.38749
-22.734375 17.050772 -109.37549
-22.735218 15.156801 -109.36701
-22.73564 13.262448 -109.36278
-22.735849 11.367908 -109.36066
-22.735849 9.473259 -109.36066
-22.735849 7.5786037 -109.36066
-22.735849 5.6839404 -109.36066
-22.73571 3.7892659 -109.36208
-22.735077 1.8945801 -109.36842
-22.734446 -8.49151e-06 -109.37479
-22.733885 -1.8945053 -109.38042
-22.73311 -3.7888706 -109.3882
-22.732409 -5.6831183 -109.39527
-22.731848 -7.5772991 -109.40091
-22.731567 -9.4714985 -109.40372
-22.731216 -11.365623 -109.40726
-22.730936 -13.259732 -109.41009
-22.731285 -15.154205 -109.40656
-22.731709 -17.048798 -109.40231
-22.732059 -18.943401 -109.39879
-22.733463 -20.839025 -109.38467
-22.735428 -22.735447 -109.36489
-22.737394 -24.632189 -109.34512
-22.743013 -26.533531 -109.2886
-22.750462 -28.438097 -109.21366
-22.772346 -30.363146 -108.99352
-20.850145 30.327461 -109.26244
-20.841131 28.419712 -109.36137
-20.837721 26.520716 -109.39879
-20.837013 24.625549 -109.40656
-20.837013 22.731277 -109.40656
-20.837656 20.837639 -109.39949
-20.838686 18.944246 -109.3882
-20.839779 17.050709 -109.37619
-20.840616 15.156801 -109.36701
-20.841003 13.262448 -109.36278
-20.841196 11.367908 -109.36066
-20.841196 9.473259 -109.36066
-20.841196 7.5786037 -109.36066
-20.841196 5.6839404 -109.36066
-20.841066 3.7892659 -109.36208
-20.840488 1.8945801 -109.36842
-20.839907 -8.49151e-06 -109.37479
-20.839329 -1.8944992 -109.38113
-20.838621 -3.7888556 -109.3889
-20.838043 -5.6831183 -109.39527
-20.837528 -7.5772991 -109.40091
-20.837271 -9.4714985 -109.40372
-20.836948 -11.365623 -109.40726
-20.836691 -13.259732 -109.41009
-20.837013 -15.154205 -109.40656
-20.837399 -17.048798 -109.40231
-20.837721 -18.943401 -109.39879
-20.839008 -20.839025 -109.38467
-20.840809 -22.735447 -109.36489
-20.842546 -24.63212 -109.34582
-20.847761 -26.533531 -109.2886
-20.854591 -28.438097 -109.21366
-20.874651 -30.363146 -108.99352
-18.954678 30.327461 -109.26244
-18.946482 28.419712 -109.36137
-18.943441 26.520807 -109.39809
-18.942739 24.625549 -109.40656
-18.942739 22.731277 -109.40656
-18.943325 20.837639 -109.39949
-18.94426 18.944246 -109.3882
-18.945196 17.050665 -109.3769
-18.945955 15.156754 -109.36771
-18.946365 13.262448 -109.36278
-18.946541 11.367908 -109.36066
-18.946541 9.473259 -109.36066
-18.946541 7.5786037 -109.36066
-18.946541 5.6839404 -109.36066
-18.946424 3.7892659 -109.36208
-18.945898 1.8945801 -109.36842
-18.945312 -1.4406369e-05 -109.37548
-18.944786 -1.894497 -109.38184
-18.944201 -3.7888556 -109.3889
-18.943674 -5.6831183 -109.39527
-18.943207 -7.5772991 -109.40091
-18.942972 -9.4714985 -109.40372
-18.94268 -11.365623 -109.40726
-18.942446 -13.259732 -109.41009
-18.942739 -15.154205 -109.40656
-18.943089 -17.048798 -109.40231
-18.943382 -18.943401 -109.39879
-18.944551 -20.839025 -109.38467
-18.946131 -22.735365 -109.36561
-18.947712 -24.632038 -109.34653
-18.952454 -26.533447 -109.28931
-18.958719 -28.438097 -109.21366
-18.976955 -30.363146 -108.99352
-19.544113 47.774487 -75.934174
-19.547226 45.61018 -75.892418
-19.618481 43.596615 -74.936737
-19.743057 41.679775 -73.265884
-19.991732 39.983448 -69.930588
-17.059156 30.327372 -109.26315
-17.051834 28.419712 -109.36137
-17.049097 26.520807 -109.39809
-17.048466 24.625549 -109.40656
-17.048466 22.731277 -109.40656
-17.04899 20.837639 -109.39949
-17.049833 18.944246 -109.3882
-17.050676 17.050665 -109.3769
-17.051361 15.156754 -109.36771
-17.051729 13.262448 -109.36278
-17.051888 11.367908 -109.36066
-17.051888 9.473259 -109.36066
-17.051888 7.5786037 -109.36066
-17.051888 5.6839404 -109.36066
-17.051783 3.7892659 -109.36208
-17.051308 1.8945801 -109.36842
-17.050781 -1.4406369e-05 -109.37548
-17.050308 -1.894497 -109.38184
-17.04978 -3.7888556 -109.3889
-17.049307 -5.6831183 -109.39527
-17.048885 -7.5772991 -109.40091
-17.048676 -9.4714985 -109.40372
-17.048412 -11.365623 -109.40726
-17.048203 -13.259732 -109.41009
-17.048517 -15.154253 -109.40584
-17.04878 -17.048798 -109.40231
-17.049044 -18.943401 -109.39879
-17.050148 -20.839087 -109.38396
-17.051571 -22.735447 -109.36489
-17.05294 -24.632038 -109.34653
-17.057207 -26.533447 -109.28931
-17.062847 -28.438097 -109.21366
-17.07926 -30.363146 -108.99352
-17.350437 47.713684 -76.267754
-17.346697 45.535076 -76.324196
-17.364187 43.410446 -76.060295
-17.425215 41.384872 -75.139435
-17.532457 39.448025 -73.521263
-17.755066 37.7295 -70.162407
-15.163695 30.327372 -109.26315
-15.157233 28.419794 -109.36065
-15.154705 26.520716 -109.39879
-15.154191 24.625549 -109.40656
-15.154191 22.731277 -109.40656
-15.154659 20.837639 -109.39949
-15.155456 18.944302 -109.38749
-15.156203 17.050709 -109.37619
-15.156812 15.156801 -109.36701
-15.157093 13.262448 -109.36278
-15.157233 11.367908 -109.36066
-15.157233 9.473259 -109.36066
-15.157233 7.5786037 -109.36066
-15.157233 5.6839404 -109.36066
-15.157139 3.7892659 -109.36208
-15.156718 1.8945801 -109.36842
-15.156297 -8.49151e-06 -109.37479
-15.155876 -1.8944992 -109.38113
-15.155408 -3.7888706 -109.3882
-15.154941 -5.6831183 -109.39527
-15.154566 -7.5772991 -109.40091
-15.154378 -9.4714985 -109.40372
-15.154144 -11.365623 -109.40726
-15.153957 -13.259732 -109.41009
-15.154239 -15.154253 -109.40584
-15.154518 -17.048845 -109.40161
-15.154753 -18.943455 -109.39808
-15.155688 -20.839087 -109.38396
-15.156952 -22.735447 -109.36489
-15.158169 -24.632038 -109.34653
-15.161963 -26.533447 -109.28931
-15.166928 -28.438004 -109.21437
-15.181564 -30.363146 -108.99352
-15.199901 47.771103 -75.952721
-15.182331 45.546974 -76.255714
-15.179433 43.369797 -76.305695
-15.192428 41.236576 -76.081612
-15.236949 39.180706 -75.313873
-15.33099 37.232391 -73.692192
-13.268274 30.327461 -109.26244
-13.262579 28.419794 -109.36065
-13.260367 26.520716 -109.39879
-13.259917 24.625549 -109.40656
-13.259917 22.731277 -109.40656
-13.260326 20.837639 -109.39949
-13.261024 18.944302 -109.38749
-13.261719 17.050772 -109.37549
-13.262211 15.156801 -109.36701
-13.262456 13.262448 -109.36278
-13.262579 11.367908 -109.36066
-13.262579 9.473259 -109.36066
-13.262579 7.5786037 -109.36066
-13.262579 5.6839404 -109.36066
-13.262497 3.7892659 -109.36208
-13.262128 1.8945801 -109.36842
-13.26176 -8.49151e-06 -109.37479
-13.261392 -1.8944992 -109.38113
-13.260982 -3.7888706 -109.3882
-13.260572 -5.6831183 -109.39527
-13.260244 -7.5772991 -109.40091
-13.26008 -9.4714985 -109.40372
-13.259876 -11.365623 -109.40726
-13.259712 -13.259732 -109.41009
-13.259958 -15.154253 -109.40584
-13.260204 -17.048845 -109.40161
-13.260449 -18.943516 -109.39737
-13.261268 -20.839149 -109.38326
-13.262333 -22.735447 -109.36489
-13.263398 -24.632038 -109.34653
-13.266716 -26.533447 -109.28931
-13.271062 -28.438004 -109.21437
-13.283869 -30.363146 -108.99352
-13.099512 48.031528 -74.523811
-13.032638 45.614216 -75.869217
-13.020469 43.401554 -76.114044
-13.013288 41.208733 -76.258499
-13.019272 39.0578 -76.138138
-13.050564 36.976582 -75.508553
-11.372807 30.327461 -109.26244
-11.367925 28.419794 -109.36065
-11.36603 26.520716 -109.39879
-11.365643 24.625549 -109.40656
-11.365643 22.731277 -109.40656
-11.365994 20.837639 -109.39949
-11.366591 18.944302 -109.38749
-11.367188 17.050772 -109.37549
-11.367609 15.156801 -109.36701
-11.36782 13.262448 -109.36278
-11.367925 11.367908 -109.36066
-11.367925 9.473259 -109.36066
-11.367925 7.5786037 -109.36066
-11.367925 5.6839404 -109.36066
-11.367855 3.7892659 -109.36208
-11.367538 1.8945801 -109.36842
-11.367223 -8.49151e-06 -109.37479
-11.366907 -1.8944992 -109.38113
-11.366555 -3.7888706 -109.3882
-11.366204 -5.6831183 -109.39527
-11.365924 -7.5772991 -109.40091
-11.365784 -9.4714985 -109.40372
-11.365608 -11.365623 -109.40726
-11.365468 -13.259732 -109.41009
-11.365678 -15.154253 -109.40584
-11.365889 -17.048845 -109.40161
-11.366099 -18.943516 -109.39737
-11.366801 -20.839149 -109.38326
-11.367749 -22.735514 -109.36419
-11.368662 -24.63212 -109.34582
-11.371507 -26.533531 -109.2886
-11.375196 -28.438004 -109.21437
-11.386173 -30.363146 -108.99352
-11.020416 48.489819 -72.00927
-10.911523 45.828388 -74.638176
-10.872619 43.490459 -75.577423
-10.85423 41.246056 -76.021355
-10.844906 39.041641 -76.246468
-10.847168 36.880363 -76.191841
-9.4773388 30.327461 -109.26244
-9.4732704 28.419794 -109.36065
-9.4716911 26.520716 -109.39879
-9.4713697 24.625549 -109.40656
-9.4713697 22.731277 -109.40656
-9.4716625 20.837639 -109.39949
-9.4721584 18.944302 -109.38749
-9.4726562 17.050772 -109.37549
-9.4729776 15.156754 -109.36771
-9.4731827 13.262448 -109.36278
-9.4732704 11.367908 -109.36066
-9.4732704 9.473259 -109.36066
-9.4732704 7.5786037 -109.36066
-9.4732704 5.6839404 -109.36066
-9.4732122 3.7892659 -109.36208
-9.472949 1.8945801 -109.36842
-9.4726562 -1.4406369e-05 -109.37548
-9.472393 -1.894497 -109.38184
-9.4721003 -3.7888556 -109.3889
-9.471837 -5.6831183 -109.39527
-9.4716034 -7.5772991 -109.40091
-9.4714861 -9.4714985 -109.40372
-9.4713402 -11.365623 -109.40726
-9.4712229 -13.259732 -109.41009
-9.4713984 -15.154253 -109.40584
-9.4715738 -17.048845 -109.40161
-9.4717493 -18.943516 -109.39737
-9.4723349 -20.839149 -109.38326
-9.4731245 -22.735514 -109.36419
-9.4738846 -24.63212 -109.34582
-9.4762554 -26.533531 -109.2886
-9.4793596 -28.438097 -109.21366
-9.4885073 -30.363239 -108.99282
-8.7937775 46.167313 -72.689949
-8.7471075 43.735523 -74.098312
-8.7099485 41.372238 -75.219688
-8.6865187 39.089317 -75.926758
-8.6762619 36.874096 -76.236282
-7.5818949 30.32757 -109.26174
-7.5786166 28.419794 -109.36065
-7.5773525 26.520716 -109.39879
-7.5770955 24.625549 -109.40656
-7.5770955 22.731277 -109.40656
-7.5773296 20.837639 -109.39949
-7.5777278 18.944302 -109.38749
-7.5781016 17.050709 -109.37619
-7.578382 15.156754 -109.36771
-7.5785465 13.262448 -109.36278
-7.5786166 11.367908 -109.36066
-7.5786166 9.473259 -109.36066
-7.5786166 7.5786037 -109.36066
-7.5786166 5.6839404 -109.36066
-7.5785694 3.7892659 -109.36208
-7.5783591 1.8945801 -109.36842
-7.5781245 -1.4406369e-05 -109.37548
-7.5779142 -1.894497 -109.38184
-7.5776806 -3.7888556 -109.3889
-7.5774703 -5.6831183 -109.39527
-7.5772829 -7.5772991 -109.40091
-7.577189 -9.4714985 -109.40372
-7.5770721 -11.365623 -109.40726
-7.5769787 -13.259732 -109.41009
-7.5771194 -15.154253 -109.40584
-7.5772591 -17.048845 -109.40161
-7.5773997 -18.943516 -109.39737
-7.5778675 -20.839149 -109.38326
-7.5784998 -22.735514 -109.36419
-7.5791311 -24.632189 -109.34512
-7.5810041 -26.533531 -109.2886
-7.5834875 -28.438097 -109.21366
-7.5908051 -30.363239 -108.99282
-6.6715918 46.701126 -69.621536
-6.6025724 44.017143 -72.398659
-6.5640974 41.572609 -73.946747
-6.5347576 39.208538 -75.127312
-6.5166421 36.92762 -75.856216
-5.6864209 30.32757 -109.26174
-5.6839623 28.419794 -109.36065
-5.6830149 26.520716 -109.39879
-5.6828213 24.625549 -109.40656
-5.6828213 22.731277 -109.40656
-5.6829972 20.837639 -109.39949
-5.6832957 18.944302 -109.38749
-5.6835761 17.050709 -109.37619
-5.6837869 15.156754 -109.36771
-5.6839099 13.262448 -109.36278
-5.6839623 11.367908 -109.36066
-5.6839623 9.473259 -109.36066
-5.6839623 7.5786037 -109.36066
-5.6839623 5.6839404 -109.36066
-5.6839275 3.7892659 -109.36208
-5.6837692 1.8945801 -109.36842
-5.6835938 -1.4406369e-05 -109.37548
-5.6834359 -1.894497 -109.38184
-5.68326 -3.7888556 -109.3889
-5.6831021 -5.6831183 -109.39527
-5.6829619 -7.5772991 -109.40091
-5.6828918 -9.4714985 -109.40372
-5.6828041 -11.365623 -109.40726
-5.682734 -13.259732 -109.41009
-5.6828389 -15.154253 -109.40584
-5.6829271 -17.048798 -109.40231
-5.6830325 -18.943455 -109.39808
-5.6834006 -20.839149 -109.38326
-5.6838746 -22.735514 -109.36419
-5.6843486 -24.632189 -109.34512
-5.6857533 -26.533531 -109.2886
-5.6876154 -28.438097 -109.21366
-5.6931043 -30.363239 -108.99282
-4.4491305 44.491295 -69.53685
-4.4073906 41.870193 -72.056099
-4.3775949 39.398342 -73.854424
-4.35782 37.041454 -75.047935
-3.7909355 30.327461 -109.26244
-3.7893083 28.419794 -109.36065
-3.7886763 26.520716 -109.39879
-3.7885478 24.625549 -109.40656
-3.7885478 22.731277 -109.40656
-3.7886648 20.837639 -109.39949
-3.7888639 18.944302 -109.38749
-3.7890508 17.050709 -109.37619
-3.789191 15.156754 -109.36771
-3.7892733 13.262448 -109.36278
-3.7893083 11.367908 -109.36066
-3.7893083 9.473259 -109.36066
-3.7893083 7.5786037 -109.36066
-3.7893083 5.6839404 -109.36066
-3.7892847 3.7892659 -109.36208
-3.7891796 1.8945801 -109.36842
-3.7890623 -1.4406369e-05 -109.37548
-3.7889571 -1.894497 -109.38184
-3.7888403 -3.7888556 -109.3889
-3.7887352 -5.6831183 -109.39527
-3.7886415 -7.5772991 -109.40091
-3.7885945 -9.4714985 -109.40372
-3.7885361 -11.365623 -109.40726
-3.7884893 -13.259732 -109.41009
-3.7885597 -15.154253 -109.40584
-3.7886178 -17.048798 -109.40231
-3.7886882 -18.943455 -109.39808
-3.7889338 -20.839149 -109.38326
-3.7892499 -22.735514 -109.36419
-3.7895656 -24.632189 -109.34512
-3.7905021 -26.533531 -109.2886
-3.7917438 -28.438097 -109.21366
-3.7954025 -30.363239 -108.99282
-2.2250495 42.275932 -69.478416
-2.2036636 39.665928 -72.059914
-2.1899226 37.228672 -73.718605
-1.8954678 30.327461 -109.26244
-1.8946542 28.419794 -109.36065
-1.8943381 26.520716 -109.39879
-1.8942739 24.625549 -109.40656
-1.8942739 22.731277 -109.40656
-1.8943324 20.837639 -109.39949
-1.8944319 18.944302 -109.38749
-1.8945254 17.050709 -109.37619
-1.8945955 15.156754 -109.36771
-1.8946366 13.262448 -109.36278
-1.8946542 11.367908 -109.36066
-1.8946542 9.473259 -109.36066
-1.8946542 7.5786037 -109.36066
-1.8946542 5.6839404 -109.36066
-1.8946424 3.7892659 -109.36208
-1.8945898 1.8945801 -109.36842
-1.8945311 -1.4406369e-05 -109.37548
-1.8944786 -1.894497 -109.38184
-1.8944201 -3.7888556 -109.3889
-1.8943676 -5.6831183 -109.39527
-1.8943207 -7.5772991 -109.40091
-1.8942972 -9.4714985 -109.40372
-1.894268 -11.365623 -109.40726
-1.8942506 -13.259766 -109.40938
-1.8942798 -15.154253 -109.40584
-1.8943089 -17.048798 -109.40231
-1.8943441 -18.943455 -109.39808
-1.894461 -20.839087 -109.38396
-1.894619 -22.735447 -109.36489
-1.8947771 -24.63212 -109.34582
-1.895251 -26.533531 -109.2886
-1.8958719 -28.438097 -109.21366
-1.8977072 -30.363338 -108.9921
3.6132897e-23 43.252361 -63.274937
-1.4720839e-23 40.077629 -69.29908
8.0783396e-24 37.491219 -71.85434
7.474115e-23 30.327372 -109.26315
3.6764414e-23 28.419712 -109.36137
8.8028496e-23 26.520716 -109.39879
2.574269e-23 24.625549 -109.40656
1.1238504e-23 22.731277 -109.40656
6.1201798e-23 20.837639 -109.39949
2.488292e-23 18.944302 -109.38749
5.818946e-23 17.050709 -109.37619
4.7598037e-23 15.156754 -109.36771
6.8274409e-23 13.262448 -109.36278
7.1652274e-23 11.367908 -109.36066
3.0354118e-23 9.473259 -109.36066
2.080673e-23 7.5786037 -109.36066
7.4760878e-23 5.6839404 -109.36066
3.0191714e-23 3.7892659 -109.36208
5.0975283e-23 1.8945801 -109.36842
1.992154e-23 -1.4406369e-05 -109.37548
4.0899623e-23 -1.894497 -109.38184
5.7698965e-23 -3.7888556 -109.3889
2.0651015e-23 -5.6831183 -109.39527
1.3343854e-23 -7.577322 -109.4002
8.3436051e-23 -9.4714985 -109.40372
-9.8201192e-25 -11.365655 -109.40656
3.6386847e-23 -13.259766 -109.40938
3.7754731e-23 -15.154253 -109.40584
-2.0200178e-23 -17.048845 -109.40161
7.6355172e-23 -18.943455 -109.39808
8.2572658e-23 -20.839087 -109.38396
8.6290566e-23 -22.735447 -109.36489
7.9122307e-23 -24.63212 -109.34582
6.022096e-23 -26.533531 -109.2886
3.4044498e-23 -28.438097 -109.21366
2.0942591e-23 -30.363338 -108.9921
2.2718048 40.892479 -63.834557
2.2286704 37.887383 -69.041336
1.8954678 30.327461 -109.26244
1.8946542 28.419794 -109.36065
1.8943381 26.520716 -109.39879
1.8942739 24.625549 -109.40656
1.8942739 22.731277 -109.40656
1.8943324 20.837639 -109.39949
1.8944319 18.944302 -109.38749
1.8945254 17.050709 -109.37619
1.8945955 15.156754 -109.36771
1.8946366 13.262448 -109.36278
1.8946542 11.367908 -109.36066
1.8946542 9.473259 -109.36066
1.8946542 7.5786037 -109.36066
1.8946542 5.6839404 -109.36066
1.8946424 3.7892659 -109.36208
1.8945898 1.8945801 -109.36842
1.8945311 -1.4406369e-05 -109.37548
1.8944786 -1.894497 -109.38184
1.8944201 -3.7888556 -109.3889
1.8943676 -5.6831183 -109.39527
1.8943207 -7.5772991 -109.40091
1.8942972 -9.4714985 -109.40372
1.894268 -11.365623 -109.40726
1.8942506 -13.259766 -109.40938
1.8942798 -15.154253 -109.40584
1.8943089 -17.048798 -109.40231
1.8943441 -18.943455 -109.39808
1.894461 -20.839087 -109.38396
1.894619 -22.735447 -109.36489
1.8947771 -24.63212 -109.34582
1.895251 -26.533531 -109.2886
1.8958719 -28.438097 -109.21366
1.8977072 -30.363338 -108.9921
4.5433402 38.618378 -63.8508
3.7909355 30.327461 -109.26244
3.7893083 28.419794 -109.36065
3.7886763 26.520716 -109.39879
3.7885478 24.625549 -109.40656
3.7885478 22.731277 -109.40656
3.7886648 20.837639 -109.39949
3.788852 18.944246 -109.3882
3.7890389 17.050665 -109.3769
3.789191 15.156754 -109.36771
3.7892733 13.262448 -109.36278
3.7893083 11.367908 -109.36066
3.7893083 9.473259 -109.36066
3.7893083 7.5786037 -109.36066
3.7893083 5.6839404 -109.36066
3.7892847 3.7892659 -109.36208
3.7891796 1.8945801 -109.36842
3.7890623 -1.4406369e-05 -109.37548
3.7889571 -1.894497 -109.38184
3.7888403 -3.7888556 -109.3889
3.7887352 -5.6831183 -109.39527
3.7886415 -7.5772991 -109.40091
3.7885945 -9.4714985 -109.40372
3.7885361 -11.365623 -109.40726
3.7884893 -13.259732 -109.41009
3.7885597 -15.154253 -109.40584
3.7886178 -17.048798 -109.40231
3.7886882 -18.943455 -109.39808
3.7889221 -20.839087 -109.38396
3.7892499 -22.735514 -109.36419
3.7895656 -24.632189 -109.34512
3.7905021 -26.533531 -109.2886
3.7917438 -28.438097 -109.21366
3.7954144 -30.363338 -108.9921
5.6864033 30.327461 -109.26244
5.6839623 28.419794 -109.36065
5.6830149 26.520716 -109.39879
5.6828213 24.625549 -109.40656
5.6828213 22.731277 -109.40656
5.6829972 20.837639 -109.39949
5.6832776 18.944246 -109.3882
5.6835585 17.050665 -109.3769
5.6837869 15.156754 -109.36771
5.6839099 13.262448 -109.36278
5.6839623 11.367908 -109.36066
5.6839623 9.473259 -109.36066
5.6839623 7.5786037 -109.36066
5.6839623 5.6839404 -109.36066
5.6839275 3.7892659 -109.36208
5.6837692 1.8945801 -109.36842
5.6835938 -1.4406369e-05 -109.37548
5.6834359 -1.894497 -109.38184
5.68326 -3.7888556 -109.3889
5.6831021 -5.6831183 -109.39527
5.6829619 -7.5772991 -109.40091
5.6828918 -9.4714985 -109.40372
5.6828041 -11.365623 -109.40726
5.682734 -13.259732 -109.41009
5.6828213 -15.154205 -109.40656
5.6829271 -17.048798 -109.40231
5.6830325 -18.943455 -109.39808
5.683383 -20.839087 -109.38396
5.6838746 -22.735514 -109.36419
5.6843486 -24.632189 -109.34512
5.6857533 -26.533531 -109.2886
5.6876154 -28.438097 -109.21366
5.6931043 -30.363239 -108.99282
7.581871 30.327461 -109.26244
7.5786166 28.419794 -109.36065
7.5773525 26.520716 -109.39879
7.5770955 24.625549 -109.40656
7.5770955 22.731277 -109.40656
7.5773296 20.837639 -109.39949
7.577704 18.944246 -109.3882
7.5780778 17.050665 -109.3769
7.578382 15.156754 -109.36771
7.5785465 13.262448 -109.36278
7.5786166 11.367908 -109.36066
7.5786166 9.473259 -109.36066
7.5786166 7.5786037 -109.36066
7.5786166 5.6839404 -109.36066
7.5785694 3.7892659 -109.36208
7.5783591 1.8945801 -109.36842
7.5781245 -1.4406369e-05 -109.37548
7.5779142 -1.894497 -109.38184
7.5776806 -3.7888556 -109.3889
7.5774703 -5.6831183 -109.39527
7.5772829 -7.5772991 -109.40091
7.577189 -9.4714985 -109.40372
7.5770721 -11.365623 -109.40726
7.5769787 -13.259732 -109.41009
7.5770955 -15.154205 -109.40656
7.5772357 -17.048798 -109.40231
7.5773764 -18.943455 -109.39808
7.5778441 -20.839087 -109.38396
7.5784998 -22.735514 -109.36419
7.5791311 -24.632189 -109.34512
7.5810041 -26.533531 -109.2886
7.5834875 -28.438097 -109.21366
7.5908051 -30.363239 -108.99282
9.4773388 30.327461 -109.26244
9.4732704 28.419794 -109.36065
9.4716911 26.520716 -109.39879
9.4713697 24.625549 -109.40656
9.4713697 22.731277 -109.40656
9.4716625 20.837639 -109.39949
9.4721298 18.944246 -109.3882
9.4725981 17.050665 -109.3769
9.4729776 15.156754 -109.36771
9.4731827 13.262448 -109.36278
9.4732704 11.367908 -109.36066
9.4732704 9.473259 -109.36066
9.4732704 7.5786037 -109.36066
9.4732704 5.6839404 -109.36066
9.4732122 3.7892659 -109.36208
9.472949 1.8945801 -109.36842
9.4726562 -1.4406369e-05 -109.37548
9.472393 -1.894497 -109.38184
9.4721003 -3.7888556 -109.3889
9.471837 -5.6831183 -109.39527
9.4716034 -7.5772991 -109.40091
9.4714861 -9.4714985 -109.40372
9.4713402 -11.365623 -109.40726
9.4712229 -13.259732 -109.41009
9.4713697 -15.154205 -109.40656
9.4715443 -17.048798 -109.40231
9.4717207 -18.943455 -109.39808
9.4723053 -20.839087 -109.38396
9.4731245 -22.735514 -109.36419
9.4739141 -24.632189 -109.34512
9.476285 -26.533613 -109.28789
9.4793596 -28.438097 -109.21366
9.4885073 -30.363239 -108.99282
11.372807 30.327461 -109.26244
11.367925 28.419794 -109.36065
11.36603 26.520716 -109.39879
11.365643 24.625549 -109.40656
11.365643 22.731277 -109.40656
11.365994 20.837639 -109.39949
11.366555 18.944246 -109.3882
11.367117 17.050665 -109.3769
11.367574 15.156754 -109.36771
11.36782 13.262448 -109.36278
11.367925 11.367908 -109.36066
11.367925 9.473259 -109.36066
11.367925 7.5786037 -109.36066
11.367925 5.6839404 -109.36066
11.367855 3.7892659 -109.36208
11.367538 1.8945801 -109.36842
11.367188 -1.4406369e-05 -109.37548
11.366872 -1.894497 -109.38184
11.36652 -3.7888556 -109.3889
11.366204 -5.6831183 -109.39527
11.365924 -7.5772991 -109.40091
11.365784 -9.4714985 -109.40372
11.365608 -11.365623 -109.40726
11.365468 -13.259732 -109.41009
11.365643 -15.154205 -109.40656
11.365854 -17.048798 -109.40231
11.366065 -18.943455 -109.39808
11.366766 -20.839087 -109.38396
11.367749 -22.735514 -109.36419
11.368697 -24.632189 -109.34512
11.371542 -26.533613 -109.28789
11.375231 -28.438097 -109.21366
11.386209 -30.363239 -108.99282
13.268274 30.327461 -109.26244
13.262579 28.419794 -109.36065
13.260367 26.520716 -109.39879
13.259917 24.625549 -109.40656
13.259917 22.731277 -109.40656
13.260326 20.837639 -109.39949
13.260982 18.944246 -109.3882
13.261638 17.050665 -109.3769
13.262211 15.156801 -109.36701
13.262456 13.262448 -109.36278
13.262579 11.367908 -109.36066
13.262579 9.473259 -109.36066
13.262579 7.5786037 -109.36066
13.262579 5.6839404 -109.36066
13.262497 3.7892659 -109.36208
13.262128 1.8945801 -109.36842
13.26176 -8.4915091e-06 -109.37479
13.261392 -1.8944992 -109.38113
13.260982 -3.7888706 -109.3882
13.260572 -5.6831183 -109.39527
13.260244 -7.5772991 -109.40091
13.26008 -9.4714985 -109.40372
13.259876 -11.365623 -109.40726
13.259712 -13.259732 -109.41009
13.259917 -15.154205 -109.40656
13.260163 -17.048798 -109.40231
13.260409 -18.943455 -109.39808
13.261227 -20.839087 -109.38396
13.262374 -22.735514 -109.36419
13.26348 -24.632189 -109.34512
13.266798 -26.533613 -109.28789
13.271103 -28.438097 -109.21366
13.283951 -30.363338 -108.9921
15.163742 30.327461 -109.26244
15.157233 28.419794 -109.36065
15.154705 26.520716 -109.39879
15.154191 24.625549 -109.40656
15.154191 22.731277 -109.40656
15.154659 20.837639 -109.39949
15.155408 18.944246 -109.3882
15.156156 17.050665 -109.3769
15.156812 15.156801 -109.36701
15.157093 13.262448 -109.36278
15.157233 11.367908 -109.36066
15.157233 9.473259 -109.36066
15.157233 7.5786037 -109.36066
15.157233 5.6839404 -109.36066
15.157139 3.7892659 -109.36208
15.156718 1.8945801 -109.36842
15.156297 -8.4915091e-06 -109.37479
15.155876 -1.8944992 -109.38113
15.155408 -3.7888706 -109.3882
15.154941 -5.6831183 -109.39527
15.154566 -7.5772991 -109.40091
15.154378 -9.4714985 -109.40372
15.154144 -11.365623 -109.40726
15.153957 -13.259732 -109.41009
15.154191 -15.154205 -109.40656
15.154471 -17.048798 -109.40231
15.154753 -18.943455 -109.39808
15.155688 -20.839087 -109.38396
15.157 -22.735514 -109.36419
15.158262 -24.632189 -109.34512
15.162056 -26.533613 -109.28789
15.166975 -28.438097 -109.21366
15.181658 -30.363338 -108.9921
17.05921 30.327461 -109.26244
17.051888 28.419794 -109.36065
17.049044 26.520716 -109.39879
17.048466 24.625549 -109.40656
17.048466 22.731277 -109.40656
17.04899 20.837639 -109.39949
17.049833 18.944246 -109.3882
17.050676 17.050665 -109.3769
17.051413 15.156801 -109.36701
17.051729 13.262448 -109.36278
17.051888 11.367908 -109.36066
17.051888 9.473259 -109.36066
17.051888 7.5786037 -109.36066
17.051888 5.6839404 -109.36066
17.051783 3.7892659 -109.36208
17.051308 1.8945801 -109.36842
17.050835 -8.4915091e-06 -109.37479
17.050413 -1.8945053 -109.38042
17.049833 -3.7888706 -109.3882
17.049307 -5.6831183 -109.39527
17.048885 -7.5772991 -109.40091
17.048676 -9.4714985 -109.40372
17.048412 -11.365623 -109.40726
17.048203 -13.259732 -109.41009
17.048517 -15.154253 -109.40584
17.04878 -17.048798 -109.40231
17.049097 -18.943455 -109.39808
17.050148 -20.839087 -109.38396
17.051624 -22.735514 -109.36419
17.053047 -24.632189 -109.34512
17.057259 -26.533531 -109.2886
17.062847 -28.438097 -109.21366
17.079367 -30.363338 -108.9921
18.954678 30.327461 -109.26244
18.946541 28.419794 -109.36065
18.943382 26.520716 -109.39879
18.942739 24.625549 -109.40656
18.942739 22.731277 -109.40656
18.943325 20.837639 -109.39949
18.944317 18.944302 -109.38749
18.945253 17.050709 -109.37619
18.946014 15.156801 -109.36701
18.946365 13.262448 -109.36278
18.946541 11.367908 -109.36066
18.946541 9.473259 -109.36066
18.946541 7.5786037 -109.36066
18.946541 5.6839404 -109.36066
18.946424 3.7892659 -109.36208
18.945898 1.8945801 -109.36842
18.945372 -8.4915091e-06 -109.37479
18.944902 -1.8945053 -109.38042
18.94426 -3.7888706 -109.3882
18.943674 -5.6831183 -109.39527
18.943266 -7.577322 -109.4002
18.942972 -9.4714985 -109.40372
18.94268 -11.365623 -109.40726
18.942446 -13.259732 -109.41009
18.942797 -15.154253 -109.40584
18.943089 -17.048798 -109.40231
18.943441 -18.943455 -109.39808
18.944611 -20.839087 -109.38396
18.94619 -22.735447 -109.36489
18.947769 -24.63212 -109.34582
18.952511 -26.533531 -109.2886
18.958719 -28.438097 -109.21366
18.977072 -30.363338 -108.9921
20.850145 30.327461 -109.26244
20.841196 28.419794 -109.36065
20.837721 26.520716 -109.39879
20.837013 24.625549 -109.40656
20.837078 22.731346 -109.40585
20.837656 20.837639 -109.39949
20.838749 18.944302 -109.38749
20.839779 17.050709 -109.37619
20.840551 15.156754 -109.36771
20.841003 13.262448 -109.36278
20.841196 11.367908 -109.36066
20.841196 9.473259 -109.36066
20.841196 7.5786037 -109.36066
20.841196 5.6839404 -109.36066
20.841066 3.7892659 -109.36208
20.840488 1.8945801 -109.36842
20.839907 -8.4915091e-06 -109.37479
20.839394 -1.8945053 -109.38042
20.838686 -3.7888706 -109.3882
20.838043 -5.6831183 -109.39527
20.837593 -7.577322 -109.4002
20.837271 -9.4714985 -109.40372
20.837013 -11.365655 -109.40656
20.836691 -13.259732 -109.41009
20.837078 -15.154253 -109.40584
20.837463 -17.048845 -109.40161
20.837784 -18.943455 -109.39808
20.839071 -20.839087 -109.38396
20.840809 -22.735447 -109.36489
20.842546 -24.63212 -109.34582
20.847761 -26.533531 -109.2886
20.854591 -28.438097 -109.21366
20.874716 -30.363239 -108.99282
22.745684 30.32757 -109.26174
22.735849 28.419794 -109.36065
22.732059 26.520716 -109.39879
22.731285 24.625549 -109.40656
22.731356 22.731346 -109.40585
22.731989 20.837639 -109.39949
22.733183 18.944302 -109.38749
22.734304 17.050709 -109.37619
22.735147 15.156754 -109.36771
22.73564 13.262448 -109.36278
22.735849 11.367908 -109.36066
22.735849 9.473259 -109.36066
22.735849 7.5786037 -109.36066
22.735849 5.6839404 -109.36066
22.73571 3.7892659 -109.36208
22.735077 1.8945801 -109.36842
22.734446 -8.4915091e-06 -109.37479
22.733885 -1.8945053 -109.38042
22.73311 -3.7888706 -109.3882
22.732409 -5.6831183 -109.39527
22.731918 -7.577322 -109.4002
22.731567 -9.4714985 -109.40372
22.731285 -11.365655 -109.40656
22.731007 -13.259766 -109.40938
22.731356 -15.154253 -109.40584
22.731777 -17.048845 -109.40161
22.73213 -18.943455 -109.39808
22.733532 -20.839087 -109.38396
22.735428 -22.735447 -109.36489
22.737253 -24.632038 -109.34653
22.743013 -26.533531 -109.2886
22.750462 -28.438097 -109.21366
22.772417 -30.363239 -108.99282
24.641157 30.32757 -109.26174
24.630503 28.419794 -109.36065
24.626398 26.520716 -109.39879
24.625561 24.625549 -109.40656
24.625637 22.731346 -109.40585
24.626322 20.837639 -109.39949
24.627615 18.944302 -109.38749
24.628832 17.050709 -109.37619
24.629744 15.156754 -109.36771
24.630276 13.262448 -109.36278
24.630503 11.367908 -109.36066
24.630503 9.473259 -109.36066
24.630503 7.5786037 -109.36066
24.630503 5.6839404 -109.36066
24.630352 3.7892659 -109.36208
24.629667 1.8945801 -109.36842
24.628983 -8.4915091e-06 -109.37479
24.628374 -1.8945053 -109.38042
24.627537 -3.7888706 -109.3882
24.626778 -5.6831183 -109.39527
24.626244 -7.577322 -109.4002
24.625864 -9.4714985 -109.40372
24.625561 -11.365655 -109.40656
24.625256 -13.259766 -109.40938
24.625637 -15.154253 -109.40584
24.626017 -17.048798 -109.40231
24.626472 -18.943455 -109.39808
24.627995 -20.839087 -109.38396
24.629971 -22.735365 -109.36561
24.632025 -24.632038 -109.34653
24.638187 -26.533447 -109.28931
24.646336 -28.438097 -109.21366
24.670118 -30.363239 -108.99282
26.536549 30.327461 -109.26244
26.525158 28.419794 -109.36065
26.520819 26.520807 -109.39809
26.519835 24.625549 -109.40656
26.519917 22.731346 -109.40585
26.520653 20.837639 -109.39949
26.522047 18.944302 -109.38749
26.523355 17.050709 -109.37619
26.524338 15.156754 -109.36771
26.524912 13.262448 -109.36278
26.525158 11.367908 -109.36066
26.525158 9.473259 -109.36066
26.525158 7.5786037 -109.36066
26.525158 5.6839404 -109.36066
26.524994 3.7892659 -109.36208
26.524256 1.8945801 -109.36842
26.52352 -8.4915091e-06 -109.37479
26.522783 -1.8944992 -109.38113
26.521963 -3.7888706 -109.3882
26.521145 -5.6831183 -109.39527
26.520571 -7.577322 -109.4002
26.520161 -9.4714985 -109.40372
26.519835 -11.365655 -109.40656
26.519424 -13.259732 -109.41009
26.519917 -15.154253 -109.40584
26.520327 -17.048798 -109.40231
26.520735 -18.943401 -109.39879
26.522373 -20.839025 -109.38467
26.524584 -22.735365 -109.36561
26.526796 -24.632038 -109.34653
26.533432 -26.533447 -109.28931
26.542206 -28.438097 -109.21366
26.56782 -30.363239 -108.99282
28.432016 30.327461 -109.26244
28.419811 28.419794 -109.36065
28.415161 26.520807 -109.39809
28.414108 24.625549 -109.40656
28.414108 22.731277 -109.40656
28.414988 20.837639 -109.39949
28.416477 18.944302 -109.38749
28.417881 17.050709 -109.37619
28.419022 15.156801 -109.36701
28.419548 13.262448 -109.36278
28.419811 11.367908 -109.36066
28.419811 9.473259 -109.36066
28.419811 7.5786037 -109.36066
28.419811 5.6839404 -109.36066
28.419638 3.7892659 -109.36208
28.418848 1.8945801 -109.36842
28.418055 -8.4915091e-06 -109.37479
28.417181 -1.894497 -109.38184
28.416388 -3.7888706 -109.3882
28.415512 -5.6831183 -109.39527
28.414898 -7.577322 -109.4002
28.414461 -9.4714985 -109.40372
28.414021 -11.365623 -109.40726
28.413671 -13.259732 -109.41009
28.414108 -15.154205 -109.40656
28.414635 -17.048798 -109.40231
28.415071 -18.943401 -109.39879
28.416828 -20.839025 -109.38467
28.419197 -22.735365 -109.36561
28.421568 -24.632038 -109.34653
28.428679 -26.533447 -109.28931
28.43799 -28.438004 -109.21437
28.465433 -30.363146 -108.99352
30.327484 30.327461 -109.26244
30.314466 28.419794 -109.36065
30.309505 26.520807 -109.39809
30.308382 24.625549 -109.40656
30.308382 22.731277 -109.40656
30.309319 20.837639 -109.39949
30.310816 18.944246 -109.3882
30.312311 17.050665 -109.3769
30.313623 15.156801 -109.36701
30.314186 13.262448 -109.36278
30.314466 11.367908 -109.36066
30.314466 9.473259 -109.36066
30.314466 7.5786037 -109.36066
30.314466 5.6839404 -109.36066
30.314278 3.7892659 -109.36208
30.313437 1.8945801 -109.36842
30.312498 -1.4406369e-05 -109.37548
30.311657 -1.894497 -109.38184
30.310722 -3.7888556 -109.3889
30.309881 -5.6831183 -109.39527
30.309132 -7.5772991 -109.40091
30.308756 -9.4714985 -109.40372
30.308289 -11.365623 -109.40726
30.307915 -13.259732 -109.41009
30.308382 -15.154205 -109.40656
30.308943 -17.048798 -109.40231
30.30941 -18.943401 -109.39879
30.311281 -20.839025 -109.38467
30.31381 -22.735365 -109.36561
30.316338 -24.632038 -109.34653
30.323925 -26.533447 -109.28931
30.333857 -28.438004 -109.21437
30.363129 -30.363146 -108.99352
32.22295 30.327461 -109.26244
32.209122 28.419794 -109.36065
32.203846 26.520807 -109.39809
32.202656 24.625549 -109.40656
32.202656 22.731277 -109.40656
32.203651 20.837639 -109.39949
32.205242 18.944246 -109.3882
32.206833 17.050665 -109.3769
32.208225 15.156801 -109.36701
32.20882 13.262448 -109.36278
32.209122 11.367908 -109.36066
32.209122 9.473259 -109.36066
32.209122 7.5786037 -109.36066
32.209122 5.6839404 -109.36066
32.208923 3.7892659 -109.36208
32.208023 1.8945801 -109.36842
32.207031 -1.4406369e-05 -109.37548
32.206139 -1.894497 -109.38184
32.205143 -3.7888556 -109.3889
32.204247 -5.6831183 -109.39527
32.203453 -7.5772991 -109.40091
32.203056 -9.4714985 -109.40372
32.202557 -11.365623 -109.40726
32.20216 -13.259732 -109.41009
32.202656 -15.154205 -109.40656
32.203251 -17.048798 -109.40231
32.203751 -18.943401 -109.39879
32.205837 -20.839087 -109.38396
32.208523 -22.735447 -109.36489
32.211208 -24.63212 -109.34582
32.219269 -26.533531 -109.2886
32.229721 -28.438004 -109.21437
32.260925 -30.363239 -108.99282
34.11842 30.327461 -109.26244
34.103775 28.419794 -109.36065
34.098087 26.520716 -109.39879
34.096931 24.625549 -109.40656
34.096931 22.731277 -109.40656
34.09798 20.837639 -109.39949
34.099667 18.944246 -109.3882
34.101353 17.050665 -109.3769
34.102825 15.156801 -109.36701
34.103458 13.262448 -109.36278
34.103775 11.367908 -109.36066
34.103775 9.473259 -109.36066
34.103775 7.5786037 -109.36066
34.103775 5.6839404 -109.36066
34.103565 3.7892659 -109.36208
34.102615 1.8945801 -109.36842
34.101562 -1.4406369e-05 -109.37548
34.100616 -1.894497 -109.38184
34.09956 -3.7888556 -109.3889
34.098614 -5.6831183 -109.39527
34.097771 -7.5772991 -109.40091
34.097351 -9.4714985 -109.40372
34.096825 -11.365623 -109.40726
34.096405 -13.259732 -109.41009
34.096931 -15.154205 -109.40656
34.097561 -17.048798 -109.40231
34.098087 -18.943401 -109.39879
34.100296 -20.839087 -109.38396
34.103142 -22.735447 -109.36489
34.106094 -24.632189 -109.34512
34.114517 -26.533531 -109.2886
34.125591 -28.438004 -109.21437
34.158627 -30.363239 -108.99282
36.013885 30.327461 -109.26244
35.998428 28.419794 -109.36065
35.992424 26.520716 -109.39879
35.991207 24.625549 -109.40656
35.991207 22.731277 -109.40656
35.992207 20.83758 -109.4002
35.994095 18.944246 -109.3882
35.995872 17.050665 -109.3769
35.997429 15.156801 -109.36701
35.998096 13.262448 -109.36278
35.998428 11.367908 -109.36066
35.998428 9.473259 -109.36066
35.998428 7.5786037 -109.36066
35.998428 5.6839404 -109.36066
35.998203 3.7892659 -109.36208
35.997204 1.8945801 -109.36842
35.996094 -1.4406369e-05 -109.37548
35.995094 -1.894497 -109.38184
35.99398 -3.7888556 -109.3889
35.992981 -5.6831183 -109.39527
35.992092 -7.5772991 -109.40091
35.99165 -9.4714985 -109.40372
35.991093 -11.365623 -109.40726
35.99065 -13.259732 -109.41009
35.991207 -15.154205 -109.40656
35.991871 -17.048798 -109.40231
35.992424 -18.943401 -109.39879
35.994762 -20.839087 -109.38396
35.997761 -22.735447 -109.36489
36.000874 -24.632189 -109.34512
36.009773 -26.533531 -109.2886
36.021564 -28.438097 -109.21366
36.056328 -30.363239 -108.99282
37.909355 30.327461 -109.26244
37.893082 28.419794 -109.36065
37.886765 26.520716 -109.39879
37.885479 24.625549 -109.40656
37.885361 22.731199 -109.40726
37.886532 20.83758 -109.4002
37.888519 18.944246 -109.3882
37.890507 17.050709 -109.37619
37.892029 15.156801 -109.36701
37.892731 13.262448 -109.36278
37.893082 11.367908 -109.36066
37.893082 9.473259 -109.36066
37.893082 7.5786037 -109.36066
37.893082 5.6839404 -109.36066
37.892849 3.7892659 -109.36208
37.891796 1.8945801 -109.36842
37.890625 -1.4406369e-05 -109.37548
37.889572 -1.894497 -109.38184
37.888401 -3.7888556 -109.3889
37.887348 -5.6831183 -109.39527
37.886414 -7.5772991 -109.40091
37.885944 -9.4714985 -109.40372
37.885361 -11.365623 -109.40726
37.884892 -13.259732 -109.41009
37.885479 -15.154205 -109.40656
37.886177 -17.048798 -109.40231
37.886765 -18.943401 -109.39879
37.889221 -20.839087 -109.38396
37.89238 -22.735447 -109.36489
37.895538 -24.63212 -109.34582
37.905022 -26.533531 -109.2886
37.917439 -28.438097 -109.21366
37.953911 -30.363146 -108.99352
38.025185 -32.321419 -108.56335
39.804699 30.327372 -109.26315
39.787613 28.419712 -109.36137
39.781101 26.520716 -109.39879
39.779751 24.625549 -109.40656
39.779629 22.731199 -109.40726
39.780735 20.837509 -109.40091
39.78307 18.944302 -109.38749
39.785156 17.050772 -109.37549
39.786633 15.156801 -109.36701
39.787369 13.262448 -109.36278
39.787735 11.367908 -109.36066
39.787735 9.473259 -109.36066
39.787735 7.5786037 -109.36066
39.787735 5.6839404 -109.36066
39.787491 3.7892659 -109.36208
39.786385 1.8945801 -109.36842
39.785278 -8.4915091e-06 -109.37479
39.78405 -1.894497 -109.38184
39.782822 -3.7888556 -109.3889
39.781719 -5.6831183 -109.39527
39.780735 -7.5772991 -109.40091
39.780243 -9.4714985 -109.40372
39.779629 -11.365623 -109.40726
39.77914 -13.259732 -109.41009
39.779751 -15.154205 -109.40656
39.780487 -17.048798 -109.40231
39.781101 -18.943401 -109.39879
39.783558 -20.839025 -109.38467
39.786877 -22.735365 -109.36561
39.790192 -24.632038 -109.34653
39.800274 -26.533531 -109.2886
39.813309 -28.438097 -109.21366
39.851608 -30.363146 -108.99352
39.926445 -32.321419 -108.56335
41.700161 30.327372 -109.26315
41.682262 28.419712 -109.36137
41.675442 26.520716 -109.39879
41.674026 24.625549 -109.40656
41.673897 22.731199 -109.40726
41.675186 20.83758 -109.4002
41.677498 18.944302 -109.38749
41.679688 17.050772 -109.37549
41.681103 15.156754 -109.36771
41.682007 13.262448 -109.36278
41.682392 11.367908 -109.36066
41.682392 9.473259 -109.36066
41.682392 7.5786037 -109.36066
41.682392 5.6839404 -109.36066
41.682133 3.7892659 -109.36208
41.680977 1.8945801 -109.36842
41.679813 -8.4915091e-06 -109.37479
41.678658 -1.8944992 -109.38113
41.677372 -3.7888706 -109.3882
41.676086 -5.6831183 -109.39527
41.675056 -7.5772991 -109.40091
41.674541 -9.4714985 -109.40372
41.673897 -11.365623 -109.40726
41.673382 -13.259732 -109.41009
41.674026 -15.154205 -109.40656
41.674797 -17.048798 -109.40231
41.675442 -18.943401 -109.39879
41.678017 -20.839025 -109.38467
41.681488 -22.735365 -109.36561
41.684967 -24.632038 -109.34653
41.695522 -26.533531 -109.2886
41.709183 -28.438097 -109.21366
41.749302 -30.363146 -108.99352
41.827702 -32.321419 -108.56335
43.595623 30.327372 -109.26315
43.577045 28.419794 -109.36065
43.569778 26.520716 -109.39879
43.568298 24.625549 -109.40656
43.568298 22.731277 -109.40656
43.569645 20.837639 -109.39949
43.57193 18.944302 -109.38749
43.574085 17.050709 -109.37619
43.575699 15.156754 -109.36771
43.576641 13.262448 -109.36278
43.577045 11.367908 -109.36066
43.577045 9.473259 -109.36066
43.577045 7.5786037 -109.36066
43.577045 5.6839404 -109.36066
43.576775 3.7892659 -109.36208
43.575565 1.8945801 -109.36842
43.574352 -8.4915091e-06 -109.37479
43.57328 -1.8945053 -109.38042
43.5718 -3.7888706 -109.3882
43.570454 -5.6831183 -109.39527
43.569374 -7.5772991 -109.40091
43.56884 -9.4714985 -109.40372
43.568165 -11.365623 -109.40726
43.567627 -13.259732 -109.41009
43.568298 -15.154205 -109.40656
43.569103 -17.048798 -109.40231
43.569778 -18.943401 -109.39879
43.572468 -20.839025 -109.38467
43.576103 -22.735365 -109.36561
43.579735 -24.632038 -109.34653
43.590775 -26.533531 -109.2886
43.605053 -28.438097 -109.21366
43.646996 -30.363146 -108.99352
43.728962 -32.321419 -108.56335
45.491085 30.327372 -109.26315
45.471699 28.419794 -109.36065
45.46426 26.520807 -109.39809
45.46257 24.625549 -109.40656
45.46257 22.731277 -109.40656
45.463978 20.837639 -109.39949
45.466366 18.944302 -109.38749
45.468609 17.050709 -109.37619
45.470436 15.156801 -109.36701
45.471279 13.262448 -109.36278
45.471699 11.367908 -109.36066
45.471699 9.473259 -109.36066
45.471699 7.5786037 -109.36066
45.471699 5.6839404 -109.36066
45.47142 3.7892659 -109.36208
45.470154 1.8945801 -109.36842
45.468891 -8.4915091e-06 -109.37479
45.46777 -1.8945053 -109.38042
45.466221 -3.7888706 -109.3882
45.464817 -5.6831183 -109.39527
45.463696 -7.5772991 -109.40091
45.463135 -9.4714985 -109.40372
45.462433 -11.365623 -109.40726
45.461872 -13.259732 -109.41009
45.46257 -15.154205 -109.40656
45.463417 -17.048798 -109.40231
45.464119 -18.943401 -109.39879
45.466927 -20.839025 -109.38467
45.470715 -22.735365 -109.36561
45.474506 -24.632038 -109.34653
45.485886 -26.533447 -109.28931
45.500923 -28.438097 -109.21366
45.544693 -30.363146 -108.99352
45.630219 -32.321419 -108.56335
47.386841 30.32757 -109.26174
47.366501 28.419886 -109.35995
47.358749 26.52088 -109.39738
47.356991 24.625618 -109.40585
47.356991 22.731346 -109.40585
47.358456 20.837711 -109.39879
47.360794 18.944302 -109.38749
47.363136 17.050709 -109.37619
47.365036 15.156801 -109.36701
47.366058 13.262478 -109.36208
47.366501 11.367946 -109.35995
47.366501 9.4732809 -109.35995
47.366352 7.5786037 -109.36066
47.366501 5.6839728 -109.35995
47.366207 3.7892814 -109.36137
47.364891 1.8945788 -109.36773
47.363575 -1.7854656e-05 -109.37408
47.362259 -1.8945053 -109.38042
47.360794 -3.7888758 -109.3875
47.359333 -5.6831412 -109.39455
47.358162 -7.577322 -109.4002
47.357578 -9.4715309 -109.40302
47.356846 -11.365655 -109.40656
47.356262 -13.259766 -109.40938
47.356991 -15.154253 -109.40584
47.357872 -17.048845 -109.40161
47.358601 -18.943455 -109.39808
47.361526 -20.839087 -109.38396
47.365475 -22.735447 -109.36489
47.369423 -24.63212 -109.34582
47.381424 -26.533613 -109.28789
47.396942 -28.438185 -109.21295
47.443123 -30.363609 -108.98999
47.531483 -32.321419 -108.56335
49.282921 30.327944 -109.25892
49.261616 28.420143 -109.35783
49.253403 26.521048 -109.39597
49.251579 24.625782 -109.40443
49.251579 22.73148 -109.40443
49.252945 20.837772 -109.39809
49.255531 18.944422 -109.38609
49.257965 17.050823 -109.37478
49.260098 15.156946 -109.3649
49.261005 13.262563 -109.36066
49.261463 11.36802 -109.35854
49.261463 9.4733438 -109.35853
49.261463 7.5786653 -109.35854
49.261463 5.6840005 -109.35854
49.261005 3.7892849 -109.36066
49.25964 1.8945864 -109.36701
49.25827 -1.9961817e-05 -109.37337
49.256901 -1.8945106 -109.37971
49.255379 -3.7888918 -109.38679
49.25386 -5.6831474 -109.39384
49.252796 -7.577374 -109.39879
49.252186 -9.4715862 -109.40161
49.251427 -11.365721 -109.40514
49.250816 -13.259851 -109.40796
49.251579 -15.154353 -109.40443
49.252487 -17.048954 -109.4002
49.25325 -18.943577 -109.39667
49.256447 -20.839285 -109.38184
49.260551 -22.735657 -109.36279
49.264656 -24.632349 -109.34371
49.276985 -26.533777 -109.28648
49.293125 -28.438362 -109.21155
49.343903 -30.365494 -108.97581
49.470451 -32.346081 -108.38827
51.179367 30.328505 -109.25467
51.157082 28.420589 -109.3543
51.148552 26.521461 -109.39243
51.14666 24.626156 -109.40092
51.14666 22.731836 -109.40091
51.148239 20.838154 -109.39384
51.150764 18.944714 -109.38255
51.153294 17.051085 -109.37125
51.155502 15.157175 -109.36137
51.156292 13.262736 -109.35783
51.156765 11.36816 -109.35571
51.156765 9.4734602 -109.35571
51.156765 7.5787563 -109.35571
51.156765 5.6840777 -109.35571
51.156452 3.7893434 -109.35712
51.155186 1.8946296 -109.36278
51.153767 -1.5613869e-05 -109.36913
51.152344 -1.8945428 -109.37549
51.150764 -3.7889585 -109.38255
51.149185 -5.6832547 -109.38961
51.147923 -7.5774832 -109.39526
51.147289 -9.471736 -109.39809
51.14666 -11.365932 -109.4009
51.14587 -13.26005 -109.40443
51.146816 -15.154629 -109.4002
51.147606 -17.049223 -109.39666
51.148552 -18.943924 -109.39243
51.151711 -20.839605 -109.37831
51.155975 -22.736008 -109.35924
51.1604 -24.632799 -109.33947
51.173679 -26.534515 -109.28011
51.191387 -28.439676 -109.20093
51.240952 -30.365023 -108.97935
51.55254 -32.459015 -107.5863
53.076542 30.329437 -109.2476
53.053265 28.421379 -109.34795
53.044418 26.52219 -109.38608
53.042454 24.626833 -109.39455
53.042454 22.73247 -109.39455
53.043926 20.838669 -109.3882
53.046711 18.945236 -109.37619
53.049332 17.05155 -109.36489
53.051464 15.157546 -109.35571
53.052608 13.26313 -109.35077
53.052937 11.368467 -109.34935
53.052937 9.4737263 -109.34937
53.052937 7.5789752 -109.34936
53.052937 5.684227 -109.34936
53.052608 3.7894592 -109.35077
53.0513 1.8946761 -109.35642
53.049824 -1.281036e-05 -109.36277
53.048347 -1.8946015 -109.36914
53.046711 -3.7890689 -109.3762
53.045071 -5.6834097 -109.38326
53.043926 -7.5777192 -109.38819
53.04311 -9.472002 -109.39172
53.04229 -11.366215 -109.39526
53.041637 -13.260425 -109.39808
53.042614 -15.155051 -109.39384
53.043598 -17.049742 -109.38961
53.044418 -18.944452 -109.38608
53.047859 -20.840239 -109.37125
53.052444 -22.73678 -109.35148
53.057034 -24.633636 -109.3317
53.070801 -26.535412 -109.27234
53.089336 -28.440731 -109.19244
53.13942 -30.365402 -108.97652
54.027664 -32.802525 -105.14721
54.976036 30.331594 -109.23134
54.951759 28.423307 -109.33241
54.942085 26.52375 -109.37267
54.94022 24.628359 -109.38043
54.940048 22.733797 -109.38113
54.941406 20.839828 -109.37549
54.94429 18.946289 -109.36348
54.947178 17.052557 -109.35148
54.949211 15.158383 -109.343
54.950397 13.263875 -109.33806
54.951077 11.369174 -109.33523
54.951077 9.4743061 -109.33524
54.951077 7.5794449 -109.33523
54.951077 5.6845775 -109.33524
54.950569 3.7896843 -109.33735
54.949039 1.8947836 -109.3437
54.947514 -1.5225361e-05 -109.35006
54.945988 -1.8947098 -109.35642
54.944458 -3.7892895 -109.36277
54.942932 -5.6837721 -109.36913
54.941746 -7.5781913 -109.37407
54.940899 -9.4725761 -109.3776
