# .PCD v0.7 - Point Cloud Data file format
VERSION 0.7
FIELDS x y z
SIZE 4 4 4
TYPE F F F
COUNT 1 1 1
WIDTH 1492
HEIGHT 1
VIEWPOINT 0 0 0 1 0 0 0
POINTS 1492
DATA ascii
-31.224384 10.970727 -18.241899
-31.220894 10.125696 -18.253292
-31.221014 9.2819185 -18.252895
-31.221014 8.4381104 -18.252893
-31.221014 7.5942979 -18.252893
-31.220894 6.7504659 -18.253292
-31.221014 5.9066811 -18.252899
-31.2638 5.0698047 -18.113308
-30.800203 4.1621881 -19.625778
-30.728447 3.3219919 -19.859871
-30.681881 2.4877181 -20.011791
-30.664337 1.65753 -20.069027
-30.673862 0.82902253 -20.037952
-30.708523 -6.1176979e-07 -19.924879
-30.769777 -0.83161682 -19.72504
-31.094427 -1.6807839 -18.665876
-31.991972 -2.5939438 -15.737681
-31.9676 -3.4559553 -15.8172
-31.964067 -4.3194699 -15.828726
-31.97732 -5.1855106 -15.785493
-31.997028 -6.0534902 -15.721189
-32.067726 -6.9335608 -15.490543
-32.140652 -7.8179946 -15.252629
-32.370998 -8.7489204 -14.501133
-32.597775 12.676909 -10.807151
-30.372169 10.967724 -18.269777
-30.368891 10.122964 -18.280769
-30.368891 9.2793827 -18.280769
-30.368891 8.4358025 -18.280769
-30.368891 7.5922217 -18.280769
-30.368891 6.7486405 -18.280771
-30.369007 5.9050875 -18.280378
-30.406742 5.0677915 -18.153847
-29.95694 4.1606846 -19.662062
-29.887514 3.3208356 -19.894859
-29.842691 2.486887 -20.045156
-29.825972 1.656997 -20.101215
-29.835234 0.82875699 -20.07016
-29.868935 -3.077301e-06 -19.957155
-29.928041 -0.83133447 -19.758974
-30.110565 -1.6728091 -19.146954
-31.925776 -2.6604831 -13.060418
-31.931726 -3.5479703 -13.04046
-31.939363 -4.4360251 -13.014858
-31.951666 -5.3252797 -12.973602
-32.007088 -6.2235999 -12.787781
-32.062309 -7.1249585 -12.602622
-32.171089 -8.0427723 -12.237872
-32.594269 -9.0539665 -10.818904
-29.528498 10.967724 -18.269777
-29.525311 10.122964 -18.280769
-29.525311 9.2793827 -18.280769
-29.525311 8.4358025 -18.280769
-29.525311 7.5922217 -18.280769
-29.525311 6.7486405 -18.280771
-29.525423 5.9050875 -18.280378
-29.562111 5.0677915 -18.153847
-29.119932 4.1599913 -19.678865
-29.053007 3.3203471 -19.909681
-29.009991 2.4865689 -20.058041
-28.993523 1.656772 -20.114838
-29.002632 0.82864529 -20.083416
-29.03495 3.5282193e-07 -19.971962
-29.091845 -0.83119655 -19.77574
-29.246334 -1.6712234 -19.242926
-31.961754 -2.7395782 -9.8777752
-31.964155 -3.6530461 -9.8694925
-31.967222 -4.5667458 -9.8589144
-31.969891 -5.4805536 -9.8497152
-32.009163 -6.401834 -9.7142658
-32.095123 -7.3360262 -9.4178009
-32.224052 -8.2861872 -8.9731359
-33.427959 -9.5508432 -4.8210187
-28.684824 10.967724 -18.269777
-28.68173 10.122964 -18.280769
-28.68173 9.2793827 -18.280769
-28.68173 8.4358025 -18.280769
-28.68173 7.5922217 -18.280769
-28.68173 6.7486405 -18.280771
-28.681839 5.9050875 -18.280378
-28.71748 5.0677915 -18.153847
-28.285141 4.159575 -19.688789
-28.22014 3.3200147 -19.919554
-28.17868 2.4863513 -20.06675
-28.163004 1.6566443 -20.122408
-28.17164 0.82857507 -20.091747
-28.202707 3.8461519e-07 -19.981451
-28.257753 -0.83111256 -19.786026
-28.38385 -1.6696424 -19.338333
-31.971756 -2.8210385 -6.6001415
-31.972305 -3.7614498 -6.5981932
-31.972855 -4.7018905 -6.5962405
-31.987009 -5.6447687 -6.5459847
-32.036999 -6.5958557 -6.3685198
-32.127724 -7.5594678 -6.0463977
-32.350204 -8.5632877 -5.2565317
-27.841154 10.967724 -18.269777
-27.83815 10.122964 -18.280769
-27.83815 9.2793827 -18.280769
-27.83815 8.4358025 -18.280769
-27.83815 7.5922217 -18.280769
-27.83815 6.7486405 -18.280771
-27.838259 5.9050875 -18.280378
-27.872847 5.0677915 -18.153847
-27.452494 4.1594658 -19.69146
-27.389097 3.3198898 -19.923361
-27.34886 2.4862595 -20.070538
-27.333647 1.6565809 -20.126188
-27.342028 0.82854611 -20.095539
-27.372181 -4.0913819e-06 -19.985239
-27.425705 -0.83108628 -19.789452
-27.542097 -1.6692193 -19.363695
-31.947571 -2.904325 -3.2489207
-31.966234 -3.8746941 -3.1806536
-32.012562 -4.8503861 -3.0111899
-32.012562 -5.8204665 -3.0111916
-32.090786 -6.8071394 -2.7250485
-32.143196 -7.7922888 -2.5333362
-32.533226 -8.872695 -1.10666
-33.456356 -10.138294 2.2700715
-33.39217 -11.130726 2.0352778
-33.419979 -12.152721 2.1370072
-33.452484 -13.17825 2.2558963
-33.480392 -14.203807 2.3579953
-33.50462 -15.229376 2.4466133
-33.531841 -16.257866 2.5461829
-33.566124 -17.291643 2.671582
-33.621277 -18.338877 2.8733227
-33.700653 -19.403404 3.1636734
-26.997482 10.967724 -18.269777
-26.994568 10.122964 -18.280769
-26.994568 9.2793827 -18.280769
-26.994568 8.4358025 -18.280769
-26.994568 7.5922217 -18.280769
-26.994568 6.7486405 -18.280771
-26.994675 5.9050875 -18.280378
-27.028217 5.0677915 -18.153847
-26.620094 4.15939 -19.693373
-26.558722 3.3198419 -19.924881
-26.519907 2.486239 -20.071299
-26.505154 1.6565689 -20.126945
-26.513182 0.82853436 -20.096672
-26.542418 2.2904669e-06 -19.986383
-26.594217 -0.83107048 -19.790976
-26.705454 -1.6690954 -19.371376
-31.988834 -2.9989567 0.55864054
-31.988688 -3.9985876 0.5580858
-31.988541 -4.9982109 0.55753613
-32.051044 -6.0095725 0.79331964
-32.092606 -7.0202622 0.95009124
-32.259037 -8.0647612 1.5779111
-32.834454 -9.2346888 3.7484927
-32.39571 -10.123664 2.0934682
-32.320816 -11.110283 1.8109453
-32.342754 -12.128532 1.8937036
-32.364876 -13.148231 1.9771453
-32.382832 -14.16749 2.0448794
-32.396461 -15.185843 2.0962913
-32.418201 -16.209099 2.1783054
-32.455307 -17.24188 2.3182678
-32.504559 -18.283815 2.504061
-32.5844 -19.346985 2.8052387
-32.807693 -20.50481 3.6475441
-26.153812 10.967724 -18.269777
-26.15099 10.122964 -18.280769
-26.15099 9.2793827 -18.280769
-26.15099 8.4358025 -18.280769
-26.15099 7.5922217 -18.280769
-26.15099 6.7486405 -18.280771
-26.151091 5.9050875 -18.280378
-26.183584 5.0677915 -18.153847
-25.788216 4.15939 -19.693373
-25.728764 3.3198419 -19.924881
-25.691158 2.486239 -20.071299
-25.676867 1.6565689 -20.126945
-25.684643 0.82853436 -20.096672
-25.712967 2.2904669e-06 -19.986383
-25.763147 -0.83107048 -19.790976
-25.870909 -1.6690954 -19.371376
-31.224339 -3.0217104 1.474317
-31.184301 -4.0237799 1.3184114
-31.215145 -5.0346999 1.4385167
-31.272261 -6.0526986 1.6609182
-31.348402 -7.0786705 1.9573988
-31.387991 -8.1001253 2.1115563
-31.386393 -9.1121769 2.105334
-31.314404 -10.101422 1.8250166
-31.28293 -11.100395 1.7024617
-31.302557 -12.117122 1.7788899
-31.317728 -13.133244 1.8379593
-31.326405 -14.147405 1.8717352
-31.339279 -15.164168 1.9218781
-31.361588 -16.186628 2.0087438
-31.397577 -17.218031 2.148886
-31.452007 -18.262457 2.3608351
-31.536062 -19.328556 2.6881301
-31.755827 -20.487635 3.5438743
-25.310141 10.967724 -18.269777
-25.307409 10.122964 -18.280769
-25.307409 9.2793827 -18.280769
-25.307409 8.4358025 -18.280769
-25.307409 7.5922217 -18.280769
-25.307409 6.7486405 -18.280771
-25.307507 5.9050875 -18.280378
-25.338953 5.0677915 -18.153847
-24.956432 4.1594062 -19.692987
-24.898802 3.3198419 -19.924881
-24.862411 2.486239 -20.071299
-24.848581 1.6565689 -20.126945
-24.856106 0.82853436 -20.096672
-24.883518 2.2904669e-06 -19.986383
-24.932079 -0.83107048 -19.790976
-25.036362 -1.6690954 -19.371376
-30.11055 -3.0110533 1.0455678
-30.055557 -4.0074067 0.82430637
-30.062851 -5.0104756 0.8536492
-30.098265 -6.0196552 0.99614882
-30.147736 -7.0344734 1.1952027
-30.194593 -8.0518932 1.3837436
-30.227814 -9.0683441 1.5174128
-30.244242 -10.081416 1.5835198
-30.259434 -11.095127 1.6446419
-30.276457 -12.110581 1.7131282
-30.283018 -13.122641 1.7395402
-30.287348 -14.134097 1.7569574
-30.297272 -15.148636 1.7968782
-30.319092 -16.170187 1.8846914
-30.356379 -17.201948 2.034708
-30.415575 -18.249344 2.2729046
-30.504309 -19.319399 2.6299446
-30.698257 -20.465502 3.4103293
-24.466467 10.967724 -18.269777
-24.463827 10.122964 -18.280769
-24.463827 9.2793827 -18.280769
-24.463827 8.4358025 -18.280769
-24.463827 7.5922217 -18.280769
-24.463827 6.7486405 -18.280771
-24.463923 5.9050875 -18.280378
-24.49432 5.0677915 -18.153847
-24.12455 4.1594062 -19.692987
-24.068842 3.3198419 -19.924881
-24.033665 2.486239 -20.071299
-24.020294 1.6565689 -20.126945
-24.027569 0.82853436 -20.096672
-24.054064 2.2904669e-06 -19.986383
-24.101009 -0.83107048 -19.790976
-24.201817 -1.6690954 -19.371376
-29.080194 -3.0082979 0.93456376
-29.014397 -4.0019884 0.66068012
-29.009356 -5.0016117 0.63970512
-29.035498 -6.0073447 0.74851668
-29.079527 -7.0191984 0.93179184
-29.125427 -8.0346022 1.1228477
-29.171741 -9.0533009 1.3156189
-29.211479 -10.072925 1.4810262
-29.246473 -11.093487 1.6266869
-29.26063 -12.107846 1.6856095
-29.257797 -13.115565 1.6738224
-29.255911 -14.123545 1.6659669
-29.264946 -15.137042 1.7035854
-29.287092 -16.158394 1.7957585
-29.325788 -17.190981 1.9568394
-29.384027 -18.238361 2.1992505
-29.479557 -19.31419 2.5968807
-29.689972 -20.475842 3.4727297
-23.622797 10.967724 -18.269777
-23.620249 10.122964 -18.280769
-23.620249 9.2793827 -18.280769
-23.620249 8.4358025 -18.280769
-23.620249 7.5922217 -18.280769
-23.620249 6.7486405 -18.280771
-23.62034 5.9050875 -18.280378
-23.649689 5.0677915 -18.153847
-23.292583 4.15939 -19.693373
-23.238882 3.3198419 -19.924881
-23.204916 2.486239 -20.071299
-23.192011 1.6565689 -20.126945
-23.199032 0.82853436 -20.096672
-23.224615 2.2904669e-06 -19.986383
-23.269941 -0.83107048 -19.790976
-23.367271 -1.6690954 -19.371376
-28.067268 -3.0072105 0.89076656
-27.994066 -3.9991508 0.57517254
-27.982689 -4.9969091 0.52613086
-28.002251 -6.0004859 0.61046511
-28.043768 -7.0109391 0.78944087
-28.092873 -8.026536 1.0011446
-28.148613 -9.0477676 1.2414436
-28.205744 -10.07348 1.4877455
-28.246435 -11.096814 1.6631635
-28.249689 -12.107007 1.6771903
-28.236544 -13.109823 1.6205206
-28.230949 -14.115473 1.5964061
-28.237453 -15.127208 1.6244431
-28.260241 -16.148712 1.7226799
-28.300041 -17.182169 1.8942689
-28.359758 -18.231277 2.1517117
-28.456411 -19.30971 2.5683906
-28.674093 -20.481493 3.5068426
-22.779125 10.967724 -18.269777
-22.776667 10.122964 -18.280769
-22.776667 9.2793827 -18.280769
-22.776667 8.4358025 -18.280769
-22.776667 7.5922217 -18.280769
-22.776667 6.7486405 -18.280771
-22.776756 5.9050875 -18.280378
-22.805056 5.0677915 -18.153847
-22.460703 4.15939 -19.693373
-22.408922 3.3198419 -19.924881
-22.376171 2.486239 -20.071299
-22.363724 1.6565689 -20.126945
-22.370497 0.82853436 -20.096672
-22.395164 2.2904669e-06 -19.986383
-22.438873 -0.83107048 -19.790976
-22.532726 -1.6690954 -19.371376
-27.059416 -3.0066018 0.86639231
-26.982321 -3.9973786 0.52172405
-26.964964 -4.9935093 0.4441154
-26.982445 -5.996099 0.52227348
-27.018589 -7.0048218 0.6838696
-27.071316 -8.0211296 0.9195863
-27.137323 -9.0457773 1.2147007
-27.216434 -10.080161 1.5683837
-27.30143 -11.122806 1.9483764
-27.2414 -12.107286 1.6799974
-27.219067 -13.105474 1.5801507
-27.208916 -14.108326 1.5347705
-27.213552 -15.118639 1.5554986
-27.233994 -16.13866 1.6468823
-27.27648 -17.174082 1.8368334
-27.33679 -18.224529 2.1064692
-27.434124 -19.305496 2.5416312
-27.647821 -20.479864 3.4970129
-21.935455 10.967724 -18.269777
-21.933088 10.122964 -18.280769
-21.933088 9.2793827 -18.280769
-21.933088 8.4358025 -18.280769
-21.933088 7.5922217 -18.280769
-21.933088 6.7486405 -18.280771
-21.933172 5.9050875 -18.280378
-21.960426 5.0677915 -18.153847
-21.628826 4.15939 -19.693373
-21.57896 3.3198419 -19.924881
-21.547424 2.486239 -20.071299
-21.535437 1.6565689 -20.126945
-21.54196 0.82853436 -20.096672
-21.565714 2.2904669e-06 -19.986383
-21.607803 -0.83107048 -19.790976
-21.698179 -1.6690954 -19.371376
-26.053038 -3.0061221 0.84700316
-25.973372 -3.9959033 0.47712934
-25.952288 -4.9908257 0.37924662
-25.966024 -5.9921598 0.443019
-26.003874 -7.0010438 0.61873895
-26.056976 -8.0175304 0.86528045
-26.125639 -9.0434914 1.1840694
-26.219889 -10.084576 1.6216445
-26.316889 -11.134066 2.0719891
-26.232702 -12.1074 1.6811191
-26.20359 -13.101799 1.545976
-26.190325 -14.102485 1.484388
-26.192375 -15.110986 1.4938993
-26.2124 -16.130709 1.586881
-26.254969 -17.16671 1.7845074
-26.315796 -18.218626 2.066906
-26.412527 -19.301462 2.5160081
-26.647388 -20.497993 3.6064045
-21.091784 10.967724 -18.269777
-21.089508 10.122964 -18.280769
-21.089508 9.2793827 -18.280769
-21.089508 8.4358025 -18.280769
-21.089508 7.5922217 -18.280769
-21.089508 6.7486405 -18.280771
-21.089588 5.9050875 -18.280378
-21.115793 5.0677915 -18.153847
-20.796947 4.15939 -19.693373
-20.749001 3.3198419 -19.924881
-20.718676 2.486239 -20.071299
-20.707151 1.6565689 -20.126945
-20.713421 0.82853436 -20.096672
-20.736263 2.2904669e-06 -19.986383
-20.776733 -0.83107048 -19.790976
-20.863634 -1.6690954 -19.371376
-25.046642 -3.005595 0.82596588
-24.965849 -3.9945383 0.43586475
-24.941839 -4.9883685 0.31993186
-24.954235 -5.9890175 0.37979123
-24.99025 -6.9972725 0.55368197
-25.045496 -8.0145569 0.82043064
-25.117579 -9.0423307 1.1684781
-25.220148 -10.088058 1.6637192
-25.3095 -11.13618 2.0951569
-25.225264 -12.108125 1.6884166
-25.189266 -13.098418 1.5146085
-25.17362 -14.097227 1.4390744
-25.1742 -15.10452 1.4418734
-25.193789 -16.124025 1.5364465
-25.235617 -17.160217 1.7384113
-25.298969 -18.215261 2.0443122
-25.393007 -19.298687 2.4983683
-25.620569 -20.496458 3.5971358
-20.248112 10.967724 -18.269777
-20.245926 10.122964 -18.280769
-20.245926 9.2793827 -18.280769
-20.245926 8.4358025 -18.280769
-20.245926 7.5922217 -18.280769
-20.245926 6.7486405 -18.280771
-20.246006 5.9050875 -18.280378
-20.271162 5.0677915 -18.153847
-19.965071 4.15939 -19.693373
-19.919043 3.3198419 -19.924881
-19.889929 2.486239 -20.071299
-19.878864 1.6565689 -20.126945
-19.884884 0.82853436 -20.096672
-19.906813 2.2904669e-06 -19.986383
-19.945663 -0.83107048 -19.790976
-20.029089 -1.6690954 -19.371376
-24.040815 -3.005105 0.80604243
-23.959673 -3.9932802 0.39793319
-23.93391 -4.9862337 0.26835158
-23.945038 -5.9862623 0.32432377
-23.980345 -6.9942679 0.50189984
-24.036634 -8.0122108 0.78501457
-24.11199 -9.0419998 1.1640252
-24.213461 -10.088943 1.674383
-24.302404 -11.138601 2.1217322
-24.214912 -12.107454 1.6816812
-24.177689 -13.096247 1.4944553
-24.15934 -14.092948 1.4021819
-24.15823 -15.098894 1.3965888
-24.177242 -16.118164 1.4922212
-24.218372 -17.154682 1.6990951
-24.281624 -18.211216 2.0172071
-24.379097 -19.300119 2.5074699
-24.598396 -20.498663 3.6104608
-19.404442 10.967724 -18.269777
-19.402348 10.122964 -18.280769
-19.402348 9.2793827 -18.280769
-19.402348 8.4358025 -18.280769
-19.402348 7.5922217 -18.280769
-19.402348 6.7486405 -18.280771
-19.402422 5.9050875 -18.280378
-19.426531 5.0677915 -18.153847
-19.133192 4.15939 -19.693373
-19.089081 3.3198419 -19.924881
-19.061182 2.486239 -20.071299
-19.050579 1.6565689 -20.126945
-19.056347 0.82853436 -20.096672
-19.077364 2.2904669e-06 -19.986383
-19.114595 -0.83107048 -19.790976
-19.194618 -1.6691004 -19.370993
-23.035847 -3.0046797 0.78889275
-22.95528 -3.9922225 0.36605695
-22.929037 -4.9845724 0.22832966
-22.938231 -5.9838872 0.27657762
-22.973614 -6.991971 0.46227029
-23.029102 -8.0101233 0.75349891
-23.103292 -9.0404215 1.1428765
-23.203283 -10.088387 1.6676531
-23.289911 -11.138653 2.1222968
-23.203924 -12.106396 1.671014
-23.166019 -13.093837 1.4720764
-23.146952 -14.089453 1.3720115
-23.144932 -15.09452 1.3613989
-23.163141 -16.113491 1.4569753
-23.20307 -17.150099 1.6665295
-23.264833 -18.20726 1.9906857
-23.35994 -19.29734 2.4898326
-23.606182 -20.527117 3.7821841
-18.56077 10.967724 -18.269777
-18.558765 10.122964 -18.280769
-18.558765 9.2793827 -18.280769
-18.558765 8.4358025 -18.280769
-18.558765 7.5922217 -18.280769
-18.558765 6.7486405 -18.280771
-18.558838 5.9050875 -18.280378
-18.581898 5.0677915 -18.153847
-18.301313 4.15939 -19.693373
-18.259121 3.3198419 -19.924881
-18.232435 2.486239 -20.071299
-18.222294 1.6565689 -20.126945
-18.227812 0.82853436 -20.096672
-18.247911 2.2904669e-06 -19.986383
-18.283525 -0.83107048 -19.790976
-18.360067 -1.6691004 -19.370993
-22.031567 -3.0043023 0.7739535
-21.95252 -3.9913702 0.34024429
-21.92593 -4.9831653 0.19435216
-21.933722 -5.981925 0.23709504
-21.968845 -6.9900861 0.42981327
-22.023403 -8.0085115 0.72917086
-22.096165 -9.03934 1.1284053
-22.193628 -10.088012 1.6631626
-22.277306 -11.138653 2.1222968
-22.193525 -12.105561 1.6626022
-22.155945 -13.092151 1.4564128
-22.136492 -14.086861 1.3496687
-22.133743 -15.091192 1.3345999
-22.151257 -16.110008 1.4306917
-22.189842 -17.1467 1.6424
-22.24972 -18.204317 1.9709328
-22.341595 -19.295015 2.4750478
-22.589041 -20.535494 3.832742
-17.717098 10.967724 -18.269777
-17.715185 10.122964 -18.280769
-17.715185 9.2793827 -18.280769
-17.715185 8.4358025 -18.280769
-17.715185 7.5922217 -18.280769
-17.715185 6.7486405 -18.280771
-17.715256 5.9050875 -18.280378
-17.737267 5.0677915 -18.153847
-17.469437 4.15939 -19.693373
-17.429161 3.3198419 -19.924881
-17.403688 2.486239 -20.071299
-17.394007 1.6565689 -20.126945
-17.399275 0.82853436 -20.096672
-17.418461 2.2904669e-06 -19.986383
-17.452456 -0.83107048 -19.790976
-17.52552 -1.6691004 -19.370993
-21.028206 -3.0040295 0.76288885
-20.951431 -3.9907537 0.32157966
-20.925297 -4.9822121 0.17134944
-20.932539 -5.9807286 0.21298455
-20.966722 -6.9889092 0.40947542
-21.019648 -8.0074835 0.71369606
-21.090248 -9.0386772 1.1195024
-21.184338 -10.087779 1.6603494
-21.264603 -11.138601 2.1217322
-21.183653 -12.104945 1.6564287
-21.146912 -13.090948 1.4452271
-21.127666 -14.085109 1.3345959
-21.124657 -15.089039 1.3172938
-21.141367 -16.107708 1.4133544
-21.178579 -17.144564 1.6272465
-21.236113 -18.202379 1.9579614
-21.324486 -19.293585 2.4659464
-21.561457 -20.534725 3.8280976
-16.873426 10.967724 -18.269777
-16.871607 10.122964 -18.280769
-16.871607 9.2793827 -18.280769
-16.871607 8.4358025 -18.280769
-16.871607 7.5922217 -18.280769
-16.871607 6.7486405 -18.280771
-16.871672 5.9050875 -18.280378
-16.892635 5.0677915 -18.153847
-16.637558 4.15939 -19.693373
-16.599201 3.3198419 -19.924881
-16.574942 2.486239 -20.071299
-16.565722 1.6565689 -20.126945
-16.570738 0.82853436 -20.096672
-16.58901 2.2904669e-06 -19.986383
-16.621387 -0.83107048 -19.790976
-16.690908 -1.6690954 -19.371376
-20.025764 -3.0038657 0.75625885
-19.951834 -3.9903717 0.31005272
-19.927038 -4.9817605 0.16040634
-19.933208 -5.9799647 0.19764391
-19.965939 -6.98808 0.39517978
-20.01679 -8.0067158 0.70209849
-20.084934 -9.0382185 1.113386
-20.175186 -10.087595 1.6581131
-20.251909 -11.138551 2.1211677
-20.174351 -12.104612 1.6530595
-20.138805 -13.09022 1.4385152
-20.120106 -14.084077 1.3256676
-20.116871 -15.087653 1.3061341
-20.132877 -16.106298 1.4027381
-20.168308 -17.143063 1.616599
-20.224775 -18.202299 1.9574043
-20.314594 -19.298864 2.499505
-20.571875 -20.57188 4.052331
-16.029755 10.967724 -18.269777
-16.028027 10.122964 -18.280769
-16.028027 9.2793827 -18.280769
-16.028027 8.4358025 -18.280769
-16.028027 7.5922217 -18.280769
-16.028027 6.7486405 -18.280771
-16.028088 5.9050875 -18.280378
-16.048002 5.0677915 -18.153847
-15.80568 4.15939 -19.693373
-15.76924 3.3198419 -19.924881
-15.746195 2.486239 -20.071299
-15.737434 1.6565689 -20.126945
-15.742201 0.82853436 -20.096672
-15.759561 2.2904669e-06 -19.986383
-15.790318 -0.83107048 -19.790976
-15.856362 -1.6690954 -19.371376
-19.023781 -3.0037577 0.75183469
-18.953119 -3.990133 0.30291751
-18.929482 -4.9814401 0.1527368
-18.935255 -5.9795527 0.18942423
-18.966516 -6.9876633 0.388033
-19.015167 -8.0063896 0.6971249
-19.080162 -9.0379715 1.110051
-19.166252 -10.087502 1.6569895
-19.239225 -11.138499 2.1206038
-19.165279 -12.104389 1.6508138
-19.131161 -13.089742 1.4340445
-19.11331 -14.083493 1.3206437
-19.110149 -15.08696 1.3005586
-19.125265 -16.105488 1.3965963
-19.1591 -17.142351 1.6115438
-19.212826 -18.201628 1.9528872
-19.299761 -19.299763 2.5051961
-19.550722 -20.579708 4.0996089
-15.186085 10.967724 -18.269777
-15.184445 10.122964 -18.280769
-15.184445 9.2793827 -18.280769
-15.184445 8.4358025 -18.280769
-15.184445 7.5922217 -18.280769
-15.184445 6.7486405 -18.280771
-15.184504 5.9050875 -18.280378
-15.203371 5.0677915 -18.153847
-14.973803 4.15939 -19.693373
-14.939281 3.3198419 -19.924881
-14.917447 2.486239 -20.071299
-14.909149 1.6565689 -20.126945
-14.913664 0.82853436 -20.096672
-14.930109 2.2904669e-06 -19.986383
-14.959248 -0.83107048 -19.790976
-15.021817 -1.6690954 -19.371376
-18.022198 -3.0036972 0.74962097
-17.95706 -3.9904585 0.3127909
-17.932621 -4.9812841 0.14890474
-17.938009 -5.9793386 0.18504351
-17.967787 -6.9874759 0.38473949
-18.013958 -8.0062027 0.69435996
-18.075695 -9.0378466 1.1083848
-18.157501 -10.087502 1.6569895
-18.226635 -11.138499 2.1206038
-18.156498 -12.104334 1.6502519
-18.12409 -13.089623 1.4329255
-18.107098 -14.083301 1.3189746
-18.104185 -15.086822 1.2994413
-18.118422 -16.105265 1.3949138
-18.150391 -17.142035 1.6093005
-18.201374 -18.201374 1.9512013
-18.283813 -19.299583 2.5040598
-18.547546 -20.608385 4.2726951
-14.342412 10.967724 -18.269777
-14.340865 10.122964 -18.280769
-14.340865 9.2793827 -18.280769
-14.340865 8.4358025 -18.280769
-14.340865 7.5922217 -18.280769
-14.340865 6.7486405 -18.280771
-14.340919 5.9050875 -18.280378
-14.35874 5.0677915 -18.153847
-14.141979 4.1594062 -19.692987
-14.109321 3.3198419 -19.924881
-14.088699 2.486239 -20.071299
-14.080863 1.6565689 -20.126945
-14.085127 0.82853436 -20.096672
-14.100659 2.2904669e-06 -19.986383
-14.128179 -0.83107048 -19.790976
-14.187271 -1.6690954 -19.371376
-17.020887 -3.00369 0.74907386
-16.959444 -3.9904585 0.3127909
-16.936211 -4.981236 0.14780898
-16.941299 -5.9792824 0.18395251
-16.9695 -6.9874387 0.3841885
-17.013184 -8.0062027 0.69435996
-17.071489 -9.0378466 1.1083848
-17.148752 -10.087502 1.6569895
-17.214203 -11.138601 2.1217322
-17.147802 -12.104334 1.6502519
-17.117197 -13.089623 1.4329255
-17.101147 -14.083301 1.3189746
-17.098318 -15.08675 1.2988791
-17.111843 -16.105265 1.3949138
-17.142036 -17.142035 1.6093005
-17.190107 -18.201288 1.9506352
-17.267967 -19.29949 2.503489
-17.534794 -20.629166 4.3981252
-13.498741 10.967724 -18.269777
-13.497284 10.122964 -18.280769
-13.497284 9.2793827 -18.280769
-13.497284 8.4358025 -18.280769
-13.497284 7.5922217 -18.280769
-13.497284 6.7486405 -18.280771
-13.497337 5.9050875 -18.280378
-13.514109 5.0677915 -18.153847
-13.310098 4.1594062 -19.692987
-13.279361 3.3198419 -19.924881
-13.259953 2.486239 -20.071299
-13.252577 1.6565689 -20.126945
-13.256591 0.82853436 -20.096672
-13.271209 2.2904669e-06 -19.986383
-13.297109 -0.83107048 -19.790976
-13.352777 -1.6691004 -19.370993
-16.019659 -3.00369 0.74907386
-15.961831 -3.9904585 0.3127909
-15.939962 -4.981236 0.14780898
-15.944753 -5.9792824 0.18395251
-15.971293 -6.9874387 0.3841885
-16.012407 -8.0062027 0.69435996
-16.067286 -9.0378466 1.1083848
-16.140001 -10.087502 1.6569895
-16.201603 -11.138601 2.1217322
-16.139109 -12.104334 1.6502519
-16.110302 -13.089623 1.4329255
-16.095198 -14.083301 1.3189746
-16.092535 -15.08675 1.2988791
-16.105265 -16.105265 1.3949138
-16.133755 -17.142118 1.6098664
-16.178999 -18.201374 1.9512013
-16.252354 -19.299667 2.5046253
-16.503256 -20.62907 4.3975439
-12.65507 10.967724 -18.269777
-12.653705 10.122964 -18.280769
-12.653705 9.2793827 -18.280769
-12.653705 8.4358025 -18.280769
-12.653705 7.5922217 -18.280769
-12.653705 6.7486405 -18.280771
-12.653753 5.9050875 -18.280378
-12.669477 5.0677915 -18.153847
-12.478169 4.15939 -19.693373
-12.449401 3.3198419 -19.924881
-12.431206 2.486239 -20.071299
-12.424291 1.6565689 -20.126945
-12.428053 0.82853436 -20.096672
-12.441759 2.2904669e-06 -19.986383
-12.46604 -0.83107048 -19.790976
-12.518229 -1.6691004 -19.370993
-15.01843 -3.00369 0.74907386
-14.964216 -3.9904585 0.3127909
-14.943784 -4.9812598 0.14835685
-14.948341 -5.9793386 0.18504351
-14.973156 -6.9874759 0.38473949
-15.0117 -8.0062456 0.69491905
-15.06308 -9.0378466 1.1083848
-15.13125 -10.087502 1.6569895
-15.188932 -11.138551 2.1211677
-15.130485 -12.104389 1.6508138
-15.103547 -13.089742 1.4340445
-15.089456 -14.083493 1.3206437
-15.087029 -15.087028 1.3011135
-15.099032 -16.105635 1.3977089
-15.125744 -17.142511 1.6126689
-15.16816 -18.201797 1.9540186
-15.235663 -19.298508 2.497232
-15.434854 -20.579803 4.1001902
-11.811399 10.967724 -18.269777
-11.810124 10.122964 -18.280769
-11.810124 9.2793827 -18.280769
-11.810124 8.4358025 -18.280769
-11.810124 7.5922217 -18.280769
-11.810124 6.7486405 -18.280771
-11.81017 5.9050875 -18.280378
-11.824844 5.0677915 -18.153847
-11.646292 4.15939 -19.693373
-11.619441 3.3198419 -19.924881
-11.602458 2.486239 -20.071299
-11.596005 1.6565689 -20.126945
-11.599516 0.82853436 -20.096672
-11.612308 2.2904669e-06 -19.986383
-11.634971 -0.83107048 -19.790976
-11.683681 -1.6691004 -19.370993
-14.017393 -3.0037253 0.75072914
-13.966092 -3.9903114 0.30840188
-13.947975 -4.98142 0.15218642
-13.952294 -5.9795527 0.18942423
-13.975392 -6.9876962 0.38858673
-14.011305 -8.0064592 0.69822925
-14.059068 -9.0379715 1.110051
-14.122566 -10.087547 1.6575463
-14.176337 -11.138551 2.1211677
-14.121915 -12.104499 1.651938
-14.096968 -13.090045 1.4368371
-14.083945 -14.083947 1.3245561
-14.081874 -15.087725 1.3066963
-14.093143 -16.106451 1.4038583
-14.118142 -17.143459 1.6193994
-14.15767 -18.202723 1.9602215
-14.218963 -19.297161 2.4886963
-14.406202 -20.58029 4.1031113
-10.967728 10.967724 -18.269777
-10.966544 10.122964 -18.280769
-10.966544 9.2793827 -18.280769
-10.966544 8.4358025 -18.280769
-10.966544 7.5922217 -18.280769
-10.966544 6.7486405 -18.280771
-10.966586 5.9050875 -18.280378
-10.980213 5.0677915 -18.153847
-10.814413 4.15939 -19.693373
-10.78948 3.3198419 -19.924881
-10.773712 2.486239 -20.071299
-10.767718 1.6565689 -20.126945
-10.77098 0.82853436 -20.096672
-10.782857 2.2904669e-06 -19.986383
-10.803902 -0.83107048 -19.790976
-10.849132 -1.6691004 -19.370993
-13.016508 -3.0038095 0.7540428
-12.968396 -3.9902761 0.30730903
-12.952457 -4.9817162 0.15930806
-12.956645 -5.9799891 0.19819179
-12.978038 -6.988174 0.39683196
-13.011152 -8.0068598 0.70430475
-13.055267 -9.0382643 1.1139423
-13.113933 -10.087641 1.6586695
-13.163802 -11.138601 2.1217322
-13.11357 -12.104836 1.6553047
-13.090704 -13.090709 1.4429921
-13.078911 -14.084984 1.3334819
-13.077168 -15.089039 1.3172938
-13.087754 -16.108007 1.4155979
-13.11085 -17.14496 1.6300584
-13.146833 -18.203306 1.9641646
-13.201179 -19.294035 2.468791
-13.347694 -20.534918 3.8292575
-10.124056 10.967724 -18.269777
-10.122963 10.122964 -18.280769
-10.122963 9.2793827 -18.280769
-10.122963 8.4358025 -18.280769
-10.122963 7.5922217 -18.280769
-10.122963 6.7486405 -18.280771
-10.123003 5.9050875 -18.280378
-10.135581 5.0677915 -18.153847
-9.9825354 4.15939 -19.693373
-9.9595213 3.3198419 -19.924881
-9.9449644 2.486239 -20.071299
-9.9394321 1.6565689 -20.126945
-9.9424419 0.82853436 -20.096672
-9.9534063 2.2904669e-06 -19.986383
-9.9728317 -0.83107048 -19.790976
-10.014544 -1.6690954 -19.371376
-12.015734 -3.0039334 0.75901979
-11.971864 -3.9906218 0.31773281
-11.957094 -4.9821243 0.16916351
-11.961505 -5.9807529 0.21353222
-11.981148 -6.9890027 0.41111714
-12.011392 -8.0075951 0.71535909
-12.051736 -9.0388031 1.1211791
-12.105392 -10.087827 1.6609161
-12.151202 -11.138601 2.1217322
-12.105224 -12.105228 1.6592333
-12.084617 -13.091667 1.4519335
-12.074285 -14.086668 1.3479998
-12.072951 -15.091192 1.3345999
-12.082838 -16.110455 1.4340466
-12.104108 -17.147484 1.6480069
-12.136772 -18.205158 1.9765806
-12.186947 -19.296001 2.4813018
-12.321411 -20.535683 3.833905
-9.280385 10.967724 -18.269777
-9.2793827 10.122964 -18.280769
-9.2793827 9.2793827 -18.280769
-9.2793827 8.4358025 -18.280769
-9.2793827 7.5922217 -18.280769
-9.2793827 6.7486405 -18.280771
-9.2794189 5.9050875 -18.280378
-9.2909489 5.0677915 -18.153847
-9.1506567 4.15939 -19.693373
-9.1295605 3.3198419 -19.924881
-9.1162176 2.486239 -20.071299
-9.1111469 1.6565689 -20.126945
-9.1139059 0.82853436 -20.096672
-9.1239557 2.2904669e-06 -19.986383
-9.1417627 -0.83107048 -19.790976
-9.1799994 -1.6690954 -19.371376
-11.015228 -3.0041497 0.76786846
-10.97571 -3.9911668 0.33420163
-10.962766 -4.9830775 0.19216625
-10.966861 -5.981925 0.23709504
-10.984723 -6.9902782 0.43311554
-11.012004 -8.0087309 0.73248893
-11.048337 -9.0395489 1.1311895
-11.096916 -10.088109 1.6642836
-11.138653 -11.138653 2.1222968
-11.097172 -12.106004 1.6670852
-11.078992 -13.093353 1.467598
-11.070079 -14.089191 1.3697779
-11.069366 -15.094591 1.361962
-11.078329 -16.113937 1.4603301
-11.097733 -17.151043 1.6732614
-11.127378 -18.208441 1.9985853
-11.172665 -19.298237 2.4955244
-11.283405 -20.515282 3.710767
-8.4367132 10.967724 -18.269777
-8.4358034 10.122964 -18.280769
-8.4358034 9.2793827 -18.280769
-8.4358034 8.4358025 -18.280769
-8.4358034 7.5922217 -18.280769
-8.4358034 6.7486405 -18.280771
-8.4358358 5.9050875 -18.280378
-8.4463177 5.0677915 -18.153847
-8.318779 4.15939 -19.693373
-8.2996006 3.3198419 -19.924881
-8.2874708 2.486239 -20.071299
-8.2828608 1.6565689 -20.126945
-8.2853689 0.82853436 -20.096672
-8.2945051 2.2904669e-06 -19.986383
-8.3106937 -0.83107048 -19.790976
-8.3454542 -1.6690954 -19.371376
-10.014944 -3.004483 0.78114671
-9.9799194 -3.9919677 0.35836896
-9.9687834 -4.9843912 0.22393955
-9.9731903 -5.9839115 0.27712551
-9.9887094 -6.9920988 0.46447569
-10.012928 -8.0103416 0.75680673
-10.045324 -9.0407925 1.1478777
-10.088524 -10.088526 1.6693332
-10.126049 -11.138653 2.1222968
-10.089128 -12.106953 1.6766284
-10.073434 -13.095465 1.4871818
-10.065929 -14.0923 1.3965906
-10.065975 -15.098966 1.397151
-10.074268 -16.11883 1.4972619
-10.090199 -17.153337 1.6895434
-10.118091 -18.212561 2.0262403
-10.158051 -19.300303 2.5086148
-10.247652 -20.49531 3.5901885
-7.5930424 10.967724 -18.269777
-7.5922227 10.122964 -18.280769
-7.5922227 9.2793827 -18.280769
-7.5922227 8.4358025 -18.280769
-7.5922227 7.5922217 -18.280769
-7.5922227 6.7486405 -18.280771
-7.5922518 5.9050875 -18.280378
-7.6016855 5.0677915 -18.153847
-7.4869013 4.15939 -19.693373
-7.4696407 3.3198419 -19.924881
-7.4587235 2.486239 -20.071299
-7.4545746 1.6565689 -20.126945
-7.4568319 0.82853436 -20.096672
-7.4650545 2.2904669e-06 -19.986383
-7.4796238 -0.83107048 -19.790976
-7.5109372 -1.6691004 -19.370993
-9.0146866 -3.0048959 0.79774117
-8.9840984 -3.9929328 0.38748857
-8.9748478 -4.9860244 0.26341584
-8.9793892 -5.9862623 0.32432377
-8.9928751 -6.9944601 0.50520146
-9.0142326 -8.0126543 0.7916593
-9.041913 -9.0419121 1.1629101
-9.0802574 -10.089176 1.6771964
-9.1133175 -11.138499 2.1206038
-9.0810947 -12.108125 1.6884166
-9.0678844 -13.098058 1.5112563
-9.0621281 -14.096642 1.4340398
-9.0625868 -15.10431 1.4401937
-9.0702229 -16.124842 1.5426167
-9.0850306 -17.160614 1.7412224
-9.1077127 -18.215431 2.0454435
-9.1419497 -19.299667 2.5046253
-9.2235775 -20.49684 3.5994494
-6.7493706 10.967724 -18.269777
-6.748642 10.122964 -18.280769
-6.748642 9.2793827 -18.280769
-6.748642 8.4358025 -18.280769
-6.748642 7.5922217 -18.280769
-6.748642 6.7486405 -18.280771
-6.7486687 5.9050875 -18.280378
-6.7570543 5.0677915 -18.153847
-6.6550488 4.1594062 -19.692987
-6.6396804 3.3198419 -19.924881
-6.6299767 2.486239 -20.071299
-6.6262884 1.6565689 -20.126945
-6.6282954 0.82853436 -20.096672
-6.6356044 2.2904669e-06 -19.986383
-6.6485543 -0.83107048 -19.790976
-6.6763883 -1.6691004 -19.370993
-8.0143013 -3.0053618 0.81655431
-7.9883432 -3.9941747 0.42486739
-7.9808788 -4.9880509 0.31224942
-7.985064 -5.9888024 0.37539989
-7.9970989 -6.9974604 0.55698633
-8.0153656 -8.0153646 0.83261091
-8.0380678 -9.0428267 1.1751559
-8.0696287 -10.087037 1.6513731
-8.0978785 -11.134583 2.0776391
-8.0718231 -12.107733 1.6844878
-8.0618639 -13.100532 1.5342131
-8.0578938 -14.101319 1.4743162
-8.0591555 -15.110914 1.4933372
-8.0657625 -16.131527 1.5930411
-8.0790482 -17.16798 1.7935094
-8.0976915 -18.219809 2.0748165
-8.1274595 -19.302719 2.5239809
-8.1993122 -20.498276 3.608139
-5.9056993 10.967724 -18.269777
-5.9050622 10.122964 -18.280769
-5.9050622 9.2793827 -18.280769
-5.9050622 8.4358025 -18.280769
-5.9050622 7.5922217 -18.280769
-5.9050622 6.7486405 -18.280771
-5.9050851 5.9050875 -18.280378
-5.9124222 5.0677915 -18.153847
-5.8231673 4.1594062 -19.692987
-5.8097205 3.3198419 -19.924881
-5.801229 2.486239 -20.071299
-5.7980027 1.6565689 -20.126945
-5.799758 0.82853436 -20.096672
-5.8061538 2.2904669e-06 -19.986383
-5.8174853 -0.83107048 -19.790976
-5.8418403 -1.6691004 -19.370993
-7.01367 -3.0058606 0.83648318
-6.9920325 -3.9954507 0.46337292
-6.9864535 -4.9903255 0.36715302
-6.9906931 -5.9920259 0.44026604
-7.0011063 -7.0011096 0.61984617
-7.0156932 -8.0179367 0.87137431
-7.0339546 -9.0436583 1.1862946
-7.0589404 -10.084201 1.6171539
-7.0840392 -11.132062 2.0499556
-7.0622921 -12.106784 1.6749452
-7.0558524 -13.103726 1.5638965
-7.0536437 -14.107291 1.5258104
-7.0552673 -15.118432 1.553816
-7.0613155 -16.14015 1.6581113
-7.0723324 -17.175667 1.8480912
-7.088037 -18.226383 2.1189072
-7.1130133 -19.306749 2.5495954
-7.1680541 -20.480156 3.4987524
-5.0620279 10.967724 -18.269777
-5.0614815 10.122964 -18.280769
-5.0614815 9.2793827 -18.280769
-5.0614815 8.4358025 -18.280769
-5.0614815 7.5922217 -18.280769
-5.0614815 6.7486405 -18.280771
-5.0615015 5.9050875 -18.280378
-5.0677905 5.0677915 -18.153847
-4.9913621 4.1594658 -19.69146
-4.9798737 3.3199141 -19.922596
-4.9726143 2.4863038 -20.068645
-4.9698672 1.6566209 -20.123922
-4.9713717 0.82856011 -20.093641
-4.9768353 -9.3543127e-07 -19.983727
-4.9865294 -0.83108634 -19.788692
-5.0075011 -1.6691694 -19.366764
-6.0127907 -3.0063958 0.85807824
-5.9954147 -3.9969454 0.50850755
-5.9916673 -4.9930573 0.43311757
-5.9954419 -5.9954433 0.50906211
-6.0041037 -7.0047884 0.68331611
-6.0161233 -8.0214949 0.92513186
-6.0299349 -9.0449038 1.2030038
-6.0470939 -10.078489 1.5482082
-6.0613561 -11.112486 1.8351396
-6.0527797 -12.105561 1.6626022
-6.0494895 -13.107227 1.5964036
-6.0487928 -14.113851 1.5823905
-6.0508552 -15.127141 1.6238889
-6.0560174 -16.149384 1.7277384
-6.0648265 -17.18368 1.9049777
-6.077457 -18.23237 2.1590698
-6.0981417 -19.310785 2.5752282
-6.1444774 -20.481592 3.5074215
-4.2183566 10.967724 -18.269777
-4.2179017 10.122964 -18.280769
-4.2179017 9.2793827 -18.280769
-4.2179017 8.4358025 -18.280769
-4.2179017 7.5922217 -18.280769
-4.2179017 6.7486405 -18.280771
-4.2179179 5.9050875 -18.280378
-4.2231588 5.0677915 -18.153847
-4.159595 4.1595964 -19.688414
-4.1500521 3.320039 -19.918798
-4.144002 2.4863997 -20.064854
-4.1417279 1.6566879 -20.119757
-4.142982 0.82859278 -20.089474
-4.1475201 -2.2844406e-06 -19.979931
-4.1555834 -0.83111763 -19.785267
-4.1736817 -1.6694745 -19.348328
-5.0115075 -3.0069039 0.87857538
-4.9981184 -3.9984951 0.55532926
-4.9959054 -4.9959044 0.50190175
-4.9997168 -5.9996591 0.59391654
-5.0068302 -7.0095663 0.76566017
-5.0159864 -8.0255756 0.98670918
-5.0261226 -9.0470181 1.2314123
-5.0359755 -10.07195 1.4692813
-5.0423093 -11.093082 1.6222031
-5.0437503 -12.105005 1.6569878
-5.0430765 -13.111999 1.6407162
-5.0435181 -14.121854 1.651376
-5.0458665 -15.137598 1.7080748
-5.0501275 -16.16041 1.8109434
-5.056778 -17.193045 1.9714987
-5.0672674 -18.242165 2.2247407
-5.0829649 -19.315268 2.6037192
-5.1159701 -20.463881 3.4005184
-3.3746853 10.967724 -18.269777
-3.374321 10.122964 -18.280769
-3.374321 9.2793827 -18.280769
-3.374321 8.4358025 -18.280769
-3.374321 7.5922217 -18.280769
-3.374321 6.7486405 -18.280771
-3.3743343 5.9050875 -18.280378
-3.3785272 5.0677915 -18.153847
-3.3280048 4.1600037 -19.678484
-3.3204699 3.3204679 -19.905878
-3.3156283 2.4867227 -20.051977
-3.3138089 1.6569023 -20.10689
-3.3148127 0.82870495 -20.076603
-3.3184435 2.5031895e-06 -19.967028
-3.3248327 -0.83120745 -19.774214
-3.3416982 -1.6708496 -19.265259
-4.0101795 -3.0076346 0.9079501
-4.0005407 -4.0005398 0.61708379
-3.9998465 -4.9998107 0.59612811
-4.0034127 -6.0051212 0.70375556
-4.0089307 -7.0156264 0.87026346
-4.0157528 -8.0315027 1.0761338
-4.0220618 -9.0496426 1.2665364
-4.028039 -10.070097 1.4469008
-4.0324912 -11.089355 1.5812736
-4.0352421 -12.10573 1.6642853
-4.0366931 -13.119256 1.7080761
-4.0381641 -14.133574 1.7524589
-4.0401578 -15.150597 1.8126379
-4.0435729 -16.174292 1.9156781
-4.0486774 -17.206881 2.0697296
-4.0562177 -18.252979 2.2972844
-4.0677705 -19.321909 2.6459053
-4.0931969 -20.465982 3.4132218
-2.531014 10.967724 -18.269777
-2.5307407 10.122964 -18.280769
-2.5307407 9.2793827 -18.280769
-2.5307407 8.4358025 -18.280769
-2.5307407 7.5922217 -18.280769
-2.5307407 6.7486405 -18.280771
-2.5307508 5.9050875 -18.280378
-2.5338953 5.0677915 -18.153847
-2.4964211 4.1607013 -19.661686
-2.4908907 3.3211865 -19.884214
-2.4872866 2.4872856 -20.029242
-2.4859118 1.6572729 -20.084557
-2.4866648 0.82889009 -20.054255
-2.4893799 -3.0900171e-06 -19.945005
-2.4940979 -0.83137131 -19.755157
-2.50861 -1.6724094 -19.171249
-3.0091367 -3.0091357 0.96839648
-3.0030539 -4.0040751 0.72364479
-3.0031638 -5.0052762 0.72806746
-3.0062439 -6.0124898 0.85198611
-3.010406 -7.0242791 1.0194654
-3.0149813 -8.0399494 1.2035598
-3.0192788 -9.0578403 1.3764827
-3.0229065 -10.076357 1.5224477
-3.0259991 -11.095334 1.6468865
-3.0285394 -12.114156 1.7490869
-3.0304401 -13.131908 1.8255767
-3.0320635 -14.14963 1.8908845
-3.0338147 -15.169076 1.9613506
-3.0363817 -16.194036 2.0646453
-3.0397692 -17.225359 2.2009523
-3.0448153 -18.268894 2.4039958
-3.0527711 -19.334213 2.724093
-3.0724974 -20.483315 3.5178328
-1.6873426 10.967724 -18.269777
-1.6871605 10.122964 -18.280769
-1.6871605 9.2793827 -18.280769
-1.6871605 8.4358025 -18.280769
-1.6871605 7.5922217 -18.280769
-1.6871605 6.7486405 -18.280771
-1.6871672 5.9050875 -18.280378
-1.6892636 5.0677915 -18.153847
-1.6648948 4.1622314 -19.624626
-1.6613438 3.3226891 -19.838947
-1.6589639 2.4884436 -19.982586
-1.6580466 1.6580453 -20.037956
-1.6585491 0.8292762 -20.007627
-1.6603041 -1.3757101e-06 -19.901695
-1.6634082 -0.83170307 -19.714357
-1.6752291 -1.6752264 -19.000906
-2.008383 -3.0125759 1.1067183
-2.0054018 -4.0108018 0.9267934
-2.0061555 -5.0153899 0.97227931
-2.0083644 -6.025095 1.1056042
-2.0111048 -7.038868 1.2709979
-2.0137691 -8.0550766 1.431807
-2.0162084 -9.0729437 1.5790342
-2.0185328 -10.092667 1.7193103
-2.0205359 -11.112947 1.8402064
-2.0224495 -12.134697 1.955704
-2.0240204 -13.156137 2.0505271
-2.0251815 -14.17627 2.1206017
-2.0267098 -15.200326 2.212847
-2.0284002 -16.227203 2.3148685
-2.0306208 -17.260281 2.4488893
-2.0336018 -18.302414 2.6287992
-2.0382128 -19.363024 2.9071057
-2.0521533 -20.521532 3.748493
-0.84367132 10.967724 -18.269777
-0.84358025 10.122964 -18.280769
-0.84358025 9.2793827 -18.280769
-0.84358025 8.4358025 -18.280769
-0.84358025 7.5922217 -18.280769
-0.84358025 6.7486405 -18.280771
-0.84358358 5.9050875 -18.280378
-0.84463179 5.0677915 -18.153847
-0.83409381 4.1704688 -19.42589
-0.83204234 3.3281684 -19.673521
-0.83066875 2.492007 -19.839331
-0.83059305 1.6611854 -19.848461
-0.83065617 0.83065432 -19.840849
-0.83148921 -4.6134863e-07 -19.740292
-0.8332904 -0.833296 -19.522865
-1.0529082 -2.1058152 6.9873414
-1.0085548 -3.0256629 1.6334202
-1.0075196 -4.0300794 1.5084506
-1.0083133 -5.0415692 1.6042587
-1.0093502 -6.0561018 1.7294246
-1.0104918 -7.0734444 1.8672324
-1.0116034 -8.0928278 2.0014067
-1.0127267 -9.1145391 2.1369998
-1.0137585 -10.137587 2.2615707
-1.0147785 -11.162565 2.3846843
-1.0157156 -12.188584 2.4977968
-1.0165931 -13.215708 2.6037169
-1.0174483 -14.244277 2.7069662
-1.0183241 -15.274863 2.8126776
-1.0193011 -16.308819 2.9305959
-1.0203084 -17.345242 3.0521863
-1.0215273 -18.387493 3.1993387
-1.0237491 -19.451233 3.4675236
7.7641962e-24 10.967724 -18.269777
7.3020026e-24 10.122964 -18.280769
-5.351402e-24 9.2793827 -18.280769
5.2728094e-25 8.4358025 -18.280769
-1.2126124e-23 7.5922217 -18.280769
1.6902512e-24 6.7486405 -18.280771
-2.2092463e-23 5.9050875 -18.280378
4.9774851e-24 5.0677915 -18.153847
3.382686e-24 4.1704688 -19.42589
1.0387774e-23 3.3283718 -19.667412
5.061909e-24 2.4931383 -19.793644
-1.5556574e-23 1.6613815 -19.836664
-1.2259523e-23 0.83088452 -19.813065
2.4362148e-23 -3.673435e-06 -19.702909
1.9991553e-23 -0.833296 -19.522865
-4.5453771e-25 -2.1059158 6.9934587
-1.5073684e-23 -3.0256629 1.6334202
-9.4543583e-24 -4.0300794 1.5084506
-8.9156626e-24 -5.0415692 1.6042587
1.6932631e-23 -6.0561018 1.7294246
-9.587929e-24 -7.07341 1.8666688
5.004588e-24 -8.0928278 2.0014067
-1.0159153e-23 -9.1145391 2.1369998
-3.6328354e-24 -10.137587 2.2615707
1.0886089e-23 -11.162565 2.3846843
-8.5115283e-24 -12.188534 2.4972327
-3.1468198e-23 -13.215708 2.6037169
-1.8569454e-23 -14.244277 2.7069662
-2.4301397e-24 -15.274863 2.8126776
-7.1812501e-24 -16.308891 2.9311686
-8.6439891e-24 -17.345322 3.0527647
-1.6276136e-23 -18.387493 3.1993387
-1.0506791e-23 -19.461338 3.5317233
0.84367132 10.967724 -18.269777
0.84358025 10.122964 -18.280769
0.84358025 9.2793827 -18.280769
0.84358025 8.4358025 -18.280769
0.84358025 7.5922217 -18.280769
0.84358025 6.7486405 -18.280771
0.84358358 5.9050875 -18.280378
0.84463179 5.0677915 -18.153847
0.83247274 4.1623654 -19.621574
0.83071291 3.3228505 -19.834005
0.82949454 2.4884844 -19.981073
0.82904208 1.6580851 -20.035681
0.82929027 0.82929021 -20.00573
0.8301993 -5.8494152e-08 -19.896
0.83172935 -0.83172977 -19.711308
0.83761454 -1.6752264 -19.000906
1.0042422 -3.0127313 1.1128347
1.0027009 -4.0108018 0.9267934
1.0031099 -5.0155501 0.97616339
1.0043067 -6.0258422 1.1206238
1.0055524 -7.038868 1.2709979
1.0069726 -8.0557814 1.4424279
1.0082296 -9.0740671 1.5941629
1.0092664 -10.092667 1.7193103
1.010268 -11.112947 1.8402064
1.0112621 -12.135145 1.9602159
1.0120102 -13.156137 2.0505271
1.0127267 -14.178174 2.1370027
1.0133597 -15.200394 2.2134118
1.0142378 -16.227806 2.3194063
1.0153481 -17.260918 2.453438
1.0168293 -18.302927 2.6322224
1.0191064 -19.363024 2.9071057
1.0263557 -20.527117 3.7821841
1.6873426 10.967724 -18.269777
1.6871605 10.122964 -18.280769
1.6871605 9.2793827 -18.280769
1.6871605 8.4358025 -18.280769
1.6871605 7.5922217 -18.280769
1.6871605 6.7486405 -18.280771
1.6871672 5.9050875 -18.280378
1.6892636 5.0677915 -18.153847
1.6643062 4.1607656 -19.660158
1.6606002 3.3211985 -19.883833
1.658191 2.4872856 -20.029242
1.6572745 1.6572729 -20.084557
1.6577766 0.82889009 -20.054255
1.659593 1.43402e-06 -19.94463
1.6627637 -0.83138257 -19.753256
1.6724769 -1.6724762 -19.167007
2.0060914 -3.0091357 0.96839648
2.0020361 -4.0040751 0.72364479
2.0022833 -5.0057087 0.73856968
2.0042174 -6.0126548 0.85531563
2.0069833 -7.0244417 1.0222453
2.0099874 -8.0399494 1.2035598
2.0128524 -9.0578403 1.3764827
2.0152898 -10.076449 1.5235713
2.01737 -11.095536 1.6491336
2.0190821 -12.114494 1.7524642
2.0204334 -13.132817 1.8340186
2.0213754 -14.14963 1.8908845
2.0225523 -15.169144 1.9619153
2.0242543 -16.194036 2.0646453
2.0266254 -17.226313 2.2077453
2.0299711 -18.269739 2.4096744
2.0352468 -19.334845 2.7280955
2.0483317 -20.483315 3.5178328
2.531014 10.967724 -18.269777
2.5307407 10.122964 -18.280769
2.5307407 9.2793827 -18.280769
2.5307407 8.4358025 -18.280769
2.5307407 7.5922217 -18.280769
2.5307407 6.7486405 -18.280771
2.5307508 5.9050875 -18.280378
2.5338953 5.0677915 -18.153847
2.4960229 4.1600361 -19.677723
2.4903619 3.3204792 -19.905495
2.4867308 2.4867306 -20.051598
2.4853566 1.6569023 -20.10689
2.4861095 0.82870495 -20.076603
2.488842 -2.8539991e-06 -19.966646
2.4936435 -0.83121336 -19.773455
2.506417 -1.6709446 -19.259481
3.0076482 -3.0076509 0.90850288
3.0005155 -4.0006847 0.62149632
2.9998848 -4.9998107 0.59612811
3.0026009 -6.0052032 0.70541501
3.0066979 -7.0156264 0.87026346
3.0118146 -8.0315027 1.0761338
3.0165741 -9.0497208 1.2676463
3.0210845 -10.070281 1.4491371
3.0243826 -11.0894 1.5818305
3.0264456 -12.105785 1.6648473
3.0276036 -13.119619 1.711449
3.0286231 -14.133574 1.7524589
3.0301883 -15.150943 1.8154476
3.0327353 -16.174587 1.9179333
3.0365081 -17.206881 2.0697296
3.0421634 -18.252979 2.2972844
3.0508277 -19.321909 2.6459053
3.0698977 -20.465982 3.4132218
3.3746853 10.967724 -18.269777
3.374321 10.122964 -18.280769
3.374321 9.2793827 -18.280769
3.374321 8.4358025 -18.280769
3.374321 7.5922217 -18.280769
3.374321 6.7486405 -18.280771
3.3743343 5.9050875 -18.280378
3.3785272 5.0677915 -18.153847
3.3276761 4.1595964 -19.688414
3.3200541 3.3200512 -19.918417
3.3152142 2.4864123 -20.064484
3.3133824 1.6566879 -20.119757
3.3143859 0.82859278 -20.089474
3.3180285 2.2395966e-06 -19.979553
3.3244667 -0.83111763 -19.785267
3.3389835 -1.66949 -19.347178
4.0092244 -3.0069199 0.8791281
3.9984765 -3.9984751 0.55477887
3.9968884 -4.9961114 0.50686091
3.9997733 -5.9996591 0.59391654
4.0054641 -7.0095663 0.76566017
4.0128078 -8.0256176 0.98726785
4.0209165 -9.047061 1.2319714
4.02878 -10.07195 1.4692813
4.0338101 -11.092982 1.6210846
4.0350003 -12.105005 1.6569878
4.034554 -13.112302 1.643519
4.0349631 -14.122373 1.6558658
4.0366931 -15.137598 1.7080748
4.0402327 -16.160929 1.8148816
4.0454407 -17.193125 1.9720665
4.053833 -18.242249 2.225306
4.066391 -19.315361 2.60429
4.0927758 -20.463881 3.4005184
4.2183566 10.967724 -18.269777
4.2179017 10.122964 -18.280769
4.2179017 9.2793827 -18.280769
4.2179017 8.4358025 -18.280769
4.2179017 7.5922217 -18.280769
4.2179017 6.7486405 -18.280771
4.2179179 5.9050875 -18.280378
4.2231588 5.0677915 -18.153847
4.1594844 4.1594872 -19.691084
4.1499104 3.3199306 -19.92222
4.1438451 2.4863038 -20.068645
4.1415558 1.6566209 -20.123922
4.1428256 0.82856381 -20.093266
4.1473627 -9.3543127e-07 -19.983727
4.1554413 -0.83108634 -19.788692
4.1729498 -1.6691798 -19.365999
5.0106587 -3.0063958 0.85807824
4.9961786 -3.9969454 0.50850755
4.9930787 -4.9930811 0.43366545
4.9962473 -5.9955001 0.51016372
5.0035114 -7.0049157 0.68552178
5.0134358 -8.0214949 0.92513186
5.0250378 -9.0450706 1.2052284
5.0392447 -10.078489 1.5482082
5.0511065 -11.112434 1.8345757
5.0439596 -12.105507 1.6620401
5.0412412 -13.107227 1.5964036
5.0407538 -14.114112 1.5846348
5.0424719 -15.127419 1.626133
5.0467043 -16.149454 1.7283006
5.0540457 -17.183754 1.9055374
5.0646644 -18.232794 2.1618977
5.0818796 -19.311146 2.5775104
5.120398 -20.481592 3.5074215
5.0620279 10.967724 -18.269777
5.0614815 10.122964 -18.280769
5.0614815 9.2793827 -18.280769
5.0614815 8.4358025 -18.280769
5.0614815 7.5922217 -18.280769
5.0614815 6.7486405 -18.280771
5.0615015 5.9050875 -18.280378
5.0677905 5.0677915 -18.153847
4.9912677 4.15939 -19.693373
4.9797606 3.3198419 -19.924881
4.9724822 2.486239 -20.071299
4.9697161 1.6565689 -20.126945
4.9712396 0.82853812 -20.096294
4.9767032 2.2904669e-06 -19.986383
4.9864159 -0.83107048 -19.790976
5.0072722 -1.6690954 -19.371376
6.0117168 -3.0058606 0.83648318
5.9932804 -3.9955184 0.46557111
5.9883885 -4.9903255 0.36715302
5.9920225 -5.9920259 0.44026604
6.0010033 -7.0011706 0.62094462
6.0135064 -8.0180073 0.8724786
6.0291042 -9.0436583 1.1862946
6.0504646 -10.084107 1.6160303
6.0718646 -11.131753 2.0465713
6.0533934 -12.106784 1.6749452
6.0479016 -13.10379 1.5644637
6.04598 -14.107291 1.5258104
6.0473723 -15.118432 1.553816
6.0526676 -16.14045 1.660354
6.0619993 -17.175667 1.8480912
6.0755167 -18.226553 2.1200378
6.0968962 -19.306839 2.5501692
6.1440749 -20.480249 3.4993231
5.9056993 10.967724 -18.269777
5.9050622 10.122964 -18.280769
5.9050622 9.2793827 -18.280769
5.9050622 8.4358025 -18.280769
5.9050622 7.5922217 -18.280769
5.9050622 6.7486405 -18.280771
5.9050851 5.9050875 -18.280378
5.9124222 5.0677915 -18.153847
5.8231459 4.15939 -19.693373
5.8097205 3.3198419 -19.924881
5.801229 2.486239 -20.071299
5.7980027 1.6565689 -20.126945
5.7997804 0.82853812 -20.096294
5.8061538 2.2904669e-06 -19.986383
5.8174853 -0.83107048 -19.790976
5.8418179 -1.6690954 -19.371376
7.0125141 -3.0053618 0.81655431
6.9898 -3.9941747 0.42486739
6.9833965 -4.9881434 0.31444326
6.9868994 -5.98877 0.37484637
6.9976211 -6.9976249 0.55974299
7.0134449 -8.0153646 0.83261091
7.0334063 -9.0429478 1.1768245
7.0609255 -10.087037 1.6513731
7.0856442 -11.134583 2.0776391
7.0628452 -12.107733 1.6844878
7.0541306 -13.100532 1.5342131
7.0507221 -14.101445 1.4754303
7.0517282 -15.110847 1.4927822
7.0575428 -16.131527 1.5930411
7.0692 -17.168056 1.7940691
7.0856442 -18.220232 2.0776443
7.111527 -19.302719 2.5239809
7.1731548 -20.494726 3.5867083
6.7493706 10.967724 -18.269777
6.748642 10.122964 -18.280769
6.748642 9.2793827 -18.280769
6.748642 8.4358025 -18.280769
6.748642 7.5922217 -18.280769
