# .PCD v0.7 - Point Cloud Data file format
VERSION 0.7
FIELDS x y z
SIZE 4 4 4
TYPE F F F
COUNT 1 1 1
WIDTH 1530
HEIGHT 1
VIEWPOINT 0 0 0 1 0 0 0
POINTS 1530
DATA ascii
1.6196504 37.251961 -22.355368
1.6188418 36.423943 -22.404171
1.6181896 35.60017 -22.443541
1.61801 34.787216 -22.45437
1.6180879 33.979843 -22.44968
1.6183151 33.175461 -22.435957
1.6190873 32.381744 -22.389355
1.6199021 31.588089 -22.340178
1.6233743 30.84411 -22.130611
1.6399772 30.339579 -21.128542
1.6364644 29.456356 -21.340563
1.6363848 28.636734 -21.34536
1.604983 27.284712 -23.240627
1.6020051 26.433083 -23.420361
1.5999324 25.598917 -23.545454
1.5985887 24.778122 -23.626564
1.5977776 23.966663 -23.675512
1.5977426 23.167267 -23.677622
1.59797 22.371582 -23.663895
1.5987346 21.582916 -23.617754
1.5998565 20.79813 -23.550045
1.6012785 20.015982 -23.464216
1.6030083 19.236097 -23.359814
1.6050771 18.458384 -23.234945
1.6074702 17.682167 -23.090519
1.6105868 16.91116 -22.902405
1.6157289 16.157288 -22.592058
1.6235007 15.423255 -22.122986
1.6334052 14.700646 -21.5252
1.6446785 13.979765 -20.844799
1.6558827 13.247061 -20.168552
1.6672537 12.5044 -19.482258
1.6799091 11.759362 -18.718433
1.6914239 10.994254 -18.023455
1.7040259 10.224151 -17.262859
1.7167631 9.4421968 -16.494106
1.7295897 8.6479473 -15.719955
1.7433796 7.8452053 -14.88765
1.7572714 7.0290833 -14.049212
1.7719815 6.2019324 -13.16138
1.7860794 5.3582397 -12.310487
1.8004777 4.5011916 -11.441475
1.8162019 3.6324048 -10.492435
1.8320422 2.7480617 -9.5363894
1.8491527 1.8491522 -8.5036869
1.866713 0.9333573 -7.4438143
1.8857875 -3.8112075e-06 -6.2925735
1.9095359 -0.95476753 -4.8592424
1.916248 -1.9162492 -4.4541259
1.9304446 -2.8956687 -3.5972836
1.9453542 -3.8907077 -2.6974049
1.960426 -4.9010644 -1.7877486
1.9761342 -5.9284067 -0.83966297
1.993103 -6.9758644 0.18449885
2.0105968 -8.0423889 1.2403312
2.0287576 -9.1294107 2.3364279
2.0472205 -10.236105 3.4507673
2.0295854 -11.162723 2.3863857
2.0230851 -12.138509 1.9940654
2.0202281 -13.131481 1.8216366
2.0193336 -14.13534 1.7676439
2.0195291 -15.146469 1.7794473
2.020601 -16.16481 1.844151
2.0224869 -17.191141 1.9579657
2.0246477 -18.221827 2.088376
2.0275359 -19.261593 2.2626994
2.0307338 -20.307339 2.4557135
2.0342538 -21.359663 2.6681561
2.0380991 -22.419088 2.9002321
2.0422444 -23.485811 3.1504407
2.0467515 -24.561018 3.4224622
2.0518839 -25.648552 3.7322414
2.0586967 -26.763058 4.1434174
2.0623629 -27.841902 4.3646936
2.0521438 -28.730013 3.7479167
2.0505865 -29.733505 3.653929
2.0507882 -30.761824 3.6661007
2.0519514 -31.805246 3.7363036
2.0538383 -32.861416 3.8501906
2.0565109 -33.932434 4.0115004
2.0613821 -35.043491 4.305491
2.4549718 39.279545 -21.329487
2.4461737 38.323391 -21.683487
2.4444802 37.482029 -21.75164
2.443543 36.653141 -21.789341
2.4426978 35.826237 -21.823353
2.4423707 35.007309 -21.836519
2.4422708 34.191792 -21.84054
2.4427795 33.384647 -21.820065
2.4436612 32.582146 -21.784586
2.4468939 31.809622 -21.654507
2.4684272 31.266747 -20.788078
2.4713256 30.479683 -20.671452
2.4690213 29.628254 -20.764174
2.4694021 28.809689 -20.748857
2.4691696 27.983927 -20.7582
2.469532 27.164852 -20.743628
2.4215734 25.830114 -22.673334
2.4178817 24.984776 -22.821869
2.4151695 24.151691 -22.931007
2.412853 23.324245 -23.02421
2.4115946 22.508215 -23.074842
2.4115593 21.704033 -23.076271
2.4113731 20.898569 -23.083748
2.4125073 20.104229 -23.038122
2.4140861 19.312689 -22.9746
2.4162714 18.524746 -22.886669
2.4188793 17.738447 -22.781733
2.4216626 16.951637 -22.669741
2.4252133 16.168089 -22.526869
2.4299161 15.389465 -22.337646
2.4369593 14.621753 -22.054255
2.4481254 13.87271 -21.604959
2.4635928 13.139162 -20.982597
2.4801936 12.400967 -20.314642
2.49701 11.652711 -19.638004
2.5148742 10.897784 -18.919195
2.5323122 10.129245 -18.217541
2.5512023 9.3544044 -17.457458
2.5700645 8.5668774 -16.698498
2.5906689 7.7720079 -15.869458
2.61063 6.961678 -15.06628
2.6313968 6.1399255 -14.230695
2.6528714 5.3057413 -13.36662
2.6740022 4.4566693 -12.51637
2.6958711 3.5944943 -11.636446
2.7197442 2.7197435 -10.675863
2.743505 1.8290049 -9.7198
2.7691905 0.92306107 -8.6863022
2.7971237 1.1411909e-06 -7.5623612
2.8325372 -0.94417602 -6.1374283
2.8429859 -1.8953255 -5.7169991
2.8633294 -2.863332 -4.8984337
2.8846505 -3.8462014 -4.0405455
2.9072564 -4.8454294 -3.1309519
2.9297619 -5.8595252 -2.2253945
2.9536681 -6.8918934 -1.263499
2.9806707 -7.9484549 -0.17699037
3.0059409 -9.0178232 0.83980912
3.0329876 -10.109957 1.9280796
3.0606968 -11.222553 3.0430071
3.0882628 -12.353051 4.1521797
3.0615671 -13.266792 3.0780346
3.0521464 -14.243355 2.6989741
3.0490427 -15.245211 2.5740855
3.0474861 -16.25326 2.5114572
3.0479245 -17.271576 2.5291026
3.0496376 -18.297831 2.598021
3.0524731 -19.332329 2.7121055
3.0564086 -20.376057 2.8704607
3.0609679 -21.426773 3.0539155
3.0662563 -22.485884 3.2667115
3.0719512 -23.551628 3.4958522
3.0776095 -24.620878 3.7235334
3.0837088 -25.697573 3.968946
3.0894833 -26.775524 4.2012916
3.0949295 -27.854368 4.4204288
3.094594 -28.882877 4.4069247
3.0949733 -29.918077 4.4221931
3.0961113 -30.961117 4.4679904
3.0982444 -32.015194 4.5538092
3.1017861 -33.08572 4.6963205
3.1082463 -34.190712 4.9562583
3.1247535 -35.413872 5.6204505
3.2850122 38.598896 -20.975897
3.2808638 37.729939 -21.101091
3.2792909 36.892025 -21.14856
3.2783208 36.061527 -21.177837
3.2777443 35.235744 -21.195246
3.2773392 34.412064 -21.20746
3.2786646 33.606316 -21.167463
3.2808638 32.808636 -21.101093
3.2894804 32.072433 -20.841068
3.3193116 31.533459 -19.94083
3.3135078 30.649946 -20.11598
3.3128684 29.815813 -20.135273
3.3127053 28.986174 -20.14019
3.3128684 28.159382 -20.135271
3.3129187 27.331577 -20.133759
3.3125424 26.500341 -20.145109
3.3131568 25.676966 -20.12657
3.2503645 24.377733 -22.02149
3.2455933 23.530548 -22.165485
3.24014 22.680983 -22.330048
3.2369654 21.84952 -22.425848
3.2352071 21.028845 -22.47891
3.2349083 20.218174 -22.487926
3.2356136 19.413681 -22.46664
3.2364988 18.609869 -22.439932
3.2387736 17.813255 -22.371281
3.2412674 17.016657 -22.296021
3.2444263 16.22213 -22.200689
3.2484713 15.430237 -22.07863
3.2530215 14.638594 -21.941311
3.2586029 13.849064 -21.772871
3.2677002 13.0708 -21.498341
3.2816019 12.306005 -21.078827
3.300853 11.552983 -20.497871
3.3231165 10.800131 -19.82601
3.3465648 10.03969 -19.118391
3.3709302 9.2700558 -18.383097
3.3961406 8.4903526 -17.622313
3.421771 7.6989841 -16.848852
3.4474788 6.8949542 -16.073044
3.4742513 6.0799394 -15.265116
3.5027456 5.2541194 -14.405218
3.5300453 4.4125538 -13.58138
3.5579906 3.5579908 -12.738054
3.5888073 2.6916056 -11.808076
3.6213758 1.8106883 -10.82524
3.652452 0.91311091 -9.8874283
3.6897488 -1.1759853e-06 -8.7619076
3.7365491 -0.93413645 -7.3495717
3.7479219 -1.87396 -7.0063696
3.7756574 -2.8317473 -6.1693716
3.8039553 -3.8039567 -5.3154116
3.831758 -4.7896972 -4.4764013
3.8618257 -5.7927375 -3.569021
3.8944812 -6.8153419 -2.5835464
3.9264786 -7.8529596 -1.617943
3.9597583 -8.9094543 -0.61364508
3.99388 -9.984704 0.41607192
4.0301709 -11.082973 1.5112534
4.067657 -12.202971 2.6424849
4.1049805 -13.341187 3.7688243
4.138217 -14.483762 4.7718272
4.1069059 -15.400897 3.8269296
4.0952454 -16.380981 3.4750423
4.0899081 -17.382111 3.3139703
4.0885139 -18.398308 3.2718935
4.089335 -19.424341 3.2966771
4.0931201 -20.465601 3.4109085
4.0972576 -21.510605 3.5357697
4.1035371 -22.569456 3.7252762
4.1097784 -23.631226 3.9136186
4.1173739 -24.704245 4.1428323
4.1243567 -25.777229 4.3535519
4.1317525 -26.856394 4.5767503
4.1378455 -27.930456 4.7606072
4.1423478 -28.996437 4.896492
4.1474304 -30.068871 5.0498633
4.1522102 -31.141577 5.1941056
4.1565075 -32.212933 5.3237891
4.1626735 -33.301388 5.5098634
4.1788659 -34.475647 5.9985271
4.1305513 37.174961 -20.389595
4.1260505 36.309242 -20.498249
4.1249776 35.474808 -20.524153
4.1243558 34.644585 -20.539164
4.126595 33.838081 -20.4851
4.1308475 33.046776 -20.382444
4.1851578 32.64423 -19.071272
4.1698332 31.690737 -19.441236
4.16715 30.83691 -19.50602
4.1671662 30.003595 -19.505634
4.1669278 29.168495 -19.511377
4.1670866 28.336187 -19.507549
4.1667533 27.500574 -19.515593
4.167182 26.669964 -19.505249
4.1659284 25.828758 -19.535505
4.1661191 24.996714 -19.53091
4.1664839 24.165606 -19.522102
4.0914207 22.911955 -21.334284
4.083056 22.0485 -21.536234
4.0765009 21.197803 -21.694489
4.073072 20.36536 -21.777266
4.0700574 19.536278 -21.850039
4.0683327 18.714331 -21.891678
4.06918 17.90439 -21.871227
4.0702391 17.095007 -21.845654
4.0727687 16.291071 -21.784582
4.0760603 15.489028 -21.705118
4.0802393 14.688862 -21.604223
4.0848541 13.8885 -21.492815
4.0903654 13.089169 -21.359758
4.0975943 12.292784 -21.185244
4.1081767 11.502894 -20.929754
4.1245422 10.723807 -20.53466
4.1489191 9.957406 -19.946144
4.1769476 9.1892834 -19.269491
4.2069087 8.4138165 -18.546167
4.2360725 7.624928 -17.842081
4.2685885 6.8297415 -17.057077
4.3010159 6.0214219 -16.274212
4.3356566 5.202785 -15.4379
4.3693943 4.3693967 -14.623408
4.4043345 3.5234683 -13.779878
4.4402523 2.6641488 -12.912744
4.4786658 1.7914642 -11.985356
4.5184031 0.90368044 -11.026021
4.562634 -1.6366447e-06 -9.9581976
4.620481 -0.92409962 -8.5616388
4.6353936 -1.8541563 -8.2016201
4.6672006 -2.8003221 -7.4337215
4.7029409 -3.7623532 -6.570878
4.7390895 -4.7390895 -5.6981759
4.7749224 -5.7299123 -4.8330874
4.8146248 -6.7404785 -3.8745897
4.8530121 -7.764823 -2.947835
4.8932638 -8.8078747 -1.9760897
4.9334984 -9.8669968 -1.0047312
4.978972 -10.953742 0.093103796
5.0237923 -12.057098 1.1751548
5.0681591 -13.177213 2.2462635
5.1160173 -14.324848 3.4016721
5.1646423 -15.493927 4.5755749
5.2034402 -16.651014 5.5122523
5.1637163 -17.556637 4.5532174
5.151587 -18.545715 4.2604012
5.1452661 -19.552011 4.1077876
5.1444197 -20.577675 4.0873475
5.146863 -21.616823 4.1463428
5.1518784 -22.668264 4.2674236
5.1593828 -23.73316 4.4486055
5.1672759 -24.802925 4.6391549
5.1762209 -25.881104 4.8551054
5.1847548 -26.960728 5.0611382
5.19519 -28.054028 5.3130732
5.2061882 -29.154654 5.5785871
5.224256 -30.300686 6.0147824
5.3051438 -31.830862 7.9675741
5.2500949 -32.550587 6.6385837
5.2480812 -33.587719 6.5899596
5.413578 -35.729614 10.585415
4.9986005 35.823307 -19.545839
4.9850149 34.895103 -19.819155
4.9856968 34.068928 -19.805447
5.0052495 33.368328 -19.412075
5.0326591 31.873508 -18.860645
5.0312128 31.025816 -18.889734
5.0314631 30.188784 -18.884689
5.0313282 29.349415 -18.887407
5.0319457 28.514355 -18.874994
5.031714 27.674429 -18.87965
5.030673 26.830256 -18.900591
5.0312324 25.994699 -18.889347
5.030808 25.154039 -18.897877
5.0309043 24.316036 -18.895937
5.0305576 23.475935 -18.902918
5.0317912 22.643061 -18.878099
4.9454618 21.430332 -20.614906
4.9322376 20.550989 -20.880962
4.9248581 19.69943 -21.029432
4.9186602 18.854864 -21.154119
4.9150519 18.021856 -21.226711
4.9136357 17.197723 -21.255198
4.9134154 16.37805 -21.259634
4.914721 15.563283 -21.233368
4.9178128 14.753437 -21.171167
4.9206324 13.94179 -21.114445
4.9256334 13.135018 -21.013824
4.9316449 12.329113 -20.892885
4.9382844 11.522658 -20.759319
4.9463749 10.717143 -20.596544
4.9582524 9.916503 -20.357592
4.9773068 9.125062 -19.974236
5.0065279 8.3442106 -19.386354
5.0389924 7.5584874 -18.733213
5.0753894 6.7671814 -18.000963
5.1125951 5.9646931 -17.252449
5.1519661 5.151968 -16.460365
5.1920919 4.3267403 -15.653089
5.2325768 3.4883831 -14.8386
5.2752233 2.6376107 -13.980618
5.3166327 1.772211 -13.147532
5.3653965 0.8942312 -12.166467
5.4162025 -3.1496852e-06 -11.144337
5.4865289 -0.91442543 -9.7294836
5.5021596 -1.8340526 -9.4150133
5.5399227 -2.7699649 -8.6552782
5.5808868 -3.7205896 -7.8311553
5.6239052 -4.6865921 -6.9656792
5.6686935 -5.6686974 -6.0646152
5.714325 -6.6667137 -5.1465821
5.7598376 -7.6797848 -4.2309346
5.8049006 -8.7073517 -3.3243344
5.8546915 -9.7578182 -2.3226225
5.9031935 -10.822524 -1.3468363
5.9563665 -11.912735 -0.27707496
6.0064926 -13.014068 0.73137987
6.065835 -14.153619 1.9252634
6.1200814 -15.300201 3.0166051
6.1787925 -16.476782 4.1977887
6.2411313 -17.683205 5.4519501
6.2917838 -18.875351 6.470983
6.2385526 -19.755415 5.4000621
6.2220888 -20.740299 5.0688457
6.2189069 -21.766172 5.0048223
6.218524 -22.801256 4.9971218
6.2232976 -23.855976 5.0931687
6.2308564 -24.923429 5.2452364
6.2403011 -26.001257 5.4352527
6.2528396 -27.095638 5.6874995
6.2673721 -28.203173 5.9798641
6.2933512 -29.368977 6.5025339
6.3676229 -30.776846 7.9967637
6.310801 -31.554003 6.8535862
6.295372 -32.526093 6.5431976
6.3325276 -33.773487 7.2907114
6.3952827 -35.174053 8.5532274
6.4865713 -36.75724 10.389815
5.9074068 30.380951 -18.24033
5.906496 29.532478 -18.256037
5.9065876 28.689137 -18.254469
5.9076576 27.850384 -18.236008
5.9076123 27.006226 -18.236795
5.9069061 26.159157 -18.248972
5.9060864 25.311796 -18.263103
5.9067011 24.470619 -18.252506
5.9062004 23.624802 -18.261145
5.9063139 22.781496 -18.25918
5.9064279 21.938158 -18.257215
5.9073391 21.097637 -18.24151
5.9077492 20.255136 -18.23444
5.7926974 19.033148 -20.218428
5.7818332 18.171476 -20.405775
5.7752728 17.325817 -20.518894
5.7718358 16.490957 -20.578175
5.7697492 15.660747 -20.614155
5.7690754 14.834766 -20.625772
5.7699232 14.012671 -20.611158
5.7723141 13.193862 -20.569925
5.7762752 12.377731 -20.501625
5.7820296 11.564057 -20.40239
5.7883859 10.749859 -20.292768
5.7957215 9.9355211 -20.166283
5.8052735 9.1225691 -20.001554
5.818192 8.3116999 -19.778786
5.8399253 7.5084739 -19.404018
5.87184 6.7106738 -18.853659
5.9110079 5.9110088 -18.178236
5.9532452 5.1027775 -17.449881
5.9987192 4.284801 -16.665709
6.0444651 3.4539769 -15.876854
6.0922694 2.6109693 -15.052494
6.1394334 1.754122 -14.239182
6.1934361 0.88477302 -13.307934
6.2532425 2.6643702e-06 -12.276612
6.3315153 -0.90450472 -10.926847
6.3503833 -1.8143969 -10.601472
6.394165 -2.7403595 -9.8464899
6.4434829 -3.6819899 -8.9960423
6.4928236 -4.6377354 -8.1451807
6.5418086 -5.6072655 -7.300467
6.5934963 -6.5934982 -6.4091487
6.6467562 -7.596293 -5.4907141
6.7004738 -8.6148958 -4.564383
6.754292 -9.6489887 -3.6363263
6.8080139 -10.698308 -2.7099226
6.8677955 -11.773361 -1.6790248
6.92729 -12.864969 -0.6530844
6.991714 -13.98343 0.45786709
7.0550728 -15.118016 1.5504543
7.1197557 -16.273727 2.66587
7.1896825 -17.460657 3.8717077
7.2614775 -18.672373 5.109776
7.3357749 -19.91139 6.3909869
7.388555 -21.110159 7.3011556
7.3280563 -21.984169 6.2578773
7.3135047 -22.985298 6.0069489
7.3097358 -24.017702 5.9419684
7.3131557 -25.073681 6.0009351
7.3224525 -26.151617 6.1612549
7.3367581 -27.250822 6.4079514
7.3624239 -28.397923 6.8505378
7.462471 -29.849886 8.5757933
7.3751116 -30.554035 7.0693245
7.300437 -31.28759 5.7816076
7.2647829 -32.172615 5.1667805
7.2907448 -33.329121 5.6144681
7.3544369 -34.670918 6.7128077
7.4428234 -36.15086 8.2369776
6.7936511 28.873018 -17.601637
6.7925978 28.019463 -17.617538
6.7942052 27.176819 -17.593283
6.7939153 26.32642 -17.59766
6.794126 25.477972 -17.594473
6.7933087 24.625742 -17.606804
6.793889 23.778608 -17.598055
6.7937303 22.928839 -17.600441
6.7931771 22.077824 -17.608793
6.7932563 21.228924 -17.607599
6.7938361 20.381508 -17.598848
6.7936511 19.531748 -17.601637
6.7949696 18.686163 -17.581745
6.6666274 17.499897 -19.518274
6.6517873 16.629467 -19.742199
6.6435599 15.778455 -19.866343
6.6385226 14.936674 -19.94235
6.6341462 14.097561 -20.008383
6.6331158 13.266232 -20.023932
6.6356797 12.441896 -19.985243
6.6378179 11.616182 -19.952984
6.6423254 10.793781 -19.884975
6.6485543 9.9728298 -19.790977
6.655757 9.1516638 -19.682304
6.6638117 8.3297634 -19.560768
6.6744289 7.5087304 -19.400558
6.688911 6.6889095 -19.182045
6.711421 5.872488 -18.8424
6.7469263 5.0601983 -18.306667
6.7934141 4.2458816 -17.605209
6.8429537 3.4214778 -16.857729
6.8947406 2.5855298 -16.076323
6.9508748 1.7377199 -15.229321
7.0062761 0.87578464 -14.393376
7.0728092 -1.8258189e-06 -13.389473
7.1632271 -0.89540517 -12.025166
7.1822371 -1.7955594 -11.738329
7.2304301 -2.7114155 -11.011153
7.2842097 -3.6421049 -10.199682
7.3412876 -4.5883036 -9.3384409
7.4000802 -5.5500617 -8.4513283
7.4561377 -6.5241237 -7.6054873
7.5145659 -7.514564 -6.7238755
7.5734262 -8.5201054 -5.8357401
7.6347795 -9.5434742 -4.9099932
7.6968307 -10.583142 -3.9737077
7.7602086 -11.640312 -3.0174186
7.8267722 -12.718507 -2.0130477
7.8971572 -13.820025 -0.95101362
7.9678416 -14.939707 0.11552978
8.039876 -16.079754 1.2024473
8.1166096 -17.247795 2.3602626
8.1952829 -18.439386 3.5473416
8.2740879 -19.650957 4.7364178
8.3568544 -20.892138 5.9852853
8.4500532 -22.181387 7.3915334
8.479063 -23.317427 7.8292727
8.433814 -24.247213 7.1465039
8.4219694 -25.265905 6.9677792
8.4271574 -26.334866 7.0460658
8.4428005 -27.439102 7.2821045
8.5782156 -28.951481 9.325367
8.4720488 -29.65217 7.7234259
8.3696775 -30.340078 6.1787524
8.2792511 -31.047197 4.8143411
8.2237644 -31.867086 3.9771039
8.2288275 -32.91531 4.0534968
8.2888927 -34.191685 4.9598145
8.3752413 -35.594776 6.2627149
7.6957059 27.362513 -16.892818
7.6907787 26.490459 -16.958906
7.6913495 25.637831 -16.951254
7.690659 24.78101 -16.960516
7.6910191 23.927614 -16.955687
7.6907487 23.072247 -16.959309
7.6917696 22.220667 -16.945616
7.6921902 21.367195 -16.939978
7.6915593 20.510826 -16.948433
7.6915593 19.656206 -16.948437
7.6923404 18.803499 -16.937962
7.6924305 17.949005 -16.93675
7.6926408 17.094753 -16.933929
7.5511589 15.941336 -18.831533
7.5351562 15.070314 -19.046154
7.5223813 14.208941 -19.217505
7.5172143 13.363937 -19.286806
7.5131431 12.521904 -19.34141
7.5100212 11.682255 -19.383284
7.5120258 10.850702 -19.356398
7.5145183 10.01936 -19.322958
7.5189357 9.1898079 -19.263716
7.5258584 8.3620605 -19.170862
7.5340042 7.5340023 -19.061619
7.5443048 6.7060518 -18.92346
7.5552421 5.876298 -18.776762
7.5697875 5.0465269 -18.58168
7.5939784 4.2188764 -18.257217
7.6333508 3.3926001 -17.729145
7.6846886 2.5615647 -17.040592
7.740521 1.7201153 -16.29175
7.8023896 0.86693162 -15.46195
7.88061 -1.045196e-06 -14.412828
7.9782758 -0.88647532 -13.102909
7.9974189 -1.7772017 -12.846164
8.0505285 -2.6835091 -12.133832
8.1096878 -3.6043093 -11.340369
8.1729422 -4.5405235 -10.491982
8.2403622 -5.4935718 -9.5877342
8.3030548 -6.4579315 -8.7468872
8.3661041 -7.4365349 -7.9012485
8.4313087 -8.4313087 -7.0266957
8.4973545 -9.4415064 -6.1408639
8.5637741 -10.466834 -5.2500386
8.6357412 -11.51432 -4.2847857
8.7077742 -12.577898 -3.3186533
8.7853661 -13.666128 -2.2779682
8.8622398 -14.770399 -1.2469213
8.9397802 -15.892947 -0.2069221
9.0164194 -17.031012 0.82098335
9.1061974 -18.212397 2.0251167
9.1919441 -19.405218 3.1751764
9.2824697 -20.62771 4.3893256
9.3831911 -21.894114 5.7402344
9.4816475 -23.177362 7.0607567
9.5877876 -24.502127 8.4843512
9.6365194 -25.697388 9.1379471
9.57446 -26.595724 8.3055906
9.7126827 -28.058859 10.159467
9.5877876 -28.763365 8.4843483
9.4643364 -29.444605 6.8285851
9.3497896 -30.1271 5.2922339
9.2482166 -30.827393 3.9299204
9.1694393 -31.58362 2.8733232
9.1497202 -32.532337 2.6088498
9.2008743 -33.736538 3.2949467
9.2871523 -35.084801 4.4521337
9.4095449 -36.592674 6.0936975
8.6027422 24.947952 -16.265636
8.6003761 24.081053 -16.294199
8.6005783 23.22156 -16.291752
8.6002407 22.360626 -16.29583
8.6000376 21.500097 -16.298277
8.6009159 20.642199 -16.287672
8.6020651 19.78475 -16.273798
8.601119 18.922461 -16.285225
8.6009846 18.062069 -16.286858
8.6022348 17.204468 -16.271755
8.6026402 16.34502 -16.266863
8.602437 15.484384 -16.269308
8.4537878 14.371436 -18.063671
8.4311562 13.489848 -18.336861
8.4174404 12.626162 -18.502415
8.4069014 11.769661 -18.629639
8.4022217 10.922888 -18.686125
8.4001265 10.080152 -18.711435
8.4000616 9.2400675 -18.71221
8.4016733 8.4016733 -18.692751
8.4084835 7.5676317 -18.61054
8.4154663 6.7323732 -18.526247
8.4239206 5.8967428 -18.424208
8.4334955 5.0600963 -18.308628
8.4463825 4.2231917 -18.153065
8.4620895 3.384836 -17.963461
8.4887381 2.5466213 -17.641787
8.5347471 1.7069502 -17.086409
8.5952091 0.85952234 -16.356577
8.6767454 -4.2512916e-06 -15.37234
8.7770195 -0.87770498 -14.161916
8.7957134 -1.7591455 -13.936265
8.8536348 -2.6560938 -13.237083
8.9187164 -3.5674856 -12.451489
8.9866056 -4.4933057 -11.631988
9.0616856 -5.4370131 -10.725698
9.1298733 -6.3909116 -9.902606
9.2000999 -7.3600807 -9.0548887
9.2691774 -8.3422604 -8.2210484
9.3428488 -9.3428478 -7.3317609
9.4171324 -10.35885 -6.4350724
9.4931011 -11.391725 -5.5180473
9.5723152 -12.444007 -4.561861
9.6524353 -13.513409 -3.5947156
9.7308798 -14.596318 -2.6478131
9.820425 -15.712681 -1.5669034
9.9111843 -16.849014 -0.4713358
9.9987946 -17.997828 0.58619827
10.092198 -19.17518 1.7136953
10.192772 -20.385546 2.927736
10.290048 -21.609098 4.1019468
10.39576 -22.87067 5.3780036
10.511233 -24.175838 6.7718878
10.630693 -25.513668 8.213913
10.764801 -26.912003 9.8327246
10.723716 -27.881662 9.3367796
10.581562 -28.570221 7.6208348
10.450807 -29.26226 6.0424805
10.322076 -29.934021 4.4885545
10.206176 -30.618528 3.08952
10.110566 -31.342758 1.9354128
10.061856 -32.197941 1.3474361
10.097692 -33.322388 1.7800125
10.18002 -34.612072 2.7737987
10.296196 -36.036682 4.1761494
9.5244465 23.378183 -15.591523
9.5231657 22.509298 -15.605579
9.523015 21.643213 -15.607234
9.5225248 20.776419 -15.612605
9.5221109 19.909866 -15.617153
9.5227137 19.045427 -15.610542
9.523241 18.180735 -15.604753
9.5225248 17.313681 -15.612607
9.522337 16.447674 -15.614673
9.5232782 15.583546 -15.604342
9.5228262 14.717095 -15.609297
9.522337 13.850675 -15.614675
9.3647785 12.770149 -17.343668
9.3405457 11.887969 -17.609589
9.3206949 11.015363 -17.827431
9.3117189 10.158237 -17.925934
9.304306 9.304306 -18.007278
9.3003521 8.4548616 -18.050659
9.2987003 7.6080275 -18.068794
9.3017893 6.7649384 -18.034889
9.3064632 5.9222918 -17.983599
9.313736 5.0802145 -17.903793
9.3233652 4.2378912 -17.798122
9.3352585 3.3946388 -17.667614
9.3489237 2.5497086 -17.517651
9.365799 1.7028708 -17.332474
9.3988504 0.85443759 -16.969776
9.4668865 -3.0695503e-06 -16.223169
9.5607548 -0.8691597 -15.193089
9.5864496 -1.7429922 -14.911117
9.6404181 -2.6292059 -14.318879
9.7117357 -3.5315409 -13.536262
9.7853088 -4.4478674 -12.72889
9.8637218 -5.3802156 -11.868413
9.9415951 -6.3264685 -11.01386
10.013913 -7.2828469 -10.220251
10.092029 -8.2571154 -9.3630505
10.171156 -9.2465057 -8.4947262
10.247041 -10.247039 -7.6619897
10.331908 -11.27117 -6.7306886
10.412966 -12.306233 -5.8411794
10.499836 -13.363431 -4.8878875
10.587517 -14.437523 -3.9257038
10.680368 -15.535087 -2.9067762
10.77308 -16.649302 -1.8894014
10.873156 -17.792439 -0.79118401
10.97601 -18.958565 0.33750206
11.080268 -20.145941 1.4815913
11.184965 -21.353117 2.6305134
11.298125 -22.596251 3.8722932
11.413435 -23.864458 5.137682
11.538861 -25.175701 6.5140615
11.676637 -26.537811 8.02596
11.716811 -27.694283 8.4668274
11.567133 -28.392059 6.8243136
11.418794 -29.066021 5.1964836
11.279018 -29.735598 3.6626236
11.151189 -30.412333 2.2598627
11.037295 -31.105106 1.0100271
10.967111 -31.904322 0.23983632
10.971508 -32.914528 0.28810459
11.05067 -34.156616 1.1567905
11.161891 -35.515106 2.3772943
11.349466 -37.143707 4.4356904
10.458404 21.78834 -14.906507
10.457779 20.915558 -14.912787
10.456904 20.0424 -14.921582
10.454907 19.167332 -14.941685
10.45603 18.298054 -14.930377
10.456987 17.428316 -14.920747
10.456197 16.555643 -14.928705
10.455281 15.682922 -14.937912
10.455448 14.811887 -14.936242
10.455906 13.941207 -14.931629
10.454491 13.06811 -14.945864
10.454491 12.196907 -14.945868
10.457987 11.329485 -14.910692
10.257134 10.257134 -16.931112
10.23966 9.3863583 -17.106895
10.224235 8.5201969 -17.262062
10.217275 7.6629558 -17.332077
10.211555 6.807704 -17.38962
10.210244 5.9559746 -17.402788
10.212111 5.1060519 -17.38402
10.218626 4.2577586 -17.318476
10.227539 3.4091783 -17.228821
10.237784 2.5594451 -17.125765
10.250649 1.7084432 -16.996347
10.269406 0.85578173 -16.807665
10.304781 4.5646874e-07 -16.451826
10.347081 -0.86225677 -16.026323
10.374259 -1.7290429 -15.75294
10.43012 -2.6075299 -15.191006
10.489771 -3.496588 -14.59097
10.568871 -4.4036965 -13.795281
10.648526 -5.324265 -12.994019
10.732021 -6.2603464 -12.154121
10.816881 -7.2112565 -11.300505
10.901011 -8.1757603 -10.454218
10.982279 -9.1518993 -9.6367168
11.070506 -10.147962 -8.7492332
11.154757 -11.154758 -7.9017196
11.242226 -12.17908 -7.0218587
11.33137 -13.219933 -6.1251354
11.424523 -14.280656 -5.1880913
11.522909 -15.363878 -4.1984029
11.62069 -16.46265 -3.2147932
11.725483 -17.588224 -2.1606646
11.830477 -18.73159 -1.1045094
11.946653 -19.911089 0.0641222
12.055717 -21.097509 1.1612437
12.176382 -22.323364 2.3750243
12.301042 -23.576994 3.6289976
12.429455 -24.858912 4.9207492
12.571701 -26.191046 6.3516302
12.697383 -27.510998 7.6158915
12.53265 -28.198463 5.9588079
12.373362 -28.871174 4.3564816
12.224097 -29.541567 2.8550074
12.082783 -30.206957 1.4334837
11.954156 -30.881569 0.13960005
11.859267 -31.624714 -0.81489754
11.836927 -32.551552 -1.039619
11.894068 -33.69986 -0.46483487
12.006177 -35.018017 0.66289228
12.155983 -36.467945 2.1698153
11.403039 19.297451 -14.227728
11.402947 18.420145 -14.228579
11.401211 17.540323 -14.244698
11.401531 16.663773 -14.241726
11.403039 15.788822 -14.227722
11.400983 14.908975 -14.246816
11.400298 14.031137 -14.25318
11.400252 13.154137 -14.253609
11.4008 12.277786 -14.248516
11.399246 11.39925 -14.262938
11.400571 10.523602 -14.250634
11.402627 9.6483784 -14.231547
11.192539 8.6096449 -16.182308
11.166228 7.730463 -16.426601
11.154148 6.8640919 -16.538784
11.139694 5.9982958 -16.672991
11.13625 5.1398039 -16.704971
11.135117 4.2827363 -16.715494
11.138996 3.4273803 -16.67947
11.145236 2.5719755 -16.621542
11.156859 1.716436 -16.513601
11.175966 0.85968685 -16.336195
11.2579 2.4431711e-07 -15.575396
11.203688 -0.86182123 -16.078777
11.21106 -1.7247798 -16.010323
11.236959 -2.5931485 -15.76983
11.283212 -3.4717581 -15.340364
11.34946 -4.3651786 -14.725227
11.428916 -5.2748847 -13.987441
11.514196 -6.199955 -13.19557
11.601707 -7.1395097 -12.383012
11.689547 -8.0927668 -11.567369
11.774342 -9.057188 -10.780011
11.866559 -10.040934 -9.9237471
11.963449 -11.043188 -9.0240679
12.05233 -12.052331 -8.1987705
12.148867 -13.083395 -7.3023872
12.244591 -14.128374 -6.4135547
12.34794 -15.197467 -5.4538984
12.455011 -16.287327 -4.4596939
12.560241 -17.391104 -3.4825985
12.673074 -18.522186 -2.4348869
12.787148 -19.672537 -1.3756561
12.910614 -20.855612 -0.22922756
13.035232 -22.059624 0.92790723
13.160028 -23.283131 2.0866859
13.300029 -24.5539 3.3866627
13.440185 -25.846506 4.6880622
13.667557 -27.335112 6.799315
13.489372 -28.016394 5.1448045
13.322072 -28.693695 3.5913484
13.160332 -29.357664 2.0895107
13.00253 -30.00584 0.62425578
12.866945 -30.682714 -0.63471991
12.745507 -31.373562 -1.7623057
12.690879 -32.215305 -2.2695668
12.733586 -33.30323 -1.8729998
12.834559 -34.554585 -0.93542647
12.974072 -35.928204 0.36001948
12.359992 17.657131 -13.539706
12.36089 16.775494 -13.531967
12.36084 15.892509 -13.532398
12.358946 15.007292 -13.54873
12.361189 14.127072 -13.529387
12.358197 13.240925 -13.555177
12.358497 12.358495 -13.552594
12.357649 11.474958 -13.559897
12.358596 10.593079 -13.551735
12.35745 9.7094212 -13.561618
12.358846 8.8277454 -13.549588
12.359842 7.9456124 -13.540996
12.142677 6.938673 -15.413435
12.114307 6.0571513 -15.65805
12.093843 5.1830745 -15.834483
12.081447 4.3148017 -15.941374
12.074829 3.4499469 -15.998429
12.077256 2.5879829 -15.977505
12.086975 1.72671 -15.893719
12.230886 0.87363356 -14.652881
12.112918 -2.1376861e-06 -15.670018
12.106314 -0.8647365 -15.726966
12.113924 -1.7305614 -15.661354
12.126004 -2.5984299 -15.557192
12.144121 -3.4697514 -15.400985
12.171374 -4.3469219 -15.165996
12.216063 -5.2354536 -14.780688
12.282459 -6.1412306 -14.2082
12.374267 -7.0710077 -13.416622
12.468118 -8.0152197 -12.607429
12.558973 -8.9706955 -11.824054
12.653357 -9.9419222 -11.010259
12.750975 -10.929403 -10.168584
12.849785 -11.931946 -9.3166084
12.950251 -12.95025 -8.450386
13.055801 -13.988357 -7.5403028
13.157944 -15.037652 -6.6596112
13.271405 -16.11528 -5.6813293
13.385669 -17.210144 -4.6961217
13.49716 -18.317574 -3.7348218
13.619901 -19.456999 -2.6765311
13.748347 -20.622522 -1.5690323
13.870131 -21.795921 -0.51899362
14.011433 -23.018784 0.69933081
14.148322 -24.254265 1.8796204
14.29758 -25.531389 3.1665442
14.46646 -26.866283 4.6226645
14.434636 -27.838226 4.3482747
14.258063 -28.516129 2.82583
14.081744 -29.169327 1.3055774
13.919211 -29.826885 -0.095813826
13.766259 -30.482433 -1.4145938
13.624806 -31.142416 -2.6342316
13.546684 -31.931471 -3.3078153
13.552736 -32.913788 -3.2556388
13.646103 -34.115257 -2.4506128
13.774923 -35.42123 -1.3398975
13.974691 -36.933113 0.3825435
13.336828 16.004192 -12.783414
13.331954 15.109545 -12.822642
13.332116 14.220925 -12.821338
13.328978 13.328977 -12.846597
13.331358 12.442598 -12.827431
13.330276 11.552904 -12.836144
13.330709 10.664564 -12.832659
13.328057 9.7739058 -12.853996
13.32876 8.8858423 -12.848342
13.32876 7.9972548 -12.84834
13.328868 7.1087332 -12.84747
13.330167 6.2207417 -12.837013
13.111533 5.2446103 -14.596442
13.076909 4.3589649 -14.875076
13.057926 3.4821136 -15.027844
13.052164 2.6104281 -15.074214
13.231107 1.7641449 -13.634186
13.066657 0.87110788 -14.957583
13.036254 1.2946002e-06 -15.20225
13.030717 -0.86871195 -15.246804
13.034857 -1.7379799 -15.2135
13.043555 -2.6087124 -15.143483
13.056835 -3.481823 -15.036624
13.07415 -4.3580518 -14.897286
13.092919 -5.2371693 -14.74624
13.12107 -6.1231699 -14.519699
13.167537 -7.0226846 -14.145769
13.237777 -7.9426656 -13.580525
13.332658 -8.8884392 -12.816976
13.428743 -9.847744 -12.043736
13.530239 -10.82419 -11.226966
13.635148 -11.817125 -10.382725
13.740028 -12.824025 -9.5387058
13.844609 -13.84461 -8.6971102
13.9553 -14.885654 -7.8063316
14.069403 -15.945326 -6.8881021
14.191519 -17.029825 -5.9053931
14.30598 -18.120913 -4.9842792
14.435492 -19.24732 -3.9420524
14.574354 -20.404095 -2.8245788
14.69727 -21.555998 -1.8354175
14.834735 -22.746593 -0.72919154
14.980603 -23.968964 0.44466811
15.130065 -25.216782 1.6474484
15.300916 -26.521589 3.0223448
15.365579 -27.658045 3.5427167
15.174961 -28.326593 2.0087378
14.99545 -28.991203 0.56414735
14.81559 -29.63118 -0.88326031
14.653975 -30.284885 -2.1838295
14.50411 -30.942104 -3.389853
14.391578 -31.66147 -4.2954483
14.361926 -32.553703 -4.5340595
14.437586 -33.687702 -3.9251959
14.559101 -34.941849 -2.9473159
14.729911 -36.333778 -1.5727583
14.316381 13.421609 -12.101166
14.315328 12.525911 -12.109111
14.314508 11.630535 -12.115291
14.313689 10.735265 -12.121471
14.314275 9.8410664 -12.117059
14.315503 8.9471884 -12.107791
14.31404 8.0516434 -12.11882
14.312695 7.1563478 -12.128979
14.313807 6.2622876 -12.120584
14.312344 5.3671265 -12.13162
14.312929 4.4727883 -12.127205
14.314334 3.5785811 -12.116618
14.322119 2.6853976 -12.057874
14.074781 1.7593483 -13.923895
14.020631 0.87628686 -14.332431
13.995975 6.9929342e-07 -14.518439
13.986027 -0.8741259 -14.593495
13.982676 -1.7478359 -14.61877
13.982676 -2.6217551 -14.618773
13.990775 -3.4976943 -14.557668
14.002187 -4.3756847 -14.471568
14.017263 -5.2564745 -14.357837
14.035015 -6.1403213 -14.223903
14.055857 -7.0279293 -14.06666
14.083895 -7.9221945 -13.855137
14.128782 -8.8304901 -13.516481
14.20316 -9.7646751 -12.955349
14.298903 -10.724176 -12.233024
14.405362 -11.704359 -11.429851
14.515944 -12.701453 -10.595573
14.627933 -13.71369 -9.7506933
14.738559 -14.73856 -8.9160814
14.859569 -15.788294 -8.0031309
14.981299 -16.853962 -7.0847464
15.104259 -17.936306 -6.1570911
15.23336 -19.041698 -5.1830916
15.364284 -20.165623 -4.1953521
15.507497 -21.322809 -3.1148899
15.654664 -22.503582 -2.0046015
15.798591 -23.697887 -0.91876394
15.945769 -24.915268 0.19161916
16.120016 -26.195026 1.506211
16.290911 -27.490913 2.7955205
16.090982 -28.159222 1.2871705
15.894169 -28.808184 -0.19767022
15.712961 -29.461803 -1.5647806
15.528607 -30.086679 -2.9556274
15.373727 -30.747452 -4.1241117
15.232366 -31.416754 -5.1905913
15.175008 -32.246899 -5.6233158
15.220913 -33.29575 -5.2769961
15.333204 -34.499714 -4.4298162
15.496791 -35.836334 -3.1956515
15.315084 11.711533 -11.363202
15.311807 10.808332 -11.386477
15.312689 9.9082098 -11.380208
15.309539 9.0056114 -11.402581
15.309539 8.1050491 -11.402575
15.312121 7.2057052 -11.384239
15.312562 6.3051734 -11.381104
15.30935 5.4033022 -11.403922
15.312248 4.5036039 -11.383344
15.311491 3.6027052 -11.388711
15.308657 2.7015269 -11.408837
15.309665 1.8011383 -11.401686
15.042904 0.88487583 -13.295843
15.001542 -1.3170904e-06 -13.58954
14.97751 -0.88102722 -13.760193
14.964078 -1.7604791 -13.855566
14.952292 -2.6386414 -13.939251
14.953253 -3.518415 -13.932423
14.953494 -4.3980889 -13.930719
14.964259 -5.2815046 -13.854285
14.973472 -6.1655469 -13.788863
14.989335 -7.0538082 -13.676218
15.008017 -7.9454203 -13.543574
15.030993 -8.8417606 -13.380418
15.058976 -9.7440434 -13.181728
15.104272 -10.661843 -12.860092
15.174185 -11.603785 -12.363682
15.279676 -12.583261 -11.614616
15.394413 -13.583305 -10.799917
15.512502 -14.6 -9.9614124
15.630315 -15.630318 -9.1248598
15.757134 -16.684029 -8.2243643
15.883114 -17.751717 -7.3298373
16.01581 -18.842127 -6.3876152
16.154947 -19.956116 -5.3996391
16.29674 -21.089899 -4.3928351
16.439516 -22.241697 -3.3790245
16.593767 -23.426498 -2.2837481
16.752598 -24.636177 -1.1559484
16.912117 -25.865593 -0.023264078
17.202583 -27.321751 2.0392282
16.992826 -27.988184 0.54982561
16.786684 -28.636112 -0.91391635
16.584078 -29.266022 -2.3525438
16.400967 -29.907644 -3.6527524
16.229073 -30.54884 -4.8733144
16.074203 -31.202868 -5.9729781
15.977916 -31.955833 -6.6566782
15.99598 -32.932903 -6.528409
16.09548 -34.084545 -5.8219023
16.242886 -35.352169 -4.7752199
16.452965 -36.777214 -3.2835395
16.32773 9.978054 -10.613726
16.322792 9.0682144 -10.646843
16.322184 8.1610918 -10.650925
16.322454 7.2544203 -10.649112
16.318329 6.3460183 -10.676771
16.321777 5.4405904 -10.653644
16.323738 4.5343714 -10.640493
16.320156 3.6267014 -10.664535
16.322184 2.7203658 -10.650928
16.320763 1.8134178 -10.660452
16.320831 0.90671247 -10.659995
16.319141 3.2229536e-08 -10.671328
16.039639 -0.89109075 -12.545725
15.990747 -1.7767476 -12.873591
15.966058 -2.6610091 -13.03916
15.947962 -3.5439942 -13.160518
15.942348 -4.4284315 -13.198161
15.936801 -5.3122692 -13.235357
15.940799 -6.1992021 -13.208545
15.947315 -7.0876956 -13.164844
15.960043 -7.9800248 -13.079495
15.974927 -8.8749609 -12.979681
15.995681 -9.775136 -12.840501
16.01903 -10.679356 -12.683924
16.047478 -11.589849 -12.493145
16.091719 -12.515783 -12.196455
16.168921 -13.474105 -11.67873
16.274113 -14.465877 -10.973302
16.395884 -15.485001 -10.156691
16.514021 -16.514017 -9.3644428
16.650181 -17.575193 -8.4513254
16.786245 -18.651384 -7.5388589
16.928188 -19.749554 -6.5869775
17.072254 -20.866091 -5.6208358
17.219248 -22.002373 -4.6350846
17.373465 -23.164618 -3.6008823
17.528206 -24.344728 -2.5631566
17.700191 -25.566948 -1.4097917
17.891335 -26.837004 -0.12796809
17.882076 -27.816568 -0.19005179
17.66551 -28.461098 -1.6423819
17.455519 -29.092533 -3.0506127
17.260889 -29.727089 -4.3558226
17.074179 -30.354097 -5.6079359
16.910604 -31.002777 -6.7048917
16.786531 -31.707893 -7.5369406
16.76339 -32.595482 -7.6921301
16.859154 -33.718311 -7.0499229
16.984892 -34.913391 -6.206706
17.164185 -36.2355 -5.0043459
17.348928 7.30481 -9.8888054
17.346397 6.39078 -9.9049025
17.34741 5.478128 -9.8984661
17.342201 4.5637379 -9.9315586
17.344444 3.6514604 -9.9173098
17.346975 2.738996 -9.9012232
17.346252 1.8259182 -9.9058199
17.344805 0.91288406 -9.9150124
17.343142 -8.8963867e-07 -9.92558
17.345457 -0.91291803 -9.9108763
17.342854 -1.8255632 -9.9274197
17.066563 -2.6947217 -11.682739
17.006195 -3.5802526 -12.066275
16.973711 -4.4667649 -12.272649
16.956755 -5.354763 -12.380378
16.941628 -6.2416511 -12.476484
16.938797 -7.132123 -12.494465
16.939074 -8.0237722 -12.492702
16.947081 -8.9195137 -12.441838
16.959106 -9.818428 -12.365438
16.97468 -10.720852 -12.266488
16.994173 -11.627593 -12.142654
17.019279 -12.540522 -11.98314
17.047955 -13.458908 -11.800969
17.092657 -14.393821 -11.516955
17.166458 -15.359467 -11.048083
17.278076 -16.368702 -10.338961
17.398939 -17.398943 -9.571084
17.544052 -18.467426 -8.6491642
17.680096 -19.541162 -7.7848468
17.831255 -20.646715 -6.8245077
17.977634 -21.7624 -5.8945284
18.13616 -22.908833 -4.8873882
18.301453 -24.08086 -3.8372502
18.468966 -25.273321 -2.7730055
18.654789 -26.509441 -1.5924265
18.757019 -27.641922 -0.94295418
18.531925 -28.285568 -2.3730114
18.3158 -28.919683 -3.7460976
18.111912 -29.551016 -5.0414371
17.915598 -30.173643 -6.2886472
17.74452 -30.819431 -7.3755498
17.596163 -31.487871 -8.3180962
17.540722 -32.311855 -8.6703243
17.616287 -33.378227 -8.190237
17.737253 -34.540966 -7.4217114
17.905956 -35.811916 -6.3499079
18.209059 -37.376492 -4.4242444
18.382969 5.5148892 -9.1588869
18.385748 4.596436 -9.1421089
18.382891 3.6765749 -9.1593504
18.381657 2.757247 -9.1668043
18.382044 1.8382001 -9.1644735
18.384281 0.91921169 -9.1509628
18.385672 -1.2764683e-06 -9.1425781
18.382044 -0.9191013 -9.1644793
18.380268 -1.8380253 -9.1751938
18.382891 -2.7574351 -9.1593504
18.383432 -3.676688 -9.1560879
18.385054 -4.5962639 -9.1463051
18.036751 -5.4110265 -11.248499
17.993973 -6.2978907 -11.506689
17.973286 -7.1893139 -11.631541
17.955961 -8.0801811 -11.736111
17.949335 -8.9746656 -11.776101
17.953384 -9.8743629 -11.75166
17.960308 -10.776183 -11.709873
17.971367 -11.68139 -11.643121
17.989166 -12.592417 -11.535695
18.00848 -13.506359 -11.419126
18.032368 -14.425893 -11.27496
18.062798 -15.353379 -11.091285
18.106054 -16.29545 -10.830211
18.182388 -17.27327 -10.369502
18.292479 -18.292482 -9.7050352
18.433207 -19.354872 -8.8556738
18.576824 -20.434509 -7.9888582
18.726864 -21.535894 -7.0833011
18.877798 -22.65336 -6.1723208
19.044683 -23.805859 -5.1650877
19.220448 -24.986584 -4.1042485
19.405508 -26.197441 -2.9873071
19.625353 -27.475494 -1.6604382
19.387718 -28.112192 -3.0946863
19.169445 -28.754171 -4.412086
18.955044 -29.380318 -5.7061071
18.756954 -30.011126 -6.90169
18.583212 -30.6623 -7.9503112
18.432198 -31.334736 -8.8617697
18.368006 -32.144012 -9.2492008
18.412815 -33.14307 -8.9787455
18.508726 -34.241146 -8.3998718
18.640503 -35.416954 -7.6045327
18.845373 -36.748474 -6.3680334
19.443535 3.7035267 -8.3459978
19.435724 2.7765324 -8.3908968
19.437616 1.8511987 -8.3800268
19.436054 0.92552596 -8.3890085
19.437204 -2.4004703e-06 -8.3823862
19.435888 -0.92552024 -8.3899479
19.438108 -1.8512475 -8.3771915
19.434328 -2.7763355 -8.3989201
19.432356 -3.7013991 -8.4102621
19.433918 -4.6271219 -8.401288
19.438766 -5.5539346 -8.3734131
19.436054 -6.478682 -8.3890057
19.070198 -7.2648406 -10.491982
19.031824 -8.1564999 -10.712562
19.01018 -9.0524664 -10.836989
18.991171 -9.9477577 -10.946245
18.980192 -10.845828 -11.009352
18.979095 -11.748964 -11.01566
18.984268 -12.656182 -10.985925
18.996588 -13.568989 -10.91512
19.012144 -14.485441 -10.82569
19.036003 -15.410098 -10.688553
19.062212 -16.339037 -10.537897
19.091269 -17.273054 -10.370871
19.135139 -18.223944 -10.11869
19.203894 -19.203896 -9.7234869
19.322565 -20.242691 -9.0413513
19.463543 -21.317215 -8.2309952
19.619562 -22.422358 -7.3341699
19.782873 -23.551041 -6.3954411
19.955679 -24.707031 -5.4021301
20.139381 -25.89349 -4.3461924
20.484207 -27.312275 -2.3640928
20.251986 -27.967026 -3.6989312
20.021566 -28.60224 -5.0233955
19.800428 -29.229202 -6.2945385
19.606256 -29.8762 -7.4106584
19.43819 -30.545731 -8.3767195
19.344603 -31.319834 -8.9146729
19.317856 -32.19643 -9.0684195
19.33061 -33.138187 -8.9951057
19.375671 -34.138092 -8.7360859
19.453491 -35.201561 -8.288763
19.583618 -36.369579 -7.5407791
20.558477 1.8689539 -7.3086543
20.500799 0.93185216 -7.6251264
20.503942 -3.7371351e-06 -7.607882
20.504204 -0.93201047 -7.6064444
20.506124 -1.8641927 -7.595912
20.505514 -2.7962105 -7.5992594
20.503769 -3.7279615 -7.6088414
20.50141 -4.6594095 -7.6217785
20.500013 -5.5909123 -7.6294413
20.502022 -6.5233741 -7.6184201
20.505514 -7.4565487 -7.5992651
20.50141 -8.38694 -7.621778
20.149427 -9.1588326 -9.5530453
20.086643 -10.043322 -9.8975477
20.059614 -10.941608 -10.045842
20.037994 -11.840632 -10.164468
20.023998 -12.742546 -10.241271
20.021832 -13.65125 -10.253149
20.024662 -14.563395 -10.237616
20.037163 -15.483264 -10.169035
20.052181 -16.406332 -10.08663
20.076508 -17.338806 -9.9531431
20.103497 -18.275906 -9.8050585
20.133759 -19.218586 -9.6390266
20.176361 -20.176363 -9.4052715
20.246943 -21.167257 -9.0180016
20.362268 -22.213387 -8.3852205
20.508396 -23.304996 -7.5834475
20.683697 -24.44437 -6.6215992
20.866451 -25.608826 -5.6188545
21.081402 -26.830875 -4.4394441
21.09304 -27.804459 -4.3756022
20.859129 -28.444269 -5.6590219
20.651054 -29.099216 -6.8007002
20.475346 -29.782322 -7.7647905
20.376141 -30.564211 -8.3091116
20.337931 -31.431349 -8.5187626
20.327284 -32.338863 -8.577177
20.334925 -33.275337 -8.5352564
20.34833 -34.222195 -8.4617062
20.384336 -35.209309 -8.2641449
20.449261 -36.250965 -7.9079165
21.58946 -0.93867207 -6.8021584
21.584 -1.8768709 -6.830821
21.587793 -2.8157997 -6.8109074
21.58872 -3.7545588 -6.8060517
21.589369 -4.6933441 -6.8026457
21.58724 -5.6314545 -6.8138189
21.585573 -6.5695224 -6.8225713
21.583813 -7.5074129 -6.8317986
21.58548 -8.4464941 -6.8230476
21.58659 -9.3854752 -6.817225
21.582056 -10.321854 -6.8410215
21.226433 -11.074663 -8.7074413
21.155516 -11.957466 -9.0796242
21.123295 -12.857656 -9.2487364
21.09833 -13.75978 -9.3797607
21.080132 -14.664437 -9.4752741
21.077394 -15.578944 -9.4896355
21.078365 -16.496115 -9.4845362
21.090551 -17.42263 -9.4205799
21.110628 -18.357071 -9.3152113
21.132605 -19.294985 -9.1998739
21.15774 -20.237839 -9.0679579
21.19105 -21.191051 -8.8931417
21.23243 -22.155581 -8.6759624
21.301067 -23.153336 -8.3157301
21.424536 -24.21904 -7.6677365
21.596037 -25.351868 -6.7676525
21.794338 -26.532236 -5.7269082
21.940905 -27.664616 -4.9576921
21.707785 -28.314501 -6.1811652
21.532118 -29.021553 -7.1031156
21.427179 -29.811731 -7.653851
21.389219 -30.688881 -7.8530936
21.374777 -31.597502 -7.9288774
21.372147 -32.522831 -7.9426904
21.377954 -33.461147 -7.9122024
21.390036 -34.410061 -7.8488035
21.4177 -35.385765 -7.7036133
21.464363 -36.396095 -7.4587059
22.690542 -2.8363194 -5.9853048
22.684956 -3.7808287 -6.0133986
22.684956 -4.7260327 -6.0133972
22.684271 -5.6710701 -6.0168457
22.68672 -6.6169634 -6.0045252
22.68574 -7.5619135 -6.0094538
22.683783 -8.5064154 -6.0193133
22.681822 -9.4507608 -6.0291648
22.681725 -10.395795 -6.029654
22.684076 -11.342035 -6.0178351
22.680647 -12.285352 -6.0350733
22.6828 -13.231635 -6.0242405
22.241035 -13.900648 -8.2461567
22.20118 -14.800786 -8.4466076
22.171476 -15.704794 -8.5960102
22.155392 -16.616543 -8.6769056
22.146147 -17.532366 -8.7234077
22.153429 -18.461195 -8.6867695
22.164459 -19.393902 -8.6312981
22.180557 -20.332178 -8.5503359
22.20071 -21.275682 -8.4489689
22.229271 -22.229271 -8.3053255
22.26309 -23.190722 -8.1352148
22.304968 -24.163715 -7.9245915
22.383854 -25.181835 -7.5278301
22.536736 -26.292856 -6.7588992
22.792143 -27.540506 -5.4742947
22.59927 -28.24909 -6.4443665
22.500246 -29.062817 -6.9424205
22.466373 -29.955164 -7.1127877
22.45274 -30.872517 -7.1813669
22.445541 -31.797855 -7.2175517
22.444681 -32.731827 -7.2218957
22.453026 -33.679539 -7.1799145
22.469257 -34.640106 -7.0982833
22.502945 -35.629662 -6.9288473
23.822538 -4.7645102 -5.0845194
23.797672 -5.7114406 -5.2045817
23.79726 -6.6632338 -5.2065783
23.795294 -7.6144943 -5.2160797
23.797779 -8.5671997 -5.2040854
23.797054 -9.5188246 -5.2075777
23.794674 -10.469656 -5.2190762
23.792604 -11.42045 -5.2290621
23.79281 -12.372261 -5.2280674
23.797672 -13.326697 -5.204586
23.797466 -14.27848 -5.2055826
23.798605 -15.23111 -5.2000847
23.355328 -15.881625 -7.3404217
23.305292 -16.779816 -7.5820088
23.268427 -17.684004 -7.7600145
23.247667 -18.598137 -7.8602476
23.237795 -19.519747 -7.9079218
23.237103 -20.448652 -7.9112535
23.24905 -21.389126 -7.8535752
23.264568 -22.33399 -7.7786379
23.290018 -23.29002 -7.6557698
23.317408 -24.250105 -7.5235143
23.354828 -25.223215 -7.3428321
23.405075 -26.213686 -7.1002173
23.688061 -27.478155 -5.7338362
23.588602 -28.306324 -6.2140703
23.556007 -29.209452 -6.3714576
23.546476 -30.13949 -6.4174657
23.539083 -31.071594 -6.4531641
23.539083 -32.013157 -6.4531636
23.543135 -32.960392 -6.4336057
23.559658 -33.925903 -6.3538303
23.599997 -34.927994 -6.1590586
24.926716 -7.6697578 -4.3821898
24.928137 -8.628973 -4.375598
24.925735 -9.5868187 -4.3867531
24.922134 -10.543978 -4.4034753
24.922352 -11.502626 -4.4024587
24.921913 -12.460958 -4.4044905
24.921804 -13.419432 -4.4049988
24.922678 -14.378469 -4.4009452
24.927811 -15.34019 -4.377121
24.926935 -16.298382 -4.3811741
24.924316 -17.255297 -4.3933434
24.474646 -17.885323 -6.4810271
24.417833 -18.782949 -6.7447882
24.37986 -19.691429 -6.9210868
24.356594 -20.609425 -7.0291147
24.342424 -21.533686 -7.0949011
24.343777 -22.471184 -7.0886145
24.352112 -23.415491 -7.0499239
24.370569 -24.370571 -6.9642282
24.403383 -25.341976 -6.8118792
24.458027 -26.339417 -6.5581884
24.70006 -27.550072 -5.4344893
24.670721 -28.466221 -5.5707064
24.656824 -29.398525 -5.6352196
24.655331 -30.345026 -5.6421647
24.653835 -31.291405 -5.6491127
24.655972 -32.242424 -5.6391883
24.669973 -33.209579 -5.5741868
24.702742 -34.203793 -5.4220524
26.079632 -9.6591215 -3.5139921
26.072958 -10.622318 -3.5438251
26.071003 -11.587113 -3.5525663
26.068245 -12.551377 -3.5649068
26.070543 -13.518061 -3.5546217
26.06744 -14.481912 -3.5685062
26.06905 -15.448325 -3.5613089
26.071808 -16.415583 -3.5489721
26.071924 -17.381283 -3.5484526
26.067095 -18.343512 -3.5700519
26.074453 -19.314415 -3.537138
25.628593 -19.933352 -5.5304766
25.550587 -20.818996 -5.8792238
25.511431 -21.731962 -6.0542784
25.47646 -22.645741 -6.2106357
25.469652 -23.583012 -6.2410645
25.471956 -24.528551 -6.2307644
25.499104 -25.499105 -6.1093926
25.825146 -26.781633 -4.6517382
25.802483 -27.713779 -4.7530627
25.789196 -28.654665 -4.8124619
25.788408 -29.608913 -4.8159866
25.78627 -30.561508 -4.825541
25.78672 -31.517103 -4.8235312
25.800343 -32.489323 -4.76263
25.850903 -33.510429 -4.5365887
27.249249 -11.67825 -2.635798
27.229513 -12.642278 -2.720876
27.230724 -13.615361 -2.7156606
27.232178 -14.588666 -2.7094011
27.229395 -15.559654 -2.7213962
27.233507 -16.53463 -2.7036672
27.229877 -17.504921 -2.7193143
27.229395 -18.477091 -2.7214012
27.235321 -19.4538 -2.6958392
27.232538 -20.424404 -2.7078383
27.233749 -21.397947 -2.7026215
27.234718 -22.371376 -2.6984465
26.726389 -22.908339 -4.8898954
26.676249 -23.818081 -5.1060491
26.673811 -24.768538 -5.1165652
26.971867 -26.008587 -3.8316221
26.947083 -26.947084 -3.9384725
26.937723 -27.899788 -3.9788132
26.931093 -28.854746 -4.0073948
26.935593 -29.82155 -3.9880037
26.935474 -30.7834 -3.9885128
26.948502 -31.760738 -3.9323442
27.016809 -32.806126 -3.6378653
28.41803 -14.698986 -1.8216478
28.412687 -15.675967 -1.8438894
28.414978 -16.657055 -1.8343633
28.41485 -17.636803 -1.8348895
28.411671 -18.614546 -1.8481232
28.409763 -19.592937 -1.856065
28.412561 -20.574615 -1.8444197
28.412052 -21.55397 -1.8465346
28.436363 -22.552982 -1.7453421
28.402643 -23.50564 -1.8856947
28.207886 -24.317144 -2.6963553
28.131752 -25.221573 -3.0132675
28.113562 -26.174698 -3.0889814
28.101614 -27.132593 -3.1387217
28.099373 -28.099375 -3.1480405
28.101114 -29.07012 -3.1407938
28.109203 -30.047771 -3.1071191
28.128014 -31.037809 -3.0288281
29.614073 -16.781309 -0.95208776
29.605127 -17.763081 -0.98808187
29.606195 -18.750593 -0.98378432
29.61087 -19.740582 -0.96498346
29.609266 -20.726484 -0.97143143
29.643353 -21.738461 -0.83427989
29.568867 -22.669468 -1.1339862
29.375605 -23.500486 -1.9116088
29.313053 -24.427544 -2.1633008
29.295006 -25.389008 -2.2359142
29.285208 -26.356688 -2.2753479
29.278025 -27.32616 -2.3042388
29.282597 -28.306507 -2.2858565
29.289911 -29.289911 -2.2564209
29.310959 -30.287994 -2.1717255
30.839041 -18.901346 -0.026001705
30.81971 -19.883688 -0.1012666
30.866959 -20.90988 0.082713582
