# .PCD v0.7 - Point Cloud Data file format
VERSION 0.7
FIELDS x y z
SIZE 4 4 4
TYPE F F F
COUNT 1 1 1
WIDTH 1508
HEIGHT 1
VIEWPOINT 0 0 0 1 0 0 0
POINTS 1508
DATA ascii
-1165.7812 89.675575 -576.29175
-1165.9331 59.791561 -575.82202
-1166.1217 29.90053 -575.23828
-1166.4116 2.4496017e-05 -574.34094
-1166.7615 -29.916964 -573.25775
-1167.3699 -59.865021 -571.37506
-1170.75 -90.05751 -560.91321
-1174.7985 -120.49215 -548.38232
-1179.5149 -151.2197 -533.78442
-1186.3846 -182.52051 -512.52148
-1194.845 -214.45932 -486.33566
-1203.8188 -246.93709 -458.56033
-1221.9397 -281.98593 -402.47354
-1136.8671 209.42291 -573.18652
-1136.7817 179.49203 -573.45758
-1136.5798 149.55017 -574.09882
-1136.553 119.63713 -574.1842
-1136.8267 89.749504 -573.31482
-1137.4418 59.865513 -571.36084
-1140.243 30.006504 -562.46259
-1143.0443 0.00019944212 -553.56366
-1147.6313 -30.200735 -538.99255
-1152.7303 -60.669876 -522.79529
-1159.0677 -91.505295 -502.66376
-1165.2443 -122.65722 -483.04376
-1173.2574 -154.37589 -457.58878
-1182.1285 -186.65167 -429.40897
-1191.5192 -219.4903 -399.5788
-1202.6351 -253.1862 -364.26779
-1231.0382 -291.56155 -274.04263
-1259.1836 -331.36401 -184.63605
-1254.3136 -363.09061 -200.10638
-1107.015 209.43546 -572.97284
-1106.7572 179.47426 -573.81396
-1106.9144 149.5831 -573.30054
-1106.2463 119.59422 -575.48035
-1101.9641 89.348473 -589.45087
-1102.1288 59.5746 -588.91394
-1103.369 29.820917 -584.86737
-1132.2938 7.5532116e-05 -490.50223
-1138.0703 -30.758537 -471.65619
-1145.0413 -61.894035 -448.91376
-1153.0646 -93.491585 -422.73822
-1160.5188 -125.46136 -398.41959
-1170.2196 -158.13766 -366.7709
-1179.9351 -191.34084 -335.07462
-1191.3651 -225.3932 -297.78476
-1204.2847 -260.38562 -255.63565
-1219.8336 -296.71625 -204.90749
-1216.1725 -328.6951 -216.85176
-1218.3813 -362.22144 -209.64543
-1076.7089 209.3602 -574.26984
-1076.5687 179.42816 -574.73993
-1076.696 149.54128 -574.3125
-1077.1425 119.68261 -572.81586
-1071.9202 89.326759 -590.32666
-1072.0592 59.558926 -589.86041
-1072.9109 29.803078 -587.005
-1126.8774 5.5033201e-05 -406.05072
-1133.3044 -31.48061 -384.50082
-1141.1637 -63.397877 -358.14771
-1149.7334 -95.810951 -329.41315
-1158.2212 -128.6911 -300.95276
-1168.8949 -162.34642 -265.16278
-1179.8948 -196.64905 -228.27974
-1181.3356 -229.70401 -223.44891
-1177.7302 -261.71771 -235.53775
-1177.6234 -294.40564 -235.89587
-1179.5531 -327.65353 -229.42563
-1184.6492 -361.97604 -212.33786
-1199.593 -399.8642 -162.23
-1046.7466 209.34946 -574.4549
-1046.5402 179.407 -575.16718
-1046.7424 149.53484 -574.4693
-1047.9335 119.76396 -570.36157
-1042.0177 89.315865 -590.76434
-1042.2102 59.554897 -590.10052
-1042.9067 29.797415 -587.69812
-1052.9963 9.0117239e-05 -552.90045
-1129.8184 -32.28043 -287.95071
-1138.9827 -65.084686 -256.34412
-1143.9735 -98.054771 -239.13155
-1141.9838 -130.5123 -245.99408
-1140.5793 -162.93983 -250.83755
-1140.4518 -195.50583 -251.27734
-1140.8491 -228.16969 -249.90703
-1141.7183 -260.96408 -246.90952
-1142.8743 -293.88181 -242.9223
-1145.6831 -327.33807 -233.23509
-1152.2025 -362.12076 -210.75043
-1166.3633 -399.89597 -161.9115
-1016.7914 209.33963 -574.62598
-1016.5307 179.38782 -575.55157
-1016.8114 149.53131 -574.55481
-1018.0126 119.7663 -570.29022
-1012.3094 89.321617 -590.53845
-1012.4446 59.555782 -590.05835
-1012.9382 29.7924 -588.30603
-1019.9993 0.00017625508 -563.23688
-1097.2434 -32.271828 -288.99609
-1098.9139 -64.641899 -283.06494
-1100.7307 -97.1231 -276.61523
-1102.3789 -129.6915 -270.76352
-1103.8618 -162.33249 -265.49878
-1105.1543 -195.02722 -260.90991
-1106.6447 -227.83856 -255.61867
-1108.2153 -260.75644 -250.04251
-1110.4552 -293.94388 -242.08994
-1114.1716 -327.69757 -228.8954
-1121.1379 -362.72104 -204.16284
-1136.567 -401.14124 -149.38484
-986.85461 209.33282 -574.73987
-986.60156 179.38214 -575.66541
-986.86627 149.52533 -574.6972
-988.03979 119.76258 -570.40448
-982.61279 89.328545 -590.25598
-982.59735 59.551426 -590.3125
-982.97583 29.787352 -588.9281
-988.96582 0.00014504101 -567.0174
-1063.3685 -32.223087 -294.85971
-1065.2346 -64.559593 -288.03366
-1066.8386 -96.985214 -282.16629
-1068.4978 -129.5148 -276.09763
-1070.359 -162.17558 -269.28934
-1072.3186 -194.96687 -262.12122
-1074.0409 -227.82671 -255.82109
-1076.204 -260.89789 -247.90898
-1078.9293 -294.2533 -237.94012
-1083.2051 -328.2439 -222.2993
-1091.7068 -363.90219 -191.20113
-1106.7218 -402.44418 -136.27794
-956.91968 209.32634 -574.85394
-956.67438 179.37653 -575.7793
-956.92725 149.51996 -574.82544
-958.06519 119.75825 -570.53284
-952.77679 89.322952 -590.48187
-952.71313 59.544689 -590.72198
-953.06506 29.78343 -589.39435
-958.47412 0.00016518653 -568.99036
-1036.8898 -32.40263 -273.18985
-1036.0437 -64.752609 -276.3815
-1036.5796 -97.179199 -274.3602
-1037.5597 -129.69489 -270.66284
-1039.1692 -162.37004 -264.59204
-1041.1588 -195.21715 -257.08627
-1042.7615 -228.10396 -251.04048
-1045.4092 -261.35233 -241.05324
-1048.8317 -294.98376 -228.14267
-1054.0651 -329.39532 -208.40149
-1063.9612 -365.7366 -171.07095
-1079.0437 -404.6412 -114.1769
-926.98309 209.31877 -574.98199
-926.74902 179.37088 -575.89319
-926.99408 149.51534 -574.93945
-928.09631 119.75439 -570.64716
-922.90094 89.313072 -590.87726
-922.92273 59.543472 -590.79266
-923.31085 29.784353 -589.28149
-928.5144 0.00010831148 -569.01904
-1014.2354 -32.717064 -235.23105
-1010.3143 -65.181519 -250.49911
-1009.1122 -97.655968 -255.17981
-1009.3984 -130.24477 -254.06569
-1010.3968 -162.96709 -250.17775
-1012.2732 -195.92363 -242.87144
-1013.7321 -228.90712 -237.19066
-1016.6448 -262.35992 -225.8485
-1021.1698 -296.46857 -208.22893
-1027.0402 -331.30322 -185.37025
-1035.9208 -367.58472 -150.79031
-1048.2993 -405.79315 -102.58938
-897.06268 209.31467 -575.05328
-896.84686 179.36938 -575.92169
-897.08392 149.51411 -574.96771
-898.14355 119.75271 -570.70435
-893.13702 89.313728 -590.84894
-893.1861 59.54591 -590.65131
-893.59332 29.786507 -589.0127
-898.5979 0.00022177797 -568.8761
-925.79205 -30.859585 -459.45547
-984.68933 -65.645859 -222.47079
-982.59979 -98.25988 -230.87843
-982.24738 -130.96622 -232.29634
-982.61676 -163.76924 -230.81029
-984.41638 -196.88324 -223.5688
-987.00189 -230.30026 -213.1658
-990.22162 -264.05896 -200.21046
-994.52283 -298.35678 -182.90382
-1000.2678 -333.42245 -159.78789
-1007.2205 -369.31403 -131.81248
-1019.7158 -407.88632 -81.535202
-867.15033 209.31224 -575.09601
-866.94855 179.36879 -575.93622
-867.17773 149.51346 -574.98187
-868.19507 119.75114 -570.74695
-863.45056 89.322647 -590.49615
-863.51501 59.552975 -590.22784
-863.84082 29.787663 -588.8714
-868.37347 0.00011091483 -570.00476
-881.90027 -30.410219 -513.70013
-958.521 -66.104774 -194.77151
-956.48108 -98.946274 -203.26207
-955.86133 -131.84291 -205.84212
-956.19397 -164.86095 -204.45724
-957.55627 -198.11493 -198.787
-960.24225 -231.78241 -187.60693
-963.71594 -265.85254 -173.14769
-967.91345 -300.38681 -155.67581
-973.1723 -335.57657 -133.78619
-980.19916 -371.79956 -104.5374
-991.31409 -410.19888 -58.272285
-837.23535 209.30891 -575.15277
-837.05377 179.36879 -575.93622
-837.27173 149.51288 -574.99634
-838.24744 119.74976 -570.78986
-833.72552 89.327888 -590.2843
-833.79761 59.557011 -589.97351
-834.09912 29.789337 -588.67352
-837.97931 1.3661444e-05 -571.94574
-850.44226 -30.372768 -518.21667
-932.12335 -66.580177 -166.08179
-929.81158 -99.622528 -176.04785
-929.18457 -132.74054 -178.75098
-929.22125 -165.93222 -178.59325
-930.43134 -199.37808 -173.37628
-932.742 -233.18539 -163.41467
-936.20697 -267.48755 -148.47684
-940.68091 -302.36166 -129.18929
-946.13336 -337.90469 -105.68333
-953.25684 -374.49365 -74.973488
-965.34277 -413.7182 -22.8696
-807.32135 209.3056 -575.20984
-807.15576 179.36815 -575.95032
-807.36279 149.51166 -575.02466
-808.30359 119.74869 -570.81842
-803.89911 89.322273 -590.51013
-804.00018 59.555782 -590.05835
-804.27826 29.788109 -588.81494
-808.01318 0.00015483753 -572.11719
-820.04309 -30.371954 -518.33423
-904.78687 -67.021233 -139.46419
-902.8786 -100.31972 -147.99608
-901.77637 -133.59647 -152.92351
-901.995 -167.036 -151.94623
-903.06989 -200.68221 -147.14078
-905.33942 -234.71748 -136.99455
-908.77716 -269.26724 -121.62479
-912.83539 -304.27823 -103.48168
-918.01599 -340.00589 -80.320221
-925.02533 -376.86218 -48.982803
-939.25818 -417.44797 14.648786
-777.40833 209.3024 -575.26678
-777.26117 179.36815 -575.95032
-777.45129 149.50993 -575.06732
-778.35724 119.74731 -570.86133
-774.05206 89.313728 -590.84894
-774.18286 59.552616 -590.24176
-774.44452 29.786339 -589.02692
-778.12366 1.3661444e-05 -571.94574
-790.52966 -30.404917 -514.34827
-877.8244 -67.524864 -109.06306
-875.33649 -101.0003 -120.61414
-874.10162 -134.47719 -126.34686
-874.23352 -168.12181 -125.73475
-875.37531 -202.00957 -120.43365
-877.50775 -236.25192 -110.53346
-880.71216 -270.98831 -95.656158
-884.99213 -306.34335 -75.78553
-890.41498 -342.46722 -50.60865
-897.83557 -379.85349 -16.156734
-909.92993 -419.96765 39.993568
-747.49622 209.29909 -575.32385
-747.36353 179.36739 -575.96454
-747.54333 149.50874 -575.09601
-748.40863 119.74558 -570.91852
-744.25165 89.310249 -590.99017
-744.3656 59.549286 -590.43951
-744.72253 29.789091 -588.71613
-748.6629 9.9249271e-05 -569.69037
-760.83899 -30.433355 -510.89935
-849.27936 -67.942322 -83.870865
-847.21729 -101.66599 -93.827797
-846.4187 -135.42679 -97.683914
-846.41486 -169.28281 -97.702187
-847.38776 -203.37302 -93.004555
-849.40887 -237.83435 -83.245827
-852.75018 -272.88 -67.112381
-856.86523 -308.47144 -47.243446
-862.12897 -344.85135 -21.828215
-868.72247 -382.23773 10.00837
-882.36072 -423.53296 75.85955
-717.59351 209.29834 -575.33813
-717.46332 179.36586 -575.99298
-717.63599 149.50768 -575.12457
-718.45239 119.74222 -571.01843
-714.45062 89.306442 -591.14532
-714.50964 59.542576 -590.849
-714.94489 29.789375 -588.65936
-718.38708 0.00012921862 -571.34662
-729.46796 -30.394377 -515.61401
-820.20544 -68.350327 -59.239834
-818.06586 -102.25815 -70.001343
-817.40405 -136.23393 -73.329735
-817.84882 -170.38509 -71.092834
-819.2265 -204.80652 -64.163857
-821.42035 -239.58081 -53.129105
-824.75775 -274.91919 -36.343685
-829.00555 -310.87698 -14.978801
-834.29498 -347.62277 11.624708
-840.76611 -385.35098 44.172337
-856.80243 -428.40106 124.8287
-687.6911 209.29745 -575.35242
-687.56628 179.36525 -576.00714
-687.73181 149.50703 -575.13867
-688.49786 119.73882 -571.11835
-684.63617 89.300514 -591.3855
-684.6684 59.536564 -591.21606
-685.09088 29.786707 -588.99878
-688.10913 2.93046e-05 -573.15802
-698.44885 -30.367149 -518.89252
-791.20728 -68.800529 -32.069294
-789.27618 -102.94904 -42.203972
-788.82263 -137.1864 -44.584888
-789.43347 -171.61588 -41.378376
-790.8877 -206.31844 -33.746307
-793.57019 -241.52116 -19.667654
-797.6192 -277.43256 1.5822514
-802.65479 -314.08212 28.010258
-808.18121 -351.383 57.014698
-834.55927 -399.13702 195.45468
-657.78888 209.29666 -575.36664
-657.66693 179.36374 -576.03558
-657.8252 149.50583 -575.1673
-658.54492 119.73555 -571.21814
-654.85907 89.299011 -591.44183
-654.91309 59.537659 -591.14551
-655.27087 29.785202 -589.18237
-657.96277 0.00016741917 -574.41229
-667.17523 -30.326088 -523.86493
-761.59485 -69.23568 -5.7987738
-760.10535 -103.65057 -13.971494
-759.849 -138.15413 -15.377996
-761.46967 -173.06111 -6.4857421
-764.185 -208.41394 8.4128981
-768.383 -244.48544 31.446663
-786.14661 -285.87146 128.91309
-788.99255 -322.76959 144.52823
-792.59698 -360.27136 164.30539
-798.27411 -399.13702 195.45468
-627.8869 209.29561 -575.38068
-627.77051 179.36296 -576.0498
-627.92157 149.5052 -575.18146
-628.59369 119.73215 -571.31805
-625.12714 89.303978 -591.24432
-625.21558 59.544334 -590.73596
-625.508 29.786261 -589.05524
-628.03802 0.0001189867 -574.51202
-636.98926 -30.332794 -523.05914
-732.13715 -69.727242 23.863253
-731.50787 -104.50109 20.246033
-733.15912 -139.64917 29.737362
-745.72211 -177.55272 101.95086
-746.65271 -213.32933 107.30033
-748.23944 -249.41315 116.4208
-750.3985 -285.86603 128.83163
-753.06512 -322.74219 144.15965
-756.62018 -360.29526 164.59474
-761.92322 -399.10254 195.07713
-597.98755 209.29561 -575.38068
-597.87195 179.36177 -576.07843
-598.01587 149.50412 -575.20996
-598.6441 119.72889 -571.41785
-595.40125 89.310249 -590.99017
-595.49951 59.550137 -590.39728
-595.72656 29.786339 -589.02692
-598.12207 0.00012422576 -574.56891
-607.78516 -30.389154 -516.24658
-703.6275 -70.362526 62.212894
-710.73767 -106.61052 105.1269
-710.03186 -142.0063 100.86665
-710.14166 -177.53526 101.52915
-711.0578 -213.31717 107.05872
-712.62909 -249.42014 116.54218
-714.64838 -285.85934 128.72995
-717.21503 -322.7467 144.22104
-720.47076 -360.23529 163.87114
-725.75232 -399.16364 195.74811
-568.08594 209.29483 -575.3949
-567.97388 179.36023 -576.10687
-568.1106 149.5029 -575.23828
-568.69617 119.72548 -571.51776
-565.64673 89.312698 -590.89124
-565.74451 59.55209 -590.27002
-565.93134 29.785892 -589.08337
-568.22937 2.0102927e-05 -574.48346
-578.2724 -30.435213 -510.67816
-677.17908 -71.281898 117.69495
-675.40039 -106.64208 106.39458
-674.65674 -142.0329 101.66975
-674.72308 -177.55856 102.09167
-675.55878 -213.33417 107.40088
-676.99762 -249.42014 116.54218
-678.9928 -285.89169 129.21809
-681.41553 -322.77582 144.61034
-684.59363 -360.31232 164.80161
-689.09845 -398.95163 193.4213
-538.18665 209.29483 -575.3949
-538.06989 179.35672 -576.17786
-538.20575 149.50169 -575.26697
-538.74994 119.72225 -571.61761
-535.88641 89.314369 -590.82068
-535.98541 59.554035 -590.15723
-536.18762 29.788277 -588.80072
-538.35022 -6.1547224e-05 -574.29822
-548.10339 -30.45006 -508.89197
-642.11182 -71.345589 121.54272
-639.80792 -106.63454 106.09245
-638.97778 -141.99496 100.5256
-639.0766 -177.52115 101.18791
-639.95801 -213.31935 107.09903
-641.3963 -249.43181 116.74435
-643.29883 -285.91049 129.50294
-645.59131 -322.79562 144.87665
-648.74133 -360.4119 166.00127
-653.72803 -399.5004 199.44275
-508.28339 209.2932 -575.42346
-508.17712 179.35672 -576.17786
-508.29944 149.49998 -575.30963
-508.81937 119.72225 -571.61761
-506.14279 89.319336 -590.62317
-506.24619 59.558426 -589.88861
-506.45117 29.791315 -588.43317
-508.6908 6.6703622e-05 -572.53064
-518.82471 -30.519066 -500.57309
-606.07379 -71.302673 118.94981
-604.22058 -106.62703 105.79066
-603.60059 -142.02345 101.38864
-603.79016 -177.5853 102.7346
-604.63452 -213.40034 108.73045
-606.0025 -249.5303 118.44365
-607.78357 -286.01569 131.09036
-609.82898 -322.85059 145.61441
-612.71179 -360.41858 166.08385
-617.23822 -399.3894 198.22456
-478.38245 209.29243 -575.43768
-478.28433 179.35672 -576.17786
-478.39191 149.49751 -575.36652
-478.89447 119.72379 -571.57501
-476.39212 89.323593 -590.45355
-476.47073 59.558926 -589.86041
-476.64868 29.790531 -588.51813
-478.97961 0.00018671116 -570.9328
-489.23755 -30.577145 -493.54269
-570.40631 -71.300621 118.82841
-568.79822 -106.64959 106.69635
-568.1825 -142.04541 102.05133
-568.47552 -177.64845 104.26203
-569.45001 -213.54372 111.61356
-570.88434 -249.76192 122.43484
-572.47723 -286.2384 134.45206
-574.44342 -323.12433 149.28616
-577.14478 -360.71539 169.66646
-581.50958 -399.78784 202.59637
-448.48001 209.29077 -575.46619
-448.38983 179.35612 -576.19232
-448.48535 149.49521 -575.42334
-448.96713 119.72456 -571.54626
-446.60535 89.321144 -590.55249
-446.65799 59.554398 -590.12872
-446.81949 29.788071 -588.8291
-449.0416 0.00014791082 -570.94696
-458.6824 -30.578657 -493.36407
-534.66034 -71.28788 118.05917
-533.26337 -106.6526 106.81713
-533.17828 -142.18083 106.13293
-533.89691 -177.96562 111.91631
-535.10327 -214.04121 121.62376
-536.42383 -250.33093 132.25108
-537.93164 -286.89679 144.38503
-539.74249 -323.84534 158.95728
-541.90375 -361.26917 176.35004
-545.63367 -400.13123 206.36565
-418.57968 209.29002 -575.48047
-418.49551 179.35538 -576.2066
-418.57968 149.49294 -575.48059
-419.03928 119.72548 -571.51776
-416.79892 89.314201 -590.8349
-416.85294 59.550503 -590.36877
-417.00037 29.785854 -589.09753
-419.11542 0.00015754298 -570.86133
-428.12427 -30.58032 -493.18515
-498.94357 -71.277603 117.43206
-499.04446 -106.93795 118.30219
-500.05585 -142.87302 127.02251
-501.09262 -178.96149 135.96169
-502.36432 -215.29886 146.92633
-503.5206 -251.7603 156.89618
-504.73022 -288.41718 167.32565
-506.12671 -325.367 179.3663
-508.1264 -362.94742 196.6084
-510.82968 -401.36609 219.91656
-388.6781 209.28835 -575.50897
-388.59991 179.35397 -576.23492
-388.67502 149.49048 -575.53748
-389.11252 119.72706 -571.47522
-387.00168 89.308113 -591.07477
-387.0686 59.549118 -590.45374
-387.22073 29.786299 -589.04108
-389.11716 0.00011958647 -571.43219
-397.52795 -30.579031 -493.33411
-467.57703 -71.934906 157.10226
-469.09537 -108.25261 171.20056
-470.49548 -144.76773 184.2014
-471.50876 -181.34933 193.60991
-472.01926 -217.85501 198.35057
-472.93469 -254.65703 206.85028
-473.29593 -291.25897 210.20461
-474.6778 -328.62305 223.03607
-475.83096 -366.02374 233.74359
-477.25546 -403.83139 246.9707
-358.77835 209.2876 -575.52319
-358.70621 179.35324 -576.24915
-358.77127 149.48814 -575.5943
-359.18362 119.72797 -571.44635
-357.22113 89.305283 -591.18768
-357.28986 59.548393 -590.49615
-357.44861 29.78743 -588.89978
-359.04181 0.00015184576 -572.87292
-366.85709 -30.571348 -494.25742
-442.78494 -73.797424 269.51804
-443.80267 -110.95052 279.7554
-444.83597 -148.27861 290.14981
-445.86316 -185.77625 300.48257
-446.87097 -223.43535 310.62003
-447.87891 -261.26257 320.7594
-454.62262 -303.08167 388.59564
-328.87756 209.28592 -575.5517
-328.81143 179.3517 -576.27759
-328.86978 149.4863 -575.63708
-329.25555 119.72954 -571.40375
-327.42569 89.298027 -591.48413
-327.49515 59.544689 -590.72198
-327.65732 29.786991 -588.94208
-329.13077 0.00021632228 -572.77319
-336.25717 -30.56872 -494.56985
-395.98035 -71.996284 160.8143
-406.81717 -110.95002 279.73358
-407.76434 -148.27779 290.12775
-408.69992 -185.77255 300.39468
-409.61765 -223.42767 310.46542
-410.5415 -261.25369 320.60406
-416.73114 -303.07709 388.52701
-298.97842 209.28503 -575.56604
-298.91827 179.35109 -576.29175
-298.97015 149.48524 -575.66565
-299.32559 119.73027 -571.375
-297.64102 89.292412 -591.70996
-297.69479 59.539078 -591.06091
-297.84921 29.785007 -589.19666
-299.44385 8.4950159e-05 -569.94751
-305.08905 -30.508757 -501.80426
-356.56097 -71.31205 119.51672
-356.78925 -107.03662 122.27241
-357.49445 -142.99759 130.7849
-358.4379 -179.21881 142.17361
-359.4631 -215.67778 154.54857
-360.58847 -252.41177 168.13321
-361.54321 -289.23453 179.65793
-362.71466 -326.44305 193.7986
-364.37137 -364.37122 213.79675
-366.77847 -403.45615 242.85278
-269.0806 209.28503 -575.56604
-269.02435 179.34955 -576.32019
-269.07104 149.48398 -575.69391
-269.39517 119.73123 -571.34656
-267.88425 89.294731 -591.61108
-267.89688 59.532837 -591.44183
-268.02847 29.781046 -589.677
-269.638 0.0001062656 -568.0899
-276.08835 -30.676394 -481.57547
-320.64688 -71.254883 116.05692
-320.20282 -106.73418 110.101
-320.22388 -142.32153 110.38319
-320.63785 -178.13205 115.93558
-321.35693 -214.23785 125.58003
-322.28012 -250.66219 137.96228
-323.23621 -287.32098 150.78571
-324.34601 -324.34598 165.67024
-325.85989 -362.06659 185.97543
-328.72604 -401.77612 224.41681
-239.18369 209.28592 -575.5517
-239.13179 179.34895 -576.33472
-239.1752 149.48463 -575.67981
-239.46332 119.73184 -571.3324
-238.13618 89.301163 -591.35718
-238.12123 59.530396 -591.58282
-238.2307 29.778999 -589.93121
-239.69432 8.1764389e-05 -567.84692
-247.12541 -30.890669 -455.72012
-285.20316 -71.300621 118.82841
-284.52188 -106.69568 108.54916
-284.30841 -142.15407 105.32803
-284.47919 -177.79944 107.90456
-284.92703 -213.69531 114.66235
-285.61694 -249.91481 125.0725
-286.50507 -286.50494 138.47289
-287.5773 -323.52435 154.65149
-288.9451 -361.18115 175.28992
-291.42703 -400.71194 212.73952
-209.28737 209.2876 -575.52319
-209.23949 179.34836 -576.34882
-209.27911 149.48524 -575.66565
-209.53122 119.73215 -571.31805
-208.37408 89.303337 -591.27264
-208.36426 59.532837 -591.44183
-208.47479 29.782307 -589.53564
-209.76155 0.00019055145 -567.34631
-215.86166 -30.837425 -462.15329
-249.56801 -71.305092 119.09158
-248.93095 -106.68461 108.10593
-248.69289 -142.11014 104.00076
-248.7617 -177.68677 105.18703
-249.09459 -213.50961 110.92781
-249.6702 -249.67012 120.85366
-250.43867 -286.21548 134.10556
-251.42024 -323.25446 151.03201
-252.75829 -361.08316 174.10609
-254.88226 -400.52905 210.73245
-179.39059 209.28909 -575.49469
-179.34743 179.3476 -576.3631
-179.38353 149.4863 -575.63708
-179.59819 119.73215 -571.31805
-178.60004 89.300171 -591.39948
-178.59793 59.532837 -591.44183
-178.71164 29.785254 -589.15405
-179.80486 5.7534318e-05 -567.16034
-184.46809 -30.744631 -473.34323
-214.01208 -71.33725 121.0359
-213.46654 -106.73318 110.06074
-213.20032 -142.1333 104.70435
-213.2173 -177.68092 105.04622
-213.45854 -213.45831 109.89928
-213.92953 -249.58437 119.37495
-214.57864 -286.1048 132.43445
-215.40913 -323.11356 149.14265
-216.56741 -360.9455 172.44514
-218.57237 -400.71588 212.78177
-149.49333 209.29077 -575.46619
-149.45561 179.34682 -576.37726
-149.48744 149.48755 -575.60846
-149.66576 119.73277 -571.30389
-148.8398 89.303978 -591.24432
-148.83511 59.534096 -591.35706
-148.91817 29.783838 -589.35205
-149.82434 0.00011588529 -567.4751
-153.25587 -30.651062 -484.63046
-178.32578 -71.330116 120.61049
-177.88293 -106.72979 109.91956
-177.66527 -142.13216 104.66417
-177.67276 -177.67273 104.84534
-177.8696 -213.44347 109.59706
-178.257 -249.5596 118.94974
-178.7894 -286.06302 131.80309
-179.50081 -323.10135 148.97826
-180.47026 -360.94031 172.38298
-182.07451 -400.56375 211.11255
-119.59467 209.29077 -575.46619
-119.56402 179.34607 -576.39148
-119.59137 149.48921 -575.56573
-119.73308 119.73321 -571.28949
-119.07604 89.307098 -591.11707
-119.07324 59.536736 -591.20178
-119.12658 29.7817 -589.59216
-119.8429 0.00016285705 -567.97565
-122.54225 -30.635544 -486.51514
-142.61499 -71.30751 119.23335
-142.24693 -106.68509 108.12588
-142.11423 -142.11414 104.12129
-142.1282 -177.66014 104.54366
-142.2803 -213.42033 109.1334
-142.60291 -249.55507 118.86886
-143.02612 -286.05215 131.64018
-143.57208 -323.03708 148.11632
-144.33153 -360.82867 171.03455
-145.64212 -400.51575 210.58479
-89.696358 209.29152 -575.45197
-89.672661 179.34544 -576.40564
-89.694229 149.49048 -575.53748
-89.800163 119.73354 -571.27515
-89.305626 89.305786 -591.17365
-89.307388 59.538322 -591.10303
-89.348801 29.783024 -589.43665
-89.883591 9.4888528e-05 -567.91833
-107.40793 -35.802551 137.20657
-106.92049 -71.280235 117.59396
-106.6957 -106.69568 108.54916
-106.59517 -142.12669 104.50326
-106.60416 -177.67352 104.86548
-106.72225 -213.4444 109.61713
-106.94866 -249.54683 118.72724
-107.29185 -286.11163 132.53641
-107.71223 -323.13654 149.45056
-108.29609 -360.98691 172.94333
-109.22529 -400.49261 210.33128
-59.797806 209.29243 -575.43768
-59.781536 179.34467 -576.41986
-59.796867 149.49229 -575.49469
-59.867012 119.73417 -571.26105
-59.540829 89.311409 -590.94781
-59.543873 59.543999 -590.76447
-59.580383 29.790285 -588.56067
-60.042267 0.00021963494 -560.68347
-71.435204 -35.717503 126.94106
-71.184258 -71.184074 111.79517
-71.060112 -106.59017 104.30238
-71.03746 -142.07475 102.93525
-71.072105 -177.68015 105.02608
-71.171219 -213.51352 111.00831
-71.333336 -249.66653 120.79284
-71.540733 -286.16278 133.31059
-71.822105 -323.19928 150.2924
-72.201172 -361.00574 173.17163
-72.821404 -400.51764 210.60579
-29.898903 209.29243 -575.43768
-29.890413 179.34253 -576.46246
-29.898666 149.49339 -575.46619
-29.933622 119.73462 -571.24664
-29.777317 89.332008 -590.11481
-29.777782 59.555782 -590.05835
-29.798977 29.798954 -587.5
-33.173111 0.00021575266 -180.20636
-35.680099 -35.680027 122.41458
-35.580261 -71.160301 110.36298
-35.539551 -106.61852 105.44862
-35.531219 -142.12476 104.44294
-35.554226 -177.77112 107.21982
-35.607346 -213.64386 113.63202
-35.691696 -249.84177 123.81404
-35.798248 -286.3858 136.6759
-35.933014 -323.39709 152.94395
-36.11607 -361.16055 175.04056
-36.4473 -400.9202 215.02354
1.0281948e-21 209.2932 -575.42346
-7.204317e-23 179.34193 -576.47693
8.7880771e-23 149.4946 -575.43787
4.4949148e-22 119.73509 -571.2326
1.9934679e-21 89.40715 -587.08972
4.1898445e-22 59.611534 -586.69379
1.0698222e-21 29.82876 -583.90393
8.5851816e-22 7.9857229e-05 141.35532
-2.9538754e-22 -35.645363 118.24129
7.0279555e-22 -71.135689 108.87132
9.8800787e-22 -106.63807 106.23354
1.6444996e-21 -142.25624 108.40813
1.3984903e-21 -178.01666 113.14751
-1.2619805e-23 -214.00395 120.87388
1.3086432e-21 -250.34401 132.4753
2.6984364e-22 -286.96054 145.34778
1.5596772e-22 -323.89307 159.59679
-6.682341e-23 -361.52917 179.49113
-1.9964391e-22 -401.30417 219.23807
29.899139 209.29408 -575.40912
29.890768 179.34467 -576.41986
29.898787 149.49399 -575.45203
29.933979 119.736 -571.20374
29.778954 89.336922 -589.91687
29.782932 59.565853 -589.43665
29.795813 29.795916 -587.88208
30.103773 0.00012605028 -550.70776
35.667339 -35.667206 120.87399
35.629108 -71.258072 116.25896
35.659618 -106.97871 119.94206
35.708511 -142.83388 125.84395
35.768005 -178.83989 133.02539
35.860924 -215.16548 144.24147
35.96627 -251.76369 156.95792
36.069489 -288.55579 169.41776
36.160011 -325.44009 180.34506
36.320137 -363.20135 199.67381
36.603443 -402.6377 233.87155
59.798752 209.29561 -575.38068
59.782242 179.34682 -576.37726
59.797573 149.49399 -575.45203
59.868195 119.73647 -571.1897
59.555565 89.333344 -590.05823
59.565632 59.565815 -589.45081
59.587646 29.793938 -588.12244
60.033466 8.350896e-05 -561.2146
71.463493 -35.731667 128.64856
71.835716 -71.835709 151.11432
72.254524 -108.38166 176.3914
74.136429 -148.27272 289.97461
72.692535 -181.73116 202.82774
72.865517 -218.59654 213.26816
74.642807 -261.24973 320.53735
75.407043 -301.62808 366.66327
89.69883 209.29745 -575.35242
89.674431 179.34895 -576.33472
89.696358 149.49399 -575.45203
89.802994 119.73754 -571.16113
89.333702 89.333817 -590.04413
89.348091 59.56562 -589.46509
89.380768 29.793726 -588.15051
89.910957 0.00020658303 -566.8172
96.672333 -32.223862 -294.76047
110.69353 -73.79567 269.40948
110.95067 -110.95052 279.7554
111.20628 -148.27484 290.04016
111.46143 -185.769 300.3067
111.71555 -223.43105 310.53177
111.96312 -261.24719 320.49307
113.11057 -301.62808 366.66327
119.59892 209.29834 -575.33813
119.56779 179.3517 -576.27759
119.59467 149.49339 -575.46619
119.73828 119.73831 -571.13239
119.10786 89.331024 -590.15704
119.11956 59.559849 -589.80408
119.16592 29.791553 -588.40509
119.86564 0.00013862697 -567.28906
127.40508 -31.851158 -339.76639
147.59138 -73.79567 269.40948
147.93639 -110.95219 279.82083
148.27721 -148.27715 290.10602
148.61523 -185.769 300.3067
148.9548 -223.43217 310.55399
149.28342 -261.24591 320.47092
150.81483 -301.62952 366.6857
149.49866 209.29834 -575.33813
149.4615 179.35397 -576.23492
149.49333 149.49339 -575.46619
149.67403 119.73927 -571.10394
148.87663 89.32608 -590.35492
148.87723 59.550869 -590.34064
148.94452 29.789091 -588.71613
149.83737 5.7534318e-05 -567.16034
157.53427 -31.506763 -381.34125
184.48923 -73.79567 269.40948
184.9223 -110.95335 279.86447
185.34924 -148.27925 290.17154
185.76813 -185.76804 300.28476
186.19533 -223.43439 310.59808
186.60335 -261.24466 320.44879
188.51855 -301.62952 366.6857
179.39838 209.29834 -575.33813
179.35593 179.35612 -576.19232
179.39131 149.49294 -575.48059
179.49327 119.66228 -573.42896
178.64284 89.321617 -590.53845
178.63861 59.54628 -590.62317
178.7271 29.788031 -588.84326
179.85962 7.5857984e-05 -566.05847
186.60898 -31.101379 -430.27179
221.38817 -73.795868 269.43112
221.90675 -110.95335 279.86447
222.42233 -148.28154 290.2374
222.92175 -185.76804 300.28476
223.43549 -223.43535 310.62003
223.92181 -261.24194 320.40424
226.22339 -301.63113 366.70837
209.29811 209.29834 -575.33813
209.25188 179.35886 -576.13525
209.28984 149.49294 -575.48059
209.20236 119.5443 -576.98901
208.42236 89.323936 -590.43958
208.4232 59.549641 -590.42554
208.53297 29.790493 -588.53229
209.90598 9.1247151e-05 -564.85608
214.416 -30.630726 -487.08298
258.28619 -73.795868 269.43112
258.89249 -110.95387 279.88632
259.49274 -148.28154 290.2374
260.0741 -185.76723 300.26273
260.67603 -223.43648 310.64224
261.24084 -261.24069 320.38211
263.92728 -301.63113 366.70837
239.19785 209.29834 -575.33813
239.14784 179.36101 -576.09271
239.1884 149.49294 -575.48059
239.00925 119.50481 -578.18372
238.20729 89.327888 -590.2843
238.22133 59.555454 -590.07233
238.35152 29.794132 -588.10822
239.88304 0.00018022489 -564.99933
245.28481 -30.660559 -483.4928
295.18564 -73.796364 269.45294
295.87711 -110.95387 279.88632
296.56168 -148.28072 290.21533
297.22754 -185.76723 300.26273
297.91397 -223.43535 310.62003
298.55948 -261.23941 320.35995
301.6507 -301.65051 367.00281
269.09863 209.29909 -575.32385
269.04343 179.3625 -576.06421
269.08698 149.49294 -575.48059
268.896 119.50934 -578.04144
268.00534 89.335144 -589.98755
268.01059 59.558064 -589.91711
268.12225 29.791513 -588.41925
269.77448 6.1001385e-05 -566.25903
276.4924 -30.721245 -476.15643
332.08871 -73.797424 269.51804
332.86664 -110.95536 279.95148
333.63351 -148.28154 290.2374
334.38098 -185.76723 300.26273
335.15488 -223.43648 310.64224
335.87943 -261.23941 320.35995
339.46512 -301.74664 368.45255
298.99847 209.29909 -575.32385
298.93243 179.35962 -576.12103
298.98431 149.49229 -575.49469
299.06693 119.62687 -574.49768
297.80124 89.340401 -589.77563
297.78485 59.557011 -589.97351
297.87146 29.787352 -588.9281
299.51843 5.6670611e-05 -569.04736
307.43185 -30.743097 -473.52374
368.99286 -73.798477 269.5831
369.85904 -110.95755 280.03879
370.70392 -148.28154 290.2374
371.53625 -185.76804 300.28476
372.39978 -223.43982 310.70856
373.20117 -261.24069 320.38211
377.30368 -301.8429 369.90338
328.89963 209.29987 -575.30969
328.8205 179.35672 -576.17786
328.88147 149.49167 -575.50885
329.28156 119.73882 -571.11835
327.57104 89.337769 -589.88885
327.5466 59.554035 -590.15723
327.63416 29.785007 -589.19666
329.27246 9.4811374e-05 -571.21826
338.16132 -30.741907 -473.67432
393.79559 -71.598961 136.83916
396.17609 -108.04796 162.96208
398.23517 -144.8127 185.55786
399.96429 -181.80186 204.53276
409.6438 -223.44205 310.75266
410.52133 -261.24069 320.38211
415.16629 -301.93906 371.35504
403.76309 -330.35156 246.21945
404.14871 -367.40778 250.451
404.4938 -404.49374 254.23859
358.79959 209.29987 -575.30969
358.70761 179.35397 -576.23492
358.77835 149.49123 -575.52325
359.21057 119.73693 -571.17529
357.3334 89.333344 -590.05823
357.30392 59.550831 -590.3548
357.4303 29.785892 -589.08337
359.11981 5.5953769e-05 -572.08862
368.25198 -30.687477 -480.22595
427.21991 -71.203163 112.9456
428.10477 -107.02612 121.84678
429.19781 -143.06573 132.84186
430.37384 -179.32234 144.67175
431.47644 -215.73814 155.76331
432.57242 -252.3338 166.78763
433.65533 -289.10339 177.68077
434.78732 -326.0903 189.06772
436.25143 -363.54269 203.79587
438.10712 -401.59818 222.46286
388.69955 209.29987 -575.30969
388.59378 179.35109 -576.29175
388.67346 149.48982 -575.55157
389.1402 119.73555 -571.21814
387.11273 89.333817 -590.04413
387.07773 59.550503 -590.36877
387.22226 29.786339 -589.02692
388.91898 0.00010251217 -573.27222
397.92932 -30.609812 -489.60696
462.17239 -71.103439 106.91788
462.21573 -106.66499 107.3203
462.85852 -142.41789 113.28884
463.70596 -178.34842 121.15767
464.72522 -214.48846 130.62201
465.95386 -250.89809 142.03029
467.19122 -287.50214 153.51976
468.58664 -324.40607 166.4771
470.31357 -361.77954 182.51215
472.81668 -400.07553 205.75439
418.6012 209.30075 -575.29535
418.47897 179.34836 -576.34882
418.56815 149.48875 -575.58014
419.06744 119.73354 -571.27515
416.86603 89.328545 -590.25598
416.86603 59.552444 -590.25604
417.03152 29.788071 -588.8291
418.72012 0.00017181227 -574.26978
427.9913 -30.570625 -494.33185
497.34616 -71.049362 103.65903
496.81982 -106.46139 99.120911
497.12012 -142.03435 101.71011
497.86893 -177.81018 108.16613
498.95059 -213.8358 117.49259
500.13596 -250.06787 127.71349
501.43127 -286.53201 138.88141
503.10513 -323.42462 153.314
505.14111 -360.81503 170.86876
507.72763 -398.92868 193.16995
448.50302 209.30151 -575.28113
448.36331 179.34544 -576.40564
448.46234 149.48755 -575.60846
448.99548 119.73215 -571.31805
446.61414 89.322952 -590.48187
446.66498 59.555454 -590.07233
446.85989 29.790861 -588.50415
448.78809 6.4612941e-05 -572.98688
458.14261 -30.54278 -497.70773
533.1958 -71.092621 106.27352
532.30444 -106.46073 99.100685
532.14746 -141.90581 97.837463
532.62372 -177.54111 101.66996
533.57623 -213.4305 109.33497
534.83643 -249.5903 119.47636
536.33527 -286.04529 131.53821
538.04877 -322.8291 145.32739
540.37878 -360.25247 164.0779
543.65564 -398.6806 190.4482
478.40512 209.3024 -575.26678
478.24472 179.34193 -576.47693
478.35605 149.4863 -575.63708
478.27115 119.56789 -576.27759
476.41272 89.327415 -590.29834
476.44266 59.555454 -590.07233
476.63556 29.789841 -588.61713
478.90015 7.1153983e-05 -571.53198
488.11691 -30.507154 -501.99695
568.85956 -71.107254 107.15928
567.56287 -106.41792 97.376518
567.19916 -141.79968 94.632561
567.61603 -177.37984 97.77742
568.56085 -213.21014 104.90545
569.93439 -249.34631 115.26854
571.56512 -285.78241 127.57092
573.40576 -322.54071 141.45763
575.914 -359.94611 160.38086
579.4505 -398.37201 187.06126
508.30545 209.3024 -575.26678
508.12701 179.33904 -576.53375
508.2493 149.48524 -575.66565
507.91666 119.50994 -578.02728
506.21436 89.332008 -590.11481
506.20242 59.553341 -590.19934
506.39545 29.788071 -588.8291
508.83344 0.00010995432 -571.51782
518.67853 -30.510376 -501.61154
604.03363 -71.062614 104.46311
602.82959 -106.38163 95.913864
602.40961 -141.74323 92.93174
602.81549 -177.29851 95.81382
603.77881 -213.09836 102.65425
605.2168 -249.20677 112.86485
606.96179 -285.62906 125.25523
609.13129 -322.4812 140.65999
611.8941 -359.93753 160.27768
616.54706 -398.9422 193.3167
538.20789 209.30318 -575.25262
538.02112 179.34056 -576.50531
538.15265 149.48709 -575.62286
537.78137 119.50713 -578.11267
535.97693 89.329689 -590.21362
535.97479 59.552975 -590.22784
536.18341 29.788071 -588.8291
538.82227 0.00012048757 -571.13269
549.18683 -30.510193 -501.62634
639.961 -71.106697 107.11912
638.46045 -106.41003 97.055878
638.05725 -141.79031 94.352188
638.32898 -177.31351 96.174393
639.25024 -213.08345 102.35285
640.70947 -249.16473 112.13817
642.55341 -285.57913 124.504
644.88934 -322.44452 140.16916
648.13104 -360.07275 161.90842
653.29285 -399.23434 196.52432
568.11279 209.30482 -575.22406
567.91113 179.34056 -576.50531
568.05902 149.48921 -575.56573
568.35052 119.65283 -573.71411
565.72229 89.324593 -590.41125
565.74237 59.551922 -590.28424
565.96466 29.787663 -588.8714
568.7793 7.819524e-05 -570.98981
579.13763 -30.480814 -505.18124
675.44788 -71.099655 106.69632
673.86737 -106.40002 96.655167
673.35687 -141.7592 93.411667
673.68451 -177.28523 95.493439
674.68512 -213.05844 101.85061
676.27899 -249.15527 111.97665
678.27319 -285.58859 124.64603
680.80664 -322.48727 140.74184
684.20654 -360.10849 162.34213
689.6001 -399.24207 196.60818
598.01587 209.3056 -575.20984
597.79413 179.33829 -576.54797
597.96631 149.49167 -575.50885
598.6701 119.73417 -571.26105
595.49481 89.324409 -590.42548
595.50891 59.550869 -590.34064
595.76404 29.788277 -588.80072
598.45972 6.6703622e-05 -572.53064
608.30963 -30.415398 -513.0813
711.07782 -71.107773 107.17959
709.39056 -106.4084 96.995758
708.80994 -141.7619 93.49176
709.1217 -177.28023 95.373131
710.2182 -213.06528 101.99119
711.86261 -249.15173 111.91619
714.02222 -285.60873 124.95067
716.71649 -322.5224 141.21223
720.33728 -360.16858 163.06529
726.65698 -399.66122 201.20825
627.92157 209.30725 -575.18127
627.67639 179.33614 -576.59058
627.87451 149.49399 -575.45203
628.61353 119.736 -571.20374
625.28674 89.326759 -590.32666
625.25482 59.548195 -590.51007
625.50305 29.785892 -589.08337
628.0777 0.00013301194 -574.28394
638.06439 -30.383932 -516.87909
730.27271 -69.549622 13.145656
744.75549 -106.39361 96.39473
744.20874 -141.75398 93.251755
744.60217 -177.28616 95.513489
745.73608 -213.06728 102.03121
747.49438 -249.16473 112.13817
749.79749 -285.63712 125.37709
752.73743 -322.6015 142.27591
756.73895 -360.35187 165.2773
763.53888 -399.94885 204.36438
657.83038 209.30986 -575.13885
657.55798 179.33415 -576.63342
657.78369 149.49644 -575.39508
658.55792 119.73785 -571.14679
655.04688 89.324593 -590.41125
654.95428 59.541359 -590.91968
655.2348 29.78347 -589.38019
657.92383 1.5709837e-05 -574.62592
668.42163 -30.38262 -517.02618
762.11359 -69.282913 -2.9525306
760.91364 -103.76078 -9.536581
762.34357 -138.60783 -1.6908292
768.5105 -174.66139 32.146252
781.2912 -213.07941 102.27245
783.21442 -249.20459 112.82455
785.56512 -285.65991 125.72215
788.53363 -322.58176 142.00996
792.73267 -360.33295 165.0498
799.56421 -399.78198 202.53311
687.74261 209.31317 -575.08179
687.43884 179.332 -576.67603
687.69379 149.49872 -575.33789
688.50598 119.74019 -571.07544
684.80298 89.322273 -590.51013
684.70343 59.539417 -591.03247
684.98059 29.781868 -589.57794
687.98151 0.00018178803 -573.82812
698.75964 -30.380671 -517.26141
794.85852 -69.118126 -12.906289
792.90607 -103.42241 -23.153666
791.84705 -137.71246 -28.711554
792.85193 -172.35916 -23.437452
795.64587 -207.55956 -8.7743301
798.45221 -243.0071 5.954216
801.68378 -278.84647 22.914829
807.01746 -315.78937 50.9076
813.34381 -353.62769 84.10968
838.30804 -400.92975 215.12921
717.65295 209.3156 -575.039
717.31903 179.32976 -576.71875
717.60205 149.50043 -575.29523
718.45239 119.74222 -571.01843
714.53766 89.317192 -590.70776
714.52362 59.543667 -590.77844
714.80725 29.783838 -589.35205
718.02417 0.0001669887 -573.17249
729.99786 -30.416529 -512.94867
826.60938 -68.884041 -27.030642
821.8844 -102.73531 -50.795593
821.44263 -136.90709 -53.017151
822.67621 -171.39069 -46.813171
824.3316 -206.08275 -38.486885
826.91748 -241.18408 -25.480694
830.41351 -276.80441 -7.8971725
834.39825 -312.89917 12.144413
837.26355 -348.85965 26.555929
840.65735 -385.30109 43.625114
848.73035 -424.36499 84.229126
747.5611 209.31723 -575.01044
747.21326 179.33125 -576.69025
747.51385 149.5029 -575.23828
748.16925 119.70723 -572.07428
744.34222 89.321144 -590.55249
744.3949 59.551754 -590.29852
744.69916 29.788071 -588.8291
748.11603 0.00017961263 -572.33118
760.88483 -30.435213 -510.67816
853.37634 -68.270004 -64.089417
850.21313 -102.02551 -79.36261
849.21851 -135.8748 -84.165154
849.2832 -169.85651 -83.852684
850.78198 -204.18748 -76.616013
852.96906 -238.83128 -66.055763
856.49335 -274.0777 -49.038906
861.11401 -310.00098 -26.728085
865.9986 -346.39938 -3.1436913
870.50665 -383.02286 18.623186
876.92902 -420.92575 49.633179
777.46045 209.31635 -575.02478
777.12628 179.33688 -576.57635
777.42365 149.50458 -575.19556
777.02203 119.54184 -577.06012
774.21326 89.332481 -590.10071
774.25586 59.558258 -589.90283
774.54193 29.790247 -588.57483
778.44635 3.8551083e-05 -570.44727
793.11975 -30.504438 -502.32312
880.47205 -67.728607 -96.770683
877.79309 -101.28374 -109.2085
876.61377 -134.86351 -114.68388
876.53967 -168.56523 -115.02783
877.32025 -202.45851 -111.40398
879.72131 -236.84789 -100.25666
882.41602 -271.51245 -87.745804
886.18213 -306.75525 -70.260597
891.5874 -342.91806 -45.16547
898.94568 -380.32297 -11.003237
908.99384 -419.53552 35.647594
807.35645 209.31467 -575.05328
807.04437 179.34317 -576.4483
807.33411 149.50642 -575.15283
806.43683 119.47223 -579.16431
804.02545 89.336266 -589.94519
804.00647 59.556145 -590.02985
804.37311 29.791748 -588.39087
808.8468 0.00019873535 -568.39014
825.43848 -30.57176 -494.21259
906.22546 -67.127724 -133.03296
904.00745 -100.44529 -142.94904
902.03082 -133.63409 -151.78606
902.11041 -167.05737 -151.43066
903.59222 -200.79808 -144.80537
905.93658 -234.8723 -134.32445
909.0517 -269.34857 -120.39743
912.86798 -304.28922 -103.33601
917.94183 -339.97836 -80.651649
924.83301 -376.78378 -49.842533
950.39569 -422.39795 64.441879
837.25848 209.31467 -575.05328
836.9646 179.34955 -576.32019
837.2486 149.50874 -575.09601
836.09399 119.44215 -580.07355
833.73865 89.329216 -590.22772
833.72552 59.551922 -590.28424
834.1778 29.792192 -588.33441
839.02631 2.5160482e-05 -567.43201
854.7793 -30.527662 -499.51971
931.50555 -66.535995 -168.74538
928.18073 -99.447807 -183.07877
926.69714 -132.38522 -189.4745
926.4787 -165.44254 -190.41663
928.26599 -198.91403 -182.71143
931.54639 -232.8864 -168.56927
936.06244 -267.4462 -149.10005
940.45575 -302.28915 -130.16
945.64844 -337.73154 -107.77357
953.77948 -374.69888 -72.720047
867.17084 209.31723 -575.01044
866.88354 179.35538 -576.2066
867.16742 149.51166 -575.02466
866.8186 119.56133 -576.47687
863.48785 89.326385 -590.34064
863.47089 59.549809 -590.41125
864.01062 29.793531 -588.16473
868.68585 8.060188e-05 -568.70465
882.57672 -30.43354 -510.88455
955.57452 -65.901512 -207.03592
952.86499 -98.572212 -218.3139
951.37598 -131.22421 -224.51186
951.45422 -164.04385 -224.18611
953.77478 -197.33266 -214.52721
957.44781 -231.10791 -199.23851
961.79706 -265.32318 -181.13507
967.02765 -300.112 -159.36292
972.90942 -335.48596 -134.88022
980.62775 -371.96219 -102.75317
897.08038 209.31877 -574.98199
896.80792 179.36177 -576.07843
897.08392 149.51411 -574.96771
898.04773 119.73988 -571.08978
893.31244 89.331352 -590.14307
893.2879 59.552616 -590.24176
893.77594 29.792671 -588.27802
898.12225 0.00014441884 -570.78992
920.36908 -30.678919 -481.27557
979.77539 -65.318298 -242.24277
977.13525 -97.713387 -252.86633
976.42175 -130.18953 -255.73671
977.2066 -162.86757 -252.57906
979.53906 -195.90768 -243.19398
982.33655 -229.21179 -231.93758
986.24408 -262.99832 -216.21495
991.69446 -297.50821 -194.28418
998.76508 -332.92157 -165.83476
1009.5507 -370.16852 -122.43665
926.99042 209.3204 -574.95343
926.7417 179.36938 -575.92169
927.00867 149.51764 -574.88226
928.65759 119.82687 -568.46167
923.08588 89.331024 -590.15704
923.07501 59.553341 -590.19934
923.49951 29.790455 -588.54645
928.0083 7.819524e-05 -570.98981
1007.3642 -32.495594 -261.98666
1004.238 -64.78936 -274.15958
1003.2474 -97.088364 -278.01697
1003.6546 -129.50366 -276.43152
1005.1876 -162.12691 -270.46201
1007.1827 -194.93854 -262.69284
1009.1165 -227.8649 -255.16309
1012.7051 -261.34311 -241.18929
1017.2788 -295.33878 -223.38029
1024.7375 -330.56039 -194.33635
1035.8066 -367.54419 -151.23483
956.90839 209.32391 -574.89667
956.68188 179.37791 -575.75098
956.93481 149.52116 -574.79675
957.85699 119.73215 -571.31805
952.82172 89.327232 -590.31262
952.84412 59.552975 -590.22784
953.18127 29.786953 -588.95624
958.83789 2.8378599e-05 -567.61804
1030.7465 -32.210781 -296.36392
1031.1803 -64.448715 -294.72733
1032.3655 -96.784172 -290.25644
1033.9633 -129.24533 -284.22952
1035.619 -161.81544 -277.98343
1037.6351 -194.55638 -270.37842
1039.4097 -227.37085 -263.68463
1041.6642 -260.41592 -255.17984
1045.3956 -294.01746 -241.1042
1050.7266 -328.35205 -220.99454
1062.3346 -365.17749 -177.20677
986.81958 209.32558 -574.86816
986.62878 179.38722 -575.56604
986.85852 149.52423 -574.72571
987.84082 119.73831 -571.13239
982.6051 89.327888 -590.2843
982.69006 59.557011 -589.97351
982.99518 29.787836 -588.85748
989.87396 6.8667345e-05 -563.69537
1060.2085 -32.127354 -306.41879
1062.9437 -64.420692 -296.41364
1065.0486 -96.82254 -288.71408
1066.7886 -129.30762 -282.3493
1068.4338 -161.88385 -276.33124
1069.9697 -194.5399 -270.71326
1071.4641 -227.28018 -265.24701
1073.1975 -260.16895 -258.90631
1075.7086 -293.37503 -249.72087
1080.0896 -327.29974 -233.69586
1089.0067 -363.00214 -201.07793
1116.7488 -406.09045 -99.600052
1016.7473 209.3304 -574.78259
1016.5908 179.39862 -575.33813
1016.7914 149.52821 -574.62579
1017.0804 119.65656 -573.59991
1012.4407 89.33316 -590.07245
1012.4804 59.557735 -589.93109
1012.8586 29.790049 -588.58875
1021.6615 0.0001314089 -557.33545
1113.849 -32.760227 -230.04102
1104.5621 -64.97419 -263.01242
1103.8807 -97.401115 -265.43167
1103.7341 -129.85085 -265.95206
1103.8003 -162.32346 -265.7171
1104.2544 -194.86829 -264.10471
1105.3154 -227.5648 -260.33762
1106.2504 -260.29407 -257.01868
1107.6246 -293.19476 -252.1395
1110.3164 -326.56351 -242.58273
1117.6366 -361.5882 -216.59357
1133.6967 -400.1282 -159.57544
1345.4062 422.84232 455.58551
1345.4062 384.40198 455.58533
1345.4062 345.9617 455.58557
1345.4062 307.52155 455.58548
1046.7466 209.34946 -574.4549
1046.6393 179.42404 -574.82538
1046.7507 149.5359 -574.44073
1045.6489 119.50292 -578.24066
1042.1897 89.330711 -590.17139
1042.2019 59.554398 -590.12872
1042.8535 29.795916 -587.88208
1110.9192 0.00017298716 -353.13181
1117.2031 -31.919867 -331.45917
1124.3206 -64.246811 -306.91196
1132.9115 -97.106537 -277.28281
1143.3029 -130.66307 -241.44438
1153.1241 -164.73187 -207.57195
1145.9999 -196.45702 -232.14258
1142.0624 -228.41245 -245.7225
1141.2761 -260.86307 -248.4342
1141.4824 -293.52399 -247.72264
1143.3127 -326.66077 -241.41029
1148.4062 -360.92746 -223.84335
1163.968 -399.07471 -170.17274
1076.7642 209.37077 -574.08447
1076.6664 179.4446 -574.41229
1076.7981 149.5554 -573.97064
1075.5586 119.50666 -578.12677
1071.9834 89.332008 -590.11481
1072.0508 59.558426 -589.88861
1073.0078 29.805864 -586.67969
1114.6814 0.00012054745 -446.94513
1121.3197 -31.147663 -424.68631
1128.9104 -62.71706 -399.23419
1136.8271 -94.735435 -372.68872
1145.0095 -127.22316 -345.25275
1153.9739 -160.27412 -315.19427
1164.6437 -194.10716 -279.41785
1175.5735 -228.58359 -242.76945
1189.5717 -264.34921 -195.83257
1180.0939 -295.02328 -227.61232
1179.0739 -327.52036 -231.03242
1181.6118 -361.04791 -222.52248
1195.5244 -398.50812 -175.87219
1107.5046 209.52795 -571.37518
1107.5046 179.59554 -571.37512
1107.636 149.68071 -570.94702
1108.687 119.85825 -567.51807
1102.2371 89.370796 -588.56067
1102.4148 59.590115 -587.98083
1118.1256 30.219788 -536.72504
1123.092 0.00013489604 -520.52228
1128.1755 -30.491047 -503.93784
1134.5662 -61.327694 -483.08875
1141.4244 -92.547821 -460.71381
1148.6483 -124.17815 -437.14627
1157.0375 -156.35629 -409.77722
1165.7681 -189.04343 -381.29382
1175.9615 -222.47914 -348.03799
1188.8799 -257.05502 -305.8924
1242.4918 -302.22766 -130.98622
1221.4808 -330.12988 -199.53343
1217.4292 -361.93826 -212.75198
1136.3646 209.3304 -574.78259
1136.2705 179.41122 -575.0816
1136.2435 149.50583 -575.1673
1136.1405 119.5939 -575.49469
1136.2883 89.707123 -575.02478
1136.5575 59.818897 -574.16992
1137.1184 29.924147 -572.38794
1137.8867 8.4950159e-05 -569.94751
1141.1331 -30.0298 -559.63501
1144.8165 -60.253426 -547.93427
1149.7344 -90.768318 -532.31238
1155.2227 -121.60233 -514.87811
1162.0657 -152.90334 -493.14038
1170.3157 -184.78656 -466.93356
1178.0955 -217.01752 -442.22046
1189.1675 -250.35086 -407.04947
1211.2697 -286.87952 -336.83954
1258.6993 -364.36029 -186.17429
1166.1722 209.31317 -575.08179
1165.6158 179.32562 -576.80414
1165.5745 149.43277 -576.93213
1165.5422 119.54292 -577.03186
1165.5883 89.660881 -576.88953
1165.6893 59.77903 -576.57635
1165.8364 29.893286 -576.12109
1166.0986 7.8025943e-05 -575.30945
1166.1815 -29.901875 -575.05334
1166.499 -59.820309 -574.07043
1167.1532 -89.780884 -572.04565
1168.9072 -119.88792 -566.61664
1172.4451 -150.31339 -555.66644
1176.8521 -181.05411 -542.02649
1183.8281 -212.48198 -520.43402
1191.4397 -244.39769 -496.87552
1206.0884 -278.32803 -451.5358
1195.9091 209.28409 -575.57996
1195.3525 179.30302 -577.2594
1195.2725 149.40909 -577.50116
1195.1641 119.51655 -577.82843
1195.1169 89.63385 -577.97034
1195.2347 59.761765 -577.61475
1195.1593 29.879061 -577.84235
1195.2535 -3.4676403e-05 -577.55798
1195.4185 -29.885393 -577.06006
1195.4893 -59.774414 -576.8468
1195.6591 -89.674355 -576.33459
1195.7581 -119.57562 -576.03564
1196.0459 -149.50563 -575.1673
1196.6266 -179.49376 -573.41473
1197.2551 -209.51959 -571.51782
1199.776 -239.95509 -563.9104
1206.653 -271.49683 -543.15741
1232.678 240.52267 -555.34967
1225.8551 209.29243 -575.43768
1225.048 179.27541 -577.81403
1224.8018 149.36607 -578.53906
1224.8258 119.49539 -578.46802
1224.8162 89.620888 -578.49646
1224.932 59.752846 -578.15521
