# .PCD v0.7 - Point Cloud Data file format
VERSION 0.7
FIELDS x y z
SIZE 4 4 4
TYPE F F F
COUNT 1 1 1
WIDTH 1508
HEIGHT 1
VIEWPOINT 0 0 0 1 0 0 0
POINTS 1508
DATA ascii
-24.197939 -24.197952 -13.515682
-25.502356 -28.33596 3.9795308
-26.116041 -31.919622 12.210484
-26.225689 -34.967598 13.681119
-24.883499 -35.942848 -4.3207431
-24.664431 -38.366909 -7.2589536
-24.580986 -40.96833 -8.3781328
-24.529774 -43.608494 -9.0650225
-24.540457 -46.354214 -8.9217243
-24.579235 -49.158482 -8.4016171
-24.65584 -52.051231 -7.374176
-24.776648 -55.059238 -5.7538495
-24.967886 -58.258411 -3.188936
-25.335732 -61.931797 1.7447374
-16.981625 91.276222 -81.832703
-16.979099 89.140259 -81.870811
-16.97493 86.996506 -81.933723
-16.975048 84.875229 -81.931946
-16.975283 82.754494 -81.928406
-16.973053 80.621979 -81.962067
-16.973816 78.503876 -81.950554
-16.976809 76.395622 -81.905373
-16.978687 74.281754 -81.877014
-16.977865 72.155922 -81.889427
-16.995619 70.106911 -81.621536
-17.126143 68.504547 -79.65213
-17.318481 67.109108 -76.749939
-17.784014 66.690041 -69.725594
-18.764538 68.021423 -54.930649
-18.890411 66.116432 -53.03133
-19.017988 64.185692 -51.106361
-19.149986 62.237446 -49.114639
-19.292397 60.288734 -46.965843
-18.644859 55.934566 -56.736443
-18.584358 53.430023 -57.649303
-18.583235 51.103878 -57.666294
-18.625967 48.893158 -57.021481
-18.726379 46.815941 -55.506405
-18.852682 44.775112 -53.600628
-19.034065 42.826637 -50.863777
-19.410347 41.246971 -45.186131
-20.712622 41.425228 -25.536314
-20.881989 39.153709 -22.980785
-21.054325 36.845055 -20.380383
-21.2344 34.505886 -17.663267
-21.41534 32.122993 -14.933115
-21.598724 29.69824 -12.166079
-21.327869 26.659826 -16.252958
-21.160158 23.805164 -18.783495
-21.078556 21.078537 -20.014761
-21.018353 18.391052 -20.923193
-20.964041 15.723016 -21.742682
-20.926056 13.078776 -22.315851
-20.893543 10.44676 -22.806425
-20.868225 7.8255696 -23.188423
-20.857939 5.2144718 -23.343643
-20.873638 2.6091912 -23.106745
-20.904757 -2.9653356e-06 -22.637247
-20.935249 -2.6169174 -22.177132
-20.967266 -5.2418342 -21.694033
-21.00001 -7.8750153 -21.199986
-21.052067 -10.526045 -20.414463
-21.112375 -13.195254 -19.504482
-21.180523 -15.885408 -18.476236
-21.286707 -18.625885 -16.874018
-21.443781 -21.443787 -14.503965
-22.34045 -25.133017 -0.9742738
-22.441879 -28.052372 0.55617982
-22.601225 -31.076694 2.9605191
-22.845064 -34.267605 6.63976
-21.979113 -35.716064 -6.4264607
-21.828775 -38.200371 -8.6948519
-21.769526 -40.817879 -9.5888643
-21.767498 -43.535015 -9.6194572
-21.766726 -46.254307 -9.6311197
-21.791271 -49.030376 -9.2607393
-21.835283 -51.858803 -8.5966702
-21.928934 -54.822346 -7.1835995
-22.027443 -57.822052 -5.6971736
-22.206226 -61.06715 -2.999552
-22.393246 -64.380592 -0.17764373
-14.943557 91.796127 -80.373238
-14.939554 89.637314 -80.442261
-14.937112 87.488785 -80.484375
-14.939657 85.369453 -80.440468
-14.937008 83.220459 -80.486168
-14.936385 81.083214 -80.496902
-14.938931 78.962898 -80.453011
-14.940437 76.836517 -80.427025
-14.943973 74.719849 -80.366066
-14.946105 72.59536 -80.3293
-15.016706 70.79303 -79.111809
-15.148647 69.250946 -76.836578
-15.450285 68.422676 -71.635033
-16.175877 69.325165 -59.122646
-16.268398 67.397629 -57.527161
-16.370466 65.481857 -55.767044
-16.475657 63.548954 -53.95311
-16.591946 61.627213 -51.947796
-16.714178 59.693481 -49.839951
-16.385206 56.177837 -55.512875
-16.317783 53.615574 -56.675514
-16.31543 51.277042 -56.716133
-16.350586 49.051739 -56.109886
-16.440907 46.973999 -54.552376
-16.588228 45.025173 -52.011894
-16.961718 43.615837 -45.571304
-17.790812 43.206245 -31.27408
-17.934715 40.993622 -28.792522
-18.080666 38.744278 -26.275749
-18.228931 36.457848 -23.71899
-18.37886 34.132156 -21.133533
-18.531517 31.768293 -18.50106
-18.689903 29.369837 -15.769795
-18.657749 26.653921 -16.324257
-18.555296 23.856794 -18.091021
-18.479368 21.119268 -19.400318
-18.424906 18.424904 -20.33951
-18.386099 15.759503 -21.008715
-18.362123 13.115795 -21.422167
-18.331009 10.474857 -21.958714
-18.29431 7.8404055 -22.591562
-18.272362 5.2206612 -22.970068
-18.280449 2.6114743 -22.830572
-18.306396 -1.9562825e-05 -22.383129
-18.340168 -2.6200409 -21.800776
-18.37092 -5.2488484 -21.270466
-18.408321 -7.8892961 -20.625483
-18.459116 -10.548072 -19.749573
-18.508837 -13.22061 -18.892189
-18.586613 -15.931398 -17.550961
-18.707569 -18.70759 -15.465153
-18.919113 -21.621849 -11.817222
-19.551453 -25.137594 -0.91289103
-19.596773 -27.995407 -0.13138109
-19.663527 -30.899839 1.0197393
-19.331793 -33.140228 -4.7008233
-19.127483 -35.522488 -8.2239656
-19.050869 -38.101746 -9.5451612
-19.014011 -40.744331 -10.180745
-18.994167 -43.415253 -10.522957
-19.009214 -46.165245 -10.263461
-19.029177 -48.93219 -9.9192352
-19.06237 -51.740734 -9.3468409
-19.118546 -54.624432 -8.3781395
-19.222082 -57.666267 -6.5927
-19.302166 -60.66396 -5.2117105
-19.435987 -63.861107 -2.9040389
-19.627312 -67.293655 0.39524162
-19.788008 -70.671471 3.1663558
-12.888497 94.51564 -78.769112
-12.884798 92.341042 -78.843529
-12.881597 90.171165 -78.907921
-12.878802 88.005127 -78.964142
-12.878622 85.857468 -78.967766
-12.878893 83.712791 -78.962341
-12.877992 81.5606 -78.980461
-12.878126 79.4151 -78.977737
-12.882859 77.297142 -78.88253
-12.88313 75.151566 -78.87709
-12.898658 73.092392 -78.56469
-13.011356 71.562447 -76.297363
-13.248773 70.66011 -71.520927
-13.671783 70.637535 -63.010612
-13.739598 68.697983 -61.646282
-13.820894 66.800972 -60.010723
-13.903578 64.883354 -58.347244
-13.991883 62.963455 -56.570698
-14.088322 61.049374 -54.630501
-14.186865 59.111927 -52.647961
-14.117227 56.468887 -54.048985
-14.035253 53.801796 -55.698162
-14.024505 51.423172 -55.914391
-14.082448 49.288555 -54.74868
-14.176267 47.254208 -52.861198
-14.845304 47.010113 -39.401173
-14.964975 44.894917 -36.993572
-15.086593 42.745331 -34.546825
-15.209826 40.559517 -32.067562
-15.334897 38.337223 -29.551338
-15.459704 36.072636 -27.04043
-15.586228 33.770145 -24.494923
-15.714843 31.429682 -21.907436
-15.845596 29.050253 -19.276876
-15.978544 26.630896 -16.602175
-16.114799 24.172194 -13.860912
-15.961225 21.28162 -16.950605
-15.88553 18.533108 -18.473497
-15.828426 15.828416 -19.622292
-15.783432 13.152857 -20.5275
-15.762753 10.508486 -20.943558
-15.751151 7.8755617 -21.176945
-15.741049 5.2470074 -21.380194
-15.712361 2.6187239 -21.957359
-15.716788 -1.2847403e-05 -21.868277
-15.743876 -2.6239998 -21.323296
-15.770112 -5.2567191 -20.795465
-15.81408 -7.9070468 -19.910933
-15.860206 -10.573485 -18.982937
-15.926352 -13.271977 -17.652174
-16.006542 -16.006557 -16.038855
-16.134151 -18.823196 -13.471579
-16.741621 -22.322172 -1.250229
-16.792252 -25.188395 -0.23160265
-16.822411 -28.037369 0.37513292
-16.848125 -30.888245 0.89247698
-16.461924 -32.923855 -6.8773103
-16.346575 -35.417591 -9.1979561
-16.276178 -37.977764 -10.614193
-16.257132 -40.642841 -10.997424
-16.260004 -43.36002 -10.93964
-16.262804 -46.077969 -10.883263
-16.281075 -48.843231 -10.515728
-16.309061 -51.64537 -9.9526711
-16.351585 -54.505295 -9.0971823
-16.419704 -57.468979 -7.7266941
-16.511616 -60.54261 -5.8775754
-16.585413 -63.577435 -4.3929071
-16.679951 -66.71981 -2.4909701
-16.82218 -70.092438 0.3704848
-16.957947 -73.484444 3.1018977
-17.161835 -77.228279 7.2038155
-10.80107 95.049408 -77.304733
-10.800043 92.880363 -77.329529
-10.797382 90.697998 -77.393761
-10.795825 88.525749 -77.431366
-10.79385 86.350784 -77.479065
-10.795712 84.206535 -77.43412
-10.795901 82.048828 -77.429535
-10.796585 79.894714 -77.413025
-10.796775 77.736771 -77.40844
-10.800158 75.601089 -77.326767
-10.872194 73.930916 -75.587654
-11.200801 73.925278 -67.654388
-11.24263 71.95282 -66.644547
-11.29437 70.025078 -65.395454
-11.353391 68.120331 -63.970551
-11.418342 66.226372 -62.402485
-11.484083 64.310852 -60.81535
-11.555198 62.398056 -59.098488
-11.63474 60.500641 -57.178173
-11.715384 58.576908 -55.231239
-11.797154 56.626331 -53.257137
-11.740627 54.006874 -54.621826
-11.729987 51.611935 -54.878685
-11.841965 49.73624 -52.175316
-12.149435 48.597733 -44.752312
-12.244091 46.527542 -42.467133
-12.340184 44.424648 -40.147236
-12.439008 42.292606 -37.761433
-12.539836 40.127457 -35.327209
-12.642208 37.92662 -32.855717
-12.745895 35.688492 -30.352491
-12.851298 33.413364 -27.807859
-12.956542 31.09569 -25.267035
-13.063191 28.739008 -22.692322
-13.171666 26.343317 -20.073484
-13.282476 23.908449 -17.398314
-13.395633 21.433004 -14.666442
-13.509069 18.912691 -11.92784
-13.313431 15.976097 -16.650991
-13.241426 13.241412 -18.389341
-13.205971 10.564768 -19.245298
-13.169065 7.9014182 -20.136278
-13.156865 5.262723 -20.430796
-13.16093 2.6321726 -20.332682
-13.147223 -1.6914068e-05 -20.663572
-13.155004 -2.6310112 -20.475756
-13.178229 -5.2713051 -19.915024
-13.215755 -7.9294596 -19.009068
-13.260257 -10.608222 -17.934715
-13.314181 -13.314198 -16.632856
-13.419365 -16.103249 -14.093504
-13.968566 -19.556 -0.83461213
-13.976777 -22.36286 -0.63639939
-13.993161 -25.187714 -0.24083301
-14.032591 -28.065193 0.71107715
-14.070951 -30.956104 1.6371787
-13.656894 -32.776554 -8.3590593
-13.591125 -35.336933 -9.9468737
-13.557189 -37.960144 -10.766153
-13.528193 -40.584602 -11.466166
-13.514485 -43.246372 -11.79709
-13.53249 -46.010483 -11.362433
-13.545456 -48.763645 -11.049407
-13.570083 -51.566334 -10.454864
-13.603057 -54.412239 -9.6587858
-13.65027 -57.331154 -8.5189686
-13.714774 -60.345009 -6.9617043
-13.794019 -63.452496 -5.0485716
-13.86246 -66.539818 -3.3962533
-13.929433 -69.647179 -1.7793915
-14.01733 -72.890137 0.34265345
-14.12362 -76.267555 2.9086974
-14.255275 -79.829552 6.0871363
-14.466355 -83.904869 11.183078
-8.6938114 97.805359 -75.706673
-8.69104 95.60144 -75.790291
-8.6908255 93.426361 -75.796799
-8.6887016 91.231361 -75.860855
-8.6869802 89.041534 -75.912834
-8.6885796 86.88578 -75.864571
-8.6880569 84.708534 -75.880348
-8.6880865 82.536812 -75.879425
-8.6875639 80.359955 -75.89521
-8.6904259 78.213806 -75.808868
-8.7453938 76.522171 -74.15004
-8.8677492 75.375854 -70.457642
-8.8904285 73.346024 -69.773232
-8.9252501 71.401993 -68.722382
-8.9621792 69.456871 -67.607971
-9.0070105 67.552567 -66.255058
-9.0577059 65.66835 -64.725204
-9.10921 63.764462 -63.170895
-9.165307 61.865814 -61.478008
-9.2246656 59.96032 -59.686733
-9.2864485 58.040291 -57.822266
-9.3509531 56.105698 -55.875679
-9.4163952 54.14426 -53.900772
-9.4827232 52.154961 -51.899147
-9.5501413 50.138229 -49.864628
-9.6224852 48.112404 -47.681465
-9.696661 46.059128 -45.443027
-9.772028 43.97411 -43.168617
-9.8485756 41.85643 -40.858601
-9.9262915 39.705158 -38.513294
-10.006183 37.52317 -36.102379
-10.087743 35.307087 -33.641079
-10.170264 33.053349 -31.150751
-10.254148 30.762436 -28.619371
-10.339425 28.433416 -26.045874
-10.424762 26.061897 -23.470652
-10.511518 23.650902 -20.852549
-10.59973 21.199438 -18.190512
-10.68962 18.706829 -15.477815
-10.781524 16.172272 -12.704405
-10.760534 13.450654 -13.337799
-10.648479 10.648471 -16.719326
-10.603164 7.9523616 -18.086878
-10.584552 5.2922678 -18.648535
-10.558867 2.6397107 -19.423626
-10.562504 -1.1974885e-05 -19.313923
-10.560412 -2.6401048 -19.37701
-10.578074 -5.2890477 -18.844051
-10.608939 -7.9567213 -17.912582
-10.654582 -10.654599 -16.535166
-10.705848 -13.382318 -14.988099
-10.801311 -16.201984 -12.107257
-11.217504 -19.630646 0.45247731
-11.223403 -22.446827 0.6305151
-11.233472 -25.275333 0.93437213
-11.244693 -28.111736 1.2729726
-10.981736 -30.199793 -6.6624179
-10.893653 -32.680969 -9.3205862
-10.844984 -35.246204 -10.789287
-10.818738 -37.865604 -11.581345
-10.808208 -40.530796 -11.899104
-10.803783 -43.215153 -12.032635
-10.803973 -45.916908 -12.026904
-10.823891 -48.707531 -11.425831
-10.842205 -51.500484 -10.873153
-10.869288 -54.346451 -10.055865
-10.904592 -57.249119 -8.9904785
-10.949107 -60.220104 -7.6471148
-11.002169 -63.262478 -6.0458598
-11.063022 -66.378136 -4.2094154
-11.125562 -69.534775 -2.3221118
-11.18025 -72.671631 -0.67176652
-11.244898 -75.903076 1.2792004
-11.31395 -79.19767 3.3629913
-11.414085 -82.752136 6.3848476
-11.532406 -86.493057 9.9554968
-6.5575495 98.36322 -74.21022
-6.5564284 96.160934 -74.255325
-6.5567789 93.980492 -74.241241
-6.5551443 91.772003 -74.306999
-6.5554008 89.590477 -74.296677
-6.5547938 87.39724 -74.321098
-6.554584 85.209587 -74.329552
-6.5557513 83.039505 -74.282585
-6.5555878 80.852242 -74.289162
-6.5592785 78.711342 -74.14064
-6.5925922 76.913567 -72.800194
-6.6101122 74.914589 -72.095261
-6.6284652 72.913116 -71.356781
-6.6513162 70.947365 -70.43734
-6.6761408 68.986771 -69.438477
-6.7070365 67.070343 -68.195351
-6.7414026 65.16687 -66.812553
-6.7760978 63.243568 -65.416512
-6.8171558 61.354385 -63.764465
-6.8610668 59.462559 -61.997631
-6.9055471 57.546207 -60.207878
-6.9501882 55.601482 -58.411682
-6.9963131 53.638393 -56.555721
-7.0451584 51.664486 -54.590363
-7.0952916 49.667023 -52.573154
-7.1476698 47.651115 -50.465622
-7.2005453 45.603439 -48.338062
-7.2549238 43.52953 -46.150043
-7.3114948 41.431793 -43.873817
-7.3688068 39.300289 -41.567734
-7.4268456 37.134205 -39.232449
-7.4858055 34.933754 -36.8601
-7.5462966 32.700607 -34.426113
-7.6079931 30.431969 -31.943634
-7.6705794 28.125448 -29.42536
-7.734334 25.781101 -26.860069
-7.799356 23.39806 -24.243805
-7.8643708 20.971647 -21.62781
-7.9302049 18.503792 -18.978813
-7.9971514 15.994299 -16.285118
-8.0657682 13.442924 -13.524205
-8.135499 10.847319 -10.718404
-8.0351696 8.0351553 -14.755371
-7.9871573 5.3247504 -16.687252
-7.9772568 2.6590772 -17.085608
-7.9577703 -6.6485318e-06 -17.869684
-7.9564638 -2.6521759 -17.922264
-7.9637957 -5.3092136 -17.627218
-7.9872608 -7.9872699 -16.683083
-8.0240307 -10.698725 -15.20357
-8.0835495 -13.472596 -12.808719
-8.4239092 -16.847822 0.886271
-8.4331713 -19.677412 1.2589923
-8.4481897 -22.528519 1.8632662
-8.4585953 -25.375801 2.2819343
-8.4690638 -28.230228 2.7031777
-8.1851721 -30.01231 -8.7197371
-8.1411848 -32.564754 -10.489656
-8.1180248 -35.178127 -11.421512
-8.1012325 -37.805759 -12.097221
-8.092577 -40.462898 -12.445481
-8.0888786 -43.140697 -12.594293
-8.0933962 -45.862591 -12.412544
-8.1050844 -48.630524 -11.942204
-8.1232204 -51.447071 -11.212492
-8.1441746 -54.294521 -10.369332
-8.170167 -57.191181 -9.3234949
-8.2002325 -60.135059 -8.1137638
-8.2344236 -63.130592 -6.7380319
-8.2745504 -66.196419 -5.1234326
-8.3165741 -69.304802 -3.4325373
-8.3597469 -72.451157 -1.6953937
-8.4050217 -75.64521 0.12631664
-8.4547091 -78.910645 2.1255941
-8.5194359 -82.354561 4.72997
-8.6205435 -86.205444 8.7982302
-4.3997736 101.19479 -72.515816
-4.3979445 98.953728 -72.626221
-4.3976765 96.748871 -72.642395
-4.397172 94.539185 -72.672836
-4.3962269 92.320755 -72.729866
-4.3966208 90.130714 -72.706108
-4.3963842 87.927681 -72.720375
-4.3968725 85.739006 -72.690895
-4.3969197 83.541473 -72.688042
-4.3977079 81.357582 -72.640495
-4.390564 79.030136 -73.071655
-4.3925133 76.868965 -72.954025
-4.3976445 74.759956 -72.644302
-4.4038634 72.663734 -72.268982
-4.4133348 70.613342 -71.697319
-4.4273477 68.623871 -70.851593
-4.4455523 66.683273 -69.752831
-4.4653692 64.747849 -68.55674
-4.4863319 62.80864 -67.291557
-4.5119505 60.91132 -65.745354
-4.538249 58.997223 -64.158089
-4.5654845 57.068546 -62.514286
-4.595027 55.140305 -60.731247
-4.6247444 53.184547 -58.937618
-4.6547785 51.202549 -57.124901
-4.6861534 49.204594 -55.231239
-4.7204227 47.204208 -53.162914
-4.755197 45.174362 -51.064102
-4.7905064 43.114552 -48.933029
-4.8257356 41.018742 -46.806709
-4.8622007 38.897602 -44.605885
-4.9003158 36.752369 -42.305412
-4.939034 34.573231 -39.968575
-4.9783483 32.359245 -37.595741
-5.0182114 30.109262 -35.189793
-5.0589266 27.824087 -32.732407
-5.1005411 25.502699 -30.220757
-5.1429539 23.143272 -27.660917
-5.1860776 20.744293 -25.058155
-5.2299309 18.304747 -22.411396
-5.2738066 15.821407 -19.763247
-5.3181944 13.29548 -17.084225
-5.3635697 10.727124 -14.345561
-5.4099412 8.1149054 -11.54681
-5.4091544 5.4091477 -11.594311
-5.3582063 2.6790957 -14.669269
-5.342134 -1.0856724e-05 -15.639304
-5.3356767 -2.6678534 -16.02907
-5.335166 -5.3351836 -16.059874
-5.3487473 -8.0231323 -15.240163
-5.3756709 -10.751352 -13.615212
-5.6513734 -14.128439 3.0249085
-5.6385965 -16.915804 2.253788
-5.6398406 -19.739454 2.3288496
-5.6453414 -22.581381 2.6608489
-5.6550713 -25.447836 3.2481194
-5.4813275 -27.406647 -7.2382698
-5.4326229 -29.87944 -10.177834
-5.4082961 -32.449783 -11.646103
-5.3949327 -35.067074 -12.452632
-5.3891039 -37.72374 -12.804436
-5.386786 -40.400913 -12.944353
-5.3860292 -43.088242 -12.990021
-5.3883705 -45.80117 -12.848697
-5.3953595 -48.558254 -12.426865
-5.4078903 -51.374969 -11.670559
-5.424098 -54.240993 -10.692361
-5.4425502 -57.14679 -9.5786753
-5.4620037 -60.082062 -8.4045506
-5.4842668 -63.069077 -7.0608559
-5.5078001 -66.093613 -5.6405044
-5.5337563 -69.171959 -4.0739141
-5.5613942 -72.298134 -2.4058001
-5.5939984 -75.51899 -0.43795812
-5.6292329 -78.809273 1.6886153
-5.6762342 -82.305405 4.5253968
-5.7537117 -86.305687 9.2015772
-2.2128115 101.78931 -70.955681
-2.2122691 99.552094 -71.021149
-2.212261 97.339478 -71.022118
-2.2118063 95.107658 -71.077003
-2.2116389 92.888824 -71.097198
-2.2116148 90.676208 -71.100098
-2.2118304 88.47319 -71.074112
-2.2116148 86.252983 -71.100098
-2.2122848 84.066811 -71.019241
-2.2129631 81.879623 -70.937363
-2.2054696 79.396896 -71.841896
-2.2064056 77.224182 -71.728935
-2.207088 75.040985 -71.64653
-2.2080336 72.865089 -71.53244
-2.2098546 70.71534 -71.312599
-2.2126598 68.592438 -70.973969
-2.2164485 66.493439 -70.516617
-2.2232354 64.473816 -69.697395
-2.2310772 62.470154 -68.750793
-2.2419856 60.533604 -67.434036
-2.2535057 58.591145 -66.043419
-2.2660403 56.651001 -64.530365
-2.2796547 54.7117 -62.886959
-2.2931941 52.74345 -61.252636
-2.308023 50.776493 -59.462635
-2.3235025 48.793541 -57.594097
-2.3393157 46.786301 -55.685238
-2.3553457 44.751556 -53.75024
-2.3726704 42.708046 -51.659004
-2.3902419 40.634109 -49.537907
-2.4079249 38.526787 -47.403397
-2.425689 36.38533 -45.259079
-2.4440384 34.216518 -43.044098
-2.4633005 32.022888 -40.718971
-2.4828584 29.794294 -38.358139
-2.5027397 27.530125 -35.958263
-2.5230558 25.230539 -33.505859
-2.5437889 22.894091 -31.003145
-2.5648766 20.519003 -28.457657
-2.5863273 18.104279 -25.868305
-2.60814 15.648826 -23.235273
-2.6303353 13.151664 -20.556074
-2.6525214 10.610072 -17.877981
-2.6750033 8.0249939 -15.164159
-2.6980715 5.3961344 -12.379621
-2.7215407 2.7215295 -9.5466156
-2.6977272 -1.2926203e-05 -12.42114
-2.6860468 -2.6860597 -13.831099
-2.6823828 -5.3647871 -14.27337
-2.6916559 -8.0749817 -13.154015
-2.7082303 -10.832933 -11.153345
-2.8685033 -14.34253 8.1933517
-2.8580406 -17.148258 6.930397
-2.840193 -19.881367 4.7759776
-2.8360443 -22.688356 4.2751908
-2.8372903 -25.535625 4.4256029
-2.7205873 -27.205896 -9.6616859
-2.7047322 -29.752069 -11.575581
-2.696044 -32.352543 -12.624331
-2.6901925 -34.972507 -13.330688
-2.6876235 -37.62674 -13.640777
-2.6876824 -40.315258 -13.633671
-2.6891079 -43.025738 -13.46163
-2.6911483 -45.749542 -13.215305
-2.6948245 -48.506847 -12.771558
-2.6997216 -51.29472 -12.180413
-2.7078598 -54.157211 -11.198053
-2.7181768 -57.081722 -9.9526911
-2.7292888 -60.044373 -8.6113224
-2.7405779 -63.033302 -7.2486143
-2.7522199 -66.053291 -5.8432994
-2.764796 -69.119911 -4.3252625
-2.7795761 -72.26899 -2.5411468
-2.7954061 -75.47599 -0.63025349
-2.8149521 -78.818672 1.7291449
-2.8431017 -82.449959 5.1270866
-3.1514716 -94.544151 42.350624
-3.1851747 -98.740425 46.418941
-3.2304385 -103.37405 51.882793
5.1942338e-23 104.68894 -69.191742
1.7475831e-23 102.41503 -69.313698
1.2243235e-23 100.17299 -69.355637
3.5808479e-24 97.929504 -69.403404
3.1557163e-23 95.705574 -69.398521
3.8903149e-23 93.461891 -69.450165
7.4826044e-24 91.227676 -69.476471
1.420789e-23 89.018097 -69.42971
4.8457643e-23 86.785095 -69.453087
1.7203681e-23 84.591743 -69.35173
9.9743573e-25 82.037933 -70.420898
1.8076931e-23 79.841461 -70.351242
3.6797256e-23 77.635429 -70.310585
-1.3725435e-23 75.431183 -70.261215
1.333912e-23 73.228775 -70.202126
7.4361538e-23 71.035149 -70.106178
4.6796718e-23 68.842697 -69.999489
7.8365379e-23 66.667328 -69.816963
-1.6299028e-23 64.510979 -69.542694
2.085468e-23 62.38213 -69.130234
5.421557e-23 60.329685 -68.345718
8.2571851e-23 58.293095 -67.427109
5.1372515e-24 56.309513 -66.179222
4.7483368e-23 54.334179 -64.785728
7.0828728e-24 52.348225 -63.326927
2.4399821e-23 50.375687 -61.661751
3.2913221e-23 48.391277 -59.906288
2.6903691e-24 46.398342 -58.026783
1.6519378e-25 44.377781 -56.12492
7.1534096e-23 42.329746 -54.195946
-5.3934609e-24 40.253513 -52.240417
1.4348244e-23 38.164013 -50.140255
4.1648782e-23 36.045017 -47.997646
-1.151068e-23 33.889694 -45.862118
9.1848905e-24 31.7024 -43.694908
1.3107157e-23 29.485252 -41.466805
1.340558e-23 27.242311 -39.116665
4.1465805e-23 24.964956 -36.711796
-5.5372734e-24 22.651041 -34.262959
3.1193845e-23 20.299803 -31.765118
3.679867e-23 17.909342 -29.229713
2.403409e-23 15.47829 -26.666416
-2.8501425e-23 13.006745 -24.054867
5.5759869e-23 10.493702 -21.38966
4.5547141e-23 7.9376101 -18.680222
-2.2111096e-23 5.3366609 -15.968846
4.396272e-23 2.6912055 -13.206754
-1.1839158e-23 -7.8185349e-06 -10.388189
1.0442591e-22 -2.7382977 -7.5261855
8.2943442e-23 -5.4034982 -11.936446
-4.365709e-23 -8.1487255 -10.18656
8.2105407e-23 -11.241105 1.1641783
-4.7632677e-23 -14.178069 4.2229748
2.0405014e-23 -17.168013 7.3278089
-6.1553561e-23 -20.208498 10.417275
1.8214338e-23 -22.983389 8.7267656
-3.4701736e-23 -24.569405 -8.533638
1.7451405e-23 -27.051037 -11.53097
7.667244e-23 -29.634487 -12.865829
4.5161555e-23 -32.257431 -13.58108
-1.100263e-24 -34.913731 -13.876516
1.6475445e-23 -37.586563 -13.987181
1.8650717e-23 -40.272034 -13.981501
1.4271718e-23 -42.965473 -13.916254
6.6693854e-23 -45.683411 -13.684827
3.0714009e-23 -48.454071 -13.125515
4.8332343e-23 -51.268105 -12.34952
7.8208793e-23 -54.101334 -11.535278
2.979136e-23 -57.023117 -10.289563
4.7067878e-23 -59.982998 -8.9480591
4.1076278e-23 -62.988285 -7.4848809
3.0114333e-23 -66.013023 -6.0458455
-1.0217364e-23 -69.075386 -4.540185
1.8248454e-23 -72.234955 -2.6991386
1.6135411e-23 -75.487 -0.58104068
-3.0145057e-23 -78.891434 2.0427878
7.2482856e-23 -82.924911 7.104054
-2.3356846e-24 -93.325134 37.445637
-5.2731653e-23 -97.204826 40.439487
-3.0646653e-23 -101.55025 45.00301
-7.4634736e-23 -106.04724 49.844433
2.240741 105.31481 -67.584274
2.2402666 103.05224 -67.641556
2.2399886 100.79946 -67.675125
2.239547 98.540054 -67.728409
2.2391627 96.283989 -67.774788
2.2392037 94.046539 -67.769852
2.238934 91.79628 -67.802406
2.2390401 89.5616 -67.789589
2.2396777 87.34742 -67.712631
2.2393343 85.094696 -67.754074
2.230396 82.524643 -68.833023
2.2309637 80.31469 -68.764503
2.2307284 78.075485 -68.792892
2.230696 75.843658 -68.796814
2.2311909 73.62928 -68.737076
2.231832 71.418617 -68.659683
2.2325222 69.208176 -68.576355
2.2332945 66.998817 -68.48317
2.2340262 64.786751 -68.394821
2.2354589 62.592831 -68.221893
2.2374806 60.411961 -67.977844
2.2404628 58.252026 -67.617851
2.245892 56.147293 -66.962486
2.2531419 54.075397 -66.087372
2.2630064 52.049141 -64.896606
2.2746685 50.04269 -63.488873
2.2869456 48.025841 -62.006889
2.3014345 46.028679 -60.257919
2.316222 44.008205 -58.472912
2.3319097 41.974354 -56.579254
2.3479726 39.91552 -54.640263
2.3641222 37.825943 -52.690865
2.3804951 35.707413 -50.714443
2.3979678 33.571541 -48.605309
2.4157178 31.404325 -46.462677
2.4335978 29.203163 -44.304409
2.4517443 26.969172 -42.113941
2.4704816 24.704802 -39.852142
2.4903462 22.413109 -37.454277
2.5105431 20.084339 -35.016289
2.5310705 17.717478 -32.538437
2.552074 15.312428 -30.00305
2.5733428 12.8667 -27.435675
2.5948265 10.379292 -24.842377
2.6166718 7.8500109 -22.205421
2.6388993 5.2777777 -19.522293
2.6616004 2.6615841 -16.782047
2.6844015 -1.6317155e-05 -14.029715
2.7075968 -2.7076008 -11.229804
2.7309775 -5.4619708 -8.4074945
2.7547779 -8.2643499 -5.5345283
2.7788963 -11.115605 -2.6231949
2.8030562 -14.015294 0.29318845
2.8278356 -16.967031 3.2843022
2.8538399 -19.976879 6.4232931
2.8798401 -23.038731 9.5618181
2.7137284 -24.423574 -10.489635
2.6998167 -26.998177 -12.168948
2.6903577 -29.593945 -13.31074
2.6844838 -32.21381 -14.019788
2.6814332 -34.858646 -14.388003
2.6804376 -37.526138 -14.508204
2.6812575 -40.218876 -14.409212
2.6820898 -42.91346 -14.30876
2.6838729 -45.625862 -14.093493
2.6880827 -48.385506 -13.585338
2.6953571 -51.211796 -12.707267
2.7036593 -54.073204 -11.705088
2.7130804 -56.974705 -10.56787
2.724175 -59.931858 -9.2286396
2.7360804 -62.929863 -7.7915206
2.7480903 -65.954178 -6.3418002
2.7624059 -69.060158 -4.6137562
2.7783804 -72.237907 -2.6854694
2.7972672 -75.526215 -0.40565044
2.8246329 -79.089737 2.8977139
3.1043367 -90.025772 36.66095
3.0769827 -92.309509 33.359055
3.0866733 -95.68689 34.52879
3.1232207 -99.943077 38.940468
3.1618168 -104.33997 43.599434
4.5160022 108.38404 -65.500801
4.5092974 105.96847 -65.905472
4.5092311 103.71232 -65.90947
4.5080714 101.43159 -65.979462
4.5076408 99.168091 -66.005447
4.5061512 96.882248 -66.095367
4.5065317 94.637161 -66.07238
4.5062008 92.377098 -66.092369
4.5065317 90.130623 -66.07238
4.5074921 87.896088 -66.014435
4.4889412 85.289864 -67.134056
4.489171 83.049652 -67.120171
4.4892864 80.807144 -67.113235
4.4888921 78.555603 -67.137032
4.4884815 76.304176 -67.161804
4.4884324 74.05912 -67.16478
4.4884815 71.815697 -67.161804
4.4897628 69.591309 -67.084496
4.4910111 67.365166 -67.009117
4.4919982 65.133957 -66.949577
4.4937744 62.912827 -66.842354
4.4952559 60.685944 -66.752922
4.4977441 58.470669 -66.602768
4.5009942 56.262413 -66.406601
4.5067801 54.081352 -66.057396
4.5154533 51.927704 -65.533905
4.5295544 49.825085 -64.682831
4.5490837 47.765373 -63.504143
4.5729709 45.729694 -62.062454
4.597661 43.677773 -60.572266
4.6263661 41.63728 -58.839748
4.6564393 39.57972 -57.024685
4.6879797 37.50383 -55.121037
4.7204409 35.403297 -53.161819
4.753355 33.273468 -51.175274
4.7865448 31.112535 -49.172131
4.8215265 28.929146 -47.06078
4.8571391 26.714249 -44.911366
4.8936324 24.468155 -42.708797
4.9306788 22.18804 -40.472851
4.9684711 19.873865 -38.191879
5.008666 17.530323 -35.7659
5.0494962 15.148471 -33.301575
5.0911665 12.727905 -30.786575
5.1337018 10.267398 -28.219336
5.1767354 7.7650819 -25.622009
5.2202301 5.2202191 -22.99688
5.2644396 2.6322079 -20.328608
5.3094044 -1.3808332e-05 -17.614752
5.3550735 -2.6775501 -14.858382
5.4008927 -5.4009094 -12.092904
5.4474306 -8.1711693 -9.2840958
5.4947534 -10.989518 -6.427959
5.5429296 -13.857344 -3.520216
5.5917549 -16.775282 -0.5733549
5.6406703 -19.742361 2.3789227
5.4629521 -21.851828 -8.3473139
5.4065328 -24.329405 -11.752534
5.383359 -26.916805 -13.15117
5.3718114 -29.544983 -13.848126
5.3659153 -32.195511 -14.203994
5.3613205 -34.848598 -14.481331
5.3592596 -37.514828 -14.605701
5.3597045 -40.1978 -14.578865
5.3619056 -42.895264 -14.445983
5.3659153 -45.610283 -14.204002
5.3721642 -48.349491 -13.826859
5.3844457 -51.152245 -13.085589
5.4035563 -54.035572 -11.932158
5.4244337 -56.956573 -10.672099
5.4464154 -59.91058 -9.3454018
5.4697213 -62.901817 -7.9387412
5.4931545 -65.91787 -6.5244365
5.5223002 -69.028778 -4.7653198
5.5557289 -72.224487 -2.7477272
5.6006112 -75.608261 -0.038847171
5.6692843 -79.369995 4.105948
6.1229815 -88.783249 31.489019
6.0855103 -91.282661 29.227406
6.087533 -94.356781 29.349495
6.147553 -98.360863 32.972004
6.2217379 -102.65868 37.449455
6.2995133 -107.09175 42.143627
6.8150358 109.04056 -63.849781
6.8093376 106.67962 -64.079056
6.8064675 104.36581 -64.19455
6.8058381 102.08756 -64.219856
6.8035989 99.78611 -64.309952
6.803071 97.510681 -64.3312
6.8027191 95.238052 -64.345375
6.802166 92.962929 -64.367622
6.8042531 90.723366 -64.283646
6.7913489 88.287529 -64.802864
6.7770209 85.842247 -65.379379
6.7759233 83.56971 -65.423553
6.7756486 81.307777 -65.434586
6.7761974 79.055626 -65.412506
6.7753744 76.787575 -65.445633
6.7748256 74.523071 -65.467697
6.7746515 72.262932 -65.474724
6.7747011 70.005234 -65.472717
6.7744765 67.744759 -65.48175
6.7756486 65.497925 -65.434593
6.7773452 63.255211 -65.366333
6.7784433 61.005974 -65.322144
6.7810907 58.769432 -65.21563
6.7840648 56.533859 -65.095947
6.7872167 54.297722 -64.969124
6.7911234 52.065262 -64.811935
6.7997789 49.865036 -64.463676
6.8112526 47.678753 -64.001999
6.8333282 45.555504 -63.113754
6.8598394 43.445637 -62.047024
6.8950186 41.370106 -60.631516
6.9327536 39.285587 -59.113182
6.9751825 37.200954 -57.405956
7.0210257 35.105114 -55.561367
7.0685616 32.986614 -53.648701
7.1177635 30.843636 -51.66898
7.167654 28.670603 -49.661495
7.2182508 26.466908 -47.625671
7.2712603 24.237524 -45.492733
7.3257828 21.977333 -43.298908
7.3811293 19.682995 -41.07193
7.4373183 17.353727 -38.81105
7.4944615 14.98891 -36.511799
7.5554032 12.592325 -34.059677
7.6173759 10.156487 -31.566084
7.6808543 7.6808419 -29.011909
7.7454 5.1635904 -26.414816
7.8107405 2.603565 -23.785696
7.8767219 -1.6101718e-05 -21.130817
7.9437242 -2.6479216 -18.434855
8.0109348 -5.3406372 -15.730518
8.0796461 -8.07967 -12.965757
8.1494036 -10.865887 -10.158955
8.2200813 -13.700153 -7.3150983
8.2919588 -16.583939 -4.4229722
8.3650665 -19.518499 -1.4813727
8.1395292 -21.705421 -10.556279
8.0872078 -24.261644 -12.661509
8.0620222 -26.873421 -13.6749
8.0483799 -29.51075 -14.223816
8.0409966 -32.163994 -14.520922
8.0347137 -34.817108 -14.773715
8.0333462 -37.488964 -14.828751
8.0366077 -40.183052 -14.697495
8.0419102 -42.890198 -14.484178
8.0484152 -45.607693 -14.222412
8.056695 -48.340187 -13.889281
8.0724182 -51.125328 -13.256612
8.0970631 -53.980431 -12.264983
8.1300735 -56.910522 -10.936742
8.1673393 -59.893833 -9.4372787
8.2038145 -62.895924 -7.9696484
8.2407646 -65.926132 -6.4828677
8.289382 -69.078194 -4.5266662
8.3428478 -72.304695 -2.3753693
8.4092073 -75.682869 0.29472542
8.5383654 -79.691422 5.4916501
9.0747557 -87.722649 27.074312
9.0269575 -90.269585 25.15107
9.0173597 -93.179413 24.764921
9.0839806 -96.895821 27.445549
9.1907101 -101.09782 31.739962
9.3012447 -105.41412 36.187553
9.1423302 105.13677 -62.171436
9.1355572 102.77501 -62.375809
9.130867 100.43953 -62.517353
9.1301537 98.149147 -62.538872
9.1303911 95.869095 -62.531719
9.1309347 93.592072 -62.515308
9.1297798 91.297791 -62.550159
9.099719 88.722252 -63.457317
9.0967846 86.419434 -63.545864
9.0934477 84.11438 -63.646568
9.0932455 81.839203 -63.652668
9.0929766 79.56353 -63.660801
9.0919991 77.28199 -63.690289
9.0912247 75.002586 -63.713665
9.090518 72.724129 -63.734997
9.0896416 70.444717 -63.761433
9.0888681 68.166504 -63.784782
9.0885983 65.892326 -63.7929
9.0882626 63.617828 -63.80307
9.0892715 61.352573 -63.772591
9.0911236 59.0923 -63.716717
9.0925388 56.828354 -63.674019
9.095706 54.574215 -63.578423
9.0999889 52.324928 -63.449165
9.1045465 50.075001 -63.311634
9.1098528 47.82671 -63.151508
9.1203814 45.601898 -62.833782
9.1346397 43.389526 -62.403511
9.175313 41.288898 -61.17606
9.1958723 39.082443 -60.555626
9.2416525 36.966591 -59.174118
9.2924614 34.846718 -57.64082
9.3482103 32.718719 -55.958447
9.4103651 30.583679 -54.082756
9.4740839 28.422232 -52.159859
9.5403404 26.23592 -50.160393
9.607379 24.01844 -48.137325
9.6754436 21.769732 -46.083294
9.7469559 19.493896 -43.925217
9.8216944 17.187956 -41.669777
9.8963509 14.844515 -39.416824
9.9721107 12.46512 -37.130569
10.048998 10.048986 -34.810295
10.131094 7.5982985 -32.33284
10.21501 5.1074886 -29.800472
10.300629 2.5751426 -27.216665
10.387696 -1.3723039e-05 -24.589163
10.475712 -2.6189458 -21.933071
10.563367 -5.2816973 -19.287855
10.652547 -7.9894342 -16.596575
10.743199 -10.743211 -13.860909
10.836508 -13.545649 -11.045077
10.930673 -16.396021 -8.2034111
11.026043 -19.295586 -5.3253675
10.80483 -21.609669 -12.001064
10.763366 -24.217585 -13.252343
10.743858 -26.859657 -13.841031
10.7323 -29.51384 -14.189845
10.723391 -32.170181 -14.458709
10.718238 -34.834293 -14.614184
10.721844 -37.526463 -14.505374
10.734412 -40.254055 -14.126098
10.744281 -42.977142 -13.828259
10.752237 -45.697014 -13.588193
10.7611 -48.424973 -13.32071
10.775085 -51.181671 -12.898671
10.798459 -53.992302 -12.193321
10.837465 -56.896706 -11.016203
10.884908 -59.867001 -9.5845041
10.93603 -62.882195 -8.0417089
10.988867 -65.93322 -6.4472528
11.059382 -69.121162 -4.319232
11.146178 -72.45018 -1.6999542
11.262599 -76.022552 1.8133405
12.081209 -84.568474 26.517101
11.968675 -86.772911 23.121086
11.906716 -89.3004 21.251345
11.884403 -92.104141 20.577959
11.937064 -95.496529 22.167135
12.069623 -99.574394 26.167452
12.210138 -103.78619 30.4079
12.364546 -108.18979 35.067547
11.583777 104.25397 -58.408516
11.504411 101.23881 -60.324593
11.49045 98.817856 -60.661648
11.489976 96.515785 -60.673077
11.48761 94.19838 -60.730213
11.475105 91.800819 -61.032101
11.452828 89.332054 -61.569916
11.450947 87.027184 -61.615318
11.444625 84.690216 -61.767963
11.440613 82.372398 -61.864815
11.439845 80.078896 -61.883354
11.438736 77.783394 -61.910126
11.437456 75.487198 -61.941021
11.436433 73.193161 -61.965721
11.435197 70.898209 -61.995575
11.434003 68.604012 -62.024387
11.432342 66.307564 -62.06451
11.430637 64.011559 -62.105648
11.430637 61.725422 -62.105637
11.430594 59.439079 -62.106674
11.431149 57.155731 -62.093296
11.433236 54.879517 -62.042908
11.435452 52.603062 -61.989403
11.439205 50.332478 -61.898804
11.444667 48.067589 -61.766922
11.449879 45.799496 -61.641113
11.456934 43.536343 -61.470776
11.4688 41.287659 -61.184341
11.485158 39.04953 -60.789391
11.519271 36.861664 -59.965832
11.556591 34.669762 -59.064854
11.613466 32.517689 -57.69178
11.676811 30.359705 -56.162479
11.746337 28.191195 -54.483997
11.824757 26.014452 -52.590752
11.9046 23.809185 -50.663166
11.988106 21.578577 -48.647156
12.072838 19.316521 -46.601536
12.159115 17.022747 -44.518627
12.248882 14.698644 -42.351463
12.343263 12.343254 -40.072922
12.439158 9.9513206 -37.757797
12.53548 7.5212765 -35.432354
12.632733 5.0530767 -33.084465
12.736213 2.5472383 -30.586287
12.842744 -8.6401515e-06 -28.01438
12.950854 -2.5901875 -25.40436
13.059243 -5.2237167 -22.787632
13.169122 -7.9014902 -20.134903
13.279946 -10.623968 -17.459387
13.392651 -13.392661 -14.738443
13.508119 -16.209759 -11.950818
13.624202 -19.073896 -9.1483126
13.492018 -21.587242 -12.339511
13.468206 -24.24279 -12.914378
13.450786 -26.901579 -13.334955
13.434763 -29.556492 -13.721772
13.424886 -32.219738 -13.960227
13.426003 -34.907623 -13.933273
13.430058 -37.604172 -13.835368
13.442122 -40.326366 -13.544125
13.459815 -43.071419 -13.116958
13.48022 -45.832767 -12.624334
13.505322 -48.619171 -12.018301
13.529088 -51.410542 -11.44457
13.54157 -54.16629 -11.143227
13.563902 -56.968403 -10.604062
13.616281 -59.91164 -9.3395596
13.678938 -62.92313 -7.826859
13.748642 -65.9935 -6.1440482
13.848192 -69.240982 -3.7406967
13.944629 -72.512085 -1.4125094
14.141654 -76.364952 3.3441072
14.947794 -83.707657 22.806047
14.808318 -85.888268 19.438803
14.720421 -88.322548 17.316763
14.687788 -91.064301 16.52895
14.728689 -94.263626 17.516376
14.869473 -98.138535 20.915194
15.027241 -102.18525 24.724043
15.212192 -106.48535 29.189157
13.992362 100.27859 -56.561069
14.001301 98.009109 -56.381195
13.890828 94.920654 -58.603737
13.864931 92.432877 -59.124752
13.849336 90.02066 -59.438522
13.841733 87.664299 -59.591473
13.832164 85.298325 -59.784012
13.824943 82.949646 -59.929272
13.820531 80.619743 -60.01804
13.817677 78.300156 -60.075436
13.815914 75.987526 -60.110905
13.813012 73.669388 -60.169304
13.811249 71.358116 -60.204762
13.809746 69.048721 -60.234982
13.808245 66.73983 -60.265209
13.806794 64.431694 -60.294392
13.803895 62.117516 -60.352715
13.801256 59.805431 -60.405815
13.801359 57.505657 -60.403736
13.801877 55.2075 -60.393322
13.802497 52.909561 -60.380825
13.805139 50.618832 -60.327721
13.807831 48.327393 -60.273548
13.811613 46.038696 -60.197456
13.818248 43.757774 -60.063957
13.82432 41.47295 -59.941811
13.83284 39.193027 -59.770409
13.845533 36.921402 -59.515022
13.864045 34.660099 -59.142609
13.898224 32.429173 -58.454967
13.943654 30.211239 -57.540974
14.010627 28.021236 -56.193588
14.086703 25.825615 -54.663044
14.169336 23.615536 -53.000607
14.26421 21.396296 -51.0919
14.36053 19.147362 -49.154091
14.461795 16.872078 -47.116795
14.564499 14.564485 -45.050564
14.669548 12.22462 -42.937126
14.777667 9.8517685 -40.761951
14.892208 7.4460921 -38.457546
15.008479 5.0028176 -36.118382
15.12664 2.5210936 -33.74115
15.246046 -1.0228994e-05 -31.338888
15.371651 -2.5619578 -28.811884
15.498887 -5.1663103 -26.252102
15.628312 -7.8141651 -23.648281
15.759851 -10.506578 -21.00194
15.893278 -13.244411 -18.31757
16.027868 -16.027874 -15.609838
16.1649 -18.859068 -12.85298
16.305809 -21.741098 -10.018073
16.360086 -24.540136 -8.9261284
16.259501 -27.09918 -10.949741
16.232185 -29.75902 -11.4993
16.211384 -32.422783 -11.917785
16.202606 -35.105656 -12.094353
16.198473 -37.796452 -12.17755
16.199612 -40.499039 -12.154609
16.200968 -43.202595 -12.127349
16.206673 -45.918922 -12.012559
16.227606 -48.682827 -11.591417
16.265894 -51.50869 -10.821094
16.314047 -54.380169 -9.8523617
16.343018 -57.200577 -9.2695103
16.371874 -60.030212 -8.6889906
16.444715 -63.038097 -7.2234898
16.534086 -66.13636 -5.4255061
16.650375 -69.376587 -3.0859377
16.793633 -72.772423 -0.20384158
17.042419 -76.690903 4.8013692
17.768097 -82.917801 19.400845
17.598888 -85.061302 15.99665
17.487946 -87.439751 13.764668
17.440058 -90.106987 12.801259
17.43882 -93.007057 12.77632
17.572594 -96.649292 15.467656
17.77556 -100.72819 19.55102
17.981337 -104.89114 23.690928
16.308739 90.862961 -56.831509
16.280609 88.38044 -57.316589
16.262608 85.95948 -57.627007
16.249439 83.568527 -57.854073
16.242682 81.213387 -57.970657
16.236172 78.861389 -58.082897
16.231079 76.517929 -58.170712
16.225315 74.172852 -58.270103
16.221699 71.838943 -58.332458
16.216799 69.500549 -58.416962
16.213737 67.171181 -58.469749
16.212574 64.850288 -58.489799
16.211168 62.528782 -58.514076
16.208536 60.203114 -58.559437
16.205662 57.877357 -58.609005
16.20285 55.55262 -58.657505
16.203093 53.23872 -58.653294
16.203705 50.925919 -58.642746
16.204132 48.612389 -58.635357
16.206762 46.305027 -58.590027
16.209942 43.998398 -58.535172
16.213432 41.691669 -58.475021
16.221148 39.394199 -58.341972
16.228258 37.093143 -58.219357
16.237707 34.795067 -58.056419
16.251038 32.502064 -57.8265
16.272835 30.220976 -57.450626
16.306696 27.954315 -56.866749
16.358807 25.706684 -55.968136
16.434551 23.477913 -54.661945
16.52326 21.244179 -53.132221
16.618717 18.992804 -51.486118
16.729479 16.72946 -49.576115
16.842981 14.436816 -47.618832
16.961784 12.115552 -45.570148
17.083092 9.7617445 -43.478287
17.207178 7.3744879 -41.338463
17.333782 4.9524965 -39.155273
17.468868 2.4955409 -36.825802
17.606077 -1.8635983e-05 -34.459717
17.745529 -2.5350916 -32.054924
17.88818 -5.1109304 -29.595028
18.033291 -7.72856 -27.092663
18.183395 -10.390529 -24.504215
18.336018 -13.097176 -21.872332
18.491224 -15.84964 -19.19589
18.648838 -18.648851 -16.477942
18.807598 -21.494411 -13.740231
18.970509 -24.390656 -10.930967
19.13686 -27.338381 -8.0623045
19.243441 -30.239717 -6.2243633
19.140358 -32.812057 -8.0020008
19.072359 -35.420097 -9.1746063
19.037443 -38.074905 -9.7766991
19.015276 -40.747025 -10.158964
19.001814 -43.432724 -10.391098
19.010647 -46.168724 -10.238793
19.020159 -48.908989 -10.074739
19.027321 -51.645596 -9.9512339
19.055857 -54.445316 -9.4591541
19.120842 -57.362537 -8.3385181
19.166067 -60.236221 -7.5586524
19.223631 -63.163368 -6.5659885
19.330313 -66.275375 -4.7263265
19.468676 -69.530983 -2.3403726
19.674877 -73.078117 1.2154633
20.826347 -80.330208 21.071856
20.553947 -82.215805 16.374529
20.340086 -84.26609 12.686589
20.206207 -86.598045 10.377933
20.133081 -89.160812 9.1169424
20.116203 -91.959793 8.82584
20.218098 -95.313904 10.582991
20.42696 -99.21669 14.184694
20.660835 -103.30419 18.217724
20.901655 -107.49425 22.370501
18.76009 86.765411 -54.997746
18.733383 84.300209 -55.400719
18.711102 81.861061 -55.736916
18.695848 79.457344 -55.967045
18.685814 77.078972 -56.118481
18.675861 74.70343 -56.268669
18.669752 72.345284 -56.360847
18.662725 69.985199 -56.466888
18.658112 67.635643 -56.536461
18.651093 65.278824 -56.642372
18.646204 62.930927 -56.716133
18.645212 60.596935 -56.731106
18.644648 58.264503 -56.739647
18.642452 55.927338 -56.77277
18.639196 53.587677 -56.821907
18.635939 51.248821 -56.871033
18.635233 48.917473 -56.881706
18.635939 46.589836 -56.871037
18.636435 44.261517 -56.86356
18.638769 41.937222 -56.828312
18.642311 39.614891 -56.774906
18.645922 37.291832 -56.720409
18.653929 34.976109 -56.59959
18.662155 32.658768 -56.475452
18.672379 30.342598 -56.321178
18.685884 28.028814 -56.117393
18.710958 25.727556 -55.739059
18.745401 23.431746 -55.219372
18.805515 21.156189 -54.312309
18.885687 18.885672 -53.102627
18.986282 16.612982 -51.584763
19.095602 14.321696 -49.935272
19.221531 12.013451 -48.035145
19.352032 9.6760025 -46.066025
19.488417 7.3081484 -44.008144
19.629091 4.9072509 -41.885506
19.772449 2.4715443 -39.722393
19.917837 -1.4028873e-05 -37.528671
20.073914 -2.5092452 -35.173695
20.234539 -5.0586357 -32.750034
20.397757 -7.6491714 -30.287283
20.558632 -10.279325 -27.85984
20.725391 -12.953389 -25.343637
20.898436 -15.673845 -22.732599
21.074486 -18.440191 -20.076212
21.253986 -21.254002 -17.36775
21.436289 -24.115849 -14.617
21.620415 -27.025528 -11.838775
21.809475 -29.988033 -8.986083
22.003054 -33.004601 -6.0651932
22.201105 -36.076805 -3.0768681
22.066462 -38.616322 -5.1084538
21.961311 -41.177467 -6.6950393
21.895088 -43.790184 -7.6942897
21.852295 -46.436146 -8.3399734
21.842667 -49.146011 -8.4852505
21.87557 -51.954498 -7.9887528
21.902512 -54.756298 -7.5822473
21.909552 -57.512589 -7.4760404
21.969568 -60.416321 -6.5704527
22.036839 -63.355923 -5.555419
22.136124 -66.408379 -4.0573354
22.316681 -69.739647 -1.3329186
22.570566 -73.354355 2.497915
23.59774 -79.642387 17.996754
23.294353 -81.530258 13.41903
23.047699 -83.547935 9.697299
22.87722 -85.789589 7.1249599
22.779964 -88.272377 5.6574802
22.737438 -90.94976 5.015789
22.816286 -94.117188 6.2055144
23.028343 -97.870468 9.4052391
23.277121 -101.83742 13.158994
23.546457 -105.95908 17.222979
21.265301 82.69838 -52.84911
21.217091 80.153442 -53.495701
21.191931 77.703728 -53.833172
21.173809 75.284645 -54.076214
21.159853 72.883926 -54.263397
21.147213 70.490685 -54.432945
21.13855 68.113098 -54.549122
21.131834 65.743477 -54.639175
21.12464 63.373913 -54.73568
21.117531 61.006187 -54.831028
21.111315 58.642525 -54.914406
21.110588 56.294891 -54.924156
21.109861 53.947407 -54.933895
21.107925 51.597137 -54.959869
21.104134 49.242962 -55.010731
21.100424 46.88982 -55.060482
21.098488 44.541237 -55.086433
21.099215 42.198418 -55.076698
21.099779 39.855118 -55.06913
21.101633 37.514008 -55.044262
21.105665 35.176102 -54.990173
21.109619 32.837162 -54.937138
21.117289 30.502731 -54.83427
21.126741 28.168982 -54.707504
21.137659 25.834896 -54.56105
21.152153 23.502386 -54.366676
21.178843 21.178833 -54.008675
21.21277 18.855783 -53.553642
21.284397 16.554518 -52.592968
21.365103 14.243395 -51.510521
21.476202 11.931206 -50.020435
21.600622 9.6002598 -48.351658
21.741035 7.2470098 -46.468426
21.887968 4.8639746 -44.497688
22.042269 2.4491289 -42.428181
22.202776 -1.1196598e-05 -40.275414
22.365908 -2.4851108 -38.087429
22.533388 -5.0074387 -35.841137
22.712265 -7.5707583 -33.441986
22.89505 -10.175585 -30.990416
23.079741 -12.822094 -28.513292
23.259298 -15.506215 -26.105005
23.448044 -18.237387 -23.573494
23.644836 -21.017635 -20.934052
23.845064 -23.845079 -18.248522
24.048714 -26.72081 -15.517147
24.256187 -29.646467 -12.734413
24.468143 -32.624195 -9.8916254
24.685822 -35.657314 -6.9720564
24.907406 -38.744869 -4.0000825
25.133007 -41.888355 -0.97427523
24.963934 -44.380337 -3.2419341
24.831131 -46.903255 -5.0231152
24.775761 -49.55154 -5.7657804
24.744452 -52.238297 -6.1857023
24.761648 -55.025909 -5.9550257
24.804585 -57.877369 -5.3791795
24.827448 -60.689339 -5.0725255
24.886976 -63.600071 -4.2741094
25.009274 -66.691414 -2.6338305
25.189184 -69.969978 -0.22080266
26.72192 -77.196671 20.33672
26.350716 -79.052162 15.357999
26.002287 -80.896019 10.684767
25.723326 -82.886276 6.9432387
25.51013 -85.033783 4.0838342
25.374035 -87.399467 2.2584739
25.3132 -90.002502 1.4425387
25.33643 -92.900246 1.754083
25.536795 -96.472351 4.4414392
25.804464 -100.35072 8.0315342
26.092718 -104.37089 11.897672
26.402121 -108.54207 16.047453
23.735147 75.952469 -51.557072
23.705801 73.487968 -51.911308
23.683929 71.051781 -52.175304
23.666664 68.633316 -52.383739
23.651064 66.222969 -52.572056
23.639399 63.82637 -52.712852
23.632206 61.443726 -52.799679
23.624836 59.062073 -52.888653
23.617559 56.682129 -52.976475
23.609653 54.302181 -53.071911
23.607836 51.937229 -53.093845
23.606836 49.574345 -53.105919
23.605474 47.210938 -53.122349
23.601116 44.842102 -53.174965
23.59676 42.474152 -53.227558
23.593311 40.108624 -53.269184
23.594128 37.750595 -53.259335
23.594763 35.392128 -53.251648
23.595942 33.034298 -53.237415
23.600481 30.680609 -53.182636
23.604929 28.325893 -53.128925
23.612015 25.973202 -53.043404
23.622652 23.622631 -52.914997
23.634026 21.270613 -52.777714
23.650425 18.92033 -52.579754
23.677074 16.57394 -52.258045
23.713772 14.228253 -51.815083
23.816502 11.908236 -50.575027
23.873682 9.5494585 -49.884823
23.994591 7.1983576 -48.425316
24.133236 4.8266282 -46.751709
24.288002 2.4287751 -44.883514
24.452852 -8.56117e-06 -42.893604
24.6245 -2.4624686 -40.821606
24.807201 -4.9614453 -38.616249
24.99263 -7.4978013 -36.377914
25.180853 -10.07236 -34.105843
25.380959 -12.690483 -31.690359
25.586407 -15.351863 -29.210394
25.788918 -18.052246 -26.765886
25.990694 -20.792559 -24.330219
26.201582 -23.581432 -21.784571
26.422861 -26.422888 -19.113485
26.647793 -29.312584 -16.398317
26.877531 -32.253056 -13.625144
27.111742 -35.245281 -10.797964
27.353119 -38.294384 -7.8842845
27.598957 -41.398449 -4.9167619
27.848246 -44.557209 -1.9076006
28.088821 -47.751011 0.99645221
27.862661 -50.152802 -1.7335632
27.755398 -52.735271 -3.028347
27.708017 -55.416054 -3.6002853
27.701761 -58.173706 -3.6758053
27.73708 -61.021584 -3.2494948
27.80508 -63.95171 -2.4286072
27.906128 -66.974724 -1.2088603
28.131453 -70.328636 1.5110197
29.474218 -76.632996 17.719664
29.057404 -78.455009 12.688263
28.676722 -80.29483 8.0930023
28.363853 -82.255188 4.3163466
28.106066 -84.318207 1.2045743
27.938406 -86.609077 -0.81923878
27.8442 -89.101448 -1.9564198
27.837757 -91.864601 -2.0342004
27.995518 -95.184776 -0.12984127
28.283178 -98.991135 3.3425231
28.584536 -102.90434 6.9802194
28.900955 -106.93355 10.799761
26.300653 71.729042 -49.450203
26.253899 69.214813 -49.963295
26.226862 66.759277 -50.259972
26.206495 64.32502 -50.48349
26.189207 61.901752 -50.673199
26.173565 59.485367 -50.844845
26.165548 57.088459 -50.932808
26.156015 54.689842 -51.037407
26.150036 52.300068 -51.103031
26.141731 49.906933 -51.19418
26.137579 47.522858 -51.239727
26.136265 45.144444 -51.254169
26.134747 42.765942 -51.270824
26.130699 40.383789 -51.315231
26.125944 38.001362 -51.36742
26.12109 35.619656 -51.420677
26.121193 33.245144 -51.419567
26.121901 30.871332 -51.411804
26.122606 28.497377 -51.404037
26.127258 26.127249 -51.352985
26.132317 23.756634 -51.29747
26.138695 21.386192 -51.227497
26.150442 19.018492 -51.098576
26.162302 16.648722 -50.96843
26.180267 14.280128 -50.771297
26.206495 11.91203 -50.483479
26.243792 9.543189 -50.074192
26.31963 7.1780696 -49.24197
26.410677 4.8019271 -48.242825
26.542278 2.4129288 -46.798695
26.694082 -2.1155693e-05 -45.132839
26.862808 -2.4420931 -43.281307
27.047003 -4.9176483 -41.259987
27.238911 -7.4288082 -39.154057
27.443043 -9.97931 -36.913979
27.649349 -12.567904 -34.650024
27.858784 -15.195705 -32.351784
28.080406 -17.869364 -29.919741
28.30784 -20.587532 -27.423962
28.528852 -23.341801 -24.998619
28.753344 -26.139418 -22.535116
