# .PCD v0.7 - Point Cloud Data file format
VERSION 0.7
FIELDS x y z
SIZE 4 4 4
TYPE F F F
COUNT 1 1 1
WIDTH 1512
HEIGHT 1
VIEWPOINT 0 0 0 1 0 0 0
POINTS 1512
DATA ascii
-9.6785135 -11.438243 -13.900843
-9.7084465 -12.356209 -13.572358
-9.7518578 -13.297988 -13.095975
-9.8061132 -14.263443 -12.500595
-9.8763456 -15.263445 -11.729886
-9.9826498 -16.335243 -10.563337
-10.2535 -17.710588 -7.5911188
-7.2360697 24.602638 -32.762829
-7.1957951 23.746122 -33.248989
-7.1594067 22.910103 -33.688236
-7.1276069 22.095579 -34.072102
-7.0965476 21.28964 -34.44701
-7.0658269 20.490898 -34.817844
-7.0321836 19.690111 -35.223953
-7.0029798 18.908043 -35.576477
-6.9738173 18.131926 -35.928497
-6.9445882 17.361469 -36.281326
-6.9154501 16.597078 -36.633057
-6.8862953 15.838478 -36.984978
-6.8573642 15.086202 -37.334209
-6.8295059 14.341961 -37.670486
-6.8025074 13.605016 -37.996391
-6.7741065 12.870804 -38.339218
-6.7465038 12.143703 -38.672417
-6.7196407 11.42339 -38.996685
-6.6925192 10.70803 -39.324062
-6.6660633 9.999095 -39.643414
-6.639493 9.2952862 -39.964146
-6.6156721 8.6003733 -40.25169
-6.5939283 7.9127154 -40.514164
-6.5728602 7.230145 -40.768482
-6.5549273 6.5549278 -40.984943
-6.5445991 5.8901381 -41.109627
-6.5504942 5.2403932 -41.038464
-6.5971284 4.6179895 -40.475536
-6.6903105 4.0141854 -39.350727
-6.8270779 3.4135375 -37.699799
-7.0281868 2.8112729 -35.272198
-8.7300406 2.6190095 -14.729012
-8.7034836 1.7406939 -15.049572
-8.7004395 0.87004185 -15.086321
-8.7148504 3.1545685e-06 -14.912372
-8.739522 -0.87395078 -14.614561
-8.7701626 -1.7540306 -14.244698
-8.8048773 -2.6414669 -13.825642
-8.8483381 -3.539336 -13.301034
-8.89711 -4.4485536 -12.71231
-8.969224 -5.381536 -11.841797
-8.970768 -6.2795415 -11.823164
-8.9123611 -7.1298909 -12.528196
-8.8888712 -7.9999824 -12.81175
-8.8754988 -8.8755026 -12.973163
-8.8698883 -9.7568817 -13.040895
-8.8822699 -10.658722 -12.891433
-8.8982306 -11.567703 -12.69877
-8.9283209 -12.49965 -12.335549
-8.9648533 -13.447278 -11.894571
-9.0071678 -14.411473 -11.383787
-9.0614605 -15.404484 -10.728416
-9.1357412 -16.444336 -9.8317595
-9.2810869 -17.634064 -8.0772905
-6.5234184 25.368849 -32.615894
-6.4738955 24.45694 -33.280106
-6.4392114 23.610441 -33.7453
-6.4065843 22.778967 -34.182903
-6.3773813 21.966534 -34.574581
-6.3507152 21.169052 -34.932232
-6.3227286 20.373236 -35.307594
-6.2960744 19.587788 -35.665096
-6.2682467 18.804743 -36.038322
-6.2422075 18.033041 -36.387581
-6.2161665 17.267128 -36.736839
-6.1901288 16.50701 -37.086067
-6.1649642 15.75491 -37.42358
-6.1391997 15.006932 -37.769142
-6.1136308 14.265137 -38.112083
-6.0896287 13.532509 -38.43401
-6.0646195 12.803083 -38.76944
-6.0400739 12.080145 -39.098652
-6.015708 11.363004 -39.425457
-5.9923396 10.653047 -39.73888
-5.9683199 9.9471979 -40.061035
-5.9456592 9.2488012 -40.364971
-5.9249682 8.5582867 -40.642483
-5.9042268 7.8723006 -40.920677
-5.8855987 7.1935086 -41.170521
-5.8707066 6.5230083 -41.370251
-5.8613267 5.8613262 -41.496063
-5.8678913 5.2159033 -41.408012
-5.909327 4.5961404 -40.852261
-5.9971552 3.9981022 -39.674282
-6.1220098 3.401113 -37.999706
-6.2946053 2.7976017 -35.684795
-8.0065203 2.6688361 -12.724092
-7.9503269 1.7667397 -13.477767
-7.9318242 0.88131422 -13.725931
-7.933773 -1.8987541e-06 -13.699798
-7.9501023 -0.88334352 -13.480783
-7.9733353 -1.7718517 -13.169171
-8.0056086 -2.6685367 -12.736313
-8.0429039 -3.5746248 -12.236104
-8.0821056 -4.4900618 -11.710315
-8.1310444 -5.4206972 -11.053934
-8.2219954 -6.3948836 -9.8340645
-8.1486349 -7.2432313 -10.818007
-8.1147995 -8.1148005 -11.271821
-8.1016502 -9.001832 -11.448182
-8.0945921 -9.8933897 -11.542839
-8.0985193 -10.798026 -11.490168
-8.1091537 -11.713223 -11.347537
-8.1320515 -12.649858 -11.040434
-8.1608887 -13.601484 -10.653646
-8.1956224 -14.569994 -10.187791
-8.2400169 -15.564476 -9.5923529
-8.2964802 -16.592964 -8.8350563
-8.3858337 -17.70343 -7.6366158
-5.760253 25.201105 -33.194412
-5.7200046 24.310017 -33.801723
-5.6911693 23.476074 -34.236805
-5.6624045 22.649614 -34.670837
-5.637012 21.84342 -35.053982
-5.6133571 21.050087 -35.410904
-5.5892935 20.26119 -35.773994
-5.5655942 19.47958 -36.13158
-5.5408154 18.700249 -36.50547
-5.5187945 17.936081 -36.837742
-5.4960504 17.175156 -37.18092
-5.4732881 16.419865 -37.52438
-5.4503064 15.669628 -37.871151
-5.4277353 14.926269 -38.211723
-5.4062347 14.191367 -38.536137
-5.384573 13.461432 -38.862988
-5.3625584 12.736073 -39.195164
-5.3418961 12.019264 -39.506931
-5.3195496 11.30404 -39.844112
-5.298912 10.597822 -40.155506
-5.2787371 9.8976316 -40.459934
-5.2593937 9.2039366 -40.751797
-5.240489 8.5157967 -41.037041
-5.2222037 7.8333035 -41.312954
-5.2062416 7.1585817 -41.553795
-5.1939645 6.4924545 -41.739044
-5.1860423 5.8342991 -41.858582
-5.1914549 5.1914558 -41.77692
-5.2312522 4.5773463 -41.176418
-5.3105955 3.9829469 -39.979218
-5.4218364 3.3886454 -38.300732
-5.5798359 2.7899179 -35.916698
-7.2482381 2.7180896 -10.742453
-7.1901407 1.7975374 -11.619073
-7.148138 0.89351374 -12.252836
-7.1413751 1.4338382e-06 -12.354892
-7.1478171 -0.8934769 -12.257686
-7.1661005 -1.7915252 -11.981819
-7.1923852 -2.6971443 -11.5852
-7.2208586 -3.6104314 -11.155573
-7.2542439 -4.5339026 -10.65183
-7.2961683 -5.4721289 -10.019241
-7.3474793 -6.4290485 -9.2450123
-7.3835425 -7.3835435 -8.7008686
-7.3265133 -8.2423306 -9.5613737
-7.3027711 -9.1284647 -9.9196043
-7.2972937 -10.033783 -10.002263
-7.2987232 -10.948087 -9.9806919
-7.3077693 -11.875126 -9.8441887
-7.3221626 -12.813786 -9.6270208
-7.344028 -13.770055 -9.2970943
-7.3750839 -14.750166 -8.8285007
-7.4068108 -15.739472 -8.3497772
-7.4482403 -16.758541 -7.7246466
-7.5097961 -17.835764 -6.7958465
-7.8076825 -19.519205 -2.3010919
-5.0069828 25.03491 -33.767597
-4.9755363 24.166889 -34.309868
-4.9508414 23.33968 -34.735714
-4.9268818 22.522886 -35.148891
-4.9051619 21.722858 -35.52343
-4.8844423 20.933325 -35.88073
-4.8638043 20.150045 -36.236618
-4.8434777 19.373911 -36.587139
-4.8231077 18.603416 -36.938404
-4.8030291 17.839823 -37.284649
-4.7840877 17.086025 -37.611282
-4.7636356 16.332462 -37.963966
-4.7439599 15.587295 -38.303265
-4.7253928 14.851233 -38.623436
-4.7063923 14.119178 -38.951088
-4.6871572 13.391877 -39.282791
-4.6687326 12.672273 -39.600513
-4.6504526 11.958305 -39.915741
-4.6322584 11.249772 -40.229481
-4.6138458 10.545933 -40.547001
-4.5973849 9.8515377 -40.830856
-4.5803151 9.1606283 -41.125214
-4.5638337 8.4756927 -41.40942
-4.5491719 7.7985773 -41.662254
-4.5349932 7.1264148 -41.906754
-4.5241737 6.4631033 -42.093338
-4.5174904 5.8081989 -42.208584
-4.5235591 5.1697798 -42.103931
-4.5611711 4.5611715 -41.455345
-4.629683 3.9683013 -40.273888
-4.7234554 3.3738949 -38.656849
-4.8653951 2.7802246 -36.209187
-6.311172 2.7047911 -11.27765
-6.4722257 1.8492088 -8.5003862
-6.3588433 0.9084022 -10.455584
-6.3328233 3.164168e-06 -10.904287
-6.3329806 -0.90471345 -10.901575
-6.3443089 -1.8126606 -10.706221
-6.3637824 -2.7273371 -10.370418
-6.3876076 -3.6500609 -9.9595766
-6.4140806 -4.5814848 -9.5030661
-6.4457326 -5.5249104 -8.9572449
-6.4850187 -6.4850168 -8.2797718
-6.5389333 -7.4730692 -7.3500528
-6.5058088 -8.3646097 -7.9212599
-6.4865289 -9.26647 -8.2537336
-6.4761105 -10.176744 -8.4333925
-6.4761105 -11.101903 -8.4333935
-6.4856777 -12.044829 -8.2684088
-6.4967055 -12.993412 -8.0782394
-6.5132484 -13.956964 -7.7929688
-6.5355301 -14.938356 -7.4087315
-6.5623469 -15.937128 -6.9462967
-6.5969315 -16.963539 -6.3499131
-6.6472178 -18.042454 -5.4827499
-6.7898812 -19.399662 -3.0226038
-4.2656322 24.882854 -34.29203
-4.2397699 24.025364 -34.81234
-4.2196488 23.208069 -35.217136
-4.200686 22.403658 -35.598652
-4.1823049 21.608572 -35.968449
-4.1639915 20.81996 -36.336876
-4.1467414 20.042582 -36.683926
-4.1297374 19.272108 -37.02602
-4.1125889 18.506647 -37.371017
-4.0957994 17.748463 -37.708794
-4.0792861 16.997025 -38.041027
-4.0618243 16.247297 -38.392326
-4.0456452 15.508304 -38.717823
-4.0299535 14.776492 -39.033524
-4.0136094 14.047633 -39.362328
-3.9979818 13.326606 -39.676731
-3.9826329 12.61167 -39.985538
-3.9675448 11.902631 -40.289085
-3.9516666 11.196387 -40.608528
-3.9371424 10.499046 -40.900738
-3.9228299 9.8070717 -41.188679
-3.9093423 9.1217966 -41.460026
-3.8957739 8.4408426 -41.733002
-3.8833902 7.766777 -41.982143
-3.8713586 7.0974913 -42.224201
-3.8625455 6.4375763 -42.401505
-3.855798 5.7836967 -42.537254
-3.8628523 5.1504664 -42.395329
-3.8987579 4.5485506 -41.672966
-3.9583724 3.9583716 -40.473621
-4.0365677 3.3638048 -38.900448
-4.157032 2.7713559 -36.476891
-5.3863688 2.6931865 -11.744555
-5.5251923 1.8417305 -8.9516315
-5.5687466 0.92812103 -8.0753918
-5.5161648 5.989628e-07 -9.1332531
-5.5038657 -0.91731226 -9.3806887
-5.5074434 -1.835815 -9.3087139
-5.5197353 -2.7598672 -9.0614204
-5.5380073 -3.6920073 -8.6938171
-5.5599055 -4.6332593 -8.2532568
-5.5853248 -5.5853281 -7.7418532
-5.6113138 -6.546535 -7.2190042
-5.6379809 -7.5173097 -6.6824932
-5.6457853 -8.4686766 -6.5254831
-5.6381021 -9.3968401 -6.6800604
-5.6344981 -10.329913 -6.752573
-5.6368194 -11.27364 -6.7058649
-5.64433 -12.229383 -6.5547705
-5.6535149 -13.191536 -6.3699875
-5.6699409 -14.174851 -6.0395069
-5.6877937 -15.167451 -5.6803374
-5.7244625 -16.219313 -4.9426289
-5.8042083 -17.412622 -3.3382692
-5.7985444 -18.362061 -3.4522123
-5.8112969 -19.370987 -3.195658
-5.9224677 -20.72864 -0.95907021
-3.6104555 25.995277 -32.945812
-3.5335977 24.735186 -34.801323
-3.5141048 23.895912 -35.271927
-3.4973383 23.082432 -35.676701
-3.4815619 22.281992 -36.057579
-3.4664979 21.492287 -36.421261
-3.4521081 20.712645 -36.768661
-3.4379127 19.939894 -37.111366
-3.4235444 19.171846 -37.458241
-3.4092324 18.409853 -37.803772
-3.3951864 17.654966 -38.142868
-3.3817575 16.908787 -38.467075
-3.3684344 16.168484 -38.788719
-3.3550103 15.433046 -39.112808
-3.3421211 14.705331 -39.423981
-3.329422 13.983571 -39.730564
-3.3164468 13.265786 -40.043812
-3.3039215 12.554904 -40.346195
-3.2913125 11.848722 -40.650608
-3.2789955 11.148583 -40.94796
-3.2675509 10.456163 -41.224262
-3.2557499 9.7672472 -41.509163
-3.2453229 9.0869064 -41.760891
-3.2351635 8.4114246 -42.006165
-3.2260084 7.7424192 -42.227184
-3.2180023 7.0796046 -42.420467
-3.2115526 6.4231029 -42.57618
-3.2075241 5.773541 -42.673439
-3.2153554 5.1445646 -42.484379
-3.2461221 4.5445681 -41.7416
-3.2923324 3.9507954 -40.625988
-3.3556378 3.3556352 -39.09766
-3.4550178 2.7640126 -36.69841
-4.4667659 2.6800606 -12.272649
-4.5815821 1.8326329 -9.5007505
-4.7022743 0.94045591 -6.5869741
-4.684 -1.8005873e-06 -7.0281467
-4.6601853 -0.93203872 -7.603096
-4.6534281 -1.8613751 -7.7662215
-4.6606812 -2.7964094 -7.5911174
-4.6717629 -3.7374101 -7.3235779
-4.6893992 -4.6893997 -6.8978086
-4.7079382 -5.6495295 -6.4502339
-4.7264204 -6.616991 -6.0040345
-4.7430124 -7.5888228 -5.6034722
-4.7516818 -8.553031 -5.3941603
-4.7585206 -9.5170431 -5.2290645
-4.7659187 -10.485019 -5.0504622
-4.7757349 -11.461768 -4.8134694
-4.7891736 -12.451851 -4.4890471
-4.8758883 -13.65249 -2.3955653
-4.8662405 -14.598722 -2.6284876
-4.8585277 -15.547289 -2.8146868
-4.8527327 -16.499292 -2.9545908
-4.8503022 -17.461088 -3.0132639
-4.8536797 -18.443983 -2.9317281
-4.8737817 -19.495125 -2.4464204
-4.9368148 -20.734621 -0.92467481
-2.8720295 25.848265 -33.438759
-2.8106973 24.593599 -35.289631
-2.7957444 23.763828 -35.740868
-2.7829123 22.959023 -36.128113
-2.7705305 22.164244 -36.50177
-2.7585452 21.378721 -36.863453
-2.7472579 20.604433 -37.204079
-2.7360539 19.83639 -37.542187
-2.7247968 19.073576 -37.881901
-2.7138844 18.318718 -38.211216
-2.7032175 17.570913 -38.533115
-2.6928246 16.830154 -38.846745
-2.6820922 16.092554 -39.17062
-2.6716084 15.361746 -39.487007
-2.6615214 14.638368 -39.791412
-2.651912 13.922534 -40.081402
-2.6420205 13.210102 -40.379894
-2.6324642 12.504204 -40.668285
-2.6233222 11.804946 -40.944168
-2.6146264 11.11216 -41.206593
-2.6062284 10.424911 -41.460026
-2.598439 9.7441435 -41.695084
-2.5918698 9.0715418 -41.893326
-2.5857613 8.4037228 -42.077671
-2.5812404 7.7437191 -42.214096
-2.5780027 7.0895052 -42.311806
-2.5760911 6.4402261 -42.369495
-2.5776308 5.7996697 -42.323029
-2.5845246 5.1690488 -42.11499
-2.6029351 4.5551362 -41.559399
-2.6334538 3.950181 -40.638416
-2.6794412 3.3493004 -39.250633
-3.4714549 3.4714558 -15.349502
-3.5557652 2.6668234 -12.805214
-3.6472938 1.8236455 -10.043093
-3.743243 0.93580717 -7.1475673
-3.8505647 -1.1044763e-06 -3.9088418
-3.7955613 -0.94889116 -5.5687194
-3.7822635 -1.8911314 -5.9700227
-3.7808423 -2.8356304 -6.012907
-3.7899914 -3.7899923 -5.7368093
-3.8024187 -4.7530222 -5.3617802
-3.8154933 -5.7232413 -4.9672275
-3.8302658 -6.7029629 -4.5214219
-3.8429255 -7.6858525 -4.1393795
-3.8554144 -8.6746836 -3.7624981
-3.8762219 -9.6905556 -3.1345751
-3.9268661 -10.798884 -1.6062475
-3.920167 -11.760501 -1.8084131
-3.9144709 -12.722032 -1.9803125
-3.9095414 -13.683394 -2.1290681
-3.9064016 -14.649007 -2.2238214
-3.9042938 -15.617179 -2.2874272
-3.9041197 -16.59251 -2.2926826
-3.9077616 -17.584929 -2.1827819
-3.9170277 -18.605885 -1.903151
-3.93327 -19.666351 -1.4129921
-3.9730375 -20.85845 -0.21290679
-4.1564283 -22.860357 5.321413
-2.1121659 25.345991 -35.122925
-2.0960655 24.454094 -35.770763
-2.0860171 23.641527 -36.175072
-2.0763538 22.839891 -36.563896
-2.0675929 22.054325 -36.916405
-2.0589833 21.276159 -37.262833
-2.0504 20.504 -37.608189
-2.042352 19.742735 -37.93203
-2.0343287 18.987066 -38.254852
-2.0265622 18.239059 -38.567352
-2.0188484 17.496687 -38.877724
-2.0110888 16.759069 -39.189957
-2.0032783 16.026222 -39.504227
-1.9961349 15.303701 -39.791653
-1.9891628 14.587193 -40.072186
-1.9822572 13.875798 -40.350048
-1.976095 13.173965 -40.597996
-1.9698881 12.47596 -40.847744
-1.9646072 11.787642 -41.060223
-1.9596587 11.104733 -41.259338
-1.9560162 10.432088 -41.405907
-1.9528517 9.7642574 -41.533241
-1.9506007 9.1028004 -41.623802
-1.9490724 8.4459763 -41.685307
-1.9480487 7.7921958 -41.72649
-1.9483435 7.1439228 -41.714626
-1.9484938 6.4949765 -41.70858
-1.950734 5.8522034 -41.618443
-1.9552648 5.2140403 -41.436138
-1.9641607 4.5830388 -41.078194
-1.9812645 3.9625275 -40.389999
-2.0103006 3.3504996 -39.221668
-2.5928068 3.4570758 -15.783429
-2.6538684 2.6538675 -13.326494
-2.7222474 1.8148296 -10.575143
-2.7934823 0.93116373 -7.7088737
-2.873919 -4.0179793e-06 -4.4723458
-2.9182906 -0.97276294 -2.6869667
-2.8867557 -1.924502 -3.9558408
-2.8812835 -2.8812873 -4.1760192
-2.8865526 -3.8487363 -3.9640095
-2.8958073 -4.8263459 -3.5916357
-2.9089694 -5.8179398 -3.0620222
-2.9263411 -6.8281274 -2.3630435
-2.9643755 -7.9050031 -0.83266765
-2.9597523 -8.8792582 -1.0186881
-2.9565673 -9.8552237 -1.1468412
-2.9539869 -10.831285 -1.2506664
-2.9532962 -11.813185 -1.2784646
-2.9521143 -12.792494 -1.3260132
-2.95157 -13.773995 -1.3479041
-2.95157 -14.757854 -1.3479024
-2.9525125 -15.746734 -1.3099886
-2.9549041 -16.744457 -1.2137609
-2.9592187 -17.755312 -1.0401534
-2.9669335 -18.790581 -0.72973126
-2.9810226 -19.873482 -0.1628323
-3.0054872 -21.038406 0.82153642
-3.0654976 -22.480318 3.2361858
-1.3989577 25.181236 -35.67535
-1.3901393 24.32744 -36.207588
-1.3834747 23.51907 -36.609837
-1.3776492 22.731211 -36.961437
-1.3720144 21.952229 -37.301521
-1.3662167 21.176355 -37.651451
-1.3610049 20.415073 -37.966011
-1.3557445 19.658293 -38.283501
-1.3506745 18.909443 -38.589497
-1.3456632 18.166449 -38.89196
-1.3409107 17.431839 -39.178806
-1.3365505 16.706879 -39.441959
-1.3323483 15.988178 -39.695583
-1.3283297 15.275788 -39.938126
-1.3247401 14.572139 -40.154785
-1.3215725 13.876512 -40.345955
-1.3189565 13.189563 -40.503853
-1.3170359 12.511842 -40.61977
-1.3153658 11.838291 -40.720566
-1.3144062 11.172451 -40.778488
-1.3138381 10.510703 -40.812778
-1.3136647 9.8524837 -40.823242
-1.3128097 9.1896658 -40.874844
-1.3129003 8.5338507 -40.869377
-1.3128058 7.8768344 -40.875076
-1.3129278 7.2211003 -40.86771
-1.3138658 6.5693278 -40.811108
-1.3150142 5.9175625 -40.741787
-1.3176583 5.2706327 -40.582207
-1.3212935 4.6245236 -40.362808
-1.3290354 3.9871032 -39.895531
-1.3437343 3.3593376 -39.008385
-1.7215633 3.4431269 -16.204378
-1.7615141 2.6422689 -13.793141
-1.806183 1.8061821 -11.097137
-1.8533881 0.92669505 -8.2480478
-1.9066582 -1.164762e-06 -5.0329213
-1.9650283 -0.98251665 -1.5099685
-1.9720215 -1.9720215 -1.0878977
-1.9584613 -2.9376934 -1.9063227
-1.9937204 -3.9874425 0.22175492
-1.9891003 -4.9727521 -0.05710109
-1.9859419 -5.9578247 -0.24772125
-1.9839438 -6.9438038 -0.36831415
-1.9829553 -7.9318252 -0.42797792
-1.982614 -8.9217672 -0.44857523
-1.9835393 -9.9177008 -0.39273113
-1.9843396 -10.913868 -0.34443524
-1.9861221 -11.916734 -0.23684226
-1.9877365 -12.920285 -0.13941675
-1.9874206 -13.911947 -0.15847254
-1.9877906 -14.908427 -0.13614726
-1.9877996 -15.902397 -0.13559748
-1.9903665 -16.918116 0.019323761
-1.9943925 -17.949533 0.2623207
-1.9999963 -18.999964 0.60053575
-2.0084844 -20.084846 1.1128361
-2.0226831 -21.238174 1.9698067
-2.0501926 -22.552118 3.6301579
-0.69566834 25.04406 -36.135319
-0.69191664 24.217081 -36.588196
-0.68874222 23.417238 -36.971378
-0.68592554 22.635542 -37.311386
-0.68319786 21.862329 -37.640636
-0.68067807 21.101019 -37.944809
-0.6783008 20.349022 -38.231773
-0.67599434 19.603832 -38.510189
-0.67390466 18.869331 -38.762428
-0.67203832 18.145035 -38.987717
-0.67027462 17.427139 -39.200615
-0.66890633 16.722656 -39.365788
-0.66778791 16.026909 -39.500782
-0.66684598 15.337455 -39.614491
-0.66624719 14.657435 -39.686768
-0.66578108 13.981402 -39.743034
-0.66560692 13.312138 -39.764053
-0.66546327 12.6438 -39.781399
-0.66535205 11.976332 -39.794827
-0.66474783 11.300711 -39.867756
-0.66475594 10.636093 -39.866783
-0.664554 9.9683123 -39.891151
-0.66460449 9.3044596 -39.885059
-0.66474581 8.6416931 -39.868004
-0.6649437 7.9793239 -39.844116
-0.66489321 7.3138261 -39.850208
-0.66547537 6.6547523 -39.77993
-0.66626549 5.9963899 -39.684566
-0.66715288 5.3372231 -39.577442
-0.66869783 4.6808853 -39.390949
-0.67110491 4.0266266 -39.100395
-0.67616343 3.3808124 -38.489765
-0.8567453 3.4269786 -16.691614
-0.87737131 2.6321127 -14.201838
-0.89882296 1.7976429 -11.612388
-0.92228562 0.92228484 -8.780201
-0.94851613 -1.1685955e-06 -5.6138916
-0.97770846 -0.9777106 -2.0900643
-1.0070839 -2.014168 1.4558491
-1.0018795 -3.0056393 0.82762682
-0.9989804 -3.995923 0.47767955
-0.99781907 -4.9890966 0.33750099
-0.9976508 -5.9859052 0.31718469
-0.99784636 -6.9849291 0.34079561
-0.99852008 -7.988163 0.42211974
-1.0000941 -9.0008459 0.61212105
-1.0015355 -10.015358 0.78612781
-1.003846 -11.042311 1.0650209
-1.0060377 -12.072451 1.3295734
-1.0064309 -13.083603 1.3770384
-1.005594 -14.078318 1.2760175
-1.0052245 -15.078369 1.2314184
-1.0052569 -16.084114 1.2353172
-1.0064679 -17.109959 1.3815094
-1.008211 -18.147799 1.5919236
-1.0109352 -19.207773 1.920753
-1.0155083 -20.310167 2.4727693
-1.0216657 -21.454981 3.216037
-1.0324997 -22.714996 4.5238194
-1.0659012 -24.51573 8.5557356
-3.5464473e-24 26.093271 -34.981907
1.1698258e-23 24.926966 -36.52795
-1.1846009e-23 24.117592 -36.931332
5.4904719e-25 23.343414 -37.233467
-1.4731807e-23 22.57795 -37.52206
1.376154e-23 21.828335 -37.76889
5.4222575e-24 21.087446 -37.997665
1.4014221e-23 20.365873 -38.163967
-8.5063818e-25 19.652634 -38.307064
-5.2997632e-24 18.947153 -38.426937
-6.0571454e-24 18.253765 -38.501617
1.4897581e-23 17.564892 -38.561062
-1.4944282e-23 16.875937 -38.625698
5.8562762e-24 16.191458 -38.673168
2.6925464e-24 15.513037 -38.692993
-2.6935435e-24 14.835675 -38.708797
6.3997193e-24 14.162724 -38.700768
-1.6632848e-23 13.480212 -38.749657
-3.5454186e-24 12.805727 -38.752659
-4.6621364e-24 12.130806 -38.758923
2.5898682e-24 11.457083 -38.75742
7.814027e-24 10.783803 -38.752407
-6.5978054e-24 10.110778 -38.744644
4.3720565e-25 9.4355364 -38.754913
-2.7563431e-24 8.7634039 -38.737877
-6.1847515e-24 8.0900183 -38.73061
1.2669674e-24 7.4223228 -38.659611
9.9771151e-24 6.7507448 -38.621174
-8.0624614e-24 6.0831037 -38.521526
2.0807582e-23 5.4140201 -38.418602
1.3186927e-23 4.7492065 -38.212738
2.3605621e-24 4.0881219 -37.863216
1.1761515e-23 4.1752386 -19.310654
-8.0267481e-24 3.4127531 -17.120943
-1.1224124e-23 2.6199005 -14.693273
2.2922373e-24 1.7892523 -12.118818
-1.2307571e-24 0.91787696 -9.3124285
-5.3514817e-24 -2.8300365e-06 -6.1492233
-1.082331e-23 -0.97261745 -2.7047086
-2.0931926e-23 -2.0046403 0.88078988
-2.2162776e-23 -3.0738654 3.572813
-2.0328882e-23 -4.0285759 1.4631228
-3.2547e-23 -5.0273004 1.2598388
-2.828131e-23 -6.0343657 1.2921849
1.0914235e-23 -7.0453424 1.3826271
1.3310695e-24 -8.066618 1.6059386
-2.0344133e-23 -9.0955172 1.8818741
-1.2887901e-23 -10.134156 2.2202041
-3.10875e-23 -11.193181 2.7206666
2.5478453e-23 -12.321528 3.8350749
-7.7190939e-24 -13.307869 3.4594378
9.8137594e-24 -14.278461 3.0016935
-2.6127799e-23 -15.277702 2.8355517
-2.17821e-23 -16.28546 2.7543664
7.2091158e-24 -17.310223 2.8035271
1.3532625e-24 -18.363581 3.0389876
1.5927572e-23 -19.429697 3.3306968
1.7564927e-23 -20.530775 3.8042641
-4.3848136e-23 -21.687197 4.5508642
-9.1881564e-24 -22.91148 5.6019092
-6.2848643e-24 -24.387581 7.8831944
0.70510316 26.088816 -34.996445
0.69146419 24.89271 -36.642811
0.68940604 24.129208 -36.891247
0.68787861 23.387869 -37.07563
0.68677348 22.663525 -37.209026
0.68611693 21.955738 -37.288284
0.68557107 21.252705 -37.354176
0.68503463 20.551039 -37.418926
0.68450975 19.850782 -37.482285
0.68436211 19.162136 -37.500111
0.68420166 18.473444 -37.519478
0.68425083 17.79052 -37.513538
0.68384892 17.096222 -37.56205
0.68384677 16.412321 -37.562309
0.68366092 15.7242 -37.584743
0.68362254 15.039695 -37.589378
0.68365246 14.356699 -37.585773
0.68368876 13.673772 -37.58139
0.68374425 12.991141 -37.574688
0.6838147 12.308663 -37.566177
0.6839323 11.626846 -37.551991
0.68403912 10.944625 -37.539093
0.68394727 10.259208 -37.550186
0.6842187 9.5790615 -37.51741
0.6844027 8.8972359 -37.495201
0.68526196 8.2231464 -37.391483
0.68554312 7.5409727 -37.357544
0.68693948 6.8693938 -37.188992
0.76808196 6.912735 -27.394228
0.78308588 6.2646842 -25.583094
0.79830897 5.5881629 -23.745506
0.81503606 4.8902154 -21.726372
0.83190638 4.1595263 -19.689934
0.84996819 3.3998747 -17.509684
0.86956006 2.6086779 -15.144736
0.89096767 1.7819334 -12.560609
0.91351312 0.91351008 -9.8391256
0.93952233 -2.1457495e-06 -6.6995382
0.96799266 -0.96799356 -3.2628701
0.99738264 -1.9947691 0.28481194
1.0190922 -3.0572779 2.9053884
1.0257208 -4.1028843 3.7055452
1.0177606 -5.0888004 2.7446542
1.0167347 -6.100409 2.6208229
1.0170654 -7.1194568 2.6607373
1.0190542 -8.1524343 2.9008057
1.0216609 -9.1949492 3.2154551
1.0251443 -10.251446 3.6359568
1.0296098 -11.325707 4.1749816
1.0364845 -12.437816 5.0048251
1.0488517 -13.635072 6.4976788
1.0367103 -14.513944 5.032084
1.032904 -15.49356 4.5726342
1.0313029 -16.500845 4.3793535
1.0316724 -17.538431 4.4239545
1.0322611 -18.5807 4.4950132
1.0350533 -19.666012 4.8320622
1.0389049 -20.778097 5.2969956
1.0444922 -21.934338 5.9714408
1.0523514 -23.151731 6.9201283
1.0663946 -24.527077 8.6152945
1.1128888 -26.709332 14.227641
1.3932275 24.381481 -36.021198
1.3915092 23.655659 -36.124908
1.3901834 22.938025 -36.204922
1.3893981 22.230368 -36.252327
1.3890939 21.530956 -36.270683
1.3886092 20.829136 -36.299942
1.3882041 20.12896 -36.32439
1.3878037 19.429251 -36.348564
1.38827 18.741646 -36.320404
1.3881997 18.046595 -36.324661
1.3881117 17.351395 -36.329971
1.3875924 16.65111 -36.361305
1.3879929 15.961917 -36.337147
1.38827 15.270971 -36.320408
1.3878257 14.572168 -36.347233
1.3883538 13.883535 -36.315357
1.3887017 13.192665 -36.294353
1.3888824 12.49994 -36.283451
1.389623 11.811794 -36.238747
1.3903159 11.122529 -36.196926
1.3908372 10.431279 -36.16547
1.3937954 9.756568 -35.986931
1.4278834 9.2812424 -33.929535
1.4471231 8.6827383 -32.768314
1.4733757 8.1035652 -31.183832
1.502035 7.5101752 -29.454088
1.5312687 6.8907099 -27.68968
1.5603437 6.241374 -25.934849
1.5915561 5.570447 -24.051012
1.6240488 4.872148 -22.089905
1.6577766 4.1444421 -20.054249
1.6934983 3.3869946 -17.89826
1.7324852 2.5987279 -15.545195
1.7753733 1.77537 -12.956656
1.8190849 0.90953946 -10.318428
1.8701184 -3.1001728e-06 -7.2382898
1.9266976 -0.96334714 -3.8234339
1.9844295 -1.9844317 -0.33900496
2.0267944 -3.0401957 2.2179434
2.0779479 -4.1558986 5.3053327
2.0717916 -5.1794815 4.9337678
2.0605571 -6.1816707 4.2557106
2.0584934 -7.2047281 4.1311488
2.0615275 -8.24611 4.3142815
2.0662177 -9.2979794 4.5973511
2.073509 -10.367544 5.0374179
2.0821087 -11.451598 5.5564647
2.095083 -12.570498 6.3395276
2.1119628 -13.727757 7.3583174
2.1125541 -14.78788 7.3939991
2.1004612 -15.753461 6.6641278
2.0942311 -16.753849 6.2881074
2.0913596 -17.776558 6.1148009
2.0925393 -18.832853 6.1859961
2.0961866 -19.913773 6.4061337
2.1038125 -21.038128 6.8664069
2.1136658 -22.193491 7.4610987
2.1279993 -23.407993 8.3261948
2.1498199 -24.722927 9.6431913
2.194458 -26.333494 12.337335
2.1205423 24.03281 -34.785896
2.1173899 23.291288 -34.912731
2.1150913 22.560974 -35.005215
2.1146555 21.851439 -35.022751
2.1133282 21.13328 -35.076153
2.1131516 20.42713 -35.083267
2.1130767 19.72205 -35.086277
2.1127708 19.014935 -35.098591
2.1140087 18.321407 -35.048779
2.1139746 17.616455 -35.050148
2.1143899 16.915119 -35.03344
2.114778 16.213297 -35.017826
2.1158752 15.516418 -34.973675
2.1164753 14.815327 -34.949528
2.1175742 14.11716 -34.905315
2.1213574 13.435264 -34.75309
2.1357017 12.814209 -34.175919
2.1288126 12.063272 -34.453121
2.1236007 11.325867 -34.662823
2.1203573 10.601787 -34.793335
2.1190844 9.8890629 -34.844543
2.1351879 9.2524776 -34.196594
2.1654303 8.6617193 -32.979733
2.2032044 8.0784159 -31.459822
2.2460241 7.4867473 -29.736891
2.289495 6.868484 -27.987755
2.3331306 6.2216811 -26.231989
2.3797464 5.552743 -24.356321
2.4280741 4.8561473 -22.411764
2.4771245 4.128541 -20.438128
2.530653 3.3742015 -18.2843
2.5889835 2.5889826 -15.937272
2.6515 1.7676648 -13.421791
2.718787 0.90626311 -10.714375
2.7920096 -1.8110976e-06 -7.768136
2.8731518 -0.95771658 -4.5032144
2.9620085 -1.974672 -0.92790151
3.0255949 -3.0255954 1.6306149
3.0981421 -4.1308594 4.5496907
3.1812663 -5.302114 7.8943577
3.1407006 -6.2814021 6.2621155
3.1303248 -7.3040938 5.8446245
3.1300411 -8.3467741 5.8332105
3.1354368 -9.406312 6.0503087
3.145967 -10.486558 6.47402
3.1584208 -11.580875 6.9751153
3.1755893 -12.702356 7.6659245
3.1976724 -13.85658 8.5544844
3.2356465 -15.099686 10.082439
3.2060409 -16.030203 8.8912001
3.190975 -17.018534 8.2850008
3.1852479 -18.049742 8.0545568
3.1837499 -19.102499 7.9942789
3.1867626 -20.182833 8.1155109
3.1971741 -21.314493 8.5344362
3.210367 -22.472567 9.0652723
3.2292497 -23.681166 9.8250532
3.2568462 -24.969154 10.935461
3.301966 -26.415728 12.750935
3.4530499 -28.775417 18.830088
2.8750758 23.719379 -33.346828
2.8663504 22.930799 -33.610146
2.8642592 22.198009 -33.673248
2.8635192 21.476391 -33.69558
2.8643904 20.766832 -33.669292
2.8627982 20.039585 -33.717342
2.8640156 19.332106 -33.680599
2.8652809 18.624323 -33.642414
2.8669982 17.918736 -33.590603
2.8706172 17.223701 -33.481384
2.9259231 16.824059 -31.812378
2.9243791 16.084084 -31.858973
2.8841398 15.141733 -33.073299
2.8637533 14.318766 -33.688515
2.8481119 13.528529 -34.160545
2.8371933 12.767367 -34.49004
2.8300123 12.027552 -34.706738
2.8254642 11.301856 -34.84399
2.8265314 10.599493 -34.811787
2.8301406 9.9054909 -34.702877
2.8488069 9.2586193 -34.139568
2.8836269 8.6508818 -33.088783
2.929575 8.0563278 -31.702171
2.9833207 7.4583025 -30.08025
3.0428782 6.8464737 -28.282953
3.1013532 6.202704 -26.518311
3.1631365 5.5354896 -24.653833
3.2254934 4.8382416 -22.772053
3.2918551 4.1148138 -20.769403
3.361805 3.3618004 -18.658476
3.4392855 2.5794625 -16.320295
3.5204782 1.7602372 -13.870092
3.6096406 0.90240765 -11.179382
3.7058036 -2.0957152e-06 -8.2774029
3.8126187 -0.95315802 -5.053968
3.9300566 -1.9650313 -1.509964
4.0140219 -3.0105166 1.0239078
4.1099906 -4.109992 3.9200222
4.2156887 -5.2696099 7.1097393
4.2928305 -6.4392467 9.4376993
4.2417707 -7.4230995 7.8968387
4.2300277 -8.4600544 7.5424557
4.2340779 -9.5266762 7.6646934
4.2450614 -10.612656 7.9961433
4.2619443 -11.720348 8.5056334
4.2837777 -12.851333 9.164506
4.3097143 -14.00657 9.9472141
4.3444009 -15.205401 10.993981
4.3718653 -16.394497 11.822788
4.3274584 -17.309839 10.482703
4.3153648 -18.340302 10.117735
4.3103085 -19.396389 9.9651451
4.3111362 -20.477898 9.9901247
4.3206673 -21.603338 10.277755
4.336504 -22.766649 10.755666
4.3587189 -23.97296 11.426068
4.3892899 -25.238417 12.348624
4.4340825 -26.604494 13.700361
4.532115 -28.325718 16.658752
3.6494763 22.626751 -32.003765
3.6463878 21.878326 -32.078331
3.7217829 21.586338 -30.258135
3.713448 20.795309 -30.459352
3.710892 20.038816 -30.521063
3.7111058 19.29775 -30.5159
3.7096214 18.548107 -30.551735
3.7085781 17.801174 -30.576923
3.7096717 17.064489 -30.550524
3.7088544 16.31896 -30.57025
3.6081223 15.154113 -33.002136
3.5847337 14.338933 -33.566795
3.5670674 13.554856 -33.993301
3.556484 12.803342 -34.248802
3.5544856 12.085246 -34.297047
3.5575476 11.384151 -34.223125
3.5630143 10.689039 -34.091145
3.5735316 10.005888 -33.837234
3.5878363 9.328373 -33.49189
3.6118019 8.6683245 -32.913307
3.6556814 8.0424976 -31.853964
3.7169669 7.4339342 -30.374401
3.7889674 6.8201408 -28.636158
3.8641942 6.1827092 -26.820023
3.9410205 5.517427 -24.965269
4.0194721 4.8233652 -23.071278
4.1022177 4.1022182 -21.073631
4.1870952 3.3496773 -19.024504
4.2836757 2.5702016 -16.692831
4.3833776 1.7533503 -14.285828
4.4926205 0.8985225 -11.648468
4.6121469 -5.3153309e-07 -8.762846
4.7435675 -0.94871503 -5.5900722
4.8894162 -1.9557662 -2.0689757
4.9910069 -2.9946034 0.38364148
5.1099262 -4.0879431 3.254616
5.2424245 -5.2424231 6.4534006
5.3885751 -6.46629 9.9817963
5.4178658 -7.5850153 10.688939
5.3758168 -8.6013088 9.6737871
5.3679328 -9.6622772 9.4834433
5.3749719 -10.749946 9.6533852
5.3941531 -11.867134 10.116446
5.4180002 -13.003202 10.692174
5.4489141 -14.167176 11.438508
5.4886484 -15.368217 12.397776
5.5459461 -16.637838 13.781055
5.5126185 -17.640381 12.976467
5.4850721 -18.649244 12.311441
5.4736876 -19.705273 12.036582
5.470787 -20.78899 11.96656
5.4784822 -21.913931 12.152352
5.4950695 -23.079292 12.552799
5.5200143 -24.288065 13.155021
5.5539956 -25.548376 13.975389
5.599978 -26.879892 15.085512
5.6763387 -28.381697 16.929029
4.5233946 20.355276 -29.106243
4.5216351 19.593754 -29.141649
4.5222578 18.842739 -29.129118
4.5230522 18.092211 -29.113138
4.5226007 17.336636 -29.122225
4.5211215 16.577444 -29.151983
4.5204678 15.821637 -29.165133
4.3764529 14.588173 -32.062485
4.3465996 13.764233 -32.663094
4.329433 12.988297 -33.008457
4.3228064 12.247949 -33.141773
4.3238454 11.530252 -33.120869
4.3286195 10.821545 -33.024818
4.3399487 10.126544 -32.79689
4.354064 9.4338064 -32.512913
4.3711796 8.7423601 -32.168575
4.3993382 8.0654535 -31.602072
4.456183 7.426971 -30.458441
4.5337949 6.8006887 -28.897005
4.6232877 6.1643825 -27.096552
4.7115111 5.4967637 -25.321629
4.8073874 4.807384 -23.392748
4.9044061 4.0870013 -21.440886
5.008934 3.3392866 -19.33795
5.1216273 2.5608144 -17.07074
5.2413478 1.7471154 -14.662142
5.3718491 0.89531016 -12.036662
5.5084138 1.1024171e-06 -9.2891932
5.665905 -0.94431788 -6.1207104
5.8401113 -1.9467012 -2.6159508
5.9591503 -2.979578 -0.22106853
6.100522 -4.0670147 2.6230989
6.2543883 -5.211988 5.7186494
6.4305115 -6.4305134 9.2619877
6.6164417 -7.7191844 13.002614
6.5815263 -8.7753649 12.300159
6.5466833 -9.8200254 11.599174
6.5448236 -10.908039 11.561761
6.5584526 -12.02383 11.835966
6.5868077 -13.173615 12.406419
6.6174421 -14.337793 13.022739
6.6588807 -15.537389 13.856412
6.7113194 -16.778297 14.911404
6.7941279 -18.117672 16.577379
6.7056313 -18.999287 14.796961
6.6789966 -20.036991 14.261116
6.671227 -21.125555 14.104807
6.6733289 -22.244429 14.147092
6.6910768 -23.418768 14.504154
6.7198706 -24.639524 15.083433
6.7561002 -25.898386 15.812316
6.8019753 -27.207897 16.735252
6.8679967 -28.616653 18.063507
7.0411 -30.511435 21.546076
5.3604341 19.910185 -27.672541
5.3593841 19.140659 -27.690649
5.3606782 18.379467 -27.668341
5.3617282 17.617107 -27.650221
5.3588963 16.842247 -27.699057
5.3603778 16.081131 -27.673513
5.3590655 15.311613 -27.696142
5.3600969 14.548833 -27.67836
5.1505051 13.244156 -31.292641
5.1298285 12.458156 -31.649187
5.1220431 11.707528 -31.783449
5.1228309 10.977495 -31.769865
5.1298804 10.259762 -31.648302
5.1411891 9.5479221 -31.453281
5.1573529 8.841176 -31.174549
5.1796002 8.1393681 -30.790915
5.2152491 7.4503555 -30.176168
5.2820058 6.7911506 -29.024986
5.3773661 6.1455612 -27.380556
5.4819541 5.4819541 -25.577007
5.588346 4.7900066 -23.742338
5.7026825 4.0733428 -21.770676
5.8238535 3.3279164 -19.681156
5.9528751 2.5512285 -17.456264
6.0929475 1.7408385 -15.040799
6.2428474 0.8918345 -12.455873
6.4050975 -2.5102349e-06 -9.657959
6.5795374 -0.93993253 -6.6498661
6.7809863 -1.9374233 -3.1759918
6.9200625 -2.9657419 -0.7777186
7.0824995 -4.0471406 2.023416
7.2581749 -5.1844096 5.0528307
7.4570961 -6.391799 8.4830942
7.6713347 -7.6713343 12.177516
7.9261136 -9.0584145 16.571016
7.7836514 -10.007552 14.114345
7.7583084 -11.083302 13.677327
7.7605095 -12.195088 13.715276
7.7849569 -13.345643 14.136857
7.8208804 -14.524496 14.756334
7.8653245 -15.73065 15.522747
7.9199266 -16.971275 16.464334
7.9909325 -18.264992 17.688778
7.9753757 -19.368771 17.420513
7.9407377 -20.419039 16.823195
7.9247198 -21.509954 16.546978
7.9228759 -22.636786 16.515181
7.9367065 -23.810122 16.753691
7.9629822 -25.026516 17.206791
8.0019913 -26.292261 17.879492
8.0463266 -27.58741 18.644022
8.1039944 -28.942839 19.638466
8.2256422 -30.552389 21.736202
6.2299609 19.468628 -26.107071
6.2270584 18.681173 -26.150866
6.2274132 17.903811 -26.145519
6.2257299 17.120754 -26.170908
6.2269478 16.345736 -26.152534
6.2253761 15.56344 -26.176254
6.2261949 14.78721 -26.163893
6.2264161 14.009434 -26.160553
5.9852619 12.718684 -29.799288
5.9592705 11.918542 -30.191469
5.9490061 11.154387 -30.346355
5.948319 10.409556 -30.356724
5.9568176 9.6798296 -30.228485
5.9717493 8.9576216 -30.00318
5.9889469 8.2348003 -29.74369
6.0155497 7.5194368 -29.342283
6.0562463 6.8132768 -28.728224
6.1350322 6.1350317 -27.539431
6.2464733 5.4656606 -25.857916
6.3703003 4.7777233 -23.9895
6.5001259 4.0625811 -22.030594
6.6369877 3.3184898 -19.965508
6.7790546 2.5421457 -17.82189
6.9393053 1.7348267 -15.403888
7.1093073 0.88866198 -12.838758
7.2896681 -1.2815046e-06 -10.117316
7.4854941 -0.93568897 -7.1625357
7.7124591 -1.9281123 -3.7378991
7.8717384 -2.9519022 -1.3345538
8.0487823 -4.0243959 1.3368336
8.2578163 -5.1611371 4.4909015
8.4736881 -6.3552704 7.7481694
8.715312 -7.6258965 11.393984
8.9996605 -8.9996586 15.684475
9.1175146 -10.257207 17.462763
9.0283375 -11.285422 16.117172
9.0145798 -12.395047 15.90958
9.0287561 -13.543134 16.123495
9.0635262 -14.728233 16.648132
9.1121063 -15.946186 17.381144
9.163415 -17.181404 18.155338
9.2219057 -18.443817 19.037901
9.2792301 -19.718361 19.902845
9.2366457 -20.78245 19.260296
9.2253065 -21.910103 19.089211
9.2230234 -23.057558 19.054752
9.2350378 -24.241972 19.23604
9.2661676 -25.481966 19.705765
9.3004227 -26.738716 20.22262
9.3447952 -28.034388 20.892153
9.4135199 -29.417248 21.929131
7.1282854 19.00876 -24.503235
7.1227698 18.202635 -24.577211
7.1203241 17.405235 -24.610014
7.1208386 16.615288 -24.603111
7.1227698 15.828377 -24.577209
7.1198349 15.030764 -24.616575
7.1187286 14.237457 -24.631413
7.1228728 13.454316 -24.57583
6.8542657 12.185358 -28.178471
6.8192201 11.365367 -28.648508
6.8020544 10.580973 -28.878735
6.8025012 9.8258314 -28.872751
6.8125696 9.0834246 -28.737707
6.8260489 8.3429461 -28.556917
6.8495464 7.6106067 -28.241766
6.8799992 6.8799992 -27.833317
6.9262509 6.1566663 -27.212975
7.017869 5.4583416 -25.984167
7.1472173 4.764811 -24.249323
7.2899642 4.0499778 -22.334749
7.441649 3.3073945 -20.300312
7.5998673 2.5332875 -18.17823
7.7798033 1.7288421 -15.764886
7.9675946 0.88528913 -13.246163
8.1631889 -1.8880161e-07 -10.622808
8.3832998 -0.9314813 -7.6706033
8.6312389 -1.9180568 -4.3451734
8.813983 -2.9379933 -1.8941604
9.0128717 -4.0057201 0.77339774
9.2376347 -5.1320176 3.7879882
9.4895029 -6.3263359 7.1661253
9.7590675 -7.5903864 10.781598
10.061889 -8.9439039 14.843132
10.395722 -10.395722 19.320606
10.400608 -11.556231 19.386131
10.334207 -12.630695 18.495525
10.333826 -13.778436 18.49044
10.363292 -14.969204 18.885637
10.406651 -16.188124 19.467186
10.464532 -17.440886 20.243492
10.504934 -18.675436 20.785379
10.543561 -19.915617 21.303459
10.560858 -21.121716 21.535448
10.584235 -22.344496 21.848999
10.592146 -23.538107 21.955099
10.618237 -24.775888 22.30505
10.689164 -26.12907 23.256338
8.0465393 17.702385 -22.979595
8.0460367 16.896675 -22.985664
8.0425777 16.085155 -23.027418
8.0442619 15.284098 -23.007086
8.0450897 14.481162 -22.997087
8.0466871 13.679369 -22.977814
8.0457411 12.873187 -22.989237
7.7474823 11.621222 -26.589535
7.7084374 10.791811 -27.060848
7.685647 9.9913397 -27.335953
7.6862407 9.2234888 -27.328783
7.6961327 8.4657459 -27.209383
7.7120771 7.7120757 -27.016916
7.736939 6.9632435 -26.716806
7.7709174 6.2167349 -26.306648
7.826015 5.47821 -25.641563
7.9312229 4.7587357 -24.371588
8.0801954 4.0400949 -22.573332
8.243803 3.2975216 -20.598421
8.4211655 2.5263484 -18.457457
8.6142197 1.722844 -16.127094
8.8172207 0.88172221 -13.676653
9.0371046 -4.6445231e-07 -11.022414
9.2724361 -0.92724377 -8.1817093
9.5465965 -1.9093182 -4.8723111
9.7475634 -2.9242666 -2.4464202
9.9689207 -3.9875684 0.22558324
10.214891 -5.1074467 3.1947393
10.484196 -6.2905178 6.4455256
10.782672 -7.5478687 10.048445
11.110472 -8.8883762 14.005334
11.476069 -10.328465 18.418499
11.912531 -11.91253 23.68704
11.739258 -12.913183 21.595455
11.711996 -14.054399 21.26638
11.730826 -15.250072 21.493687
11.795691 -16.513966 22.276651
11.996428 -17.99464 24.699787
11.97667 -19.162674 24.461283
12.026354 -20.444799 25.061016
9.0036163 17.188723 -21.306952
9.003212 16.369474 -21.311384
8.9982328 15.5424 -21.366034
9.001092 14.729058 -21.334654
9.0016975 13.911716 -21.328009
9.0069847 13.101069 -21.269987
9.002573 12.276234 -21.318403
8.682189 11.050059 -24.834204
8.6329699 10.202601 -25.37431
8.6051397 9.3874235 -25.679716
8.5989008 8.5988998 -25.748178
8.609293 7.8266277 -25.634132
8.6275568 7.0589089 -25.433718
8.6563425 6.2955174 -25.117832
8.6952009 5.5333099 -24.691408
8.7532721 4.7745118 -24.054152
8.8710871 4.0323162 -22.761293
9.0427752 3.2882819 -20.877235
9.2364521 2.5190356 -18.751888
9.4454193 1.7173479 -16.458736
9.6596804 0.8781547 -14.107507
9.9010391 3.0515295e-07 -11.458908
10.15297 -0.9229998 -8.6942902
10.454246 -1.9007684 -5.3881898
10.663812 -2.9083154 -3.0884616
10.916044 -3.9694719 -0.32054389
11.184134 -5.0836959 2.6213861
11.474629 -6.2588887 5.8092008
11.792504 -7.5043254 9.297473
12.147035 -8.8342066 13.187971
12.54109 -10.26089 17.512205
13.017209 -11.833829 22.737009
13.300168 -13.300166 25.8421
13.25696 -14.462137 25.36796
13.213961 -15.616499 24.896093
13.173401 -16.766148 24.450996
13.13746 -17.914719 24.056608
13.115417 -19.076971 23.814724
13.153465 -20.328079 24.232235
10.00215 16.670248 -19.496056
9.991725 15.820231 -19.600927
9.9882669 14.9824 -19.63571
9.9926758 14.156287 -19.59137
9.9910784 13.32144 -19.607428
9.9921055 12.490133 -19.597107
9.9954891 11.6614 -19.563059
9.6497459 10.453891 -23.040974
9.5883808 9.5883799 -23.658262
9.5548248 8.7585888 -23.995802
9.5450335 7.9541936 -24.094297
9.5563898 7.1672945 -23.980062
9.5723057 6.381536 -23.819956
9.6051407 5.6029973 -23.48966
9.6497459 4.824873 -23.040974
9.7167521 4.048646 -22.366945
9.8491983 3.2830656 -21.034636
10.04949 2.5123718 -19.019865
10.266075 1.7110122 -16.841181
10.499499 0.87495714 -14.493111
10.755929 7.6135996e-07 -11.913631
11.025336 -0.91877735 -9.2035961
11.354491 -1.8924136 -5.8925581
11.580165 -2.8950431 -3.6224532
11.855949 -3.9519842 -0.84827763
12.146314 -5.0609632 2.0725515
12.458817 -6.2294078 5.2160959
12.796485 -7.4646177 8.6127787
13.178573 -8.785718 12.456289
13.595078 -10.196306 16.646008
14.106706 -11.755586 21.792574
14.445594 -13.241795 25.201536
14.398478 -14.398479 24.727571
14.352763 -15.548825 24.267733
14.308274 -16.692987 23.820213
14.270494 -17.83812 23.440165
14.245263 -18.993681 23.186348
14.278716 -20.228182 23.522882
14.720288 -22.080435 27.964748
11.014684 15.251099 -17.833767
11.0143 14.403316 -17.837334
11.018565 13.561311 -17.797729
11.015451 12.710137 -17.826643
11.018138 11.865689 -17.801691
11.022107 11.02211 -17.764833
10.658614 9.8387184 -21.140036
10.580142 8.9524298 -21.868671
10.539388 8.1072178 -22.247107
10.519204 7.2825251 -22.434517
10.531741 6.4810696 -22.3181
10.556944 5.6845074 -22.084085
10.589003 4.8872299 -21.786413
10.64 4.092309 -21.312862
10.714401 3.296737 -20.622023
10.863049 2.5068562 -19.24177
11.08592 1.7055238 -17.1723
11.334179 0.8718555 -14.867112
11.602842 1.5587713e-06 -12.37247
11.889516 -0.91457921 -9.710577
12.239376 -1.8829781 -6.4619694
12.489673 -2.8822339 -4.1378503
12.787609 -3.9346526 -1.371385
13.101855 -5.0391798 1.5465349
13.433584 -6.2001176 4.6267896
13.801001 -7.4313073 8.038393
14.207852 -8.7432919 11.816198
14.639347 -10.134933 15.82281
15.184319 -11.680248 20.883123
15.583741 -13.186241 24.591927
15.530665 -14.335998 24.099094
15.482666 -15.482667 23.6534
15.435883 -16.623257 23.219
15.394794 -17.763224 22.837477
15.362711 -18.907953 22.539566
15.38697 -20.121422 22.764812
15.764272 -21.827456 26.268242
12.086259 14.676172 -15.899881
12.07759 13.802962 -15.974636
12.078399 12.941142 -15.967657
12.079732 12.079728 -15.956158
12.082304 11.219283 -15.933986
12.08402 10.357732 -15.919194
12.080209 9.4915895 -15.952053
11.593679 8.2811985 -20.147001
11.549372 7.4245949 -20.529036
11.537239 6.5927043 -20.633635
11.550372 5.7751865 -20.520403
11.570915 4.958962 -20.343273
11.612308 4.1472535 -19.986382
11.664378 3.33268 -19.537422
11.747102 2.5172367 -18.824162
11.913342 1.7019063 -17.390814
12.168039 0.86914289 -15.194751
12.442246 -1.0730059e-06 -12.830482
12.747473 -0.910537 -10.198764
13.120591 -1.8743702 -6.9816737
13.388827 -2.8690383 -4.6688881
13.71021 -3.9172025 -1.8978621
14.047531 -5.0169764 1.0105816
14.387669 -6.1661468 3.9433167
14.776255 -7.3881264 7.293776
15.213708 -8.6935472 11.065584
15.688046 -10.085174 15.155417
16.245193 -11.603713 19.959261
16.707914 -13.127645 23.94891
16.653795 -14.274682 23.482286
16.600925 -15.415145 23.026436
16.551964 -16.551964 22.604288
16.508272 -17.687437 22.227562
16.470385 -18.823296 21.900881
16.490681 -20.024399 22.075893
16.847357 -21.660883 25.151205
13.183823 14.062741 -14.014712
13.180752 13.180753 -14.03942
13.177948 12.299418 -14.061981
13.185146 11.427125 -14.004063
13.179482 10.543584 -14.049638
13.18684 9.6703482 -13.990426
13.182869 8.7885799 -14.022382
12.677058 7.6062369 -18.092829
12.610691 6.7256999 -18.626911
12.587822 5.8743143 -18.810949
12.599561 5.0398254 -18.716492
12.621987 4.2073288 -18.536013
12.66845 3.3782563 -18.162113
12.72176 2.5443532 -17.73311
12.812312 1.7083042 -17.004389
13.002953 0.86686087 -15.470237
13.279969 -7.8107939e-07 -13.240979
13.608754 -0.90725112 -10.595125
14.00011 -1.8666828 -7.4457369
14.283201 -2.8566422 -5.1675916
14.624081 -3.8997545 -2.4244065
14.983542 -4.9945121 0.46832341
15.34547 -6.1381879 3.3808839
15.757768 -7.3536258 6.6988068
16.224121 -8.6528683 10.451726
16.710239 -10.026142 14.363703
17.295172 -11.530115 19.070881
17.826107 -13.072479 23.343517
17.768801 -14.215038 22.882343
17.710142 -15.34879 22.410295
17.6588 -16.481544 21.997122
17.610304 -17.6103 21.606859
17.571472 -18.742905 21.294373
17.58333 -19.927774 21.389797
17.879694 -21.455635 23.774754
14.339889 13.443643 -11.923817
14.326338 12.535542 -12.026048
14.326982 11.640675 -12.021188
14.328624 10.746467 -12.008804
14.321357 9.8459339 -12.063622
14.332493 8.9578085 -11.979605
14.322119 8.0561924 -12.057879
13.783294 6.8916488 -16.122999
13.703472 5.9952655 -16.725204
13.68687 5.1325736 -16.850462
13.68318 4.2759967 -16.878302
13.718555 3.4296386 -16.611404
13.758709 2.5797577 -16.308472
13.826993 1.7283703 -15.793315
13.924578 0.87028545 -15.057094
14.13169 -2.5234888e-06 -13.494544
14.459128 -0.90369952 -11.024215
14.876611 -1.8595772 -7.8745508
15.16338 -2.8431354 -5.7110605
15.531843 -3.8829615 -2.9312067
15.913018 -4.9728198 -0.055465356
16.301983 -6.113245 2.8790545
16.736473 -7.3222103 6.1570268
17.21843 -8.6092138 9.7931061
17.730942 -9.9736567 13.659716
18.336811 -11.460504 18.230633
18.93269 -13.016225 22.726196
18.871069 -14.153303 22.261305
18.809849 -15.283004 21.79944
18.75495 -16.410583 21.38525
18.703764 -17.534777 20.999086
18.663296 -18.6633 20.693779
18.664688 -19.831236 20.704285
18.952465 -21.321524 22.875385
15.515801 11.865027 -9.9379883
15.520331 10.955529 -9.9058218
15.515218 10.039258 -9.9421196
15.508041 9.1223736 -9.993084
15.520784 8.2168865 -9.9026041
15.518002 7.3025889 -9.9223661
14.952593 6.1569467 -13.937117
14.849834 5.2411184 -14.666772
14.82469 4.3602052 -14.845311
14.819022 3.4868252 -14.885554
14.850012 2.6205873 -14.665504
14.896742 1.7525586 -14.333699
14.968594 0.88050294 -13.823504
15.079543 -1.2646962e-07 -13.035692
15.357054 -0.90335983 -11.065187
15.747 -1.8525915 -8.2963333
16.038797 -2.8303776 -6.2243824
16.428919 -3.8656297 -3.4542699
16.833998 -4.9511766 -0.57796079
17.261879 -6.0924301 2.460258
17.705252 -7.2903962 5.6084871
18.197418 -8.5634918 9.1031799
18.749891 -9.9264145 13.02609
19.392897 -11.407589 17.591825
20.027849 -12.959198 22.100384
19.967127 -14.094444 21.66922
19.904428 -15.221033 21.22403
19.841595 -16.340137 20.77787
19.787149 -17.459248 20.391275
19.743788 -18.582388 20.083376
19.740332 -19.740334 20.058834
20.010185 -21.187252 21.97496
16.745647 11.163766 -7.8111081
16.748281 10.235064 -7.7934484
16.745647 9.3031349 -7.8111076
16.739672 8.3698349 -7.8511868
16.751558 7.4451346 -7.7714782
16.754265 6.5155487 -7.7533274
16.1546 5.3848653 -11.774767
16.05212 4.4589205 -12.462012
15.998539 3.555233 -12.821338
16.000294 2.6667151 -12.809574
16.029392 1.7810458 -12.614431
16.083378 0.89352077 -12.252402
16.164806 -4.1699425e-07 -11.706315
16.295179 -0.90528774 -10.832015
16.615213 -1.846135 -8.6858358
16.909878 -2.8183107 -6.7097611
17.320763 -3.8490586 -3.9543107
17.746994 -4.9297218 -1.0959378
18.19986 -6.0666194 1.9410446
18.665295 -7.2587247 5.0623193
19.184166 -8.5262976 8.5419521
19.754677 -9.8773403 12.367885
20.417135 -11.342851 16.810425
21.120922 -12.907229 21.530125
21.049829 -14.033218 21.053371
20.984465 -15.155452 20.615034
20.921505 -16.27228 20.192814
20.864777 -17.387316 19.812389
20.814512 -18.501789 19.475298
20.807367 -19.6514 19.427382
21.044769 -21.044769 21.019434
18.03924 10.44377 -5.5031438
18.023916 9.4862709 -5.6004968
18.025791 8.5385284 -5.5885787
18.021494 7.5880008 -5.6158786
18.035406 6.6446266 -5.5274968
18.034311 5.6950459 -5.5344481
17.483276 4.6008596 -9.0352755
17.31181 3.6445887 -10.124647
17.253704 2.7242668 -10.493801
17.256351 1.8164552 -10.476968
17.297552 0.91039521 -10.215222
17.465948 -2.5708177e-06 -9.1453705
17.459862 -0.91893905 -9.1840429
17.539021 -1.8462141 -8.6811285
17.812618 -2.8125207 -6.9429069
18.218071 -3.8353834 -4.366982
18.656799 -4.9096856 -1.5796685
19.128609 -6.0406117 1.4178258
19.618141 -7.2277393 4.5279312
20.160131 -8.4884777 7.9713035
20.764284 -9.8357124 11.809608
21.427277 -11.277511 16.021713
22.198746 -12.851904 20.92301
22.126463 -13.97461 20.463791
22.056406 -15.091223 20.018688
21.990856 -16.203791 19.602257
21.930437 -17.313509 19.218409
21.879557 -18.424892 18.895145
21.861153 -19.559982 18.778231
22.067757 -20.906298 20.090816
19.355486 8.7099648 -3.2892196
19.36285 7.7451382 -3.2447824
19.361221 6.7764282 -3.2546079
19.364904 5.8094726 -3.2323751
19.364048 4.8410125 -3.2375431
19.365419 3.8730824 -3.2292755
18.635981 2.795398 -7.6318331
18.569574 1.8569592 -8.0326195
18.54401 0.92720234 -8.186923
18.554148 -1.8602047e-06 -8.1257219
18.606987 -0.93035179 -7.8068109
18.675413 -1.8675402 -7.3938303
18.816858 -2.8225298 -6.5401301
19.111115 -3.822222 -4.7641468
19.570078 -4.892519 -1.9940439
