# .PCD v0.7 - Point Cloud Data file format
VERSION 0.7
FIELDS x y z
SIZE 4 4 4
TYPE F F F
COUNT 1 1 1
WIDTH 1372
HEIGHT 1
VIEWPOINT 0 0 0 1 0 0 0
POINTS 1372
DATA ascii
-380.83179 290.15762 -1033.9655
-379.52896 271.09216 -1041.4543
-379.52896 253.01941 -1041.4543
-379.52896 234.94659 -1041.4542
-379.52896 216.87372 -1041.4543
-379.52896 198.80092 -1041.4542
-379.52896 180.7281 -1041.4543
-379.52896 162.65529 -1041.4542
-379.52896 144.58253 -1041.4542
-379.52896 126.50972 -1041.4543
-379.52896 108.43691 -1041.4542
-379.52896 90.364037 -1041.4543
-379.52896 72.291229 -1041.4542
-379.52896 54.218513 -1041.4542
-379.52896 36.145638 -1041.4543
-379.52896 18.072826 -1041.4542
-379.52896 0.0001126701 -1041.4543
-379.52896 -18.072802 -1041.4542
-379.52896 -36.145546 -1041.4542
-379.52896 -54.218395 -1041.4543
-379.52896 -72.291176 -1041.4542
-379.52896 -90.363922 -1041.4542
-379.52896 -108.43684 -1041.4542
-379.52896 -126.50958 -1041.4542
-379.52896 -144.58235 -1041.4543
-379.52896 -162.65521 -1041.4542
-379.52777 -180.72748 -1041.4611
-380.97028 -199.55586 -1033.1693
-362.01205 289.60965 -1038.0991
-361.45615 271.09216 -1041.4543
-361.45615 253.01941 -1041.4543
-361.45615 234.94659 -1041.4542
-361.45615 216.87372 -1041.4543
-361.45615 198.80092 -1041.4542
-361.45615 180.7281 -1041.4543
-361.45615 162.65529 -1041.4542
-361.45615 144.58253 -1041.4542
-361.45615 126.50972 -1041.4543
-361.45615 108.43691 -1041.4542
-361.45615 90.364037 -1041.4543
-361.45615 72.291229 -1041.4542
-361.45615 54.218513 -1041.4542
-361.45615 36.145638 -1041.4543
-361.45615 18.072826 -1041.4542
-361.45615 0.0001126701 -1041.4543
-361.45615 -18.072802 -1041.4542
-361.45615 -36.145546 -1041.4542
-361.45615 -54.218395 -1041.4543
-361.45615 -72.291176 -1041.4542
-361.45615 -90.363922 -1041.4542
-361.45615 -108.43684 -1041.4542
-361.45615 -126.50958 -1041.4542
-361.45615 -144.58235 -1041.4543
-361.45615 -162.65521 -1041.4542
-361.45505 -180.72748 -1041.4611
-362.19962 -199.20978 -1036.9672
-343.91144 289.60965 -1038.0991
-343.38336 271.09216 -1041.4543
-343.38336 253.01941 -1041.4543
-343.38336 234.94659 -1041.4542
-343.38336 216.87372 -1041.4543
-343.38336 198.80092 -1041.4542
-343.38336 180.7281 -1041.4543
-343.38336 162.65529 -1041.4542
-343.38336 144.58253 -1041.4542
-343.38336 126.50972 -1041.4543
-343.38336 108.43691 -1041.4542
-343.38336 90.364037 -1041.4543
-343.38336 72.291229 -1041.4542
-343.38336 54.218513 -1041.4542
-343.38336 36.145638 -1041.4543
-343.38336 18.072826 -1041.4542
-343.38336 0.0001126701 -1041.4543
-343.38336 -18.072802 -1041.4542
-343.38336 -36.145546 -1041.4542
-343.38336 -54.218395 -1041.4543
-343.38336 -72.291176 -1041.4542
-343.38336 -90.363922 -1041.4542
-343.38336 -108.43684 -1041.4542
-343.38336 -126.50958 -1041.4542
-343.38336 -144.58235 -1041.4543
-343.38336 -162.65521 -1041.4542
-343.38229 -180.72748 -1041.4611
-344.08963 -199.20978 -1036.9672
-346.36441 -218.75642 -1022.5148
-346.36441 -236.98619 -1022.5148
-346.36441 -255.21584 -1022.5148
-346.36441 -273.44556 -1022.5147
-346.36441 -291.67532 -1022.5148
-346.36441 -309.90497 -1022.5148
-346.36441 -328.13467 -1022.5148
-346.36441 -346.36438 -1022.5148
-346.36441 -364.59415 -1022.5148
-325.81085 289.60965 -1038.0991
-325.31052 271.09216 -1041.4543
-325.31052 253.01941 -1041.4543
-325.31052 234.94659 -1041.4542
-325.31052 216.87372 -1041.4543
-325.31052 198.80092 -1041.4542
-325.31052 180.7281 -1041.4543
-325.31052 162.65529 -1041.4542
-325.31052 144.58253 -1041.4542
-325.31052 126.50972 -1041.4543
-325.31052 108.43691 -1041.4542
-325.31052 90.364037 -1041.4543
-325.31052 72.291229 -1041.4542
-325.31052 54.218513 -1041.4542
-325.31052 36.145638 -1041.4543
-325.31052 18.072826 -1041.4542
-325.31052 0.0001126701 -1041.4543
-325.31052 -18.072802 -1041.4542
-325.31052 -36.145546 -1041.4542
-325.31052 -54.218395 -1041.4543
-325.31052 -72.291176 -1041.4542
-325.31052 -90.363922 -1041.4542
-325.31052 -108.43684 -1041.4542
-325.31052 -126.50958 -1041.4542
-325.31052 -144.58235 -1041.4543
-325.31052 -162.65521 -1041.4542
-325.30954 -180.72748 -1041.4611
-325.97964 -199.20978 -1036.9672
-328.42398 -218.9493 -1020.5752
-328.42398 -237.19499 -1020.5753
-328.42398 -255.44077 -1020.5752
-328.42398 -273.68655 -1020.5753
-328.42398 -291.93237 -1020.5753
-328.42398 -310.17813 -1020.5752
-328.42398 -328.42389 -1020.5752
-328.42398 -346.66971 -1020.5752
-328.42398 -364.9155 -1020.5752
-307.71027 289.60965 -1038.0991
-307.23773 271.09216 -1041.4543
-307.23773 253.01941 -1041.4543
-307.23773 234.94659 -1041.4542
-307.23773 216.87372 -1041.4543
-307.23773 198.80092 -1041.4542
-307.23773 180.7281 -1041.4543
-307.23773 162.65529 -1041.4542
-307.23773 144.58253 -1041.4542
-307.23773 126.50972 -1041.4543
-307.23773 108.43691 -1041.4542
-307.23773 90.364037 -1041.4543
-307.23773 72.291229 -1041.4542
-307.23773 54.218513 -1041.4542
-307.23773 36.145638 -1041.4543
-307.23773 18.072826 -1041.4542
-307.23773 0.0001126701 -1041.4543
-307.23773 -18.072802 -1041.4542
-307.23773 -36.145546 -1041.4542
-307.23773 -54.218395 -1041.4543
-307.23773 -72.291176 -1041.4542
-307.23773 -90.363922 -1041.4542
-307.23773 -108.43684 -1041.4542
-307.23773 -126.50958 -1041.4542
-307.23773 -144.58235 -1041.4543
-307.23773 -162.65521 -1041.4542
-307.23676 -180.72748 -1041.4611
-307.86969 -199.20978 -1036.9672
-300.87482 394.89825 -953.10986
-299.1767 373.97095 -965.92126
-299.12207 355.20746 -966.33331
-299.22272 336.62552 -965.57416
-300.05807 318.81174 -959.27197
-289.60965 289.60965 -1038.0991
-289.16492 271.09216 -1041.4543
-289.16492 253.01941 -1041.4543
-289.16492 234.94659 -1041.4542
-289.16492 216.87372 -1041.4543
-289.16492 198.80092 -1041.4542
-289.16492 180.7281 -1041.4543
-289.16492 162.65529 -1041.4542
-289.16492 144.58253 -1041.4542
-289.16492 126.50972 -1041.4543
-289.16492 108.43691 -1041.4542
-289.16492 90.364037 -1041.4543
-289.16492 72.291229 -1041.4542
-289.16492 54.218513 -1041.4542
-289.16492 36.145638 -1041.4543
-289.16492 18.072826 -1041.4542
-289.16492 0.0001126701 -1041.4543
-289.16492 -18.072802 -1041.4542
-289.16492 -36.145546 -1041.4542
-289.16492 -54.218395 -1041.4543
-289.16492 -72.291176 -1041.4542
-289.16492 -90.363922 -1041.4542
-289.16492 -108.43684 -1041.4542
-289.16492 -126.50958 -1041.4542
-289.16492 -144.58235 -1041.4543
-289.16492 -162.65521 -1041.4542
-289.16403 -180.72748 -1041.4611
-289.75967 -199.20978 -1036.9672
-281.13193 393.58466 -960.6601
-280.42694 373.90262 -966.33325
-280.42694 355.20746 -966.33331
-280.42694 336.51245 -966.33331
-280.42694 317.81726 -966.33331
-271.50903 289.60965 -1038.0991
-271.09213 271.09216 -1041.4543
-271.09213 253.01941 -1041.4543
-271.09213 234.94659 -1041.4542
-271.09213 216.87372 -1041.4543
-271.09213 198.80092 -1041.4542
-271.09213 180.7281 -1041.4543
-271.09213 162.65529 -1041.4542
-271.09213 144.58253 -1041.4542
-271.09213 126.50972 -1041.4543
-271.09213 108.43691 -1041.4542
-271.09213 90.364037 -1041.4543
-271.09213 72.291229 -1041.4542
-271.09213 54.218513 -1041.4542
-271.09213 36.145638 -1041.4543
-271.09213 18.072826 -1041.4542
-271.09213 0.0001126701 -1041.4543
-271.09213 -18.072802 -1041.4542
-271.09213 -36.145546 -1041.4542
-271.09213 -54.218395 -1041.4543
-271.09213 -72.291176 -1041.4542
-271.09213 -90.363922 -1041.4542
-271.09213 -108.43684 -1041.4542
-271.09213 -126.50958 -1041.4542
-271.09213 -144.58235 -1041.4543
-271.09213 -162.65521 -1041.4542
-271.09128 -180.72748 -1041.4611
-271.64972 -199.20978 -1036.9672
-262.06586 393.09888 -963.45325
-261.73181 373.90262 -966.33325
-261.73181 355.20746 -966.33331
-261.73181 336.51245 -966.33331
-261.73181 317.81726 -966.33331
-253.40843 289.60965 -1038.0991
-253.0193 271.09216 -1041.4543
-253.0193 253.01941 -1041.4543
-253.0193 234.94659 -1041.4542
-253.0193 216.87372 -1041.4543
-253.0193 198.80092 -1041.4542
-253.0193 180.7281 -1041.4543
-253.0193 162.65529 -1041.4542
-253.0193 144.58253 -1041.4542
-253.0193 126.50972 -1041.4543
-253.0193 108.43691 -1041.4542
-253.0193 90.364037 -1041.4543
-253.0193 72.291229 -1041.4542
-253.0193 54.218513 -1041.4542
-253.0193 36.145638 -1041.4543
-253.0193 18.072826 -1041.4542
-253.0193 0.0001126701 -1041.4543
-253.0193 -18.072802 -1041.4542
-253.0193 -36.145546 -1041.4542
-253.0193 -54.218395 -1041.4543
-253.0193 -72.291176 -1041.4542
-253.0193 -90.363922 -1041.4542
-253.0193 -108.43684 -1041.4542
-253.0193 -126.50958 -1041.4542
-253.0193 -144.58235 -1041.4543
-253.0193 -162.65521 -1041.4542
-253.01851 -180.72748 -1041.4611
-253.53972 -199.20978 -1036.9672
-243.14493 392.77258 -965.32825
-243.0367 373.90262 -966.33325
-243.0367 355.20746 -966.33331
-243.0367 336.51245 -966.33331
-243.0367 317.81726 -966.33331
-235.30785 289.60965 -1038.0991
-234.94649 271.09216 -1041.4543
-234.94649 253.01941 -1041.4543
-234.94649 234.94659 -1041.4542
-234.94649 216.87372 -1041.4543
-234.94649 198.80092 -1041.4542
-234.94649 180.7281 -1041.4543
-234.94649 162.65529 -1041.4542
-234.94649 144.58253 -1041.4542
-234.94649 126.50972 -1041.4543
-234.94649 108.43691 -1041.4542
-234.94649 90.364037 -1041.4543
-234.94649 72.291229 -1041.4542
-234.94649 54.218513 -1041.4542
-234.94649 36.145638 -1041.4543
-234.94649 18.072826 -1041.4542
-234.94649 0.0001126701 -1041.4543
-234.94649 -18.072802 -1041.4542
-234.94649 -36.145546 -1041.4542
-234.94649 -54.218395 -1041.4543
-234.94649 -72.291176 -1041.4542
-234.94649 -90.363922 -1041.4542
-234.94649 -108.43684 -1041.4542
-234.94649 -126.50958 -1041.4542
-234.94649 -144.58235 -1041.4543
-234.94649 -162.65521 -1041.4542
-234.94577 -180.72748 -1041.4611
-235.42976 -199.20978 -1036.9672
-225.37589 413.18924 -955.92883
-224.35953 392.62918 -966.15265
-224.34157 373.90262 -966.33325
-224.34157 355.20746 -966.33331
-224.34157 336.51245 -966.33331
-224.34157 317.81726 -966.33331
-217.20723 289.60965 -1038.0991
-216.87369 271.09216 -1041.4543
-216.87369 253.01941 -1041.4543
-216.87369 234.94659 -1041.4542
-216.87369 216.87372 -1041.4543
-216.87369 198.80092 -1041.4542
-216.87369 180.7281 -1041.4543
-216.87369 162.65529 -1041.4542
-216.87369 144.58253 -1041.4542
-216.87369 126.50972 -1041.4543
-216.87369 108.43691 -1041.4542
-216.87369 90.364037 -1041.4543
-216.87369 72.291229 -1041.4542
-216.87369 54.218513 -1041.4542
-216.87369 36.145638 -1041.4543
-216.87369 18.072826 -1041.4542
-216.87369 0.0001126701 -1041.4543
-216.87369 -18.072802 -1041.4542
-216.87369 -36.145546 -1041.4542
-216.87369 -54.218395 -1041.4543
-216.87369 -72.291176 -1041.4542
-216.87369 -90.363922 -1041.4542
-216.87369 -108.43684 -1041.4542
-216.87369 -126.50958 -1041.4542
-216.87369 -144.58235 -1041.4543
-216.87369 -162.65521 -1041.4542
-216.87302 -180.72748 -1041.4611
-217.31978 -199.20978 -1036.9672
-206.08931 412.17862 -961.47339
-205.64642 392.59784 -966.33331
-205.64642 373.90262 -966.33325
-205.64642 355.20746 -966.33331
-205.64642 336.51245 -966.33331
-205.64642 317.81726 -966.33331
-199.10663 289.60965 -1038.0991
-198.80087 271.09216 -1041.4543
-198.80087 253.01941 -1041.4543
-198.80087 234.94659 -1041.4542
-198.80087 216.87372 -1041.4543
-198.80087 198.80092 -1041.4542
-198.80087 180.7281 -1041.4543
-198.80087 162.65529 -1041.4542
-198.80087 144.58253 -1041.4542
-198.80087 126.50972 -1041.4543
-198.80087 108.43691 -1041.4542
-198.80087 90.364037 -1041.4543
-198.80087 72.291229 -1041.4542
-198.80087 54.218513 -1041.4542
-198.80087 36.145638 -1041.4543
-198.80087 18.072826 -1041.4542
-198.80087 0.0001126701 -1041.4543
-198.80087 -18.072802 -1041.4542
-198.80087 -36.145546 -1041.4542
-198.80087 -54.218395 -1041.4543
-198.80087 -72.291176 -1041.4542
-198.80087 -90.363922 -1041.4542
-198.80087 -108.43684 -1041.4542
-198.80087 -126.50958 -1041.4542
-198.80087 -144.58235 -1041.4543
-198.80087 -162.65521 -1041.4542
-198.80026 -180.72748 -1041.4611
-199.20979 -199.20978 -1036.9672
-190.58542 400.22946 -922.46564
-187.40443 374.8089 -960.86346
-186.96268 355.22916 -966.19604
-186.95131 336.51245 -966.33331
-186.95131 317.81726 -966.33331
-181.00603 289.60965 -1038.0991
-180.72807 271.09216 -1041.4543
-180.72807 253.01941 -1041.4543
-180.72807 234.94659 -1041.4542
-180.72807 216.87372 -1041.4543
-180.72807 198.80092 -1041.4542
-180.72807 180.7281 -1041.4543
-180.72807 162.65529 -1041.4542
-180.72807 144.58253 -1041.4542
-180.72807 126.50972 -1041.4543
-180.72807 108.43691 -1041.4542
-180.72807 90.364037 -1041.4543
-180.72807 72.291229 -1041.4542
-180.72807 54.218513 -1041.4542
-180.72807 36.145638 -1041.4543
-180.72807 18.072826 -1041.4542
-180.72807 0.0001126701 -1041.4543
-180.72807 -18.072802 -1041.4542
-180.72807 -36.145546 -1041.4542
-180.72807 -54.218395 -1041.4543
-180.72807 -72.291176 -1041.4542
-180.72807 -90.363922 -1041.4542
-180.72807 -108.43684 -1041.4542
-180.72807 -126.50958 -1041.4542
-180.72807 -144.58235 -1041.4543
-180.72807 -162.65521 -1041.4542
-180.72752 -180.72748 -1041.4611
-181.09981 -199.20978 -1036.9672
-193.56804 408.64371 -626.84296
-180.07826 360.15662 -807.77167
-168.95308 319.13364 -956.98602
-162.90543 289.60965 -1038.0991
-162.65526 271.09216 -1041.4543
-162.65526 253.01941 -1041.4543
-162.65526 234.94659 -1041.4542
-162.65526 216.87372 -1041.4543
-162.65526 198.80092 -1041.4542
-162.65526 180.7281 -1041.4543
-162.65526 162.65529 -1041.4542
-162.65526 144.58253 -1041.4542
-162.65526 126.50972 -1041.4543
-162.65526 108.43691 -1041.4542
-162.65526 90.364037 -1041.4543
-162.65526 72.291229 -1041.4542
-162.65526 54.218513 -1041.4542
-162.65526 36.145638 -1041.4543
-162.65526 18.072826 -1041.4542
-162.65526 0.0001126701 -1041.4543
-162.65526 -18.072802 -1041.4542
-162.65526 -36.145546 -1041.4542
-162.65526 -54.218395 -1041.4543
-162.65526 -72.291176 -1041.4542
-162.65526 -90.363922 -1041.4542
-162.65526 -108.43684 -1041.4542
-162.65526 -126.50958 -1041.4542
-162.65526 -144.58235 -1041.4543
-162.65526 -162.65521 -1041.4542
-162.65477 -180.72748 -1041.4611
-162.98982 -199.20978 -1036.9672
-197.4294 419.53754 -244.0555
-144.80482 289.60965 -1038.0991
-144.58246 271.09216 -1041.4543
-144.58246 253.01941 -1041.4543
-144.58246 234.94659 -1041.4542
-144.58246 216.87372 -1041.4543
-144.58246 198.80092 -1041.4542
-144.58246 180.7281 -1041.4543
-144.58246 162.65529 -1041.4542
-144.58246 144.58253 -1041.4542
-144.58246 126.50972 -1041.4543
-144.58246 108.43691 -1041.4542
-144.58246 90.364037 -1041.4543
-144.58246 72.291229 -1041.4542
-144.58246 54.218513 -1041.4542
-144.58246 36.145638 -1041.4543
-144.58246 18.072826 -1041.4542
-144.58246 0.0001126701 -1041.4543
-144.58246 -18.072802 -1041.4542
-144.58246 -36.145546 -1041.4542
-144.58246 -54.218395 -1041.4543
-144.58246 -72.291176 -1041.4542
-144.58246 -90.363922 -1041.4542
-144.58246 -108.43684 -1041.4542
-144.58246 -126.50958 -1041.4542
-144.58246 -144.58235 -1041.4543
-144.58246 -162.65521 -1041.4542
-144.58202 -180.72748 -1041.4611
-144.87984 -199.20978 -1036.9672
-126.70422 289.60965 -1038.0991
-126.50965 271.09216 -1041.4543
-126.50965 253.01941 -1041.4543
-126.50965 234.94659 -1041.4542
-126.50965 216.87372 -1041.4543
-126.50965 198.80092 -1041.4542
-126.50965 180.7281 -1041.4543
-126.50965 162.65529 -1041.4542
-126.50965 144.58253 -1041.4542
-126.50965 126.50972 -1041.4543
-126.50965 108.43691 -1041.4542
-126.50965 90.364037 -1041.4543
-126.50965 72.291229 -1041.4542
-126.50965 54.218513 -1041.4542
-126.50965 36.145638 -1041.4543
-126.50965 18.072826 -1041.4542
-126.50965 0.0001126701 -1041.4543
-126.50965 -18.072802 -1041.4542
-126.50965 -36.145546 -1041.4542
-126.50965 -54.218395 -1041.4543
-126.50965 -72.291176 -1041.4542
-126.50965 -90.363922 -1041.4542
-126.50965 -108.43684 -1041.4542
-126.50965 -126.50958 -1041.4542
-126.50965 -144.58235 -1041.4543
-126.50965 -162.65521 -1041.4542
-126.50965 -180.72801 -1041.4542
-126.76986 -199.20978 -1036.9672
-108.60361 289.60965 -1038.0991
-108.43684 271.09216 -1041.4543
-108.43684 253.01941 -1041.4543
-108.43684 234.94659 -1041.4542
-108.43684 216.87372 -1041.4543
-108.43684 198.80092 -1041.4542
-108.43684 180.7281 -1041.4543
-108.43684 162.65529 -1041.4542
-108.43684 144.58253 -1041.4542
-108.43684 126.50972 -1041.4543
-108.43684 108.43691 -1041.4542
-108.43684 90.364037 -1041.4543
-108.43684 72.291229 -1041.4542
-108.43684 54.218513 -1041.4542
-108.43684 36.145638 -1041.4543
-108.43684 18.072826 -1041.4542
-108.43684 0.0001126701 -1041.4543
-108.43684 -18.072802 -1041.4542
-108.43684 -36.145546 -1041.4542
-108.43684 -54.218395 -1041.4543
-108.43684 -72.291176 -1041.4542
-108.43684 -90.363922 -1041.4542
-108.43684 -108.43684 -1041.4542
-108.43684 -126.50958 -1041.4542
-108.43684 -144.58235 -1041.4543
-108.43684 -162.65521 -1041.4542
-108.43684 -180.72801 -1041.4542
-108.65989 -199.20978 -1036.9672
-90.503014 289.60965 -1038.0991
-90.364037 271.09216 -1041.4543
-90.364037 253.01941 -1041.4543
-90.364037 234.94659 -1041.4542
-90.364037 216.87372 -1041.4543
-90.364037 198.80092 -1041.4542
-90.364037 180.7281 -1041.4543
-90.364037 162.65529 -1041.4542
-90.364037 144.58253 -1041.4542
-90.364037 126.50972 -1041.4543
-90.364037 108.43691 -1041.4542
-90.364037 90.364037 -1041.4543
-90.364037 72.291229 -1041.4542
-90.364037 54.218513 -1041.4542
-90.364037 36.145638 -1041.4543
-90.364037 18.072826 -1041.4542
-90.364037 0.0001126701 -1041.4543
-90.364037 -18.072802 -1041.4542
-90.364037 -36.145546 -1041.4542
-90.364037 -54.218395 -1041.4543
-90.364037 -72.291176 -1041.4542
-90.364037 -90.363922 -1041.4542
-90.364037 -108.43684 -1041.4542
-90.364037 -126.50958 -1041.4542
-90.364037 -144.58235 -1041.4543
-90.364037 -162.65521 -1041.4542
-90.364037 -180.72801 -1041.4542
-90.549904 -199.20978 -1036.9672
-72.402412 289.60965 -1038.0991
-72.291229 271.09216 -1041.4543
-72.291229 253.01941 -1041.4543
-72.291229 234.94659 -1041.4542
-72.291229 216.87372 -1041.4543
-72.291229 198.80092 -1041.4542
-72.291229 180.7281 -1041.4543
-72.291229 162.65529 -1041.4542
-72.291229 144.58253 -1041.4542
-72.291229 126.50972 -1041.4543
-72.291229 108.43691 -1041.4542
-72.291229 90.364037 -1041.4543
-72.291229 72.291229 -1041.4542
-72.291229 54.218513 -1041.4542
-72.291229 36.145638 -1041.4543
-72.291229 18.072826 -1041.4542
-72.291229 0.0001126701 -1041.4543
-72.291229 -18.072802 -1041.4542
-72.291229 -36.145546 -1041.4542
-72.291229 -54.218395 -1041.4543
-72.291229 -72.291176 -1041.4542
-72.291229 -90.363922 -1041.4542
-72.291229 -108.43684 -1041.4542
-72.291229 -126.50958 -1041.4542
-72.291229 -144.58235 -1041.4543
-72.291229 -162.65521 -1041.4542
-72.291229 -180.72801 -1041.4542
-72.439919 -199.20978 -1036.9672
-54.301807 289.60965 -1038.0991
-54.218422 271.09216 -1041.4543
-54.218422 253.01941 -1041.4543
-54.218422 234.94659 -1041.4542
-54.218422 216.87372 -1041.4543
-54.218422 198.80092 -1041.4542
-54.218422 180.7281 -1041.4543
-54.218422 162.65529 -1041.4542
-54.218422 144.58253 -1041.4542
-54.218422 126.50972 -1041.4543
-54.218422 108.43691 -1041.4542
-54.218422 90.364037 -1041.4543
-54.218422 72.291229 -1041.4542
-54.218422 54.218513 -1041.4542
-54.218422 36.145638 -1041.4543
-54.218422 18.072826 -1041.4542
-54.218422 0.0001126701 -1041.4543
-54.218422 -18.072802 -1041.4542
-54.218422 -36.145546 -1041.4542
-54.218422 -54.218395 -1041.4543
-54.218422 -72.291176 -1041.4542
-54.218422 -90.363922 -1041.4542
-54.218422 -108.43684 -1041.4542
-54.218422 -126.50958 -1041.4542
-54.218422 -144.58235 -1041.4543
-54.218422 -162.65521 -1041.4542
-54.218422 -180.72801 -1041.4542
-54.329945 -199.20978 -1036.9672
-36.201206 289.60965 -1038.0991
-36.145615 271.09216 -1041.4543
-36.145615 253.01941 -1041.4543
-36.145615 234.94659 -1041.4542
-36.145615 216.87372 -1041.4543
-36.145615 198.80092 -1041.4542
-36.145615 180.7281 -1041.4543
-36.145615 162.65529 -1041.4542
-36.145615 144.58253 -1041.4542
-36.145615 126.50972 -1041.4543
-36.145615 108.43691 -1041.4542
-36.145615 90.364037 -1041.4543
-36.145615 72.291229 -1041.4542
-36.145615 54.218513 -1041.4542
-36.145615 36.145638 -1041.4543
-36.145615 18.072826 -1041.4542
-36.145615 0.0001126701 -1041.4543
-36.145615 -18.072802 -1041.4542
-36.145615 -36.145546 -1041.4542
-36.145615 -54.218395 -1041.4543
-36.145615 -72.291176 -1041.4542
-36.145615 -90.363922 -1041.4542
-36.145615 -108.43684 -1041.4542
-36.145615 -126.50958 -1041.4542
-36.145615 -144.58235 -1041.4543
-36.145615 -162.65521 -1041.4542
-36.145615 -180.72801 -1041.4542
-36.219959 -199.20978 -1036.9672
-18.100603 289.60965 -1038.0991
-18.072807 271.09216 -1041.4543
-18.072807 253.01941 -1041.4543
-18.072807 234.94659 -1041.4542
-18.072807 216.87372 -1041.4543
-18.072807 198.80092 -1041.4542
-18.072807 180.7281 -1041.4543
-18.072807 162.65529 -1041.4542
-18.072807 144.58253 -1041.4542
-18.072807 126.50972 -1041.4543
-18.072807 108.43691 -1041.4542
-18.072807 90.364037 -1041.4543
-18.072807 72.291229 -1041.4542
-18.072807 54.218513 -1041.4542
-18.072807 36.145638 -1041.4543
-18.072807 18.072826 -1041.4542
-18.072807 0.0001126701 -1041.4543
-18.072807 -18.072802 -1041.4542
-18.072807 -36.145546 -1041.4542
-18.072807 -54.218395 -1041.4543
-18.072807 -72.291176 -1041.4542
-18.072807 -90.363922 -1041.4542
-18.072807 -108.43684 -1041.4542
-18.072807 -126.50958 -1041.4542
-18.072807 -144.58235 -1041.4543
-18.072807 -162.65521 -1041.4542
-18.072807 -180.72801 -1041.4542
-18.10998 -199.20978 -1036.9672
-3.316554e-22 289.60965 -1038.0991
-1.6894195e-22 271.09216 -1041.4543
-3.9417044e-22 253.01941 -1041.4543
-1.1138665e-22 234.94659 -1041.4542
-3.3661515e-22 216.87372 -1041.4543
3.6968511e-22 198.80092 -1041.4542
-5.33066e-22 180.7281 -1041.4543
5.9675073e-22 162.65529 -1041.4542
-5.1994239e-23 144.58253 -1041.4542
-1.0771241e-22 126.50972 -1041.4543
-2.4844509e-22 108.43691 -1041.4542
-5.0157114e-23 90.364037 -1041.4543
6.5614315e-22 72.291229 -1041.4542
-2.4660797e-22 54.218513 -1041.4542
-4.831999e-23 36.145638 -1041.4543
-1.8905267e-22 18.072826 -1041.4542
1.7874563e-22 0.0001126701 -1041.4543
3.8012948e-23 -18.072802 -1041.4542
2.3630092e-22 -36.145546 -1041.4542
-4.1244405e-22 -54.218395 -1041.4543
3.9850072e-23 -72.291176 -1041.4542
-6.088949e-22 -90.363922 -1041.4542
9.7405364e-23 -108.43684 -1041.4542
5.0745158e-22 -126.50958 -1041.4542
-3.9529954e-22 -144.58235 -1041.4543
3.1100073e-22 -162.65521 -1041.4542
-3.3774425e-22 -180.72801 -1041.4542
-3.8582614e-22 -199.20978 -1036.9672
18.100603 289.60965 -1038.0991
18.072807 271.09216 -1041.4543
18.072807 253.01941 -1041.4543
18.072807 234.94659 -1041.4542
18.072807 216.87372 -1041.4543
18.072807 198.80092 -1041.4542
18.072807 180.7281 -1041.4543
18.072807 162.65529 -1041.4542
18.072807 144.58253 -1041.4542
18.072807 126.50972 -1041.4543
18.072807 108.43691 -1041.4542
18.072807 90.364037 -1041.4543
18.072807 72.291229 -1041.4542
18.072807 54.218513 -1041.4542
18.072807 36.145638 -1041.4543
18.072807 18.072826 -1041.4542
18.072807 0.0001126701 -1041.4543
18.072807 -18.072802 -1041.4542
18.072807 -36.145546 -1041.4542
18.072807 -54.218395 -1041.4543
18.072807 -72.291176 -1041.4542
18.072807 -90.363922 -1041.4542
18.072807 -108.43684 -1041.4542
18.072807 -126.50958 -1041.4542
18.072807 -144.58235 -1041.4543
18.072807 -162.65521 -1041.4542
18.072807 -180.72801 -1041.4542
18.10998 -199.20978 -1036.9672
36.201206 289.60965 -1038.0991
36.145615 271.09216 -1041.4543
36.145615 253.01941 -1041.4543
36.145615 234.94659 -1041.4542
36.145615 216.87372 -1041.4543
36.145615 198.80092 -1041.4542
36.145615 180.7281 -1041.4543
36.145615 162.65529 -1041.4542
36.145615 144.58253 -1041.4542
36.145615 126.50972 -1041.4543
36.145615 108.43691 -1041.4542
36.145615 90.364037 -1041.4543
36.145615 72.291229 -1041.4542
36.145615 54.218513 -1041.4542
36.145615 36.145638 -1041.4543
36.145615 18.072826 -1041.4542
36.145615 0.0001126701 -1041.4543
36.145615 -18.072802 -1041.4542
36.145615 -36.145546 -1041.4542
36.145615 -54.218395 -1041.4543
36.145615 -72.291176 -1041.4542
36.145615 -90.363922 -1041.4542
36.145615 -108.43684 -1041.4542
36.145615 -126.50958 -1041.4542
36.145615 -144.58235 -1041.4543
36.145615 -162.65521 -1041.4542
36.145615 -180.72801 -1041.4542
36.219959 -199.20978 -1036.9672
54.301807 289.60965 -1038.0991
54.218422 271.09216 -1041.4543
54.218422 253.01941 -1041.4543
54.218422 234.94659 -1041.4542
54.218422 216.87372 -1041.4543
54.218422 198.80092 -1041.4542
54.218422 180.7281 -1041.4543
54.218422 162.65529 -1041.4542
54.218422 144.58253 -1041.4542
54.218422 126.50972 -1041.4543
54.218422 108.43691 -1041.4542
54.218422 90.364037 -1041.4543
54.218422 72.291229 -1041.4542
54.218422 54.218513 -1041.4542
54.218422 36.145638 -1041.4543
54.218422 18.072826 -1041.4542
54.218422 0.0001126701 -1041.4543
54.218422 -18.072802 -1041.4542
54.218422 -36.145546 -1041.4542
54.218422 -54.218395 -1041.4543
54.218422 -72.291176 -1041.4542
54.218422 -90.363922 -1041.4542
54.218422 -108.43684 -1041.4542
54.218422 -126.50958 -1041.4542
54.218422 -144.58235 -1041.4543
54.218422 -162.65521 -1041.4542
54.218422 -180.72801 -1041.4542
54.329945 -199.20978 -1036.9672
72.402412 289.60965 -1038.0991
72.291229 271.09216 -1041.4543
72.291229 253.01941 -1041.4543
72.291229 234.94659 -1041.4542
72.291229 216.87372 -1041.4543
72.291229 198.80092 -1041.4542
72.291229 180.7281 -1041.4543
72.291229 162.65529 -1041.4542
72.291229 144.58253 -1041.4542
72.291229 126.50972 -1041.4543
72.291229 108.43691 -1041.4542
72.291229 90.364037 -1041.4543
72.291229 72.291229 -1041.4542
72.291229 54.218513 -1041.4542
72.291229 36.145638 -1041.4543
72.291229 18.072826 -1041.4542
72.291229 0.0001126701 -1041.4543
72.291229 -18.072802 -1041.4542
72.291229 -36.145546 -1041.4542
72.291229 -54.218395 -1041.4543
72.291229 -72.291176 -1041.4542
72.291229 -90.363922 -1041.4542
72.291229 -108.43684 -1041.4542
72.291229 -126.50958 -1041.4542
72.291229 -144.58235 -1041.4543
72.291229 -162.65521 -1041.4542
72.291229 -180.72801 -1041.4542
72.439919 -199.20978 -1036.9672
90.503014 289.60965 -1038.0991
90.364037 271.09216 -1041.4543
90.364037 253.01941 -1041.4543
90.364037 234.94659 -1041.4542
90.364037 216.87372 -1041.4543
90.364037 198.80092 -1041.4542
90.364037 180.7281 -1041.4543
90.364037 162.65529 -1041.4542
90.364037 144.58253 -1041.4542
90.364037 126.50972 -1041.4543
90.364037 108.43691 -1041.4542
90.364037 90.364037 -1041.4543
90.364037 72.291229 -1041.4542
90.364037 54.218513 -1041.4542
90.364037 36.145638 -1041.4543
90.364037 18.072826 -1041.4542
90.364037 0.0001126701 -1041.4543
90.364037 -18.072802 -1041.4542
90.364037 -36.145546 -1041.4542
90.364037 -54.218395 -1041.4543
90.364037 -72.291176 -1041.4542
90.364037 -90.363922 -1041.4542
90.364037 -108.43684 -1041.4542
90.364037 -126.50958 -1041.4542
90.364037 -144.58235 -1041.4543
90.364037 -162.65521 -1041.4542
90.364037 -180.72801 -1041.4542
90.549904 -199.20978 -1036.9672
108.60361 289.60965 -1038.0991
108.43684 271.09216 -1041.4543
108.43684 253.01941 -1041.4543
108.43684 234.94659 -1041.4542
108.43684 216.87372 -1041.4543
108.43684 198.80092 -1041.4542
108.43684 180.7281 -1041.4543
108.43684 162.65529 -1041.4542
108.43684 144.58253 -1041.4542
108.43684 126.50972 -1041.4543
108.43684 108.43691 -1041.4542
108.43684 90.364037 -1041.4543
108.43684 72.291229 -1041.4542
108.43684 54.218513 -1041.4542
108.43684 36.145638 -1041.4543
108.43684 18.072826 -1041.4542
108.43684 0.0001126701 -1041.4543
108.43684 -18.072802 -1041.4542
108.43684 -36.145546 -1041.4542
108.43684 -54.218395 -1041.4543
108.43684 -72.291176 -1041.4542
108.43684 -90.363922 -1041.4542
108.43684 -108.43684 -1041.4542
108.43684 -126.50958 -1041.4542
108.43684 -144.58235 -1041.4543
108.43684 -162.65521 -1041.4542
108.43684 -180.72801 -1041.4542
108.65989 -199.20978 -1036.9672
126.70422 289.60965 -1038.0991
126.50965 271.09216 -1041.4543
126.50965 253.01941 -1041.4543
126.50965 234.94659 -1041.4542
126.50965 216.87372 -1041.4543
126.50965 198.80092 -1041.4542
126.50965 180.7281 -1041.4543
126.50965 162.65529 -1041.4542
126.50965 144.58253 -1041.4542
126.50965 126.50972 -1041.4543
126.50965 108.43691 -1041.4542
126.50965 90.364037 -1041.4543
126.50965 72.291229 -1041.4542
126.50965 54.218513 -1041.4542
126.50965 36.145638 -1041.4543
126.50965 18.072826 -1041.4542
126.50965 0.0001126701 -1041.4543
126.50965 -18.072802 -1041.4542
126.50965 -36.145546 -1041.4542
126.50965 -54.218395 -1041.4543
126.50965 -72.291176 -1041.4542
126.50965 -90.363922 -1041.4542
126.50965 -108.43684 -1041.4542
126.50965 -126.50958 -1041.4542
126.50965 -144.58235 -1041.4543
126.50965 -162.65521 -1041.4542
126.50965 -180.72801 -1041.4542
126.76986 -199.20978 -1036.9672
144.80482 289.60965 -1038.0991
144.58246 271.09216 -1041.4543
144.58246 253.01941 -1041.4543
144.58246 234.94659 -1041.4542
144.58246 216.87372 -1041.4543
144.58246 198.80092 -1041.4542
144.58246 180.7281 -1041.4543
144.58246 162.65529 -1041.4542
144.58246 144.58253 -1041.4542
144.58246 126.50972 -1041.4543
144.58246 108.43691 -1041.4542
144.58246 90.364037 -1041.4543
144.58246 72.291229 -1041.4542
144.58246 54.218513 -1041.4542
144.58246 36.145638 -1041.4543
144.58246 18.072826 -1041.4542
144.58246 0.0001126701 -1041.4543
144.58246 -18.072802 -1041.4542
144.58246 -36.145546 -1041.4542
144.58246 -54.218395 -1041.4543
144.58246 -72.291176 -1041.4542
144.58246 -90.363922 -1041.4542
144.58246 -108.43684 -1041.4542
144.58246 -126.50958 -1041.4542
144.58246 -144.58235 -1041.4543
144.58246 -162.65521 -1041.4542
144.58246 -180.72801 -1041.4542
144.87984 -199.20978 -1036.9672
162.90543 289.60965 -1038.0991
162.65526 271.09216 -1041.4543
162.65526 253.01941 -1041.4543
162.65526 234.94659 -1041.4542
162.65526 216.87372 -1041.4543
162.65526 198.80092 -1041.4542
162.65526 180.7281 -1041.4543
162.65526 162.65529 -1041.4542
162.65526 144.58253 -1041.4542
162.65526 126.50972 -1041.4543
162.65526 108.43691 -1041.4542
162.65526 90.364037 -1041.4543
162.65526 72.291229 -1041.4542
162.65526 54.218513 -1041.4542
162.65526 36.145638 -1041.4543
162.65526 18.072826 -1041.4542
162.65526 0.0001126701 -1041.4543
162.65526 -18.072802 -1041.4542
162.65526 -36.145546 -1041.4542
162.65526 -54.218395 -1041.4543
162.65526 -72.291176 -1041.4542
162.65526 -90.363922 -1041.4542
162.65526 -108.43684 -1041.4542
162.65526 -126.50958 -1041.4542
162.65526 -144.58235 -1041.4543
162.65526 -162.65521 -1041.4542
162.65526 -180.72801 -1041.4542
162.98982 -199.20978 -1036.9672
181.00603 289.60965 -1038.0991
180.72807 271.09216 -1041.4543
180.72807 253.01941 -1041.4543
180.72807 234.94659 -1041.4542
180.72807 216.87372 -1041.4543
180.72807 198.80092 -1041.4542
180.72807 180.7281 -1041.4543
180.72807 162.65529 -1041.4542
180.72807 144.58253 -1041.4542
180.72807 126.50972 -1041.4543
180.72807 108.43691 -1041.4542
180.72807 90.364037 -1041.4543
180.72807 72.291229 -1041.4542
180.72807 54.218513 -1041.4542
180.72807 36.145638 -1041.4543
180.72807 18.072826 -1041.4542
180.72807 0.0001126701 -1041.4543
180.72807 -18.072802 -1041.4542
180.72807 -36.145546 -1041.4542
180.72807 -54.218395 -1041.4543
180.72807 -72.291176 -1041.4542
180.72807 -90.363922 -1041.4542
180.72807 -108.43684 -1041.4542
180.72807 -126.50958 -1041.4542
180.72807 -144.58235 -1041.4543
180.72807 -162.65521 -1041.4542
180.72807 -180.72801 -1041.4542
181.09981 -199.20978 -1036.9672
199.10663 289.60965 -1038.0991
198.80087 271.09216 -1041.4543
198.80087 253.01941 -1041.4543
198.80087 234.94659 -1041.4542
198.80087 216.87372 -1041.4543
198.80087 198.80092 -1041.4542
198.80087 180.7281 -1041.4543
198.80087 162.65529 -1041.4542
198.80087 144.58253 -1041.4542
198.80087 126.50972 -1041.4543
198.80087 108.43691 -1041.4542
198.80087 90.364037 -1041.4543
198.80087 72.291229 -1041.4542
198.80087 54.218513 -1041.4542
198.80087 36.145638 -1041.4543
198.80087 18.072826 -1041.4542
198.80087 0.0001126701 -1041.4543
198.80087 -18.072802 -1041.4542
198.80087 -36.145546 -1041.4542
198.80087 -54.218395 -1041.4543
198.80087 -72.291176 -1041.4542
198.80087 -90.363922 -1041.4542
198.80087 -108.43684 -1041.4542
198.80087 -126.50958 -1041.4542
198.80087 -144.58235 -1041.4543
198.80087 -162.65521 -1041.4542
198.80087 -180.72801 -1041.4542
199.20979 -199.20978 -1036.9672
217.20723 289.60965 -1038.0991
216.87369 271.09216 -1041.4543
216.87369 253.01941 -1041.4543
216.87369 234.94659 -1041.4542
216.87369 216.87372 -1041.4543
216.87369 198.80092 -1041.4542
216.87369 180.7281 -1041.4543
216.87369 162.65529 -1041.4542
216.87369 144.58253 -1041.4542
216.87369 126.50972 -1041.4543
216.87369 108.43691 -1041.4542
216.87369 90.364037 -1041.4543
216.87369 72.291229 -1041.4542
216.87369 54.218513 -1041.4542
216.87369 36.145638 -1041.4543
216.87369 18.072826 -1041.4542
216.87369 0.0001126701 -1041.4543
216.87369 -18.072802 -1041.4542
216.87369 -36.145546 -1041.4542
216.87369 -54.218395 -1041.4543
216.87369 -72.291176 -1041.4542
216.87369 -90.363922 -1041.4542
216.87369 -108.43684 -1041.4542
216.87369 -126.50958 -1041.4542
216.87369 -144.58235 -1041.4543
216.87369 -162.65521 -1041.4542
216.87369 -180.72801 -1041.4542
217.31978 -199.20978 -1036.9672
235.30785 289.60965 -1038.0991
234.94649 271.09216 -1041.4543
234.94649 253.01941 -1041.4543
234.94649 234.94659 -1041.4542
234.94649 216.87372 -1041.4543
234.94649 198.80092 -1041.4542
234.94649 180.7281 -1041.4543
234.94649 162.65529 -1041.4542
234.94649 144.58253 -1041.4542
234.94649 126.50972 -1041.4543
234.94649 108.43691 -1041.4542
234.94649 90.364037 -1041.4543
234.94649 72.291229 -1041.4542
234.94649 54.218513 -1041.4542
234.94649 36.145638 -1041.4543
234.94649 18.072826 -1041.4542
234.94649 0.0001126701 -1041.4543
234.94649 -18.072802 -1041.4542
234.94649 -36.145546 -1041.4542
234.94649 -54.218395 -1041.4543
234.94649 -72.291176 -1041.4542
234.94649 -90.363922 -1041.4542
234.94649 -108.43684 -1041.4542
234.94649 -126.50958 -1041.4542
234.94649 -144.58235 -1041.4543
234.94649 -162.65521 -1041.4542
234.94649 -180.72801 -1041.4542
235.42976 -199.20978 -1036.9672
253.40843 289.60965 -1038.0991
253.0193 271.09216 -1041.4543
253.0193 253.01941 -1041.4543
253.0193 234.94659 -1041.4542
253.0193 216.87372 -1041.4543
253.0193 198.80092 -1041.4542
253.0193 180.7281 -1041.4543
253.0193 162.65529 -1041.4542
253.0193 144.58253 -1041.4542
253.0193 126.50972 -1041.4543
253.0193 108.43691 -1041.4542
253.0193 90.364037 -1041.4543
253.0193 72.291229 -1041.4542
253.0193 54.218513 -1041.4542
253.0193 36.145638 -1041.4543
253.0193 18.072826 -1041.4542
253.0193 0.0001126701 -1041.4543
253.0193 -18.072802 -1041.4542
253.0193 -36.145546 -1041.4542
253.0193 -54.218395 -1041.4543
253.0193 -72.291176 -1041.4542
253.0193 -90.363922 -1041.4542
253.0193 -108.43684 -1041.4542
253.0193 -126.50958 -1041.4542
253.0193 -144.58235 -1041.4543
253.0193 -162.65521 -1041.4542
253.0193 -180.72801 -1041.4542
253.53972 -199.20978 -1036.9672
271.50903 289.60965 -1038.0991
271.09213 271.09216 -1041.4543
271.09213 253.01941 -1041.4543
271.09213 234.94659 -1041.4542
271.09213 216.87372 -1041.4543
271.09213 198.80092 -1041.4542
271.09213 180.7281 -1041.4543
271.09213 162.65529 -1041.4542
271.09213 144.58253 -1041.4542
271.09213 126.50972 -1041.4543
271.09213 108.43691 -1041.4542
271.09213 90.364037 -1041.4543
271.09213 72.291229 -1041.4542
271.09213 54.218513 -1041.4542
271.09213 36.145638 -1041.4543
271.09213 18.072826 -1041.4542
271.09213 0.0001126701 -1041.4543
271.09213 -18.072802 -1041.4542
271.09213 -36.145546 -1041.4542
271.09213 -54.218395 -1041.4543
271.09213 -72.291176 -1041.4542
271.09213 -90.363922 -1041.4542
271.09213 -108.43684 -1041.4542
271.09213 -126.50958 -1041.4542
271.09213 -144.58235 -1041.4543
271.09213 -162.65521 -1041.4542
271.09213 -180.72801 -1041.4542
271.64972 -199.20978 -1036.9672
289.60965 289.60965 -1038.0991
289.16492 271.09216 -1041.4543
289.16492 253.01941 -1041.4543
289.16492 234.94659 -1041.4542
289.16492 216.87372 -1041.4543
289.16492 198.80092 -1041.4542
289.16492 180.7281 -1041.4543
289.16492 162.65529 -1041.4542
289.16492 144.58253 -1041.4542
289.16492 126.50972 -1041.4543
289.16492 108.43691 -1041.4542
289.16492 90.364037 -1041.4543
289.16492 72.291229 -1041.4542
289.16492 54.218513 -1041.4542
289.16492 36.145638 -1041.4543
289.16492 18.072826 -1041.4542
289.16492 0.0001126701 -1041.4543
289.16492 -18.072802 -1041.4542
289.16492 -36.145546 -1041.4542
289.16492 -54.218395 -1041.4543
289.16492 -72.291176 -1041.4542
289.16492 -90.363922 -1041.4542
289.16492 -108.43684 -1041.4542
289.16492 -126.50958 -1041.4542
289.16492 -144.58235 -1041.4543
289.16492 -162.65521 -1041.4542
289.16492 -180.72801 -1041.4542
289.75967 -199.20978 -1036.9672
307.71027 289.60965 -1038.0991
307.23773 271.09216 -1041.4543
307.23773 253.01941 -1041.4543
307.23773 234.94659 -1041.4542
307.23773 216.87372 -1041.4543
307.23773 198.80092 -1041.4542
307.23773 180.7281 -1041.4543
307.23773 162.65529 -1041.4542
307.23773 144.58253 -1041.4542
307.23773 126.50972 -1041.4543
307.23773 108.43691 -1041.4542
307.23773 90.364037 -1041.4543
307.23773 72.291229 -1041.4542
307.23773 54.218513 -1041.4542
307.23773 36.145638 -1041.4543
307.23773 18.072826 -1041.4542
307.23773 0.0001126701 -1041.4543
307.23773 -18.072802 -1041.4542
307.23773 -36.145546 -1041.4542
307.23773 -54.218395 -1041.4543
307.23773 -72.291176 -1041.4542
307.23773 -90.363922 -1041.4542
307.23773 -108.43684 -1041.4542
307.23773 -126.50958 -1041.4542
307.23773 -144.58235 -1041.4543
307.23773 -162.65521 -1041.4542
307.23773 -180.72801 -1041.4542
307.86969 -199.20978 -1036.9672
325.81085 289.60965 -1038.0991
325.31052 271.09216 -1041.4543
325.31052 253.01941 -1041.4543
325.31052 234.94659 -1041.4542
325.31052 216.87372 -1041.4543
325.31052 198.80092 -1041.4542
325.31052 180.7281 -1041.4543
325.31052 162.65529 -1041.4542
325.31052 144.58253 -1041.4542
325.31052 126.50972 -1041.4543
325.31052 108.43691 -1041.4542
325.31052 90.364037 -1041.4543
325.31052 72.291229 -1041.4542
325.31052 54.218513 -1041.4542
325.31052 36.145638 -1041.4543
325.31052 18.072826 -1041.4542
325.31052 0.0001126701 -1041.4543
325.31052 -18.072802 -1041.4542
325.31052 -36.145546 -1041.4542
325.31052 -54.218395 -1041.4543
325.31052 -72.291176 -1041.4542
325.31052 -90.363922 -1041.4542
325.31052 -108.43684 -1041.4542
325.31052 -126.50958 -1041.4542
325.31052 -144.58235 -1041.4543
325.31052 -162.65521 -1041.4542
325.31052 -180.72801 -1041.4542
325.97964 -199.20978 -1036.9672
343.91144 289.60965 -1038.0991
343.38336 271.09216 -1041.4543
343.38336 253.01941 -1041.4543
343.38336 234.94659 -1041.4542
343.38336 216.87372 -1041.4543
343.38336 198.80092 -1041.4542
343.38336 180.7281 -1041.4543
343.38336 162.65529 -1041.4542
343.38336 144.58253 -1041.4542
343.38336 126.50972 -1041.4543
343.38336 108.43691 -1041.4542
343.38336 90.364037 -1041.4543
343.38336 72.291229 -1041.4542
343.38336 54.218513 -1041.4542
343.38336 36.145638 -1041.4543
343.38336 18.072826 -1041.4542
343.38336 0.0001126701 -1041.4543
343.38336 -18.072802 -1041.4542
343.38336 -36.145546 -1041.4542
343.38336 -54.218395 -1041.4543
343.38336 -72.291176 -1041.4542
343.38336 -90.363922 -1041.4542
343.38336 -108.43684 -1041.4542
343.38336 -126.50958 -1041.4542
343.38336 -144.58235 -1041.4543
343.38336 -162.65521 -1041.4542
343.38336 -180.72801 -1041.4542
344.08963 -199.20978 -1036.9672
362.01205 289.60965 -1038.0991
361.45615 271.09216 -1041.4543
361.45615 253.01941 -1041.4543
361.45615 234.94659 -1041.4542
361.45615 216.87372 -1041.4543
361.45615 198.80092 -1041.4542
361.45615 180.7281 -1041.4543
361.45615 162.65529 -1041.4542
361.45615 144.58253 -1041.4542
361.45615 126.50972 -1041.4543
361.45615 108.43691 -1041.4542
361.45615 90.364037 -1041.4543
361.45615 72.291229 -1041.4542
361.45615 54.218513 -1041.4542
361.45615 36.145638 -1041.4543
361.45615 18.072826 -1041.4542
361.45615 0.0001126701 -1041.4543
361.45615 -18.072802 -1041.4542
361.45615 -36.145546 -1041.4542
361.45615 -54.218395 -1041.4543
361.45615 -72.291176 -1041.4542
361.45615 -90.363922 -1041.4542
361.45615 -108.43684 -1041.4542
361.45615 -126.50958 -1041.4542
361.45615 -144.58235 -1041.4543
361.45615 -162.65521 -1041.4542
361.45615 -180.72801 -1041.4542
362.19962 -199.20978 -1036.9672
365.91626 -219.54976 -1014.5352
365.91626 -237.84557 -1014.5352
365.91626 -256.14139 -1014.5351
365.91626 -274.43719 -1014.5352
365.91626 -292.73297 -1014.5352
365.91626 -311.02875 -1014.5352
365.91626 -329.32458 -1014.5352
365.91626 -347.62039 -1014.5352
365.91626 -365.9162 -1014.5352
380.11267 289.60965 -1038.0991
379.52896 271.09216 -1041.4543
379.52896 253.01941 -1041.4543
379.52896 234.94659 -1041.4542
379.52896 216.87372 -1041.4543
379.52896 198.80092 -1041.4542
379.52896 180.7281 -1041.4543
379.52896 162.65529 -1041.4542
379.52896 144.58253 -1041.4542
379.52896 126.50972 -1041.4543
379.52896 108.43691 -1041.4542
379.52896 90.364037 -1041.4543
379.52896 72.291229 -1041.4542
379.52896 54.218513 -1041.4542
379.52896 36.145638 -1041.4543
379.52896 18.072826 -1041.4542
379.52896 0.0001126701 -1041.4543
379.52896 -18.072802 -1041.4542
379.52896 -36.145546 -1041.4542
379.52896 -54.218395 -1041.4543
379.52896 -72.291176 -1041.4542
379.52896 -90.363922 -1041.4542
379.52896 -108.43684 -1041.4542
379.52896 -126.50958 -1041.4542
379.52896 -144.58235 -1041.4543
379.52896 -162.65521 -1041.4542
379.52896 -180.72801 -1041.4542
380.30957 -199.20978 -1036.9672
382.69238 -218.68129 -1023.2705
382.69238 -236.90479 -1023.2704
382.69238 -255.12822 -1023.2704
382.69238 -273.35168 -1023.2704
382.69238 -291.57513 -1023.2704
382.69238 -309.79852 -1023.2704
382.69238 -328.02194 -1023.2704
382.69238 -346.24542 -1023.2704
382.69238 -364.46884 -1023.2704
398.21326 289.60965 -1038.0991
397.60175 271.09216 -1041.4543
397.60175 253.01941 -1041.4543
397.60175 234.94659 -1041.4542
397.60175 216.87372 -1041.4543
397.60175 198.80092 -1041.4542
397.60175 180.7281 -1041.4543
397.60175 162.65529 -1041.4542
397.60175 144.58253 -1041.4542
397.60175 126.50972 -1041.4543
397.60175 108.43691 -1041.4542
397.60175 90.364037 -1041.4543
397.60175 72.291229 -1041.4542
397.60175 54.218513 -1041.4542
397.60175 36.145638 -1041.4543
397.60175 18.072826 -1041.4542
397.60175 0.0001126701 -1041.4543
397.60175 -18.072802 -1041.4542
397.60175 -36.145546 -1041.4542
397.60175 -54.218395 -1041.4543
397.60175 -72.291176 -1041.4542
397.60175 -90.363922 -1041.4542
397.60175 -108.43684 -1041.4542
397.60175 -126.50958 -1041.4542
397.60175 -144.58235 -1041.4543
397.60175 -162.65521 -1041.4542
397.60175 -180.72801 -1041.4542
398.41959 -199.20978 -1036.9672
402.1348 -219.34622 -1016.5821
402.1348 -237.62512 -1016.5821
402.1348 -255.90387 -1016.5822
402.1348 -274.18271 -1016.5822
402.1348 -292.46167 -1016.5822
402.1348 -310.74048 -1016.5822
402.1348 -329.01938 -1016.5822
402.1348 -347.29822 -1016.5821
402.1348 -365.57697 -1016.5822
416.52954 289.7598 -1036.967
415.67459 271.09216 -1041.4543
415.67459 253.01941 -1041.4543
415.67459 234.94659 -1041.4542
415.67459 216.87372 -1041.4543
415.67459 198.80092 -1041.4542
415.67459 180.7281 -1041.4543
415.67459 162.65529 -1041.4542
415.67459 144.58253 -1041.4542
415.67459 126.50972 -1041.4543
415.67459 108.43691 -1041.4542
415.67459 90.364037 -1041.4543
415.67459 72.291229 -1041.4542
415.67459 54.218513 -1041.4542
415.67459 36.145638 -1041.4543
415.67459 18.072826 -1041.4542
415.67459 0.0001126701 -1041.4543
415.67459 -18.072802 -1041.4542
415.67459 -36.145546 -1041.4542
415.67459 -54.218395 -1041.4543
415.67459 -72.291176 -1041.4542
415.67459 -90.363922 -1041.4542
415.67459 -108.43684 -1041.4542
415.67459 -126.50958 -1041.4542
415.67459 -144.58235 -1041.4543
415.67459 -162.65521 -1041.4542
415.67459 -180.72801 -1041.4542
416.67435 -199.27898 -1036.2072
434.70023 271.68762 -1036.6619
434.51013 253.46432 -1037.618
434.51013 235.35965 -1037.618
434.51013 217.25511 -1037.618
434.51013 199.15054 -1037.6179
434.51013 181.0459 -1037.6179
434.51013 162.94133 -1037.6179
434.51013 144.83679 -1037.6179
434.51013 126.73219 -1037.618
434.51013 108.62765 -1037.618
434.51013 90.522972 -1037.618
434.51013 72.418404 -1037.618
434.51013 54.313835 -1037.6179
434.51013 36.209221 -1037.6179
434.51013 18.104649 -1037.6179
434.51013 0.000110686 -1037.6179
434.51013 -18.104565 -1037.6179
434.51013 -36.209156 -1037.6179
434.51013 -54.313763 -1037.618
434.51013 -72.418304 -1037.618
434.51013 -90.522873 -1037.6179
434.51013 -108.62752 -1037.618
434.51013 -126.73209 -1037.6179
434.51013 -144.83667 -1037.6179
434.51013 -162.9413 -1037.6179
434.71103 -181.12958 -1036.6075
