# .PCD v0.7 - Point Cloud Data file format
VERSION 0.7
FIELDS x y z
SIZE 4 4 4
TYPE F F F
COUNT 1 1 1
WIDTH 1520
HEIGHT 1
VIEWPOINT 0 0 0 1 0 0 0
POINTS 1520
DATA ascii
-1080.1168 41.54303 830.12317
-1079.9037 0.00012760231 829.13361
-1079.7498 -41.528633 828.41937
-1079.9569 -83.073364 829.38098
-1079.8799 -124.60132 829.02374
-1080.8514 -166.28462 833.53394
-1082.5378 -208.18025 841.36365
-1018.4918 285.17776 733.15863
-1018.4973 244.43954 733.18518
-1018.5027 203.70067 733.21167
-1018.5027 162.96053 733.21143
-1018.4973 122.21969 733.18518
-1018.4808 81.478668 733.10565
-1018.5027 40.740223 733.21155
-1018.2346 8.3555191e-05 731.91644
-1017.6657 -40.706505 729.16998
-1017.622 -81.409538 728.95886
-1018.459 -122.21492 732.99994
-1018.2564 -162.92087 732.02203
-1019.9886 -203.99759 740.38629
-974.85938 324.95322 718.60925
-958.78009 279.6445 637.73663
-959.2301 239.80774 640.00018
-959.24023 199.84187 640.05096
-959.24524 159.87436 640.07623
-959.24524 119.90576 640.07642
-959.22504 79.935547 639.97467
-959.24023 39.968395 640.05096
-959.24524 3.2242551e-06 640.07648
-959.28571 -39.9702 640.28009
-959.23511 -79.936111 640.02551
-959.21997 -119.90233 639.94916
-958.01245 -159.66856 633.87573
-959.32617 -199.85953 640.48346
-906.63916 315.35303 573.75104
-901.27161 274.30014 545.58032
-901.47198 235.16673 546.63232
-901.48602 195.97537 546.70551
-901.49066 156.78125 546.73004
-901.47668 117.58398 546.65674
-901.46271 78.388321 546.58325
-901.47668 39.194721 546.65668
-901.48602 0.00014988318 546.70575
-901.52338 -39.196568 546.90137
-901.48132 -78.389641 546.68121
-901.42542 -117.57698 546.38751
-900.88031 -156.67468 543.52667
-901.16449 -195.9052 545.01801
-848.38635 308.50418 470.4133
-845.91998 269.15646 456.88043
-845.8985 230.69963 456.76266
-845.91565 192.25371 456.85684
-845.91138 153.8022 456.83334
-845.8985 115.34983 456.76273
-845.88562 76.898773 456.69211
-845.84698 38.447617 456.48007
-845.85553 0.00012979969 456.52704
-845.92853 -38.451206 456.92734
-845.91138 -76.900864 456.83316
-845.82983 -115.34028 456.38577
-845.82556 -153.78624 456.36224
-845.79547 -192.2262 456.19763
-859.14471 450.02838 753.91858
-793.74451 302.37891 377.98987
-792.38898 264.12979 370.19797
-792.62177 226.46349 371.53656
-792.65338 188.72697 371.71805
-792.63763 150.97868 371.62714
-792.62573 113.23228 371.55914
-792.61786 75.487602 371.51364
-792.19965 37.72403 369.10974
-792.20758 0.00022267997 369.15506
-792.65338 -37.745415 371.71808
-792.65735 -75.491089 371.74072
-792.59814 -113.22826 371.40027
-792.5744 -150.96634 371.26407
-791.97882 -188.56622 367.84079
-801.93396 441.06381 655.54523
-798.71814 399.35916 636.13556
-800.36298 360.16345 646.06305
-741.29541 296.5184 289.55875
-740.82434 259.28867 286.71609
-741.27368 222.38222 289.42752
-741.31348 185.32861 289.66812
-741.28815 148.25764 289.51517
-741.27368 111.19116 289.42764
-741.26636 74.126724 289.38376
-740.80988 37.040554 286.62872
-740.69403 4.0443541e-05 285.9295
-741.29541 -37.064621 289.55869
-741.30627 -74.13047 289.62436
-741.28448 -111.1926 289.49329
-741.24103 -148.24811 289.23065
-740.41541 -185.10364 284.24783
-747.19067 432.5842 562.492
-744.42096 391.80057 544.89563
-746.04858 353.39142 555.23621
-691.69373 291.23965 209.90906
-691.29852 254.6889 207.39856
-691.60065 218.40027 209.31812
-691.63391 182.00909 209.52911
-691.6106 145.6024 209.38133
-691.60065 109.20023 209.31808
-691.59399 72.799484 209.27599
-691.15918 36.376877 206.51305
-691.02313 0.00018326713 205.64909
-691.6106 -36.400433 209.38148
-691.62726 -72.802803 209.48701
-691.61389 -109.20206 209.40263
-691.57745 -145.59515 209.17043
-690.9502 -181.82893 205.18579
-695.19904 424.84406 477.55356
-693.24884 385.13837 464.47531
-653.62469 326.81238 198.74959
-643.68134 286.08081 132.06767
-643.56592 250.27582 131.29379
-643.57196 214.52415 131.33458
-643.59625 178.77681 131.49763
-643.57196 143.01611 131.33453
-643.56891 107.26151 131.31429
-643.56891 71.507698 131.31439
-643.20782 35.733788 128.89278
-643.20178 0.00016183095 128.85187
-643.57196 -35.753788 131.33455
-643.59326 -71.510231 131.47708
-643.57806 -107.2629 131.3755
-643.54767 -143.01044 131.17165
-643.18658 -178.6628 128.75026
-654.22302 461.80472 460.84006
-644.2677 416.87909 390.15051
-643.26086 378.38892 383.00125
-602.40393 318.91992 92.891708
-597.19904 281.03497 55.93327
-597.20734 245.90904 55.992474
-597.22119 210.78397 56.090794
-597.23505 175.65742 56.188976
-597.20734 140.51955 55.992443
-597.20734 105.38963 55.992256
-597.21838 70.261223 56.070938
-597.09662 35.123455 55.206249
-597.09106 0.00013429153 55.166962
-597.20734 -35.129795 55.992405
-597.23779 -70.263161 56.208626
-597.21838 -105.39149 56.07111
-597.19067 -140.51537 55.874451
-597.06616 -175.60757 54.990154
-600.03241 450.02438 342.33997
-596.16779 409.86548 313.18393
-595.68164 372.30109 309.5159
-555.76324 312.61691 8.3550634
-552.48907 276.24469 -16.346666
-552.48651 241.71294 -16.365753
-552.50165 207.18816 -16.251757
-552.50922 172.65932 -16.194897
-552.48651 138.12183 -16.365753
-552.48907 103.59173 -16.346733
-552.50165 69.062813 -16.251719
-552.50922 34.531914 -16.194609
-552.50165 0.00023095161 -16.251839
-552.48651 -34.530289 -16.365658
-552.51929 -69.064713 -16.118929
-552.49658 -103.593 -16.289829
-552.47144 -138.11784 -16.479607
-552.47394 -172.64807 -16.460672
-554.52551 -207.94687 -0.98305637
-551.14124 440.91324 250.68753
-551.11987 404.15469 250.51561
-552.38116 368.25427 260.66602
-511.41306 306.8479 -69.020203
-509.34161 271.6489 -85.689842
-509.33478 237.68971 -85.74514
-509.35303 203.7413 -85.59816
-509.35989 169.78673 -85.542854
-509.34387 135.82509 -85.671478
-509.34619 101.86932 -85.653221
-509.34848 67.913246 -85.634758
-509.3576 33.957172 -85.561279
-509.35303 9.4678122e-05 -85.598068
-509.34619 -33.956348 -85.653198
-509.36899 -67.915794 -85.469475
-509.34387 -101.86877 -85.671455
-509.32336 -135.8195 -85.836906
-509.32336 -169.77437 -85.8368
-509.35529 -203.74202 -85.579826
-511.34915 438.29938 224.39557
-512.48041 402.66327 234.14923
-513.59918 366.85657 243.7959
-468.61621 301.25351 -144.05592
-467.61865 267.21069 -152.65697
-467.59598 233.79813 -152.85242
-467.61249 200.40546 -152.7104
-467.61865 167.00677 -152.65692
-467.61041 133.6031 -152.72801
-467.61456 100.20312 -152.69255
-467.61041 66.801674 -152.72827
-467.61865 33.40139 -152.65707
-467.61456 0.00021551117 -152.69261
-467.6228 -33.40152 -152.62155
-467.62897 -66.804001 -152.56813
-467.60632 -100.20126 -152.76364
-467.58572 -133.59573 -152.94141
-467.58157 -166.99324 -152.97699
-467.58774 -200.39456 -152.92361
-461.88419 426.35471 104.24195
-461.36728 390.38782 99.441902
-477.28552 367.14273 247.24976
-427.69525 296.09683 -213.21733
-427.22791 262.90967 -217.55717
-427.20566 230.03395 -217.7635
-427.21866 197.17795 -217.64323
-427.22235 164.31644 -217.60892
-427.22235 131.45319 -217.60887
-427.21866 98.588936 -217.64308
-427.2149 65.725441 -217.67757
-427.22418 32.863491 -217.59154
-427.22791 7.4144766e-05 -217.55724
-427.24088 -32.864708 -217.43665
-427.23529 -65.728394 -217.48846
-427.21307 -98.587479 -217.69484
-427.189 -131.44267 -217.91832
-427.189 -164.30345 -217.91827
-427.1853 -197.1624 -217.95265
-418.82458 418.8248 28.49527
-417.85468 383.03351 18.739073
-395.78186 329.81839 -203.29686
-388.08701 291.0654 -280.70087
-388.12177 258.74792 -280.35089
-388.10358 226.39391 -280.53436
-388.11349 194.05678 -280.4342
-388.11682 161.71533 -280.40094
-388.1185 129.37289 -280.38431
-388.11682 97.029373 -280.40115
-388.11188 64.685501 -280.45111
-388.12177 32.343559 -280.35089
-388.12839 0.00012279249 -280.28442
-388.13837 -32.344715 -280.18445
-388.13174 -64.688416 -280.25113
-388.1102 -97.027473 -280.46774
-388.08533 -129.36163 -280.71765
-388.08701 -161.70276 -280.70096
-388.08533 -194.04265 -280.7175
-385.16956 455.20044 42.179569
-378.32275 412.71582 -32.955067
-377.23737 377.23743 -44.865673
-354.34772 322.13449 -296.05011
-350.21973 286.54358 -341.34949
-350.24176 254.72134 -341.10724
-350.22998 222.87378 -341.23633
-350.2374 191.03868 -341.15564
-350.23886 159.19965 -341.13968
-350.24622 127.36233 -341.05878
-350.24176 95.520615 -341.10712
-350.23886 63.679955 -341.1395
-350.24765 31.840761 -341.0426
-350.24911 8.6406362e-05 -341.02646
-350.25647 -31.84128 -340.94583
-350.25647 -63.682999 -340.94562
-350.23587 -95.518745 -341.17172
-350.21527 -127.35085 -341.39789
-350.20795 -159.18541 -341.47849
-350.21527 -191.02632 -341.39792
-342.23688 444.90814 -53.390427
-338.06454 405.67761 -103.75462
-337.68195 371.45029 -108.37324
-316.01447 316.0145 -369.92288
-313.50839 282.15775 -400.17377
-313.52267 250.81828 -400.00143
-313.51749 219.46237 -400.06396
-313.52005 188.11215 -400.03281
-313.52267 156.76149 -400.0015
-313.53433 125.41393 -399.86057
-313.52783 94.05854 -399.93881
-313.52527 62.705055 -399.97003
-313.53305 31.353428 -399.87631
-313.53564 0.00011734896 -399.84476
-313.53564 -31.353565 -399.84479
-313.54083 -62.708054 -399.78223
-313.52005 -94.055923 -400.03275
-313.5058 -125.40211 -400.20502
-313.49155 -156.74565 -400.37717
-313.5032 -188.10184 -400.23624
-301.38907 435.33987 -142.23482
-299.23779 398.98392 -171.08873
-299.48083 366.0322 -167.8286
-279.43185 310.47989 -436.73166
-277.90622 277.90619 -457.19385
-277.91528 247.03584 -457.07239
-277.91187 216.15372 -457.11795
-277.91187 185.27477 -457.11798
-277.91754 154.39874 -457.04208
-277.92773 123.52351 -456.9053
-277.92209 92.640907 -456.98135
-277.91867 61.759785 -457.0267
-277.92661 30.880873 -456.92047
-277.92886 0.00023840688 -456.89023
-277.92209 -30.880133 -456.98132
-277.93338 -61.762867 -456.82935
-277.91412 -92.637955 -457.08752
-277.90167 -123.51173 -457.25479
-277.8847 -154.38023 -457.48254
-277.89941 -185.26633 -457.28491
-263.15598 427.62851 -213.83781
-263.30798 394.96216 -211.54445
-263.8959 362.85699 -202.67313
-244.28561 305.35706 -498.56934
-243.36292 273.78336 -512.49182
-243.36488 243.36494 -512.4624
-243.36194 212.94183 -512.50671
-243.36292 182.52226 -512.49182
-243.3717 152.10739 -512.35931
-243.37953 121.68975 -512.24121
-243.37463 91.26564 -512.31512
-243.3678 60.841953 -512.41815
-243.37563 30.422014 -512.30029
-243.37758 9.1849521e-05 -512.27081
-243.36877 -30.420906 -512.4035
-243.38147 -60.845165 -512.21191
-243.36292 -91.26091 -512.49188
-243.35313 -121.67651 -512.63922
-243.33752 -152.08589 -512.87512
-243.35118 -182.51337 -512.66876
-228.98727 425.26224 -235.81071
-229.61267 393.62186 -225.02608
-230.21948 361.77362 -214.56165
-210.33875 300.48401 -557.39288
-209.84453 269.80017 -565.91547
-209.80302 239.77498 -566.6311
-209.80054 209.80057 -566.67383
-209.81465 179.84114 -566.43073
-209.85034 149.89322 -565.81519
-209.85614 119.91795 -565.71521
-209.85201 89.936668 -565.78668
-209.80302 59.943806 -566.63098
-209.80968 29.972776 -566.51648
-209.81131 0.00012430294 -566.48785
-209.80717 -29.972353 -566.55963
-209.81879 -59.94825 -566.35913
-209.8022 -89.91526 -566.64526
-209.79391 -119.88216 -566.78851
-209.78313 -149.84496 -566.97455
-209.79057 -179.82036 -566.84564
-197.20604 427.27994 -217.07541
-197.13423 394.26852 -218.5202
-182.80688 335.14603 -506.76392
-177.47496 295.79175 -614.0343
-177.23561 265.85352 -618.84961
-177.21696 236.28943 -619.22485
-177.21489 206.75087 -619.26642
-177.23492 177.23497 -618.86346
-177.29021 147.74196 -617.75134
-177.29504 118.19667 -617.65381
-177.28952 88.644867 -617.76514
-177.21489 59.07185 -619.26648
-177.22041 29.536867 -619.15533
-177.22249 0.0001174782 -619.11365
-177.22041 -29.536682 -619.15533
-177.23216 -59.077404 -618.91895
-177.21765 -88.608704 -619.21094
-177.21005 -118.13988 -619.36371
-177.20384 -147.66974 -619.48895
-177.2066 -177.2066 -619.43317
-177.31372 -206.86586 -617.27838
-165.29973 396.71939 -193.86642
-148.39157 326.46152 -602.06537
-145.68225 291.36459 -667.474
-145.56584 262.01862 -670.2843
-145.56418 232.90274 -670.32483
-145.56473 203.79076 -670.3114
-145.58598 174.70331 -669.79834
-145.64922 145.64925 -668.27167
-145.65538 116.52434 -668.12292
-145.61955 87.371696 -668.98773
-145.56137 58.224712 -670.3924
-145.56584 29.113214 -670.28424
-145.56752 0.00010269126 -670.24365
-145.56808 -29.11347 -670.23047
-145.57814 -58.231186 -669.98712
-145.56584 -87.339417 -670.28424
-145.55913 -116.44724 -670.44629
-145.55634 -145.55617 -670.51392
-145.55579 -174.6669 -670.52722
-145.56808 -203.79514 -670.23035
-233.00842 -372.81345 1440.7661
-116.30479 319.83838 -674.74725
-114.88855 287.2215 -717.48615
-114.80762 258.31717 -719.92822
-114.80632 229.61276 -719.96783
-114.80849 200.91501 -719.90198
-114.82893 172.24348 -719.2851
-114.87767 143.59709 -717.81439
-114.89857 114.8988 -717.18384
-114.84676 86.135162 -718.74701
-114.80284 57.401501 -720.07269
-114.80675 28.701817 -719.95459
-114.80849 3.6298516e-05 -719.90204
-114.81023 -28.702507 -719.84949
-114.81806 -57.409027 -719.61334
-114.80806 -86.105858 -719.91528
-114.80328 -114.8032 -720.05933
-114.80196 -143.50241 -720.09869
-114.79936 -172.1991 -720.17743
-114.80501 -200.90869 -720.00708
-85.63868 314.00854 -738.72058
-84.976433 283.25482 -765.36719
-84.912003 254.73608 -767.95959
-84.91169 226.43127 -767.97223
-84.913589 198.13173 -767.89575
-84.930717 169.86154 -767.20648
-84.96563 141.60944 -765.80157
-84.977379 113.30337 -765.3291
-84.938972 84.939049 -766.87469
-84.908203 56.605644 -768.11267
-84.910736 28.303616 -768.01056
-84.912956 0.00013256386 -767.9212
-84.914223 -28.304592 -767.8703
-84.92025 -56.61343 -767.62762
-84.908516 -84.90844 -768.09998
-84.924057 -113.23196 -767.47461
-84.907562 -141.51254 -768.13824
-84.905029 -169.80984 -768.2403
-84.903442 -198.10783 -768.30414
-60.621487 454.66113 -525.72437
-56.172062 308.94638 -794.27075
-55.873886 279.36948 -812.26733
-55.842392 251.29083 -814.16821
-55.84198 223.36803 -814.19318
-55.843212 195.45125 -814.11841
-55.855976 167.56813 -813.34857
-55.878834 139.69716 -811.96906
-55.878624 111.7573 -811.9812
-55.859676 83.789581 -813.12469
-55.84013 55.840305 -814.30487
-55.84198 27.921097 -814.19312
-55.837868 0.00021694919 -814.44147
-55.843834 -27.921856 -814.08124
-55.847534 -55.847527 -813.8576
-55.829227 -83.743866 -814.96271
-55.845478 -111.6908 -813.98199
-55.8391 -139.59764 -814.36694
-55.837246 -167.51175 -814.47852
-55.825527 -195.38936 -815.18616
-30.009245 450.1387 -562.11829
-29.871328 418.19873 -578.7666
-29.992739 389.90573 -564.11102
-27.667385 304.34134 -844.80615
-27.559427 275.59442 -857.83759
-27.548609 247.93748 -859.14368
-27.548206 220.38568 -859.19208
-27.548908 192.84242 -859.10754
-27.55592 165.33562 -858.26093
-27.561131 137.80568 -857.63202
-27.560831 110.24349 -857.66821
-27.556921 82.670792 -858.14001
-27.547606 55.095352 -859.26453
-27.545704 27.545797 -859.49432
-27.5411 8.2687497e-05 -860.04993
-27.549309 -27.549246 -859.0589
-27.550911 -55.10178 -858.86566
-27.536997 -82.610909 -860.54529
-27.547707 -110.19068 -859.25244
-27.546703 -137.73338 -859.37335
-27.545704 -165.27411 -859.49408
-27.535295 -192.74706 -860.75049
2.8453115e-22 443.15997 -618.27972
8.2945798e-22 412.10745 -631.28668
-1.734353e-23 382.42761 -633.54871
1.2707297e-21 353.94974 -624.09528
6.6543752e-22 299.92438 -893.27686
1.1529016e-21 271.91986 -902.19275
8.1284207e-22 244.6691 -902.98175
1.1169907e-21 217.48206 -903.00525
1.0032226e-21 190.30228 -902.91101
1.6380771e-22 163.16013 -902.02795
2.2230247e-22 135.96292 -902.12219
6.9025566e-22 108.76958 -902.14575
6.9342888e-22 81.578018 -902.11035
6.8061889e-22 54.370079 -903.04065
9.176124e-22 27.177883 -903.89966
4.1122862e-22 4.4277673e-05 -904.44067
8.414412e-22 -27.186497 -902.85211
8.1183001e-22 -54.375877 -902.67554
1.2963214e-21 -81.508675 -904.89929
8.0511422e-22 -108.73936 -903.05225
3.5513099e-22 -135.91835 -903.1936
6.9437168e-22 -163.09547 -903.32312
1.1541128e-21 -190.17598 -905.08734
29.169085 437.53644 -663.53491
29.049227 406.68924 -678.00293
29.022417 377.29144 -681.23907
29.063932 348.7673 -676.22791
26.867872 295.54675 -941.31549
26.834196 268.3421 -945.38074
26.831726 241.48563 -945.67883
26.83182 214.65462 -945.66736
26.832485 187.82753 -945.5871
26.834578 161.00758 -945.33478
26.833817 134.16914 -945.42657
26.833626 107.33459 -945.44958
26.834005 80.502213 -945.40369
26.831251 53.662624 -945.73627
26.819668 26.819857 -947.1347
26.815207 5.5722114e-05 -947.67303
26.832485 -26.832457 -945.58716
26.83448 -53.668819 -945.34637
26.811697 -80.435104 -948.09662
26.831633 -107.32644 -945.69025
26.830111 -134.15051 -945.87396
26.828972 -160.97374 -946.01129
26.810369 -187.67255 -948.25684
57.608246 432.06183 -707.58972
57.276913 400.93842 -727.58728
57.247707 372.1102 -729.3501
54.023228 324.13943 -923.9646
52.973824 291.35611 -987.30164
52.972343 264.86182 -987.39105
52.97068 238.36812 -987.49176
52.971233 211.88501 -987.45807
52.972527 185.4039 -987.37994
52.971233 158.91376 -987.45819
52.969749 132.4245 -987.54749
52.969566 105.93916 -987.55872
52.970306 79.455513 -987.51392
52.97049 52.970493 -987.50281
52.948101 26.474167 -988.85406
52.939777 3.5158148e-05 -989.35645
52.972897 -26.486341 -987.35767
52.976418 -52.976479 -987.14514
52.933678 -79.400444 -989.72473
52.970306 -105.94053 -987.51392
52.967159 -132.41789 -987.7038
52.965305 -158.89577 -987.81573
52.924992 -185.2374 -990.24884
85.29715 426.48584 -752.46259
84.796097 395.7153 -772.62335
84.770172 367.33746 -773.66644
79.394135 317.5766 -989.98126
78.43441 287.59296 -1028.5978
78.44117 261.47064 -1028.3257
78.437927 235.31381 -1028.4564
78.439278 209.17146 -1028.402
78.440094 183.02689 -1028.3691
78.438469 156.87708 -1028.4346
78.436302 130.72722 -1028.5216
78.436035 104.58154 -1028.5325
78.436569 78.436691 -1028.5107
78.436302 52.291004 -1028.5217
78.420341 26.140215 -1029.1638
78.408173 0.00013507486 -1029.6537
78.440636 -26.146749 -1028.3474
78.446587 -52.297703 -1028.1078
78.40033 -78.400276 -1029.9691
78.437119 -104.58286 -1028.4889
78.431435 -130.71883 -1028.7177
78.430084 -156.86002 -1028.7721
78.381683 -182.8905 -1030.7195
78.476097 -209.26955 -1026.9202
112.37579 421.40921 -793.31555
111.75767 391.15201 -811.96893
111.66833 362.92215 -814.66498
104.13519 312.40564 -1041.9977
103.25693 283.9566 -1068.5013
103.26502 258.16257 -1068.2571
103.2608 232.33682 -1068.3845
103.26256 206.52519 -1068.3313
103.26291 180.71019 -1068.3209
103.2608 154.89125 -1068.3845
103.25834 129.07297 -1068.4587
103.25834 103.25852 -1068.4589
103.25693 77.442749 -1068.5012
103.25693 51.628502 -1068.5013
103.25799 25.814516 -1068.4695
103.24181 9.5858835e-05 -1068.9576
103.26256 -25.815512 -1068.3314
103.27277 -51.636257 -1068.0236
103.23302 -77.42469 -1069.2228
103.25974 -103.25957 -1068.4163
103.2513 -129.06412 -1068.671
103.25095 -154.87643 -1068.6816
103.20385 -180.60672 -1070.1031
103.18102 -206.36185 -1070.7924
141.79433 453.74194 -761.33691
138.44559 415.33682 -842.18268
137.83221 385.9303 -856.99054
137.84476 358.39648 -856.68793
128.17702 307.62494 -1090.088
127.45959 280.41113 -1107.4083
127.46859 254.93732 -1107.1908
127.46387 229.43507 -1107.3047
127.46516 203.94429 -1107.2736
127.46473 178.4507 -1107.2841
127.46215 152.95461 -1107.3461
127.45959 127.45966 -1107.4082
127.45873 101.96708 -1107.4288
127.45615 76.47374 -1107.4911
127.45615 50.98246 -1107.491
127.46043 25.492157 -1107.3875
127.46344 0.00011543927 -1107.3151
127.46344 -25.492567 -1107.3149
127.47717 -50.990788 -1106.9838
127.4553 -76.473045 -1107.5117
127.46215 -101.96964 -1107.3461
127.45015 -127.4501 -1107.6359
127.45144 -152.9416 -1107.605
127.4133 -178.37848 -1108.5256
127.35677 -203.77078 -1109.8904
165.93222 442.48593 -846.25641
163.78949 409.47382 -889.36462
163.34175 381.13077 -898.37262
163.39047 354.01276 -897.39258
151.64214 303.28433 -1133.7506
151.0668 276.9559 -1145.3253
151.07535 251.79234 -1145.1536
151.06882 226.60326 -1145.2849
151.06932 201.42592 -1145.2748
151.06882 176.24715 -1145.2849
151.06581 151.06586 -1145.3453
151.0638 125.88654 -1145.3859
151.06229 100.7082 -1145.4161
151.05928 75.529648 -1145.4767
151.05978 50.353271 -1145.4666
151.0648 25.177534 -1145.3657
151.0668 0.00017218245 -1145.3253
151.0668 -25.177631 -1145.3252
151.08287 -50.360859 -1145.0021
151.07935 -75.539558 -1145.0729
151.06531 -100.71018 -1145.3555
151.05176 -125.87634 -1145.6281
151.05327 -151.05313 -1145.5978
151.03069 -176.20239 -1146.052
150.95648 -201.27528 -1147.5449
190.70444 435.89587 -895.97449
188.61809 404.18179 -931.95215
188.15315 376.30637 -939.96967
188.34822 349.78964 -936.60608
174.57027 299.26331 -1174.1984
174.09933 273.58478 -1182.3191
174.10677 248.72408 -1182.1912
174.0959 223.83771 -1182.3783
174.09705 198.96823 -1182.3588
174.09647 174.09659 -1182.3684
174.09306 149.22267 -1182.4277
174.0959 124.35423 -1182.3783
174.09534 99.48307 -1182.3882
174.09306 74.611389 -1182.4275
174.09306 49.740986 -1182.4276
174.09705 24.871124 -1182.3585
174.09477 8.0987214e-05 -1182.3979
174.0959 -24.870775 -1182.3784
174.11191 -49.746113 -1182.1024
174.10677 -74.617157 -1182.191
174.08791 -99.478798 -1182.5162
174.07819 -124.34152 -1182.6838
174.07762 -149.20935 -1182.6936
174.06792 -174.06778 -1182.861
174.01482 -198.87404 -1183.7767
214.6181 429.2363 -946.21783
212.66606 398.74896 -975.67175
212.44249 371.77451 -979.04498
212.70634 345.64798 -975.0639
196.82869 295.24319 -1214.6392
196.57726 270.29373 -1218.433
196.57852 245.7233 -1218.4139
196.56706 221.13803 -1218.5869
196.56897 196.56905 -1218.5581
196.56833 171.99742 -1218.5677
196.57088 147.42825 -1218.5293
196.57471 122.85932 -1218.4717
196.57407 98.287201 -1218.4812
196.57278 73.714951 -1218.5004
196.57343 49.143436 -1218.4907
196.5696 24.571278 -1218.5485
196.56769 6.6506364e-05 -1218.5774
196.54349 -24.567881 -1218.9427
196.57916 -49.144691 -1218.4043
196.51418 -73.692734 -1219.3849
196.41486 -98.207367 -1220.8834
196.34554 -122.7159 -1221.9296
196.46005 -147.34491 -1220.2017
196.48679 -171.9258 -1219.7981
196.43649 -196.43649 -1220.557
237.93565 422.99683 -993.29108
236.72174 394.53632 -1009.5721
236.91249 368.53058 -1007.0137
224.75958 324.65277 -1170.0122
218.71001 291.61334 -1251.151
218.52994 267.09225 -1253.5664
218.52081 242.80101 -1253.6885
218.51103 218.51115 -1253.8198
218.51312 194.23396 -1253.7917
218.51382 169.95528 -1253.7823
218.51804 145.6788 -1253.7261
218.37392 121.31891 -1255.6589
218.33266 97.036812 -1256.2122
218.30052 72.766945 -1256.6433
218.27467 48.505527 -1256.99
218.2621 24.251398 -1257.1584
218.28584 5.1877461e-05 -1256.84
218.28236 -24.253532 -1256.8868
218.25092 -48.500031 -1257.3085
218.2663 -72.755272 -1257.1024
218.25301 -97.001205 -1257.2804
218.28445 -121.2691 -1256.8588
218.36133 -145.57414 -1255.8278
218.39488 -169.86253 -1255.3776
218.38091 -194.11633 -1255.5652
260.41397 416.66257 -1041.0798
261.04907 391.5737 -1033.4137
261.7406 366.43695 -1025.0664
243.94669 317.13074 -1239.858
240.02336 288.02808 -1287.2166
239.79704 263.77686 -1289.9485
239.81754 239.81764 -1289.7012
239.74242 215.76831 -1290.6077
239.71133 191.76909 -1290.983
239.66434 167.76508 -1291.5503
239.6378 143.78273 -1291.8705
239.68024 119.84016 -1291.3583
239.66963 95.868011 -1291.4863
239.65903 71.897896 -1291.6145
239.64462 47.928993 -1291.7882
239.65448 23.965496 -1291.6694
239.71133 0.00016372274 -1290.983
239.67949 -23.967896 -1291.3674
239.65372 -47.930668 -1291.6785
239.69011 -71.906998 -1291.2393
239.73409 -95.893555 -1290.7084
239.77049 -119.88514 -1290.2689
239.64766 -143.78851 -1291.7516
239.73636 -167.81538 -1290.681
239.80539 -191.84427 -1289.8477
287.28461 443.98541 -1031.9802
285.84348 415.77243 -1047.7948
286.48688 390.66409 -1040.7343
287.25394 365.5961 -1032.317
261.09183 308.56317 -1319.412
260.6192 284.31183 -1324.5981
260.66565 260.66571 -1324.0884
260.58176 236.89256 -1325.0094
260.54102 213.17 -1325.4563
260.57034 189.5058 -1325.1345
260.58905 165.82954 -1324.929
260.59967 142.14528 -1324.8127
260.59314 118.45153 -1324.8844
260.6347 94.776428 -1324.4283
260.64938 71.086266 -1324.2675
260.61353 47.384369 -1324.6608
260.60699 23.69154 -1324.7323
260.5899 0.00010789275 -1324.9202
260.52802 -23.684296 -1325.5992
260.55405 -47.373337 -1325.3134
260.63553 -71.082283 -1324.4194
260.58255 -94.757233 -1325.0005
260.56055 -118.43654 -1325.2419
260.60129 -142.14607 -1324.7949
260.68604 -165.89107 -1323.8649
260.7627 -189.64552 -1323.0237
262.57123 -214.83089 -1303.1774
313.62296 444.29922 -1029.7516
313.45108 417.93484 -1031.4805
313.51593 391.89502 -1030.8284
313.86432 366.17508 -1027.3235
281.40518 304.85565 -1353.8372
281.20245 281.20248 -1355.8766
280.98349 257.5683 -1358.079
281.01041 234.17535 -1357.8082
281.00433 210.75336 -1357.8694
280.99911 187.33276 -1357.9218
280.99393 163.91316 -1357.9741
280.98178 140.49098 -1358.0964
280.9783 117.07435 -1358.1315
280.99304 93.664474 -1357.9829
281.03214 70.258034 -1357.5898
281.05731 46.842983 -1357.3365
281.08337 23.423628 -1357.0743
281.05905 3.0702518e-05 -1357.319
281.02606 -23.418699 -1357.651
280.862 -46.81028 -1359.301
280.96701 -70.241592 -1358.245
280.94272 -93.647614 -1358.4893
280.96527 -117.06889 -1358.2623
280.99133 -140.49551 -1358.0004
281.03473 -163.93681 -1357.5637
281.22333 -187.48215 -1355.6667
356.4823 466.16928 -874.461
355.00125 436.92471 -888.21295
342.2319 394.88309 -1006.782
341.89938 368.19946 -1009.8697
301.23804 301.23807 -1387.4279
301.11469 277.95209 -1388.5734
301.14047 254.81131 -1388.334
301.08154 231.60129 -1388.881
301.01349 208.39401 -1389.5132
300.98224 185.21999 -1389.8033
301.02176 162.08875 -1389.4363
301.05762 138.94977 -1389.1031
301.08798 115.80318 -1388.8212
301.05762 92.633171 -1389.103
301.02542 69.467445 -1389.4021
300.99142 46.306427 -1389.718
301.00153 23.154049 -1389.6241
301.00153 6.1699997e-05 -1389.6241
300.98315 -23.152519 -1389.7948
300.95279 -46.30035 -1390.0765
300.96106 -69.452438 -1389.9998
301.00888 -92.617966 -1389.5558
301.03281 -115.78178 -1389.3337
301.09076 -138.96489 -1388.7955
301.0871 -162.1237 -1388.8297
301.16714 -185.33356 -1388.0862
301.46204 -208.70441 -1385.3481
301.74179 -232.10902 -1382.7504
385.55716 468.17673 -860.20709
381.2348 435.69699 -897.47516
380.66989 407.86075 -902.34583
381.05954 381.05957 -898.98627
323.70154 300.58008 -1393.538
322.66104 276.56665 -1402.5095
322.56491 253.444 -1403.3385
322.54724 230.39095 -1403.4907
322.58157 207.37404 -1403.1947
322.58255 184.33298 -1403.1863
322.55707 161.27872 -1403.4061
322.55804 138.23929 -1403.3976
322.56784 115.20287 -1403.3131
322.57666 92.164787 -1403.2369
322.57471 69.123314 -1403.2538
322.56293 46.08054 -1403.3553
322.56491 23.040518 -1403.3385
322.56293 0.00019801407 -1403.3553
322.55215 -23.039341 -1403.4485
322.54037 -46.077137 -1403.5499
322.56784 -69.121574 -1403.3132
322.54236 -92.154846 -1403.533
322.55804 -115.19913 -1403.3976
322.54724 -138.23445 -1403.4906
322.61984 -161.30988 -1402.8649
322.56293 -184.32169 -1403.3553
322.61887 -207.39772 -1402.8734
323.12091 -230.80058 -1398.5443
323.12289 -253.88222 -1398.5273
323.12289 -276.96231 -1398.5276
323.12289 -300.04263 -1398.5275
323.12289 -323.1228 -1398.5273
323.12289 -346.203 -1398.5275
323.12289 -369.28323 -1398.5273
323.12289 -392.3634 -1398.5275
408.32797 435.54984 -898.58508
406.81412 406.81418 -910.7677
406.7399 379.62399 -911.36505
348.66443 302.17603 -1378.7201
347.50906 278.00732 -1388.0178
347.48886 254.82529 -1388.1802
347.48779 231.65871 -1388.1888
347.48676 208.4922 -1388.1974
347.47083 185.31776 -1388.3256
347.42303 162.13081 -1388.7102
347.47504 138.9901 -1388.2915
347.50372 115.83458 -1388.0605
347.48676 92.663162 -1388.1974
347.45914 69.491989 -1388.4196
347.44321 46.325867 -1388.5477
347.45276 23.163584 -1388.4709
347.46762 1.5770238e-06 -1388.3512
347.46017 -23.16394 -1388.411
347.4772 -46.330269 -1388.2743
347.51117 -69.502121 -1388.0007
347.48993 -92.663948 -1388.1716
347.48248 -115.82739 -1388.2316
347.45276 -138.98108 -1388.4707
347.44424 -162.14058 -1388.5392
347.44003 -185.30124 -1388.5734
347.57278 -208.54359 -1387.5048
434.0329 434.03302 -910.02936
431.99335 404.99396 -925.41663
431.78564 377.81262 -926.98346
374.10602 303.96127 -1362.1427
372.7215 279.54129 -1372.588
372.65622 256.20126 -1373.0807
372.66882 232.91818 -1372.9855
372.68488 209.63538 -1372.8645
372.73068 186.36543 -1372.5189
372.73755 163.07272 -1372.4669
372.74561 139.77969 -1372.4064
372.68945 116.46548 -1372.83
372.6734 93.168373 -1372.951
372.64362 69.870689 -1373.1757
372.63336 46.579285 -1373.2534
372.63904 23.290113 -1373.2102
372.65509 7.814305e-05 -1373.0892
372.66309 -23.291412 -1373.0288
372.68146 -46.585098 -1372.8904
372.68259 -69.877998 -1372.8817
372.67227 -93.167984 -1372.9596
372.6929 -116.4664 -1372.8041
372.62875 -139.73572 -1373.288
372.62531 -163.02359 -1373.3137
372.62988 -186.31488 -1373.2793
372.81665 -209.70926 -1371.8705
459.00928 432.00876 -925.30054
456.9126 403.1582 -940.18829
457.09576 376.43192 -938.88757
400.09219 305.95288 -1343.6489
398.23959 281.11032 -1356.8033
398.15469 257.62967 -1357.4064
398.16452 234.21448 -1357.3364
398.14484 210.78265 -1357.4763
398.19284 187.38498 -1357.1355
398.25067 163.98576 -1356.7247
398.24698 140.55783 -1356.751
398.18176 117.11245 -1357.2141
398.16821 93.686813 -1357.3103
398.17313 70.2659 -1357.2753
398.1633 46.842834 -1357.3452
398.16946 23.421749 -1357.3015
398.16208 6.1883271e-05 -1357.354
398.17068 -23.421661 -1357.2928
398.18671 -46.845333 -1357.1792
398.18298 -70.267509 -1357.2056
398.1756 -93.688263 -1357.2579
398.18542 -117.11331 -1357.188
398.12762 -140.51558 -1357.5986
398.13007 -163.93584 -1357.5812
398.08334 -187.33331 -1357.913
398.44528 -210.94147 -1355.343
484.55969 430.71988 -935.02539
482.65836 402.21542 -947.77594
483.0275 375.6882 -945.30042
426.2919 307.87762 -1325.778
424.01285 282.6752 -1341.0615
423.9957 259.10855 -1341.1764
424.01413 235.56352 -1341.0529
423.93771 211.96899 -1341.5652
423.92719 188.41216 -1341.636
424.00229 164.88995 -1341.1323
424.02866 141.343 -1340.9554
424.01941 117.78334 -1341.0175
424.03128 94.229271 -1340.9379
424.03656 70.672882 -1340.9025
424.03522 47.115173 -1340.9114
424.01413 23.556465 -1341.0526
424.00229 9.5778691e-05 -1341.1323
424.01547 -23.556295 -1341.0439
424.0405 -47.115536 -1340.876
424.03262 -70.671951 -1340.9291
424.04184 -94.231491 -1340.8672
424.02075 -117.78352 -1341.0084
423.98383 -141.3278 -1341.2561
423.98782 -164.88406 -1341.2295
423.82574 -188.36696 -1342.316
424.40329 -212.20164 -1338.443
509.58807 429.12689 -947.04291
507.73373 400.8425 -958.8241
508.24268 374.49472 -955.59045
452.87457 309.86163 -1307.355
450.12384 284.28879 -1324.8307
450.06479 260.5639 -1325.2061
450.12949 236.91026 -1324.7948
450.05774 213.18535 -1325.2507
450.00995 189.47797 -1325.5547
450.09152 165.82327 -1325.0363
450.12384 142.14447 -1324.8306
450.13229 118.45593 -1324.777
450.15201 94.768951 -1324.6519
450.15903 71.077873 -1324.6072
450.15485 47.3848 -1324.634
450.13373 23.691322 -1324.7682
450.12247 3.3436369e-05 -1324.8396
450.13654 -23.691351 -1324.7502
450.16327 -47.385437 -1324.5803
450.09998 -71.068398 -1324.9825
450.13654 -94.765602 -1324.7502
450.12808 -118.45471 -1324.8038
450.11121 -142.1403 -1324.9111
450.03946 -165.80391 -1325.3669
449.89465 -189.42926 -1326.287
534.65833 427.72675 -957.60651
532.80707 399.60538 -968.77985
533.56665 373.49673 -964.19507
479.78534 311.8606 -1288.7939
476.55719 285.93448 -1308.2777
476.39691 262.0184 -1309.2451
476.53171 238.26595 -1308.4313
476.46729 214.4104 -1308.8203
476.41788 190.56729 -1309.1184
476.49878 166.77475 -1308.6305
476.52872 142.95874 -1308.4496
476.52872 119.13219 -1308.4496
476.55719 95.311592 -1308.2778
476.56467 71.484848 -1308.2324
476.55569 47.655746 -1308.2867
476.54816 23.827406 -1308.3319
476.53619 9.3029608e-05 -1308.4043
476.5452 -23.827116 -1308.3502
476.57666 -47.657536 -1308.1602
476.42987 -71.46431 -1309.0463
476.53473 -95.30687 -1308.4133
476.55417 -119.13842 -1308.2959
476.50626 -142.95181 -1308.5852
476.34601 -166.72098 -1309.5522
476.28162 -190.51259 -1309.9407
561.75586 428.00461 -955.51068
559.06421 399.3317 -970.9826
559.36676 372.91132 -969.2431
507.10861 313.92444 -1269.6298
503.30148 287.60098 -1291.5138
503.02625 263.49008 -1293.0957
503.15985 239.60004 -1292.3279
503.19165 215.65373 -1292.145
503.12964 191.6685 -1292.5015
503.21234 167.73753 -1292.026
503.22668 143.77902 -1291.9437
503.22507 119.81562 -1291.9529
503.2569 95.858559 -1291.7699
503.26962 71.895775 -1291.6967
503.25848 47.929432 -1291.7609
503.25052 23.964327 -1291.8065
503.24579 9.3441871e-05 -1291.834
503.25531 -23.964491 -1291.7791
503.23459 -47.926933 -1291.8981
503.06601 -71.866539 -1292.8672
503.23624 -95.854431 -1291.8888
503.276 -119.8275 -1291.6602
503.19803 -143.77084 -1292.1084
502.94995 -167.64995 -1293.5343
502.98969 -191.61502 -1293.3058
587.65356 427.38458 -960.18835
584.08386 398.23911 -979.77478
584.64911 372.04956 -976.67322
534.92126 316.0899 -1249.5227
530.40656 289.31274 -1274.2941
530.07434 265.03726 -1276.1168
530.20081 241.00049 -1275.4232
530.20917 216.90385 -1275.3771
530.13672 192.77699 -1275.7745
530.20917 168.70308 -1275.3768
530.1991 144.59981 -1275.4325
530.19568 120.49899 -1275.4508
530.23114 96.4058 -1275.2566
530.24969 72.306816 -1275.1549
530.23956 48.203701 -1275.2104
530.23114 24.101553 -1275.2566
530.2193 0.00015280097 -1275.3214
530.22949 -24.101303 -1275.2659
530.27832 -48.206982 -1274.9976
530.10468 -72.286949 -1275.9504
530.21765 -96.40316 -1275.3307
530.24127 -120.50926 -1275.201
530.1687 -144.59149 -1275.5989
529.97156 -168.62723 -1276.6808
529.99683 -192.72603 -1276.542
615.88245 428.44009 -952.22485
609.90027 397.76111 -983.62115
610.24402 371.453 -981.81696
563.34766 318.41391 -1227.9426
557.92377 291.09076 -1256.4088
557.43665 266.60031 -1258.9653
557.52582 242.40257 -1258.4974
557.49902 218.15193 -1258.6378
557.45624 193.8979 -1258.8624
557.50085 169.67422 -1258.6285
557.48834 145.43184 -1258.694
557.47766 121.19081 -1258.7501
557.51331 96.958992 -1258.563
557.53473 72.721954 -1258.4507
557.53113 48.481068 -1258.4694
557.5329 24.240652 -1258.46
557.51685 4.0350973e-05 -1258.5443
557.51331 -24.239647 -1258.563
557.56677 -48.483925 -1258.2822
557.46161 -72.712334 -1258.8345
557.508 -96.957779 -1258.5911
557.51508 -121.19888 -1258.5537
557.44739 -145.42094 -1258.9092
557.30835 -169.61548 -1259.6389
557.31903 -193.85005 -1259.5828
639.71924 426.47958 -967.01532
636.45105 397.78201 -983.45312
637.08197 371.63116 -980.28003
592.38428 320.87488 -1205.092
585.60773 292.80392 -1239.1753
585.1217 268.18085 -1241.62
585.12354 243.80168 -1241.6105
585.09161 219.40936 -1241.7714
585.09161 195.03059 -1241.7714
585.10852 170.65681 -1241.6862
585.09912 146.27493 -1241.7336
585.07275 121.89029 -1241.8661
585.11041 97.518532 -1241.6768
585.133 73.141731 -1241.5631
585.13861 48.761692 -1241.5347
585.15179 24.38143 -1241.4685
585.13483 0.00012161417 -1241.5536
585.11224 -24.379545 -1241.6672
585.16687 -48.763859 -1241.3926
585.14429 -73.143036 -1241.5062
585.10852 -97.518066 -1241.6862
585.10663 -121.89718 -1241.6957
585.0426 -146.26054 -1242.0176
584.96545 -170.61493 -1242.4054
584.96173 -194.98711 -1242.4244
665.11102 425.67111 -973.11469
662.97681 397.78625 -983.41949
662.52478 371.01395 -985.60236
621.88538 323.3804 -1181.8264
613.71692 294.58411 -1221.2675
613.08936 269.7594 -1224.2976
613.08142 245.23265 -1224.3358
613.0437 220.69582 -1224.5179
613.0556 196.17781 -1224.4603
613.0556 171.65565 -1224.4603
613.04572 147.13098 -1224.5082
613.03778 122.60764 -1224.5465
613.0517 98.088417 -1224.4795
613.07745 73.569366 -1224.355
613.0874 49.047039 -1224.3071
613.10126 24.524122 -1224.24
613.08337 0.00013663292 -1224.3263
613.04767 -24.521862 -1224.4985
613.10522 -49.048405 -1224.2209
613.12109 -73.574379 -1224.1442
613.06158 -98.089722 -1224.4315
613.0556 -122.61105 -1224.4604
612.98621 -147.11659 -1224.7954
612.9267 -171.61935 -1225.0826
612.9386 -196.14034 -1225.0253
693.08533 426.51413 -966.755
688.60437 397.27185 -987.55872
688.61163 370.79095 -987.52521
651.84442 325.92233 -1158.2247
642.37518 296.48099 -1202.1879
641.37775 271.3522 -1206.8184
641.3736 246.68227 -1206.8379
641.33606 222.00098 -1207.0122
641.37152 197.34508 -1206.8474
641.33392 172.66693 -1207.0219
641.32562 147.99837 -1207.0607
641.34436 123.33559 -1206.9735
641.32764 98.666 -1207.051
641.3548 74.002556 -1206.925
641.37567 49.336731 -1206.828
641.38196 24.668596 -1206.799
641.36316 0.00010738653 -1206.8864
641.33392 -24.666553 -1207.022
641.37775 -49.33667 -1206.8184
641.42371 -74.010284 -1206.6051
641.35272 -98.669601 -1206.9347
641.34436 -123.33527 -1206.9734
641.26294 -147.98367 -1207.3516
641.21289 -172.63422 -1207.584
641.25256 -197.30838 -1207.3999
717.51642 425.19498 -976.70691
715.09668 397.27597 -987.52515
715.2691 370.8804 -986.75403
682.83594 328.77301 -1131.7552
671.24402 298.33075 -1183.5798
670.00226 272.96396 -1189.1317
670.00006 248.1483 -1189.1415
669.96497 223.32178 -1189.2983
670.02197 198.5251 -1189.0433
669.96497 173.69466 -1189.2985
669.95618 148.87929 -1189.3378
669.98907 124.07207 -1189.1906
669.96277 99.253777 -1189.3082
669.9693 74.441223 -1189.2787
670.00226 49.629856 -1189.1317
670.00226 24.815022 -1189.1316
669.98468 4.8665352e-05 -1189.2102
669.95618 -24.81315 -1189.3376
669.99347 -49.629036 -1189.1709
670.06146 -74.451271 -1188.8668
669.98907 -99.257599 -1189.1906
669.9693 -124.06834 -1189.2787
669.8772 -148.86145 -1189.6906
669.83777 -173.66158 -1189.8671
669.9035 -198.48988 -1189.573
745.99286 426.28177 -968.50842
740.94989 396.93747 -990.24896
741.46509 370.73276 -988.02789
715.53308 332.21185 -1099.8234
700.5448 300.23355 -1164.4391
698.9964 274.60574 -1171.1145
698.97571 249.63423 -1171.2037
698.95721 224.66496 -1171.2833
699.01483 199.7187 -1171.035
698.96185 174.74048 -1171.2633
698.94116 149.77316 -1171.3527
698.97797 124.81761 -1171.1938
698.95032 99.850021 -1171.313
698.93652 74.886162 -1171.3726
698.97107 49.926632 -1171.2236
698.97333 24.963448 -1171.2137
698.95721 2.8122937e-05 -1171.2831
698.92963 -24.961773 -1171.4023
698.96417 -49.925907 -1171.2534
699.03558 -74.8965 -1170.9457
698.96417 -99.85202 -1171.2534
698.93652 -124.81004 -1171.3726
698.84674 -149.75282 -1171.7595
698.81458 -174.70361 -1171.8983
698.89972 -199.68552 -1171.5312
776.5365 428.43396 -952.27057
767.71527 397.09427 -988.9881
767.02399 370.28748 -991.86536
771.03619 345.63702 -975.16528
730.23383 302.16586 -1145.0022
728.29077 276.24832 -1153.0901
728.30524 251.13986 -1153.0298
728.29559 226.02287 -1153.0701
728.36078 200.92714 -1152.7988
728.30768 175.79846 -1153.0199
728.28357 150.67952 -1153.1204
728.3125 125.57123 -1152.9996
728.28595 100.45333 -1153.1102
728.27393 75.338753 -1153.1605
728.29315 50.227264 -1153.0802
728.29803 25.113806 -1153.0599
728.29559 -1.7509545e-05 -1153.0701
728.26666 -25.11268 -1153.1906
728.30042 -50.227512 -1153.05
728.34387 -75.345734 -1152.8691
728.28595 -100.45325 -1153.1102
728.25946 -125.56194 -1153.2207
728.19427 -150.66075 -1153.4919
728.16528 -175.76389 -1153.6123
728.23529 -200.89247 -1153.3212
791.38788 395.69409 -1000.2558
791.68274 369.45206 -999.06946
801.0127 347.10559 -961.52893
760.50092 304.20044 -1124.5356
757.95789 277.91806 -1134.7676
757.99335 252.66449 -1134.6252
757.99078 227.39734 -1134.6354
758.06158 202.1498 -1134.3507
758.02362 176.87221 -1134.5033
757.99585 151.59926 -1134.6151
758.00342 126.33402 -1134.5846
757.98828 101.06526 -1134.6456
757.97815 75.797935 -1134.6862
757.97308 50.531704 -1134.7065
757.99585 25.266615 -1134.6151
757.99585 2.0324926e-05 -1134.6151
757.96039 -25.265329 -1134.7574
758.00842 -50.533829 -1134.5643
758.00592 -75.800468 -1134.5745
757.97559 -101.06329 -1134.6965
757.94531 -126.32407 -1134.8184
757.89978 -151.57997 -1135.0015
757.87451 -176.8372 -1135.103
757.92255 -202.11255 -1134.91
818.19183 395.89935 -998.60352
791.20215 306.27188 -1103.6982
787.99377 279.61081 -1116.1914
788.04669 254.20874 -1115.9856
788.04926 228.7886 -1115.9751
788.12598 203.38742 -1115.6768
788.10217 177.95857 -1115.7694
788.07306 152.5304 -1115.8826
788.06512 127.10736 -1115.9135
788.05725 101.68481 -1115.9443
788.04669 76.262718 -1115.9855
788.02289 50.840214 -1116.0781
788.05457 25.421196 -1115.9546
788.05725 3.848163e-06 -1115.9443
788.03345 -25.420366 -1116.037
788.08105 -50.843807 -1115.8516
788.03082 -76.260979 -1116.0472
788.03082 -101.6813 -1116.0474
787.99908 -127.09649 -1116.1707
787.97797 -152.51184 -1116.2531
787.93298 -177.92023 -1116.428
787.97266 -203.34769 -1116.2737
822.3078 308.36551 -1082.6383
818.35638 281.31012 -1097.5437
818.45032 255.76579 -1097.1896
818.44476 230.18764 -1097.2103
818.52216 204.63065 -1096.9185
818.47516 179.04149 -1097.0957
818.44202 153.45802 -1097.2207
818.45032 127.88286 -1097.1895
818.45862 102.30732 -1097.1582
818.44757 76.729561 -1097.2
818.42822 51.151871 -1097.2728
818.43097 25.576038 -1097.2623
818.43372 8.2170824e-05 -1097.2521
818.43652 -25.576002 -1097.2416
818.48901 -51.155434 -1097.0435
818.43097 -76.727882 -1097.2623
818.41162 -102.30135 -1097.3352
818.38678 -127.8729 -1097.4292
818.35089 -153.44077 -1097.5646
818.31219 -179.00574 -1097.7104
818.40338 -204.6008 -1097.3666
853.85028 310.49109 -1061.2563
849.10468 283.035 -1078.6152
849.2229 257.34036 -1078.1829
849.21716 231.60478 -1078.204
849.29211 205.88911 -1077.9296
849.23151 180.14012 -1078.1511
849.18256 154.39693 -1078.3304
849.21716 128.66928 -1078.204
849.23444 102.93758 -1078.1406
849.2229 77.202232 -1078.1827
849.21423 51.467682 -1078.2145
849.18549 25.732939 -1078.3201
849.18549 0.00014369756 -1078.3198
849.21423 -25.733688 -1078.2146
849.27191 -51.470913 -1078.0035
849.20563 -77.200485 -1078.2461
849.16815 -102.92942 -1078.3833
849.14508 -128.65822 -1078.4675
849.09894 -154.38153 -1078.6364
849.06726 -180.10515 -1078.7522
849.18549 -205.86305 -1078.3198
886.27856 312.80435 -1037.9875
880.22943 284.78018 -1059.464
880.37976 258.93527 -1058.9301
880.37073 233.03947 -1058.962
880.44299 207.16312 -1058.7058
880.38574 181.25604 -1058.9087
880.3136 155.34946 -1059.1649
880.36774 129.46591 -1058.9728
880.38574 103.57487 -1058.9086
880.38574 77.681183 -1058.9088
880.38275 51.787281 -1058.9194
880.35272 25.892868 -1059.0262
880.34369 0.00015269149 -1059.0582
880.37372 -25.89329 -1058.9514
880.43396 -51.790146 -1058.7378
880.36169 -77.678886 -1058.9941
880.30457 -103.56516 -1059.197
880.28656 -129.45387 -1059.2611
880.24146 -155.33652 -1059.4213
880.20239 -181.21809 -1059.5601
880.34064 -207.1389 -1059.069
918.96436 315.07355 -1015.1602
911.92841 286.6062 -1039.4263
912.03192 260.58057 -1039.0695
911.9754 234.50813 -1039.2642
911.9754 208.45157 -1039.2642
911.92841 182.38585 -1039.4264
911.98486 156.34042 -1039.2316
912.01929 130.28856 -1039.1127
912.04132 104.23333 -1039.037
912.0036 78.171844 -1039.1667
911.92841 52.110325 -1039.4264
911.89703 26.054277 -1039.5344
912.00677 0.00015187776 -1039.156
912.03815 -26.058113 -1039.0477
911.99109 -52.113689 -1039.21
912.06323 -78.176804 -1038.9613
911.95667 -104.22343 -1039.3291
911.90643 -130.27222 -1039.5021
911.90338 -156.32611 -1039.5128
911.75598 -182.35109 -1040.0211
912.2326 -208.51027 -1038.3771
952.84283 317.61435 -989.60193
944.15082 288.4906 -1018.7468
944.11493 262.25424 -1018.8672
943.91895 235.97977 -1019.5244
943.89935 209.75555 -1019.59
943.90582 183.53731 -1019.5682
944.1084 157.35147 -1018.8891
944.09534 131.12444 -1018.9329
944.13782 104.9043 -1018.7905
944.12799 78.677414 -1018.8234
943.8667 52.437035 -1019.6995
943.9516 26.221003 -1019.4148
944.11163 6.5723987e-05 -1018.8781
944.10181 -26.224976 -1018.9111
943.93524 -52.440643 -1019.4695
944.19989 -78.683098 -1018.5824
944.0365 -104.89292 -1019.13
943.99731 -131.11061 -1019.2615
944.04309 -157.34045 -1019.1082
943.70343 -183.4978 -1020.2468
944.49402 -209.88747 -1017.5958
987.75897 320.35437 -962.03967
976.83386 290.41025 -997.68225
976.5957 263.94485 -998.45923
976.29315 237.47682 -999.44653
976.23871 211.0787 -999.6239
976.39514 184.72354 -999.11377
976.60938 158.36917 -998.41486
976.58215 131.97072 -998.50366
976.62292 105.58086 -998.37048
976.62634 79.186073 -998.35938
976.28632 52.772324 -999.46881
976.4325 26.390217 -998.99176
976.5957 0.00017683324 -998.45923
976.46985 -26.390991 -998.86987
976.28973 -52.772354 -999.45758
976.70459 -79.192123 -998.10425
976.49365 -105.5669 -998.79199
976.47668 -131.95618 -998.8476
976.5481 -158.35898 -998.61469
976.06885 -184.66164 -1000.1783
1026.756 324.23889 -922.96484
1009.9122 292.34305 -976.4707
1009.3282 265.61279 -978.32587
1009.2433 239.03137 -978.59552
1009.1549 212.45369 -978.87653
1009.1903 185.90356 -978.76404
1009.3459 159.37054 -978.26971
1009.3105 132.80408 -978.38208
1009.3247 106.24488 -978.33716
1009.3388 79.684746 -978.2923
1009.1125 53.111309 -979.01129
1009.1407 26.556461 -978.92145
1009.307 0.00010574995 -978.39337
1009.3318 -26.561308 -978.31464
1009.2045 -53.115841 -978.71924
1009.3954 -79.688911 -978.11243
1009.1974 -106.23113 -978.74176
1009.2504 -132.79607 -978.57312
1009.2539 -159.35588 -978.56177
1008.9641 -185.86169 -979.48297
1043.4338 294.30203 -954.97491
1042.4807 267.30286 -957.92517
1042.4697 240.57004 -957.95941
1042.5138 213.84903 -957.82263
1042.5616 187.12654 -957.67487
1042.499 160.38454 -957.86829
1042.444 133.6468 -958.03894
1042.4586 106.91899 -957.99353
1042.4771 80.190613 -957.93665
1042.4109 53.4571 -958.14136
1042.4146 26.72858 -958.13
1042.4586 -8.4717794e-07 -957.99341
1042.488 -26.730288 -957.90259
1042.5065 -53.461765 -957.84564
1042.5175 -80.193466 -957.81146
1042.3925 -106.91208 -958.19818
1042.444 -133.64667 -958.03894
1042.3741 -160.36513 -958.25525
1042.2969 -187.07887 -958.49414
1077.4116 296.2883 -933.17749
1076.1494 269.03748 -936.98657
1076.1494 242.13367 -936.98651
1076.1686 215.23381 -936.92883
1076.222 188.33897 -936.76733
1076.1532 161.42308 -936.97491
1076.1571 134.51962 -936.96338
1076.1686 107.61688 -936.92889
1076.1571 80.711914 -936.96338
1076.1838 53.809238 -936.88263
1076.1761 26.904448 -936.9057
1076.1304 0.00017408431 -937.04425
1076.1571 -26.903908 -936.96332
1076.1992 -53.809765 -936.83661
1076.1992 -80.71489 -936.83655
1076.1189 -107.61188 -937.07874
1076.0997 -134.51236 -937.13623
1075.9662 -161.39481 -937.53986
1075.7943 -188.26396 -938.05823
1080.0026 -216.00043 -925.35864
1112.0183 298.34644 -910.59192
1110.2382 270.78989 -915.83264
1110.2501 243.71358 -915.79761
1110.2621 216.63661 -915.76251
1110.3374 189.56996 -915.54065
1110.2699 162.47865 -915.7392
1110.3016 135.40279 -915.64581
1110.2382 108.31606 -915.83258
1110.2104 81.234932 -915.91437
1110.3136 54.161617 -915.61066
1110.2859 27.080141 -915.6925
1110.2382 0.00017320807 -915.83264
1110.2263 -27.078503 -915.86768
1110.2819 -54.159924 -915.70422
1110.3771 -81.246994 -915.42395
1110.2819 -108.32003 -915.70428
1110.2223 -135.39297 -915.87939
1109.9646 -162.43378 -916.63837
1109.7029 -189.46132 -917.40863
1112.5637 -217.08548 -908.98602
1147.5598 300.55148 -886.39471
1144.5105 272.50269 -895.15863
1144.7533 245.30435 -894.46069
1144.527 218.00514 -895.11133
1144.7205 190.78679 -894.5553
1144.988 163.56978 -893.78601
1145.0623 136.31712 -893.57294
1144.8397 109.03239 -894.2121
1144.4817 81.748886 -895.24139
1144.5311 54.501595 -895.09943
1144.5105 27.250404 -895.15857
1144.6957 5.6155219e-05 -894.62622
1144.7946 -27.256826 -894.34229
1144.5969 -54.504604 -894.9101
1145.0869 -81.791779 -893.50189
1144.9634 -109.04401 -893.85699
1144.7451 -136.27917 -894.48425
1144.2719 -163.46729 -895.84436
1144.4199 -190.73654 -895.4187
1147.1958 -218.51335 -887.44086
1183.4758 302.74973 -862.27155
1180.0988 274.44171 -871.75189
1179.7314 246.92061 -872.7832
1179.9321 219.52243 -872.21967
1179.7356 192.05008 -872.77124
1179.8766 164.63394 -872.37561
1180.0945 137.22025 -871.76379
1180.1201 109.77863 -871.69189
1179.9749 82.323776 -872.09967
1180.0774 54.887352 -871.81177
1180.0304 27.442646 -871.94385
1180.0005 5.6429017e-05 -872.02777
1180.0945 -27.443846 -871.76392
1180.0902 -54.88781 -871.776
1179.9449 -82.321671 -872.18378
1180.0731 -109.77409 -871.82397
1179.9492 -137.20341 -872.17163
1179.9236 -164.64041 -872.24359
1179.4325 -192.00055 -873.62213
1182.2266 -219.94897 -865.77893
1183.7209 -247.75558 -861.58356
1183.7252 -275.28488 -861.57159
1183.7252 -302.81326 -861.57166
1183.7252 -330.34186 -861.57141
1183.7252 -357.87036 -861.57166
