# .PCD v0.7 - Point Cloud Data file format
VERSION 0.7
FIELDS x y z
SIZE 4 4 4
TYPE F F F
COUNT 1 1 1
WIDTH 1491
HEIGHT 1
VIEWPOINT 0 0 0 1 0 0 0
POINTS 1491
DATA ascii
-69.178482 -29.647938 -99.477592
-69.76326 -31.89179 -97.460762
-65.509628 30.828047 -105.48587
-65.355293 28.833204 -106.03384
-65.33503 26.902651 -106.10577
-65.326027 24.977579 -106.13773
-65.320099 23.054136 -106.15879
-65.317436 21.132093 -106.16823
-65.316818 19.210815 -106.17042
-65.337692 17.295256 -106.09633
-65.391144 15.386134 -105.90654
-65.391144 13.46287 -105.90654
-65.390938 11.539562 -105.90727
-65.390938 9.6162996 -105.90726
-65.390938 7.6930356 -105.90726
-65.390938 5.7697759 -105.90727
-65.391556 3.8465502 -105.90508
-65.393196 1.9233189 -105.89925
-65.366966 -1.6813196e-05 -105.99239
-65.32296 -1.9212718 -106.14863
-65.325005 -3.8426561 -106.14137
-65.327049 -5.7641673 -106.1341
-65.32991 -7.6858883 -106.12394
-65.333183 -9.6078377 -106.1123
-65.336662 -11.530013 -106.09996
-65.340553 -13.452477 -106.08616
-65.346489 -15.375661 -106.06508
-65.352425 -17.299189 -106.044
-65.358368 -19.223059 -106.02292
-65.368813 -21.148746 -105.98583
-65.379875 -23.07526 -105.94656
-65.395859 -25.004314 -105.8898
-65.484955 -26.964409 -105.57347
-65.577591 -28.931307 -105.24459
-66.806175 -31.438215 -100.88274
-63.463104 30.769974 -105.92401
-63.433872 28.833567 -106.03092
-63.414005 26.902897 -106.10359
-63.40527 24.977823 -106.13556
-63.399311 23.054277 -106.15734
-63.396732 21.132233 -106.16678
-63.396732 19.211117 -106.16678
-63.396534 17.289957 -106.16751
-63.396534 15.368836 -106.1675
-63.396732 13.447772 -106.16679
-63.396732 11.526665 -106.16678
-63.396732 9.6055517 -106.16678
-63.396732 7.6844401 -106.16679
-63.396732 5.7633195 -106.16678
-63.397125 3.8422372 -106.16534
-63.39872 1.9211578 -106.15952
-63.4007 -1.6340393e-05 -106.15226
-63.402882 -1.9213129 -106.14426
-63.405067 -3.8427415 -106.13628
-63.407051 -5.764297 -106.12901
-63.409637 -7.6860352 -106.11957
-63.412815 -9.6080217 -106.10795
-63.416386 -11.530259 -106.09487
-63.420361 -13.45282 -106.08033
-63.426319 -15.376097 -106.05854
-63.432285 -17.299725 -106.03674
-63.438049 -19.223667 -106.01565
-63.448586 -21.149546 -105.97711
-63.459721 -23.076275 -105.93636
-63.471653 -25.004002 -105.89271
-63.498131 -26.938614 -105.79587
-63.552143 -28.887354 -105.5983
-64.590164 -31.316462 -101.80131
-61.819782 30.909882 -104.86852
-61.776993 28.957945 -105.02995
-61.758526 27.019331 -105.09959
-61.749397 25.085678 -105.13402
-61.742798 23.153536 -105.15892
-61.7393 21.222879 -105.17211
-61.737747 19.293028 -105.17797
-61.736584 17.3634 -105.18237
-61.736195 15.43403 -105.18383
-61.735806 13.504689 -105.18529
-61.735806 11.575443 -105.18529
-61.735806 9.6462078 -105.18529
-61.735611 7.7169333 -105.18604
-61.735611 5.7876973 -105.18604
-61.736004 3.8584838 -105.18456
-61.738335 1.9293053 -105.17577
-61.740852 -1.1007098e-05 -105.16625
-61.743767 -1.9295149 -105.15527
-61.746292 -3.8591564 -105.14574
-61.748817 -5.7889633 -105.13622
-61.751923 -7.7190056 -105.1245
-61.755611 -9.649332 -105.11057
-61.759304 -11.579891 -105.09666
-61.76358 -13.510793 -105.08054
-61.769604 -15.442417 -105.0578
-61.775631 -17.374409 -105.03507
-61.781654 -19.306786 -105.01234
-61.791763 -21.240936 -104.97421
-61.802269 -23.175863 -104.93458
-61.814137 -25.112013 -104.88981
-61.838276 -27.054266 -104.79874
-61.898716 -29.015045 -104.57076
-62.575001 -31.28751 -102.01968
-62.813232 -33.369545 -101.12101
-60.161644 31.051159 -103.80265
-60.104416 29.082769 -104.02547
-60.087135 27.136118 -104.09276
-60.077652 25.193842 -104.12971
-60.070816 23.253204 -104.1563
-60.066837 21.314024 -104.17182
-60.064369 19.375587 -104.18143
-60.063042 17.437637 -104.1866
-60.061714 15.499778 -104.19176
-60.061142 13.562184 -104.19398
-60.060574 11.624609 -104.19621
-60.060764 9.687211 -104.19547
-60.060955 7.7497864 -104.19472
-60.060574 5.8122983 -104.19621
-60.061142 3.874897 -104.19398
-60.063797 1.9375209 -104.18364
-60.066647 -1.3936241e-05 -104.17256
-60.069489 -1.9377372 -104.16148
-60.072338 -3.8756456 -104.1504
-60.075367 -5.8137646 -104.13858
-60.078979 -7.7521386 -104.12454
-60.082958 -9.690814 -104.10902
-60.086945 -11.62975 -104.0935
-60.091122 -13.568975 -104.07723
-60.097202 -15.508974 -104.05357
-60.102898 -17.449244 -104.0314
-60.108784 -19.38995 -104.00847
-60.118099 -21.332239 -103.97221
-60.127789 -23.275288 -103.93448
-60.139767 -25.219915 -103.88784
-60.161644 -27.169792 -103.80264
-60.226791 -29.142012 -103.54895
-60.658974 -31.307867 -101.86611
-58.488834 31.194033 -102.72475
-58.418667 29.20932 -103.0071
-58.403091 27.254761 -103.06974
-58.393646 25.303894 -103.10777
-58.387157 23.354853 -103.13385
-58.383453 21.407255 -103.14876
-58.381046 19.460342 -103.15844
-58.3792 17.513748 -103.16589
-58.378273 15.567528 -103.16962
-58.377346 13.621376 -103.17334
-58.376976 11.675378 -103.17482
-58.376976 9.7294807 -103.17484
-58.376976 7.7835846 -103.17483
-58.376976 5.8376894 -103.17483
-58.377529 3.8918254 -103.17259
-58.379936 1.945982 -103.16291
-58.382904 -1.5888369e-05 -103.15099
-58.385864 -1.9462047 -103.13907
-58.388645 -3.8925872 -103.12788
-58.391605 -5.8391747 -103.11596
-58.394939 -7.7860126 -103.10254
-58.398834 -9.7331514 -103.08688
-58.402721 -11.680564 -103.07124
-58.406986 -13.628317 -103.05409
-58.412544 -15.576693 -103.03171
-58.418106 -17.52545 -103.00932
-58.423672 -19.474567 -102.98695
-58.432941 -21.425432 -102.94963
-58.442032 -23.376829 -102.91305
-58.456142 -25.331007 -102.85629
-58.484932 -27.292986 -102.74046
-58.558243 -29.279139 -102.44547
-58.858788 -31.391369 -101.23619
-74.597839 48.874443 -27.556805
-74.309967 46.123405 -28.75506
-74.17305 43.48074 -29.324997
-56.813614 31.345428 -101.58253
-56.730293 29.343235 -101.92937
-56.707146 27.375851 -102.02569
-56.695217 25.415081 -102.07534
-56.689621 23.457766 -102.09865
-56.686371 21.501711 -102.11217
-56.684208 19.546265 -102.1212
-56.6833 17.59136 -102.12495
-56.68222 15.636454 -102.12947
-56.681496 13.681728 -102.13248
-56.681313 11.727154 -102.13323
-56.681313 9.7726288 -102.13322
-56.681313 7.8180938 -102.13323
-56.681313 5.8635716 -102.13322
-56.681675 3.9090621 -102.13172
-56.683662 1.9545931 -102.12345
-56.68655 -8.3651503e-06 -102.11143
-56.689083 -1.9548042 -102.10091
-56.691792 -3.9098015 -102.08962
-56.694317 -5.8649502 -102.0791
-56.7001 -7.8207192 -102.05504
-56.708954 -9.77742 -102.01818
-56.715645 -11.734288 -101.99033
-56.71944 -13.690916 -101.97453
-56.72414 -15.648059 -101.95496
-56.729206 -17.605631 -101.93388
-56.734447 -19.56362 -101.91205
-56.742954 -21.523207 -101.87666
-56.751461 -23.483379 -101.84125
-56.764496 -25.446173 -101.78698
-56.786236 -27.414061 -101.69649
-56.859734 -29.410223 -101.39058
-57.127552 -31.518667 -100.27581
-71.757744 48.692745 -28.711138
-71.210442 45.77813 -31.070595
-70.890442 43.040604 -32.450165
-55.119759 31.49699 -100.43909
-55.027245 29.478868 -100.83793
-55.002403 27.501183 -100.94501
-54.990963 25.531502 -100.99435
-54.985859 23.565351 -101.01635
-54.98357 21.600674 -101.02622
-54.982685 19.636662 -101.03001
-54.982162 17.672829 -101.03229
-54.981808 15.709076 -101.03381
-54.981277 13.7453 -101.03609
-54.981277 11.781687 -101.03609
-54.981277 9.8180704 -101.03609
-54.981277 7.8544564 -101.03609
-54.981277 5.8908396 -101.03609
-54.981632 3.9272432 -101.03457
-54.983215 1.9636745 -101.02773
-54.985329 -1.2312579e-05 -101.01864
-54.987617 -1.9638611 -101.00877
-54.990082 -3.9278741 -100.99815
-54.992191 -5.8920355 -100.98904
-54.994659 -7.8563976 -100.97842
-54.997475 -9.8209972 -100.96626
-55.000294 -11.785788 -100.95413
-55.00399 -13.751014 -100.93818
-55.008392 -15.716699 -100.9192
-55.012798 -17.682699 -100.90022
-55.017731 -19.64921 -100.87894
-55.030949 -21.619322 -100.82196
-55.043468 -23.590073 -100.76799
-55.058285 -25.56279 -100.70411
-55.07576 -27.537893 -100.62878
-55.16029 -29.550171 -100.26435
-55.395073 -31.654343 -99.252174
-69.011055 48.563328 -29.533348
-68.474487 45.649654 -31.93224
-67.995277 42.811844 -34.074665
-53.406864 31.648497 -99.296059
-53.303925 29.613277 -99.756271
-53.279064 27.626171 -99.867409
-53.267242 25.647182 -99.920258
-53.263306 23.672567 -99.937866
-53.262108 21.699368 -99.94323
-53.261593 19.7265 -99.945526
-53.261936 17.753958 -99.944
-53.262108 15.781346 -99.943222
-53.261936 13.808628 -99.943993
-53.262108 11.836008 -99.94323
-53.262108 9.8633432 -99.94323
-53.262108 7.8906641 -99.943222
-53.262108 5.9180036 -99.94323
-53.26228 3.9453456 -99.942467
-53.263821 1.9727243 -99.935577
-53.265358 -7.0653318e-06 -99.92868
-53.266903 -1.9728613 -99.921791
-53.268616 -3.9458363 -99.914131
-53.270329 -5.9189439 -99.906479
-53.272385 -7.8922224 -99.897278
-53.274784 -9.8657236 -99.886559
-53.27718 -11.83939 -99.875832
-53.281979 -13.813862 -99.854378
-53.290894 -15.789916 -99.814545
-53.299637 -17.766565 -99.775436
-53.307526 -19.743547 -99.740166
-53.315075 -21.72098 -99.706413
-53.322109 -23.698738 -99.674965
-53.337048 -25.680819 -99.608177
-53.36179 -27.669085 -99.497574
-53.442184 -29.690115 -99.138161
-53.647442 -31.791096 -98.220467
-66.340675 48.47971 -30.064554
-65.767403 45.531261 -32.726109
-65.297905 42.694767 -34.905884
-51.743786 31.842314 -97.833824
-51.565651 29.749397 -98.660843
-51.543823 27.754353 -98.762192
-51.537331 25.768648 -98.792336
-51.534164 23.784983 -98.807014
-51.531002 21.801563 -98.821709
-51.525677 19.817553 -98.846443
-51.520016 17.833839 -98.872704
-51.520851 15.852557 -98.868843
-51.521351 13.871116 -98.866524
-51.521519 11.889567 -98.865761
-51.521519 9.9079742 -98.865746
-51.521519 7.9263759 -98.865761
-51.521519 5.9447732 -98.865753
-51.521683 3.963186 -98.864975
-51.522682 1.9816242 -98.860336
-51.523846 -1.3699372e-05 -98.854927
-51.52634 -1.981801 -98.843346
-51.533333 -3.9641135 -98.81089
-51.540157 -5.9469562 -98.779198
-51.544323 -7.9299154 -98.759865
-51.546322 -9.9127655 -98.750587
-51.547985 -11.895702 -98.742851
-51.551987 -13.879396 -98.724297
-51.559818 -15.864576 -98.687927
-51.564816 -17.849367 -98.664719
-51.569817 -19.834564 -98.641495
-51.581821 -21.823088 -98.585762
-51.587997 -23.809856 -98.557106
-51.60268 -25.801355 -98.488922
-51.62339 -27.79722 -98.392784
-51.709736 -29.832552 -97.991898
-51.884651 -31.929031 -97.179825
-63.773197 48.467628 -30.141399
-63.156387 45.47258 -33.119629
-62.676895 42.620281 -35.434849
-62.252586 39.841652 -37.483562
-49.828636 29.897167 -97.47171
-49.8055 27.891064 -97.583427
-49.79192 25.891783 -97.648987
-49.789818 23.899101 -97.659142
-49.790462 21.907791 -97.656013
-49.790787 19.916302 -97.654465
-49.783028 17.921871 -97.69191
-49.784161 15.930915 -97.686462
-49.78513 13.939828 -97.68177
-49.785454 11.948497 -97.680214
-49.785454 9.9570723 -97.680222
-49.785454 7.9656649 -97.680214
-49.785454 5.9742408 -97.680214
-49.785454 3.98282 -97.680214
-49.786102 1.9914327 -97.677094
-49.786747 -1.9422065e-05 -97.673973
-49.788685 -1.9915646 -97.664612
-49.794827 -3.9836023 -97.634941
-49.799515 -5.9759574 -97.612305
-49.804203 -7.9686894 -97.589676
-49.8055 -9.9611168 -97.58342
-49.806789 -11.953649 -97.577171
-49.810673 -13.946999 -97.558434
-49.817791 -15.94171 -97.524063
-49.824913 -17.936979 -97.489677
-49.831551 -19.932634 -97.457642
-49.836891 -21.928249 -97.431839
-49.842236 -23.924286 -97.406036
-49.858765 -25.926567 -97.326248
-49.883732 -27.934914 -97.205673
-50.046494 -30.027912 -96.419807
-61.332432 48.554821 -29.58732
-60.646114 45.484581 -33.039249
-60.124367 42.588078 -35.663441
-59.688114 39.792065 -37.857605
-59.252666 37.032898 -40.047741
-58.828465 34.316578 -42.181324
-48.536354 26.290514 -93.94664
-48.462391 24.231186 -94.318626
-48.420639 22.192781 -94.528633
-48.39629 20.16511 -94.6511
-48.398357 18.149372 -94.640686
-48.401382 16.133776 -94.625496
-48.403606 14.117709 -94.614296
-48.405518 12.101369 -94.604683
-48.461594 10.096154 -94.322639
-48.751358 8.1252136 -92.865242
-51.884232 6.4855089 -77.108109
-48.738289 4.0615091 -92.930977
-48.048237 2.0019929 -96.401657
-47.926571 -1.4361818e-05 -97.013596
-47.883091 -1.9951375 -97.2323
-47.860519 -3.9883895 -97.345802
-47.846214 -5.9807858 -97.41777
-47.843727 -7.9739776 -97.430275
-47.843105 -9.967329 -97.433403
-47.847301 -11.961846 -97.412285
-47.856632 -13.9582 -97.365372
-47.871258 -15.957107 -97.291809
-47.882935 -17.956114 -97.233086
-47.897728 -19.957397 -97.158669
-47.92704 -21.96657 -97.011261
-47.963882 -23.981956 -96.825951
-48.008137 -26.004425 -96.603363
-48.078201 -28.045635 -96.250954
-48.236328 -30.147724 -95.45565
-58.986492 48.727959 -28.487427
-58.198051 45.54628 -32.625366
-57.651901 42.612255 -35.491711
-57.19833 39.790119 -37.8722
-56.726971 36.995846 -40.34605
-56.358356 34.30508 -42.280609
-56.010296 31.657986 -44.107353
-55.587345 29.002085 -46.327141
-55.30825 26.451767 -47.791882
-54.982853 23.905584 -49.499687
-54.642628 21.381878 -51.285252
-54.391155 18.918655 -52.605072
-54.210625 16.498865 -53.552544
-54.086994 14.109639 -54.201389
-53.873074 11.711536 -55.324108
-53.957741 9.3839426 -54.879768
-49.529198 6.4603152 -78.122025
-46.651936 4.0566821 -93.222725
-46.219669 2.0095391 -95.491409
-46.128559 -1.82157e-05 -95.969551
-46.099777 -2.0043573 -96.120613
-46.079308 -4.0069132 -96.22805
-46.060207 -6.0078688 -96.3283
-46.058552 -8.0101948 -96.33699
-46.058552 -10.01274 -96.336983
-46.062462 -12.016315 -96.316467
-46.071934 -14.021905 -96.266739
-46.08593 -16.029903 -96.193298
-46.097069 -18.038008 -96.134834
-46.111229 -20.048372 -96.060524
-46.139572 -22.066767 -95.911766
-46.176411 -24.092058 -95.718422
-46.226326 -26.127937 -95.456451
-46.286369 -28.174328 -95.141319
-46.44175 -30.288105 -94.325859
-56.738476 49.0014 -26.750193
-55.826797 45.67646 -31.752453
-55.248226 42.691803 -34.926983
-54.773609 39.835346 -37.531136
-54.274101 37.005054 -40.271816
-53.940529 34.325775 -42.102119
-53.525776 31.628851 -44.377789
-53.211163 29.024252 -46.104008
-52.880539 26.440264 -47.918106
-52.568531 23.894772 -49.630035
-52.267471 21.382133 -51.281937
-52.055817 18.929379 -52.44323
-51.881142 16.507624 -53.401634
-51.67181 14.092299 -54.550213
-51.71616 11.75366 -54.306889
-51.860016 9.4290819 -53.517567
-47.237812 6.4415069 -78.878906
-44.727543 4.0661192 -92.652359
-44.400623 2.0182037 -94.446121
-44.322624 -1.2026108e-05 -94.874092
-44.297169 -2.0135255 -95.013763
-44.277988 -4.0252919 -95.119003
-44.260563 -6.0355434 -95.214607
-44.258968 -8.0471067 -95.223366
-44.259552 -10.059006 -95.220184
-44.263325 -12.071833 -95.199463
-44.272903 -14.086849 -95.146896
-44.286415 -16.104166 -95.072777
-44.296734 -18.121412 -95.016151
-44.311565 -20.141632 -94.934769
-44.338493 -22.169268 -94.787025
-44.374058 -24.204054 -94.591873
-44.423275 -26.250128 -94.321846
-44.488136 -28.310642 -93.965958
-44.663902 -30.452677 -93.001556
-54.371552 49.193298 -25.531034
-53.463455 45.825809 -30.750868
-52.897163 42.821507 -34.006023
-52.384659 39.912109 -36.95195
-51.900383 37.071682 -39.735611
-51.526161 34.350765 -41.886703
-51.119949 31.645666 -44.221649
-50.826336 29.043598 -45.909374
-50.50161 26.453215 -47.775955
-50.197235 23.903437 -49.525539
-49.929184 21.398207 -51.066341
-49.750656 18.952625 -52.092518
-49.575886 16.525288 -53.097145
-49.53643 14.153249 -53.323925
-49.580463 11.804856 -53.070816
-49.699417 9.4665451 -52.387051
-45.044605 6.434927 -79.143501
-42.798996 4.0760765 -92.051559
-42.567665 2.0270085 -93.381264
-42.502792 -1.6315174e-05 -93.754173
-42.472527 -2.0225139 -93.928123
-42.45797 -4.0436311 -94.01181
-42.445663 -6.0636778 -94.08255
-42.444122 -8.0846024 -94.0914
-42.444962 -10.105958 -94.086578
-42.448601 -12.128181 -94.065666
-42.458111 -14.152712 -94.011002
-42.470989 -16.17944 -93.936981
-42.48093 -18.206133 -93.879845
-42.496342 -20.236368 -93.791252
-42.521725 -22.273296 -93.645325
-42.556137 -24.317814 -93.447533
-42.603558 -26.373652 -93.174957
-42.667046 -28.444712 -92.810028
-42.828018 -30.591455 -91.884727
-52.058792 49.455837 -23.863016
-51.176228 46.05859 -29.189798
-50.530102 42.950569 -33.089481
-50.046829 40.037449 -36.006313
-49.567104 37.175316 -38.901718
-49.16238 34.413654 -41.344402
-48.777786 31.705549 -43.665646
-48.45554 29.073317 -45.61058
-48.145649 26.480099 -47.480957
-47.851257 23.925613 -49.257736
-47.644657 21.440084 -50.504704
-47.485542 18.994213 -51.46505
-47.405743 16.592001 -51.946697
-47.343739 14.203107 -52.320915
-47.395485 11.848866 -52.008572
-47.538521 9.5076914 -51.145283
-42.903976 6.4355841 -79.117241
-40.952484 4.0952349 -90.895531
-40.724289 2.0361993 -92.272812
-40.665443 -4.4164708e-06 -92.627968
-40.634743 -2.0317631 -92.813271
-40.621559 -4.0621715 -92.892845
-40.613358 -6.0920215 -92.942329
-40.612015 -8.1224222 -92.950447
-40.612957 -10.153252 -92.944771
-40.616447 -12.184952 -92.923668
-40.623844 -14.218358 -92.879036
-40.636086 -16.254456 -92.805145
-40.645512 -18.290499 -92.748283
-40.662888 -20.331451 -92.643417
-40.687561 -22.37817 -92.494499
-40.720776 -24.432482 -92.294022
-40.766228 -26.498066 -92.019676
-40.827538 -28.579298 -91.649651
-40.986408 -30.739819 -90.690796
-49.835785 49.835773 -21.44923
-48.852329 46.281136 -27.69735
-48.187542 43.115158 -31.920851
-47.705978 40.173443 -34.98032
-47.226097 37.283741 -38.029079
-46.801956 34.485645 -40.723759
-46.425636 31.764887 -43.11459
-46.089367 29.109062 -45.250973
-45.820168 26.527445 -46.96125
-45.552311 23.974892 -48.663002
-45.369705 21.490902 -49.823124
-45.259964 19.056805 -50.520332
-45.196793 16.65144 -50.92168
-45.145855 14.256575 -51.24527
-45.211166 11.897655 -50.830349
-45.360348 9.5495386 -49.882576
-40.918152 6.4607468 -78.104698
-39.03997 4.1094604 -90.037132
-38.866856 2.0456083 -91.137001
-38.812374 -2.0078278e-05 -91.483109
-38.783192 -2.041239 -91.668503
-38.770939 -4.0811582 -91.746368
-38.763592 -6.1205792 -91.793045
-38.762428 -8.1605196 -91.800423
-38.763332 -10.200894 -91.794685
-38.766682 -12.242128 -91.773399
-38.771328 -14.284193 -91.743912
-38.782288 -16.329401 -91.67424
-38.792614 -18.375469 -91.60865
-38.811859 -20.427311 -91.486389
-38.835781 -22.483887 -91.334419
-38.868023 -24.548239 -91.129585
-38.911224 -26.623495 -90.855095
-38.970932 -28.715446 -90.475761
-47.891975 50.552628 -16.89492
-46.588261 46.588242 -25.637825
-45.851315 43.304001 -30.579887
-45.378242 40.336197 -33.752388
-44.875774 37.396465 -37.122013
-44.475651 34.592155 -39.805313
-44.081192 31.836395 -42.4506
-43.766567 29.177698 -44.560513
-43.510506 26.589746 -46.27771
-43.283531 24.046385 -47.799824
-43.130383 21.565189 -48.826885
-43.02771 19.123409 -49.515415
-42.973633 16.711958 -49.87809
-42.952736 14.317561 -50.018188
-43.013798 11.948261 -49.608688
-43.170341 9.5934067 -48.558926
-38.950092 6.4916706 -76.860535
-37.144711 4.1271715 -88.967674
-36.991802 2.0550871 -89.993111
-36.941814 -1.0256592e-05 -90.328346
-36.914276 -2.0508161 -90.513008
-36.903175 -4.1003637 -90.587463
-36.896271 -6.1493907 -90.633766
-36.895283 -8.1989651 -90.640373
-36.896271 -10.248978 -90.633759
-36.899601 -12.299879 -90.611443
-36.904037 -14.351579 -90.581673
-36.911194 -16.404989 -90.533699
-36.924644 -18.462341 -90.443489
-36.943298 -20.524069 -90.318398
-36.966419 -22.590609 -90.163315
-36.997753 -24.665188 -89.953209
-37.03907 -26.750456 -89.676117
-37.096676 -28.852987 -89.28981
-45.438999 50.784748 -15.420187
-44.218269 46.819324 -24.08814
-43.512497 43.512486 -29.099594
-43.062305 40.529217 -32.296249
-42.595394 37.58416 -35.611576
-42.158775 34.718983 -38.711861
-41.79171 31.958344 -41.318253
-41.468044 29.271544 -43.616489
-41.206249 26.662851 -45.475395
-41.049911 24.146986 -46.585464
-40.872005 21.638105 -47.848751
-40.809635 19.204525 -48.291599
-40.760357 16.783665 -48.641499
-40.743641 14.380083 -48.760208
-40.806442 12.001887 -48.31427
-40.968166 9.6395607 -47.165939
-37.019253 6.5327888 -75.205696
-35.24292 4.1462135 -87.818779
-35.099537 2.0646682 -88.836899
-35.053883 -1.3489022e-05 -89.161057
-35.027748 -2.060467 -89.346619
-35.017872 -4.1197624 -89.416771
-35.011288 -6.1784792 -89.463509
-35.010345 -8.2377434 -89.470177
-35.011524 -10.297524 -89.461838
-35.014698 -12.35815 -89.439301
-35.018929 -14.419567 -89.409256
-35.024338 -16.482058 -89.370834
-35.038925 -18.550026 -89.267258
-35.056946 -20.621752 -89.13929
-35.07864 -22.697966 -88.985252
-35.108631 -24.782578 -88.772308
-35.148975 -26.878635 -88.485832
-35.204258 -28.991751 -88.093285
-43.043457 51.114094 -13.327833
-41.81966 47.047112 -22.560654
-41.160881 43.733425 -27.530777
-40.708389 40.708374 -30.944567
-40.269699 37.752831 -34.254219
-39.864307 34.881248 -37.312656
-39.482235 32.079308 -40.195175
-39.158901 29.369169 -42.634567
-38.913639 26.753122 -44.484898
-38.796299 24.247665 -45.370159
-38.609531 21.717846 -46.779209
-38.579491 19.289726 -47.005878
-38.520451 16.852678 -47.451302
-38.518482 14.44442 -47.466129
-38.58707 12.058452 -46.948681
-38.748978 9.6872225 -45.727165
-35.083591 6.5781527 -73.380394
-33.327011 4.1658649 -86.632767
-33.191002 2.0744188 -87.658859
-33.1483 -8.4546537e-06 -87.981018
-33.123695 -2.0702496 -88.166656
-33.114532 -4.1393318 -88.235786
-33.108501 -6.2078619 -88.281288
-33.107494 -8.2768965 -88.288864
-33.108727 -10.346494 -88.27961
-33.11174 -12.41692 -88.256859
-33.115871 -14.488206 -88.225677
-33.121239 -16.560633 -88.185219
-33.135212 -18.638573 -88.079788
-33.152554 -20.720356 -87.948914
-33.171936 -22.805723 -87.802696
-33.200771 -24.900589 -87.585167
-33.240341 -27.007797 -87.286629
-33.297504 -29.135332 -86.855362
-39.428997 47.314793 -20.765581
-38.796711 43.969593 -25.853823
-38.363289 40.920826 -29.341721
-37.944141 37.944134 -32.714794
-37.536346 35.033916 -35.996464
-37.174728 32.218086 -38.906559
-36.831062 29.46484 -41.672153
-36.632851 26.864082 -43.267231
-36.541794 24.361189 -43.999966
-36.350124 21.810055 -45.542412
-36.323151 19.372339 -45.759487
-36.263184 16.922812 -46.242073
-36.275333 14.510118 -46.144299
-36.351273 12.117075 -45.533173
-36.512367 9.7366276 -44.236809
-33.120857 6.6241632 -71.529564
-31.392853 4.1857014 -85.435478
-31.264343 2.0842702 -86.469635
-31.224672 -1.1388471e-05 -86.788879
-31.201488 -2.0801179 -86.975449
-31.193134 -4.1590967 -87.042679
-31.187426 -6.2375026 -87.088615
-31.186579 -8.3164415 -87.095428
-31.187744 -10.39592 -87.086075
-31.190596 -12.476254 -87.063103
-31.19451 -14.557452 -87.031624
-31.199903 -16.639965 -86.98822
-31.213127 -18.727882 -86.881775
-31.229866 -20.819923 -86.747101
-31.247149 -22.914591 -86.608017
-31.274755 -25.019827 -86.385834
-31.313276 -27.138191 -86.075844
-31.372093 -29.280632 -85.602539
-36.993439 47.562981 -19.101114
-36.406555 44.207954 -24.161345
-36.005051 41.148624 -27.623198
-35.602123 38.145115 -31.097317
-35.200172 35.200165 -34.562996
-34.859612 32.369629 -37.499409
-34.508095 29.578352 -40.530235
-34.346928 26.986856 -41.919865
-34.270599 24.478985 -42.57798
-34.071045 21.9028 -44.298576
-34.047413 19.455662 -44.502357
-33.994186 16.997087 -44.961273
-34.013977 14.5774 -44.790646
-34.095661 12.177007 -44.086353
-34.254196 9.786911 -42.719398
-31.130484 6.6708016 -69.652664
-29.437666 4.2053685 -84.248459
-29.319399 2.094229 -85.268188
-29.282516 -2.033157e-05 -85.586197
-29.260769 -2.09007 -85.773689
-29.253296 -4.1790605 -85.838135
-29.247915 -6.2674198 -85.884506
-29.24712 -8.3563337 -85.891373
-29.248314 -10.445849 -85.881073
-29.251005 -12.536169 -85.85788
-29.254692 -14.627357 -85.826111
-29.260073 -16.720057 -85.779694
-29.272636 -18.818148 -85.671364
-29.288506 -20.920376 -85.534546
-29.303894 -23.024498 -85.401863
-29.330111 -25.140112 -85.175819
-29.367512 -27.269854 -84.85331
-29.427378 -29.427395 -84.337158
-34.559124 47.851086 -17.169046
-34.032406 44.503918 -22.059866
-33.641117 41.404434 -25.693178
-33.229069 38.341213 -29.519207
-32.869202 35.397583 -32.860748
-32.528183 32.528172 -36.027245
-32.192997 29.716602 -39.139595
-32.033195 27.104988 -40.62344
-31.972458 24.594191 -41.187412
-31.78896 22.007729 -42.891254
-31.755423 19.541786 -43.202667
-31.709341 17.074245 -43.630531
-31.734072 14.646479 -43.40094
-31.819778 12.238359 -42.605095
-31.970793 9.8371553 -41.202877
-29.296438 6.7606974 -66.035416
-27.461746 4.2248654 -83.071335
-27.355692 2.1042688 -84.056084
-27.321678 -1.1516678e-05 -84.371925
-27.301477 -2.1001294 -84.559502
-27.294563 -4.1991777 -84.623688
-27.289801 -6.2976618 -84.667915
-27.28896 -8.3966141 -84.67572
-27.290174 -10.496245 -84.664444
-27.292696 -12.596649 -84.641029
-27.296246 -14.697994 -84.608086
-27.301477 -16.800913 -84.559509
-27.313351 -18.909252 -84.449257
-27.326826 -21.020643 -84.324135
-27.341814 -23.135395 -84.184967
-27.366768 -25.261646 -83.953247
-27.402779 -27.4028 -83.618858
-27.463165 -29.575735 -83.058151
-32.155838 48.233749 -14.602879
-31.664341 44.857803 -19.546959
-31.269636 41.692833 -23.517405
-30.902409 38.627991 -27.211435
-30.535088 35.62426 -30.906359
-30.203638 32.720592 -34.240517
-29.88015 29.880138 -37.494534
-29.715775 27.239456 -39.148029
-29.655926 24.713257 -39.750042
-29.500738 22.125549 -41.311134
-29.448704 19.632448 -41.834568
-29.412939 17.157537 -42.194328
-29.438107 14.719044 -41.941177
-29.52416 12.30171 -41.075497
-29.66214 9.8873672 -39.68755
-27.412388 6.8530884 -62.318333
-25.467415 4.2445502 -81.883224
-25.373066 2.1144071 -82.832314
-25.341974 -1.1383217e-05 -83.145065
-25.323235 -2.1102891 -83.333565
-25.316965 -4.2195101 -83.396629
-25.312613 -6.3281646 -83.440414
-25.311743 -8.4372635 -83.449173
-25.313049 -10.547125 -83.436035
-25.315399 -12.65772 -83.412392
-25.318707 -14.769253 -83.379128
-25.323845 -16.88258 -83.327423
-25.334911 -19.001198 -83.216103
-25.346338 -21.121962 -83.101189
-25.36083 -23.247446 -82.955391
-25.384439 -25.384451 -82.717911
-25.418793 -27.537045 -82.372314
-25.480108 -29.726816 -81.755547
-29.867392 48.873905 -10.309885
-29.336782 45.338657 -16.132658
-28.921412 42.067501 -20.690786
-28.563627 38.950394 -24.617029
-28.201969 35.89341 -28.585754
-27.896553 32.968636 -31.93729
-27.588993 30.097073 -35.312355
-27.384914 27.384905 -37.551853
-27.321613 24.83782 -38.246513
-27.194788 22.250271 -39.638252
-27.127672 19.729206 -40.374763
-27.10033 17.245649 -40.674793
-27.120478 14.792974 -40.45372
-27.197527 12.362503 -39.608196
-27.322056 9.9352722 -38.241638
-25.476231 6.9480405 -58.497185
-23.456533 4.2648039 -80.660728
-23.371323 2.1246495 -81.595787
-23.343113 -1.6367218e-05 -81.90538
-23.325766 -2.1205354 -82.095726
-23.320044 -4.2400241 -82.158516
-23.316177 -6.3589783 -82.200951
-23.315372 -8.4783344 -82.209785
-23.316662 -10.5985 -82.195656
-23.318834 -12.719384 -82.171783
-23.321978 -14.841271 -82.137306
-23.326895 -16.965036 -82.083328
-23.337139 -19.094042 -81.970909
-23.346666 -21.224253 -81.866386
-23.360645 -23.36067 -81.712959
-23.382984 -25.508724 -81.467834
-23.415518 -27.672901 -81.11084
-23.478729 -29.88203 -80.417168
-27.576258 49.63726 -5.1907697
-27.038025 45.96463 -11.687812
-26.586594 42.538525 -17.137066
-26.225775 39.338642 -21.492535
-25.881712 36.234386 -25.645748
-25.579365 33.253166 -29.295395
-25.284939 30.341917 -32.849426
-25.072601 27.579844 -35.412563
-24.96365 24.96364 -36.727734
-24.88316 22.394835 -37.699318
-24.780048 19.82402 -38.943996
-24.764246 17.334959 -39.134747
-24.777246 14.86633 -38.977821
-24.844166 12.422069 -38.170017
-24.951973 9.9807749 -36.868664
-25.108923 7.5326624 -34.974125
-21.430408 4.2860661 -79.377731
-21.350685 2.1350439 -80.340057
-21.324638 -8.6465798e-06 -80.654472
-21.308716 -2.1308877 -80.846672
-21.303537 -4.2607198 -80.909195
-21.30006 -6.3900342 -80.951164
-21.299395 -8.5197716 -80.959183
-21.300579 -10.650292 -80.944916
-21.302576 -12.78156 -80.920815
-21.305462 -14.913837 -80.885986
-21.31027 -17.048237 -80.827904
-21.319675 -19.187729 -80.714394
-21.328346 -21.328365 -80.609726
-21.341702 -23.475889 -80.448532
-21.362581 -25.635105 -80.19648
-21.39312 -27.811073 -79.827843
-21.456564 -30.039202 -79.061996
-24.787325 46.820488 -5.6106524
-24.284138 43.171787 -12.359563
-23.88271 39.804493 -17.743643
-23.59281 36.699917 -21.631857
-23.299538 33.654877 -25.565331
-22.99995 30.666584 -29.583469
-22.776907 27.838436 -32.574978
-22.597198 25.107986 -34.985287
-22.53578 22.535765 -35.809059
-22.422764 19.931332 -37.324875
-22.405203 17.426254 -37.560379
-22.410023 14.940003 -37.495754
-22.456503 12.475813 -36.872334
-22.551149 10.022727 -35.602924
-22.686045 7.5620065 -33.793663
-19.383984 4.3075366 -78.081879
-19.310163 2.1455615 -79.071968
-19.286356 -1.1234913e-05 -79.391296
-19.271952 -2.1413319 -79.584488
-19.267178 -4.2816172 -79.648521
-19.264153 -6.4213929 -79.689095
-19.263548 -8.5615892 -79.697205
-19.26469 -10.702613 -79.681885
-19.266504 -12.844346 -79.657539
-19.269127 -14.987114 -79.62236
-19.273701 -17.132204 -79.561028
-19.282249 -19.282267 -79.446373
-19.290129 -21.433496 -79.340668
-19.302671 -23.592171 -79.172447
-19.322056 -25.762756 -78.91246
-19.350632 -27.950935 -78.529221
-19.412401 -30.197069 -77.70076
-21.81529 40.903656 -8.898325
-21.366676 37.39167 -15.667378
-21.042683 34.194347 -20.556095
-20.706768 31.060131 -25.624643
-20.46102 28.133883 -29.332705
-20.270889 25.338598 -32.201523
-20.142286 22.660053 -34.142014
-20.061605 20.061592 -35.359394
-20.016445 17.514376 -36.040802
-20.019793 15.014831 -35.990307
-20.054884 12.534299 -35.460808
-20.126263 10.063113 -34.383774
-20.248228 7.593071 -32.543465
-17.316956 4.3292174 -76.77298
-17.249464 2.156173 -77.791328
-17.22797 -1.4259136e-05 -78.115654
-17.215099 -2.1518946 -78.309853
-17.210814 -4.3027191 -78.374512
-17.20822 -6.4530911 -78.413658
-17.207615 -8.6038113 -78.422768
-17.208702 -10.755459 -78.40638
-17.210333 -12.907762 -78.38179
-17.212685 -15.06111 -78.346283
-17.217031 -17.217039 -78.280693
-17.224705 -19.377813 -78.164902
-17.23172 -21.539665 -78.059052
-17.243404 -23.709688 -77.882782
-17.26111 -25.891674 -77.615608
-17.287739 -28.092594 -77.213791
-17.362652 -30.384657 -76.083473
-18.566044 31.827496 -17.905668
-18.176699 28.563379 -24.619677
-17.962696 25.660971 -28.310034
-17.779984 22.859966 -31.46077
-17.66902 20.193157 -33.374306
-17.609541 17.60952 -34.399967
-17.604488 15.089552 -34.48711
-17.627684 12.591186 -34.087135
-17.683205 10.104672 -33.129662
-17.792358 7.6252933 -31.247393
-15.22906 4.3511348 -75.449905
-15.168283 2.1668832 -76.497986
-15.149127 -5.2919659e-06 -76.828285
-15.137861 -2.1625571 -77.022568
-15.134074 -4.3240423 -77.087875
-15.131834 -6.4850831 -77.126503
-15.131301 -8.6464739 -77.135681
-15.132314 -10.808819 -77.118225
-15.133755 -12.971797 -77.093399
-15.135834 -15.135849 -77.057518
-15.139836 -17.302683 -76.988525
-15.14667 -19.474316 -76.870651
-15.152763 -21.646822 -76.765602
-15.163462 -23.828314 -76.581078
-15.179433 -26.021889 -76.305695
-15.204044 -28.236095 -75.881287
-15.266033 -30.532084 -74.812347
-16.965996 31.104324 3.2638457
-15.638737 26.064558 -23.438572
-15.460093 23.190123 -27.032579
-15.284216 20.378939 -30.570953
-15.204926 17.739073 -32.166164
-15.168713 15.168694 -32.894707
-15.182538 12.652097 -32.616547
-15.224797 10.149857 -31.76638
-15.316393 7.6581817 -29.923597
-13.119867 4.373271 -74.114288
-13.066314 2.1776972 -75.191704
-13.049639 -9.7203783e-06 -75.527176
-13.039932 -2.173326 -75.722473
-13.036654 -4.3455615 -75.788429
-13.03476 -6.5173903 -75.826515
-13.034346 -8.6895742 -75.834877
-13.035222 -10.862696 -75.817215
-13.036469 -13.036486 -75.792145
-13.038269 -15.211329 -75.755913
-13.041919 -17.389242 -75.682503
-13.047835 -19.571768 -75.563454
-13.053063 -21.755121 -75.458275
-13.062651 -23.948215 -75.265388
-13.076757 -26.153521 -74.981606
-13.098906 -28.380978 -74.536003
-14.06921 45.021465 1.5951139
-14.068823 42.206455 1.5857849
-14.093707 39.462364 2.1865387
-14.232325 31.311104 5.5330958
-14.119654 28.239302 2.8129632
-14.017011 25.230602 0.33492589
-13.005485 20.808762 -24.085493
-12.802974 17.924149 -28.974506
-12.746266 15.295506 -30.343546
-12.728707 12.728696 -30.767437
-12.749498 10.199576 -30.265526
-12.830122 7.6980629 -28.319113
-10.988993 4.3955798 -72.767891
-10.943207 2.1886187 -73.873253
-10.929132 -1.3404184e-05 -74.213036
-10.921001 -2.1842186 -74.40934
-10.918241 -4.3673072 -74.475975
-10.916687 -6.5500355 -74.513496
-10.916337 -8.733077 -74.52195
-10.917114 -10.917123 -74.503189
-10.918202 -13.101854 -74.476929
-10.919679 -15.287563 -74.441254
-10.922906 -17.476669 -74.36335
-10.927848 -19.670149 -74.244041
-10.932248 -21.864511 -74.13781
-10.940592 -24.069315 -73.936394
-10.952662 -26.286411 -73.644989
-10.972092 -28.527451 -73.175919
-11.221914 44.88765 0.58559197
-11.184835 41.943111 -0.53336358
-11.17236 39.103256 -0.90983164
-11.160929 36.272999 -1.2548141
-11.158696 33.476074 -1.3221899
-11.169361 30.715725 -1.0003673
-11.363455 28.40863 4.856935
-11.283519 25.387896 2.4446712
-11.246239 22.492464 1.3196272
-11.225816 19.645155 0.70332444
-11.180657 16.770973 -0.65946895
-10.284572 12.8557 -27.701244
-10.259591 10.259578 -28.455069
-10.319731 7.7397861 -26.640213
-8.836236 4.4180999 -71.40863
-8.798727 2.1996655 -72.540565
-8.7872906 -7.7097711e-06 -72.885689
-8.7807512 -2.1952002 -73.083031
-8.7785215 -4.389277 -73.15033
-8.7772961 -6.5829835 -73.187279
-8.7770147 -8.7770205 -73.195808
-8.7776737 -10.972104 -73.175919
-8.778553 -13.167837 -73.149376
-8.7797775 -15.364627 -73.112419
-8.7824478 -17.564905 -73.03183
-8.7864408 -19.769501 -72.911324
-8.7899971 -21.97501 -72.804001
-8.7969294 -24.19157 -72.59481
-8.8068733 -26.42063 -72.294746
-8.8232422 -28.675564 -71.800735
-8.4173594 44.892582 0.622756
-8.3796139 41.89806 -0.89600742
-8.3547382 38.988766 -1.8969244
-8.3372545 36.128086 -2.6003957
-8.3198814 33.279522 -3.2994423
-8.307415 30.460506 -3.8010721
-8.298912 27.663025 -4.1431842
-8.2949104 24.884718 -4.3041897
-8.3032179 22.141903 -3.9699502
-8.4705057 19.764509 2.7611966
-8.4387398 16.877464 1.483
-8.4150896 14.025136 0.53139514
-8.4375401 11.250037 1.4347631
-8.5097456 8.5097313 4.3400927
-6.6613059 4.4408584 -70.035393
-6.6325021 2.2108161 -71.194359
-6.6237664 -1.5431149e-05 -71.545876
-6.6188598 -2.2062936 -71.743301
-6.6171703 -4.4114614 -71.811264
-6.6162424 -6.6162534 -71.848595
-6.6160522 -8.8214264 -71.856255
-6.6165752 -11.027637 -71.835197
-6.6172414 -13.234503 -71.808388
-6.6181693 -15.44241 -71.771057
-6.6202879 -17.654116 -71.685814
-6.6232896 -19.86989 -71.565041
-6.6259837 -22.086622 -71.456642
-6.631403 -24.315161 -71.238586
-6.6390572 -26.556252 -70.930611
-6.6519651 -28.825207 -70.411217
-5.6389074 45.111256 2.2725403
-5.5874524 41.905876 -0.83305556
-5.5662885 38.964005 -2.1104012
-5.5503011 36.076939 -3.0753417
-5.5337062 33.202213 -4.0769167
-5.5155988 30.335772 -5.1698155
-5.5084181 27.542076 -5.6031842
-5.4942861 24.724274 -6.4561548
-5.4838748 21.935484 -7.0845118
-5.4765816 19.168018 -7.524713
-5.4747 16.424089 -7.6382728
-5.4859586 13.714884 -6.9587336
-5.6572876 11.314563 3.3818855
-5.7030106 8.5545025 6.1415076
-4.4638591 4.4638338 -68.647911
-4.4441996 2.2220864 -69.834435
-4.4382844 -1.2445554e-05 -70.191467
-4.4349799 -2.2175117 -70.390907
-4.4338584 -4.4338675 -70.458611
-4.4332495 -6.6498866 -70.495361
-4.4331374 -8.8662825 -70.502129
-4.4334903 -11.08374 -70.48085
-4.4339547 -13.301878 -70.452812
-4.4345636 -15.520979 -70.416061
-4.4360542 -17.744232 -70.326073
-4.4380598 -19.971291 -70.205032
-4.4398742 -22.199385 -70.09552
-4.4436207 -24.43992 -69.869415
-4.4488888 -26.693357 -69.551437
-4.4579396 -28.976624 -69.005165
-2.8392072 45.427307 4.6569881
-2.8026977 42.040455 0.24990232
-2.7867851 39.014984 -1.6709436
-2.775816 36.085598 -2.9950128
-2.7655809 33.186962 -4.2304821
-2.7548151 30.302942 -5.5300388
-2.74894 27.489388 -6.239244
-2.7383883 24.645487 -7.5129242
-2.7333865 21.867086 -8.116703
-2.7257969 19.080559 -9.0328684
-2.7215044 16.329016 -9.5509815
-2.7183692 13.591827 -9.9294138
-2.7183573 10.873424 -9.9308786
-2.7193453 8.1580276 -9.8116159
-2.2435431 4.4870691 -67.24601
-2.2334733 2.2334647 -68.461578
-2.2304771 -1.7243385e-05 -68.823235
-2.228816 -2.2288206 -69.02375
-2.2282493 -4.4565063 -69.092148
-2.2279501 -6.6838737 -69.128273
-2.2278934 -8.9115934 -69.135109
-2.2280796 -11.140418 -69.112656
-2.2283142 -13.369899 -69.084328
-2.2286217 -15.600365 -69.047203
-2.2294073 -17.835264 -68.952385
-2.2304122 -20.073725 -68.831062
-2.231329 -22.313299 -68.720421
-2.2332783 -24.566078 -68.485115
-2.2360616 -26.832754 -68.149124
-2.240921 -29.131987 -67.562546
-1.5561506e-23 45.928902 8.441206
6.8223291e-23 42.261101 2.025619
1.1308731e-23 39.140846 -0.58566946
5.9654899e-23 36.15823 -2.3205824
9.5259479e-23 33.225296 -3.8448043
-4.0827465e-23 30.332376 -5.2072377
-1.1325834e-25 27.492842 -6.1976104
8.0524479e-23 24.641081 -7.5719104
9.3948594e-23 21.851013 -8.3590536
4.7071015e-24 19.071928 -9.1819086
3.9319983e-24 16.298073 -10.173478
1.0243005e-22 13.563767 -10.606949
1.9843269e-23 10.851349 -10.596828
3.0262749e-23 8.1422195 -10.447618
-2.3670283e-23 4.5152483 -65.545944
4.1919437e-25 2.2449505 -67.075569
1.0696246e-22 -1.7870794e-05 -67.44194
-1.1359281e-23 -2.2402723 -67.64254
2.5293506e-23 -4.4793911 -67.711639
7.1927328e-23 -6.7181931 -67.747162
3.4525116e-23 -8.9573536 -67.754074
-8.429389e-24 -11.197665 -67.7304
1.7614191e-24 -13.438623 -67.701775
1.6754857e-23 -15.68056 -67.664261
2.1047289e-23 -17.927195 -67.565491
8.4329685e-23 -20.177301 -67.441933
-2.9175964e-23 -22.42831 -67.332138
3.9916526e-23 -24.693529 -67.086464
2.5441275e-23 -26.973824 -66.730064
-3.2828731e-24 -29.289673 -66.098351
2.8939261 46.302795 11.262147
2.8402588 42.603859 4.7839222
2.8101172 39.341633 1.1455414
2.7927468 36.305702 -0.95127153
2.7770975 33.325146 -2.8403111
2.7639613 30.403566 -4.4259968
2.7531586 27.531572 -5.7299986
2.7437398 24.693651 -6.8669462
2.7346413 21.877115 -7.9652219
2.7257848 19.08049 -9.0343342
2.7191164 16.314688 -9.8392687
2.716588 13.582921 -10.144446
2.7133565 10.853414 -10.534556
2.7333136 8.1999302 -8.1255226
2.2692335 4.538455 -64.144928
2.2565558 2.2565458 -65.675232
2.2534895 -2.4006002e-05 -66.045403
2.2518187 -2.2518311 -66.247086
2.2512403 -4.5024858 -66.316902
2.2509511 -6.7528648 -66.351784
2.2508605 -9.0034475 -66.362762
2.2511001 -11.255504 -66.333847
2.2513394 -13.508054 -66.304932
2.2516534 -15.761579 -66.267036
2.2524552 -18.019663 -66.170242
2.2534728 -20.281273 -66.047417
2.2545161 -22.545172 -65.921463
2.2565644 -24.822227 -65.674225
2.2596974 -27.116388 -65.296013
2.2652707 -29.448532 -64.623283
5.7179723 42.884785 7.0445285
5.6595316 39.616703 3.5173168
5.614603 36.494907 0.80562943
5.5800581 33.480339 -1.2793144
5.5489707 30.519329 -3.1556218
5.5222754 27.611366 -4.7668219
5.5014291 24.756428 -6.025022
5.4811311 21.924517 -7.2500911
5.4637303 19.123037 -8.3003359
5.454453 16.363344 -8.8602915
5.4502616 13.625641 -9.113246
5.4639735 10.927931 -8.2856493
5.501873 8.2528048 -5.9982204
4.561903 4.5618901 -62.730438
4.5365543 2.2682629 -64.260353
4.5303574 -1.2720762e-05 -64.634377
4.5269976 -2.2635145 -64.837135
4.5258293 -4.525846 -64.907677
4.5252786 -6.7879405 -64.940918
4.5249276 -9.049881 -64.962074
4.5255623 -11.313923 -64.923798
4.526063 -13.578207 -64.89357
4.5266972 -15.843463 -64.855278
4.5282507 -18.113014 -64.76152
4.5303073 -20.386398 -64.637413
4.53265 -22.66326 -64.496017
4.5368733 -24.952812 -64.241127
4.5434074 -27.260458 -63.846729
4.5554166 -29.610222 -63.12191
8.6428471 43.214233 9.6956558
8.5553112 39.924778 6.1735139
8.4776449 36.73645 3.0484829
8.4183226 33.673279 0.66149294
8.3628244 30.663679 -1.5716022
8.3187542 27.729164 -3.344836
8.2791281 24.837374 -4.9392366
8.2512932 22.003431 -6.0592494
8.2264004 19.194929 -7.0608478
8.2175856 16.435158 -7.4155021
8.2241945 13.706975 -7.1495805
8.248704 10.998261 -6.1633954
8.3175888 8.3175726 -3.3917131
6.8783736 4.5855722 -61.301258
6.840312 2.280082 -62.832752
6.8309698 -1.4432931e-05 -63.208641
6.8259034 -2.275316 -63.412502
6.824132 -4.5494437 -63.483776
6.8233223 -6.8233271 -63.516361
6.8225884 -9.0967922 -63.545872
6.8237777 -11.372976 -63.498032
6.8245363 -13.649091 -63.467503
6.8255234 -15.926245 -63.42778
6.8277769 -18.207413 -63.33712
6.830843 -20.49255 -63.213741
6.8347492 -22.782515 -63.056576
6.8413029 -25.084793 -62.79285
6.8514895 -27.40597 -62.382992
6.8711581 -29.77503 -61.591595
11.631004 43.616261 12.930956
11.493089 40.225792 8.7689924
11.388925 37.013996 5.6255598
11.307069 33.921196 3.1553335
11.221299 30.858561 0.5670051
11.156261 27.890633 -1.395671
11.093678 24.96076 -3.2843163
11.052958 22.1059 -4.513144
11.030502 19.30337 -5.1907606
11.018518 16.527773 -5.5524426
11.036158 13.79518 -5.0201139
11.075705 11.075686 -3.826704
11.177245 8.3829203 -0.76242232
9.2190523 4.609519 -59.856144
9.1682529 2.2920554 -61.38916
9.1556664 -2.1853944e-05 -61.76899
9.1489067 -2.2872338 -61.972939
9.1465206 -4.573276 -62.04496
9.1454649 -6.8591075 -62.076855
9.1442719 -9.1442871 -62.112827
9.1460781 -11.432618 -62.058331
9.1471348 -13.720712 -62.026455
9.1484642 -16.009825 -61.986298
9.1513643 -18.302738 -61.898811
9.1554947 -20.599886 -61.774136
9.1612368 -22.903107 -61.60088
9.1702394 -25.218166 -61.329185
9.1843786 -27.553146 -60.902496
9.2136526 -29.944386 -60.019081
14.688069 44.064201 16.53574
14.486235 40.561447 11.662991
14.355 37.32299 8.4947004
14.245278 34.188656 5.8458195
14.129279 31.0844 3.0453451
14.038371 28.076731 0.85059083
13.946785 25.104204 -1.3604891
13.892971 22.228737 -2.6596456
13.885298 19.439415 -2.844873
13.868163 16.641787 -3.2585878
13.886807 13.886798 -2.8084583
13.945959 11.156752 -1.3803684
14.092865 8.4557161 2.1662142
11.584258 4.6336904 -58.396904
11.520699 2.3041289 -59.931366
11.504886 -2.3410183e-05 -60.313126
11.496391 -2.2992935 -60.518185
11.493377 -4.597363 -60.590988
11.492085 -6.8952751 -60.62215
11.490363 -9.1923084 -60.663727
11.492903 -11.492928 -60.602406
11.494238 -13.793093 -60.57019
11.495918 -16.094305 -60.529629
11.499452 -18.399143 -60.444313
11.504626 -20.708342 -60.319386
11.512441 -23.02491 -60.130714
11.524075 -25.352976 -59.849861
11.542459 -27.701906 -59.406033
11.581154 -30.111015 -58.471855
17.901764 44.754402 22.090067
17.603518 41.07486 16.089775
17.40559 37.712101 12.10782
17.252882 34.505741 9.0355806
17.096399 31.343386 5.8873501
16.969986 28.283304 3.344089
16.850208 25.275297 0.93437147
16.788118 22.384146 -0.31478223
16.784826 19.582285 -0.38100246
16.754423 16.75441 -0.99268764
16.778629 13.982178 -0.50567448
16.87245 11.248287 1.3818414
17.043762 8.5218716 4.8283577
13.974407 4.6581178 -56.922264
13.898066 2.316324 -58.458126
13.878993 -1.0190597e-05 -58.841846
13.868692 -2.3114645 -59.049088
13.865089 -4.6217074 -59.12159
13.863575 -6.9318027 -59.152058
13.861225 -9.2408381 -59.19931
13.864567 -11.553825 -59.132088
13.866237 -13.866251 -59.098484
13.868275 -16.17967 -59.057484
13.872352 -18.496485 -58.975487
13.878575 -20.817881 -58.850269
13.888837 -23.148079 -58.643795
13.90321 -25.489241 -58.354641
13.926089 -27.852192 -57.89436
13.985769 -30.302504 -56.693695
20.688005 38.420567 18.686243
20.405899 34.981525 13.82151
20.186169 31.721109 10.032376
20.010853 28.586914 7.0091619
19.836998 25.50469 4.011137
19.733276 22.552307 2.2224987
19.742619 19.742601 2.3836279
19.699062 16.884907 1.632512
19.73518 14.096541 2.2553332
19.841763 11.338138 4.0933027
20.027277 8.5831013 7.2923746
16.389896 4.6828122 -55.431988
16.300755 2.3286638 -56.969208
16.278324 -1.490496e-05 -57.355953
16.266304 -2.3237736 -57.563282
16.262053 -4.6463122 -57.636574
16.26033 -6.9687204 -57.666298
16.257191 -9.2898321 -57.720428
16.26156 -11.615414 -57.645065
16.263531 -13.940187 -57.611076
16.265934 -16.265945 -57.56966
16.270494 -18.594858 -57.491032
16.278017 -20.92889 -57.361282
16.290798 -23.272587 -57.140877
16.308058 -25.626949 -56.843273
16.336096 -28.00474 -56.359776
16.404734 -30.46595 -55.176147
23.300436 29.125534 13.510794
22.993284 25.867428 8.8762255
22.821695 22.821672 6.2871614
22.746288 19.902983 5.1493526
22.711239 17.033407 4.6205258
22.742916 14.214312 5.098464
22.843256 11.421614 6.6124859
23.03591 8.6384554 9.5193853
18.831202 4.7077866 -53.924774
18.729164 2.3411267 -55.464348
18.703402 -1.3675367e-05 -55.8531
18.689585 -2.3362155 -56.061565
18.684677 -4.6711841 -56.135643
18.682259 -7.005857 -56.172142
18.678774 -9.3394003 -56.224705
18.68425 -11.677664 -56.142086
18.686525 -14.01491 -56.107735
18.689371 -16.35321 -56.064785
18.694355 -18.694372 -55.989616
18.703688 -21.041666 -55.848793
18.718666 -23.398354 -55.622776
18.739103 -25.766289 -55.314384
18.772789 -28.159203 -54.806114
28.83317 32.036858 48.653431
28.510862 28.510859 44.330532
26.207268 23.295328 13.434047
25.949133 20.18264 9.9718485
25.811823 17.207872 8.1302176
25.796268 14.331237 7.921587
25.886362 11.505031 9.129962
26.078917 8.6929522 11.712554
21.298601 4.733007 -52.402473
21.18372 2.353724 -53.943291
21.154585 -7.1448549e-06 -54.334068
21.138954 -2.3487935 -54.54369
21.133371 -4.6963196 -54.618568
21.130056 -7.0433764 -54.663033
21.126257 -9.3894539 -54.714005
21.132807 -11.740453 -54.626171
21.135637 -14.090444 -54.588188
21.138954 -16.441418 -54.543701
21.144217 -18.794878 -54.473129
21.15572 -21.155731 -54.318848
21.172997 -23.525566 -54.087101
21.196648 -25.907032 -53.769875
21.236347 -28.315147 -53.237411
32.253269 32.253262 51.265751
31.862165 28.675945 46.544724
31.723944 25.379154 44.876236
31.156239 21.809349 38.023441
30.594912 18.356943 31.247593
29.07448 14.537233 12.894352
29.040489 11.616189 12.48404
29.216667 8.7649851 14.610745
23.792582 4.7584987 -50.863766
23.664837 2.3664682 -52.405777
23.632296 -5.6975723e-06 -52.798584
23.614832 -2.3615055 -53.00938
23.608562 -4.7217169 -53.085083
23.604113 -7.0812416 -53.138798
23.600208 -9.4400997 -53.185913
23.607563 -11.803798 -53.097141
23.611288 -14.166789 -53.052166
23.615105 -16.530584 -53.006104
23.620743 -18.896601 -52.938065
23.634392 -21.270967 -52.7733
23.654072 -23.654089 -52.535721
23.681278 -26.049429 -52.207302
23.727161 -28.472609 -51.653465
35.739559 32.490498 54.129482
34.268906 28.038189 37.990971
33.816284 24.593651 33.024044
33.434658 21.276598 28.836191
33.252789 18.137882 26.840435
33.189342 15.086041 26.144182
33.212044 12.077086 26.393307
33.337711 9.0920982 27.772339
26.313679 4.7843003 -49.307293
26.172956 2.3793442 -50.851509
26.136972 -7.6846372e-06 -51.246403
26.117653 -2.3743496 -51.458389
26.110683 -4.747416 -51.534889
26.105026 -7.1195636 -51.596962
26.100988 -9.4912748 -51.641289
26.109167 -11.867826 -51.551521
26.113914 -14.243968 -51.499424
26.118261 -16.620729 -51.451729
26.124529 -18.999666 -51.382954
26.140213 -21.387461 -51.210835
26.162504 -23.784105 -50.966213
26.193272 -26.193281 -50.628586
26.245832 -28.631826 -50.0518
37.817074 34.665638 42.344769
37.174549 30.978767 35.881428
36.740093 27.555058 31.511137
36.34346 24.22896 27.521311
36.12714 21.074146 25.345329
36.0359 18.017935 24.427507
35.972515 14.988534 23.789913
36.016861 12.005617 24.235983
36.17791 9.0444641 25.856041
28.863268 4.8105288 -47.723587
28.708628 2.3923812 -49.27914
28.669054 -2.2069889e-05 -49.677212
28.647749 -2.3873243 -49.891552
28.640171 -4.7733769 -49.967758
28.633152 -7.1583071 -50.038349
28.628923 -9.5429859 -50.080917
28.637941 -11.932488 -49.990185
28.643959 -14.321986 -49.929668
28.648865 -16.711857 -49.880333
28.65589 -19.103947 -49.809662
28.673744 -21.505329 -49.630043
28.698557 -23.91548 -49.380432
28.733278 -26.338842 -49.031197
28.792831 -28.792852 -48.432106
41.631176 41.631161 48.49799
40.757057 37.621876 40.381466
40.202599 34.01757 35.233055
39.724255 30.557117 30.791433
39.325104 27.225058 27.085119
39.009869 24.006062 24.158024
38.851204 20.919865 22.684769
38.799988 17.907675 22.209187
38.751541 14.904432 21.759335
38.816601 11.943557 22.363474
38.997471 8.999402 24.042908
31.444571 4.8376117 -46.089058
31.272339 2.4055629 -47.688313
31.228996 -7.2061075e-06 -48.090778
31.205902 -2.4004633 -48.305206
31.197603 -4.7996483 -48.382259
31.189674 -7.1976295 -48.455902
31.185528 -9.5955677 -48.494385
31.195528 -11.998292 -48.401524
31.20212 -14.400988 -48.340347
31.207613 -16.804113 -48.289337
31.215183 -19.209354 -48.219002
31.235598 -21.624653 -48.029457
31.263393 -24.048777 -47.771381
31.302042 -26.486359 -47.412525
