# .PCD v0.7 - Point Cloud Data file format
VERSION 0.7
FIELDS x y z
SIZE 4 4 4
TYPE F F F
COUNT 1 1 1
WIDTH 1519
HEIGHT 1
VIEWPOINT 0 0 0 1 0 0 0
POINTS 1519
DATA ascii
-758.99365 342.77139 -267.59515
-757.23102 317.54846 -274.45862
-755.47961 292.44379 -281.27817
-753.73328 267.4538 -288.07855
-751.99805 242.58015 -294.83533
-750.2677 217.81972 -301.57309
-748.54834 193.17386 -308.26791
-746.83386 168.63998 -314.94421
-745.13019 144.21873 -321.57794
-743.43121 119.90836 -328.19351
-741.74304 95.708847 -334.767
-598.9892 57.966801 -890.63525
-598.9892 38.644543 -890.63531
-598.9892 19.3223 -890.63519
-598.9892 4.1446285e-05 -890.63525
-598.9892 -19.32217 -890.63519
-598.9892 -38.644428 -890.63525
-603.58032 -58.410934 -872.75812
-602.38885 -77.727493 -877.39752
-602.38885 -97.159439 -877.39752
-602.38885 -116.59135 -877.39752
-602.38885 -136.02319 -877.39746
-602.38885 -155.45514 -877.3974
-602.38885 -174.88699 -877.39752
-602.38885 -194.31894 -877.39752
-743.09021 421.08453 -233.07115
-741.34747 395.38544 -240.08321
-739.6098 369.80493 -247.07498
-737.88342 344.3457 -254.02179
-736.16187 319.00348 -260.94839
-734.45148 293.78064 -267.8306
-732.74591 268.67352 -274.69315
-731.05139 243.68384 -281.51163
-729.36157 218.80865 -288.31085
-727.68256 194.0488 -295.06647
-726.0083 169.40211 -301.80334
-724.34473 144.86903 -308.49707
-722.68573 120.44781 -315.1723
-721.03729 96.138412 -321.8049
-579.24902 57.925018 -892.31708
-579.24902 38.616646 -892.31702
-579.24902 19.308304 -892.31702
-579.24902 2.6666812e-05 -892.31714
-579.24902 -19.30821 -892.31702
-579.24902 -38.61655 -892.31702
-585.82159 -58.582104 -865.87091
-584.57013 -77.942581 -870.90656
-584.57013 -97.428307 -870.90668
-584.57013 -116.914 -870.90668
-584.57013 -136.39964 -870.90662
-584.57013 -155.88527 -870.90668
-584.57013 -175.37099 -870.90656
-584.6228 -194.87424 -870.69446
-722.23401 423.3786 -216.78159
-719.95795 397.21826 -226.25529
-718.26257 371.51526 -233.31218
-716.57825 345.93433 -240.32304
-714.8988 320.47198 -247.31386
-713.23016 295.12976 -254.25931
-711.56635 269.90457 -261.18506
-709.91321 244.79765 -268.06601
-708.26477 219.80644 -274.92752
-706.62695 194.93164 -281.74475
-704.99371 170.1709 -288.543
-703.37097 145.52504 -295.29761
-701.75275 120.99193 -302.03345
-700.14484 96.571709 -308.72598
-562.29712 58.16877 -882.50854
-562.25983 38.776581 -882.664
-562.25983 19.388319 -882.66394
-562.25983 5.6211378e-05 -882.66394
-562.25983 -19.388174 -882.66394
-562.25983 -38.776539 -882.66394
-568.74664 -58.835854 -855.66309
-567.61005 -78.290993 -860.39386
-567.61005 -97.863777 -860.39386
-567.61005 -117.43653 -860.39386
-567.61005 -137.00926 -860.39398
-567.61005 -156.58202 -860.39386
-567.61005 -176.15479 -860.39392
-567.92999 -195.83791 -859.06226
-701.34784 425.81848 -199.45752
-698.3692 399.06827 -212.29878
-696.71704 373.24133 -219.42136
-695.07568 347.53793 -226.49757
-693.43909 321.95383 -233.55305
-691.81305 296.49142 -240.56306
-690.19171 271.14688 -247.55261
-688.58093 245.92194 -254.49709
-686.97467 220.81329 -261.42145
-685.37885 195.82265 -268.30145
-683.78748 170.94701 -275.16187
-682.20636 146.1871 -281.97815
-680.62976 121.54114 -288.77518
-679.06317 97.009064 -295.52866
-545.40759 58.436527 -871.73071
-545.30933 38.950779 -872.1543
-545.30933 19.475458 -872.15442
-545.30933 6.7428395e-05 -872.1543
-545.30933 -19.47526 -872.1543
-545.30933 -38.950584 -872.15436
-551.52307 -59.091698 -845.36633
-550.49768 -78.642433 -849.78674
-550.49768 -98.303062 -849.78674
-550.49768 -117.96376 -849.7868
-550.49768 -137.62444 -849.7868
-550.49768 -157.28503 -849.7868
-550.49768 -176.94566 -849.78674
-551.06934 -196.81035 -847.32245
-680.27826 428.32339 -181.6701
-676.57837 400.93549 -198.21153
-674.97034 374.98361 -205.40074
-673.3728 349.15634 -212.54323
-671.77985 323.44958 -219.66451
-670.19733 297.86557 -226.73965
-668.61945 272.40067 -233.79419
-667.05176 247.05626 -240.80276
-665.48865 221.82953 -247.79128
-663.93555 196.72171 -254.73457
-662.38696 171.73003 -261.6579
-660.84839 146.85527 -268.5369
-659.31409 122.09531 -275.39615
-657.78973 97.450424 -282.21136
-528.36359 58.707119 -860.84534
-528.20599 39.126411 -861.54987
-528.20599 19.563276 -861.54993
-528.20599 8.2652426e-05 -861.54993
-528.20599 -19.56311 -861.54993
-528.20599 -39.126335 -861.54987
-534.15082 -59.350067 -834.97174
-533.23102 -78.997131 -839.08398
-533.23102 -98.746506 -839.08392
-533.23102 -118.49579 -839.08392
-533.23102 -138.24501 -839.08392
-533.23102 -157.99438 -839.08386
-533.23102 -177.74367 -839.08386
-534.04224 -197.7934 -835.45703
-654.58276 402.82019 -183.99191
-653.02246 376.74374 -191.23573
-651.4668 350.78995 -198.45821
-649.91852 324.95938 -205.64632
-648.38037 299.2525 -212.7874
-646.84674 273.66592 -219.90768
-645.32312 248.20131 -226.98174
-643.80389 222.85519 -234.03493
-642.29449 197.62907 -241.04251
-640.78949 172.52029 -248.02995
-639.29419 147.5295 -254.97214
-637.80316 122.65452 -261.89456
-636.32178 97.89576 -268.77219
-511.15924 58.979931 -849.8667
-510.94589 39.303585 -850.85736
-510.94589 19.651814 -850.85736
-510.94589 7.4737596e-05 -850.85742
-510.94589 -19.65176 -850.8573
-510.94589 -39.303497 -850.85736
-516.62433 -59.610462 -824.49384
-515.80615 -79.354713 -828.29236
-515.80615 -99.193405 -828.2923
-515.80615 -119.03219 -828.29236
-515.80615 -138.87085 -828.2923
-515.80615 -158.70944 -828.29248
-515.80615 -178.54825 -828.29242
-516.84424 -198.78621 -823.47284
-632.37933 404.72284 -169.63795
-630.86481 378.51892 -176.95026
-629.35492 352.43881 -184.24075
-627.85217 326.48331 -191.49667
-626.35931 300.6525 -198.70491
-624.87079 274.94324 -205.89191
-623.39215 249.35686 -213.03177
-621.91766 223.89034 -220.15085
-620.45288 198.54498 -227.22359
-618.99231 173.31796 -234.27589
-617.5412 148.20998 -241.28224
-616.0943 123.21888 -248.26845
-614.6568 98.345139 -255.20955
-493.79428 59.255341 -838.78558
-493.53043 39.482414 -840.05951
-493.53043 19.741289 -840.05939
-493.53043 3.4221808e-05 -840.05939
-493.53043 -19.741188 -840.05945
-493.53043 -39.482418 -840.05939
-498.94336 -59.873184 -813.92358
-498.22449 -79.715897 -817.39435
-498.22449 -99.644875 -817.39441
-498.22449 -119.57384 -817.39435
-498.22449 -139.50282 -817.39441
-498.22449 -159.4319 -817.39435
-498.22449 -179.36082 -817.39435
-499.47101 -199.7883 -811.37585
-609.96509 406.6434 -155.14751
-608.49744 380.311 -162.52953
-607.03412 354.10336 -169.88914
-605.57788 328.02136 -177.21349
-604.13116 302.06564 -184.48981
-602.68878 276.23239 -191.74432
-601.25592 250.52338 -198.95145
-599.82721 224.93529 -206.13715
-598.4079 199.46944 -213.27611
-596.99261 174.12288 -220.39404
-595.58667 148.8968 -227.46574
-594.18469 123.78857 -234.51669
-592.79193 98.798767 -241.52213
-476.26797 59.533546 -827.59229
-475.95407 39.662903 -829.17096
-475.95407 19.831484 -829.17096
-475.95407 3.4060387e-05 -829.17096
-475.95407 -19.831352 -829.17102
-475.95407 -39.6628 -829.17102
-481.10745 -60.138401 -803.25153
-480.48209 -80.080292 -806.39673
-480.48209 -100.10035 -806.39673
-480.48209 -120.12048 -806.39667
-480.48209 -140.14047 -806.39679
-480.48209 -160.16058 -806.39673
-480.48209 -180.18071 -806.39661
-481.92334 -200.80133 -799.14783
-587.33716 408.58243 -140.51913
-585.91718 382.12 -147.97147
-584.50153 355.7836 -155.40128
-583.09521 329.57559 -162.782
-581.69312 303.49219 -170.1405
-580.29779 277.53384 -177.46376
-578.91162 251.70079 -184.73875
-577.5296 225.98985 -191.9921
-576.15656 200.40234 -199.19801
-574.78766 174.93544 -206.38264
-573.42767 149.58987 -213.52028
-572.07166 124.36349 -220.63719
-570.72443 99.256577 -227.70766
-458.57477 59.814171 -816.30157
-458.21793 39.845123 -818.17426
-458.21793 19.922636 -818.17432
-458.21793 8.6069464e-05 -818.17426
-458.21793 -19.922401 -818.17432
-458.21793 -39.844982 -818.17426
-463.11127 -60.405781 -792.4928
-462.57675 -80.448135 -795.2981
-462.57675 -100.5602 -795.29803
-462.57675 -120.67204 -795.2981
-462.57675 -140.78413 -795.29803
-462.57675 -160.89619 -795.29803
-462.57675 -181.00816 -795.29822
-464.19681 -201.82465 -786.79529
-564.49237 410.54007 -125.75062
-563.12115 383.94626 -133.27444
-561.75409 357.48004 -140.77534
-560.39606 331.14328 -148.22656
-559.04218 304.93219 -155.65512
-557.69482 278.84747 -163.04767
-556.35632 252.88933 -170.39171
-555.02191 227.05443 -177.71375
-553.69623 201.3441 -184.98761
-552.37445 175.7556 -192.23976
-551.0614 150.28951 -199.4445
-549.7522 124.94367 -206.6279
-548.45148 99.718498 -213.76439
-440.71402 60.097389 -804.90399
-440.31659 40.028759 -807.08441
-440.31659 20.014427 -807.08441
-440.31659 0.00012727706 -807.08447
-440.31659 -20.014399 -807.08441
-440.31659 -40.028728 -807.08441
-444.95432 -60.675606 -781.638
-444.50461 -80.818985 -784.10559
-444.50461 -101.02383 -784.10541
-444.50461 -121.22849 -784.10553
-444.50461 -141.43333 -784.10541
-444.50461 -161.63802 -784.10547
-444.50461 -181.84274 -784.10559
-446.28873 -202.85835 -774.31641
-541.42767 412.51636 -110.83965
-540.10614 385.79019 -118.43616
-538.78864 359.1925 -126.00919
-537.47992 332.72574 -133.53189
-536.17523 306.38596 -141.03149
-534.87683 280.17371 -148.49487
-533.58704 254.08923 -155.90878
-532.30115 228.12907 -163.30026
-531.02374 202.29482 -170.64308
-529.75012 176.58344 -177.96381
-528.48492 150.99565 -185.2364
-527.22345 125.52945 -192.48743
-525.98602 100.18793 -199.60017
-422.68323 60.383369 -793.39789
-422.25085 40.214348 -795.88342
-422.25085 20.107195 -795.88348
-422.25085 9.058931e-06 -795.88348
-422.25085 -20.1071 -795.88342
-422.25085 -40.214252 -795.88342
-426.63596 -60.947849 -770.67737
-426.26654 -81.193695 -772.8006
-426.26654 -101.49201 -772.8006
-426.26654 -121.79049 -772.8006
-426.26654 -142.08881 -772.80066
-426.26654 -162.38722 -772.80072
-426.26654 -182.68558 -772.80066
-518.13983 414.51193 -95.784622
-516.86902 387.65189 -103.45476
-515.60217 360.9216 -111.10089
-514.34375 334.32346 -118.69598
-513.08923 307.85358 -126.26769
-511.84302 281.51373 -133.78909
-510.60065 255.3004 -141.28761
-509.36429 229.21407 -148.74973
-508.13614 203.25447 -156.16235
-506.91165 177.4191 -163.55267
-505.69525 151.70871 -170.89426
-504.48251 126.12066 -178.21382
-503.27774 100.65562 -185.48529
-404.48151 60.672264 -781.77332
-404.01678 40.401688 -784.57812
-404.01678 20.200909 -784.57812
-404.01678 6.625973e-05 -784.57806
-404.01678 -20.200783 -784.57812
-404.01678 -40.401627 -784.57806
-408.15094 -61.222569 -759.62634
-407.85864 -81.571686 -761.39056
-407.85864 -101.96468 -761.39044
-407.85864 -122.35753 -761.39062
-407.85864 -142.75055 -761.39056
-407.85864 -163.14334 -761.39069
-407.85864 -183.53625 -761.39056
-494.62555 416.52676 -80.583183
-493.40652 389.53159 -88.328003
-492.19131 362.66739 -96.048378
-490.98428 335.93671 -103.71712
-489.78094 309.33536 -111.36185
-488.58563 282.86551 -118.95596
-487.39407 256.52319 -126.52625
-486.20822 230.30922 -134.05989
-485.03033 204.22327 -141.54356
-483.85599 178.26273 -149.00443
-482.68939 152.42825 -156.41597
-481.54095 126.72141 -163.71211
-480.36887 101.13031 -171.15862
-386.10339 60.963753 -770.04559
-385.61075 40.590691 -773.17554
-385.61075 20.295351 -773.17542
-385.61075 -3.0143965e-06 -773.17548
-385.61075 -20.295221 -773.17548
-385.61075 -40.590637 -773.17542
-389.49854 -61.499722 -748.4754
-389.2771 -81.953011 -749.88251
-389.2771 -102.44121 -749.88239
-389.2771 -122.92951 -749.88239
-389.2771 -143.41782 -749.88232
-389.2771 -163.90614 -749.88232
-389.2771 -184.39447 -749.88232
-470.88153 418.56146 -65.233208
-469.71539 391.42957 -73.053703
-468.55292 364.43008 -80.849434
-467.39825 337.5654 -88.592781
-466.24719 310.83163 -96.312012
-465.10385 284.23022 -103.97945
-463.96408 257.75793 -111.62302
-462.83188 231.41608 -119.21568
-461.70319 205.20148 -126.78474
-460.57999 179.11453 -134.31728
-459.46021 153.15341 -141.82649
-458.35187 127.32006 -149.25937
-457.24289 101.6096 -156.69608
-367.54785 61.258045 -758.20459
-367.03302 40.781532 -761.6571
-367.03302 20.3908 -761.6571
-367.03302 6.9415837e-05 -761.6571
-367.03302 -20.390726 -761.65704
-367.03302 -40.781456 -761.65704
-370.67786 -61.779549 -737.21423
-370.52231 -82.338249 -738.25739
-370.52231 -102.92278 -738.25739
-370.52231 -123.5073 -738.25739
-370.52231 -144.09195 -738.2572
-370.52231 -164.67657 -738.25726
-370.52231 -185.26111 -738.25726
-446.90445 420.616 -49.73267
-445.79227 393.3461 -57.62989
-444.68359 366.21011 -65.502075
-443.58243 339.21017 -73.321358
-442.48471 312.34219 -81.115578
-441.39441 285.60812 -88.857658
-440.30746 259.00452 -96.5756
-439.22784 232.53247 -104.24167
-438.15152 206.18903 -111.88417
-437.08047 179.97441 -119.48914
-436.0166 153.88828 -127.04324
-434.95407 127.92778 -134.58798
-433.8967 102.09335 -142.09601
-348.81354 61.555447 -746.24005
-348.27856 40.97406 -750.03857
-348.27856 20.487078 -750.03857
-348.27856 4.9669688e-05 -750.0387
-348.27856 -20.486933 -750.0387
-348.27856 -40.973888 -750.0387
-351.68387 -62.061783 -725.85889
-351.59039 -82.727104 -726.5224
-351.59039 -103.40886 -726.52246
-351.59039 -124.09061 -726.52252
-351.59039 -144.77251 -726.5224
-351.59039 -165.45428 -726.5224
-351.59039 -186.13602 -726.52246
-422.75204 422.75208 -33.617256
-421.63373 395.28171 -42.054539
-420.57999 368.00757 -50.004147
-419.53342 340.871 -57.900215
-418.49011 313.86774 -65.770988
-417.45389 286.99963 -73.588837
-416.42093 260.26318 -81.381821
-415.39493 233.65973 -89.122627
-414.3721 207.18616 -96.839081
-413.37076 180.84985 -104.39359
-412.34149 154.62808 -112.15866
-411.33185 128.54128 -119.77617
-410.32712 102.5818 -127.35616
-329.89526 61.855385 -734.16742
-329.34738 41.168449 -738.30115
-329.34738 20.584167 -738.30109
-329.34738 0.00011110892 -738.30109
-329.34738 -20.584074 -738.30121
-329.34738 -41.168392 -738.30103
-332.5155 -62.346558 -714.39941
-332.47882 -83.119713 -714.67615
-332.47882 -103.8996 -714.67621
-332.47882 -124.67947 -714.67627
-332.47882 -145.4595 -714.67615
-332.47882 -166.23938 -714.67627
-332.47882 -187.01932 -714.67633
-398.76123 425.3454 -14.0527
-397.23624 397.2363 -26.324711
-396.23856 369.82281 -34.353371
-395.24768 342.54803 -42.327198
-394.26001 315.40811 -50.275673
-393.27899 288.40463 -58.170132
-392.30109 261.53412 -66.039787
-391.32977 234.79799 -73.856133
-390.34589 208.18463 -81.774025
-389.3981 181.71921 -89.401276
-388.43765 155.37515 -97.130386
-387.48193 129.16075 -104.82144
-386.53088 103.07491 -112.47456
-310.79169 62.158405 -721.97675
-310.23453 41.364624 -726.46045
-310.23453 20.682323 -726.46051
-310.23453 0.00012692687 -726.46057
-310.23453 -20.682333 -726.46045
-310.23453 -41.364555 -726.46051
-313.18387 -62.636787 -702.72595
-313.18387 -83.515701 -702.72601
-313.18387 -104.39452 -702.72601
-313.18387 -125.27344 -702.72607
-313.18387 -146.15248 -702.72595
-313.18387 -167.03131 -702.72595
-313.18387 -187.91023 -702.72601
-374.5343 428.03928 6.2714782
-372.59625 399.21036 -10.438954
-371.65585 371.65598 -18.547314
-370.72186 344.24179 -26.600252
-369.79089 316.96359 -34.627411
-368.86621 289.82361 -42.600048
-367.94452 262.81754 -50.547012
-367.02908 235.94737 -58.440304
-366.11652 209.20949 -66.308327
-365.20685 182.60347 -74.151672
-364.30173 156.12941 -81.956131
-363.40103 129.78616 -89.721809
-362.50482 103.57291 -97.449234
-291.50107 62.464703 -709.6571
-290.93967 41.56292 -714.49762
-290.93967 20.781437 -714.4975
-290.93967 9.1660084e-05 -714.49762
-290.93967 -20.781382 -714.49756
-290.93967 -41.562733 -714.49756
-293.70523 -62.936787 -690.65234
-293.70523 -83.915634 -690.6524
-293.70523 -104.89474 -690.65228
-293.70523 -125.87361 -690.65228
-293.70523 -146.85255 -690.6524
-293.70523 -167.83142 -690.65247
-293.70523 -188.81055 -690.65234
-347.71014 401.20422 5.6056299
-346.82822 373.50735 -2.5837536
-345.95227 345.95236 -10.717233
-345.07919 318.53467 -18.824135
-344.21207 291.25635 -26.875792
-343.34772 264.11371 -34.901558
-342.50473 237.11871 -42.729271
-341.63202 210.23512 -50.832726
-340.77902 183.49655 -58.752995
-339.93033 156.89098 -66.63372
-339.08582 130.41768 -74.475365
-338.24548 104.07554 -82.278046
-272.01852 62.773491 -697.2243
-271.45901 41.762959 -702.41956
-271.45901 20.881453 -702.41949
-271.45901 0.00014941292 -702.41956
-271.45901 -20.881386 -702.41949
-271.45901 -41.762768 -702.41956
-274.03909 -63.23962 -678.46246
-274.03909 -84.319664 -678.4624
-274.03909 -105.39961 -678.46246
-274.03909 -126.47951 -678.46259
-274.03909 -147.55942 -678.4624
-274.03909 -168.63934 -678.46246
-274.03909 -189.71936 -678.46234
-322.57425 403.21786 21.811338
-321.75195 375.37735 13.53965
-320.93527 347.67996 5.3246231
-320.12131 320.12143 -2.8634109
-319.3129 292.70355 -10.995442
-318.48828 265.40692 -19.290318
-317.70541 238.27907 -27.165695
-316.90625 211.27083 -35.204357
-316.11111 184.39821 -43.202747
-315.31998 157.66003 -51.161018
-314.53278 131.05542 -59.079708
-313.74951 104.58325 -66.958908
-252.34225 63.085625 -684.66815
-251.78897 41.964832 -690.23358
-251.78897 20.982515 -690.2337
-251.78897 1.1994778e-05 -690.23358
-251.78897 -20.982306 -690.2337
-251.78897 -41.964752 -690.23364
-254.18271 -63.545704 -666.15454
-254.18271 -84.727463 -666.1546
-254.18271 -105.90948 -666.15454
-254.18271 -127.09133 -666.15466
-254.18271 -148.27322 -666.15454
-254.18271 -169.45509 -666.15466
-254.18271 -190.63696 -666.15448
-297.18475 405.25208 38.180435
-296.42334 377.2662 29.825083
-295.66721 349.42499 21.527349
-294.91354 321.72394 13.257113
-294.17047 294.17056 5.1028619
-293.42041 266.74588 -3.1281378
-292.67548 239.46179 -11.30285
-291.93564 212.31697 -19.421488
-291.19955 185.30898 -27.499134
-290.46719 158.43672 -35.536156
-289.73846 131.6994 -43.532738
-289.0134 105.09584 -51.48933
-232.47023 63.401051 -671.97705
-231.92865 42.168953 -677.92023
-231.92865 21.08453 -677.92017
-231.92865 3.8446524e-06 -677.92017
-231.92865 -21.084419 -677.9201
-231.92865 -42.168713 -677.92029
-234.13243 -63.854172 -653.73657
-234.13243 -85.139038 -653.73645
-234.13243 -106.42374 -653.73663
-234.13243 -127.70849 -653.73645
-234.13243 -148.99332 -653.73639
-234.13243 -170.27808 -653.73651
-234.13243 -191.56293 -653.73645
-271.53775 407.30673 54.715771
-270.83856 379.17404 46.275585
-270.14417 351.18762 37.893707
-269.45215 323.34271 29.539843
-268.77844 295.65637 21.407881
-268.07858 268.0787 12.959921
-267.39584 240.65631 4.718277
-266.71655 213.37335 -3.4813416
-266.04074 186.2285 -11.639448
-265.36829 159.22113 -19.756432
-264.69925 132.34967 -27.832386
-264.03238 105.61299 -35.882141
-212.39694 63.719204 -659.17731
-211.8735 42.374729 -665.49573
-211.8735 21.187452 -665.49567
-211.8735 6.8460322e-05 -665.49567
-211.8735 -21.187315 -665.49573
-211.8735 -42.374699 -665.49573
-213.88724 -64.166122 -641.18768
-213.88724 -85.55484 -641.18768
-213.88724 -106.94356 -641.18762
-213.88724 -128.33238 -641.18762
-213.88724 -149.72096 -641.18781
-213.88724 -171.10968 -641.18774
-213.88724 -192.49847 -641.18774
-245.62938 409.38235 71.419472
-244.99368 381.10132 62.893162
-244.36238 352.9679 54.426052
-243.71399 324.952 45.729603
-243.1084 297.13251 37.607162
-242.48341 269.42606 29.224693
-241.86276 241.86287 20.900158
-241.24527 214.44031 12.618093
-240.63092 187.15749 4.3782477
-240.01968 160.01318 -3.8195488
-239.41156 133.00656 -11.976089
-238.80542 106.1358 -20.105768
-192.12192 64.040634 -646.23883
-191.62228 42.582691 -652.93982
-191.62228 21.291466 -652.93988
-191.62228 0.00011313577 -652.94
-191.62228 -21.291368 -652.93994
-191.62228 -42.582592 -652.93994
-193.44331 -64.481102 -628.51562
-193.44331 -85.974785 -628.51569
-193.44331 -107.4684 -628.51575
-193.44331 -128.96219 -628.51562
-193.44331 -150.45589 -628.51569
-193.44331 -171.9496 -628.51581
-193.44331 -193.4433 -628.51562
-219.45561 411.47934 88.29409
-218.88472 383.04834 79.680435
-218.32907 354.78476 71.296173
-217.75388 326.63098 62.617237
-217.19081 298.63748 54.121212
-216.62964 270.78717 45.653656
-216.07236 243.0815 37.244896
-215.51794 215.51796 28.879519
-214.96635 188.09558 20.556669
-214.41759 160.81325 12.276505
-213.87064 133.66919 4.0235448
-213.32744 106.66379 -4.1725664
-171.64058 64.365273 -633.17877
-171.17062 42.79266 -640.26978
-171.17062 21.396296 -640.26971
-171.17062 3.5577439e-05 -640.26959
-171.17062 -21.396168 -640.26978
-171.17062 -42.79253 -640.26978
-172.79771 -64.799004 -615.71887
-172.79771 -86.398697 -615.71881
-172.79771 -107.99852 -615.71887
-172.79771 -129.59821 -615.71881
-172.79771 -151.19792 -615.71881
-172.79771 -172.79761 -615.71881
-172.85913 -194.46648 -614.79211
-193.0123 413.59784 105.34272
-192.50764 385.01538 96.640144
-192.01823 356.60544 88.20076
-191.50708 328.29797 79.386223
-191.00847 300.15631 70.788025
-190.51332 272.16196 62.249699
-190.02075 244.3125 53.755302
-189.53072 216.60667 45.304943
-189.0432 189.04326 36.898151
-188.55817 161.62132 28.534363
-188.07478 134.33919 20.198414
-187.59471 107.1971 11.919889
-150.95114 64.69339 -619.97595
-150.51688 43.004917 -627.4646
-150.51688 21.50243 -627.46448
-150.51688 5.3150256e-05 -627.46436
-150.51688 -21.502274 -627.46454
-150.53075 -43.008766 -627.22534
-151.9469 -65.119942 -602.80469
-151.9469 -86.826775 -602.80469
-151.9469 -108.53349 -602.80463
-151.9469 -130.24008 -602.80469
-151.9469 -151.94682 -602.80463
-151.9469 -173.65364 -602.80463
-152.07866 -195.52971 -600.53247
-166.29529 415.73834 122.56767
-165.84175 386.96414 113.44319
-165.42427 358.4194 105.04409
-164.991 329.98206 96.327324
-164.55922 301.69199 87.640663
-164.13046 273.55087 79.014862
-163.70395 245.556 70.43383
-163.27963 217.70618 61.897408
-162.85751 190.00043 53.405006
-162.43756 162.43764 44.956524
-162.01904 135.01596 36.536102
-161.60339 107.73571 28.174244
-130.04918 65.024612 -606.64758
-129.6573 43.219242 -614.53162
-129.6573 21.609629 -614.53156
-129.6573 3.9550701e-05 -614.53143
-129.6573 -21.609421 -614.53162
-129.68562 -43.228485 -613.96173
-130.88898 -65.444481 -589.7522
-130.88898 -87.259338 -589.75208
-130.88898 -109.07407 -589.75226
-130.88898 -130.88892 -589.7522
-130.88898 -152.70378 -589.75214
-130.88898 -174.51865 -589.75208
-131.0712 -196.60681 -586.0863
-139.3063 417.9191 140.1165
-138.93298 389.01242 131.1035
-138.56625 360.27222 122.25017
-138.20081 331.68204 113.42746
-137.83794 303.24347 104.66698
-137.47696 274.95404 95.952156
-137.11786 246.81223 87.282951
-136.76065 218.81706 78.659073
-136.40529 190.9675 70.079849
-136.05113 163.26143 61.529865
-135.69946 135.69962 53.03931
-135.34958 108.27975 44.592648
-108.93248 65.359558 -593.17212
-108.58842 43.435387 -601.47894
-108.58842 21.717726 -601.47876
-108.58842 0.00013833052 -601.479
-108.58842 -21.717592 -601.47894
-108.6264 -43.450462 -600.56177
-109.62022 -65.772049 -576.56903
-109.62022 -87.696053 -576.56903
-109.62022 -109.62004 -576.56903
-109.62022 -131.54428 -576.56891
-109.62022 -153.46829 -576.56885
-109.62022 -175.3923 -576.56891
-109.83141 -197.69656 -571.47015
-112.4519 393.58182 170.50154
-112.45029 365.46344 170.45248
-111.19296 333.57889 132.50919
-110.84038 304.81107 121.86893
-110.54861 276.37158 113.06403
-110.25837 248.08134 104.30545
-109.96965 219.93942 95.592636
-109.68245 191.94426 86.925476
-109.39622 164.09445 78.287834
-109.11199 136.39005 69.710632
-108.82924 108.82934 61.177795
-87.596825 65.697655 -579.56732
-87.307938 43.654068 -588.28516
-87.307938 21.826962 -588.28503
-87.307938 6.1572973e-05 -588.28503
-87.307938 -21.826916 -588.2851
-87.349747 -43.674816 -587.02356
-88.137421 -66.102905 -563.25317
-88.137421 -88.137299 -563.25311
-88.137421 -110.1717 -563.25305
-88.137421 -132.20609 -563.25299
-88.137421 -154.24036 -563.25317
-88.137421 -176.27473 -563.25311
-88.355202 -198.79922 -556.68103
-84.456886 422.28448 175.24747
-84.231438 393.07999 166.17607
-83.998726 363.99454 156.81241
-83.784523 335.13818 148.19366
-83.584976 306.47833 140.16458
-83.443993 278.14673 134.49168
-83.303085 249.90935 128.82199
-83.162651 221.76715 123.1714
-83.150406 194.01764 122.67906
-83.14962 166.29935 122.64716
-82.343056 137.23856 90.193611
-82.038322 109.38448 77.932068
-66.039497 66.03949 -565.81067
-65.811928 43.874653 -574.96777
-65.811928 21.937393 -574.96771
-65.811928 6.034441e-06 -574.96777
-65.811928 -21.937252 -574.96771
-65.852264 -43.901367 -573.34479
-66.437103 -66.437027 -549.81274
-66.437103 -88.58284 -549.81268
-66.437103 -110.72837 -549.81281
-66.437103 -132.87416 -549.81268
-66.437103 -155.01984 -549.81287
-66.437103 -177.16551 -549.81274
-66.638077 -199.91426 -541.72589
-56.652668 424.89505 196.25589
-56.449146 395.14404 183.97237
-56.298344 365.93936 174.87054
-56.148346 336.8902 165.81743
-55.998878 307.99393 156.79614
-55.850471 279.25244 147.839
-55.702847 250.6629 138.92902
-55.556267 222.22507 130.08215
-55.406509 193.92287 121.04367
-55.264622 165.79393 112.47984
-55.118252 137.79568 103.6457
-54.978092 109.95622 95.18631
-44.256477 66.384705 -551.92041
-44.097672 44.097652 -561.505
-44.097672 22.048897 -561.50507
-44.097672 9.9155041e-05 -561.50507
-44.097672 -22.048759 -561.50513
-44.130508 -44.130474 -559.52313
-44.516518 -66.774696 -536.22565
-44.516518 -89.032898 -536.22559
-44.516518 -111.29119 -536.22565
-44.516518 -133.5495 -536.22565
-44.516518 -155.80769 -536.22559
-44.516518 -178.06601 -536.22559
-44.675793 -201.04094 -526.61255
-28.504625 427.56952 217.77763
-28.373835 397.23386 201.98973
-28.297634 367.86926 192.7917
-28.221844 338.66223 183.64281
-28.146322 309.60965 174.52666
-28.071341 280.71353 165.47514
-27.996754 251.97087 156.47198
-27.92243 223.37961 147.50029
-27.848633 194.94054 138.59235
-27.775225 166.65146 129.73119
-27.702072 138.51048 120.90065
-27.629435 110.51776 112.13259
-22.24452 66.733597 -537.88428
-22.161421 44.322876 -547.91492
-22.161421 22.16148 -547.91479
-22.161421 5.5817349e-05 -547.91498
-22.161421 -22.161367 -547.91486
-22.180872 -44.361702 -545.56683
-22.371969 -67.115807 -522.49969
-22.371969 -89.487762 -522.49957
-22.371969 -111.85983 -522.49963
-22.371969 -134.23177 -522.49951
-22.371969 -156.60362 -522.49963
-22.371969 -178.97568 -522.49963
-22.464607 -202.18137 -511.31732
-1.6225975e-22 430.28418 239.62289
-9.197795e-23 399.3476 220.21552
1.8909954e-22 369.8197 210.90273
-6.9977688e-22 340.45306 201.65665
4.4877921e-23 311.24387 192.46051
1.0821137e-23 282.18994 183.29703
-3.1850558e-22 253.2926 174.19887
-2.4112923e-22 224.54921 165.14932
-1.1155558e-21 195.9577 156.13158
3.2187378e-22 167.51859 147.17798
-8.8080466e-23 139.23 138.27151
-5.930216e-22 111.08992 129.39621
-1.0715406e-21 67.086502 -523.68939
3.4648533e-22 44.550564 -534.17499
-6.2678142e-22 22.2754 -534.17517
-5.8402359e-22 0.00010874741 -534.17505
4.3277025e-22 -22.275173 -534.17493
5.6583163e-22 -44.595566 -531.45319
-4.5056251e-22 -67.460495 -508.63266
2.0791258e-22 -89.947342 -508.63263
-1.0764834e-22 -112.43418 -508.63263
-4.0208531e-22 -134.92104 -508.63263
1.2938672e-22 -157.40784 -508.6326
-1.861742e-22 -179.89467 -508.63263
28.677284 401.48209 238.6192
28.599308 371.79117 229.20686
28.521896 342.26288 219.86234
28.444899 312.89392 210.56805
28.368181 283.68192 201.30719
28.292011 254.62817 192.11293
28.216251 225.73004 182.96777
28.14076 196.98534 173.85504
28.065805 168.39487 164.80731
27.991249 139.95633 155.80757
27.916954 111.6679 146.83942
22.480871 67.442581 -509.35388
22.390245 44.780514 -520.29327
22.390245 22.390339 -520.29327
22.390245 7.538197e-05 -520.29333
22.390245 -22.390188 -520.2934
22.415953 -44.831871 -517.19012
22.602821 -67.808388 -494.63306
22.602821 -90.411209 -494.63324
22.602821 -113.01407 -494.63312
22.602821 -135.61693 -494.63303
22.602821 -158.21965 -494.63312
22.602821 -180.82262 -494.63306
57.662769 403.63947 257.22101
57.505421 373.78534 247.72426
57.348652 344.09192 238.2621
57.193012 314.56165 228.86868
57.038219 285.19113 219.52574
56.883976 255.97797 210.21677
56.730846 226.92349 200.9744
56.578541 198.0249 191.78186
56.426777 169.28029 182.6221
56.276096 140.69032 173.5276
56.126217 112.25247 164.48151
45.201969 67.803032 -494.85501
45.012707 45.012806 -506.27798
45.012707 22.506418 -506.27798
45.012707 4.3565698e-05 -506.27802
45.012707 -22.506269 -506.27798
45.070747 -45.070656 -502.77499
45.440178 -68.160202 -480.47787
45.440178 -90.880302 -480.47781
45.440178 -113.60037 -480.47775
45.440178 -136.32045 -480.47772
45.440178 -159.04054 -480.47769
45.440178 -181.76074 -480.47769
86.961449 405.82028 276.02356
86.722878 375.79922 266.42395
86.485184 345.9407 256.86002
86.249214 316.24722 247.36516
86.014526 286.71521 237.92212
85.780693 257.34219 228.51347
85.548553 228.12953 219.17274
85.31765 199.07468 209.88216
85.087593 170.17516 200.62518
84.859169 141.43211 191.43433
84.631981 112.84278 182.29283
68.166901 68.16703 -480.21094
67.871269 45.247482 -492.10583
67.871269 22.623869 -492.1059
67.871269 -5.4458214e-06 -492.10583
67.871269 -22.623634 -492.1059
67.968208 -45.312107 -488.20547
68.515732 -68.515671 -466.17484
68.515732 -91.354225 -466.17474
68.515732 -114.19292 -466.17471
68.515732 -137.03137 -466.17484
68.515732 -159.87003 -466.1748
68.515732 -182.70862 -466.17468
116.57843 408.0246 295.03046
116.25687 377.8349 285.3266
115.93709 347.81125 275.67596
115.61848 317.95087 266.06116
115.30219 288.25549 256.51627
114.98763 258.72226 247.02332
114.67421 229.34842 237.56531
114.36306 200.13535 228.17548
114.05358 171.08047 218.83632
113.74524 142.18163 209.53093
113.43909 113.43918 200.29245
91.374336 68.5308 -465.57053
90.969223 45.48468 -477.79584
90.969223 22.742363 -477.79599
90.969223 1.9988614e-05 -477.7959
90.969223 -22.742224 -477.79596
91.112274 -45.556149 -473.47897
91.832886 -68.874573 -451.7327
91.832886 -91.83284 -451.73273
91.832886 -114.79102 -451.73264
91.832886 -137.74928 -451.73267
91.832886 -160.70749 -451.73264
91.832886 -183.66576 -451.73264
146.51892 410.25311 314.24478
146.11259 379.89267 304.43481
145.7085 349.70038 294.67905
145.30591 319.67303 284.95959
144.90625 289.81256 275.31119
144.50879 260.11591 265.71576
144.11279 230.58051 256.15558
143.71967 201.20763 246.6646
143.32867 171.99452 237.22531
142.93912 142.93915 227.82051
142.55235 114.04192 218.48344
142.16769 85.300674 209.19656
114.31097 45.724533 -463.32443
114.31097 22.862246 -463.32428
114.31097 6.8142428e-05 -463.32434
114.31097 -22.86208 -463.3244
114.50694 -45.802753 -458.59308
115.39607 -69.237625 -437.12741
115.39607 -92.316864 -437.12744
115.39607 -115.3961 -437.12744
115.39607 -138.47531 -437.12747
115.39607 -161.55444 -437.12741
115.39607 -184.63368 -437.12744
176.78917 412.50806 333.6882
176.2953 381.97318 323.7525
175.80507 351.61032 313.88983
175.31757 321.41562 304.08167
174.83185 291.38647 294.31046
174.34972 261.52478 284.61041
173.87024 231.82697 274.96396
173.39253 202.29135 265.353
172.91827 172.91837 255.81194
172.44662 143.70557 246.32307
171.97668 114.6512 236.86859
171.51015 85.755119 227.4825
137.89955 45.966591 -448.71042
137.89955 22.983326 -448.71024
137.89955 0.00010085781 -448.71036
137.89955 -22.983238 -448.71027
138.15576 -46.051849 -443.556
139.20894 -69.60437 -422.36758
139.20894 -92.805916 -422.36752
139.20894 -116.00745 -422.36752
139.20894 -139.20897 -422.36749
139.20894 -162.41028 -422.36761
139.20894 -185.61182 -422.36755
207.39297 414.7861 353.32867
206.81041 384.07645 343.28287
206.23218 353.54092 333.31143
205.65715 323.17566 323.39551
205.08429 292.97763 313.517
204.51564 262.94882 303.711
203.95015 233.08594 293.95929
203.38675 203.38684 284.24377
202.82747 173.85222 274.59927
202.27124 144.47951 265.00778
201.71709 115.26694 255.45139
201.16693 86.214516 245.96425
161.73994 46.211479 -433.92978
161.73994 23.105833 -433.92966
161.73994 5.6321685e-05 -433.9296
161.73994 -23.105577 -433.92975
162.06389 -46.303848 -428.34354
163.27548 -69.975105 -407.45038
163.27548 -93.300163 -407.45047
163.27548 -116.62535 -407.45035
163.27548 -139.95033 -407.45038
163.27548 -163.27536 -407.4505
163.27548 -186.60045 -407.45029
238.33664 417.08917 373.18707
237.66466 386.20517 363.04764
236.99527 355.49301 352.94733
236.33084 324.95496 342.92194
235.67012 294.5878 332.95245
235.0119 264.3884 323.02072
234.35852 234.35858 313.16202
233.70879 204.49527 303.35794
233.06145 174.79623 293.59067
232.41885 145.26181 283.89481
231.7798 115.89002 274.25208
231.14311 86.678658 264.6452
185.83571 46.459068 -418.99069
185.83571 23.229549 -418.9906
185.83571 0.00013017614 -418.99072
185.83571 -23.229401 -418.99063
186.23517 -46.558826 -412.96338
187.599 -70.349541 -392.3848
187.599 -93.799362 -392.38492
187.599 -117.24934 -392.3848
187.599 -140.69916 -392.38492
187.599 -164.14914 -392.3848
187.599 -187.59888 -392.38483
269.62585 419.41806 393.26712
268.86145 388.35562 383.0145
268.09998 357.46667 372.80167
267.34418 326.754 362.66455
266.59262 296.21414 352.5845
265.84393 265.84412 342.54288
265.10077 235.64526 332.57559
264.36179 205.61482 322.66382
263.62555 175.75043 312.78934
262.89474 146.0527 302.98755
262.16797 116.51919 293.23956
261.44391 87.147942 283.52832
210.37871 46.750774 -401.37332
210.37871 23.375458 -401.37329
210.37871 3.8266517e-05 -401.37332
210.37871 -23.375397 -401.37332
214.74622 -47.721256 -342.79489
212.18507 -70.728355 -377.14566
212.18507 -94.304337 -377.14572
212.18507 -117.88055 -377.14566
212.18507 -141.45673 -377.14557
212.18507 -165.03281 -377.14569
212.18507 -188.60889 -377.14557
301.26645 421.77322 413.57266
300.40756 390.52991 403.20471
299.55353 359.46423 392.8959
298.70282 328.57312 382.62701
297.85846 297.85846 372.43451
297.01886 267.31714 362.29971
296.18246 236.94597 352.20355
295.35226 206.74669 342.18213
294.5267 176.71616 332.21674
293.70428 146.85216 322.28922
292.88791 117.15515 312.4346
292.0585 87.617653 302.42285
235.81453 47.163033 -376.50192
235.81453 23.581533 -376.50186
235.81453 5.1213243e-05 -376.50183
235.81453 -23.581417 -376.50177
236.35974 -47.271954 -369.92075
237.03732 -71.111168 -361.74155
237.03732 -94.814835 -361.74164
237.03732 -118.51863 -361.74155
237.03732 -142.22243 -361.74146
237.03732 -165.92606 -361.74158
237.03732 -189.62985 -361.74146
333.26437 424.15469 434.10754
332.30893 392.72879 423.62262
331.35889 361.48254 413.19751
330.4126 330.41278 402.8129
329.47339 299.52136 392.50647
328.53949 268.80515 382.25797
327.60919 238.26123 372.04944
326.68582 207.89111 361.91656
325.76764 177.69147 351.84076
324.85297 147.66058 341.80334
323.97446 117.8089 332.16302
323.05197 88.105225 322.03943
259.68762 47.215931 -373.30145
259.68762 23.608053 -373.30154
259.68762 0.00016168087 -373.30161
259.68762 -23.607975 -373.30154
260.43225 -47.35128 -365.13016
262.16006 -71.498077 -346.16983
262.16006 -95.330925 -346.16974
262.16006 -119.1635 -346.16977
262.16006 -142.99634 -346.16968
262.16006 -166.82906 -346.1698
262.16006 -190.6619 -346.16971
366.00018 427.00027 458.64233
364.57156 394.95276 444.27145
363.52341 363.52359 433.728
362.48129 332.27463 423.2453
361.44327 301.20264 412.80341
360.41299 270.30994 402.43994
359.38861 239.59248 392.13538
358.36819 209.04823 381.87073
357.35538 178.67773 371.68256
356.34827 148.47864 361.55179
355.35767 118.45267 351.58685
354.36356 88.591042 341.58694
284.845 47.474255 -357.71591
284.845 23.737074 -357.71585
284.845 0.00015371591 -357.71594
284.845 -23.737028 -357.71588
285.707 -47.617825 -349.0444
287.55658 -71.889069 -330.43936
287.55658 -95.852074 -330.43939
287.55658 -119.81517 -330.43945
287.55658 -143.77817 -330.43948
287.55658 -167.74115 -330.43948
287.55658 -191.70439 -330.43933
399.28735 430.00174 484.52243
397.20166 397.20172 465.15555
396.05322 365.58777 454.492
394.91141 334.15579 443.88974
393.77414 302.90329 433.3295
392.64542 271.83163 422.84897
391.52313 240.93738 412.42807
390.40524 210.21825 402.04828
389.29575 179.67505 391.74576
388.20642 149.3103 381.63089
387.1113 119.11124 371.46243
386.02042 89.081642 361.33313
310.2803 47.735474 -341.94699
310.2803 23.8678 -341.94696
310.2803 2.1885809e-05 -341.94699
310.2803 -23.867668 -341.94693
311.26663 -47.887135 -332.78848
313.23361 -72.284698 -314.52405
313.23361 -96.37957 -314.52402
313.23361 -120.47442 -314.52399
313.23361 -144.56938 -314.52405
313.23361 -168.66422 -314.52402
313.27371 -192.78374 -314.15198
430.20776 399.47879 486.29837
428.95453 367.67532 475.49298
427.71085 336.05865 464.7695
426.4743 304.6246 454.10825
425.24274 273.37054 443.48907
424.02042 242.29752 432.95032
422.80515 211.40274 422.47168
421.61203 180.6909 412.18442
420.41263 150.14738 401.84311
419.21793 119.77673 391.54184
418.02997 89.577957 381.29913
335.99713 47.999619 -326.00354
335.99713 23.999868 -326.0036
335.99713 0.00011614477 -326.00366
335.99713 -23.999763 -326.00351
337.11841 -48.15971 -316.33563
339.19479 -72.684532 -298.43265
339.19479 -96.912697 -298.43262
339.19479 -121.14098 -298.43268
339.19479 -145.36914 -298.43262
339.19479 -169.59732 -298.43262
339.43005 -193.95995 -296.40414
463.59201 401.77985 507.66522
462.2338 369.78708 496.7352
460.88593 337.98309 485.88828
459.5459 306.36411 475.1048
458.21124 274.92697 464.36426
456.88672 243.67311 453.7052
455.59116 212.60922 443.27921
454.28168 181.7128 432.74158
452.97974 150.99339 422.26422
451.68524 120.44953 411.84677
450.40039 90.080177 401.50748
362.00015 48.266781 -309.88281
362.00015 24.133469 -309.88272
362.00015 6.1392035e-05 -309.88269
362.00015 -24.13335 -309.88266
363.26617 -48.435413 -299.69461
365.44482 -73.088913 -282.1622
365.44482 -97.451859 -282.1622
365.44482 -121.81493 -282.16226
365.44482 -146.17787 -282.16223
365.44482 -170.54082 -282.16223
365.90909 -195.1515 -278.42627
497.3631 404.1076 529.27991
495.90015 371.92526 518.24274
494.44318 339.92969 507.25064
492.99731 308.12344 496.34256
491.55991 276.50241 485.49808
490.07425 245.0372 474.28964
488.73053 213.81973 464.15219
487.3204 182.74529 453.51337
485.91583 151.84875 442.91681
484.52188 121.13062 432.40021
483.13339 90.587616 421.92477
388.2926 48.536621 -293.59357
388.2926 24.268333 -293.59363
388.2926 3.09918e-05 -293.59366
388.2926 -24.268167 -293.59366
389.71512 -48.714375 -282.86166
391.98691 -73.497459 -265.7222
391.98691 -97.996635 -265.7222
391.98691 -122.49583 -265.72223
391.98691 -146.99503 -265.72223
391.98691 -171.49411 -265.7222
392.71375 -196.3568 -260.23849
531.52777 406.46252 551.14624
529.95526 374.08612 539.98029
528.38922 341.89905 528.86041
526.83521 309.90298 517.82562
525.23462 278.06552 506.46097
523.77924 246.48451 496.12653
522.25494 215.04633 485.30292
520.73669 183.78946 474.52252
519.23004 152.71475 463.8241
517.72931 121.81877 453.16815
516.23724 91.100792 442.57364
414.88248 48.809738 -277.10892
414.88248 24.404867 -277.10895
414.88248 -1.2209914e-05 -277.10892
414.88248 -24.404884 -277.10892
416.47037 -48.996525 -265.8338
418.82919 -73.911011 -249.08455
418.82919 -98.548004 -249.08469
418.82919 -123.18502 -249.08455
418.82919 -147.82201 -249.08469
418.82919 -172.45903 -249.08455
419.85165 -197.57721 -241.82466
566.09302 408.84509 573.26892
564.40845 376.27246 561.97198
562.73389 343.89291 550.74194
561.11414 311.73007 539.87988
559.44116 279.7207 528.66058
557.79883 247.9106 517.64685
556.16321 216.28586 506.67795
554.54004 184.84677 495.79288
552.92346 153.58994 484.95157
551.31616 122.51477 474.1734
549.72113 91.620293 463.4769
441.77325 49.085953 -260.43787
441.77325 24.543039 -260.43784
441.77325 1.3844744e-05 -260.43787
441.77325 -24.542908 -260.43787
443.53735 -49.281956 -248.60756
445.97522 -74.329025 -232.25897
445.97522 -99.105553 -232.25882
445.97522 -123.88194 -232.25888
445.97522 -148.65833 -232.25893
445.97522 -173.43472 -232.259
447.33463 -198.81529 -223.14244
601.06586 411.2558 595.65265
599.26672 378.48431 584.22217
597.52655 345.93661 573.16669
595.73248 313.54346 561.76874
593.9682 281.35358 550.56006
592.2113 249.35229 539.39758
590.46466 217.53975 528.30115
588.73145 185.91528 517.28937
587.00519 154.47513 506.32275
585.29218 123.21946 495.43979
583.58606 92.145309 484.60043
468.97018 49.365276 -243.57684
468.97018 24.682642 -243.57693
468.97018 0.00011732378 -243.57697
468.97018 -24.682646 -243.57684
470.91953 -49.570484 -231.19223
473.43015 -74.752083 -215.24168
473.43015 -99.669434 -215.24176
473.43015 -124.58691 -215.24161
473.43015 -149.50426 -215.24167
473.43015 -174.42162 -215.24174
475.16837 -200.07079 -204.19847
636.45703 413.69699 618.32275
634.53717 380.72247 606.7356
632.67688 347.97238 595.50763
630.77979 315.39011 584.05756
628.8974 283.00397 572.69635
627.02618 250.81064 561.40283
625.16949 218.80936 550.19647
623.32031 186.99609 539.03601
621.48547 155.37154 527.96161
619.65808 123.93175 516.93219
617.84137 92.676254 505.96747
496.47629 49.647705 -226.53584
496.47629 24.823864 -226.5358
496.47629 3.8211398e-05 -226.53577
496.47629 -24.823795 -226.53571
503.3233 -50.332253 -185.21027
501.19714 -75.179512 -198.04257
501.19714 -100.23938 -198.04272
501.19714 -125.29929 -198.04262
501.19714 -150.35904 -198.04271
501.19714 -175.41893 -198.04259
664.33978 -265.7359 786.61017
664.33978 -298.95288 786.61017
664.33978 -332.16989 786.61011
664.33978 -365.38684 786.61005
672.26715 416.16547 641.24243
670.27856 383.0163 629.81165
668.24707 350.03424 618.13428
666.23865 317.25659 606.58997
664.23877 284.67392 595.09406
662.25433 252.28761 583.68738
660.2782 220.0928 572.32849
658.31744 188.09077 561.05725
656.36469 156.27733 549.83282
654.42346 124.65224 538.67444
652.49725 93.213966 527.60211
524.30109 49.933514 -209.28558
524.30109 24.966803 -209.28554
524.30109 -1.6661274e-06 -209.28558
524.30109 -24.966703 -209.28554
531.44965 -50.614162 -168.19492
529.28583 -75.612213 -180.63278
529.28583 -100.8162 -180.63284
529.28583 -126.02033 -180.63269
529.28583 -151.22443 -180.63281
529.28583 -176.42854 -180.63266
706.39502 385.30637 652.84772
704.25287 352.12662 641.09406
702.11981 319.14548 629.39044
700.00348 286.3653 617.77832
697.89606 253.78052 606.21521
695.80133 221.39151 594.72156
693.72284 189.19711 583.31732
691.65302 157.19379 571.96051
689.59918 125.38175 560.69159
687.55389 93.757378 549.46924
552.44812 50.222683 -191.83575
552.44812 25.111305 -191.83568
552.44812 0.00017403418 -191.83574
552.44812 -25.111204 -191.83565
559.89276 -50.899311 -150.98792
557.69965 -76.049843 -163.02119
557.69965 -101.39986 -163.02116
557.69965 -126.74989 -163.02112
557.69965 -152.09978 -163.0213
557.69965 -177.4498 -163.02126
737.16986 288.45792 645.84662
737.1618 256.40411 645.80383
731.75 222.7066 617.40143
729.5473 190.3167 605.8407
727.36163 158.12206 594.37006
725.18518 126.11921 582.94733
723.02167 94.307251 571.59253
580.92047 50.514946 -174.19569
580.92303 25.257601 -174.18251
580.92303 -2.2233822e-05 -174.18246
580.92303 -25.257399 -174.18256
588.6582 -51.187645 -133.58601
586.44183 -76.492279 -145.21806
586.44183 -101.98989 -145.21802
586.44183 -127.48727 -145.21811
586.44183 -152.98477 -145.218
586.44183 -178.48216 -145.21809
761.47357 285.5527 606.88116
761.46533 253.82193 606.83966
761.45703 222.0918 606.79803
761.44873 190.36226 606.75641
761.43634 158.63268 606.69391
761.4281 126.90472 606.65216
761.41974 95.17765 606.6106
609.72882 50.810879 -156.33586
609.73145 25.405596 -156.3226
609.73145 3.7478098e-05 -156.32246
609.73145 -25.405392 -156.32253
617.75134 -51.479259 -115.98573
615.52307 -76.940346 -127.19298
615.52307 -102.5871 -127.19299
615.52307 -128.23389 -127.19302
615.52307 -153.88066 -127.19305
615.52307 -179.52756 -127.19286
785.29681 282.70688 568.71344
785.28418 251.29102 568.65234
785.27576 219.8774 568.61151
785.26727 188.46434 568.57068
785.25885 157.05182 568.52991
785.24615 125.63958 568.46869
785.23767 94.22863 568.42798
638.87671 51.110199 -138.26558
638.87671 25.555033 -138.2655
638.87671 9.9144243e-05 -138.26556
638.87671 -25.555075 -138.26547
647.17499 -51.773849 -98.197746
644.94696 -77.393616 -108.9554
644.94696 -103.19146 -108.9555
644.94696 -128.98944 -108.95538
644.94696 -154.78719 -108.95542
644.94696 -180.58502 -108.95552
808.64569 279.9158 531.27911
808.63702 248.81155 531.23901
808.62415 217.70662 531.17914
808.61554 186.60362 531.13892
808.60687 155.5014 531.09894
808.59833 124.39986 531.05902
808.58533 93.298409 530.99896
668.37006 51.413261 -119.98112
668.37006 25.70656 -119.98109
668.37006 -2.1490436e-05 -119.981
668.37006 -25.706478 -119.98112
676.94055 -52.072231 -80.190811
674.7196 -77.852203 -90.501854
674.7196 -103.80306 -90.501755
674.7196 -129.75368 -90.501808
674.7196 -155.70453 -90.501709
674.7196 -181.65524 -90.501823
831.53796 277.17953 494.57642
831.52924 246.37904 494.5372
831.52045 215.57948 494.49796
831.50726 184.77943 494.439
831.49847 153.9812 494.39999
831.48975 123.18379 494.36063
831.48096 92.386765 494.3215
698.2121 51.719463 -101.49222
698.21515 25.859886 -101.47839
698.21515 0.00010059964 -101.4785
698.21515 -25.859812 -101.47841
707.05109 -52.37402 -61.975262
704.84412 -78.315994 -71.842285
704.84412 -104.42129 -71.842285
704.84412 -130.52658 -71.842285
704.84412 -156.63188 -71.842285
704.84412 -182.73729 -71.842361
853.987 274.496 458.58466
853.97809 243.99377 458.54614
853.96912 213.49249 458.5076
853.96027 182.99164 458.46906
853.94684 152.49059 458.41156
853.93793 121.99119 458.37302
853.92902 91.49247 458.33459
728.4151 52.029747 -82.768021
728.4151 26.014936 -82.768005
728.4184 9.5781521e-05 -82.753899
728.4184 -26.014816 -82.753952
737.51276 -52.679459 -43.547138
735.33289 -78.785614 -52.944702
735.33289 -105.04737 -52.944874
735.33289 -131.30936 -52.944897
735.33289 -157.57124 -52.944859
735.33289 -183.83313 -52.944817
876.01001 271.8652 423.30176
875.99646 241.65431 423.24524
875.98737 211.4453 423.20755
875.97833 181.237 423.16968
875.9693 151.02925 423.1319
875.95563 120.82161 423.07532
875.86951 90.607346 422.71683
758.98267 52.343685 -63.817604
758.98267 26.171833 -63.817535
758.98267 -1.32108e-05 -63.817471
758.98267 -26.171728 -63.817612
768.3316 -52.9883 -24.903048
766.18951 -79.260941 -33.819336
766.18951 -105.68133 -33.819256
766.18951 -132.10158 -33.819386
766.18951 -158.52197 -33.819309
766.18951 -184.94223 -33.819435
900.27289 300.09113 399.38333
897.61041 269.28326 388.67029
897.6012 239.3605 388.63324
897.5874 209.43706 388.57779
897.57825 179.51576 388.54077
897.56903 149.59491 388.50369
897.53223 119.67106 388.35556
897.46783 89.746826 388.09662
789.92133 52.661484 -44.63702
789.92133 26.330816 -44.637112
789.92133 1.565001e-05 -44.636986
789.92133 -26.33065 -44.637077
799.51044 -53.300594 -6.0536151
797.42078 -79.74192 -14.461737
797.42078 -106.32272 -14.461618
797.42078 -132.9034 -14.461714
797.42078 -159.48405 -14.461805
797.42078 -186.06485 -14.46169
920.60388 296.96915 361.69769
918.80432 266.74979 354.69037
918.79498 237.10844 354.65417
918.78564 207.46777 354.61783
918.77167 177.82683 354.56332
918.56183 148.15517 353.74619
918.65967 118.53687 354.12744
918.65967 88.902603 354.12738
821.23431 52.982861 -25.236748
821.23798 26.491587 -25.222206
821.23798 5.6097237e-05 -25.222242
821.23798 -26.491474 -25.222281
831.06274 -53.616837 13.034109
829.02972 -80.2285 5.117537
829.02972 -106.97149 5.1174746
829.02972 -133.71437 5.1174798
829.02972 -160.45726 5.1174846
829.02972 -187.20013 5.1174898
940.51624 293.91129 324.7883
939.60315 264.26349 321.34406
939.59369 234.89853 321.30829
939.58423 205.53409 321.27283
939.3858 176.13493 320.52405
939.46143 146.79092 320.80936
939.46143 117.43272 320.80923
939.46143 88.074631 320.8092
852.93573 53.308632 -5.5836062
852.93573 26.654329 -5.5835953
852.93964 4.7362391e-05 -5.5688572
852.93964 -26.654257 -5.5688472
862.99176 -53.936901 32.349903
861.03064 -80.721596 24.952347
861.03064 -107.62882 24.95232
861.03064 -134.53604 24.952286
861.03064 -161.44315 24.952316
861.03064 -188.35037 24.952286
960.03217 290.91895 288.66599
960.02258 261.82431 288.63104
960.00824 232.7294 288.57852
959.99872 203.63615 288.54352
959.87433 174.5228 288.0885
959.87433 145.43561 288.08844
959.87433 116.34856 288.08847
959.87433 87.261475 288.08847
885.0293 53.638206 14.312907
885.0293 26.819113 14.312897
885.0293 1.8336945e-05 14.312886
885.03333 -26.819056 14.327602
895.3042 -54.260891 51.897526
893.42737 -81.220604 45.032185
893.42737 -108.29408 45.032108
893.42737 -135.36778 45.032188
893.42737 -162.44125 45.032112
893.42737 -189.51486 45.032249
980.07349 288.25699 256.53339
980.06378 259.42874 256.49911
980.05408 230.60109 256.46463
