# .PCD v0.7 - Point Cloud Data file format
VERSION 0.7
FIELDS x y z
SIZE 4 4 4
TYPE F F F
COUNT 1 1 1
WIDTH 1491
HEIGHT 1
VIEWPOINT 0 0 0 1 0 0 0
POINTS 1491
DATA ascii
-1280.1217 152.39563 -505.40335
-1278.9438 121.80425 -508.78842
-1279.6122 91.401085 -506.86755
-1279.7717 60.941677 -506.40924
-1279.5454 30.465498 -507.05975
-1280.3895 0.00012229693 -504.63364
-1279.4323 -30.462627 -507.38486
-1279.5197 -60.929482 -507.13364
-1278.6254 -91.330315 -509.70407
-1278.3634 -121.74882 -510.45682
-1299.224 475.32587 -359.42764
-1265.3986 432.08737 -459.0155
-1238.6188 392.73291 -537.85913
-1218.2421 356.55875 -597.85175
-1207.2609 323.89941 -630.18225
-1205.9817 294.14197 -633.94824
-1206.361 264.81116 -632.83179
-1206.9607 235.50462 -631.06573
-1207.2797 206.12108 -630.12695
-1207.4579 176.70129 -629.60193
-1206.778 147.16817 -631.604
-1206.1034 117.66862 -633.5899
-1206.3562 88.270035 -632.8454
-1206.9232 58.874321 -631.17609
-1207.2515 29.445248 -630.20978
-1206.2954 0.00015903883 -633.02466
-1206.5718 -29.428612 -632.21094
-1207.9038 -58.922039 -628.289
-1206.0425 -88.246948 -633.76904
-1206.4312 -117.70051 -632.62494
-1205.5605 -147.01944 -635.18805
-1206.0004 -176.48779 -633.89301
-1206.0332 -205.90807 -633.79651
-1272.0032 477.00128 -345.94522
-1230.8809 430.80832 -470.04309
-1200.7882 390.25638 -560.85571
-1175.8693 352.76093 -636.05548
-1156.6709 318.08456 -693.99152
-1142.7185 285.67963 -736.09656
-1137.5044 255.9386 -751.83173
-1138.3031 227.66078 -749.42114
-1137.4319 199.05063 -752.05048
-1138.2689 170.74033 -749.52429
-1139.1029 142.38794 -747.00726
-1138.812 113.88129 -747.8855
-1138.2518 85.369049 -749.57599
-1137.7733 56.888752 -751.0199
-1138.7094 28.467751 -748.19531
-1138.6837 9.2807604e-05 -748.27264
-1138.1578 -28.453903 -749.85956
-1138.6879 -56.934288 -748.25995
-1138.7565 -85.406723 -748.05334
-1137.957 -113.79562 -750.46576
-1138.4912 -142.31133 -748.85352
-1138.9404 -170.84085 -747.49823
-1137.3081 -199.02885 -752.42383
-1137.6624 -227.5323 -751.35504
-1136.7068 -255.75891 -754.23871
-1258.7795 484.14612 -288.44867
-1205.9014 432.88785 -452.11469
-1169.5223 389.84088 -564.71271
-1141.1343 351.11838 -652.57794
-1117.8375 315.28763 -724.68494
-1098.2939 281.61404 -785.17511
-1083.6844 250.08112 -830.39362
-1075.2947 220.57333 -856.36108
-1074.1497 192.79631 -859.90515
-1074.3411 165.28336 -859.31299
-1073.697 137.65349 -861.30603
-1074.1146 110.16557 -860.01373
-1074.845 82.680565 -857.75305
-1074.6536 55.1106 -858.34583
-1074.5831 27.553509 -858.56342
-1074.6691 0.00010975001 -858.29742
-1074.552 -27.552509 -858.6601
-1073.9116 -55.072205 -860.64191
-1073.6307 -82.586906 -861.51111
-1074.2161 -110.17607 -859.69958
-1074.2747 -137.72748 -859.51825
-1073.9545 -165.22379 -860.50903
-1074.1732 -192.80031 -859.83246
-1074.7629 -220.46414 -858.00702
-1073.5723 -247.74734 -861.69232
-1073.9077 -275.36096 -860.65387
-1072.7812 -302.57928 -864.1405
-1129.5586 445.87857 -596.40271
-1122.5228 413.56119 -618.75244
-1146.0648 392.07489 -543.96887
-1111.5826 351.02612 -653.50494
-1085.9346 314.34958 -734.97833
-1063.6505 279.90808 -805.76562
-1044.2355 247.31906 -867.43945
-1028.7477 216.57848 -916.63837
-1017.0814 187.35721 -953.69751
-1014.6446 160.20714 -961.43787
-1014.4802 133.48427 -961.96021
-1014.6946 106.81011 -961.27893
-1014.2015 80.068619 -962.84552
-1014.3694 53.388012 -962.31207
-1014.0229 26.684961 -963.41266
-1013.798 0.00011589993 -964.12701
-1013.9373 -26.682419 -963.685
-1014.5588 -53.397835 -961.71045
-1015.0917 -80.138779 -960.01764
-1014.5874 -106.79858 -961.61975
-1014.3372 -133.46535 -962.41425
-1014.4694 -160.17932 -961.99432
-1014.3694 -186.85745 -962.31207
-1015.3064 -213.74854 -959.33588
-1015.0201 -240.39949 -960.24512
-1015.0559 -267.12 -960.13141
-1015.0595 -293.83292 -960.12
-1014.2336 -320.28433 -962.74329
-1015.2634 -347.3269 -959.47217
-1016.0837 -374.34647 -956.86646
-1016.6505 -401.30939 -955.06604
-1019.9161 -429.43835 -944.69244
-1023.2247 -457.75842 -934.18243
-1026.5511 -486.26089 -923.61597
-1029.9028 -514.95142 -912.96863
-1033.2728 -543.82776 -902.26343
-1098.2825 445.24991 -601.46204
-1092.5399 413.39359 -620.19702
-1096.2345 385.16364 -608.14374
-1091.719 354.0712 -622.87549
-1058.9106 314.81131 -729.91107
-1034.2122 279.51688 -810.48865
-1012.6505 246.32051 -880.83228
-993.42456 214.79459 -943.55615
-977.30365 184.89548 -996.14954
-965.31305 156.53735 -1035.2687
-958.33209 129.50439 -1058.0435
-958.11603 103.58023 -1058.7485
-957.72986 77.65387 -1060.0082
-957.7135 51.768421 -1060.0615
-957.63831 25.882124 -1060.307
-957.73969 -2.860777e-05 -1059.9762
-958.24042 -25.898201 -1058.3425
-959.15814 -51.846333 -1055.3485
-959.75238 -77.817642 -1053.4098
-959.36163 -103.71464 -1054.6846
-962.31818 -130.04289 -1045.0391
-965.09039 -156.50104 -1035.9948
-967.91199 -183.1185 -1026.7894
-970.7771 -209.89767 -1017.4423
-973.71991 -236.85072 -1007.8412
-976.86792 -264.01825 -997.57141
-979.98145 -291.34573 -987.41351
-983.0943 -318.8414 -977.25793
-986.59827 -346.64258 -965.82672
-990.72888 -374.87024 -952.35059
-1064.0607 443.35867 -616.68018
-1060.1698 412.28842 -629.7265
-1062.1304 383.54718 -623.15271
-1071.4319 357.14398 -591.96387
-1041.3615 318.19391 -692.7923
-1008.7495 280.20819 -802.1427
-984.98987 246.24757 -881.81036
-965.10846 214.4686 -948.47437
-946.90015 184.11949 -1009.5282
-930.09167 155.0153 -1065.8881
-917.09204 127.37402 -1109.4768
-913.60645 101.51195 -1121.1644
-916.40509 76.367203 -1111.7803
-919.17145 51.065125 -1102.5045
-921.88904 25.608114 -1093.3921
-924.66669 0.00011271663 -1084.0786
-927.54944 -25.76523 -1074.4126
-930.39624 -51.688641 -1064.8671
-933.2063 -77.767159 -1055.4447
-936.14581 -104.01612 -1045.5884
-939.09088 -130.42923 -1035.7131
-942.17181 -157.02841 -1025.3828
-945.15173 -183.77942 -1015.3906
-948.07153 -210.68253 -1005.6004
-951.16522 -237.79112 -995.22699
-954.36938 -265.10257 -984.48334
-957.4137 -292.54306 -974.27539
-960.58905 -320.19638 -963.62805
-964.21478 -348.18866 -951.47095
-968.13239 -376.49582 -938.33472
-1030.4604 441.62607 -630.62402
-1026.5681 410.62735 -644.04822
-1028.726 382.09836 -636.60583
-1034.5155 354.69119 -616.63837
-1043.4277 327.93454 -585.90106
-992.59741 283.5994 -761.20905
-962.12036 247.40244 -866.32062
-939.62604 214.77173 -943.90057
-920.0321 184.00658 -1011.4774
-903.50732 154.88699 -1068.4695
-889.73608 127.10528 -1115.9648
-891.61426 101.89886 -1109.4872
-894.15405 76.641815 -1100.7279
-896.88715 51.250713 -1091.3018
-899.573 25.702122 -1082.0387
-902.43768 -9.756488e-06 -1072.1588
-905.34222 -25.866831 -1062.1411
-908.23138 -51.898842 -1052.1769
-911.06702 -78.091324 -1042.3971
-913.93311 -104.44946 -1032.5126
-916.93127 -130.99005 -1022.1721
-919.75781 -157.67264 -1012.4236
-922.7431 -184.54846 -1002.1279
-925.66046 -211.57933 -992.06598
-928.7135 -238.81194 -981.5365
-931.7605 -266.21719 -971.02777
-934.78485 -293.7894 -960.59741
-937.88177 -321.55945 -949.91602
-941.4303 -349.67401 -937.67822
-1000.6611 441.4682 -631.89368
-995.56146 409.93716 -649.99866
-996.62427 381.06232 -646.22546
-1001.3182 353.40656 -629.56061
-1007.5475 325.97144 -607.44446
-1015.341 298.62979 -579.77521
-947.32782 250.76321 -821.24353
-918.11993 216.02831 -924.94043
-896.40387 184.55382 -1002.0392
-878.89331 155.09891 -1064.2074
-867.43121 127.56354 -1104.9012
-869.61224 102.30732 -1097.1582
-872.01666 76.942741 -1088.6218
-874.74011 51.455441 -1078.9525
-877.39996 25.806004 -1069.5094
-880.21741 0.00010565407 -1059.5066
-883.0257 -25.971258 -1049.5363
-885.91895 -52.112789 -1039.264
-888.51257 -78.39814 -1030.056
-891.3125 -104.86022 -1020.1154
-894.24493 -131.50642 -1009.7045
-897.27478 -158.34254 -998.94727
-900.25604 -185.34673 -988.36292
-903.08313 -212.49007 -978.32581
-905.99493 -239.82211 -967.98816
-909.00568 -267.35446 -957.29932
-911.9397 -295.03909 -946.88257
-915.06158 -322.96274 -935.79871
-918.50293 -351.1922 -923.58105
-968.64557 440.29355 -641.34686
-962.44641 408.31073 -664.02277
-963.68506 379.63358 -659.49164
-968.34546 352.12573 -642.44421
-974.3819 324.7941 -620.36383
-981.36737 297.38416 -594.81146
-987.58722 269.34198 -572.05988
-907.38885 219.97321 -865.41754
-875.69324 185.75322 -981.35706
-855.64105 155.57114 -1054.7061
-845.3678 128.08604 -1092.2845
-847.32104 102.70567 -1085.1396
-849.96759 77.269897 -1075.4591
-852.55212 51.669903 -1066.005
-855.26941 25.917355 -1056.0653
-857.95398 7.9526239e-05 -1046.2452
-860.64966 -26.080194 -1036.385
-863.32349 -52.322578 -1026.6042
-866.21808 -78.747108 -1016.0163
-869.01422 -105.33487 -1005.7883
-871.74042 -132.08186 -995.81604
-874.49902 -158.99965 -985.72546
-877.2782 -186.08926 -975.5592
-880.20532 -213.38306 -964.85248
-883.0802 -240.84004 -954.3363
-886.03046 -268.4939 -943.54456
-888.94354 -296.31448 -932.88873
-892.05725 -324.38434 -921.49896
-895.19281 -352.65158 -910.02948
-938.06097 439.71616 -645.99274
-931.20288 407.40143 -671.8631
-931.32452 378.35071 -671.40448
-935.58563 350.8447 -655.33026
-941.93762 323.7912 -631.36932
-948.02795 296.25888 -608.39557
-954.17126 268.36075 -585.22144
-959.06543 239.76642 -566.75977
-963.69586 210.80853 -549.29272
-836.2298 156.7932 -1030.1213
-823.21497 128.6274 -1079.2161
-825.13641 103.14211 -1071.9683
-827.58612 77.586327 -1062.7272
-830.03912 51.877575 -1053.4741
-832.76392 26.023937 -1043.1954
-835.44049 9.7752767e-05 -1033.0988
-838.05322 -26.189079 -1023.2431
-840.8252 -52.551468 -1012.7866
-843.43079 -79.071579 -1002.9579
-846.10858 -105.76333 -992.85687
-848.92218 -132.6441 -982.24292
-851.62018 -159.67863 -972.06598
-854.30206 -186.87856 -961.94879
-857.24945 -214.31212 -950.83099
-859.98535 -241.87091 -940.51031
-862.79095 -269.62213 -929.927
-865.72925 -297.59421 -918.84326
-868.73749 -325.77649 -907.49579
-871.91077 -354.21378 -895.52515
-904.9278 437.86847 -660.8631
-899.82587 406.37305 -680.72919
-900.15686 377.48523 -679.44055
-903.81372 349.86353 -665.20093
-909.6579 322.78204 -642.44446
-916.07794 295.50916 -617.44543
-921.66278 267.57947 -595.69873
-926.31055 239.04787 -577.60065
-930.03253 210.00748 -563.10779
-813.20734 157.395 -1018.0125
-803.76471 129.63948 -1054.781
-802.89673 103.59971 -1058.1609
-805.0979 77.912827 -1049.59
-807.59143 52.102802 -1039.8804
-810.18982 26.135284 -1029.7623
-812.81342 5.2743981e-05 -1019.5463
-815.38055 -26.302429 -1009.5502
-818.03229 -52.77631 -999.22467
-820.61243 -79.413986 -989.17798
-823.21759 -106.22154 -979.03381
-825.94379 -133.21678 -968.41797
-828.60052 -160.37413 -958.07318
-831.31555 -187.71634 -947.50104
-834.10468 -215.25281 -936.6405
-836.82611 -242.9494 -926.04364
-839.37341 -270.76556 -916.12469
-842.41626 -298.92178 -904.27594
-845.20148 -327.17471 -893.43079
-848.44916 -355.80127 -880.78455
-876.19214 438.09619 -659.02985
-866.28021 404.26425 -698.91248
-866.93097 375.6701 -696.29395
-870.83923 348.33572 -680.56824
-877.70746 321.8262 -652.93262
-884.37531 294.79181 -626.10358
-889.2038 266.76123 -606.67499
-893.51257 238.27005 -589.33783
-896.70886 209.23215 -576.47668
-789.96625 157.9933 -1005.9759
-781.44073 130.24028 -1040.2803
-780.40802 104.05441 -1044.4355
-782.75092 78.275185 -1035.0085
-785.32483 52.355145 -1024.6517
-787.74652 26.258272 -1014.9076
-790.20789 0.00011841503 -1005.0037
-792.54102 -26.417801 -995.61609
-794.95465 -52.996864 -985.90417
-797.57043 -79.756905 -975.37915
-800.2345 -106.69778 -964.65979
-802.61316 -133.7688 -955.08881
-805.17694 -161.0352 -944.77283
-807.87781 -188.50476 -933.90533
-810.63727 -216.16982 -922.80219
-813.4798 -244.04373 -911.36511
-815.92908 -271.97626 -901.5097
-818.797 -300.22549 -889.96985
-821.57831 -328.6312 -878.77887
-824.78821 -357.40808 -865.8631
-848.21161 438.73016 -653.92749
-837.00873 404.07321 -700.55841
-836.72833 375.08521 -701.72577
-839.24609 347.27435 -691.24573
-845.02856 320.52826 -667.17664
-851.73212 293.70084 -639.27332
-857.00952 265.96872 -617.30627
-861.07574 237.53821 -600.38098
-863.57269 208.44876 -589.98773
-766.81793 158.65208 -992.72314
-758.62323 130.79726 -1026.8331
-757.52765 104.48657 -1031.3934
-759.7851 78.598549 -1021.9972
-762.33618 52.575047 -1011.3784
-764.6969 26.368895 -1001.5522
-767.099 7.7576296e-05 -991.55347
-769.64563 -26.539333 -980.95343
-772.1875 -53.254219 -970.37292
-774.62335 -80.133415 -960.2337
-777.07733 -107.18304 -950.01904
-779.67694 -134.42697 -939.19855
-782.26892 -161.84859 -928.40955
-784.71844 -189.41475 -918.2135
-787.37512 -217.2068 -907.15521
-789.88232 -245.1358 -896.71924
-792.42847 -273.25101 -886.12128
-795.13477 -301.60275 -874.85602
-797.89447 -330.16315 -863.36908
-800.99731 -359.06769 -850.4538
-825.38806 442.1723 -626.22809
-808.47583 404.23804 -699.13806
-807.54358 374.931 -703.15717
-809.17871 346.79108 -696.10785
-813.25989 319.495 -678.51349
-819.76648 292.7738 -650.46307
-824.94836 265.16208 -628.12329
-784.16248 224.04651 -803.95508
-785.1286 196.28221 -799.7901
-743.46277 159.31348 -979.41559
-735.61237 131.35941 -1013.2593
-734.46161 104.92314 -1018.2207
-736.62872 78.924606 -1008.8778
-739.09949 52.792927 -998.2262
-741.38995 26.478342 -988.35175
-743.77026 0.00015520547 -978.08997
-746.2525 -26.651751 -967.38879
-748.7276 -53.480511 -956.71832
-751.09955 -80.474945 -946.49286
-753.49451 -107.64191 -936.16779
-756.02069 -135.00363 -925.27716
-758.54211 -162.54466 -914.40723
-760.93573 -190.23389 -904.08777
-763.52863 -218.15099 -892.90967
-766.11707 -246.25185 -881.75073
-768.59784 -274.49915 -871.05597
-771.14795 -302.95096 -860.06201
-773.77997 -331.61984 -848.71545
-780.94061 404.93234 -693.15222
-779.57495 375.35095 -699.25769
-737.58673 327.81641 -886.97723
-730.70947 297.6965 -917.72369
-735.46057 272.39282 -896.48273
-741.05933 247.01993 -871.4519
-746.31915 221.13173 -847.93665
-750.81842 194.65675 -827.82135
-719.91461 159.98109 -965.98523
-712.40283 131.92657 -999.56842
-711.20685 105.36406 -1004.9153
-713.27948 79.25341 -995.64941
-715.65436 53.011463 -985.03168
-717.88641 26.588421 -975.05261
-720.23895 0.00015530508 -964.53503
-722.66302 -26.765198 -953.69727
-725.06757 -53.708572 -942.94745
-727.37439 -80.819313 -932.63422
-729.70886 -108.105 -922.19714
-732.16052 -135.58531 -911.23621
-734.60773 -163.24619 -900.29553
-736.94391 -191.05937 -889.85132
-739.47388 -219.10332 -878.53992
-741.95953 -247.31967 -867.42761
-744.42938 -275.71442 -856.38538
-746.85571 -304.27457 -845.53741
-749.44891 -333.08838 -833.94385
-755.06573 406.57397 -678.99725
-751.23706 375.61856 -696.77277
-712.63708 328.90961 -875.98126
-705.42218 298.44794 -909.47833
-706.8316 271.8584 -902.93469
-711.98566 246.45671 -879.00586
-716.76404 220.54285 -856.82123
-721.34283 194.2079 -835.56317
-696.28137 160.68036 -951.91644
-688.99438 132.49908 -985.74768
-687.75354 105.80838 -991.50879
-689.7348 79.584923 -982.31006
-692.01422 53.231922 -971.72754
-694.21582 26.700714 -961.50598
-696.51025 7.2654177e-05 -950.85364
-698.86694 -26.879372 -939.91229
-701.20483 -53.938797 -929.05835
-703.44775 -81.167007 -918.64502
-705.71521 -108.5714 -908.1178
-708.09912 -136.17288 -897.04987
-710.46588 -163.95351 -886.06177
-712.74542 -191.89301 -875.47858
-715.2005 -220.06158 -864.08032
-717.57062 -248.38983 -853.07642
-720.05908 -276.94568 -841.52319
-722.37158 -305.61856 -830.78705
-724.89886 -334.5687 -819.05341
-728.78668 408.12064 -665.66125
-721.48236 375.1709 -700.93005
-692.1015 332.20877 -842.79315
-681.9502 300.0582 -891.80786
-682.1319 272.85281 -890.93066
-685.28748 246.70361 -875.69397
-689.39679 220.60707 -855.85254
-693.41357 194.1559 -836.45795
-672.47882 161.39508 -937.53979
-665.37964 133.07605 -971.81769
-664.10388 106.25668 -977.97766
-665.99243 79.919159 -968.85895
-668.17908 53.454338 -958.30066
-670.35406 26.814396 -947.79907
-672.5791 0.00019409563 -937.05573
-674.86218 -26.99445 -926.0318
-677.1366 -54.170738 -915.04999
-679.31683 -81.517921 -904.52295
-681.51599 -109.04237 -893.90448
-683.83063 -136.76595 -882.72827
-686.12628 -164.67027 -871.64386
-688.3399 -192.73511 -860.95593
-690.70117 -221.02434 -849.55426
-693.00781 -249.48267 -838.4173
-695.43188 -278.17276 -826.7124
-697.66235 -306.97125 -815.94299
-700.09338 -336.04474 -804.20502
-700.04456 408.35941 -663.6026
-691.28052 374.44373 -707.68243
-663.73615 331.86819 -846.21985
-658.06641 301.61395 -874.73639
-657.57629 273.99017 -877.20142
-659.60565 247.3522 -866.99451
-662.85803 220.95277 -850.63611
-666.58215 194.41995 -831.90558
-648.44281 162.11072 -923.13922
-641.55603 133.65755 -957.77722
-640.25293 106.70898 -964.33112
-642.05646 80.257172 -955.26001
-644.16669 53.680676 -944.64655
-646.30225 26.929287 -933.90527
-648.4613 3.9421859e-05 -923.0462
-650.67902 -27.111429 -911.89203
-652.86511 -54.405231 -900.89685
-654.98102 -81.872566 -890.25458
-657.11542 -109.51913 -879.51941
-659.35699 -137.366 -868.24518
-661.57782 -165.39429 -857.07538
-663.72644 -193.58687 -846.26849
-666.00122 -222.00027 -834.82745
-668.23517 -250.58807 -823.59125
-670.57068 -279.40439 -811.84448
-672.73096 -308.33496 -800.97937
-675.05048 -337.52518 -789.31317
-661.92871 374.13385 -710.56067
-637.8728 332.80334 -836.81317
-632.7738 302.63104 -863.57397
-632.37207 274.94449 -865.68243
-634.06512 248.1125 -856.797
-637.01727 221.57132 -841.30316
-640.54736 194.94928 -822.776
-624.17255 162.82765 -908.71619
-617.50574 134.24049 -943.70538
-616.20905 107.16688 -950.51074
-617.96106 80.603661 -941.31555
-619.98981 53.91227 -930.66797
-622.0675 27.046555 -919.76398
-624.15466 0.0001633944 -908.80994
-626.29858 -27.230316 -897.5578
-628.35541 -54.639565 -886.76312
-630.43713 -82.230942 -875.83759
-632.50055 -110.00002 -865.00812
-634.66766 -137.9711 -853.63452
-636.8078 -166.12366 -842.40247
-638.89685 -194.44672 -831.4386
-641.07983 -222.9843 -819.98175
-643.24213 -251.70335 -808.63336
-645.48834 -280.64703 -796.8446
-647.57953 -309.71185 -785.86951
-649.77863 -339.01492 -774.3277
-633.92438 374.5918 -706.30762
-612.85742 334.28595 -821.89886
-608.28937 304.14481 -846.96283
-607.74835 276.24936 -849.93127
-608.91589 249.10199 -843.52545
-611.43695 222.34068 -829.69232
-614.58105 195.54854 -812.44135
-599.68878 163.55162 -894.15289
-593.24268 134.82794 -929.52179
-591.95782 107.62879 -936.57135
-593.65668 80.953293 -927.25012
-595.60138 54.145714 -916.5799
-597.61884 27.164652 -905.51062
-599.63489 9.967199e-05 -894.44885
-601.70361 -27.350033 -883.09766
-603.63379 -54.875736 -872.50745
-605.67529 -82.591972 -861.30603
-607.66864 -110.48514 -850.36877
-609.75317 -138.58022 -838.93115
-611.8161 -166.85887 -827.612
-613.84564 -195.31444 -816.47632
-615.92737 -223.9735 -805.05414
-618.02325 -252.82758 -793.55457
-620.1842 -281.90173 -781.69781
-622.20001 -311.09995 -770.63708
-624.28748 -340.52023 -759.18372
-605.34436 374.73718 -704.95807
-588.69836 336.39914 -800.64154
-582.74042 305.24509 -834.88867
-582.10315 277.19208 -838.55182
-583.25513 249.96654 -831.93018
-585.68701 223.11891 -817.95117
-588.73102 196.24385 -800.4538
-574.98431 164.28139 -879.47168
-568.7663 135.42064 -915.21356
-567.4906 108.09353 -922.54626
-569.14056 81.305977 -913.06232
-571.00079 54.381062 -902.36945
-572.95776 27.283823 -891.12048
-574.89917 0.00019296557 -879.96124
-576.84119 -27.468601 -868.79797
-578.69745 -55.113831 -858.12811
-580.69495 -82.956207 -846.64624
-582.6167 -110.97451 -835.59985
-584.6156 -139.19417 -824.10968
-586.60016 -167.59998 -812.70221
-588.56775 -196.18916 -801.39233
-590.55298 -224.97247 -789.98083
-592.57812 -253.96204 -778.34003
-594.65057 -283.16687 -766.42755
-596.5921 -312.50064 -755.26721
-598.60486 -342.05978 -743.69757
-563.10211 337.86151 -785.9328
-557.58374 306.67111 -819.23932
-557.20245 278.60135 -821.54028
-558.11957 251.15393 -816.005
-560.19891 224.07967 -803.45544
-562.87421 197.00603 -787.30841
-550.05835 165.01764 -864.65875
-544.07574 136.01903 -900.76709
-542.81702 108.5634 -908.36414
-544.41382 81.662117 -898.72675
-546.1853 54.618652 -888.03497
-548.06946 27.403545 -876.66327
-549.94464 7.0133276e-05 -865.3454
-551.76038 -27.587883 -854.38641
-553.5437 -55.354382 -843.62299
-555.4668 -83.319786 -832.01624
-557.3418 -111.4682 -820.69946
-559.25427 -139.81339 -809.15668
-561.16125 -168.34836 -797.64709
-563.06445 -197.07246 -786.16003
-564.9491 -225.97954 -774.78534
-566.90576 -255.10751 -762.97595
-568.88666 -284.44324 -751.01984
-570.75464 -313.91492 -739.74573
-572.68903 -343.61331 -728.07068
-538.88092 340.34592 -760.93982
-532.427 308.24731 -801.94275
-531.60535 279.79242 -807.1629
-532.4408 252.20895 -801.85535
-534.37524 225.00018 -789.56512
-536.85974 197.79057 -773.78101
-524.90802 165.76044 -849.71252
-519.16412 136.62227 -886.20447
-517.92981 109.03789 -894.04633
-519.46759 82.021255 -884.27667
-521.1521 54.858162 -873.57428
-522.95587 27.524063 -862.11456
-524.76837 6.362953e-05 -850.59955
-526.46057 -27.708342 -839.84875
-528.16956 -55.596725 -828.99103
-530.01263 -83.686066 -817.28204
-531.841 -111.96637 -805.66589
-533.66626 -140.43835 -794.06964
-535.49213 -169.10266 -782.4696
-537.30847 -197.95569 -770.93005
-539.117 -226.99648 -759.44006
-540.99872 -256.26248 -747.48517
-542.89563 -285.73438 -735.43365
-544.67609 -315.33875 -724.12195
-546.55334 -345.19147 -712.1958
-513.81464 342.54321 -738.83746
-506.72604 309.66608 -786.37463
-505.77536 280.98639 -792.74963
-506.59244 253.29639 -787.27069
-508.3746 225.94432 -775.31891
-510.75388 198.62657 -759.36322
-499.53201 166.51073 -834.61871
-494.03064 137.23083 -871.51196
-492.8241 109.51654 -879.60297
-494.3027 82.383858 -869.68726
-495.89835 55.099918 -858.98663
-497.62234 27.645748 -847.42535
-499.34186 0.00022270628 -835.8941
-500.93896 -27.829985 -825.18341
-502.5741 -55.841423 -814.21802
-504.33743 -84.056236 -802.39288
-506.10187 -112.46715 -790.56012
-507.84467 -141.0679 -778.87274
-509.58813 -169.86264 -767.18097
-511.33588 -198.85272 -755.46021
-513.07062 -228.03133 -743.8269
-514.86963 -257.43472 -731.76245
-516.69104 -287.05048 -719.54773
-518.38745 -316.79221 -708.17114
-520.20422 -346.8028 -695.98798
-486.78937 343.616 -728.04431
-481.08896 311.29294 -768.52087
-479.94022 282.31787 -776.6778
-480.53271 254.39973 -772.47064
-482.23242 226.93306 -760.40173
-484.48288 199.49304 -744.42194
-473.97406 167.28506 -819.04132
-468.67557 137.84589 -856.66376
-467.49872 109.99969 -865.02008
-468.89902 82.747032 -855.07721
-470.41592 55.343269 -844.30627
-472.05508 27.767948 -832.66699
-473.69174 -2.484063e-05 -821.04559
-475.2171 -27.953823 -810.2149
-476.78052 -56.091667 -799.11365
-478.46262 -84.434517 -787.16974
-480.12802 -112.9711 -775.34442
-481.78522 -141.70137 -763.57739
-483.44666 -170.62817 -751.77997
-485.13416 -199.76106 -739.79749
-486.79123 -229.07823 -728.03131
-488.49481 -258.61469 -715.93488
-490.24396 -288.37869 -703.51489
-491.85541 -318.25931 -692.07251
-493.6344 -348.44763 -679.44061
-462.90329 347.17752 -692.21912
-455.21872 312.96286 -750.19495
-453.89639 283.68539 -760.1709
-454.2688 255.52629 -757.36139
-455.78162 227.8909 -745.948
-457.94534 200.35127 -729.62402
-448.19556 168.07346 -803.18048
-443.09869 138.46831 -841.63293
-441.95047 110.48774 -850.29584
-443.25748 83.110893 -840.43549
-444.70099 55.587788 -829.54498
-446.25577 27.891012 -817.81494
-447.8132 0.00013205077 -806.06506
-449.26993 -28.079277 -795.07477
-450.75635 -56.344471 -783.86084
-452.35382 -84.816299 -771.80865
-453.92868 -113.48199 -759.92749
-455.49057 -142.34073 -748.14386
-457.06674 -171.40001 -736.25262
-458.69022 -200.67688 -724.00421
-460.26242 -230.131 -712.14307
-461.87354 -259.80383 -699.98767
-463.55099 -289.71936 -687.33276
-465.07645 -319.74005 -675.82404
-466.78799 -350.09088 -662.91132
-428.33212 314.11026 -737.60394
-427.48648 284.99115 -744.40912
-427.84531 256.7074 -741.52185
-429.28323 228.95119 -729.95007
-431.20142 201.22745 -714.51392
-422.17133 168.86852 -787.18219
-417.29898 139.09962 -826.39185
-416.17609 110.98038 -835.42816
-417.38477 83.476952 -825.70142
-418.75775 55.83445 -814.6524
-420.22681 28.015118 -802.83038
-421.69836 0.00019021523 -790.98834
-423.08893 -28.205799 -779.79816
-424.49661 -56.599533 -768.46985
-426.00784 -85.201469 -756.30823
-427.49133 -113.99761 -744.37018
-428.95761 -142.98581 -732.57031
-430.4487 -172.17947 -720.57104
-431.99121 -201.59581 -708.15784
-433.48532 -231.19215 -696.13434
-435.01642 -261.00967 -683.81311
-436.60864 -291.07245 -670.99969
-438.0488 -321.23566 -659.41022
-439.63614 -351.70889 -646.63617
-402.05356 315.89932 -717.97223
-400.69458 286.2106 -729.68939
-401.08542 257.8407 -726.3197
-402.38443 229.93399 -715.11914
-404.17789 202.08902 -699.65588
-395.90118 169.67209 -771.01929
-391.26865 139.7388 -810.96136
-390.17371 111.47832 -820.40247
-391.28165 83.84623 -810.84961
-392.58319 56.083466 -799.62726
-393.96658 28.140503 -787.69952
-395.34943 0.00019677368 -775.77637
-396.66934 -28.333443 -764.39575
-397.99811 -56.8568 -752.93896
-399.41696 -85.58931 -740.7052
-400.81265 -114.51774 -728.6712
-402.18311 -143.63667 -716.8551
-403.58749 -172.9659 -704.74634
-405.04501 -202.52249 -692.17908
-406.46014 -232.26283 -679.97754
-407.91187 -262.22897 -667.46045
-409.41351 -292.43817 -654.51324
-410.76553 -322.74426 -642.85583
-412.29309 -353.39395 -629.68494
-374.65292 317.01416 -705.73871
-373.79013 287.53101 -713.75043
-374.11234 259.00095 -710.75861
-375.34949 230.98442 -699.271
-376.93344 202.96428 -684.56317
-369.37848 170.48242 -754.71436
-364.99939 140.38449 -795.37598
-363.93826 111.98101 -805.22894
-364.94666 84.218506 -795.86572
-366.17282 56.334316 -784.47998
-367.46756 28.266819 -772.45801
-368.76456 7.1195827e-05 -760.41431
-370.01105 -28.462181 -748.8407
-371.25757 -57.11639 -737.26617
-372.58151 -85.980255 -724.9726
-373.8894 -115.04285 -712.82819
-375.16367 -144.29367 -700.99615
-376.48257 -173.76109 -688.74939
-377.85141 -203.45842 -676.03943
-379.1835 -233.34361 -663.67029
-380.55148 -263.45865 -650.9682
-381.96191 -293.81689 -637.87134
-383.22482 -324.267 -626.14508
-384.68674 -355.09537 -612.57037
-347.59412 318.62808 -688.02783
-346.4408 288.70084 -699.62946
-346.77768 260.08334 -696.24091
-347.94919 231.96616 -684.45593
-349.57291 203.91753 -668.12286
-342.60117 171.30072 -738.25317
-338.49509 141.03973 -779.55731
-337.46887 112.48981 -789.88019
-338.37671 84.594322 -780.74811
-339.52628 56.587818 -769.18396
-340.73096 28.394339 -757.06598
-341.93777 0.00017004501 -744.92651
-343.10266 -28.59186 -733.20844
-344.27029 -57.378418 -721.46271
-345.50104 -86.37516 -709.0824
-346.71814 -115.57273 -696.83917
-347.89862 -144.9577 -684.96478
-349.12604 -174.563 -672.61823
-350.4053 -204.40309 -659.74969
-351.6532 -234.43526 -647.19702
-352.93463 -264.70081 -634.30646
-354.25031 -295.20853 -621.0719
-355.42709 -325.80804 -609.23401
-356.81885 -356.81879 -595.23407
-320.15878 320.15887 -671.22906
-319.15125 290.13748 -682.28522
-319.38846 261.31793 -679.68213
-320.3938 233.01367 -668.65002
-321.85092 204.81429 -652.65967
-315.56677 172.12743 -721.62018
-311.74338 141.70161 -763.57715
-310.75674 113.00259 -774.40405
-311.56976 84.973724 -765.48236
-312.63892 56.843597 -753.74969
-313.75082 28.522854 -741.54767
-314.86716 5.8375335e-05 -729.29773
-315.94592 -28.722284 -717.45966
-317.03574 -57.642803 -705.50061
-318.16949 -86.773331 -693.05902
-319.29428 -116.10704 -680.71576
-320.38763 -145.63058 -668.71759
-321.51703 -175.37291 -656.32391
-322.70312 -205.3564 -643.30829
-323.86526 -235.53821 -630.55505
-325.05612 -265.95486 -617.487
-326.2749 -296.61343 -604.11261
-327.35883 -327.35876 -592.21771
-328.73492 -358.61981 -577.117
-292.5387 321.79269 -653.3006
-291.54495 291.54498 -665.29559
-291.63248 262.46945 -664.2395
-292.5929 234.07442 -652.64612
-293.95703 205.77002 -636.1792
-288.2691 172.96162 -704.83887
-284.73831 142.36916 -747.45935
-283.80103 113.52041 -758.77313
-284.52023 85.356163 -750.09174
-285.50311 57.100735 -738.22717
-286.52533 28.652687 -725.88831
-287.55048 8.3269915e-05 -713.51306
-288.53909 -28.853901 -701.57977
-289.54556 -57.909046 -689.43042
-290.58585 -87.175636 -676.87341
-291.61676 -116.64661 -664.42896
-292.61887 -146.3093 -652.33258
-293.65405 -176.1924 -639.83643
-294.74588 -206.32196 -626.65704
-295.81238 -236.64978 -613.78351
-296.9122 -267.22089 -600.50757
-298.01553 -298.01541 -587.1889
-299.01498 -328.91641 -575.12433
-264.548 323.33652 -636.35815
-263.31836 292.57596 -652.85065
-263.47601 263.47604 -650.73602
-264.52646 235.13461 -636.64709
-266.00894 206.89604 -616.76367
-260.71054 173.80724 -687.82745
-257.47855 143.0437 -731.17609
-256.59708 114.04331 -742.99841
-257.22607 85.742134 -734.56219
-258.11966 57.360107 -722.57678
-259.05396 28.783962 -710.04614
-259.98511 0.00012742881 -697.55713
-260.88403 -28.986986 -685.50031
-261.79727 -58.177174 -673.25171
-262.74222 -87.580666 -660.578
-263.67767 -117.19003 -648.03107
-264.58801 -146.99327 -635.82141
-265.53259 -177.02164 -623.15295
-266.52762 -207.29922 -609.8067
-267.49347 -237.77182 -596.85303
-268.49905 -268.49893 -583.36554
-269.48032 -299.42252 -570.20459
-270.40015 -330.48895 -557.86743
-235.74812 324.15378 -627.39032
-235.11456 293.89325 -636.94989
-235.54388 264.98685 -630.47211
-236.81351 236.81358 -611.31464
-238.94896 209.08035 -579.09332
-232.8821 174.66159 -670.63525
-229.95663 143.72293 -714.7771
-229.14661 114.57331 -726.99927
-229.6918 86.134598 -718.77332
-230.49165 57.623028 -706.7041
-231.33243 28.916733 -694.01819
-232.16777 9.0344129e-06 -681.41345
-232.97427 -29.121695 -669.24445
-233.79359 -58.448231 -656.8819
-234.63869 -87.989357 -644.13043
-235.4771 -117.73855 -631.47968
-236.29942 -147.68689 -619.07202
-237.14513 -177.85875 -606.3111
-238.03987 -208.28481 -592.81024
-238.90471 -238.90454 -579.76105
-239.81093 -269.78723 -566.08734
-240.67342 -300.84174 -553.07343
-241.51132 -332.07788 -540.43042
-207.68883 326.36838 -603.08923
-206.60818 295.15463 -621.724
-207.76448 267.12582 -601.78461
-204.76837 175.51576 -653.45038
-202.17287 144.40923 -698.20837
-201.44051 115.10907 -710.83765
-201.90433 86.53051 -702.83911
-202.61147 57.889141 -690.64526
-203.35394 29.050686 -677.84167
-204.09167 0.00010066274 -665.11975
-204.80394 -29.25766 -652.83698
-205.52917 -58.722511 -640.33105
-206.27238 -88.402382 -627.51483
-207.01212 -118.29243 -614.75891
-207.74413 -148.38867 -602.13544
-208.4879 -178.70381 -589.30957
-209.27417 -209.27405 -575.75104
-210.04144 -240.04718 -562.52008
-210.842 -271.08243 -548.71484
-211.59297 -302.27548 -535.76477
-212.3425 -333.68097 -522.83942
-187.03575 218.20844 -421.686
-176.37903 176.37914 -636.08301
-174.12183 145.10167 -681.49414
-173.47482 115.65005 -694.51074
-173.8602 86.930206 -686.75775
-174.47459 58.158375 -674.39697
-175.11493 29.18597 -661.51453
-175.75319 0.00018169588 -648.67371
-176.37082 -29.395096 -636.24817
-176.99829 -58.999454 -623.62408
-177.63789 -88.81884 -610.75653
-178.27724 -118.85142 -597.89386
-178.91556 -149.09625 -585.05164
-179.55707 -179.55698 -572.14563
-180.23247 -210.27112 -558.55768
-180.90578 -241.20766 -545.0116
-181.59427 -272.39124 -531.16016
-182.23398 -303.72321 -518.29016
-182.89145 -335.30096 -505.06287
-152.9472 275.30515 -492.08273
-153.08995 244.94411 -488.63666
-153.5795 215.01146 -476.8179
-147.7188 177.26277 -618.30756
-145.80389 145.80405 -664.53754
-145.24501 116.19613 -678.02985
-145.55522 87.333275 -670.54089
-146.0748 58.430065 -657.99695
-146.61172 29.322489 -645.03448
-147.14861 2.3940949e-05 -632.07306
-147.6693 -29.533672 -619.50269
-148.19714 -59.278847 -606.75891
-148.7323 -89.239227 -593.83942
-149.26956 -119.4155 -580.86884
-149.81131 -149.81114 -567.78961
-150.34926 -180.41898 -554.80267
-150.91272 -211.27765 -541.19971
-151.48828 -242.38113 -527.30408
-152.06215 -273.71176 -513.44989
-152.59244 -305.18488 -500.64728
-153.15244 -336.93527 -487.12778
-121.3211 333.63303 -523.36676
-120.341 300.85251 -552.94373
-120.8452 271.90176 -537.72827
-121.56874 243.13757 -515.89368
-122.22062 213.88612 -496.22128
-118.77977 178.1698 -600.05811
-117.21228 146.5154 -647.36115
-116.74778 116.74788 -661.37878
-116.98702 87.740471 -654.15918
-117.4084 58.704395 -641.44293
-117.84199 29.460556 -628.35828
-118.27416 6.9819827e-05 -615.31598
-118.69559 -29.673723 -602.59839
-119.12237 -59.561111 -589.71936
-119.55222 -89.663986 -576.74731
-119.98567 -119.98562 -563.66675
-120.42658 -150.53316 -550.36133
-120.86013 -181.2901 -537.27771
-121.3109 -212.29396 -523.67468
-121.78314 -243.56627 -509.4234
-122.24181 -275.04391 -495.58173
-122.66424 -306.66052 -482.83383
-123.12608 -338.59668 -468.89655
-91.85508 336.80197 -488.59183
-90.20562 300.68561 -554.961
-90.417984 271.25406 -546.41565
-90.958054 242.55502 -524.68518
-91.492828 213.48332 -503.16748
-89.543396 179.08693 -581.60675
-88.339935 147.23334 -630.03009
-87.979294 117.30575 -644.54138
-88.152237 88.152412 -637.5827
-88.471596 58.981106 -624.7326
-88.799515 29.599968 -611.53809
-89.12603 6.6626541e-05 -598.40002
-89.445816 -29.815178 -585.53296
-89.768967 -59.845901 -572.53082
-90.094093 -90.093987 -559.44836
-90.423027 -120.564 -546.21301
-90.757271 -151.26208 -532.76416
-91.085236 -182.17029 -519.56812
-91.42292 -213.32001 -505.98035
-91.786102 -244.76286 -491.36719
-92.129402 -276.38809 -477.55408
-92.444817 -308.14932 -464.8627
-92.805191 -340.28558 -450.36252
-61.322937 337.27625 -483.38806
-60.566982 302.83514 -529.0141
-60.512093 272.3045 -532.32684
-60.708164 242.83269 -520.49274
-61.032795 213.61493 -500.8996
-60.004475 180.01338 -562.96436
-59.18327 147.95825 -612.52856
-58.93428 117.86872 -627.55646
-59.046085 88.569122 -620.80804
-59.260548 59.260612 -607.86395
-59.481247 29.74061 -594.54388
-59.700302 -1.6069147e-05 -581.32281
-59.916237 -29.958038 -568.28992
-60.133503 -60.133293 -555.17694
-60.352348 -90.528503 -541.96838
-60.574242 -121.1484 -528.57581
-60.799244 -151.99797 -514.99591
-61.019775 -183.0592 -501.68549
-61.244884 -214.35696 -488.09903
-61.490616 -245.96233 -473.26804
-61.720978 -277.74429 -459.36423
-61.932312 -309.66141 -446.6091
-62.177479 -341.97607 -431.81186
-30.442482 304.42493 -509.82227
-30.404743 273.6427 -514.37756
-30.46855 243.74837 -506.67523
-30.598701 214.19096 -490.96439
-30.161161 180.96707 -543.78058
-29.738173 148.69109 -594.83984
-29.609322 118.43732 -610.39331
-29.663328 88.990005 -603.87421
-29.771233 59.542576 -590.849
-29.882751 29.882835 -577.38727
-29.99333 -1.2970342e-05 -564.03931
-30.102219 -30.10218 -550.89532
-30.211782 -60.423561 -537.67017
-30.322264 -90.966743 -524.33374
-30.434168 -121.73659 -510.82559
-30.54752 -152.73737 -497.14313
-30.658739 -183.95233 -483.71756
-30.77277 -215.40933 -469.95251
-30.89521 -247.16153 -455.17294
-31.012535 -279.11261 -441.01065
-31.119633 -311.19623 -428.08301
-31.243952 -343.68326 -413.07635
5.9249235e-22 305.90808 -491.91864
9.0732575e-22 274.94437 -496.91992
6.8394185e-22 244.77092 -491.24774
5.1332484e-22 215.09348 -475.40482
4.5036713e-22 181.99419 -523.11786
1.2323132e-21 149.42862 -577.03174
4.0151511e-22 119.00881 -593.14862
6.9936475e-22 89.413536 -586.83514
1.3479545e-21 59.826694 -573.69971
9.7664454e-22 30.025702 -560.1377
1.1223446e-21 0.0001396998 -546.63269
1.2176036e-21 -30.247299 -533.37634
1.017291e-21 -60.716114 -520.00842
1.3639142e-21 -91.408913 -506.54214
4.5283352e-22 -122.32904 -492.94696
1.9122186e-21 -153.48425 -479.11542
5.2516331e-22 -184.85573 -465.54318
1.0042028e-21 -216.47292 -451.61203
6.9769565e-22 -248.37155 -436.91608
1.8296684e-21 -280.49472 -422.47501
-1.7589654e-22 -312.74759 -409.3566
1.2262247e-21 -345.38068 -394.4509
30.804419 308.04437 -466.13269
30.696863 276.27182 -479.11554
30.738573 245.90877 -474.08084
30.87067 216.09468 -458.13519
30.503502 183.02113 -502.45645
30.034458 150.17247 -559.07495
29.894894 119.57974 -575.92181
29.946045 89.838242 -569.74768
30.056257 60.112576 -556.44354
30.169806 30.169994 -542.73706
30.282402 0.0001537374 -529.14545
30.394012 -30.39389 -515.67291
30.505835 -61.011635 -502.17477
30.618731 -91.856178 -488.547
30.731842 -122.9272 -474.89343
30.847549 -154.23752 -460.92618
30.962992 -185.77792 -446.99072
31.078157 -217.54697 -433.08923
31.19932 -249.59453 -418.4639
31.320391 -281.88339 -403.84903
31.431324 -314.31317 -390.45825
31.553026 -347.08316 -375.76746
62.013142 310.06583 -441.73056
61.710171 277.69589 -460.01657
61.775059 247.10039 -456.10022
62.02964 217.10382 -440.73499
61.355953 184.06807 -481.39557
60.369415 150.92357 -540.93823
60.077728 120.15563 -558.54327
60.177666 90.266556 -552.51117
60.401169 60.401173 -539.02179
60.630459 30.315319 -525.18304
60.85685 0.0001760859 -511.51886
61.084202 -30.541874 -497.79697
61.31004 -61.309872 -484.16663
61.540047 -92.310043 -470.28433
61.767509 -123.53493 -456.55579
61.999699 -154.99919 -442.54196
62.236195 -186.70842 -428.26804
62.46653 -218.6328 -414.36624
62.707386 -250.82941 -399.82922
62.952202 -283.28485 -385.05328
63.178913 -315.89453 -371.36987
63.420269 -348.81128 -356.80301
93.364265 311.21436 -427.86697
93.029228 279.08768 -441.34753
93.116096 248.30978 -437.85226
93.488655 218.14038 -422.86203
92.571289 185.14268 -459.77396
91.009392 151.68248 -522.61945
90.552315 120.73649 -541.0108
90.699341 90.699409 -535.09497
91.03891 60.692688 -521.43164
91.386543 30.462349 -507.44412
91.727592 0.00023842431 -493.72141
92.074921 -30.691505 -479.74588
92.417007 -61.611229 -465.98163
92.768456 -92.76825 -451.84055
93.112289 -124.14953 -438.00583
93.460594 -155.76758 -423.99069
93.824692 -187.64937 -409.34088
94.169769 -219.72943 -395.45547
94.535095 -252.09346 -380.75601
94.900101 -284.7002 -366.06976
95.247566 -317.49173 -352.08838
95.609657 -350.56879 -337.51898
124.95262 312.38162 -413.77588
124.63103 280.42001 -423.48053
124.75414 249.50833 -419.76572
125.23913 219.16861 -405.12985
124.20058 186.30093 -436.47076
121.95903 152.44878 -504.11539
121.32352 121.32359 -523.29376
121.51465 91.136147 -517.52594
121.97375 60.986946 -503.67126
122.44079 30.610256 -489.57709
122.89896 0.00012392222 -475.75058
123.37061 -30.842527 -461.51724
123.83072 -61.915325 -447.63208
124.30804 -93.230927 -433.2276
124.77056 -124.77053 -419.26987
125.23499 -156.54359 -405.25467
125.73312 -188.59952 -390.22229
126.19109 -220.83443 -376.40164
126.69211 -253.38419 -361.28204
127.16991 -286.13214 -346.8634
127.64219 -319.10529 -332.61108
128.14452 -352.39737 -317.45169
157.2388 314.47769 -388.47446
156.53081 281.75558 -405.56683
156.70169 250.72278 -401.44122
157.31386 220.23955 -386.66217
158.17938 189.81537 -365.76675
153.21994 153.22006 -485.49823
152.39851 121.91892 -505.32938
152.63177 91.579117 -499.69772
153.21002 61.28413 -485.73758
153.79703 30.759623 -471.56589
154.37537 8.3919738e-05 -457.604
154.97389 -30.994612 -443.15402
155.55664 -62.222626 -429.08508
156.16438 -93.698532 -414.4129
156.74706 -125.39758 -400.34589
157.32758 -157.32748 -386.33096
157.96638 -189.55952 -370.90881
158.5321 -221.94476 -357.25137
159.17941 -254.68701 -341.62378
159.76666 -287.57986 -327.44638
160.36708 -320.73401 -312.95096
161.02608 -354.25717 -297.0415
189.37967 315.633 -374.5303
188.86601 283.29916 -384.86383
188.95235 251.93657 -383.12711
189.71547 221.33492 -367.77441
190.87578 190.8759 -344.43082
184.79721 153.99771 -466.72198
183.77995 122.52 -487.18762
184.05818 92.029198 -481.59045
184.75366 61.584633 -467.59821
185.46046 30.910263 -453.37814
186.16129 0.00016118449 -439.27893
186.88663 -31.147663 -424.68631
187.6037 -62.53458 -410.2598
188.34111 -94.170403 -395.42432
189.04662 -126.03092 -381.2305
189.74318 -158.1192 -367.21683
190.52867 -190.52844 -351.41403
191.20001 -223.06659 -337.90723
192.00009 -256.00009 -321.81137
192.69821 -289.04718 -307.76636
193.42526 -322.37524 -293.13889
194.2524 -356.12924 -276.49829
222.14383 317.34842 -353.82156
221.09212 284.26141 -371.95779
221.45113 253.08707 -365.76678
222.94109 222.94112 -340.07336
226.09175 193.79303 -285.74216
216.69669 154.78348 -447.7543
215.4724 123.1272 -468.8663
215.79407 92.48333 -463.31943
216.6144 61.889881 -449.17313
217.43654 31.062515 -434.99606
218.26224 0.00013678777 -420.75714
219.11597 -31.302048 -406.03528
219.97548 -62.849976 -391.2135
220.8427 -94.646858 -376.259
221.66951 -126.66814 -362.00104
222.4904 -158.92174 -347.84503
223.41145 -191.49553 -331.96204
224.20932 -224.20921 -318.20343
225.14851 -257.3125 -302.00772
225.97618 -290.54068 -287.73499
226.82353 -324.03357 -273.12302
255.52431 319.40549 -328.99088
254.01694 285.76907 -351.73511
256.18076 256.18094 -319.08569
323.54846 242.66153 697.41498
248.92435 155.5779 -428.57648
247.48151 123.74095 -450.34726
247.8457 92.9422 -444.85178
248.79156 62.198086 -430.58008
249.72923 31.216127 -416.43167
250.68332 6.1795537e-05 -402.03555
251.66978 -31.458517 -387.15094
252.6588 -63.164711 -372.22791
253.65771 -95.121536 -357.15527
254.61113 -127.30549 -342.76974
255.57492 -159.73425 -328.22681
256.62207 -192.46652 -312.42648
257.56073 -225.36549 -298.26355
258.62756 -258.62744 -282.16629
259.59985 -292.04971 -267.49579
260.57837 -325.72284 -252.73123
367.18408 244.78949 740.22705
281.51239 156.39589 -408.82663
279.8262 124.36736 -431.44254
280.21591 93.405434 -426.21561
281.29297 62.509747 -411.76974
282.34677 31.372068 -397.63583
283.43088 0.0001310185 -383.09537
284.55301 -31.616854 -368.04498
285.66852 -63.481785 -353.08368
286.80487 -95.601486 -337.84271
287.88586 -127.9492 -323.34369
288.99954 -160.55515 -308.40707
290.17245 -193.44821 -292.6752
291.2579 -226.53372 -278.1171
292.44424 -259.95044 -262.20529
293.57965 -293.57953 -246.97719
294.68823 -327.43134 -232.10834
413.07687 247.84624 801.7243
314.44626 157.22328 -388.85245
312.50778 125.00315 -412.25192
312.91165 93.873604 -407.37692
314.12042 62.824284 -392.78571
315.29266 31.529282 -378.63556
316.50937 8.0527585e-05 -363.94855
317.77014 -31.776833 -348.72995
319.02487 -63.804787 -333.58395
320.28683 -96.085945 -318.35037
321.50018 -128.5999 -303.70419
322.77087 -161.38522 -288.36572
324.06686 -194.43997 -272.7215
325.30487 -227.71323 -257.77744
326.6073 -261.28586 -242.05595
327.923 -295.13065 -226.1741
329.1564 -329.15631 -211.28546
347.74203 158.06471 -368.53873
345.5253 125.64571 -392.86423
345.93826 94.346893 -388.33261
347.27704 63.141453 -373.64151
348.56937 31.688171 -359.45966
349.92126 6.5807733e-05 -344.62399
351.33261 -31.939095 -329.13702
352.72546 -64.131821 -313.85178
354.11139 -96.575783 -298.64316
355.46127 -129.25854 -283.83044
356.89169 -162.22339 -268.13293
358.31064 -195.44208 -252.56218
359.70981 -228.90616 -237.20764
361.12628 -262.63712 -221.66426
362.63116 -296.69803 -205.14993
363.99127 -330.90112 -190.22461
381.41052 158.92119 -347.86111
378.87292 126.291 -373.38733
379.30591 94.826538 -369.03186
380.76697 63.461185 -354.33484
382.18631 31.848951 -340.05716
383.67453 0.00016113484 -325.08701
385.2413 -32.103352 -309.32639
386.77322 -64.462112 -293.91684
388.28088 -97.070213 -278.75079
389.79532 -129.93166 -263.51666
391.37045 -163.07104 -247.67184
392.90747 -196.45364 -232.21078
394.47708 -230.11148 -216.42162
396.05072 -264.03372 -200.59221
397.68042 -298.26031 -184.19862
399.19562 -332.66296 -168.95689
415.44586 159.787 -326.95847
412.55453 126.93998 -353.80573
413.01633 95.311607 -349.51794
414.59967 63.784664 -334.8154
416.15305 32.01202 -320.39194
417.77124 0.00017370658 -305.36627
419.49854 -32.269054 -289.32791
421.17346 -64.795876 -273.77502
422.80377 -97.570023 -258.63675
424.48703 -130.61133 -243.00714
426.20953 -163.92656 -227.01312
427.88843 -197.487 -211.42355
429.6106 -231.32867 -195.4324
431.34671 -265.44409 -179.31207
433.09879 -299.83749 -163.04335
434.77878 -334.44504 -147.44377
449.84265 160.65813 -305.92526
446.59344 127.59829 -333.94064
447.07144 95.801193 -329.81937
448.77902 64.111435 -315.09634
450.46909 32.17651 -300.52405
452.22012 0.00012030355 -285.42627
454.11108 -32.436405 -269.12186
455.93176 -65.133064 -253.42369
457.68811 -98.075928 -238.28038
459.54553 -131.29866 -222.26509
461.41614 -164.79141 -206.13626
463.2373 -198.5303 -190.43385
465.11368 -232.55682 -174.25551
467.00534 -266.86008 -157.9456
468.87924 -301.42233 -141.78812
470.72858 -336.23459 -125.84283
514.8316 274.57687 -41.509884
512.25415 239.05199 -62.251266
513.112 205.24495 -55.348328
484.60211 161.53416 -284.77829
480.99536 128.26558 -313.80292
481.47821 96.295639 -309.91727
483.3103 64.441475 -295.17395
485.13776 32.342556 -280.46765
487.03333 0.00013102098 -265.21344
489.08676 -32.605747 -248.68817
491.05161 -65.473427 -232.87677
492.95099 -98.590225 -217.59148
494.9707 -131.99205 -201.33804
496.99188 -165.66388 -185.07307
498.96167 -199.58461 -169.22134
500.98248 -233.79179 -152.95903
503.0264 -268.28061 -136.51086
505.03546 -303.02112 -120.34321
507.06516 -338.04333 -104.0096
539.99994 337.50012 -110.56978
539.62744 303.54065 -113.37995
540.48615 270.2431 -106.90141
542.45917 237.32599 -92.016136
544.80872 204.30348 -74.290375
519.77386 162.42934 -263.16364
515.76123 128.94029 -293.43674
516.24432 96.795952 -289.79221
518.19678 64.774704 -275.06198
520.16852 32.510616 -260.18613
522.20709 0.00016109018 -244.80652
524.41583 -32.775978 -228.1427
526.53131 -65.816269 -212.18277
528.58557 -99.109726 -196.68457
530.76746 -132.69179 -180.22389
532.94153 -166.54417 -163.821
535.0675 -200.65019 -147.78235
537.23187 -235.03879 -131.45334
539.43304 -269.71643 -114.84679
541.57727 -304.63715 -98.669388
543.79718 -339.8732 -81.921593
567.34509 333.7326 -156.04839
567.28259 300.3262 -156.49179
571.36829 268.87924 -127.48072
574.80463 236.6844 -103.08108
577.77161 203.91953 -82.013504
555.39514 163.35165 -240.90027
550.91132 129.62634 -272.73837
551.32623 97.293076 -269.79211
553.44592 65.11142 -254.74113
555.56036 32.680016 -239.72685
557.74658 0.00012816129 -224.20323
560.11322 -32.947727 -207.39912
562.38214 -66.162445 -191.28833
564.60272 -99.63559 -175.52103
566.94562 -133.39885 -158.88463
569.27789 -167.43457 -142.32417
571.55841 -201.72643 -126.13101
573.87262 -236.30051 -109.69849
576.22888 -271.16635 -92.967934
578.52917 -306.28006 -76.634346
580.92651 -341.72141 -59.611866
606.09906 336.72174 -119.96405
601.77032 300.88538 -148.99315
604.77704 268.79001 -128.82991
608.33435 236.5746 -104.97408
611.92279 203.97437 -80.909439
591.42578 164.28514 -218.36565
586.43988 130.32008 -251.80147
586.76782 97.794716 -249.60242
589.06342 65.451591 -234.20766
591.32581 32.851444 -219.03593
593.6676 -3.3788849e-05 -203.33144
596.18695 -33.121414 -186.43666
598.61212 -66.512367 -170.17268
601.00677 -100.16766 -154.11374
603.51154 -134.11366 -137.31674
606.00488 -168.33458 -120.59603
608.44019 -202.81332 -104.26429
610.90613 -237.57458 -87.727379
613.40314 -272.62344 -70.981941
615.88171 -307.9408 -54.360039
618.43372 -343.57422 -37.246151
814.98138 471.83157 993.17981
643.25519 338.55557 -97.830017
639.19189 302.77527 -123.64493
640.35449 269.62311 -116.25856
643.29547 237.00363 -97.574219
647.22791 204.38795 -72.590698
627.87329 165.22986 -195.55429
622.34009 131.01909 -230.70772
622.5769 98.301849 -229.2034
625.05237 65.795204 -213.47604
627.46558 33.024601 -198.14413
629.96918 0.00016123831 -182.2386
632.64288 -33.297043 -165.25189
635.2301 -66.86631 -148.81502
637.79895 -100.70497 -132.49458
640.47131 -134.836 -115.51659
643.11731 -169.24117 -98.706123
645.7215 -203.91197 -82.16069
648.34406 -238.86349 -65.499519
650.98499 -274.09879 -48.721062
653.64752 -309.62256 -31.805313
656.39478 -345.47079 -14.351572
848.85248 466.86902 938.72345
682.92554 341.46283 -62.734276
676.91113 304.61011 -99.0345
677.49207 270.99698 -95.528259
679.93555 237.97758 -80.780708
683.70801 205.11255 -58.011784
664.87659 166.21921 -171.66966
658.58167 131.71635 -209.66277
658.76196 98.814377 -208.57448
661.42395 66.142448 -192.508
663.99402 33.199776 -176.99625
666.65454 5.5385568e-05 -160.93848
669.48724 -33.474327 -143.84158
672.24872 -67.224854 -127.17479
674.98792 -101.24815 -110.64219
677.83447 -135.56685 -93.461922
680.63171 -170.15776 -76.579025
683.40594 -205.02173 -59.835091
686.19043 -240.16653 -43.028992
689.00397 -275.60135 -26.047945
691.85962 -311.33667 -8.8124743
694.79004 -347.3949 8.8740616
884.42029 463.26801 899.20593
728.36768 346.84186 2.1952569
714.97156 306.41647 -74.80732
714.90411 272.34454 -75.19516
717.2981 239.09941 -61.433758
721.12024 206.03436 -39.463566
702.18317 167.1866 -148.31668
695.21106 132.42134 -188.39261
