# .PCD v0.7 - Point Cloud Data file format
VERSION 0.7
FIELDS x y z
SIZE 4 4 4
TYPE F F F
COUNT 1 1 1
WIDTH 1487
HEIGHT 1
VIEWPOINT 0 0 0 1 0 0 0
POINTS 1487
DATA ascii
-47.245251 -66.572861 -78.838089
-48.818508 25.571575 -57.450619
-47.859592 22.790264 -62.962585
-47.352497 20.293909 -65.877464
-47.070347 17.931547 -67.499283
-46.923946 15.641297 -68.340805
-46.800205 13.371475 -69.052078
-46.740616 11.128706 -69.394623
-46.672722 8.890027 -69.784882
-46.665791 6.6665258 -69.824715
-46.719936 4.4495039 -69.513466
-46.856373 2.2312415 -68.72924
-51.034908 -1.1685252e-05 -44.710503
-50.993904 -2.4282899 -44.946178
-42.848812 -4.0808539 -91.765198
-41.740387 -5.9629292 -98.136566
-40.761234 -7.7640619 -103.76485
-40.040844 -9.5335522 -107.90576
-40.134762 -11.467093 -107.3659
-40.286983 -13.429012 -106.4909
-40.450272 -15.409642 -105.55231
-40.615017 -17.406448 -104.60535
-40.787689 -19.422718 -103.61281
-40.966656 -21.458744 -102.58408
-41.144703 -23.511276 -101.56062
-41.318081 -25.577875 -100.56405
-41.502544 -27.668381 -99.503723
-41.675446 -29.768192 -98.509842
-41.860538 -31.893764 -97.4459
-42.044128 -34.03574 -96.390617
-42.222691 -36.190887 -95.364227
-42.408779 -38.369862 -94.294571
-42.591167 -40.563038 -93.246185
-42.777824 -42.777847 -92.173248
-42.974152 -45.020561 -91.044746
-43.167805 -47.279034 -89.93161
-43.359123 -49.55331 -88.831863
-43.552589 -51.848339 -87.719795
-43.749275 -54.165787 -86.589226
-43.946247 -56.502331 -85.457008
-44.151806 -58.869087 -84.275444
-44.362961 -61.263157 -83.061668
-44.576611 -63.680882 -81.833595
-44.808685 -66.146172 -80.499596
-46.504215 25.577309 -57.387875
-45.682041 22.841005 -62.350151
-45.232098 20.354422 -65.065758
-44.944 17.977589 -66.804596
-44.731339 15.655953 -68.088104
-44.63242 13.389714 -68.685158
-44.517941 11.129469 -69.376091
-44.444736 8.8889322 -69.817917
-44.386379 6.6579404 -70.170143
-44.384129 4.4383903 -70.183716
-44.448761 2.2224233 -69.793648
-44.575676 -1.3749396e-05 -69.027657
-49.062332 -2.4531267 -41.94828
-40.61161 -4.0611768 -92.952888
-39.559361 -5.9339247 -99.303764
-38.6325 -7.7265201 -104.89789
-37.932793 -9.4832211 -109.12099
-38.016819 -11.405059 -108.61384
-38.160465 -13.35618 -107.74686
-38.313213 -15.325301 -106.82494
-38.468513 -17.310844 -105.88761
-38.63031 -19.315172 -104.91109
-38.79752 -21.33865 -103.9019
-38.967419 -23.38047 -102.87646
-39.130951 -25.435131 -101.88945
-39.304672 -27.51329 -100.84096
-39.465214 -29.598923 -99.872009
-39.641411 -31.713144 -98.808571
-39.817249 -33.844673 -97.747299
-39.982662 -35.984417 -96.748909
-40.15971 -38.151745 -95.680344
-40.332363 -40.332375 -94.638306
-40.5037 -42.528904 -93.604179
-40.684052 -44.752476 -92.515656
-40.867241 -46.997349 -91.410011
-41.048931 -49.258732 -90.313438
-41.234318 -51.542919 -89.194511
-41.419292 -53.845089 -88.078102
-41.603256 -56.164417 -86.967781
-41.794693 -58.512581 -85.812363
-41.996235 -60.894554 -84.595947
-42.197556 -63.296337 -83.380882
-42.411072 -65.737175 -82.092171
-45.176125 28.532276 -51.052994
-44.177498 25.576435 -57.397446
-43.540901 22.91625 -61.441845
-43.114002 20.4224 -64.15403
-42.810795 18.025587 -66.080376
-42.590881 15.691362 -67.477539
-42.44928 13.405028 -68.377151
-42.329819 11.139406 -69.136078
-42.244839 8.8936319 -69.67601
-42.14389 6.6542859 -70.317375
-42.079842 4.4294424 -70.724258
-42.09671 2.2156041 -70.617104
-42.171329 -7.2032544e-06 -70.143028
-42.289894 -2.2258029 -69.389748
-38.402081 -4.0423408 -94.089798
-37.407375 -5.9064445 -100.40934
-36.529285 -7.6903911 -105.98802
-35.85096 -9.4344797 -110.29754
-35.921886 -11.343768 -109.84693
-36.055878 -13.283766 -108.99564
-36.199306 -15.241824 -108.08444
-36.345802 -17.216448 -107.15371
-36.495319 -19.20808 -106.20381
-36.651833 -21.2195 -105.20945
-36.812717 -23.250158 -104.18733
-36.967514 -25.293573 -103.20387
-37.130119 -27.359051 -102.17081
-37.285099 -29.435623 -101.18619
-37.447514 -31.534761 -100.15435
-37.613407 -33.654125 -99.100365
-37.768787 -35.780964 -98.113243
-37.936188 -37.936203 -97.049698
-38.09898 -40.104206 -96.01545
-38.26041 -42.287838 -94.989838
-38.4217 -44.4883 -93.965134
-38.593803 -46.71883 -92.871727
-38.765911 -48.96748 -91.77832
-38.942162 -51.239697 -90.658554
-39.119625 -53.532131 -89.531082
-39.293682 -55.838409 -88.425255
-39.4701 -58.166473 -87.304466
-39.657681 -60.530155 -86.112709
-39.847603 -62.917274 -84.90612
-40.048702 -65.342636 -83.628487
-42.811871 28.541233 -50.96286
-41.917179 25.616047 -56.962818
-41.418362 23.010187 -60.307915
-40.986275 20.493126 -63.205578
-40.685944 18.082626 -65.219635
-40.460567 15.73465 -66.731049
-40.290665 13.430199 -67.87043
-40.163189 11.156422 -68.725319
-40.038982 8.8975344 -69.558258
-39.931274 6.6552095 -70.280579
-39.846844 4.4274092 -70.846764
-39.830463 2.212796 -70.956635
-39.858349 -1.9148487e-05 -70.7696
-39.893482 -2.2163124 -70.534027
-36.212475 -4.0236168 -95.219383
-35.276802 -5.879487 -101.49415
-34.445969 -7.6546736 -107.06584
-33.796211 -9.3878565 -111.42321
-33.852566 -11.284209 -111.04528
-33.97525 -13.212618 -110.22256
-34.109146 -15.159633 -109.32463
-34.246544 -17.123285 -108.40322
-34.384731 -19.102646 -107.47652
-34.529652 -21.101463 -106.50466
-34.682117 -23.121426 -105.48221
-34.828133 -25.153669 -104.50301
-34.979366 -27.206194 -103.48878
-35.129131 -29.274288 -102.48445
-35.277481 -31.357777 -101.48962
-35.431629 -33.463223 -100.45584
-35.581635 -35.58165 -99.449913
-35.736031 -37.721386 -98.414497
-35.888161 -39.875748 -97.394302
-36.040768 -42.047581 -96.370895
-36.192657 -44.235485 -95.352287
-36.348232 -46.444977 -94.309006
-36.51178 -48.682381 -93.212204
-36.676811 -50.940025 -92.105492
-36.843094 -53.217827 -90.990349
-37.010643 -55.515995 -89.866737
-37.174595 -57.827164 -88.767273
-37.350235 -60.175396 -87.589409
-37.522438 -62.537415 -86.434578
-37.712715 -64.949707 -85.158546
-37.935268 -67.440491 -83.666069
-41.222206 31.522852 -45.36208
-40.481297 28.575026 -50.623013
-39.74715 25.718731 -55.835884
-39.286045 23.109428 -59.110046
-38.869091 20.577736 -62.070671
-38.572403 18.151709 -64.177338
-38.345516 15.78931 -65.788391
-38.150978 13.465046 -67.169739
-38.001831 11.176996 -68.228775
-37.861954 8.9086847 -69.222008
-37.724598 6.657268 -70.197281
-37.655415 4.4300246 -70.688545
-37.632587 2.2136683 -70.850624
-37.590408 -1.7801494e-05 -71.150116
-37.571857 -2.2101173 -71.281853
-34.0415 -4.0049038 -96.349609
-33.165276 -5.8527193 -102.57134
-32.383923 -7.6197567 -108.11944
-31.75432 -9.3395224 -112.59
-31.803606 -11.224811 -112.24006
-31.916397 -13.142063 -111.43916
-32.041801 -15.07851 -110.54871
-32.170574 -17.0315 -109.63435
-32.300388 -19.000238 -108.7126
-32.434982 -20.987356 -107.7569
-32.576302 -22.995052 -106.75345
-32.71352 -25.016241 -105.77911
-32.851795 -27.05444 -104.79727
-32.992599 -29.11113 -103.79746
-33.131458 -31.18257 -102.81146
-33.274467 -33.274487 -101.79603
-33.417107 -35.382828 -100.7832
-33.560432 -37.508732 -99.76548
-33.701187 -39.648472 -98.76606
-33.844002 -41.807312 -97.751976
-33.986259 -43.982243 -96.741837
-34.135082 -46.182781 -95.685104
-34.282848 -48.399334 -94.635887
-34.437351 -50.643181 -93.538795
-34.592915 -52.906815 -92.434235
-34.749538 -55.190456 -91.322083
-34.906303 -57.492744 -90.208969
-35.06649 -59.819324 -89.071518
-35.226971 -62.165257 -87.932014
-35.404179 -64.560577 -86.673737
-35.594711 -67.001839 -85.320801
-38.848499 31.564392 -44.976337
-38.058094 28.543556 -50.939491
-37.604404 25.85301 -54.36232
-37.169983 23.23122 -57.639751
-36.748928 20.671263 -60.816387
-36.472038 18.236008 -62.905346
-36.225204 15.848512 -64.76757
-36.010464 13.503905 -66.387665
-35.836937 11.199034 -67.696846
-35.684391 8.9210939 -68.84771
-35.556816 6.6668911 -69.810165
-35.498447 4.437295 -70.250557
-35.42709 2.2141795 -70.78891
-35.346722 -1.2465161e-05 -71.39521
-35.281429 -2.205112 -71.887825
-31.890638 -3.9863465 -97.469368
-31.060406 -5.823843 -103.73297
-30.340702 -7.5851889 -109.16273
-29.739746 -9.2936831 -113.69659
-29.773569 -11.165104 -113.44141
-29.878143 -13.071698 -112.65245
-29.996372 -14.998204 -111.76048
-30.116745 -16.940683 -110.85236
-30.237804 -18.898642 -109.93902
-30.362846 -20.874474 -108.99565
-30.491674 -22.868771 -108.02373
-30.623989 -24.882008 -107.02549
-30.750326 -26.906549 -106.07234
-30.881014 -28.950962 -105.0864
-31.011345 -31.011362 -104.1031
-31.143671 -33.090176 -103.10478
-31.275141 -35.184551 -102.11293
-31.409227 -37.298481 -101.1013
-31.540115 -39.425163 -100.11383
-31.6723 -41.569904 -99.116577
-31.809622 -43.738239 -98.080589
-31.948761 -45.926361 -97.030869
-32.083038 -48.124569 -96.017822
-32.222996 -50.34845 -94.961906
-32.367813 -52.597706 -93.86937
-32.513607 -54.866734 -92.769409
-32.662247 -57.158951 -91.648026
-32.810055 -59.46825 -90.532867
-32.958988 -61.79813 -89.409241
-33.120567 -64.171112 -88.190262
-33.295361 -66.590729 -86.871552
-37.162415 34.68491 -39.005611
-36.362335 31.514011 -45.444191
-35.82 28.655991 -49.80854
-35.445034 25.993017 -52.82605
-35.002853 23.335226 -56.384407
-34.615788 20.769466 -59.499306
-34.345921 18.317806 -61.671024
-34.106876 15.916525 -63.594696
-33.884853 13.55393 -65.381401
-33.69566 11.231871 -66.903923
-33.517715 8.9380455 -68.335899
-33.422771 6.6845369 -69.099937
-33.330414 4.4440408 -69.843201
-33.234604 2.2156262 -70.614212
-33.125866 -1.4860928e-05 -71.489273
-33.040951 -2.2027447 -72.1726
-29.758646 -3.9678345 -98.586533
-28.983044 -5.7966208 -104.82812
-28.314798 -7.550631 -110.20573
-27.740246 -9.246767 -114.82938
-27.768116 -11.107263 -114.60509
-27.859825 -13.001267 -113.86707
-27.967009 -14.915751 -113.00454
-28.0835 -16.850115 -112.06709
-28.196127 -18.797434 -111.16074
-28.311575 -20.761835 -110.23167
-28.430609 -22.744501 -109.27375
-28.55632 -24.748825 -108.26213
-28.67135 -26.759945 -107.33643
-28.791815 -28.79183 -106.36702
-28.915565 -30.843279 -105.37114
-29.037361 -32.909023 -104.391
-29.157785 -34.989361 -103.42191
-29.280796 -37.089031 -102.43198
-29.402409 -39.20322 -101.45334
-29.527969 -41.339169 -100.44289
-29.656042 -43.495541 -99.412247
-29.786196 -45.672176 -98.364876
-29.911076 -47.857742 -97.359879
-30.03652 -50.060875 -96.350403
-30.168558 -52.292179 -95.287842
-30.304955 -54.548931 -94.190201
-30.4443 -56.829376 -93.06884
-30.581478 -59.124207 -91.964905
-30.718773 -61.437561 -90.860046
-30.865894 -63.789532 -89.676117
-31.02499 -66.186653 -88.395813
-34.70314 34.703117 -38.848518
-34.045929 31.614063 -44.515141
-33.640972 28.835106 -48.006744
-33.225094 26.105417 -51.592525
-32.830914 23.450636 -54.991241
-32.482044 20.88131 -57.999249
-32.212349 18.407043 -60.324596
-31.980045 15.990003 -62.327564
-31.749424 13.606884 -64.316032
-31.541552 11.264821 -66.10833
-31.392616 8.969305 -67.392487
-31.286619 6.7042646 -68.306427
-31.170246 4.452878 -69.309799
-31.04026 2.2171431 -70.430565
-30.940414 -7.9123192e-06 -71.291466
-30.898455 -2.2070544 -71.653236
-27.633648 -3.9476824 -99.80304
-26.92568 -5.769804 -105.90727
-26.305986 -7.5160127 -111.25039
-25.773819 -9.2049465 -115.83884
-25.78264 -11.049718 -115.76279
-25.863298 -12.931666 -115.06734
-25.959911 -14.834247 -114.23433
-26.070375 -16.759541 -113.28188
-26.176041 -18.697186 -112.37082
-26.282564 -20.650604 -111.45233
-26.393124 -22.62269 -110.49909
-26.507231 -24.613878 -109.51521
-26.614246 -26.614264 -108.5925
-26.726538 -28.635597 -107.62431
-26.840115 -30.674429 -106.64503
-26.950771 -32.725956 -105.69093
-27.067547 -34.801144 -104.68407
-27.178886 -36.885647 -103.72408
-27.288805 -38.984032 -102.77634
-27.409409 -41.114128 -101.73648
-27.523144 -43.250671 -100.75581
-27.643251 -45.413925 -99.720238
-27.760015 -47.588612 -98.71347
-27.876778 -49.779964 -97.706741
-27.995893 -51.992378 -96.67971
-28.123211 -54.237637 -95.58194
-28.251783 -56.503578 -94.473366
-28.379101 -58.78529 -93.37561
-28.504824 -61.081787 -92.29158
-28.63797 -63.412666 -91.143578
-28.781235 -65.78569 -89.908325
-33.335728 38.464291 -28.528816
-32.321369 34.80761 -37.94762
-31.8095 31.809486 -42.700542
-31.367899 28.954973 -46.800983
-30.998274 26.229294 -50.233128
-30.627962 23.559965 -53.671642
-30.347698 21.009937 -56.274033
-30.079546 18.510466 -58.763916
-29.831593 16.063156 -61.066296
-29.615818 13.668831 -63.069859
-29.414202 11.313143 -64.941933
-29.263762 9.0042238 -66.338829
-29.129633 6.7222066 -67.584267
-28.987665 4.4596291 -68.902504
-28.882488 2.2217078 -69.87912
-28.823204 -1.7456347e-05 -70.429604
-28.73929 -2.2107284 -71.208794
-25.530046 -3.9277184 -101.00801
-24.893095 -5.7445679 -106.92238
-24.312399 -7.4807487 -112.3144
-23.814001 -9.1592417 -116.94224
-23.817131 -10.99254 -116.91318
-23.890753 -12.864267 -116.22956
-23.979603 -14.756696 -115.40456
-24.08045 -16.671099 -114.46814
-24.176872 -18.597612 -113.57281
-24.274809 -20.540237 -112.66344
-24.377193 -22.502037 -111.71276
-24.479692 -24.479706 -110.76101
-24.579042 -26.469751 -109.83849
-24.682638 -28.479982 -108.87656
-24.788807 -30.509321 -107.89074
-24.888901 -32.547043 -106.96133
-24.996618 -34.610714 -105.96111
-25.099508 -36.683914 -105.00574
-25.200937 -38.770687 -104.06393
-25.313871 -40.891659 -103.01529
-25.418339 -43.015667 -102.04525
-25.524164 -45.158154 -101.06263
-25.632027 -47.320686 -100.06107
-25.740889 -49.501724 -99.050247
-25.850845 -51.701714 -98.029236
-25.964029 -53.925301 -96.97831
-26.082045 -56.176723 -95.882469
-26.200277 -58.446789 -94.78463
-26.316374 -60.730103 -93.706619
-26.435957 -63.039608 -92.596222
-26.56645 -65.394348 -91.38456
-30.822973 38.528702 -28.010473
-30.033363 35.03891 -35.95332
-29.488924 31.946323 -41.429981
-29.106195 29.106178 -45.279911
-28.752241 26.356203 -48.840427
-28.439817 23.699831 -51.983154
-28.166727 21.125034 -54.730267
-27.926235 18.61747 -57.149403
-27.681282 16.147392 -59.613457
-27.452761 13.726362 -61.912182
-27.278929 11.366209 -63.66082
-27.120565 9.0401745 -65.253815
-26.973612 6.7433858 -66.73204
-26.849474 4.4748888 -67.980789
-26.76524 2.2304246 -68.828133
-26.667519 -9.4462548e-06 -69.811134
-26.576359 -2.2147136 -70.728119
-23.458746 -3.9098043 -102.08887
-22.879488 -5.7198853 -107.91577
-22.330244 -7.4434361 -113.44072
-21.878035 -9.1158648 -117.98962
-21.870884 -10.935462 -118.06153
-21.939709 -12.798175 -117.36922
-22.020157 -14.680117 -116.55997
-22.112213 -16.584177 -115.63393
-22.200426 -18.500364 -114.7466
-22.287523 -20.430252 -113.87048
-22.381563 -22.38158 -112.92449
-22.475645 -24.348637 -111.9781
-22.566374 -26.327444 -111.06546
-22.660625 -28.325798 -110.11736
-22.758339 -30.344465 -109.13443
-22.850304 -32.371273 -108.20935
-22.946302 -34.419464 -107.24368
-23.041092 -36.481743 -106.29015
-23.135359 -38.558952 -105.34189
-23.234509 -40.660397 -104.34454
-23.331921 -42.775196 -103.36465
-23.429632 -44.906807 -102.38174
-23.528917 -47.05785 -101.38301
-23.629198 -49.227512 -100.37425
-23.729881 -51.414753 -99.361481
-23.83289 -53.624012 -98.325294
-23.937185 -55.853443 -97.276146
-24.045147 -58.109119 -96.19014
-24.151628 -60.379089 -95.119003
-24.260578 -62.67318 -94.023064
-24.380602 -65.014961 -92.815697
-24.513323 -67.411652 -91.480652
-27.872936 35.474628 -32.196487
-27.271711 32.230194 -38.794125
-26.85618 29.29763 -43.354034
-26.515165 26.51516 -47.096218
-26.244608 23.858719 -50.065243
-25.993225 21.267176 -52.823853
-25.760565 18.734943 -55.376987
-25.521704 16.241062 -57.998184
-25.296232 13.797929 -60.472401
-25.115583 11.416169 -62.454807
-24.962494 9.0772552 -64.134789
-24.830336 6.7718954 -65.585037
-24.714674 4.4935589 -66.854279
-24.606363 2.2369304 -68.042824
-24.512079 -1.3830502e-05 -69.077477
-24.430271 -2.2209432 -69.975235
-21.414059 -3.8934798 -103.07422
-20.883371 -5.6954813 -108.89783
-20.376442 -7.4096303 -114.46072
-19.957367 -9.0715446 -119.05951
-19.943863 -10.878482 -119.20771
-20.009319 -12.733224 -118.48941
-20.082615 -14.605555 -117.6851
-20.159397 -16.494074 -116.8425
-20.24102 -18.400949 -115.9468
-20.324284 -20.324303 -115.03308
-20.40799 -22.263275 -114.11452
-20.492947 -24.218946 -113.18222
-20.576357 -26.188103 -112.26691
-20.661776 -28.175165 -111.32954
-20.748354 -30.179438 -110.37946
-20.832832 -32.196205 -109.45244
-20.918583 -34.230423 -108.51142
-21.006351 -36.28371 -107.54829
-21.093937 -38.352623 -106.58717
-21.179527 -40.433659 -105.6479
-21.268028 -42.536072 -104.67672
-21.357611 -44.656845 -103.69367
-21.447609 -46.794796 -102.70605
-21.538095 -48.950233 -101.7131
-21.629763 -51.124908 -100.70716
-21.723545 -53.321434 -99.67804
-21.818775 -55.538719 -98.632988
-21.914633 -57.774948 -97.581085
-22.012917 -60.035229 -96.502563
-22.111576 -62.314449 -95.419884
-22.220119 -64.640358 -94.228752
-22.336607 -67.009834 -92.950447
-25.155457 32.70208 -34.41243
-24.65587 29.587036 -40.442963
-24.317169 26.748882 -44.531441
-24.030678 24.030661 -47.989689
-23.79249 21.413231 -50.864883
-23.556171 18.844919 -53.717487
-23.339586 16.337692 -56.331902
-23.138287 13.882957 -58.761822
-22.949524 11.474744 -61.040375
-22.794008 9.1175871 -62.917625
-22.657475 6.7972307 -64.565727
-22.545576 4.5091033 -65.916458
-22.451607 2.2451463 -67.050766
-22.358173 -1.4164951e-05 -68.178619
-22.272303 -2.2272503 -69.215172
-19.378296 -3.8756723 -104.14893
-18.898685 -5.6696258 -109.93832
-18.447678 -7.3790851 -115.38247
-18.060228 -9.0301247 -120.05938
-18.039732 -10.823854 -120.3068
-18.095278 -12.666715 -119.63631
-18.162397 -14.529934 -118.82612
-18.232128 -16.408934 -117.98438
-18.305838 -18.305853 -117.09464
-18.383615 -20.221996 -116.15578
-18.457001 -22.148417 -115.26993
-18.532488 -24.092249 -114.35873
-18.609045 -26.052681 -113.4346
-18.684246 -28.026384 -112.52683
-18.760115 -30.016197 -111.61102
-18.837008 -32.02293 -110.68285
-18.91325 -34.043869 -109.76251
-18.993345 -36.087376 -108.79568
-19.07341 -38.146839 -107.8292
-19.150866 -40.216839 -106.89423
-19.229313 -42.304508 -105.94728
-19.309196 -44.411171 -104.98301
-19.389931 -46.535847 -104.00846
-19.470972 -48.677444 -103.03022
-19.552879 -50.837498 -102.0415
-19.636801 -53.019379 -101.02848
-19.721571 -55.220402 -100.00524
-19.807076 -57.44054 -98.973083
-19.897455 -59.692387 -97.882111
-19.986708 -61.958813 -96.804733
-20.082878 -64.265221 -95.643867
-20.187679 -66.619362 -94.378784
-27.473768 39.684326 30.420742
-22.510147 30.013515 -36.152832
-22.098635 27.009441 -41.672165
-21.814125 24.237898 -45.488106
-21.563929 21.563915 -48.843819
-21.33761 18.966745 -51.879242
-21.131674 16.435726 -54.641338
-20.954849 13.969885 -57.012951
-20.780649 11.544786 -59.349388
-20.621635 9.1651554 -61.482128
-20.482723 6.8275638 -63.345272
-20.383223 4.5295849 -64.679794
-20.29318 2.2547812 -65.887459
-20.203857 -1.2766429e-05 -67.085487
-20.120815 -2.2356679 -68.199272
-17.355938 -3.8568916 -105.28264
-16.93111 -5.6437197 -110.98054
-16.536482 -7.3495641 -116.27341
-16.177822 -8.9876909 -121.08387
-16.15274 -10.768513 -121.42027
-16.201271 -12.601007 -120.76939
-16.261147 -14.454374 -119.96629
-16.323879 -16.323898 -119.12489
-16.388996 -18.210007 -118.25154
-16.457773 -20.115068 -117.32909
-16.524458 -22.032623 -116.4347
-16.592035 -23.966288 -115.52834
-16.659512 -25.914812 -114.62331
-16.726732 -27.877905 -113.72173
-16.794291 -29.856531 -112.81562
-16.863686 -31.853642 -111.88489
-16.928982 -33.857983 -111.00909
-17.001066 -35.891159 -110.04227
-17.073769 -37.941719 -109.06719
-17.143261 -40.000957 -108.13513
-17.213964 -42.078602 -107.18682
-17.284334 -44.171097 -106.243
-17.355829 -46.282223 -105.28411
-17.428026 -48.411198 -104.31578
-17.501102 -50.558754 -103.33565
-17.574741 -52.724236 -102.34799
-17.64917 -54.90855 -101.34972
-17.72463 -57.112709 -100.33762
-17.803665 -59.34557 -99.27758
-17.885378 -61.605209 -98.181625
-17.970007 -63.893368 -97.046562
-18.062351 -66.228645 -95.807991
-21.353106 37.367924 -15.87216
-21.499859 34.937252 -13.657837
-23.449043 35.17355 15.753091
-19.941061 27.418951 -37.178261
-19.583981 24.479967 -42.566208
-19.322626 21.737947 -46.509747
-19.096567 19.096556 -49.920692
-18.905109 16.541962 -52.809578
-18.738461 14.053833 -55.324097
-18.585344 11.615832 -57.634453
-18.434296 9.2171249 -59.913597
-18.315432 6.8682733 -61.707123
-18.224171 4.5560241 -63.084141
-18.128656 2.2660642 -64.525299
-18.053246 -1.0837103e-05 -65.663208
-17.988142 -2.248533 -66.645538
-15.350687 -3.837693 -106.44165
-14.981524 -5.6180825 -112.01191
-14.639997 -7.3200183 -117.16515
-14.316407 -8.9477711 -122.04774
-14.283328 -10.712508 -122.54687
-14.327857 -12.536893 -121.87497
-14.38113 -14.381145 -121.07116
-14.436922 -16.241558 -120.22931
-14.49362 -18.117039 -119.37379
-14.552405 -20.009567 -118.48682
-14.608928 -21.913408 -117.63394
-14.66975 -23.83836 -116.71621
-14.731744 -25.780567 -115.78081
-14.791007 -27.733156 -114.88657
-14.849988 -29.699993 -113.99663
-14.909892 -31.683538 -113.09273
-14.967681 -33.677296 -112.22078
-15.029645 -35.695427 -111.28581
-15.094399 -37.736015 -110.30874
-15.15363 -39.778294 -109.41502
-15.215449 -41.842503 -108.48225
-15.27844 -43.925529 -107.53178
-15.342386 -46.027172 -106.56691
-15.407498 -48.148453 -105.58442
-15.472094 -50.284317 -104.60977
-15.536986 -52.437351 -103.63061
-15.602129 -54.60746 -102.64771
-15.667919 -56.796227 -101.65499
-15.73689 -59.013359 -100.6143
-15.807438 -61.253826 -99.549828
-15.880009 -63.52005 -98.454811
-15.960199 -65.835831 -97.244843
-18.648191 39.960392 -16.489109
-18.647623 37.295227 -16.498869
-18.696899 34.722805 -15.649149
-18.779718 32.19379 -14.221003
-19.637272 30.858561 0.5670051
-17.379375 24.827673 -38.369053
-17.077589 21.956896 -43.573181
-16.84067 19.246462 -47.658691
-16.666182 16.666174 -50.667629
-16.506939 14.148781 -53.413662
-16.353325 11.680931 -56.062637
-16.217655 9.2672167 -58.402184
-16.11899 6.9081354 -60.103607
-16.039049 4.5825782 -61.482143
-15.983298 2.2833118 -62.443527
-15.919374 -1.8718036e-05 -63.545856
-15.856484 -2.2652295 -64.630333
-13.366055 -3.8188827 -107.57626
-13.056944 -5.5958509 -112.9067
-12.761125 -7.2920861 -118.00793
-12.474607 -8.9104538 -122.94875
-12.436533 -10.659898 -123.60531
-12.473954 -12.473972 -122.95999
-12.520355 -14.308993 -122.15984
-12.568538 -16.159563 -121.32897
-12.617537 -18.025064 -120.48402
-12.66748 -19.906057 -119.62278
-12.719477 -21.804834 -118.72612
-12.771143 -23.71785 -117.83517
-12.822082 -25.644182 -116.95676
-12.872889 -27.584776 -116.08063
-12.926123 -29.545435 -115.16264
-12.97623 -31.513712 -114.29858
-13.029493 -33.504425 -113.38007
-13.082797 -35.510464 -112.46088
-13.13658 -37.533104 -111.53343
-13.188253 -39.564774 -110.64235
-13.241031 -41.614681 -109.73225
-13.295259 -43.684444 -108.79709
-13.34977 -45.770657 -107.85711
-13.406527 -47.880459 -106.87837
-13.463853 -50.008614 -105.8898
-13.520225 -52.149456 -104.9177
-13.576814 -54.307274 -103.94186
-13.634137 -56.484295 -102.95337
-13.69317 -58.685032 -101.93539
-13.753022 -60.906258 -100.90326
-13.814735 -63.153088 -99.839073
-13.881399 -65.440895 -98.689476
-13.969898 -67.853806 -97.163368
-16.426886 43.805008 -7.5822415
-16.05233 40.130814 -15.117712
-15.995276 37.3223 -16.265532
-16.010651 34.689732 -15.956226
-16.042955 32.085899 -15.306306
-16.092678 29.503235 -14.305938
-16.585485 27.642462 -4.3914032
-14.859147 22.288706 -39.122692
-14.604657 19.47286 -44.242638
-14.413664 16.815926 -48.085094
-14.240538 14.240523 -51.568157
-14.104136 11.75343 -54.312321
-13.988055 9.3253555 -56.64772
-13.919507 6.959733 -58.026764
-13.878679 4.6262145 -58.848171
-13.828526 2.3047421 -59.857185
-13.746062 -1.2445289e-05 -61.516216
-13.716203 -2.2860394 -62.116959
-11.408368 -3.8028107 -108.547
-11.140626 -5.5703254 -113.93357
-10.891796 -7.2612123 -118.93964
-10.657201 -8.8810158 -123.65932
-10.607422 -10.60744 -124.66078
-10.638413 -12.411499 -124.03728
-10.67816 -14.237558 -123.23766
-10.718079 -16.077135 -122.43454
-10.759272 -17.932135 -121.60579
-10.802305 -19.804241 -120.74004
-10.846227 -21.692471 -119.85641
-10.890057 -23.595142 -118.97463
-10.932877 -25.510065 -118.11314
-10.976068 -27.440189 -117.24419
-11.019207 -29.384567 -116.37631
-11.064415 -31.349188 -115.4668
-11.109592 -33.328793 -114.55789
-11.155445 -35.3256 -113.63541
-11.199532 -37.331783 -112.74847
-11.244826 -39.356911 -111.8372
-11.289415 -41.394539 -110.94015
-11.335825 -43.454014 -110.00645
-11.382336 -45.529358 -109.07073
-11.429692 -47.623737 -108.11799
-11.477587 -49.736221 -107.15443
-11.525343 -51.864056 -106.19365
-11.573753 -54.01086 -105.2197
-11.622902 -56.17738 -104.2309
-11.672619 -58.363113 -103.23068
-11.724255 -60.575333 -102.19184
-11.775861 -62.804607 -101.15361
-11.831687 -65.074287 -100.03048
-11.899573 -67.430931 -98.664719
-13.656042 43.699322 -8.3796053
-13.443889 40.331657 -13.501465
-13.373559 37.445961 -15.199368
-13.368256 34.75745 -15.327396
-13.374434 32.098629 -15.178239
-13.385872 29.448896 -14.902094
-13.419777 26.83954 -14.083579
-13.488459 24.279215 -12.425447
-12.379725 19.807549 -39.192657
-12.13233 16.98525 -45.165279
-11.969162 14.362984 -49.104496
-11.846035 11.846014 -52.077053
-11.757771 9.406209 -54.20792
-11.727163 7.0362816 -54.946877
-11.685618 4.6742258 -55.949852
-11.611049 2.3221915 -57.750137
-11.567878 -1.8700419e-05 -58.792362
-11.573158 -2.3146458 -58.664879
-9.4666338 -3.7866688 -109.52086
-9.2426529 -5.5456038 -114.92827
-9.0375643 -7.2300668 -119.87955
-8.8615551 -8.8615761 -124.12878
-8.7969341 -10.556334 -125.68887
-8.8217249 -12.350428 -125.09036
-8.8545465 -14.16729 -124.29798
-8.8875875 -15.997672 -123.5003
-8.9212904 -17.842596 -122.68663
-8.9568462 -19.705074 -121.82825
-8.9928169 -21.582775 -120.95984
-9.029211 -23.475964 -120.0812
-9.063571 -25.378014 -119.25169
-9.1000557 -27.300186 -118.37087
-9.1353655 -29.233189 -117.51841
-9.1726236 -31.186939 -116.61892
-9.2097435 -33.155098 -115.72276
-9.2473888 -35.140095 -114.81391
-9.2829552 -37.131836 -113.95528
-9.3217974 -39.151569 -113.01754
-9.3590813 -41.17997 -112.11742
-9.3971825 -43.227055 -111.19757
-9.4347248 -45.286697 -110.29123
-9.4739141 -47.369587 -109.34512
-9.512722 -49.466183 -108.4082
-9.5520582 -51.581123 -107.45857
-9.59163 -53.713146 -106.5032
-9.6315918 -55.863258 -105.53844
-9.6726809 -58.036098 -104.54646
-9.7156601 -60.237103 -103.50886
-9.7592096 -62.458961 -102.45747
-9.8059092 -64.719009 -101.33006
-9.8577747 -67.03289 -100.0779
-9.9353552 -69.547508 -98.204941
-11.239646 47.76849 1.120667
-10.995169 43.980659 -6.2570701
-10.822841 40.585644 -11.457541
-10.751483 37.630177 -13.610938
-10.723625 34.851768 -14.451655
-10.717583 32.152729 -14.633945
-10.713981 29.463446 -14.742685
-10.722593 26.806465 -14.48274
-10.744611 24.175373 -13.818336
-10.780386 21.560759 -12.7387
-9.8780279 17.286543 -39.969776
-9.7043676 14.556535 -45.210442
-9.5753298 11.969149 -49.1045
-9.5064888 9.5064726 -51.181946
-9.4853258 7.1139798 -51.820625
-9.428441 4.7142072 -53.537235
-9.3757086 2.3439214 -55.128593
-9.3695517 -2.104216e-05 -55.314377
-9.3489571 -2.3372588 -55.935883
-7.5443225 -3.7721682 -110.39556
-7.3687682 -5.5265932 -115.69337
-7.2080302 -7.2080455 -120.54409
-7.0944076 -8.8680267 -123.97293
-7.0616646 -10.592519 -124.96106
-7.0554123 -12.346988 -125.14975
-7.0564466 -14.112914 -125.11853
-7.0761008 -15.921247 -124.52541
-7.1016345 -17.754099 -123.75486
-7.1302104 -19.608093 -122.8925
-7.1586213 -21.475878 -122.03515
-7.1867957 -23.357094 -121.18491
-7.2143655 -25.250296 -120.3529
-7.2436447 -27.163683 -119.46934
-7.2713513 -29.085423 -118.63319
-7.3004661 -31.026993 -117.75459
-7.3281293 -32.976601 -116.91978
-7.3586936 -34.953815 -115.99742
-7.3871341 -36.935684 -115.13915
-7.4174762 -38.941769 -114.2235
-7.4481134 -40.964642 -113.29893
-7.4774327 -42.995255 -112.41414
-7.5062037 -45.037235 -111.54591
-7.5371175 -47.107002 -110.61301
-7.5694532 -49.201462 -109.63718
-7.6009145 -51.306198 -108.68774
-7.6320691 -53.4245 -107.74757
-7.6634555 -55.56007 -106.8004
-7.6952229 -57.714188 -105.84176
-7.7290058 -59.899815 -104.82224
-7.7636032 -62.108837 -103.77821
-7.8005438 -64.354507 -102.66341
-7.8400164 -66.640152 -101.47224
-7.8983517 -69.110596 -99.711777
-8.691659 52.14994 11.659694
-8.4631453 47.957806 2.4650185
-8.295845 44.244499 -4.2665982
-8.1868105 40.934032 -8.6538162
-8.1168442 37.878601 -11.469057
-8.0793982 35.010708 -12.975753
-8.0629053 32.25161 -13.639364
-8.0536976 29.53021 -14.009865
-8.0453196 26.817709 -14.346964
-8.051796 24.155369 -14.086406
-8.0660505 21.509449 -13.51282
-8.0867815 18.869148 -12.678665
-7.4078946 14.815775 -39.994965
-7.2898059 12.14966 -44.746498
-7.2237744 9.6316843 -47.403404
-7.1953382 7.1953244 -48.547604
-7.1431761 4.7621055 -50.646439
-7.1200204 2.373323 -51.578121
-7.1095695 -2.1393056e-05 -51.998623
-7.1074286 -2.3691556 -52.084785
-5.6334262 -3.7556357 -111.39408
-5.5076413 -5.5076618 -116.45525
-5.4071817 -7.2095895 -120.49744
-5.3693886 -8.9489956 -122.01813
-5.3622556 -10.724525 -122.30513
-5.3616619 -12.510563 -122.32902
-5.3595076 -14.292037 -122.41571
-5.3581347 -16.074417 -122.47095
-5.3579164 -17.859734 -122.47974
-5.3574486 -19.643995 -122.49857
-5.360054 -21.440231 -122.39373
-5.3662891 -23.253929 -122.14285
-5.3845305 -25.127829 -121.40886
-5.4057527 -27.028778 -120.55495
-5.4259272 -28.938292 -119.74319
-5.4476547 -30.870062 -118.86894
-5.4686799 -32.812099 -118.02296
-5.490293 -34.771873 -117.15331
-5.5116658 -36.744457 -116.29333
-5.5337377 -38.736176 -115.40524
-5.556272 -40.746006 -114.49851
-5.5785513 -42.768906 -113.60207
-5.601078 -44.808643 -112.69566
-5.6234264 -46.861904 -111.79642
-5.6468892 -48.939724 -110.85236
-5.6700072 -51.030079 -109.92216
-5.6935797 -53.140091 -108.97369
-5.7172775 -55.267044 -108.02013
-5.7408876 -57.408894 -107.07016
-5.7647834 -59.569435 -106.10869
-5.7894979 -61.754658 -105.11424
-5.8167405 -63.984161 -104.01807
-5.8459296 -66.253883 -102.84359
-5.894115 -68.764687 -100.90478
-5.8124442 52.311981 12.746388
-5.6704898 48.199154 4.1787071
-5.5847311 44.67783 -0.99728942
-5.5180788 41.385571 -5.0201163
-5.4565148 38.195576 -8.7358446
-5.4225879 35.246807 -10.783496
-5.4008212 32.404919 -12.097223
-5.3875427 29.631479 -12.898681
-5.3760004 26.879988 -13.595295
-5.3776259 24.199295 -13.497178
-5.376071 21.504274 -13.591028
-5.3808331 18.832909 -13.30363
-5.3913536 16.174047 -12.668666
-4.9552889 12.388206 -38.98748
-4.8792138 9.7584085 -43.579018
-4.8560815 7.2841139 -44.975185
-4.8179679 4.8179455 -47.275574
-4.8114309 2.4057035 -47.670097
-4.8053827 -1.5912532e-05 -48.035133
-4.8244081 -2.4122288 -46.886864
-3.7431417 -3.7431545 -112.14707
-3.6662757 -5.4994292 -116.78632
-3.6324365 -7.2648935 -118.82871
-3.6265213 -9.0663195 -119.18572
-3.623544 -10.870645 -119.36541
-3.6212556 -12.674417 -119.50352
-3.6202514 -14.48102 -119.56413
-3.6207747 -16.293505 -119.53255
-3.6215229 -18.107624 -119.4874
-3.621448 -19.917982 -119.49191
-3.6209137 -21.725496 -119.52416
-3.6209671 -23.536303 -119.52094
-3.622175 -25.355238 -119.44804
-3.6223354 -27.167534 -119.43835
-3.6232448 -28.985971 -119.38348
-3.6243684 -30.80715 -119.31567
-3.628623 -32.657627 -119.05885
-3.6423018 -34.601883 -118.23328
-3.656302 -36.563034 -117.38829
-3.6711018 -38.546589 -116.49503
-3.6852143 -40.537373 -115.64329
-3.6996469 -42.545956 -114.77218
-3.7144296 -44.573174 -113.87997
-3.7293084 -46.616375 -112.98197
-3.7442493 -48.675259 -112.08019
-3.759253 -50.749939 -111.17464
-3.774575 -52.844063 -110.24989
-3.7903733 -54.960426 -109.29637
-3.8062339 -57.093517 -108.33912
-3.822192 -59.24398 -107.37597
-3.8384283 -61.41486 -106.39602
-3.8554449 -63.614853 -105.36895
-3.8746309 -65.868736 -104.21098
-3.9119098 -68.458443 -101.96098
-2.8693888 48.779591 8.3002071
-2.8259859 45.215771 3.0610435
-2.7877347 41.81601 -1.5563072
-2.7564363 38.590084 -5.3343301
-2.7345438 35.549057 -7.9769835
-2.7177432 32.612919 -10.005012
-2.7066889 29.773563 -11.33938
-2.6996977 26.996969 -12.183277
-2.6962099 24.265877 -12.604308
-2.6913135 21.530493 -13.195359
-2.6905935 18.834148 -13.282265
-2.6932628 16.159561 -12.960051
-2.69749 13.487439 -12.449768
-2.4824164 9.9296532 -38.411495
-2.4571247 7.3713617 -41.464432
-2.4421513 4.8842964 -43.271919
-2.4420247 2.4420145 -43.287174
-2.4438047 -2.0573931e-05 -43.072304
-2.4570067 -2.4570241 -41.478683
-1.8668271 -3.7336745 -112.71967
-1.8440968 -5.5323033 -115.46346
-1.8396678 -7.3586926 -115.99809
-1.8379704 -9.1898708 -116.20298
-1.83665 -11.019911 -116.36238
-1.8361332 -12.852947 -116.42475
-1.8357871 -14.68631 -116.46652
-1.8355949 -16.520372 -116.48974
-1.8358639 -18.358654 -116.45724
-1.8362873 -20.199173 -116.40617
-1.8357762 -22.029325 -116.46785
-1.8355728 -23.862465 -116.49239
-1.8360728 -25.705034 -116.43204
-1.835584 -27.533772 -116.49107
-1.8361057 -29.377708 -116.42806
-1.8357981 -31.208582 -116.46519
-1.8365345 -33.05764 -116.37632
-1.8367873 -34.898975 -116.34579
-1.8370734 -36.741486 -116.31126
-1.8377721 -38.593235 -116.22691
-1.8377557 -40.430641 -116.2289
-1.8409374 -42.341568 -115.84483
-1.8478291 -44.347912 -115.01294
-1.8553447 -46.383636 -114.10572
-1.862622 -48.428185 -113.22728
-1.8699566 -50.488838 -112.34192
-1.8774065 -52.567394 -111.44263
-1.8851188 -54.668449 -110.51169
-1.8928947 -56.786854 -109.57304
-1.9009235 -58.92865 -108.60388
-1.9091096 -61.09153 -107.61571
-1.9173849 -63.273712 -106.61683
-1.9259254 -65.481476 -105.5859
-1.9377562 -67.82148 -104.1578
6.279536e-23 63.357208 86.817329
-4.2987893e-23 56.861675 65.688034
-6.2565732e-23 45.758484 7.1555195
4.9587232e-23 42.301903 2.3538988
8.0354867e-23 39.056297 -1.3145413
-2.7613218e-23 35.925987 -4.4770851
2.9859619e-23 32.913532 -6.9809508
9.711707e-23 29.965775 -9.2300787
6.156723e-23 27.161903 -10.192348
7.533089e-23 24.361906 -11.316313
7.7435603e-23 21.614403 -11.92927
4.1285487e-23 18.895201 -12.229155
5.4825391e-23 16.182158 -12.505594
1.2303706e-25 13.492185 -12.335204
4.1722923e-23 10.804288 -12.016854
1.3491737e-23 7.5215492 -35.421234
2.0540303e-23 4.9599066 -38.708229
2.787115e-23 2.4778357 -38.962116
4.6938183e-23 -5.4427464e-06 -38.165165
4.6339712e-23 -2.5069511 -35.452141
6.5690581e-23 -3.7502766 -111.71761
3.8439892e-23 -5.6006303 -112.71419
2.555253e-24 -7.4632955 -112.84097
5.5189239e-23 -9.3179054 -113.11187
7.2769238e-23 -11.183631 -113.06882
3.107568e-23 -13.039003 -113.21636
2.4476536e-23 -14.898406 -113.26618
4.7053092e-23 -16.760818 -113.26482
5.7212446e-23 -18.626804 -113.22045
3.4148463e-23 -20.482517 -113.29688
9.6249108e-24 -22.340557 -113.33712
7.7703102e-23 -24.208153 -113.28255
-6.7135345e-24 -26.064219 -113.33508
3.8331294e-23 -27.932394 -113.28323
7.0339647e-23 -29.807394 -113.18633
6.3106802e-23 -31.65229 -113.31462
3.6266107e-23 -33.525589 -113.2382
4.8225074e-23 -35.391975 -113.21363
3.1029396e-23 -37.263428 -113.16105
3.3593471e-23 -39.130646 -113.13783
7.9163631e-23 -41.001724 -113.09547
5.1059306e-23 -42.873383 -113.05377
1.9408768e-23 -44.742203 -113.02985
2.6925615e-23 -46.618492 -112.97171
-5.1021251e-24 -48.499447 -112.89644
3.1413186e-23 -50.377216 -112.84097
1.3491957e-23 -52.315422 -112.5289
-3.6403242e-23 -54.392204 -111.66156
3.6674017e-23 -56.492306 -110.75822
6.1853006e-26 -58.61808 -109.81318
8.8227674e-23 -60.771011 -108.82477
6.5408023e-23 -62.943058 -107.82633
-9.4408538e-24 -65.136948 -106.80907
3.2859591e-23 -67.408043 -105.58369
3.2452185 71.394798 53.666874
3.2293503 67.816353 51.751408
3.222024 64.44046 50.867069
3.2179174 61.140438 50.371376
3.2080746 57.745335 49.183205
3.1969917 54.348843 47.845394
3.1884353 51.014957 46.812569
2.872788 43.091805 8.7105227
2.8272882 39.582024 3.2182441
2.7995262 36.393822 -0.13293725
2.7711394 33.253654 -3.5595052
2.7502091 30.252285 -6.0860314
2.7347755 27.347733 -7.9490356
2.7250705 24.52562 -9.1205397
2.7179117 21.743282 -9.9846544
2.7113059 18.979116 -10.782051
2.7060084 16.236034 -11.421506
2.7038858 13.519421 -11.677757
2.7049587 10.819818 -11.548239
2.7083137 8.1249352 -11.143239
2.5528066 5.1056008 -29.914629
2.5238862 2.5238612 -33.405628
2.5330141 -1.8026767e-05 -32.303822
2.5448124 -2.5448143 -30.879614
2.4851613 -4.9703379 -38.080139
2.4282522 -7.2847719 -44.949654
2.3734412 -9.4937792 -51.565945
2.3209007 -11.604512 -57.908138
1.8925385 -11.355242 -109.61604
1.8914125 -13.239902 -109.75196
1.8912201 -15.129775 -109.77517
1.8901656 -17.011505 -109.90248
1.8904625 -18.904644 -109.86662
1.8898512 -20.788374 -109.94044
1.89002 -22.68025 -109.92005
1.8898745 -24.568388 -109.93761
1.8892401 -26.449377 -110.01418
1.8893682 -28.340532 -109.99874
1.8897638 -30.23624 -109.95097
1.8892983 -32.118088 -110.00716
1.8894496 -34.010105 -109.98891
1.8900374 -35.910728 -109.91795
1.8902528 -37.805069 -109.89194
1.8902297 -39.694836 -109.89475
1.8908879 -41.599545 -109.81528
1.8903402 -43.477844 -109.88139
1.8906316 -45.375179 -109.84623
1.891086 -47.277172 -109.79136
1.8916807 -49.183716 -109.71957
1.8923516 -51.093513 -109.63857
1.8930407 -53.005157 -109.55541
1.8935782 -54.913788 -109.49053
1.8941337 -56.824028 -109.42348
1.8947593 -58.737549 -109.34795
1.8955615 -60.657978 -109.25114
1.8979714 -62.633076 -108.96021
1.9061028 -64.807518 -107.97869
1.9154872 -67.042068 -106.84589
6.4479756 70.927719 51.104118
6.4074044 67.277748 48.655457
6.3813477 63.813457 47.082767
6.3639727 60.457729 46.034088
6.3467574 57.120808 44.995079
6.3188791 53.710472 43.312462
6.3063116 50.450481 42.553947
6.2887626 47.165714 41.494747
5.8087025 40.6609 12.520561
5.6756306 36.891579 4.488965
5.6135497 33.68129 0.7420702
5.5633106 30.5982 -2.2901413
5.5169868 27.584927 -5.086009
5.4920726 24.714321 -6.5897422
5.4737959 21.89518 -7.6928139
5.4571452 19.1 -8.6977777
5.4452553 16.335754 -9.4154205
5.4423089 13.605762 -9.5932426
5.4411268 10.882248 -9.6646137
5.4472375 8.1708479 -9.2957735
5.4574852 5.4574809 -8.6772661
5.3214693 2.6607294 -16.886564
5.191124 -1.3884825e-05 -24.753593
5.0670528 -2.5335503 -32.24194
4.9487944 -4.9488053 -39.379486
4.8347292 -7.2520986 -46.26392
4.7255311 -9.451067 -52.854614
4.6211395 -11.552861 -59.155216
4.5252285 -13.575694 -64.943947
4.4365358 -15.527884 -70.297035
4.3511291 -17.404531 -75.451775
4.2702117 -19.215971 -80.335564
4.1935954 -20.967983 -84.959763
3.8404946 -21.122736 -106.27129
3.838212 -23.029289 -106.40905
3.8366399 -24.938181 -106.50393
3.8369401 -26.858593 -106.48583
3.8362563 -28.771935 -106.5271
3.836376 -30.691029 -106.51986
3.836376 -32.609207 -106.51987
3.8361125 -34.525024 -106.53579
3.8360643 -36.442627 -106.53868
3.8357165 -38.357174 -106.55967
3.8356926 -40.274788 -106.56112
3.8359923 -42.195927 -106.54302
3.8370001 -44.125519 -106.48221
3.8379962 -46.055962 -106.4221
3.8390884 -47.988628 -106.35613
3.8403263 -49.924248 -106.28146
3.8401701 -51.842304 -106.29089
3.8417571 -53.784615 -106.19509
3.8431766 -55.726082 -106.1094
3.8432851 -57.649296 -106.10286
3.8443446 -59.587364 -106.03891
3.846972 -61.551563 -105.88035
3.8508353 -63.538792 -105.64719
3.8600292 -65.620514 -105.09225
9.6198978 70.545898 49.009148
9.5567636 66.897346 46.468845
9.5152645 63.435093 44.799026
9.4783192 60.029354 43.312477
9.444519 56.667103 41.952435
9.4068689 53.305576 40.437534
9.3892584 50.076035 39.728951
9.3487234 46.743599 38.097912
9.3385258 43.579765 37.687595
9.3121157 40.35247 36.624939
8.5677357 34.270939 6.6734471
8.4555244 31.003578 2.1583979
8.3771725 27.923893 -0.9942286
8.3273344 24.981987 -2.9995596
8.2894564 22.105206 -4.5236564
8.2726908 19.302933 -5.1982379
8.2631464 16.526281 -5.5822845
8.2715759 13.785941 -5.2431154
8.3419781 11.122631 -2.4103675
8.3592157 8.3592043 -1.7167668
8.1482487 5.4321499 -10.205422
7.9451303 2.6483722 -18.378307
7.7514672 -9.6263793e-06 -26.170698
7.5658069 -2.5219595 -33.64106
7.3891001 -4.9260702 -40.751213
7.2184768 -7.2184916 -47.616554
7.0561776 -9.4082594 -54.146969
6.9058065 -11.509697 -60.19746
6.7666812 -13.53338 -65.79541
6.6344624 -15.480419 -71.115486
6.508945 -17.357199 -76.165916
6.3896194 -19.168867 -80.967232
6.2755952 -20.918665 -85.555199
6.1769905 -22.648973 -89.522743
6.0863028 -24.345226 -93.171715
6.0113258 -26.049093 -96.18856
5.94698 -27.752586 -98.777649
5.9059916 -29.529976 -100.42688
5.8669114 -31.290213 -101.99937
5.8464127 -33.129684 -102.82417
5.8453913 -35.072365 -102.86526
5.8461151 -37.025414 -102.83613
5.8443518 -38.962368 -102.90708
5.8436837 -40.9058 -102.93396
5.8439808 -42.855885 -102.922
5.844389 -44.806992 -102.90559
5.844389 -46.755138 -102.90558
5.845057 -48.708817 -102.87871
5.8480654 -50.683247 -102.75765
5.8510218 -52.65921 -102.63871
5.8525472 -54.623783 -102.57734
5.8530865 -56.579865 -102.55561
5.8536077 -58.536091 -102.53465
5.8562713 -60.514828 -102.42747
5.8626695 -62.535164 -102.17004
5.8804812 -64.68531 -101.45335
13.032089 74.934494 55.212456
12.771064 70.240829 47.335293
12.688855 66.616486 44.854465
12.628654 63.143272 43.03772
12.576944 59.740479 41.477242
12.527766 56.374931 39.993168
12.480494 53.04208 38.566605
12.442087 49.768345 37.40757
12.406801 46.525501 36.342701
12.376081 43.316284 35.415653
12.34365 40.116837 34.436962
12.318496 36.955482 33.677853
11.503109 31.633545 9.0713587
11.321309 28.303255 3.5850627
11.299936 25.424849 2.9401064
11.258517 22.517025 1.6901749
11.235786 19.662613 1.0042169
11.246186 16.869261 1.3180783
11.693517 14.616887 14.817419
11.385332 11.385326 5.5171514
11.092825 8.3196115 -3.3100317
10.813541 5.4067597 -11.738162
10.542947 2.6357298 -19.904097
10.285046 -8.2036868e-06 -27.686943
10.041474 -2.5103722 -35.037369
9.8056059 -4.9028196 -42.155308
9.5802259 -7.1851854 -48.956722
9.3711615 -9.3711729 -55.265804
9.1765146 -11.470648 -61.139828
8.9942026 -13.491312 -66.641571
8.8211803 -15.437087 -71.862946
8.6565838 -17.313187 -76.830124
8.4991045 -19.122997 -81.582466
8.3590813 -20.897724 -85.808044
8.2287521 -22.629087 -89.741074
8.1182652 -24.354811 -93.075317
8.0220175 -26.071571 -95.979843
7.9520187 -27.832079 -98.092247
7.9089403 -29.658537 -99.39225
7.8878427 -31.551386 -100.02895
7.8740239 -33.464626 -100.44594
7.8677645 -35.404953 -100.63486
7.8690758 -37.378124 -100.59528
7.8856874 -39.428455 -100.09396
7.9118466 -41.537212 -99.304535
7.9207845 -43.564331 -99.034813
7.9193788 -45.536446 -99.077248
7.9228301 -47.536991 -98.973099
7.9229832 -49.518669 -98.968452
7.9223442 -51.495251 -98.987755
7.9241862 -53.488266 -98.932182
7.9275136 -55.492619 -98.831741
7.9304852 -57.496037 -98.742081
7.9324331 -59.493256 -98.683296
7.9358191 -61.502621 -98.5811
8.0317841 -64.254288 -95.685112
16.118414 74.144691 51.067314
15.920996 70.052361 46.301212
15.806152 66.385834 43.528614
15.728678 62.914688 41.658215
15.660827 59.511135 40.020184
15.592372 56.13253 38.367508
15.536777 52.825027 37.025341
15.482125 49.542778 35.705929
15.437017 46.311035 34.616894
15.396419 43.109955 33.636787
15.356496 39.926868 32.672966
15.343593 36.824608 32.361454
15.352039 33.77446 32.565353
15.370268 30.74052 33.00547
14.517151 26.130854 12.40941
14.397376 23.035786 9.5177689
14.473864 20.263399 11.364326
14.947868 17.937426 22.80781
14.544407 14.544395 13.067414
14.162808 11.330226 3.8547904
13.800348 8.2801914 -4.8957672
13.448309 5.3793163 -13.394751
13.112775 2.622541 -21.495241
12.795177 -1.7201068e-05 -29.162733
12.493822 -2.4987886 -36.438099
12.199392 -4.8797712 -43.546238
11.925565 -7.155355 -50.157032
11.672147 -9.337738 -56.275089
11.434344 -11.434351 -62.016163
11.21042 -13.452515 -67.422173
10.998054 -15.397285 -72.549141
10.793697 -17.269926 -77.482727
10.611938 -19.101498 -81.870819
10.437901 -20.875807 -86.072418
10.287285 -22.632046 -89.708603
10.160771 -24.385872 -92.762901
10.073323 -26.190657 -94.8741
10.031359 -28.087828 -95.887207
10.010213 -30.030657 -96.397713
9.9949827 -31.983961 -96.765427
9.9838572 -33.945129 -97.034004
9.9775906 -35.919346 -97.18531
9.9736977 -37.90007 -97.279274
9.9743786 -39.897526 -97.262856
9.9772987 -41.904671 -97.192352
9.9784336 -43.905121 -97.16494
9.9833698 -45.923512 -97.045776
9.9871397 -47.938282 -96.95475
10.009103 -50.045532 -96.42453
10.041965 -52.218231 -95.631165
10.071967 -54.38863 -94.906845
10.078221 -56.438057 -94.755852
10.076567 -58.444099 -94.795807
10.09919 -60.59515 -94.249626
10.185264 -63.148647 -92.171623
19.266983 73.85675 49.556137
19.056734 69.874672 45.326218
18.909218 66.182251 42.358433
18.815758 62.719181 40.478176
18.731602 59.31673 38.785061
18.648005 55.944 37.10326
18.575644 52.630989 35.647449
18.505796 49.348763 34.242218
18.445246 46.113091 33.024059
18.406971 42.949589 32.254002
18.373529 39.809303 31.581221
18.368761 36.737511 31.485321
18.387203 33.709873 31.856335
18.415995 30.693329 32.435566
18.486837 27.730234 33.860794
18.623947 24.831921 36.619259
18.353468 21.412359 31.177633
17.84553 17.845514 20.958702
17.366589 14.472142 11.323126
16.912603 11.275055 2.1896646
16.473932 8.2369556 -6.6357317
16.055691 5.3518901 -15.050091
15.65776 2.6096089 -23.05582
15.286184 -1.0189935e-05 -30.53137
14.920818 -2.4868281 -37.881935
14.575397 -4.8584771 -44.831284
14.25874 -7.1293883 -51.201954
13.959146 -9.306119 -57.229286
13.680674 -11.400578 -62.83173
13.417201 -13.417208 -68.132401
13.163733 -15.357704 -73.231796
12.929782 -17.239727 -77.938515
12.715631 -19.073469 -82.246902
12.53128 -20.885477 -85.955757
12.37042 -22.679113 -89.192001
12.268508 -24.537027 -91.242332
12.225888 -26.489449 -92.099754
12.199068 -28.4645 -92.639359
12.183 -30.457521 -92.962601
12.172727 -32.460621 -93.169289
12.166451 -34.471626 -93.29554
12.163316 -36.489967 -93.35862
12.159618 -38.505474 -93.432999
12.161989 -40.539974 -93.385323
12.166049 -42.581188 -93.303642
12.169106 -44.620071 -93.242149
12.172324 -46.660587 -93.177391
12.180984 -48.723953 -93.003159
12.193814 -50.807579 -92.745033
12.210681 -52.912964 -92.405716
12.225482 -55.01469 -92.107925
12.270185 -57.260872 -91.208595
12.349463 -59.689095 -89.613617
22.370083 73.501694 47.692616
22.180613 69.71048 44.425327
22.009428 66.028275 41.473351
21.892076 62.548771 39.449718
21.795311 59.158684 37.78104
21.689753 55.773643 35.960762
21.606277 52.472378 34.521275
21.521072 49.191002 33.051949
21.457525 45.980404 31.956125
21.407684 42.815353 31.096649
21.397017 39.737305 30.91272
21.383169 36.656837 30.673908
21.430223 33.676044 31.485317
21.467176 30.667389 32.122597
21.560614 27.720783 33.733826
21.746422 24.853037 36.937969
21.302349 21.30234 29.280249
20.713348 17.754282 19.123283
20.16011 14.400067 9.5830297
19.628208 11.216113 0.41070101
19.119566 8.1940889 -8.3605289
18.63662 5.3247356 -16.688654
18.184782 2.5978036 -24.480318
17.748903 -1.1216472e-05 -31.996761
17.327698 -2.4754055 -39.260185
16.941912 -4.8405604 -45.912823
16.574976 -7.1035786 -52.240414
16.236233 -9.2778616 -58.081821
15.918253 -11.370195 -63.565193
15.612943 -13.382534 -68.830093
15.328582 -15.3286 -73.733704
15.063529 -17.215469 -78.304375
14.844645 -19.085981 -82.078918
14.660449 -20.943516 -85.255249
14.53689 -22.843691 -87.385948
14.490834 -24.84145 -88.180145
14.456787 -26.848333 -88.767258
14.436475 -28.872959 -89.117554
14.424354 -30.909338 -89.326584
14.415929 -32.95071 -89.471855
14.418639 -35.016712 -89.42511
14.417623 -37.073898 -89.442635
14.422513 -39.146828 -89.358322
14.426243 -41.217854 -89.293991
14.429103 -43.287319 -89.244682
14.435067 -45.367371 -89.141815
14.445166 -47.4627 -88.967674
14.461802 -49.583336 -88.680794
14.479206 -51.711472 -88.380646
14.50483 -53.875103 -87.938782
14.557437 -56.150139 -87.031616
25.455362 73.184158 46.026119
25.277861 69.514114 43.347824
25.086906 65.853127 40.466557
24.961878 62.404686 38.579998
24.852928 59.025684 36.936081
24.737068 55.658386 35.187885
24.633652 52.346485 33.627472
24.537107 49.074211 32.170704
24.453247 45.849846 30.905373
24.419306 42.73378 30.393246
24.419792 39.68214 30.400555
24.407406 36.611084 30.213678
24.462875 33.636444 31.050667
24.519211 30.649 31.900682
24.644535 27.725088 33.791702
24.879887 24.879869 37.342861
24.214151 21.187372 27.297682
23.551882 17.663895 17.304811
22.920486 14.325288 7.7777925
22.312117 11.15605 -1.4018044
21.737902 8.1517038 -10.066036
21.199823 5.2999382 -18.184992
20.689137 2.5861297 -25.890663
20.186604 -1.2608823e-05 -33.473289
19.72858 -2.4660869 -40.384338
19.290956 -4.822763 -46.987568
18.881474 -7.0805683 -53.166191
18.505882 -9.2529526 -58.833431
18.144943 -11.340594 -64.279594
17.811506 -13.358637 -69.310776
17.495399 -15.308487 -74.080444
