# .PCD v0.7 - Point Cloud Data file format
VERSION 0.7
FIELDS x y z
SIZE 4 4 4
TYPE F F F
COUNT 1 1 1
WIDTH 1500
HEIGHT 1
VIEWPOINT 0 0 0 1 0 0 0
POINTS 1500
DATA ascii
-10.342338 7.521698 -6.6162348
-10.354391 6.5891557 -6.4839602
-10.369374 5.6560197 -6.3195333
-10.388121 4.7218709 -6.1138229
-10.415173 3.7873347 -5.8169641
-10.445311 2.8487203 -5.4862342
-10.267448 1.8668092 -7.4380469
-10.26714 0.9333722 -7.4414105
-10.266834 -9.9622252e-07 -7.4447784
-10.266528 -0.93332422 -7.4481378
-10.266222 -1.8665843 -7.4515023
-10.265871 -2.7997839 -7.455348
-10.265565 -3.7329304 -7.4587083
-10.265259 -4.6660261 -7.4620705
-10.264953 -5.5990667 -7.4654317
-10.264821 -6.5321584 -7.4668713
-10.265127 -7.465549 -7.4635077
-10.265478 -8.3990288 -7.4596701
-10.265784 -9.3325329 -7.4562998
-10.26609 -10.266091 -7.4529409
-10.266397 -11.199704 -7.4495831
-10.266703 -12.133377 -7.4462175
-10.717887 27.866512 9.2664185
-10.421796 26.054495 5.6922889
-10.28879 24.693092 4.0867643
-10.241323 23.555042 3.5137846
-10.236964 22.521326 3.4611669
-10.246262 21.517151 3.5733926
-10.261249 20.522501 3.7543006
-9.7191696 18.466421 -2.7891586
-9.4218349 16.959305 -6.3783164
-9.2932625 15.798548 -7.9303126
-9.2580824 14.812932 -8.3549805
-9.2529163 13.879373 -8.4173441
-9.2562428 12.958741 -8.3771963
-9.2647438 12.044168 -8.2745667
-9.2764454 11.131734 -8.1333179
-9.2933817 10.222719 -7.9288797
-9.3143024 9.3143044 -7.6763473
-9.2609806 8.3348818 -8.3199863
-9.2407665 7.3926167 -8.5639973
-9.2338276 6.4636807 -8.6477566
-9.2292728 5.5375624 -8.7027407
-9.2275209 4.6137619 -8.7238836
-9.2239437 3.6895802 -8.767066
-9.2251883 2.7675555 -8.7520437
-9.227911 1.8455788 -8.719182
-9.1790342 0.91789967 -9.3091717
-9.1787643 -3.1679735e-06 -9.3124237
-9.1784563 -0.91784644 -9.3161469
-9.1781874 -1.8356395 -9.3193979
-9.1779184 -2.7533784 -9.322648
-9.1776485 -3.6710625 -9.3258972
-9.1773796 -4.5886912 -9.3291464
-9.1771097 -5.5062647 -9.3324041
-9.1768398 -6.4237881 -9.3356543
-9.1765709 -7.3412566 -9.3389034
-9.17661 -8.2589512 -9.3384409
-9.176918 -9.1769171 -9.3347254
-9.177187 -10.094904 -9.3314753
-9.1774559 -11.012951 -9.3282185
-9.1777258 -11.931044 -9.3249674
-9.1779947 -12.849195 -9.3217201
-9.3247395 25.902054 4.9562612
-9.1486578 24.39642 2.5946021
-9.0766592 23.195908 1.6289297
-9.0583363 22.142603 1.3831851
-9.060586 21.141367 1.413363
-9.0745268 20.165615 1.6003333
-8.8796568 18.745939 -1.0133177
-8.489006 16.978012 -6.2528439
-8.312479 15.701349 -8.6204805
-8.2769241 14.714527 -9.0973473
-8.2868128 13.811351 -8.9647226
-8.1867323 12.734916 -10.307021
-8.176878 11.811047 -10.439204
-8.17101 10.894682 -10.517899
-8.165185 9.9796705 -10.596032
-8.1615648 9.0684023 -10.644575
-8.1639328 8.1639318 -10.612822
-8.158185 7.2517176 -10.68991
-8.1615648 6.3478827 -10.644579
-8.1572056 5.4381371 -10.70305
-8.1608887 4.5338297 -10.65365
-8.1589622 3.6262033 -10.679484
-8.1558886 2.7186251 -10.720716
-8.1607876 1.8135092 -10.655011
-8.165287 0.90725386 -10.594667
-8.1261473 -2.1713849e-06 -11.119619
-8.1259127 -0.90288007 -11.122766
-8.1256781 -1.8057073 -11.125916
-8.1254435 -2.7084849 -11.129056
-8.1252089 -3.6112063 -11.132206
-8.1249743 -4.5138726 -11.135355
-8.1247387 -5.4164944 -11.138498
-8.1244707 -6.3190374 -11.14209
-8.1242371 -7.2215443 -11.145239
-8.1240025 -8.1240044 -11.148382
-8.1237679 -9.0264111 -11.151525
-8.1240025 -9.9293375 -11.14838
-8.1242371 -10.832319 -11.145235
-8.1244707 -11.735352 -11.142089
-8.1247053 -12.638429 -11.138948
-8.1249399 -13.541568 -11.135802
-8.2970228 25.928196 5.0824881
-8.0461197 24.138355 1.2966504
-7.9528956 22.864574 -0.10999151
-7.9277272 21.80125 -0.48975292
-7.9213433 20.793531 -0.58607703
-7.9305634 19.826408 -0.44695866
-7.9414978 18.861063 -0.2819699
-7.58711 17.070997 -5.6292691
-7.4123917 15.751329 -8.2655716
-7.2136006 14.427201 -11.265097
-7.1681247 13.44023 -11.951271
-7.1477003 12.508474 -12.25944
-7.1432395 11.607762 -12.326761
-7.1373868 10.706081 -12.415064
-7.1341591 9.8094692 -12.463772
-7.1324739 8.9155893 -12.4892
-7.1339269 8.0256662 -12.46728
-7.1354094 7.1354079 -12.444907
-7.1347113 6.2428727 -12.455433
-7.1322994 5.3492222 -12.49183
-7.1360202 4.460012 -12.435694
-7.1330838 3.5665386 -12.479991
-7.1343336 2.675375 -12.461135
-7.1329675 1.783244 -12.481751
-7.1380563 0.89225554 -12.404964
-7.1421614 -3.1069872e-06 -12.343021
-7.1071429 -0.88839543 -12.87141
-7.1069412 -1.7767369 -12.874456
-7.1067395 -2.6650276 -12.877504
-7.1065373 -3.5532682 -12.880555
-7.1063066 -4.4414392 -12.884036
-7.1061044 -5.3295789 -12.887078
-7.1059027 -6.2176681 -12.890123
-7.105701 -7.1057024 -12.893167
-7.1054993 -7.9936895 -12.896215
-7.1052971 -8.8816223 -12.899262
-7.1050954 -9.7695084 -12.902304
-7.1050091 -10.657515 -12.903608
-7.1052113 -11.545971 -12.900568
-7.105413 -12.434474 -12.897524
-7.1056147 -13.323029 -12.894478
-7.1058164 -14.211633 -12.89143
-6.9978771 23.99272 0.56414521
-6.8763957 22.59387 -1.5307232
-6.8338857 21.477922 -2.263783
-6.8217759 20.46533 -2.4726143
-6.8226562 19.493305 -2.4574194
-6.8349833 18.552095 -2.2448525
-6.8459468 17.603861 -2.0557926
-6.5204554 15.835388 -7.6686897
-6.2609601 14.310761 -12.143532
-6.1864586 13.256695 -13.428254
-6.1630177 12.326035 -13.832486
-6.150178 11.421756 -14.053892
-6.1445303 10.53348 -14.151298
-6.1435447 9.6541424 -14.168288
-6.1441112 8.777298 -14.158513
-6.1437664 7.899127 -14.164465
-6.1449986 7.0228539 -14.143214
-6.1434216 6.1434216 -14.170416
-6.1438155 5.2661238 -14.163612
-6.1432242 4.3880153 -14.173807
-6.1423626 3.5099196 -14.188673
-6.1413035 2.6319857 -14.206925
-6.1453185 1.755803 -14.137696
-6.144752 0.87782103 -14.14747
-6.1460085 -4.857598e-06 -14.125788
-6.1518326 -0.87883127 -14.025364
-6.1203775 -1.7486825 -14.567783
-6.120182 -2.6229334 -14.571158
-6.1200109 -3.4971521 -14.574105
-6.1198401 -4.3713145 -14.577062
-6.119669 -5.2454314 -14.580011
-6.1194973 -6.1194973 -14.582964
-6.1193266 -6.9935174 -14.585909
-6.1191554 -7.867487 -14.588856
-6.1189599 -8.7413712 -14.592237
-6.1187887 -9.6152439 -14.595179
-6.118618 -10.489061 -14.598131
-6.1184468 -11.362832 -14.601078
-6.1184955 -12.236992 -14.600236
-6.1186666 -13.111425 -14.597291
-6.1188374 -13.985918 -14.594338
-6.1190085 -14.860455 -14.59139
-5.9778943 23.911577 0.15602316
-5.8291464 22.345062 -2.8365469
-5.7761774 21.179316 -3.9022009
-5.7566314 20.148209 -4.2954412
-5.7568583 19.189526 -4.2908711
-5.7623901 18.247566 -4.1795778
-5.7723947 17.317183 -3.9783063
-5.6273274 15.944096 -6.8968382
-5.3571234 14.285665 -12.332914
-5.2466249 13.116565 -14.555982
-5.2086692 12.153558 -15.319585
-5.1936321 11.252871 -15.622113
-5.1873341 10.374667 -15.748815
-5.1847539 9.5053835 -15.80073
-5.1821351 8.6368895 -15.853413
-5.183301 7.7749486 -15.829956
-5.1846924 6.9129248 -15.801963
-5.1845698 6.0486655 -15.804438
-5.1840577 5.1840577 -15.814729
-5.1835871 4.3196583 -15.824199
-5.1830959 3.4554007 -15.834076
-5.1847129 2.5923519 -15.80155
-5.1825032 1.727499 -15.846003
-5.1846309 0.86410522 -15.803197
-5.1849179 1.2486693e-06 -15.797432
-5.1867809 -0.86446434 -15.759945
-5.1718698 -1.7239571 -16.059935
-5.1643243 -2.5821607 -16.211737
-5.1641822 -3.44279 -16.214594
-5.1640401 -4.3033686 -16.217453
-5.1638985 -5.1638966 -16.220314
-5.1637559 -6.0243821 -16.223169
-5.1635933 -6.8847885 -16.226442
-5.1634512 -7.7451825 -16.229298
-5.1633091 -8.6055164 -16.232159
-5.1631675 -9.4658089 -16.235018
-5.1630254 -10.326049 -16.237877
-5.1628828 -11.186249 -16.240734
-5.1627407 -12.046398 -16.243591
-5.1625991 -12.906496 -16.246452
-5.1627207 -13.767254 -16.244003
-5.1628628 -14.628111 -16.241142
-5.1630049 -15.489015 -16.238287
-5.0027561 24.013231 0.66730547
-4.8213701 22.178301 -3.7117546
-4.7533126 20.914576 -5.3547997
-4.730629 19.868639 -5.902431
-4.7260528 18.904213 -6.0129037
-4.7304859 17.975849 -5.9058871
-4.739459 17.062052 -5.6892648
-4.7506094 16.152069 -5.4200568
-4.4787025 14.331844 -11.98447
-4.3435206 13.03056 -15.248048
-4.2887287 12.00844 -16.570847
-4.2678895 11.096514 -17.073957
-4.2589869 10.221565 -17.288876
-4.2543678 9.3596077 -17.400396
-4.2552609 8.51052 -17.378828
-4.2540865 7.6573567 -17.407183
-4.253161 6.8050566 -17.429535
-4.2525659 5.9535904 -17.443897
-4.2520041 5.1024027 -17.45746
-4.252037 4.2520361 -17.456667
-4.2516904 3.4013541 -17.46504
-4.2549138 2.5529475 -17.387217
-4.2543511 1.7017394 -17.400793
-4.2536235 0.85072744 -17.418364
-4.2524834 2.2249094e-06 -17.445896
-4.2550292 -0.85100538 -17.384422
-4.2554102 -1.7021663 -17.375237
-4.2377291 -2.5426371 -17.802086
-4.2376142 -3.3900943 -17.804857
-4.2374997 -4.2375011 -17.807631
-4.2373681 -5.084847 -17.810797
-4.2372537 -5.9321561 -17.813576
-4.2371383 -6.7794242 -17.816341
-4.2370238 -7.6266413 -17.819118
-4.2369089 -8.473815 -17.821892
-4.236794 -9.3209486 -17.824661
-4.2366796 -10.168031 -17.827433
-4.2365646 -11.015071 -17.830202
-4.2364335 -11.862016 -17.833374
-4.2363186 -12.708954 -17.836143
-4.2362037 -13.555856 -17.838915
-4.2361546 -14.402928 -17.840101
-4.2362695 -15.250574 -17.83733
-4.2363839 -16.098261 -17.83456
-4.2364988 -16.945995 -17.831787
-3.8387301 22.072695 -4.2659974
-3.7661076 20.713591 -6.4575701
-3.7411635 19.641108 -7.2103229
-3.7390707 18.695353 -7.2734818
-3.7450843 17.789148 -7.0920014
-3.7540448 16.893204 -6.8215981
-3.7629352 15.992471 -6.5533051
-3.6322684 14.529073 -10.496532
-3.4732451 13.024666 -15.295475
-3.4004142 11.901448 -17.493341
-3.3700092 10.95253 -18.410898
-3.3602567 10.08077 -18.705204
-3.3547459 9.2255507 -18.871504
-3.3516765 8.3791914 -18.964136
-3.3515739 7.541039 -18.967226
-3.3518305 6.7036605 -18.959486
-3.3511631 5.8645372 -18.979618
-3.3507016 5.026053 -18.993551
-3.3503041 4.1878786 -19.00555
-3.3500476 3.3500478 -19.013283
-3.3500862 2.5125625 -19.012121
-3.3517921 1.6758924 -18.960644
-3.3522668 0.83806705 -18.946318
-3.3516507 -1.3532252e-06 -18.964905
-3.3506889 -0.83767259 -18.993937
-3.3522797 -1.6761416 -18.945934
-3.3531654 -2.5148749 -18.919193
-3.3389709 -3.3389697 -19.347561
-3.3388817 -4.1736002 -19.350252
-3.3387926 -5.0081882 -19.352938
-3.3387034 -5.8427305 -19.355627
-3.3386142 -6.6772308 -19.358315
-3.3385253 -7.5116849 -19.361006
-3.3384361 -8.3460903 -19.363699
-3.338347 -9.1804562 -19.366379
-3.3382454 -10.014735 -19.369459
-3.338156 -10.849008 -19.372149
-3.3380668 -11.683238 -19.374834
-3.3379781 -12.517419 -19.377522
-3.337889 -13.351555 -19.380215
-3.3377998 -14.185646 -19.382902
-3.3377109 -15.0197 -19.385588
-3.3377235 -15.85419 -19.385201
-3.3378127 -16.689066 -19.382515
-3.3379016 -17.523983 -19.379831
-2.8787949 22.070761 -4.2761517
-2.8094864 20.6029 -7.0649219
-2.7888079 19.521658 -7.8969622
-2.7911904 18.607939 -7.8010888
-2.7978384 17.719643 -7.5335827
-2.8053451 16.832073 -7.2315426
-2.7704756 15.699359 -8.6345873
-2.7689569 14.767771 -8.6956997
-2.6162884 13.081444 -14.8386
-2.5392942 11.85004 -17.936604
-2.5006804 10.836283 -19.490309
-2.4860246 9.9440994 -20.080009
-2.4803529 9.0946236 -20.308229
-2.4781435 8.260478 -20.397118
-2.4772928 7.4318795 -20.431358
-2.4760973 6.6029243 -20.479465
-2.4753692 5.7758608 -20.508762
-2.4762745 4.9525471 -20.472326
-2.4770124 4.1283526 -20.442633
-2.4767601 3.3023448 -20.452785
-2.4765639 2.4765618 -20.460676
-2.4764051 1.6509402 -20.467068
-2.4761531 0.82538563 -20.477213
-2.4758265 -2.1252392e-06 -20.490356
-2.4754157 -0.82513696 -20.506886
-2.4769657 -1.6513128 -20.444508
-2.4771154 -2.477118 -20.438499
-2.4792852 -3.3057134 -20.351192
-2.4669712 -4.111619 -20.846664
-2.4669063 -4.9338145 -20.849272
-2.4668415 -5.7559633 -20.851883
-2.4667766 -6.5780711 -20.854492
-2.4667118 -7.400136 -20.857107
-2.4666376 -8.2221279 -20.860085
-2.4665728 -9.0440998 -20.862698
-2.4665079 -9.8660307 -20.865307
-2.4664431 -10.687923 -20.867914
-2.4663782 -11.509765 -20.870523
-2.4663136 -12.331569 -20.873131
-2.4662483 -13.153325 -20.875744
-2.4661837 -13.975039 -20.878351
-2.4661098 -14.796659 -20.88133
-2.4660449 -15.618285 -20.88394
-2.4659801 -16.439865 -20.886553
-2.4660354 -17.262253 -20.884314
-2.4661002 -18.084738 -20.881704
-1.8740814 20.614893 -6.9991012
-1.832648 19.242804 -9.4998236
-1.8124721 18.124722 -10.717548
-1.8075179 17.171415 -11.01656
-1.8067048 16.260344 -11.065643
-1.8085634 15.372789 -10.953465
-1.8108752 14.487 -10.813933
-1.7652148 13.23911 -13.569783
-1.6938652 11.857054 -17.876114
-1.6551064 10.758191 -20.215408
-1.6379399 9.8276405 -21.251501
-1.6313903 8.9726467 -21.646807
-1.6289014 8.1445065 -21.797022
-1.6276599 7.324471 -21.871962
-1.6270851 6.5083408 -21.906649
-1.6266377 5.6932302 -21.933645
-1.6262026 4.8786087 -21.959909
-1.6259611 4.0649028 -21.974493
-1.6260033 3.2520063 -21.971937
-1.6263114 2.4394655 -21.953341
-1.6266255 1.6266243 -21.934376
-1.6269763 0.81348389 -21.913214
-1.6267767 -9.5075086e-07 -21.925255
-1.6265591 -0.81328219 -21.938387
-1.6262388 -1.6262389 -21.95772
-1.6261301 -2.4391978 -21.964283
-1.6269158 -3.2538328 -21.916866
-1.6286529 -4.0716352 -21.812019
-1.6205378 -4.8616152 -22.301809
-1.6204957 -5.6717377 -22.304348
-1.6204478 -6.4817939 -22.307243
-1.6204058 -7.2918234 -22.30978
-1.6203638 -8.1018238 -22.312309
-1.6203218 -8.9117699 -22.31485
-1.6202798 -9.7216825 -22.317381
-1.6202378 -10.531548 -22.319914
-1.620196 -11.34137 -22.322445
-1.6201538 -12.151152 -22.324984
-1.6201059 -12.960851 -22.327877
-1.6200639 -13.770548 -22.330408
-1.6200219 -14.580199 -22.332941
-1.6199801 -15.389811 -22.335474
-1.6199381 -16.199383 -22.338005
-1.6198962 -17.008909 -22.34054
-1.6198721 -17.818592 -22.34199
-1.61992 -18.62908 -22.339094
-0.94052356 20.691515 -6.5786796
-0.90659267 19.038446 -10.674506
-0.89527887 17.905577 -12.040197
-0.89119619 16.932728 -12.533024
-0.88998955 16.019814 -12.678684
-0.89003295 15.130556 -12.673435
-0.89114904 14.258381 -12.538711
-0.89255178 13.388275 -12.369393
-0.85188365 11.926368 -17.278469
-0.82543421 10.730645 -20.471201
-0.8111577 9.7338924 -22.194523
-0.80567873 8.8624659 -22.85589
-0.80328369 8.0328398 -23.144999
-0.80212682 7.2191415 -23.284649
-0.80164498 6.4131603 -23.342808
-0.80144536 5.6101198 -23.366901
-0.80140728 4.8084435 -23.371502
-0.80145127 4.0072584 -23.366192
-0.80155987 3.2062409 -23.353083
-0.80170667 2.4051192 -23.33536
-0.80162156 1.6032387 -23.345638
-0.80129874 0.80129999 -23.384611
-0.80146009 -1.296224e-06 -23.365124
-0.80158919 -0.80158764 -23.349543
-0.80169201 -1.6033835 -23.337137
-0.8017419 -2.4052298 -23.331106
-0.80169493 -3.2067821 -23.336781
-0.80200046 -4.0100012 -23.299908
-0.80236501 -4.814188 -23.255898
-0.79855949 -5.5899181 -23.715263
-0.79853898 -6.3883166 -23.71773
-0.7985186 -7.1866698 -23.720188
-0.79849821 -7.9849796 -23.722654
-0.79847783 -8.7832575 -23.725113
-0.79845744 -9.5814924 -23.727577
-0.79843706 -10.379685 -23.730036
-0.79841375 -11.177792 -23.732851
-0.79839337 -11.9759 -23.735313
-0.79837298 -12.773966 -23.737772
-0.7983526 -13.571997 -23.740231
-0.79833221 -14.369981 -23.742695
-0.79831189 -15.167925 -23.745155
-0.7982915 -15.96583 -23.747614
-0.7982682 -16.763634 -23.750429
-0.79824781 -17.561455 -23.75288
-0.79822743 -18.35923 -23.755346
-0.79823327 -19.1576 -23.754639
-9.5256816e-24 18.938122 -11.251194
1.0287172e-23 17.73151 -13.090768
-1.8191391e-23 16.724424 -13.856421
-9.3542716e-24 15.797432 -14.169987
-1.0934565e-23 14.912266 -14.223485
-1.6385515e-23 14.051179 -14.101979
-1.4586136e-23 13.18292 -14.021958
-5.3252434e-24 12.326431 -13.829064
1.8580072e-24 10.748846 -20.3022
-1.6784079e-23 9.6815453 -22.7211
5.1420068e-24 8.7634325 -23.942623
9.7255663e-24 7.9293242 -24.394478
-7.5594805e-24 7.1219187 -24.588606
7.5713544e-24 6.3246064 -24.679003
1.268234e-23 5.5315695 -24.721382
2.4303542e-25 4.74054 -24.737566
-7.3175621e-24 3.9504223 -24.738255
-1.9181816e-24 3.1605988 -24.730331
-3.4590289e-25 2.3707609 -24.717939
-2.3240051e-23 1.5808072 -24.699682
4.291356e-24 0.78983432 -24.768192
-1.7637699e-24 -1.5412522e-06 -24.749609
-1.8084794e-24 -0.7901423 -24.731709
1.809806e-23 -1.5805435 -24.71587
1.4900778e-23 -2.3710792 -24.705187
9.3038381e-24 -3.1615715 -24.701057
1.1225806e-23 -3.9516668 -24.70829
-1.5452078e-23 -4.7420683 -24.706915
-1.9446059e-23 -5.5377092 -24.615538
6.0706728e-24 -6.2974935 -25.088112
2.4255012e-24 -7.0845027 -25.090502
-6.4682397e-24 -7.871469 -25.092897
1.4299417e-23 -8.6583672 -25.095627
5.4705137e-24 -9.4452553 -25.098019
-2.713094e-23 -10.232098 -25.100416
7.7785093e-24 -11.018909 -25.102804
-1.4171817e-23 -11.805673 -25.105196
-1.8885988e-23 -12.592401 -25.10759
-3.7154055e-24 -13.379089 -25.10998
2.2215522e-24 -14.165741 -25.112368
-4.4847326e-24 -14.952294 -25.115105
-3.4202551e-23 -15.738861 -25.117496
-7.6396682e-24 -16.525387 -25.119884
2.4120211e-24 -17.311876 -25.122272
3.2348466e-23 -18.098326 -25.124659
1.00541e-23 -18.884735 -25.127052
7.6444897e-24 -19.671103 -25.129442
0.90062404 18.913107 -11.394975
0.88043106 17.608622 -13.832486
0.87065655 16.542473 -15.012377
0.86638314 15.594899 -15.528227
0.86500323 14.705053 -15.694786
0.86531103 13.844976 -15.657633
0.86609519 12.991424 -15.562984
0.86730319 12.142248 -15.417169
0.83249801 10.822474 -19.618513
0.80579448 9.6695328 -22.841927
0.79046136 8.6950731 -24.692787
0.78369713 7.8369708 -25.50931
0.78099585 7.0289602 -25.835384
0.77988547 6.2390819 -25.969412
0.77916926 5.4541831 -26.055874
0.77906388 4.6743817 -26.068594
0.77877283 3.8938622 -26.103729
0.7787922 3.115165 -26.101383
0.77885872 2.3365784 -26.093359
0.7789585 1.5579158 -26.08131
0.77896678 0.77896804 -26.080307
0.77896398 -3.1019197e-06 -26.080643
0.77890587 -0.77890635 -26.087667
0.7789557 -1.557912 -26.081644
0.77894741 -2.3368433 -26.082649
0.77902502 -3.1161039 -26.073277
0.77904165 -3.895211 -26.071266
0.77896678 -4.6738024 -26.080305
0.77941614 -5.455915 -26.026062
0.77864259 -6.2291427 -26.119444
0.77613008 -6.9851713 -26.422733
0.77611077 -7.7611094 -26.425056
0.77609158 -8.5370054 -26.427385
0.77607226 -9.3128681 -26.429705
0.77605301 -10.088693 -26.432034
0.77603376 -10.864475 -26.434359
0.77601451 -11.64022 -26.436684
0.77599519 -12.415926 -26.439005
0.7759732 -13.191548 -26.441662
0.77595401 -13.967171 -26.443989
0.7759347 -14.742759 -26.446316
0.7759155 -15.518309 -26.448641
0.77589619 -16.293821 -26.450964
0.77587694 -17.069294 -26.453285
0.77585769 -17.84473 -26.455608
0.77583843 -18.620121 -26.457933
0.77581644 -19.395414 -26.460585
0.77579719 -20.170731 -26.46291
1.8097372 19.002241 -10.882614
1.7547989 17.547987 -14.198438
1.7262 16.398897 -15.924535
1.7125521 15.41297 -16.74826
1.7075886 14.514503 -17.047829
1.7058452 13.646758 -17.153048
1.7069228 12.801921 -17.088017
1.7090486 11.963343 -16.959713
1.71211 11.128715 -16.774937
1.6164925 9.6989565 -22.545965
1.5745823 8.660203 -25.075466
1.5523098 7.761548 -26.419743
1.543378 6.9452004 -26.958817
1.5397354 6.1589384 -27.178667
1.5380098 5.3830338 -27.282822
1.5370269 4.6110821 -27.342142
1.5366007 3.8415022 -27.367867
1.5364226 3.0728457 -27.378605
1.5364388 2.3046577 -27.377632
1.5364658 1.5364617 -27.376003
1.536606 0.76830417 -27.367542
1.5362879 5.2735652e-07 -27.386744
1.5360398 -0.7680198 -27.401709
1.5362933 -1.5362957 -27.386417
1.5364982 -2.304749 -27.37405
1.5362824 -3.0725663 -27.387068
1.5368596 -3.8421483 -27.352236
1.5371132 -4.6113396 -27.336927
1.5370592 -5.3797078 -27.340187
1.5378476 -6.151392 -27.292608
1.531333 -6.8909988 -27.685799
1.5307654 -7.6538262 -27.720064
1.5307279 -8.4190025 -27.722321
1.5306904 -9.184144 -27.724579
1.5306529 -9.9492474 -27.726837
1.5306154 -10.714309 -27.729103
1.5305727 -11.479297 -27.731686
1.5305352 -12.244282 -27.733948
1.5304977 -13.009231 -27.73621
1.5304602 -13.774143 -27.738472
1.5304229 -14.539016 -27.740732
1.5303854 -15.303855 -27.74299
1.5303479 -16.068655 -27.745249
1.5303105 -16.833418 -27.747507
1.5302677 -17.598078 -27.750097
1.5309581 -18.371498 -27.708424
1.5322818 -19.153522 -27.628538
1.5342903 -19.945772 -27.507313
1.537097 -20.750811 -27.337902
2.6295736 17.530491 -14.30405
2.57231 16.291296 -16.608164
2.5432677 15.259605 -17.776722
2.5293763 14.333134 -18.335688
2.5243101 13.462985 -18.539528
2.5250285 12.625144 -18.510624
2.5274291 11.794665 -18.414032
2.5304484 10.965275 -18.292542
2.4462011 9.7848043 -21.682386
2.3606424 8.6556864 -25.125006
2.3118391 7.7061281 -27.088692
2.2901659 6.8704953 -27.960764
2.2810802 6.0828805 -28.326338
2.2770619 5.3131413 -28.488024
2.2751052 4.5502105 -28.56675
2.2739236 3.7898712 -28.6143
2.2729948 3.0306592 -28.651676
2.2732465 2.2732446 -28.641541
2.2731206 1.5154121 -28.64661
2.2733409 0.75777704 -28.637743
2.2735379 -4.1190725e-07 -28.629822
2.2726564 -0.75755388 -28.665285
2.2727587 -1.5151727 -28.661175
2.2734275 -2.2734277 -28.634262
2.273459 -3.0312784 -28.632996
2.2729239 -3.7882094 -28.654522
2.2736399 -4.5472798 -28.62571
2.2741046 -5.3062439 -28.607014
2.2746325 -6.0656853 -28.585777
2.2755311 -6.8265958 -28.549616
2.2648413 -7.5494723 -28.979748
2.2647865 -8.3042164 -28.981949
2.2647319 -9.0589314 -28.984142
2.2646694 -9.8135681 -28.986662
2.2646146 -10.568203 -28.988863
2.26456 -11.322803 -28.991062
2.2645054 -12.077363 -28.993259
2.2644508 -12.831889 -28.995457
2.264396 -13.58638 -28.997654
2.2649741 -14.344841 -28.9744
2.2663577 -15.109053 -28.918728
2.2690518 -15.883364 -28.810328
2.2726722 -16.666264 -28.664654
2.2774096 -17.460138 -28.474043
2.2825711 -18.260569 -28.266354
2.2885854 -19.071547 -28.024353
2.2953854 -19.893341 -27.75074
2.302969 -20.726723 -27.445599
3.5224893 17.61245 -13.809399
3.4173901 16.232603 -16.981049
3.3633418 15.135037 -18.612099
3.3353839 14.175382 -19.455809
3.3238988 13.295595 -19.802404
3.3216288 12.456109 -19.870905
3.3222086 11.62773 -19.853411
3.3266897 10.811743 -19.718176
3.3307018 9.9921064 -19.597105
3.1609552 8.6926231 -24.71966
3.0753496 7.6883712 -27.303038
3.026511 6.8096499 -28.776873
3.0058439 6.0116882 -29.400555
2.9976311 5.2458534 -29.648394
2.9934189 4.4901257 -29.775511
2.991905 3.7398808 -29.821199
2.9907091 2.9907074 -29.857286
2.9901371 2.2426004 -29.874546
2.9897184 1.4948586 -29.887178
2.9903619 0.74758989 -29.867765
2.9910464 2.5794941e-07 -29.847111
2.9896164 -0.74740577 -29.890261
2.9904437 -1.4952242 -29.865301
2.991302 -2.2434788 -29.839399
2.9910769 -2.9910762 -29.846184
2.9911587 -3.7389512 -29.843718
2.991905 -4.4878564 -29.821201
2.9924777 -5.2368398 -29.803919
2.9934292 -5.9868593 -29.775206
2.993818 -6.7360935 -29.763462
2.9962463 -7.4906163 -29.690191
2.9790876 -8.1924925 -30.207993
2.9790168 -8.9370508 -30.210133
2.978946 -9.6815758 -30.212273
2.9790778 -10.426772 -30.208298
2.9802234 -11.175839 -30.173719
2.9835446 -11.934176 -30.073502
2.987515 -12.696938 -29.953682
2.9934599 -13.470572 -29.774275
2.9997573 -14.24885 -29.58423
3.0074856 -15.037431 -29.351011
3.0157835 -15.832867 -29.100599
3.0251932 -16.638563 -28.816637
3.0359037 -17.456448 -28.493422
3.0287514 -18.17251 -28.709257
3.0228536 -18.892836 -28.887241
3.0226762 -19.647396 -28.892593
3.0204654 -20.388142 -28.959314
3.0213411 -21.149384 -28.93289
3.0225616 -21.913572 -28.896061
3.0295794 -22.721848 -28.684269
4.2725716 16.235769 -16.960918
4.1781273 15.041257 -19.241001
4.1280737 14.035451 -20.449398
4.105372 13.137192 -20.997469
4.0983768 12.295131 -21.166348
4.0976248 11.473351 -21.1845
4.0995898 10.658933 -21.13707
4.1057415 9.8537788 -20.988548
4.008225 8.8180923 -23.342808
3.8479309 7.6958618 -27.212646
3.764698 6.7764525 -29.222071
3.7209983 5.9535947 -30.277073
3.7030818 5.1843138 -30.709618
3.6944935 4.4333901 -30.91695
3.6916897 3.6916869 -30.984648
3.6904571 2.9523664 -31.014402
3.6901834 2.2141075 -31.021015
3.6891136 1.4756463 -31.046839
3.6878829 0.73757416 -31.076551
3.6889272 -3.2057203e-06 -31.051342
3.6897233 -0.73794878 -31.032125
3.689574 -1.4758307 -31.035728
3.6900215 -2.214016 -31.02492
3.6908927 -2.952714 -31.003885
3.6923623 -3.6923635 -30.968412
3.6925366 -4.4310436 -30.964201
3.6935585 -5.1709809 -30.939528
3.6948678 -5.9117918 -30.907919
3.6964028 -6.6535239 -30.870863
3.6977267 -7.3954539 -30.838902
3.7020168 -8.1444426 -30.735321
3.6830053 -8.8392124 -31.194307
3.6895986 -9.5929585 -31.035128
3.6968899 -10.351296 -30.8591
3.7060037 -11.118011 -30.639082
3.7157555 -11.890416 -30.403654
3.72651 -12.670134 -30.144012
3.7387569 -13.459526 -29.848343
3.7531171 -14.261845 -29.501659
3.7308037 -14.923215 -30.040352
3.7276523 -15.656144 -30.11643
3.7255332 -16.392344 -30.167595
3.7234795 -17.128008 -30.217169
3.7235682 -17.873131 -30.215025
3.7224538 -18.612272 -30.241932
3.7210996 -19.349716 -30.274633
3.7222385 -20.100092 -30.247131
3.7233655 -20.850849 -30.219921
3.7239614 -21.598976 -30.205542
3.725013 -22.35008 -30.180145
3.7324705 -23.141319 -30.000111
5.1425452 16.284725 -16.649908
4.9969077 14.990725 -19.579895
4.914721 13.925043 -21.23337
4.872942 12.994513 -22.0739
4.8565435 12.141359 -22.403814
4.8515377 11.320253 -22.504517
4.8521471 10.512985 -22.492256
4.8588433 9.7176867 -22.357538
4.8651977 8.9195271 -22.229708
4.6395392 7.7325659 -26.769598
4.5094934 6.7642412 -29.385916
4.430192 5.9069228 -30.981342
4.3962603 5.1289701 -31.663992
4.3818264 4.3818259 -31.954376
4.3744993 3.6454167 -32.101788
4.3718929 2.9145956 -32.154232
4.3718929 2.185946 -32.154232
4.3710923 1.4570267 -32.170334
4.3718781 0.72864419 -32.154526
4.3728681 -9.2324251e-07 -32.134609
4.372169 -0.7286967 -32.148666
4.3748636 -1.4582896 -32.094456
4.3751264 -2.1875648 -32.08918
4.3760738 -2.917381 -32.070114
4.3792839 -3.6494033 -32.005527
4.3809934 -4.3809943 -31.97114
4.3850598 -5.1159067 -31.889326
4.3899999 -5.853333 -31.789942
4.3962455 -6.5943718 -31.664289
4.4048419 -7.341404 -31.491341
4.4163814 -8.0967035 -31.259188
4.4082279 -8.8164558 -31.423223
4.4217644 -9.5804873 -31.150898
4.437602 -10.354403 -30.832266
4.4247885 -11.061974 -31.090048
4.416842 -11.778248 -31.249926
4.4141397 -12.506731 -31.304285
4.4119749 -13.235927 -31.347843
4.4102411 -13.965764 -31.382717
4.4091306 -14.697105 -31.40506
4.4082723 -15.428955 -31.422329
4.406867 -16.158516 -31.4506
4.4052558 -16.886814 -31.483021
4.4045763 -17.618305 -31.496693
4.4053149 -18.35548 -31.481833
4.4065709 -19.095144 -31.456553
4.406157 -19.827709 -31.464884
4.4066305 -20.564274 -31.455364
4.4080648 -21.305651 -31.426495
4.4105077 -22.052542 -31.377354
4.4137983 -22.804628 -31.311152
4.4199486 -23.573059 -31.187422
5.8253598 14.979496 -19.655193
5.697742 13.837372 -21.855883
5.6292872 12.866941 -23.036335
5.5981674 11.996075 -23.572977
5.5887127 11.177426 -23.736015
5.5856361 10.373325 -23.789066
5.5907521 9.5841436 -23.700848
5.5988016 8.7981138 -23.56204
5.6060123 8.0085859 -23.437695
5.2728081 6.7793226 -29.183596
5.1514745 5.8873954 -31.275917
5.0838203 5.0838218 -32.442574
5.056489 4.3341341 -32.913883
5.0451007 3.6036408 -33.110271
5.0400887 2.8800492 -33.196701
5.0411334 2.1604822 -33.178684
5.0404868 1.4401371 -33.189838
5.0416479 0.72023368 -33.169815
5.0424109 1.6862508e-06 -33.156654
5.045001 -0.72071832 -33.111992
5.0483255 -1.4423784 -33.054661
5.0528374 -2.1655014 -32.97686
5.0592947 -2.8910303 -32.865509
5.068181 -3.6201298 -32.712269
5.0794892 -4.3538499 -32.517269
5.0930815 -5.0930829 -32.282875
5.1089258 -5.8387728 -32.00964
5.1259842 -6.5905533 -31.715481
5.1447978 -7.3497124 -31.391062
5.0941992 -8.0051699 -32.263599
5.0843267 -8.7159901 -32.433846
5.080853 -9.435873 -32.49374
5.0782094 -10.156419 -32.539337
5.0761738 -10.877516 -32.574436
5.0747781 -11.599494 -32.598503
5.0739379 -12.322421 -32.612995
5.0738535 -13.047055 -32.614441
5.0738535 -13.77189 -32.614445
5.0735517 -14.495864 -32.619652
5.0732489 -15.219747 -32.62487
5.0730648 -15.943917 -32.628059
5.0729132 -16.668144 -32.630665
5.0729637 -17.393019 -32.629799
5.0733161 -18.118988 -32.623714
5.0735683 -18.844685 -32.619366
5.0760055 -19.57888 -32.577335
5.0774693 -20.309877 -32.552105
5.0785966 -21.039904 -32.532654
5.0822859 -21.781229 -32.469036
5.0848665 -22.518698 -32.424534
5.0879397 -23.259155 -32.371536
5.0968933 -24.028214 -32.21714
6.6933341 15.060002 -19.115303
6.4893579 13.789884 -22.193069
6.3816533 12.763305 -23.818201
6.329474 11.867764 -24.605526
6.3079042 11.038831 -24.930992
6.3006186 10.238504 -25.040928
6.3040667 9.4560995 -24.988901
6.3107233 8.6772442 -24.888458
6.319994 7.8999929 -24.748579
6.0694714 6.828156 -28.528671
5.8869243 5.8869209 -31.283085
5.7779679 5.0557199 -32.927116
5.7228832 4.2921643 -33.758286
5.7040911 3.5650575 -34.041824
5.6998949 2.8499453 -34.105145
5.7004333 2.1376619 -34.097027
5.704556 1.4261382 -34.034813
5.7097273 0.71371275 -33.956791
5.7170348 -3.6526467e-07 -33.846527
5.7278438 -0.71598238 -33.68343
5.7413096 -1.4353297 -33.480247
5.7574878 -2.1590569 -33.236137
5.7756238 -2.8878136 -32.962486
5.7943535 -3.6214719 -32.679874
5.8156381 -4.3617306 -32.358719
5.7628498 -5.0424972 -33.155228
5.7457371 -5.7457371 -33.413448
5.7390137 -6.4563899 -33.514889
5.7337899 -7.1672363 -33.593716
5.7303371 -7.8792152 -33.645813
5.7278438 -8.5917683 -33.68343
5.7266264 -9.3057709 -33.701801
5.7260833 -10.020646 -33.709999
5.7254467 -10.735215 -33.719601
5.7247353 -11.449472 -33.730335
5.7241549 -12.163829 -33.73909
5.7236686 -12.878255 -33.746429
5.7233882 -13.593048 -33.750664
5.7235188 -14.308801 -33.748684
5.7239308 -15.025319 -33.742474
5.7248101 -15.743229 -33.729206
5.7262707 -16.463028 -33.707172
5.7278438 -17.183531 -33.683434
5.7290993 -17.903437 -33.664486
5.7305431 -18.624269 -33.642693
5.7342968 -19.353251 -33.586071
5.7377915 -20.08227 -33.533333
5.7421565 -20.815321 -33.467461
5.7482457 -21.555923 -33.375587
5.7577147 -22.311148 -33.232708
5.7702565 -23.081026 -33.043476
5.7889514 -23.879427 -32.761383
5.8816252 -24.996908 -31.36305
7.2880225 13.76626 -22.360796
7.1334224 12.681639 -24.434338
7.0508251 11.751373 -25.542156
7.0130725 10.909224 -26.04851
7.0006604 10.112065 -26.214975
7.0027761 9.3370352 -26.186602
7.0037222 8.5601015 -26.173914
7.0126233 7.7918034 -26.054531
7.0225978 7.0225954 -25.92075
6.6489663 5.9101915 -30.932007
6.4951773 5.0518026 -32.994671
6.4029608 4.2686386 -34.231503
6.3711524 3.5395274 -34.658127
6.3732753 2.8325648 -34.62965
6.3829193 2.1276383 -34.500305
6.3956437 1.4212508 -34.329643
6.4120274 0.71244723 -34.109905
6.4305305 -2.789068e-06 -33.861732
6.4527531 -0.71697158 -33.563675
6.4746404 -1.4388088 -33.270115
6.49717 -2.1657243 -32.967949
6.4412961 -2.8627994 -33.717342
6.406918 -3.5593998 -34.178432
6.3883219 -4.258882 -34.427845
6.3767004 -4.9596567 -34.583717
6.368516 -5.6609035 -34.693485
6.3664374 -6.3664403 -34.721367
6.360189 -7.0668769 -34.80518
6.3594494 -7.7726612 -34.81509
6.3603325 -8.480442 -34.803253
6.3588338 -9.1849823 -34.823349
6.3577461 -9.8898268 -34.83794
6.3574586 -10.595765 -34.841793
6.3593059 -11.305434 -34.81702
6.3612771 -12.01575 -34.790577
6.3629208 -12.725841 -34.768532
6.3623247 -13.431576 -34.776527
6.3621402 -14.138093 -34.778999
6.3655934 -14.853054 -34.732681
6.368701 -15.567938 -34.691002
6.3705959 -16.280413 -34.665588
6.3744102 -16.998428 -34.614437
6.3798804 -17.721893 -34.541061
6.3865824 -18.450127 -34.45118
6.3972845 -19.191854 -34.307636
6.4109421 -19.945156 -34.124458
6.4283271 -20.713499 -33.891285
6.447916 -21.493057 -33.628544
6.4697495 -22.284691 -33.335716
6.4970407 -23.100592 -32.969673
6.5273094 -23.933466 -32.563705
6.6550088 -25.141144 -30.850964
8.1357279 13.830737 -21.902996
7.8899679 12.62395 -24.869579
7.7684903 11.652733 -26.335945
7.7084646 10.791851 -27.06052
7.6843519 9.9896574 -27.351583
7.6788526 9.2146215 -27.417973
7.6817627 8.4499388 -27.382839
7.6911025 7.6910996 -27.270102
7.7015753 6.9314175 -27.143679
7.4583273 5.9666595 -30.079943
7.238008 5.0666056 -32.739433
7.1235933 4.2741561 -34.120541
7.084764 3.5423791 -34.589252
7.0888252 2.8355305 -34.54023
7.1054635 2.1316385 -34.339394
7.1247764 1.424956 -34.106266
7.14676 0.71467429 -33.840893
7.1716518 3.0342449e-08 -33.540421
7.1969304 -0.71969372 -33.235279
7.2236276 -1.4447246 -32.913017
7.2522774 -2.1756823 -32.567188
7.0679259 -2.8271723 -34.792507
7.0293155 -3.5146599 -35.258572
7.0089221 -4.2053537 -35.504745
6.9983668 -4.8988585 -35.632153
6.9882231 -5.590579 -35.754604
6.9863715 -6.2877355 -35.776955
6.9815359 -6.981535 -35.835327
6.9793096 -7.6772408 -35.862198
6.9796214 -8.3755484 -35.858437
6.9805341 -9.0746946 -35.847424
6.9811573 -9.7736225 -35.839893
6.9822259 -10.47334 -35.826992
6.9849224 -11.175879 -35.794449
6.9867954 -11.877554 -35.771839
6.9876871 -12.577838 -35.76107
6.9920177 -13.284837 -35.708794
6.9951015 -13.990205 -35.671577
7.0007844 -14.701648 -35.602974
7.0103817 -15.422842 -35.487125
7.0236535 -16.154406 -35.32692
7.0388098 -16.893141 -35.143974
7.0570555 -17.642643 -34.923721
7.0791955 -18.405912 -34.656464
7.1021433 -19.175785 -34.379471
7.1287441 -19.960485 -34.058369
7.1557317 -20.751625 -33.732594
7.1846223 -21.553867 -33.38385
7.2146273 -22.365349 -33.021656
7.2484345 -23.194994 -32.613571
7.2887926 -24.053019 -32.126408
7.4373941 -25.287142 -30.332628
8.660203 12.59666 -25.075464
8.4826279 11.567219 -27.024126
8.3971872 10.687327 -27.961727
8.3588219 9.8786058 -28.382734
8.3454075 9.1040812 -28.529945
8.343441 8.343442 -28.551525
8.3503275 7.5912056 -28.475946
8.3615799 6.841291 -28.352474
8.3747549 6.0907302 -28.207891
8.0076723 5.095788 -32.236141
7.8685012 4.2919087 -33.763363
7.8243403 3.5565188 -34.247967
7.8284874 2.8467221 -34.202457
7.8462691 2.1398907 -34.007328
7.8694015 1.4307986 -33.753483
7.8949223 0.7177195 -33.473431
7.9243102 -6.8040617e-07 -33.150928
7.9548111 -0.72316408 -32.816219
7.9853368 -1.4518821 -32.481247
7.8772545 -2.1483424 -33.667313
7.7242098 -2.8088048 -35.346775
7.6597772 -3.4817166 -36.053837
7.626658 -4.1599989 -36.417282
7.609087 -4.8421493 -36.6101
7.6020951 -5.5287971 -36.686825
7.5975132 -6.2161498 -36.737103
7.5953565 -6.9048686 -36.760773
7.5949969 -7.5949984 -36.764717
7.5948052 -8.285244 -36.766819
7.5935354 -8.9741793 -36.78075
7.5966983 -9.6685276 -36.746044
7.6006794 -10.364564 -36.702362
7.6061301 -11.063461 -36.642548
7.611949 -11.763922 -36.578686
7.6215878 -12.47169 -36.472916
7.6351228 -13.187941 -36.32439
7.6524491 -13.913548 -36.134251
7.6727633 -14.648005 -35.911331
7.6968012 -15.393603 -35.647549
7.721931 -16.145855 -35.371784
7.7500677 -16.909237 -35.063019
7.778511 -17.678438 -34.750885
7.8086839 -18.45689 -34.419785
7.8407497 -19.245481 -34.067894
7.8716397 -20.036903 -33.72892
7.904356 -20.838758 -33.3699
7.9394403 -21.653019 -32.984901
7.975893 -22.477516 -32.584881
8.0135088 -23.312029 -32.172089
8.0606737 -24.182022 -31.654518
8.2288914 -25.434757 -29.80855
9.4687462 12.624996 -24.861685
9.2090664 11.511331 -27.473871
9.0822325 10.595936 -28.749712
9.0212793 9.7730513 -29.362858
8.9968367 8.9968367 -29.60873
8.991354 8.2420759 -29.663877
8.991785 7.4931536 -29.659546
9.0035286 6.752645 -29.54141
9.0168819 6.0112505 -29.407095
8.8407001 5.1570749 -31.179337
8.6270123 4.3135076 -33.328873
8.5770922 3.5737882 -33.831032
8.5792494 2.8597493 -33.809334
8.6011915 2.1502974 -33.588619
8.6270981 1.4378471 -33.328018
8.6580381 0.72150385 -33.016781
8.6891155 -1.7231612e-06 -32.70417
8.723196 -0.72693688 -32.36134
8.7586555 -1.459775 -32.004646
8.5968561 -2.1492143 -33.632225
8.4047861 -2.8015993 -35.564304
8.2979898 -3.4574974 -36.638592
8.2448006 -4.1224008 -37.17363
8.2201586 -4.7950959 -37.421513
8.209753 -5.4731688 -37.526188
8.2021637 -6.1516228 -37.602524
8.2016001 -6.8346682 -37.608192
8.2036238 -7.51999 -37.587833
8.2064686 -8.2064695 -37.559216
8.2138863 -8.8983774 -37.484604
8.2223454 -9.5927372 -37.399513
8.2374315 -10.29679 -37.247761
8.2544394 -11.00592 -37.076672
8.2755051 -11.723634 -36.864769
8.3007698 -12.451156 -36.610626
8.3283529 -13.186561 -36.333153
8.3583012 -13.930505 -36.031902
8.3887606 -14.680334 -35.725506
8.4202518 -15.43713 -35.40873
8.4538574 -16.20323 -35.070679
8.4876776 -16.975357 -34.730473
8.5211344 -17.752363 -34.393932
8.5561924 -18.538416 -34.041267
8.5926933 -19.333561 -33.674095
8.6292229 -20.134859 -33.306633
8.6674385 -20.94631 -32.922226
8.7055311 -21.763828 -32.539043
8.7456198 -22.592852 -32.135784
8.7924023 -23.446409 -31.665178
8.8463573 -24.327484 -31.122435
9.9480963 11.478571 -27.737503
9.7614861 10.512369 -29.470264
9.6767015 9.6767015 -30.257524
9.6359358 8.8947067 -30.636049
9.6203632 8.1403046 -30.780647
9.622901 7.4022274 -30.757084
9.6293812 6.6664934 -30.696907
9.6433811 5.9343886 -30.56691
9.6583071 5.2006288 -30.428316
9.410531 4.3433213 -32.729031
9.3427696 3.5933719 -33.358219
9.3468208 2.8759418 -33.32061
9.368084 2.1618638 -33.123158
9.3989677 1.4459932 -32.836407
9.4327116 0.72559172 -32.523075
9.4692507 -2.233714e-06 -32.183796
9.5087423 -0.73144293 -31.817099
9.5448484 -1.4684381 -31.481827
9.32868 -2.1527743 -33.489052
9.1053009 -2.8016336 -35.563221
8.9552555 -3.4443288 -36.956467
8.8696127 -4.093667 -37.75169
8.8294573 -4.754323 -38.124554
8.81668 -5.4256525 -38.243187
8.8148785 -6.1026092 -38.259926
8.8211365 -6.7854905 -38.20182
8.8330479 -7.4741182 -38.091213
8.8496685 -8.1689262 -37.936886
8.869585 -8.869585 -37.751949
8.8948994 -9.5791245 -37.516891
8.9223166 -10.294983 -37.262314
8.9527187 -11.018733 -36.980011
8.9846344 -11.749138 -36.683662
9.0184364 -12.487065 -36.369801
9.0533857 -13.231873 -36.04528
9.0888395 -13.982829 -35.716076
9.1265621 -14.742906 -35.365807
9.1626806 -15.506077 -35.030426
9.200901 -16.278519 -34.675529
9.2392616 -17.0571 -34.31934
9.2771873 -17.840746 -33.967182
9.3168592 -18.63372 -33.598812
9.3571482 -19.43408 -33.224712
9.3979435 -20.241726 -32.845909
9.4393768 -21.057072 -32.461185
9.4821882 -21.881973 -32.063667
9.530015 -22.72542 -31.619564
9.5797472 -23.580915 -31.157782
9.6469774 -24.488485 -30.533514
10.718205 11.48379 -27.695501
10.453663 10.453662 -29.976437
10.329205 9.591404 -31.04954
10.266326 8.7997074 -31.591696
10.243333 8.0483322 -31.789944
10.240526 7.3146605 -31.814144
10.242579 6.5845122 -31.796438
10.253959 5.8594017 -31.698326
10.266808 5.1334023 -31.587543
10.281897 4.4065247 -31.457441
10.142636 3.62237 -32.658169
10.143273 2.8980792 -32.652672
10.168518 2.178968 -32.435013
10.208559 1.4583634 -32.089767
10.371927 0.74084866 -30.681171
10.385285 -1.4477051e-06 -30.566002
10.412281 -0.74373591 -30.333237
10.481088 -1.4973005 -29.739979
10.074974 -2.1589255 -33.241562
9.8167973 -2.8048007 -35.467613
9.6414509 -3.4433775 -36.979485
9.5186586 -4.0794244 -38.038223
9.4559183 -4.7279596 -38.579182
9.4503775 -5.400218 -38.626957
9.4650602 -6.0846825 -38.500359
9.485981 -6.7756996 -38.319977
9.5097971 -7.4719834 -38.114632
9.5401735 -8.1772928 -37.852715
9.5712233 -8.8875656 -37.584999
9.6064796 -9.6064806 -37.281013
9.6405411 -10.329152 -36.987335
9.6774416 -11.059935 -36.66917
9.716258 -11.798312 -36.334488
9.7558527 -12.54324 -35.993088
9.7952709 -13.293587 -35.653217
9.8357668 -14.0511 -35.304054
9.875452 -14.813181 -34.961876
9.9177065 -15.584968 -34.597561
9.9574432 -16.358658 -34.254944
10.000076 -17.142992 -33.887344
10.043571 -17.93495 -33.512333
10.087611 -18.734131 -33.132614
10.131033 -19.538425 -32.758205
10.176116 -20.352234 -32.369499
10.221738 -21.173605 -31.976139
10.270868 -22.009005 -31.552532
10.320299 -22.852091 -31.126328
10.378603 -23.722523 -30.623623
10.465694 -24.669136 -29.8727
11.535721 11.535721 -27.277605
11.165235 10.420884 -30.259052
10.98462 9.5200033 -31.712523
10.89824 8.7185907 -32.407654
10.855683 7.9608359 -32.750122
10.845464 7.230309 -32.832371
10.846251 6.5077496 -32.826023
10.855755 5.7897363 -32.749542
10.872437 5.0738006 -32.615311
10.889385 4.3557525 -32.47892
10.907872 3.6359558 -32.330147
10.928058 2.9141467 -32.167698
10.946348 2.189271 -32.020508
10.964371 1.4619172 -31.875481
10.986678 0.73244166 -31.695959
11.003764 -1.6315674e-06 -31.558468
11.029345 -0.73529202 -31.352615
11.107254 -1.4809684 -30.725643
10.836622 -2.1673276 -32.903522
10.550479 -2.8134646 -35.206223
10.34986 -3.4499531 -36.820679
10.206426 -4.0825729 -37.974949
10.1417 -4.7327948 -38.495819
10.141919 -5.4090257 -38.494057
10.163331 -6.0979981 -38.321751
10.191694 -6.7944641 -38.093506
10.223619 -7.4973235 -37.836582
10.259304 -8.2074432 -37.549412
10.296723 -8.9238272 -37.248283
10.336207 -9.6471291 -36.930546
10.376453 -10.376456 -36.60667
10.417808 -11.112329 -36.273876
10.46176 -11.856662 -35.920185
10.505208 -12.606256 -35.570526
10.547632 -13.360337 -35.22913
10.591526 -14.122035 -34.875904
10.635614 -14.889864 -34.521099
10.682192 -15.667219 -34.146278
10.728827 -16.450869 -33.770985
10.773045 -17.23687 -33.415154
10.819837 -18.03306 -33.038597
10.866894 -18.835955 -32.659904
10.916322 -19.649382 -32.262142
10.966056 -20.469971 -31.861923
11.015911 -21.297428 -31.460718
11.067564 -22.135134 -31.045034
11.121664 -22.984772 -30.60968
11.188331 -23.868437 -30.073193
11.895869 10.408886 -30.362513
11.64644 9.4627275 -32.24432
11.521491 8.6411152 -33.186977
11.46634 7.8831072 -33.603065
11.445055 7.1531577 -33.763645
11.444494 6.4375296 -33.767876
11.456699 5.7283487 -33.675793
11.472876 5.019381 -33.553757
11.49038 4.3088937 -33.421696
11.512478 3.5976474 -33.254986
11.535191 2.883795 -33.083622
11.56204 2.1678836 -32.881065
11.583609 1.447948 -32.718338
11.607643 0.72547537 -32.53701
11.631895 -3.5796136e-06 -32.354053
11.656168 -0.72851193 -32.170918
11.69568 -1.4619609 -31.872829
11.604336 -2.1758149 -32.561966
11.291616 -2.822906 -34.921249
11.0769 -3.4615321 -36.541168
10.92077 -4.0952911 -37.719078
10.862473 -4.7523346 -38.158882
10.863012 -5.4315104 -38.154816
10.886143 -6.1234574 -37.980309
10.917263 -6.8232908 -37.745529
10.953218 -7.5303388 -37.474274
10.992929 -8.2446995 -37.174675
11.034007 -8.9651337 -36.864765
11.079037 -9.6941586 -36.525043
11.12281 -10.427638 -36.194798
11.168036 -11.168036 -35.8536
11.217221 -11.918298 -35.482521
11.262856 -12.670718 -35.138229
11.30912 -13.429581 -34.789196
11.357901 -14.197375 -34.421177
11.406585 -14.971145 -34.053879
11.455126 -15.750798 -33.687672
11.506804 -16.541033 -33.297787
11.554677 -17.33202 -32.936611
11.607374 -18.136524 -32.53904
11.656672 -18.942095 -32.16711
11.710777 -19.761934 -31.758934
11.764081 -20.587141 -31.356791
11.819786 -21.423365 -30.936516
11.876546 -22.268522 -30.508303
11.938409 -23.130672 -30.041574
12.007421 -24.014847 -29.520916
12.669313 10.433553 -30.149832
12.33255 9.4307709 -32.541077
12.156994 8.5814075 -33.787624
12.075132 7.8133225 -34.368896
12.046165 7.0859776 -34.574581
12.044528 6.3765125 -34.586208
12.061198 5.6758585 -34.467838
12.081367 4.9746799 -34.324631
12.106563 4.2729025 -34.145721
12.132973 3.568522 -33.958195
12.162081 2.8616669 -33.751511
12.192287 2.1515772 -33.537018
12.224251 1.4381461 -33.310059
12.254083 0.72082889 -33.098236
12.285113 3.3571519e-07 -32.877895
12.31777 -0.72457463 -32.646011
12.357738 -1.4538554 -32.362217
12.367843 -2.1825614 -32.290466
12.046399 -2.8344476 -34.572918
11.812771 -3.4743457 -36.231827
11.656059 -4.1139069 -37.344582
11.596338 -4.7749653 -37.768631
11.598362 -5.4580526 -37.754257
11.6226 -6.1531401 -37.582165
11.655365 -6.8561001 -37.349506
11.696546 -7.5683551 -37.057098
11.737946 -8.2856112 -36.763142
11.785757 -9.01264 -36.423645
11.831251 -9.7433853 -36.100609
11.87884 -10.481332 -35.762684
11.930449 -11.228659 -35.39624
11.980926 -11.980927 -35.037823
12.030081 -12.737735 -34.688789
12.081994 -13.503407 -34.320171
12.134832 -14.276274 -33.944992
12.187256 -15.054844 -33.57275
12.238766 -15.838405 -33.206989
12.29315 -16.631912 -32.820831
12.348142 -17.432674 -32.430351
12.404165 -18.241423 -32.032547
12.457405 -19.052504 -31.65452
12.514849 -19.876524 -31.246634
12.572569 -20.707764 -30.836784
12.632452 -21.549482 -30.411566
12.69369 -22.400631 -29.976749
12.760423 -23.269007 -29.502899
12.839636 -24.168728 -28.940439
13.028328 9.4093428 -32.740009
12.804382 8.5362549 -34.241833
12.69063 7.7553849 -35.004669
12.661184 7.0339909 -35.202129
12.669125 6.3345599 -35.148888
12.688423 5.6392975 -35.01947
12.719885 4.9466195 -34.808483
12.750469 4.250154 -34.603371
12.786223 3.5517285 -34.363605
12.822969 2.8495488 -34.11718
12.858836 2.1431367 -33.876652
12.899422 1.4332665 -33.604481
12.939456 0.71885574 -33.335999
12.978629 -6.0369518e-07 -33.073303
13.023247 -0.72351384 -32.77409
13.074503 -1.452723 -32.430355
13.165422 -2.1942377 -31.820637
12.812628 -2.8472521 -34.186535
12.556032 -3.4877877 -35.907303
12.399116 -4.1330376 -36.959602
12.33908 -4.7985344 -37.362206
12.338888 -5.4839516 -37.363503
12.367084 -6.1835427 -37.174416
12.403801 -6.8910022 -36.928188
12.445883 -7.6058173 -36.645977
12.491896 -8.3279314 -36.33741
12.541083 -9.0574512 -36.007549
12.594161 -9.7954597 -35.6516
12.646756 -10.538964 -35.298885
12.699466 -11.288417 -34.945408
12.753896 -12.045347 -34.580395
12.810627 -12.810631 -34.199944
12.864756 -13.579467 -33.836948
12.921887 -14.357654 -33.453823
12.978971 -15.142135 -33.071011
13.034535 -15.931104 -32.698387
13.090229 -16.726404 -32.324898
13.150701 -17.534267 -31.919365
13.208988 -18.345821 -31.528479
13.270251 -19.168142 -31.117632
13.329335 -19.994007 -30.721411
13.390358 -20.829449 -30.312185
13.454239 -21.676277 -29.883791
13.521378 -22.535631 -29.433552
13.593221 -23.410545 -28.951761
13.686244 -24.331104 -28.327927
13.773987 9.4243069 -32.601112
13.49359 8.5222654 -34.382526
13.351154 7.7296109 -35.287449
13.314096 7.0074201 -35.522892
13.331552 6.3149433 -35.411983
13.362522 5.6263242 -35.215229
13.398903 4.9364362 -34.9841
13.43865 4.2437844 -34.731579
13.481823 3.5478497 -34.457287
13.52708 2.8478048 -34.169769
13.573879 2.1432428 -33.872433
13.619266 1.4336087 -33.584084
13.66864 0.71940207 -33.270401
13.717739 -1.3530745e-06 -32.958462
13.770247 -0.72475266 -32.62487
13.835253 -1.4563428 -32.211876
13.965107 -2.2050173 -31.386885
13.583634 -2.8597162 -33.810463
13.318444 -3.5048532 -35.495262
13.151738 -4.1531811 -36.554382
13.09121 -4.823081 -36.938923
13.093435 -5.5130272 -36.924786
13.124261 -6.2167549 -36.728947
13.163185 -6.9279962 -36.481651
13.206617 -7.6459374 -36.205723
13.258364 -8.373704 -35.876968
13.308557 -9.105855 -35.558083
13.367548 -9.8497715 -35.1833
13.425982 -10.599462 -34.812061
13.478983 -11.350721 -34.475334
13.540248 -12.114962 -34.086102
13.599314 -12.88356 -33.710846
13.658316 -13.658315 -33.336002
13.715839 -14.437726 -32.970535
13.777821 -15.228117 -32.576759
13.837785 -16.022703 -32.195789
13.900271 -16.826647 -31.798798
13.962856 -17.637297 -31.401184
14.024872 -18.453781 -31.007191
14.08787 -19.278141 -30.606951
14.15293 -20.112057 -30.193615
14.217379 -20.951927 -29.784159
14.285409 -21.804049 -29.35195
14.360587 -22.674618 -28.874325
14.441675 -23.562737 -28.359161
14.544509 -24.496017 -27.705839
14.62551 9.5065813 -31.837156
14.212541 8.527523 -34.329643
14.070832 7.738955 -35.184937
14.032808 7.0164042 -35.414433
14.0483 6.321733 -35.320934
14.082783 5.6331124 -35.112808
14.124677 4.9436345 -34.859951
14.168152 4.2504458 -34.597557
14.219234 3.5548074 -34.289246
14.270828 2.8541641 -33.977859
14.324576 2.1486828 -33.65345
14.380149 1.4380146 -33.318043
14.436154 0.72180665 -32.980019
14.491926 1.3571444e-06 -32.643406
14.553935 -0.72769719 -32.269154
14.635878 -1.4635906 -31.774591
14.756753 -2.2135167 -31.045036
14.36519 -2.8730378 -33.408325
14.080653 -3.520164 -35.12566
13.90961 -4.1728835 -36.157997
13.85103 -4.8478594 -36.511555
13.855679 -5.5422707 -36.483505
13.88825 -6.2497153 -36.286911
13.929393 -6.9646993 -36.038589
13.977384 -7.6875606 -35.748951
14.032583 -8.419548 -35.415791
14.089264 -9.158021 -35.073692
14.149695 -9.9047909 -34.708946
14.208667 -10.656502 -34.353031
14.272363 -11.417894 -33.968586
14.334239 -12.184106 -33.595131
14.39656 -12.956903 -33.219002
14.458755 -13.735821 -32.843609
14.521973 -14.521973 -32.462059
14.58662 -15.315954 -32.071877
14.651601 -16.116764 -31.679682
14.716223 -16.923656 -31.289658
14.783364 -17.74004 -30.88442
14.850164 -18.562708 -30.481249
14.919095 -19.394825 -30.065212
14.989029 -20.235189 -29.643127
15.055166 -21.077234 -29.243954
15.131979 -21.941372 -28.780342
15.205829 -22.808746 -28.33462
15.294924 -23.707136 -27.796881
15.427904 -24.684649 -26.994276
14.978168 8.5589523 -34.0135
14.824883 7.7654152 -34.894596
14.787587 7.0417075 -35.108982
14.799633 6.3426991 -35.039738
14.83498 5.6514206 -34.836563
14.883255 4.9610829 -34.559071
