# .PCD v0.7 - Point Cloud Data file format
VERSION 0.7
FIELDS x y z
SIZE 4 4 4
TYPE F F F
COUNT 1 1 1
WIDTH 1488
HEIGHT 1
VIEWPOINT 0 0 0 1 0 0 0
POINTS 1488
DATA ascii
-26.279108 -14.015524 -14.370956
-26.286999 -14.895967 -14.339207
-26.299843 -15.779904 -14.287524
-26.327154 -16.673864 -14.177629
-26.362246 -17.574833 -14.036433
-26.416971 -18.491882 -13.816238
-26.501196 -19.434216 -13.477334
-26.677664 -20.452877 -12.767284
-20.67403 12.832156 -34.055565
-20.400869 11.959129 -35.192577
-20.38423 11.246469 -35.261845
-20.372452 10.537475 -35.310863
-20.368465 9.8330526 -35.327461
-20.365524 9.1293755 -35.339703
-20.363958 8.4264631 -35.34623
-20.362976 7.7238874 -35.350311
-20.362585 7.0215807 -35.351944
-20.362324 6.3193393 -35.353027
-20.362259 5.6171713 -35.353298
-20.362259 4.9150257 -35.353294
-20.362259 4.2128816 -35.353298
-20.362259 3.5107307 -35.353298
-20.362324 2.808594 -35.353027
-20.362387 2.106451 -35.352757
-20.362387 1.4043002 -35.352757
-20.362453 0.70215112 -35.352482
-20.36265 -1.1913266e-06 -35.351669
-20.362844 -0.70216501 -35.350853
-20.363108 -1.4043549 -35.349766
-20.363369 -2.1065543 -35.348675
-20.363695 -2.8087852 -35.347317
-20.364412 -3.511106 -35.34433
-20.365786 -4.2136116 -35.338612
-20.36853 -4.916544 -35.32719
-20.372324 -5.6199517 -35.311409
-20.379583 -6.3246994 -35.281185
-20.392612 -7.0319376 -35.226952
-20.408283 -7.7410727 -35.161728
-20.441471 -8.4585419 -35.023575
-20.540695 -9.2079 -34.610561
-25.499063 -12.309894 -13.971665
-25.496298 -13.187744 -13.983179
-25.497423 -14.067548 -13.978488
-25.501831 -14.94935 -13.960157
-25.519363 -15.839606 -13.887177
-25.543699 -16.735529 -13.785866
-25.585091 -17.64489 -13.613586
-25.641109 -18.567698 -13.380421
-25.740095 -19.52697 -12.968389
-25.96192 -20.59049 -12.045056
-20.05047 12.889587 -33.670422
-19.78866 12.014542 -34.799118
-19.767979 11.295986 -34.888271
-19.760521 10.585992 -34.920422
-19.756508 9.8782539 -34.937725
-19.74995 9.1696177 -34.965996
-19.748423 8.4636078 -34.97258
-19.747469 7.7579312 -34.976696
-19.747025 7.0525069 -34.978611
-19.746832 6.3471966 -34.979439
-19.746767 5.641933 -34.979713
-19.746832 4.936708 -34.979435
-19.746832 4.231463 -34.979439
-19.746832 3.526217 -34.979439
-19.746832 2.8209748 -34.979435
-19.746832 2.1157289 -34.979439
-19.746895 1.4104897 -34.979164
-19.74696 0.70524353 -34.978886
-19.747025 2.6597263e-08 -34.978611
-19.747213 -0.70525753 -34.977791
-19.747404 -1.4105266 -34.976967
-19.74766 -2.1158237 -34.975872
-19.747976 -2.8211408 -34.974499
-19.748615 -3.5265405 -34.971756
-19.749887 -4.2321181 -34.966267
-19.754662 -4.9386654 -34.945683
-19.75963 -5.6456103 -34.924267
-19.76511 -6.3530736 -34.900639
-19.775442 -7.0626578 -34.856098
-19.794413 -7.7763772 -34.774319
-19.825788 -8.496768 -34.63905
-19.93581 -9.2559137 -34.164734
-24.724073 -12.362036 -13.522078
-24.717192 -13.241357 -13.551737
-24.713205 -14.121836 -13.568925
-24.718189 -15.007475 -13.547438
-24.736746 -15.902196 -13.467441
-24.762733 -16.803284 -13.355407
-24.808241 -17.720177 -13.159214
-24.870962 -18.653221 -12.888821
-24.967012 -19.61694 -12.474736
-25.283432 -20.768532 -11.110627
-19.421305 12.947536 -33.281815
-19.169939 12.069963 -34.405609
-19.151302 11.348918 -34.48893
-19.140387 10.633549 -34.537735
-19.136667 9.9227142 -34.554359
-19.134312 9.2128162 -34.564888
-19.132826 8.503479 -34.571533
-19.131958 7.7945008 -34.575413
-19.131525 7.0857491 -34.577347
-19.13134 6.3771129 -34.578182
-19.13134 5.6685433 -34.578178
-19.13134 4.9599748 -34.578178
-19.131277 4.2513914 -34.578457
-19.13134 3.5428391 -34.578178
-19.13134 2.8342717 -34.578178
-19.131401 2.1257083 -34.5779
-19.131401 1.4171419 -34.577904
-19.131586 0.70857686 -34.577076
-19.131773 9.5959285e-07 -34.576241
-19.131897 -0.7085889 -34.575687
-19.132206 -1.4172014 -34.574306
-19.132517 -2.1258366 -34.572918
-19.13295 -2.8345106 -34.57098
-19.133818 -3.5432987 -34.567104
-19.135056 -4.2522349 -34.561562
-19.137224 -4.9615045 -34.551868
-19.140635 -5.671298 -34.536625
-19.148758 -6.3829217 -34.500301
-19.159933 -7.0962725 -34.450344
-19.177217 -7.8129425 -34.373066
-19.212193 -8.5387535 -34.216702
-19.332676 -9.3083267 -33.678055
-23.942877 -12.414828 -13.066922
-23.929499 -13.294165 -13.126738
-23.924072 -14.177231 -13.150987
-23.929207 -15.066538 -13.128036
-23.946272 -15.964179 -13.051743
-23.974932 -16.871248 -12.923619
-24.023369 -17.795086 -12.707068
-24.088486 -18.735487 -12.415942
-24.195391 -19.714762 -11.937992
-18.786453 13.006006 -32.889706
-18.553225 12.130955 -33.972523
-18.529364 11.402686 -34.083302
-18.522367 10.685981 -34.11578
-18.514713 9.9694605 -34.151314
-18.512547 9.2562723 -34.161381
-18.511341 8.5436964 -34.166973
-18.510559 7.8313894 -34.170605
-18.510138 7.1192822 -34.172562
-18.510017 6.4073129 -34.173119
-18.509958 5.6953716 -34.173401
-18.509958 4.9834504 -34.173401
-18.509958 4.2715273 -34.173401
-18.509958 3.5596051 -34.173401
-18.510017 2.8476918 -34.173122
-18.510077 2.1357775 -34.17284
-18.510199 1.4238594 -34.172287
-18.510378 0.71193784 -34.171448
-18.510618 -3.1560169e-06 -34.170326
-18.510981 -0.71196258 -34.168652
-18.511341 -1.4239515 -34.166969
-18.512005 -2.1360025 -34.163898
-18.512726 -2.8481135 -34.160542
-18.513811 -3.5603492 -34.15551
-18.515436 -4.2727928 -34.147961
-18.519415 -4.9859967 -34.129498
-18.525866 -5.7002673 -34.099548
-18.532019 -6.4149308 -34.070976
-18.54331 -7.1320424 -34.018551
-18.562363 -7.8533101 -33.930096
-18.597851 -8.5836277 -33.765335
-18.767435 -9.3837204 -32.978004
-23.159502 -12.470502 -12.586866
-23.138693 -13.349244 -12.683489
-23.132204 -14.235202 -12.71362
-23.135305 -15.126933 -12.699207
-23.152531 -16.028679 -12.619238
-23.183372 -16.9417 -12.476047
-23.234011 -17.872314 -12.240952
-23.301077 -18.820105 -11.929576
-23.424034 -19.820339 -11.358726
-17.931597 12.193485 -33.528511
-17.907656 11.460897 -33.644112
-17.897112 10.738269 -33.695019
-17.894421 10.020873 -33.708015
-17.892839 9.3042755 -33.715645
-17.891846 8.5880833 -33.720448
-17.891201 7.8721261 -33.723553
-17.890266 7.1561055 -33.728073
-17.888687 6.4399247 -33.735695
-17.888687 5.7243781 -33.735699
-17.888687 5.0088315 -33.735699
-17.888687 4.2932849 -33.735699
-17.888687 3.5777371 -33.735699
-17.888803 2.8622067 -33.735138
-17.88892 2.146668 -33.73457
-17.889448 1.431155 -33.732029
-17.891554 0.71565837 -33.721859
-17.892021 5.616788e-07 -33.719601
-17.892782 -0.71571285 -33.715931
-17.893484 -1.4314824 -33.712536
-17.894653 -2.1473596 -33.706886
-17.895941 -2.8633504 -33.700668
-17.897581 -3.5795171 -33.69276
-17.899923 -4.2959843 -33.68145
-17.902617 -5.012733 -33.668446
-17.91 -5.7312031 -33.632793
-17.918503 -6.4506626 -33.591736
-17.930128 -7.1720529 -33.535599
-17.950008 -7.8980064 -33.43961
-17.980976 -8.6308708 -33.290092
-22.41259 -11.654549 -11.892355
-22.364683 -12.524221 -12.123677
-22.343132 -13.405878 -12.22774
-22.334013 -14.293769 -12.271766
-22.335379 -15.18806 -12.26517
-22.354542 -16.095268 -12.172643
-22.385817 -17.01322 -12.021629
-22.436392 -17.949116 -11.777429
-22.510414 -18.908747 -11.420019
-22.637438 -19.920948 -10.806699
-17.309971 11.53998 -33.047489
-17.294014 10.808757 -33.127743
-17.293159 10.087678 -33.132038
-17.292648 9.3668509 -33.134621
-17.28417 8.6420841 -33.177254
-17.283545 7.9216242 -33.180401
-17.283375 7.2014031 -33.181259
-17.283375 6.481267 -33.181259
-17.283318 5.7611074 -33.181545
-17.283318 5.0409641 -33.181545
-17.283318 4.320828 -33.181545
-17.283375 3.6007006 -33.181259
-17.283545 2.8805885 -33.180401
-17.283773 2.1604733 -33.179256
-17.284227 1.4403516 -33.176971
-17.284967 0.72020328 -33.173248
-17.29077 -2.3644352e-06 -33.144062
-17.29595 -0.72066343 -33.118004
-17.297716 -1.4414769 -33.109127
-17.299767 -2.1624734 -33.098812
-17.302444 -2.8837395 -33.085342
-17.30558 -3.6053305 -33.069572
-17.309286 -4.3273225 -33.05093
-17.323214 -5.0526023 -32.980881
-17.334877 -5.7782927 -32.922226
-17.351194 -6.5066996 -32.840149
-17.377541 -7.2406445 -32.707642
-21.548477 -9.8763866 -11.729441
-21.738596 -10.869298 -10.773229
-21.610266 -11.705561 -11.418675
-21.564667 -12.57939 -11.648021
-21.540438 -13.462774 -11.769879
-21.528873 -14.352582 -11.828045
-21.530905 -15.25106 -11.817835
-21.551397 -16.163548 -11.714767
-21.584337 -17.087601 -11.549085
-21.636435 -18.030363 -11.28706
-21.71487 -19.000517 -10.892544
-21.851357 -20.030407 -10.206084
-16.789606 10.949742 -31.993185
-16.786528 10.217883 -32.009346
-16.786528 9.4880362 -32.00935
-16.786528 8.7581873 -32.009346
-16.786528 8.0283394 -32.009346
-16.786528 7.2984915 -32.009346
-16.786528 6.5686393 -32.00935
-16.786695 5.8388505 -32.008465
-16.801542 5.1135111 -31.930548
-16.71463 4.3603401 -32.386688
-16.62356 3.613817 -32.864643
-16.563997 2.880693 -33.177258
-16.536358 2.1569161 -33.322319
-16.52832 1.4372454 -33.364487
-16.537334 0.71901453 -33.317184
-16.566231 -2.0354723e-06 -33.165524
-16.627789 -0.7229498 -32.842457
-16.717016 -1.4536554 -32.374161
-20.648932 -2.6933432 -11.738328
-20.552826 -3.5744042 -12.24271
-20.509373 -4.458559 -12.470791
-20.500685 -5.3480053 -12.516373
-20.516308 -6.2440953 -12.434376
-20.551317 -7.1482844 -12.250635
-20.600515 -8.0610723 -11.99244
-20.665714 -8.985096 -11.650244
-20.750299 -9.9240541 -11.206324
-20.928955 -10.919459 -10.268679
-20.801487 -11.757366 -10.937675
-20.755175 -12.633589 -11.180724
-20.731585 -13.520599 -11.304539
-20.718277 -14.412717 -11.374393
-20.72126 -15.315719 -11.358726
-20.742691 -16.233408 -11.24626
-20.777105 -17.163698 -11.065639
-20.830406 -18.113398 -10.785899
-20.911222 -19.092855 -10.361757
-21.057821 -20.142269 -9.5923557
-16.1166 10.988588 -31.680573
-16.113579 10.254097 -31.697145
-16.113525 9.5216284 -31.697439
-16.113525 8.7891922 -31.697439
-16.113525 8.0567627 -31.697439
-16.113525 7.3243265 -31.697437
-16.113525 6.5918975 -31.697439
-16.113634 5.8595028 -31.696846
-16.126638 5.1312041 -31.625488
-15.886581 4.3327007 -32.94265
-15.842572 3.6005816 -33.18412
-15.808297 2.8742342 -33.372177
-15.788756 2.153013 -33.479397
-15.783064 1.434822 -33.510632
-15.789791 0.71771669 -33.473713
-15.809907 -1.1987789e-06 -33.363354
-15.844971 -0.7202282 -33.170959
-15.889832 -1.4445301 -32.924816
-19.839933 -2.705446 -11.251195
-19.742649 -3.5895753 -11.784983
-19.6996 -4.4771829 -12.021188
-19.692833 -5.3707709 -12.058318
-19.706211 -6.2701578 -11.984913
-19.739817 -7.1781187 -11.800525
-19.793369 -8.0972891 -11.506693
-19.855724 -9.0253277 -11.16456
-19.946362 -9.9731808 -10.667247
-20.101904 -10.964677 -9.8138075
-19.984192 -11.808842 -10.459681
-19.94314 -12.691091 -10.684926
-19.91452 -13.578086 -10.841955
-19.902256 -14.474366 -10.909252
-19.905792 -15.381748 -10.889836
-19.925892 -16.303001 -10.779561
-19.9653 -17.242758 -10.563337
-20.018419 -18.198561 -10.271875
-20.105177 -19.191303 -9.7958498
-20.271576 -20.27158 -8.8828402
-15.457699 11.041212 -31.257095
-15.453125 10.302084 -31.283386
-15.453074 9.5661869 -31.283686
-15.453074 8.8303242 -31.283684
-15.453125 8.0944939 -31.283388
-15.453074 7.3586049 -31.283682
-15.453074 6.622745 -31.283686
-15.453176 5.8869209 -31.283085
-15.462482 5.1541576 -31.229599
-15.218437 4.3481226 -32.632404
-15.174625 3.6130049 -32.884228
-15.146523 2.885051 -33.045769
-15.126785 2.160969 -33.159233
-15.122902 1.4402777 -33.181545
-15.127681 0.72036266 -33.154083
-15.147971 -3.1974403e-06 -33.037445
-15.176631 -0.72269607 -32.872711
-15.222166 -1.4497323 -32.610966
-19.0245 -2.717788 -10.754676
-18.930086 -3.6057339 -11.297366
-18.887615 -4.4970517 -11.541503
-18.876135 -5.3931851 -11.607484
-18.892117 -6.2973723 -11.515616
-18.927048 -7.2103009 -11.314844
-18.976587 -8.1328268 -11.030071
-19.042469 -9.0678425 -10.651379
-19.128054 -10.019455 -10.159433
-19.263611 -11.007782 -9.3802185
-19.160904 -11.861511 -9.9705954
-19.117233 -12.744823 -10.221624
-19.09325 -13.638037 -10.359478
-19.08255 -14.539089 -10.420984
-19.08778 -15.452011 -10.390924
-19.107538 -16.37789 -10.27735
-19.144783 -17.321474 -10.063259
-19.20293 -18.288504 -9.7290258
-19.290775 -19.290779 -9.2240782
-19.490282 -20.418392 -8.0772934
-14.790807 11.093104 -30.839504
-14.785961 10.35017 -30.868752
-14.785961 9.6108742 -30.868748
-14.785961 8.8715773 -30.868752
-14.785961 8.1322775 -30.86875
-14.785961 7.3929801 -30.868752
-14.785961 6.6536803 -30.868752
-14.785961 5.9143806 -30.86875
-14.792506 5.1773753 -30.829245
-14.556645 4.3669906 -32.252792
-14.514126 3.6285298 -32.50943
-14.484543 2.8969054 -32.687973
-14.468839 2.1703222 -32.782749
-14.462148 1.4462135 -32.823139
-14.469652 0.72348112 -32.77784
-14.48598 -3.1029167e-06 -32.679298
-14.516002 -0.72580123 -32.498096
-14.56018 -1.4560204 -32.231464
-18.194101 -2.7291152 -10.29881
-18.102985 -3.6205983 -10.84874
-18.063694 -4.5159225 -11.085885
-18.053785 -5.4161367 -11.145693
-18.069061 -6.324173 -11.05349
-18.105906 -7.2423663 -10.83111
-18.158855 -8.1714821 -10.511536
-18.220909 -9.1104546 -10.13701
-18.309387 -10.070165 -9.6029854
-18.428705 -11.057225 -8.8828382
-18.327785 -11.913058 -9.49195
-18.288582 -12.802007 -9.7285643
-18.265841 -13.699381 -9.8658113
-18.25495 -14.603962 -9.9315519
-18.260052 -15.521044 -9.9007626
-18.27957 -16.451616 -9.7829504
-18.319347 -17.403385 -9.5428658
-18.379805 -18.379803 -9.1779881
-18.466642 -19.389978 -8.6538668
-14.119199 11.146732 -30.407913
-14.110241 10.397019 -30.464827
-14.110192 9.6543388 -30.465134
-14.110192 8.9117002 -30.46513
-14.110192 8.1690588 -30.465132
-14.110192 7.4264174 -30.465134
-14.110241 6.6837959 -30.464828
-14.110192 5.941133 -30.465134
-14.118863 5.2016854 -30.410046
-13.893492 4.3874207 -31.841877
-13.851013 3.645 -32.111755
-13.822424 2.9099815 -32.293385
-13.807646 2.1801555 -32.387272
-13.800864 1.4527187 -32.430355
-13.808425 0.72675651 -32.38232
-13.822975 -5.4734812e-07 -32.289879
-13.851981 -0.72905326 -32.105598
-13.89586 -1.4627237 -31.826832
-17.363779 -2.7416532 -9.794467
-17.276567 -3.6371713 -10.348535
-17.237541 -4.5361962 -10.596486
-17.229044 -5.440753 -10.65047
-17.245403 -6.3535743 -10.546526
-17.281019 -7.2762198 -10.320255
-17.327534 -8.2077808 -10.024747
-17.394793 -9.1551542 -9.5974369
-17.480999 -10.120582 -9.0497541
-17.571627 -11.097874 -8.4739714
-17.49085 -11.967425 -8.9871635
-17.453926 -12.86079 -9.2217512
-17.432051 -13.762146 -9.3607311
-17.423141 -14.672119 -9.4173346
-17.426937 -15.592525 -9.3932123
-17.449165 -16.530787 -9.2519922
-17.487614 -17.487616 -9.00772
-17.549456 -18.47311 -8.6148291
-17.640722 -19.497641 -8.0349941
-13.439507 11.199589 -29.982588
-13.430389 10.445859 -30.043726
-13.430344 9.6996937 -30.044033
-13.430389 8.9535913 -30.04373
-13.430344 8.2074299 -30.044035
-13.430344 7.4613004 -30.044035
-13.430344 6.7151699 -30.044033
-13.430344 5.9690399 -30.044033
-13.436986 5.225492 -29.999495
-13.227525 4.4091744 -31.404167
-13.182779 3.6618807 -31.704245
-13.15562 2.9234684 -31.886381
-13.141095 2.1901798 -31.98378
-13.134654 1.4594046 -32.02697
-13.141752 0.7300998 -31.979374
-13.15562 -1.0276484e-06 -31.886381
-13.182779 -0.73238069 -31.704241
-13.227126 -1.4696821 -31.406843
-16.52545 -2.754245 -9.2877951
-16.442482 -3.6538861 -9.8441906
-16.405031 -4.5569553 -10.095337
-16.397385 -5.4657984 -10.146618
-16.413918 -6.3831882 -10.035754
-16.446943 -7.3097563 -9.8142691
-16.494799 -8.2474031 -9.4933357
-16.560389 -9.2002153 -9.0534868
-16.643499 -10.171032 -8.4961357
-16.720987 -11.147329 -7.9764891
-16.646664 -12.022593 -8.4749155
-16.609468 -12.918478 -8.7243471
-16.587301 -13.822751 -8.8730087
-16.58074 -14.738439 -8.9170103
-16.586115 -15.664662 -8.88097
-16.610659 -16.610659 -8.7163687
-16.650814 -17.575863 -8.4470825
-16.708364 -18.564848 -8.0611382
-16.803213 -19.603752 -7.4250717
-12.75688 11.256067 -29.528059
-12.74517 10.496019 -29.611212
-12.745082 9.7462406 -29.611832
-12.745125 8.9965591 -29.611521
-12.745125 8.2468452 -29.611523
-12.745125 7.4971323 -29.611521
-12.745082 6.747395 -29.611832
-12.745082 5.9976845 -29.611834
-12.748445 5.2493582 -29.587959
-12.556404 4.4316707 -30.951565
-12.508789 3.6790543 -31.289656
-12.483442 2.9372807 -31.469639
-12.467966 2.2002265 -31.579533
-12.461869 1.4661039 -31.622822
-12.468258 0.73342711 -31.577457
-12.483442 5.5840371e-07 -31.469637
-12.508747 -0.7358101 -31.289955
-12.553608 -1.4768949 -30.97142
-15.67978 -2.7670188 -8.7736349
-15.602461 -3.6711652 -9.3226509
-15.565258 -4.5780187 -9.5868053
-15.55888 -5.4913669 -9.6320992
-15.575096 -6.4132738 -9.5169535
-15.604882 -7.343472 -9.3054581
-15.65537 -8.2881393 -8.9469547
-15.715474 -9.2443962 -8.5201807
-15.805123 -10.22685 -7.8836098
-15.859014 -11.1946 -7.5009608
-15.789564 -12.074373 -7.9940972
-15.759471 -12.978389 -8.2077808
-15.739672 -13.887946 -8.3483648
-15.734414 -14.808861 -8.3856993
-15.741337 -15.741337 -8.3365402
-15.763143 -16.690386 -8.1817055
-15.801903 -17.660952 -7.9064851
-15.862935 -18.662277 -7.4731159
-15.955306 -19.709497 -6.8172188
-12.06804 11.313784 -29.063591
-12.052962 10.54634 -29.177338
-12.052838 9.7929296 -29.178278
-12.052879 9.0396585 -29.177963
-12.052838 8.2863245 -29.178276
-12.052838 7.5330238 -29.178278
-12.052838 6.7797222 -29.178278
-12.052838 6.0264187 -29.178276
-12.055742 5.2743855 -29.156368
-11.8757 4.4533854 -30.514687
-11.828609 3.6964409 -30.869957
-11.804806 2.9512019 -31.04954
-11.789624 2.2105546 -31.164072
-11.783714 1.4729618 -31.208664
-11.789664 0.73685306 -31.163773
-11.804566 -3.2057203e-06 -31.051342
-11.828329 -0.73927099 -30.872063
-11.871272 -1.4839096 -30.54809
-14.822901 -2.7792945 -8.279767
-14.750913 -3.6877296 -8.8228703
-14.716077 -4.5987744 -9.0856876
-14.711688 -5.5168805 -9.1188049
-14.727837 -6.4434314 -8.996973
-14.76167 -7.3808374 -8.7417231
-14.805292 -8.3279791 -8.4126215
-14.86373 -9.2898331 -7.9717288
-14.950408 -10.278408 -7.3177991
-14.993228 -11.244923 -6.9947453
-14.92963 -12.130324 -7.4745545
-14.901109 -13.03847 -7.6897421
-14.883945 -13.953698 -7.8192215
-14.878382 -14.878381 -7.8612018
-14.888247 -15.818765 -7.7867618
-14.909354 -16.773027 -7.6275239
-14.948749 -17.751638 -7.3303189
-15.005434 -18.75679 -6.902658
-15.104519 -19.824682 -6.1551266
-11.373833 11.373832 -28.580387
-11.354126 10.597183 -28.738974
-11.35393 9.8400717 -28.740549
-11.35393 9.0831404 -28.740549
-11.35393 8.3262138 -28.740551
-11.35393 7.5692844 -28.740547
-11.35393 6.8123555 -28.740551
-11.35393 6.0554261 -28.740549
-11.356442 5.2996721 -28.720324
-11.190122 4.476047 -30.058771
-11.142915 3.7143044 -30.438667
-11.119555 2.9652121 -30.626654
-11.106615 2.2213213 -30.730787
-11.101019 1.4801347 -30.775814
-11.106502 0.74043083 -30.731693
-11.118613 -3.8223002e-06 -30.63423
-11.142424 -0.74283212 -30.442621
-11.182462 -1.4909949 -30.120415
-13.963135 -2.7926309 -7.743288
-13.894176 -3.7051153 -8.2982302
-13.864077 -4.6213608 -8.5404377
-13.857407 -5.5429645 -8.5941219
-13.874681 -6.4748554 -8.4550991
-13.906181 -7.4166331 -8.2016125
-13.946704 -8.3680229 -7.8755121
-14.005604 -9.3370667 -7.4015236
-14.08558 -10.329427 -6.7579222
-14.113311 -11.290648 -6.534759
-14.06157 -12.186696 -6.9511442
-14.035421 -13.09973 -7.1615739
-14.019179 -14.019181 -7.2922726
-14.015289 -14.949643 -7.3235798
-14.025228 -15.895257 -7.2435989
-14.047132 -16.856558 -7.067338
-14.084372 -17.840206 -6.7676516
-14.142371 -18.856495 -6.3009138
-14.240578 -19.93681 -5.5105991
-10.647593 10.647593 -28.304327
-10.647371 9.8868427 -28.306244
-10.647371 9.126317 -28.306242
-10.647371 8.3657932 -28.306244
-10.647371 7.6052632 -28.306242
-10.647371 6.8447399 -28.306244
-10.647371 6.0842109 -28.306244
-10.649444 5.3247204 -28.288374
-10.495591 4.4981089 -29.614929
-10.450774 3.732419 -30.001337
-10.427766 2.9793594 -30.199734
-10.416635 2.2321322 -30.2957
-10.41122 1.487317 -30.342392
-10.416351 0.74402571 -30.298143
-10.426488 -2.739213e-06 -30.210745
-10.450063 -0.74643582 -30.007483
-10.486718 -1.4981028 -29.691425
-13.095136 -2.806102 -7.2011542
-13.027771 -3.7222197 -7.7819891
-13.001681 -4.6434617 -8.006937
-12.996773 -5.5700474 -8.0492554
-13.01228 -6.5061374 -7.9155431
-13.040634 -7.4517927 -7.6710849
-13.084623 -8.4115448 -7.29179
-13.137298 -9.3837881 -6.8376222
-13.217481 -10.385165 -6.1462746
-13.232434 -11.342089 -6.0173388
-13.184609 -12.242852 -6.429698
-13.160149 -13.160151 -6.6406007
-13.145977 -14.084976 -6.7627916
-13.143665 -15.021333 -6.7827239
-13.154216 -15.972978 -6.6917505
-13.176049 -16.940636 -6.5035057
-13.212123 -17.930742 -6.1924615
-13.269565 -18.956526 -5.697186
-13.364244 -20.046366 -4.8808479
-9.9342737 10.698447 -27.865854
-9.9340305 9.9340267 -27.868111
-9.9339952 9.1698399 -27.868431
-9.9340305 8.4057178 -27.868111
-9.9339952 7.6415305 -27.868431
-9.9340305 6.8774047 -27.868113
-9.9339952 6.1132283 -27.868433
-9.935729 5.3500075 -27.852329
-9.7954254 4.5209637 -29.155113
-9.7513161 3.7505026 -29.56469
-9.7294102 2.9936626 -29.768101
-9.7193403 2.2429252 -29.861601
-9.7141972 1.4944923 -29.909359
-9.7189417 0.74760979 -29.865297
-9.7282124 5.3156828e-07 -29.779221
-9.7498789 -0.74999017 -29.57803
-9.7839737 -1.5052279 -29.261448
-12.214001 -2.8186159 -6.6975908
-12.156341 -3.7404156 -7.2329879
-12.130117 -4.6654305 -7.4764776
-12.127894 -5.5974908 -7.4971199
-12.14223 -6.5381255 -7.3640094
-12.170899 -7.4897828 -7.0978041
-12.209231 -8.4525442 -6.7418756
-12.261105 -9.4316177 -6.2602048
-12.338891 -10.440601 -5.5379272
-12.343066 -11.3936 -5.499157
-12.300593 -12.300596 -5.8935418
-12.276446 -13.220792 -6.1177549
-12.265597 -14.152614 -6.218493
-12.263853 -15.093977 -6.2346892
-12.274539 -16.051319 -6.1354628
-12.29565 -17.02475 -5.9394422
-12.333168 -18.0254 -5.5910635
-12.387342 -19.057447 -5.0880303
-12.48737 -20.171906 -4.1592345
-9.2142019 10.749901 -27.422199
-9.2138472 9.9816666 -27.425776
-9.2138147 9.2138138 -27.426102
-9.2138472 8.4460258 -27.425777
-9.2137823 7.6781516 -27.426426
-9.2138796 6.910408 -27.425447
-9.2138147 6.1425405 -27.4261
-9.2152376 5.3755531 -27.411795
-9.0902796 4.5451369 -28.668766
-9.0451384 3.7688069 -29.122854
-9.0249062 3.0083001 -29.326376
-9.0147772 2.2536914 -29.428263
-9.010046 1.5016718 -29.475859
-9.0142822 0.7511915 -29.433243
-9.0238209 8.8921649e-07 -29.337292
-9.0438309 -0.75365514 -29.136009
-9.0763321 -1.5127225 -28.809061
-11.328877 -2.8322189 -6.1502094
-11.274753 -3.758255 -6.6946688
-11.250412 -4.6876745 -6.9395123
-11.248919 -5.6244607 -6.954535
-11.261941 -6.5694642 -6.8235393
-11.290941 -7.5272956 -6.5318308
-11.326875 -8.4951553 -6.1703582
-11.375489 -9.4795742 -5.6813316
-11.451021 -10.496766 -4.921545
-11.445033 -11.445032 -4.9817753
-11.407702 -12.35835 -5.3572917
-11.38856 -13.286654 -5.549849
-11.377854 -14.222318 -5.6575408
-11.376524 -15.1687 -5.6709242
-11.386339 -16.130648 -5.5721941
-11.410526 -17.115793 -5.3288813
-11.444036 -18.119724 -4.9918089
-11.495324 -19.158878 -4.4758883
-11.594172 -20.289801 -3.4815612
-8.4874115 10.802159 -26.971626
-8.4869633 10.030046 -26.976551
-8.4869032 9.2584362 -26.977209
-8.4869633 8.4869623 -26.976551
-8.4869032 7.7153649 -26.977211
-8.4869633 6.9438791 -26.976551
-8.4869032 6.1722913 -26.977211
-8.48804 5.4014797 -26.964733
-8.3772898 4.5694275 -28.180073
-8.3319492 3.7872491 -28.677628
-8.3141108 3.0233109 -28.873384
-8.3030434 2.2644656 -28.994831
-8.2988071 1.5088735 -29.041313
-8.3025846 0.75477827 -28.999859
-8.3131342 -9.5415419e-07 -28.884092
-8.3307381 -0.75734365 -28.690916
-8.3621607 -1.5203931 -28.346096
-10.433859 -2.8456018 -5.6119056
-10.384088 -3.7760313 -6.1580763
-10.364285 -4.711041 -6.3753786
-10.362546 -5.6522985 -6.3944664
-10.37733 -6.603756 -6.2322373
-10.402752 -7.5656414 -5.9532523
-10.436934 -8.5393105 -5.5781565
-10.48032 -9.527564 -5.1020484
-10.559146 -10.559146 -4.2370358
-10.538026 -11.496029 -4.4688034
-10.508681 -12.41935 -4.7908278
-10.490915 -13.352075 -4.9857855
-10.482327 -14.294085 -5.08002
-10.481689 -15.246096 -5.0870285
-10.492881 -16.216276 -4.964211
-10.515289 -17.206841 -4.7182994
-10.547952 -18.219191 -4.3598824
-10.596463 -19.2663 -3.8275249
-10.697404 -20.422318 -2.719836
-7.75352 10.854924 -26.516651
-7.7529712 10.078863 -26.523281
-7.7529435 9.3035316 -26.523615
-7.7529979 8.5282965 -26.522951
-7.7529435 7.752944 -26.523615
-7.7529712 6.9776707 -26.523281
-7.7529435 6.2023563 -26.523613
-7.7538772 5.4277134 -26.512341
-7.6527829 4.5916715 -27.732656
-7.611692 3.8058434 -28.228664
-7.5954218 3.0381677 -28.42507
-7.5850773 2.2755218 -28.549938
-7.5810838 1.5162154 -28.598141
-7.5844994 0.75845146 -28.556917
-7.5944991 -3.410205e-06 -28.436205
-7.6101575 -0.76101542 -28.247196
-7.6390014 -1.527801 -27.899019
-9.5315475 -2.8594654 -5.0539703
-9.487628 -3.7950485 -5.584115
-9.4701405 -4.7350698 -5.7952013
-9.4691992 -5.6815205 -5.8065743
-9.4819565 -6.6373701 -5.6525774
-9.5053864 -7.6043081 -5.3697524
-9.5365305 -8.582881 -4.9938135
-9.578598 -9.578598 -4.4860148
-9.660615 -10.626676 -3.4959795
-9.6258621 -11.551035 -3.9154847
-9.5970354 -12.476146 -4.263454
-9.5833368 -13.416674 -4.4288063
-9.5767536 -14.365132 -4.5082684
-9.5784311 -15.325488 -4.4880362
-9.5896349 -16.302383 -4.3527832
-9.6086636 -17.295599 -4.1230869
-9.6416359 -18.319109 -3.7250791
-9.6848087 -19.369623 -3.2039289
-9.8031387 -20.586594 -1.7755626
-7.012423 10.908213 -26.057211
-7.0117993 10.128157 -26.065582
-7.0117993 9.3490667 -26.065582
-7.0118241 8.5700073 -26.065247
-7.0117993 7.7908869 -26.065582
-7.0118241 7.0118213 -26.065247
-7.0117993 6.2327065 -26.06558
-7.0125728 5.4542217 -26.055204
-6.92136 4.6142397 -27.278584
-6.8843036 3.8246119 -27.775593
-6.8693714 3.0530543 -27.975866
-6.8600178 2.2866693 -28.101316
-6.8564844 1.5236639 -28.148712
-6.8595161 0.76216722 -28.108046
-6.8684373 -1.5971864e-06 -27.988394
-6.8824034 -0.76471227 -27.801079
-6.9081802 -1.5351543 -27.455351
-8.6202106 -2.8734043 -4.4930911
-8.5821295 -3.8142812 -5.0038428
-8.5667162 -4.7592845 -5.2105818
-8.5669394 -5.7112923 -5.2075796
-8.5802231 -6.6735063 -5.0294108
-8.6006393 -7.6450167 -4.7555804
-8.6279497 -8.6279497 -4.3892879
-8.6665535 -9.6295052 -3.871525
-8.7424784 -10.685253 -2.8532043
-8.7031965 -11.604262 -3.3800571
-8.680378 -12.538324 -3.68611
-8.6693764 -13.485697 -3.8336673
-8.664609 -14.441018 -3.8975961
-8.6668587 -15.407748 -3.8674338
-8.6783895 -16.392511 -3.7127793
-8.6959352 -17.39187 -3.4774451
-8.7242413 -18.417845 -3.0977976
-8.7639475 -19.475439 -2.5652442
-8.8829803 -20.726955 -0.9687435
-6.2642164 10.962378 -25.590199
-6.2634768 10.178148 -25.601353
-6.2634768 9.3952122 -25.601351
-6.2634768 8.6122789 -25.601355
-6.2634768 7.8293428 -25.601353
-6.2634768 7.0464134 -25.601353
-6.2634768 6.2634773 -25.601351
-6.2640815 5.4810696 -25.592224
-6.1918273 4.6438723 -26.682461
-6.1504397 3.8440239 -27.306948
-6.1367307 3.068362 -27.513802
-6.1284404 2.2981634 -27.638893
-6.1252031 1.5312996 -27.68774
-6.1278181 0.7659747 -27.648281
-6.1356988 -1.1073915e-06 -27.529379
-6.1480427 -0.76850677 -27.343117
-6.1720757 -1.5430186 -26.980494
-7.7001815 -2.8875706 -3.9231501
-7.667274 -3.8336406 -4.4196873
-7.6550059 -4.7843785 -4.6048007
-7.6551738 -5.7413802 -4.6022701
-7.6672406 -6.708837 -4.4201913
-7.6867623 -7.6867628 -4.1256409
-7.7114739 -8.6754103 -3.7527621
-7.7427087 -9.6783848 -3.281471
-7.8152089 -10.745914 -2.1875176
-7.772471 -11.658708 -2.8323834
-7.7550192 -12.601908 -3.0957191
-7.7455168 -13.554655 -3.2390952
-7.7427087 -14.517581 -3.2814727
-7.7458596 -15.491716 -3.233928
-7.7570457 -16.483723 -3.0651345
-7.7728853 -17.488993 -2.8261378
-7.7975993 -18.519299 -2.453228
-7.8354225 -19.58856 -1.8825234
-5.5088983 11.017797 -25.11237
-5.5079279 10.229011 -25.129105
-5.5079279 9.4421625 -25.129103
-5.5079279 8.6553164 -25.129103
-5.5079279 7.8684683 -25.129101
-5.5079279 7.0816216 -25.129101
-5.5079279 6.2947745 -25.129103
-5.5083833 5.5083818 -25.12125
-5.4529228 4.673933 -26.077633
-5.4091463 3.8636742 -26.832537
-5.3968568 3.0839174 -27.04446
-5.3894153 2.3097477 -27.172785
-5.3865352 1.5390085 -27.22245
-5.3888464 0.76983178 -27.18259
-5.3956594 1.7293318e-06 -27.065109
-5.4064741 -0.77235591 -26.878614
-5.4280601 -1.5508755 -26.506372
-6.7731924 -2.9027941 -3.3103971
-6.744451 -3.8539698 -3.8060291
-6.7338095 -4.8098645 -3.9895296
-6.7357931 -5.7735415 -3.9553282
-6.7472429 -6.747242 -3.7578859
-6.7626991 -7.7288003 -3.4913466
-6.7828779 -8.7208452 -3.1433761
-6.810102 -9.7287178 -2.6739199
-6.8678269 -10.792298 -1.6784924
-6.8315091 -11.71116 -2.3047633
-6.8190432 -12.663939 -2.5197294
-6.8142819 -13.628562 -2.6018436
-6.8130994 -14.599503 -2.6222167
-6.8160095 -15.579452 -2.5720415
-6.8260913 -16.57765 -2.3981926
-6.8406897 -17.590345 -2.1464498
-6.8623204 -18.626295 -1.7734421
-6.896111 -19.703175 -1.1907493
-4.7458878 11.073736 -24.630035
-4.7448077 10.280413 -24.651766
-4.7447901 9.4895792 -24.652109
-4.7447901 8.6987829 -24.652111
-4.7447901 7.9079847 -24.652109
-4.7448077 7.1172118 -24.651764
-4.7447901 6.326385 -24.652109
-4.7451329 5.5359874 -24.645212
-4.7048273 4.7048264 -25.456102
-4.6601186 3.8834319 -26.355577
-4.6488352 3.0992208 -26.582584
-4.6424913 2.3212428 -26.710201
-4.6400476 1.5466839 -26.759375
-4.6420155 0.77366793 -26.71978
-4.6477818 -1.2485422e-06 -26.603767
-4.6582012 -0.77637088 -26.39415
-4.6764803 -1.5588305 -26.026398
-5.8338594 -2.916929 -2.7417386
-5.8125062 -3.8750033 -3.1713328
-5.8040028 -4.836668 -3.3423996
-5.80621 -5.8062129 -3.2979982
-5.8158264 -6.7851315 -3.1045315
-5.8290949 -7.7721295 -2.8375909
-5.8454661 -8.7681999 -2.5082185
-5.8661199 -9.7768641 -2.0927036
-5.9019198 -10.820184 -1.3724581
-5.881752 -11.763503 -1.7782129
-5.8749108 -12.728975 -1.9158366
-5.8721266 -13.701629 -1.9718622
-5.8728881 -14.68222 -1.9565444
-5.8764091 -15.670426 -1.8856961
-5.8851256 -16.674522 -1.7103392
-5.8976264 -17.692877 -1.4588387
-5.9166241 -18.735979 -1.0766344
-5.9449077 -19.816357 -0.50762463
-3.9751904 11.130533 -24.140331
-3.9739635 10.332304 -24.169952
-3.9739635 9.5375128 -24.169952
-3.9739635 8.7427168 -24.169954
-3.973949 7.947897 -24.170301
-3.9739635 7.1531324 -24.169952
-3.973949 6.3583193 -24.170303
-3.9742088 5.5638881 -24.16403
-3.9616063 4.7539239 -24.468277
-3.903085 3.9030864 -25.881111
-3.8935595 3.1148465 -26.11108
-3.8879571 2.3327732 -26.246328
-3.8859415 1.5543724 -26.294989
-3.887543 0.77750367 -26.25633
-3.8925757 -3.8257581e-06 -26.134823
-3.9014571 -0.78029472 -25.920412
-3.9167464 -1.5667001 -25.551291
-4.8856397 -2.9313829 -2.1601458
-4.8695097 -3.8956056 -2.5495563
-4.8637099 -4.8637066 -2.6895773
-4.8664131 -5.8396978 -2.6243103
-4.8743029 -6.8240232 -2.4338429
-4.8858361 -7.8173389 -2.1554029
-4.8985639 -8.8174152 -1.8481255
-4.9124165 -9.8248339 -1.513695
-4.9205222 -10.82515 -1.3180038
-4.9226465 -11.814354 -1.2667073
-4.9221821 -12.797677 -1.2779279
-4.9211416 -13.7792 -1.303043
-4.9228687 -14.768604 -1.2613593
-4.9263253 -15.764241 -1.1779003
-4.9340096 -16.775635 -0.99237722
-4.9448223 -17.801361 -0.73134196
-4.9585109 -18.842344 -0.40087125
-4.9841876 -19.93675 0.21901108
-3.1965818 11.188036 -23.644529
-3.1952984 10.38472 -23.683254
-3.1952984 9.5858946 -23.683254
-3.1952984 8.7870703 -23.683254
-3.1952868 7.9882154 -23.683609
-3.1953104 7.1894469 -23.682905
-3.1952868 6.390574 -23.683605
-3.1954734 5.5920758 -23.677973
-3.2394326 4.8591495 -22.351391
-3.1381369 3.9226704 -25.408264
-3.1309097 3.1309059 -25.62636
-3.1257119 2.3442833 -25.783216
-3.1241393 1.5620716 -25.830673
-3.1253996 0.78134799 -25.792645
-3.1299696 2.4582966e-06 -25.654737
-3.1364393 -0.78411156 -25.459496
-3.1491988 -1.5746005 -25.07444
-3.9300742 -2.9475551 -1.5094355
-3.9169576 -3.9169559 -1.9052684
-3.9141209 -4.892653 -1.9908717
-3.9170277 -5.8755407 -1.9031523
-3.9233291 -6.8658242 -1.7129904
-3.9318216 -7.8636413 -1.456709
-3.9408119 -8.866827 -1.1853951
-3.9486678 -9.8716698 -0.94833028
-3.9544106 -10.874633 -0.7750206
-3.9578786 -11.87364 -0.6703611
-3.9595792 -12.868633 -0.6190449
-3.9605463 -13.861909 -0.58986217
-3.9626975 -14.860119 -0.52494168
-3.9659643 -15.863859 -0.4263531
-3.9718475 -16.880356 -0.24880499
-3.9794662 -17.907598 -0.018898625
-3.9905851 -18.95528 0.31663573
-4.0103264 -20.051632 0.91238499
-2.4098423 11.245931 -23.145353
-2.4086225 10.437363 -23.194435
-2.4086137 9.6344528 -23.19479
-2.4086137 8.8315811 -23.194794
-2.4086049 8.0286827 -23.195147
-2.4086137 7.225842 -23.194792
-2.4086049 6.4229431 -23.195145
-2.4087195 5.6203475 -23.190527
-2.4370134 4.8740249 -22.052065
-2.3657453 3.9429078 -24.919682
-2.3601418 3.1468565 -25.145151
-2.3561277 2.3561265 -25.306664
-2.3549109 1.5699354 -25.355619
-2.3558486 0.78528202 -25.317888
-2.3593869 9.6576048e-07 -25.175518
-2.3643568 -0.78812099 -24.975548
-2.3739905 -1.5826616 -24.587919
-2.9635324 -2.9635329 -0.86658293
-2.9543324 -3.9391119 -1.2367609
-2.9534686 -4.9224501 -1.2715166
-2.9573529 -5.9147067 -1.1152364
-2.9621022 -6.9115734 -0.92413384
-2.967953 -7.9145389 -0.68872291
-2.9733419 -8.9200287 -0.47187608
-2.9784265 -9.928093 -0.26729083
-2.9824712 -10.935731 -0.10453878
-2.9857261 -11.942904 0.026422098
-2.9877911 -12.947093 0.10950706
-2.9907441 -13.956805 0.2283279
-2.9931436 -14.965714 0.3248699
-2.9955876 -15.976469 0.42321876
-2.9998436 -16.999115 0.59447193
-3.0051706 -18.031025 0.80880529
-3.0139155 -19.088131 1.1606811
-3.0327075 -20.218052 1.9168072
-1.6157527 11.310267 -22.59062
-1.6139179 10.490466 -22.701353
-1.613906 9.6834354 -22.702074
-1.613906 8.876482 -22.70207
-1.613906 8.0695295 -22.702068
-1.613912 7.2626076 -22.701715
-1.613906 6.4556222 -22.702072
-1.6139656 5.6488791 -22.698483
-1.6296716 4.8890147 -21.75054
-1.5853312 3.9633284 -24.426716
-1.5814654 3.1629319 -24.660048
-1.5787789 2.3681645 -24.822178
-1.5779595 1.5779613 -24.871639
-1.5785513 0.78927439 -24.835926
-1.5808942 -4.5377823e-07 -24.694511
-1.5844361 -0.79221636 -24.480742
-1.5909604 -1.590961 -24.086969
-1.9879079 -2.9818637 -0.12906249
-1.9833865 -3.9667716 -0.4019542
-1.983656 -4.9591403 -0.38568386
-1.9865277 -5.9595842 -0.21236175
-1.9907738 -6.96771 0.043904647
-1.9947197 -7.9788809 0.28206763
-1.9977237 -8.9897604 0.4633739
-2.0011208 -10.005608 0.66841227
-2.004025 -11.022138 0.84368759
-2.0072041 -12.043222 1.0355697
-2.0096552 -13.062759 1.1835078
-2.0122232 -14.085567 1.338506
-2.0153823 -15.115372 1.5291696
-2.0179093 -16.143274 1.6816815
-2.0231879 -17.197098 2.0002763
-2.030489 -18.274405 2.4409328
-2.0502217 -19.477106 3.6318932
-0.81226546 11.371715 -22.060804
-0.81108558 10.544111 -22.203228
-0.81107962 9.7329521 -22.203955
-0.81107962 8.9218731 -22.203955
-0.81107658 8.1107645 -22.204317
-0.81107962 7.299715 -22.203953
-0.81107962 6.4886346 -22.203951
-0.81110054 5.6777043 -22.201416
-0.8161301 4.896781 -21.594303
-0.79673105 3.9836528 -23.935972
-0.79479563 3.1791787 -24.169605
-0.79350758 2.3805232 -24.325079
-0.79295564 1.5859072 -24.391701
-0.79336381 0.79336476 -24.342436
-0.79444361 5.9382103e-07 -24.212091
-0.79619485 -0.79619461 -24.000692
-0.79956579 -1.5991319 -23.593788
-1.0115145 -3.034544 1.9906816
-1.0098531 -4.0394115 1.7901331
-1.0099509 -5.0497556 1.8019482
-1.0103892 -6.0623322 1.8548437
-1.0109445 -7.0766144 1.9218808
-1.0115986 -8.0927935 2.0008428
-1.0121834 -9.1096544 2.0714276
-1.0129048 -10.129047 2.1585002
-1.0135192 -11.148714 2.2326694
-1.0141672 -12.170008 2.3108988
-1.0147785 -13.192122 2.3846807
-1.0153575 -14.215007 2.4545777
-1.0159466 -15.239199 2.5256853
-1.0166309 -16.266094 2.6082754
-1.0174531 -17.296707 2.7075372
-1.0184947 -18.332909 2.8332696
-1.0201371 -19.382605 3.0315237
-1.0291064 -20.582129 4.1142116
7.5851311e-24 11.444725 -21.431307
-7.410998e-24 10.598351 -21.699617
1.8644567e-23 9.78298 -21.700718
-1.4509197e-23 8.9676991 -21.701086
-2.3015923e-23 8.1524544 -21.701088
-2.3584956e-23 7.3372102 -21.701086
-3.0771435e-23 6.521965 -21.701086
-3.7862313e-23 5.7068248 -21.699255
-1.0241327e-23 4.9138951 -21.250019
-2.5831945e-24 4.0042934 -23.437695
7.0571244e-24 3.1954134 -23.679733
-1.9999659e-23 2.3927977 -23.83119
-1.8062719e-23 1.5939718 -23.905159
1.9802242e-23 0.79736519 -23.858891
-1.29276e-23 5.6366775e-07 -23.725821
-9.5252619e-24 -0.80023444 -23.51333
-1.9911133e-24 -1.6073138 -23.100138
-1.4233145e-24 -3.0215724 1.4687195
-7.8360646e-24 -4.0255241 1.3708953
-7.6258079e-24 -5.0344234 1.4318022
-2.9230506e-23 -6.0467596 1.5414867
-1.8931838e-23 -7.0619349 1.668772
3.3499499e-24 -8.0791607 1.7951978
-2.2820198e-23 -9.0988359 1.926389
-6.82603e-24 -10.119403 2.0420544
-1.6543432e-23 -11.141696 2.1556716
5.9544783e-24 -12.165049 2.260998
-1.6848998e-23 -13.188209 2.3483458
-2.6818178e-23 -14.211706 2.4261503
-1.1521075e-23 -15.238564 2.5205605
-1.9025612e-23 -16.267002 2.6151185
5.4787557e-24 -17.302254 2.7469456
-2.2142979e-24 -18.345798 2.9197152
-9.4391215e-24 -19.411467 3.21488
1.4676569e-23 -20.611008 4.2885084
0.81946981 10.653108 -21.19117
0.81945747 9.8334866 -21.192648
0.81945747 9.0140314 -21.192646
0.81945443 8.1945419 -21.193018
0.81945747 7.3751163 -21.192646
0.81945747 6.5556574 -21.192646
0.81946981 5.7362876 -21.191168
0.82256788 4.9354038 -20.81719
0.80506831 4.0253396 -22.929577
0.80304796 3.2121921 -23.173458
0.80177712 2.4053304 -23.326855
0.80112565 1.6022512 -23.405495
0.80150706 0.80150622 -23.359457
0.80260038 6.8843923e-07 -23.227488
0.80440849 -0.80440927 -23.009226
0.80776006 -1.6155248 -22.60465
1.0090199 -3.0270565 1.6895413
1.0074639 -4.0298576 1.5017353
1.0078768 -5.0393848 1.551572
1.0088803 -6.0532846 1.6727048
1.0102866 -7.0720077 1.8424654
1.0117857 -8.0942898 2.0234218
1.0130829 -9.1177464 2.1800053
1.0143975 -10.143976 2.3386927
1.0155412 -11.17095 2.4767494
1.0163901 -12.196679 2.5792165
1.0171741 -13.223264 2.673862
1.0177796 -14.248919 2.7469451
1.0183525 -15.27529 2.8161097
1.0193342 -16.309349 2.9346046
1.0206747 -17.351471 3.0964136
1.0224578 -18.404242 3.3116691
1.025841 -19.49098 3.7200477
1.0396452 -20.792902 5.3863516
1.647439 10.708349 -20.678185
1.6474079 9.8844471 -20.680058
1.6474079 9.0607443 -20.680056
1.6474017 8.2370062 -20.680428
1.6474079 7.4133368 -20.680061
1.6474079 6.589633 -20.680059
1.6474265 5.7659922 -20.678934
1.6528879 4.9586635 -20.349306
1.6186203 4.0465484 -22.417543
1.6143523 3.2287014 -22.675129
1.6118381 2.4177594 -22.826889
1.610729 1.6107289 -22.893822
1.6112745 0.80563724 -22.860899
1.6134361 2.26919e-06 -22.730436
1.6172987 -0.80864829 -22.497305
1.6248385 -1.6248392 -22.042238
2.0257814 -3.0386741 2.1568034
2.0214875 -4.0429735 1.8976483
2.0215623 -5.0539064 1.9021586
2.0237586 -6.0712757 2.0347085
2.0270288 -7.0946021 2.2321012
2.0302534 -8.1210165 2.4267247
2.0337338 -9.151803 2.6367867
2.0369704 -10.184853 2.8321207
2.0392191 -11.21571 2.9678543
2.0411115 -12.24667 3.0820518
2.0420635 -13.273417 3.1395204
2.0429022 -14.300316 3.1901298
2.0439799 -15.329849 3.2551877
2.0460627 -16.368502 3.3808854
2.0493386 -17.41938 3.5786073
2.0537803 -18.484022 3.8466983
2.062149 -19.590418 4.3517942
2.4840684 10.764297 -20.158726
2.483984 9.9359341 -20.162121
2.483984 9.1079388 -20.162121
2.4839747 8.2799158 -20.162504
2.4839747 7.4519262 -20.162502
2.483984 6.6239562 -20.162123
2.4840028 5.7960081 -20.161369
2.4910986 4.9821949 -19.875847
2.4408543 4.0680895 -21.897522
2.4340234 3.2453647 -22.17238
2.4302847 2.4302862 -22.322813
2.4290082 1.619336 -22.374172
2.4297993 0.80992919 -22.342348
2.4326077 2.0990985e-06 -22.229345
2.4387875 -0.81293148 -21.980686
2.4504278 -1.633617 -21.512323
3.0528846 -3.0528824 2.7286606
3.0450838 -4.0601125 2.4147837
3.0441377 -5.0735636 2.3767333
3.0471468 -6.0942984 2.497802
3.0523026 -7.1220417 2.7052531
3.058373 -8.1556587 2.949506
3.0657268 -9.1971817 3.2454023
3.0722818 -10.24094 3.5091534
3.0765572 -11.280708 3.6811774
3.0770328 -12.308134 3.7003229
3.0761967 -13.330184 3.6666789
3.076932 -14.359019 3.696264
3.0784464 -15.392233 3.757206
3.0823336 -16.439112 3.9136143
3.0873044 -17.494728 4.113627
3.0956006 -18.573606 4.4474349
3.1096008 -19.694141 5.0107503
3.3294859 10.820826 -19.633799
3.3293085 9.9879227 -19.639149
3.3293085 9.1555958 -19.639147
3.3293085 8.3232679 -19.639145
3.3293085 7.4909449 -19.639151
3.3293085 6.658618 -19.639149
3.3293209 5.8263111 -19.638767
3.335587 5.0033813 -19.449675
3.27195 4.0899334 -21.370089
3.2627807 3.2627769 -21.646803
3.2574997 2.4431207 -21.806166
3.2552106 1.627601 -21.875244
3.2563486 0.81408703 -21.840906
3.2606056 3.1736704e-07 -21.712442
3.2687984 -0.81720197 -21.465199
3.284692 -1.6423514 -20.985567
4.0896215 -3.0672209 3.305326
4.0788755 -4.0788784 2.9810441
4.0761981 -5.0952516 2.9002383
4.0804915 -6.1207352 3.029803
4.0874448 -7.1530313 3.2396388
4.0971808 -8.1943626 3.5334575
4.1081972 -9.2434454 3.865896
4.123735 -10.309339 4.3347921
4.1302128 -11.35809 4.5302868
4.123735 -12.371207 4.3347921
4.1204553 -13.391476 4.2358098
4.1207461 -14.422611 4.244596
4.1226087 -15.459786 4.3008056
4.1277399 -16.510958 4.4556527
4.1364379 -17.579861 4.7181311
4.1490421 -18.670691 5.0985017
4.1704855 -19.809811 5.7456241
4.1838298 10.877956 -19.103336
4.1835418 10.040502 -19.110287
4.1835418 9.2037916 -19.110289
4.1835418 8.3670797 -19.110281
4.1835418 7.5303731 -19.110281
4.1835418 6.6936631 -19.110285
4.1835418 5.8569565 -19.110285
4.1898203 5.0277843 -18.958715
4.1117578 4.1117587 -20.843306
4.1000352 3.2800276 -21.12631
4.0934715 2.45608 -21.284773
4.0901055 1.6360447 -21.366035
4.0919256 0.81838489 -21.322096
4.0971956 -2.9411192e-06 -21.194868
4.1073442 -0.82147133 -20.949854
4.1277623 -1.6511077 -20.456919
5.1370296 -3.0822208 3.9089594
5.121644 -4.0973172 3.5375087
5.1183624 -5.1183639 3.4582837
5.1231542 -6.1477842 3.5739727
5.1322842 -7.1851983 3.7943833
5.1456285 -8.2330046 4.1165423
5.1632538 -9.2938557 4.5420446
5.1914935 -10.382987 5.2238255
5.1932921 -11.425241 5.26724
5.1802392 -12.432574 4.9521189
5.17485 -13.454614 4.8220177
5.1740675 -14.487392 4.8031178
5.1767106 -15.530133 4.8669333
5.1839199 -16.588545 5.0409751
5.1956096 -17.665073 5.3231926
5.213728 -18.769421 5.7606106
5.244761 -19.930094 6.5098138
5.0472622 10.935731 -18.566847
5.0467963 10.093594 -18.576218
5.0467963 9.2524614 -18.576218
5.0467963 8.4113293 -18.576216
5.0467963 7.5701938 -18.576218
5.0467963 6.7290606 -18.576216
5.0467963 5.8879294 -18.576216
5.0538855 5.0538816 -18.433596
4.9603872 4.1336536 -20.314634
4.9458532 3.2972367 -20.607038
4.9382467 2.4691188 -20.760065
4.9340167 1.6446713 -20.845167
4.9362049 0.82270223 -20.801147
4.9424472 2.672117e-06 -20.675568
4.9545856 -0.82576489 -20.431355
4.979156 -1.6597197 -19.937029
6.1963716 -3.0981872 4.5514545
6.1752191 -4.1168132 4.1258941
6.1705475 -5.1421218 4.0319076
6.1759157 -6.1759167 4.1399169
6.1874967 -7.2187467 4.3729029
6.2049499 -8.2732658 4.7240281
6.2296152 -9.3444223 5.2202597
6.2723713 -10.453953 6.080442
6.2645316 -11.484979 5.9227281
6.2484665 -12.49693 5.5995107
6.2396789 -13.519308 5.4227238
6.2388783 -14.557384 5.4066191
6.2418137 -15.604534 5.4656773
6.2512918 -16.670111 5.6563563
6.2663846 -17.754761 5.9600167
6.2909999 -18.873001 6.4552202
6.3372951 -20.068102 7.3866105
5.9199839 10.994254 -18.023455
5.9192286 10.147252 -18.03647
5.9192286 9.3016434 -18.036465
5.9192286 8.4560404 -18.03647
5.9192286 7.6104407 -18.036472
5.9192286 6.764832 -18.036467
5.9192066 5.9192047 -18.036861
5.9267163 5.0800428 -17.907356
5.8182583 4.1558948 -19.777641
5.8018446 3.3153381 -20.060696
5.7913399 2.4820056 -20.24184
5.7875552 1.6535858 -20.307098
5.7900271 0.82714826 -20.264482
5.7973661 1.6206213e-06 -20.13792
5.811461 -0.83021015 -19.894854
5.8410158 -1.6688644 -19.385202
7.2652993 -3.1137006 5.1756921
7.2388344 -4.1364813 4.7193155
7.2326493 -5.1661768 4.6126537
7.2397919 -6.2055364 4.7358274
7.2548418 -7.2548432 4.9953437
7.2763753 -8.3158598 5.3666859
7.3082714 -9.396348 5.9167147
7.3630962 -10.518709 6.8621302
7.3467145 -11.544835 6.5796318
7.3244123 -12.556139 6.1950555
7.3160191 -13.586894 6.0503097
7.3134694 -14.626938 6.0063505
7.3175912 -15.680554 6.077425
7.3295984 -16.753366 6.2844777
7.3477006 -17.844418 6.5966487
7.3799777 -18.977087 7.1532474
7.4447398 -20.20715 8.2700272
6.8021231 11.053448 -17.473808
6.8009605 10.201442 -17.49135
6.8009605 9.3513241 -17.491352
6.8009605 8.5011969 -17.491348
6.8009605 7.6510792 -17.49135
6.8009605 6.8009624 -17.491354
6.8009338 5.9508162 -17.491747
6.8084974 5.1063733 -17.37763
6.6862803 4.178926 -19.221741
6.666501 3.3332498 -19.520187
6.6541128 2.4952905 -19.707104
6.6501455 1.6625366 -19.766973
6.652596 0.83157545 -19.73
6.66115 -2.9226726e-06 -19.600925
6.6779671 -0.83474445 -19.347176
6.7138138 -1.6784519 -18.806297
8.3435946 -3.1288469 5.7852044
8.3145151 -4.1572561 5.3464251
8.3067837 -5.191741 5.229774
8.3133307 -6.2350006 5.328557
8.3313675 -7.289948 5.600709
8.360446 -8.3604498 6.0394692
8.3984995 -9.4483128 6.6136627
8.4724989 -10.59063 7.7302284
8.4388943 -11.603483 7.2231703
8.41432 -12.621478 6.8523669
8.4030142 -13.654901 6.6817732
8.3993063 -14.698787 6.6258173
8.4043856 -15.758224 6.7024641
8.4192562 -16.838511 6.9268441
8.4425154 -17.940344 7.2778044
8.4833364 -19.087505 7.8937387
8.5726309 -20.359999 9.2410822
7.6938128 11.113284 -16.918211
7.6921601 10.256212 -16.940376
7.6921601 9.4015255 -16.940376
7.6921601 8.5468435 -16.940376
7.6921601 7.6921606 -16.940374
7.6921601 6.8374729 -16.940376
7.6921301 5.9827642 -16.940777
7.6991053 5.1327329 -16.847229
7.5645261 4.2025146 -18.652246
7.5398579 3.3510482 -18.983103
7.527699 2.5092282 -19.146177
7.5214334 1.6714299 -19.230219
7.5246224 0.83606869 -19.187447
7.5337739 3.5862183e-06 -19.064711
7.5543151 -0.83936727 -18.789202
7.601275 -1.6891716 -18.159355
9.435008 -3.1450026 6.4352188
9.4006996 -4.1780882 5.9750552
9.3924522 -5.2180271 5.8644352
9.3999815 -6.2666578 5.9654269
9.4225073 -7.3286152 6.2675529
9.4567947 -8.4060402 6.7274241
9.498105 -9.4981079 7.281496
9.5937653 -10.65974 8.5645094
9.5422277 -11.662722 7.8732719
9.5148964 -12.686532 7.5066991
9.5019999 -13.725109 7.3337255
9.4976473 -14.774117 7.2753539
9.5043373 -15.840564 7.3650813
9.5220709 -16.928125 7.6029291
9.5520363 -18.042738 8.004838
9.6003571 -19.200716 8.6529312
8.5954447 11.174077 -16.353718
8.5929813 10.311577 -16.383453
8.5929813 9.4522791 -16.383457
8.5929813 8.5929813 -16.383461
8.5929813 7.7336826 -16.383453
8.5929813 6.8743849 -16.383457
8.5929813 6.0150876 -16.383461
8.5990248 5.1594162 -16.310514
8.452548 4.2262721 -18.078642
8.4260607 3.3704216 -18.398369
8.4094524 2.5228362 -18.598839
8.4047709 1.6809503 -18.655359
8.4076118 0.84076023 -18.621067
8.4185743 -9.1619393e-07 -18.488741
8.4403572 -0.84403843 -18.225796
8.5142632 -1.7028538 -17.333677
10.540084 -3.1620226 7.1201525
10.499232 -4.1996942 6.6270313
10.489723 -5.2448626 6.5122414
10.499685 -6.2998166 6.6325078
10.52407 -7.3668456 6.9268422
10.565523 -8.4524174 7.4272304
10.613992 -9.5525942 8.0122957
10.72403 -10.72403 9.3405838
10.657091 -11.722801 8.5325537
10.627185 -12.752622 8.171546
10.612963 -13.796851 7.9998689
10.609259 -14.852962 7.9551601
10.616411 -15.924616 8.041503
10.637359 -17.019777 8.2943611
10.674451 -18.146564 8.7420988
10.731497 -19.316696 9.4307127
9.5075588 11.236205 -15.776834
9.5036182 10.367585 -15.820084
9.5036182 9.5036173 -15.820082
9.5036182 8.6396532 -15.820079
9.5036182 7.7756853 -15.820079
9.503581 6.911695 -15.820488
9.5036182 6.0477581 -15.820082
9.5083857 5.1863899 -15.767771
9.3543358 4.2519684 -17.458254
9.3263626 3.3914032 -17.765228
9.307579 2.5384269 -17.971357
9.2993107 1.6907799 -18.062092
9.3032274 0.84574646 -18.019117
9.3177366 -2.1349465e-06 -17.859894
9.3416328 -0.84924001 -17.597656
9.6601839 -1.7564007 -14.101974
11.654988 -3.1786342 7.7884016
11.612547 -4.2227445 7.32266
11.60102 -5.2731934 7.1961765
11.610642 -6.3330793 7.3017659
11.643095 -7.409246 7.6578956
11.6844 -8.4977455 8.1111546
11.741265 -9.6064901 8.7351856
11.86094 -10.782673 10.048445
11.782983 -11.782984 9.192975
11.750893 -12.819155 8.8408318
11.736343 -13.870229 8.6811771
11.732855 -14.932728 8.6428938
11.742697 -16.012772 8.7508993
11.768124 -17.117273 9.0299206
11.810785 -18.253029 9.4980659
11.881249 -19.442045 10.271319
10.432234 11.301583 -15.169749
10.424036 10.424036 -15.252214
10.424036 9.5553684 -15.252215
10.424036 8.6866961 -15.25221
10.424036 7.8180246 -15.252213
10.423995 6.949327 -15.25263
10.424036 6.0806899 -15.252216
10.428921 5.2144589 -15.203087
