# .PCD v0.7 - Point Cloud Data file format
VERSION 0.7
FIELDS x y z
SIZE 4 4 4
TYPE F F F
COUNT 1 1 1
WIDTH 1505
HEIGHT 1
VIEWPOINT 0 0 0 1 0 0 0
POINTS 1505
DATA ascii
-41.81625 29.868736 -97.700493
-41.640701 27.76045 -98.709595
-41.460476 25.665985 -99.745537
-41.281277 23.589287 -100.77559
-41.105984 21.531691 -101.78321
-40.932167 19.491497 -102.78232
-40.75853 17.46792 -103.78042
-40.59045 15.463015 -104.74657
-40.434532 13.478162 -105.64278
-40.321407 11.520395 -106.29306
-40.763687 9.7056198 -103.75077
-41.768398 7.9558702 -97.975563
-42.886463 6.1266131 -91.548767
-51.0042 4.8575301 -44.887016
-51.046227 2.430769 -44.645412
-44.522697 -1.2701717e-05 -82.143478
-43.118252 -2.0532732 -90.216431
-42.384365 -4.0366187 -94.434898
-42.131706 -6.0188265 -95.887222
-42.160931 -8.0306721 -95.719223
-42.327141 -10.077907 -94.763847
-42.756527 -12.21617 -92.295654
-43.47617 -14.492066 -88.159073
-45.865265 -17.472496 -74.426254
-42.76775 68.428383 -79.93943
-42.536034 65.93084 -81.337967
-42.322426 63.483627 -82.62719
-42.127148 61.084347 -83.805809
-41.934666 58.708515 -84.967545
-41.744221 56.354683 -86.117004
-41.555492 54.022129 -87.25605
-41.370419 51.713009 -88.373085
-41.188229 49.425858 -89.472679
-41.007092 47.158138 -90.565964
-40.821968 44.904152 -91.683266
-40.643761 42.675938 -92.758842
-40.469639 40.469624 -93.809776
-40.295013 38.280251 -94.863716
-40.123993 36.111584 -95.895935
-39.942966 33.951508 -96.988495
-39.775688 31.820538 -97.998131
-39.603409 29.702545 -99.037918
-39.437439 27.606194 -100.03965
-39.265682 25.522684 -101.07628
-39.09679 23.458055 -102.09563
-38.933174 21.413239 -103.08316
-38.765774 19.382872 -104.0935
-38.602116 17.370939 -105.08126
-38.44706 15.378811 -106.01711
-38.301136 13.405375 -106.89785
-38.195503 11.458643 -107.53537
-38.639435 9.6598387 -104.85604
-39.592167 7.9184227 -99.105774
-40.627209 6.0940633 -92.858749
-49.078228 4.9078031 -41.852345
-43.674519 2.1837094 -74.466606
-41.468143 -5.4052944e-06 -87.783257
-40.337669 -2.0168898 -94.606285
-39.787167 -3.9787314 -97.928848
-39.611465 -5.9417362 -98.989288
-39.626434 -7.9253058 -98.898972
-39.859928 -9.9649992 -97.489677
-40.299778 -12.089945 -94.834961
-40.999008 -14.349669 -90.614746
-43.462128 -17.384863 -75.748497
-40.380817 68.009789 -81.518494
-40.16613 65.534203 -82.882431
-39.967415 63.10643 -84.144913
-39.7845 60.72369 -85.307007
-39.603386 58.362873 -86.457657
-39.424179 56.023815 -87.596191
-39.24593 53.704933 -88.728653
-39.071899 51.410381 -89.834297
-38.900574 49.137558 -90.922752
-38.729717 46.883327 -92.008232
-38.558823 44.647049 -93.093956
-38.393353 42.434746 -94.145233
-38.229294 40.241344 -95.187523
-38.061539 38.061527 -96.253319
-37.905472 35.910431 -97.244827
-37.730766 33.75909 -98.354774
-37.577763 31.644423 -99.326851
-37.412777 29.536385 -100.37502
-37.253761 27.450127 -101.38528
-37.094204 25.380238 -102.39899
-36.935768 23.327845 -103.40555
-36.784836 21.296469 -104.36446
-36.62339 19.275452 -105.39014
-36.472141 17.276262 -106.35107
-36.326889 15.295516 -107.27389
-36.19054 13.333336 -108.14013
-36.09227 11.397541 -108.76444
-36.534893 9.6144352 -105.95238
-37.421787 7.8782487 -100.31779
-38.392467 6.0619645 -94.150856
-45.106548 4.7480502 -51.494999
-40.344063 2.1233568 -81.751999
-38.760113 -9.7705752e-06 -91.815163
-37.824543 -1.9907798 -97.758995
-37.336807 -3.9302051 -100.85767
-37.149883 -5.8657918 -102.04526
-37.184601 -7.8283606 -101.82467
-37.442337 -9.8532658 -100.18721
-37.91188 -11.972179 -97.204109
-38.609142 -14.224436 -92.774284
-38.022648 67.595802 -83.080109
-37.819393 65.133385 -84.443169
-37.639709 62.73283 -85.648148
-37.468082 60.365231 -86.79911
-37.298641 58.020096 -87.935417
-37.130478 55.695705 -89.063148
-36.963081 53.391106 -90.185738
-36.800617 51.111961 -91.275223
-36.639702 48.852913 -92.354362
-36.47958 46.612785 -93.428154
-36.323246 44.395069 -94.47657
-36.16753 42.195446 -95.520805
-36.012913 40.014336 -96.557693
-35.855885 37.847866 -97.610756
-35.707031 35.707016 -98.608986
-35.548416 33.57349 -99.672661
-35.40176 31.468214 -100.65617
-35.246742 29.372274 -101.69574
-35.096645 27.297377 -102.70231
-34.947601 25.239918 -103.70184
-34.801243 23.200809 -104.68334
-34.659801 21.180971 -105.63186
-34.506454 19.170238 -106.66022
-34.365898 17.182938 -107.60281
-34.230305 15.213457 -108.51214
-34.102196 13.261945 -109.37125
-34.012291 11.33742 -109.97416
-34.450592 9.5695963 -107.03486
-35.285366 7.841176 -101.4367
-36.193253 6.0322008 -95.348312
-40.113445 4.4570289 -69.058922
-37.43988 2.0799789 -86.988213
-36.263252 -1.8320588e-05 -94.878891
-35.576244 -1.9764687 -99.486053
-35.163021 -3.907023 -102.25718
-34.905739 -5.8176332 -103.98257
-34.849014 -7.744246 -104.36298
-35.102894 -9.7508183 -102.66042
-35.578537 -11.859523 -99.470673
-36.446472 -14.173645 -93.650169
-35.688858 67.179016 -84.652321
-35.507832 64.749557 -85.937737
-35.341557 62.367447 -87.118385
-35.17897 60.011166 -88.272865
-35.020576 57.680931 -89.397568
-34.863018 55.370663 -90.516327
-34.707218 53.081615 -91.622597
-34.556011 50.817646 -92.696266
-34.406227 48.573483 -93.759819
-34.2565 46.347012 -94.822983
-34.109295 44.14143 -95.868217
-33.963684 41.955128 -96.902153
-33.820408 39.7887 -97.919495
-33.676487 37.638412 -98.941444
-33.5326 35.505093 -99.963135
-33.38961 33.389595 -100.97841
-33.249748 31.293869 -101.97153
-33.104748 29.210058 -103.00113
-32.965488 27.148035 -103.98997
-32.824913 25.101387 -104.98815
-32.687477 23.073503 -105.96402
-32.552406 21.063307 -106.9231
-32.412807 19.066347 -107.91434
-32.283192 17.091087 -108.8347
-32.156689 15.132542 -109.73295
-32.037666 13.191972 -110.57808
-31.954239 11.277954 -111.17047
-32.388855 9.5261154 -108.08444
-33.169285 7.8045254 -102.54288
-34.016964 6.0029869 -96.523827
-36.543251 4.2991915 -78.585594
-34.900349 2.0529456 -90.251266
-33.995232 -1.3213848e-05 -96.678131
-33.510406 -1.9712132 -100.12072
-33.228672 -3.9092729 -102.12121
-33.028538 -5.8285756 -103.54227
-32.948616 -7.752625 -104.10976
-32.95903 -9.6938362 -104.03584
-33.33263 -11.764469 -101.38302
-34.396355 -14.163224 -93.82991
-47.380077 -22.296518 -1.6373141
-33.588482 69.27623 -84.66011
-33.383675 66.767342 -86.205246
-33.22403 64.371544 -87.409706
-33.070133 62.006489 -88.570755
-32.916553 59.66124 -89.729424
-32.769318 57.346294 -90.840256
-32.623173 55.051586 -91.942818
-32.479076 52.778488 -93.029922
-32.338486 50.528873 -94.090591
-32.199322 48.298973 -95.140518
-32.059776 46.085922 -96.193306
-31.920294 43.890388 -97.245613
-31.7848 41.717529 -98.267845
-31.652697 39.565853 -99.264496
-31.520773 37.430901 -100.25978
-31.38242 35.305206 -101.30357
-31.253832 33.207176 -102.27369
-31.122347 31.122326 -103.26568
-30.984329 29.047792 -104.30692
-30.857327 27.000147 -105.26508
-30.726746 24.965464 -106.25026
-30.594114 22.94557 -107.25086
-30.466217 20.945509 -108.21577
-30.343796 18.964859 -109.13938
-30.223003 17.000422 -110.0507
-30.104645 15.052314 -110.94364
-29.995089 13.122837 -111.77016
-29.919029 11.219619 -112.34399
-30.343796 9.482419 -109.13939
-31.072104 7.768013 -103.64471
-31.871275 5.9758577 -97.61544
-33.66658 4.2083092 -84.0709
-32.502735 2.0314026 -92.85144
-31.908468 -1.5287484e-05 -97.334854
-31.565674 -1.972872 -99.921028
-31.348248 -3.9185462 -101.56139
-31.232849 -5.8561692 -102.43198
-31.185623 -7.7964172 -102.78829
-31.221825 -9.7568369 -102.51517
-31.516319 -11.81864 -100.29337
-32.579216 -14.253426 -92.274445
-44.270847 -22.135435 -4.067893
-46.193008 -25.983576 10.433678
-31.286556 68.830414 -86.290878
-31.112148 66.372566 -87.694412
-30.963612 63.991459 -88.889725
-30.819794 61.639568 -90.047104
-30.677608 59.310032 -91.191315
-30.543823 57.015125 -92.267929
-30.409595 54.737259 -93.348122
-30.27634 52.478981 -94.420471
-30.146223 50.243702 -95.467575
-30.017414 48.027851 -96.504128
-29.887569 45.827591 -97.549057
-29.757977 43.64502 -98.591957
-29.631216 41.483692 -99.61203
-29.508467 39.344608 -100.59985
-29.387667 37.224358 -101.57195
-29.262177 35.114601 -102.58183
-29.141167 33.026642 -103.55565
-29.015299 30.949638 -104.56854
-28.888247 28.888237 -105.591
-28.772013 26.853863 -106.52638
-28.652784 24.83239 -107.48585
-28.529409 22.823505 -108.47869
-28.410162 20.834103 -109.43832
-28.297647 18.865086 -110.34375
-28.18611 16.911654 -111.24136
-28.075958 14.973828 -112.12777
-27.974831 13.054904 -112.94161
-27.906713 11.162667 -113.48976
-28.320202 9.4400539 -110.16225
-28.994272 7.7317939 -104.73775
-29.743742 5.9487271 -98.706497
-31.165668 4.1554108 -87.263702
-30.310041 2.020653 -94.149246
-29.8866 -1.326311e-05 -97.55687
-29.645056 -1.9763511 -99.500648
-29.506954 -3.9342768 -100.61203
-29.448132 -5.8896384 -101.08537
-29.446716 -7.8524728 -101.09675
-29.538584 -9.8462105 -100.35748
-29.821327 -11.92854 -98.082138
-31.165564 -14.543953 -87.264549
-41.239086 -21.994186 -6.1991
-42.722546 -25.633543 5.7388601
-29.022402 68.409943 -87.828926
-28.865189 65.977562 -89.184479
-28.728388 63.612846 -90.363976
-28.595924 61.276978 -91.506096
-28.465719 58.964684 -92.628777
-28.3423 56.684578 -93.692909
-28.219946 54.42416 -94.747856
-28.098555 52.183018 -95.794533
-27.978201 49.96106 -96.83223
-27.858875 47.758053 -97.861092
-27.738321 45.570087 -98.90052
-27.618542 43.400551 -99.933273
-27.501116 41.251663 -100.94577
-27.387474 39.124947 -101.92561
-27.278061 37.020206 -102.869
-27.165049 34.926476 -103.8434
-27.050755 32.847328 -104.82886
-26.931591 30.778948 -105.85632
-26.81682 28.732296 -106.84589
-26.710081 26.710068 -107.7662
-26.597849 24.697983 -108.73391
-26.483366 22.700005 -109.72099
-26.378046 20.725599 -110.62908
-26.273882 18.76704 -111.5272
-26.170298 16.823744 -112.42033
-26.068714 14.896392 -113.2962
-25.974983 12.987473 -114.10437
-25.913078 11.105592 -114.63812
-26.31711 9.3989515 -111.15448
-26.936911 7.6962471 -105.81043
-27.619074 5.9183531 -99.92868
-28.745693 4.1065192 -90.214767
-28.202343 2.0144463 -94.899651
-27.924719 -1.143849e-05 -97.293373
-27.757326 -1.982677 -98.736671
-27.692358 -3.9560645 -99.296837
-27.675138 -5.9304042 -99.445312
-27.709242 -7.9169383 -99.151268
-27.820707 -9.9359798 -98.190178
-28.444508 -12.190514 -92.811638
-37.665504 -18.832767 -13.306477
-38.269627 -21.868366 -8.0975904
-39.594807 -25.453819 3.3283699
-35.766228 -25.547323 -29.682379
-35.642895 -28.005148 -30.745752
-26.784937 67.992516 -89.355812
-26.645437 65.588753 -90.651123
-26.519547 63.238907 -91.820068
-26.398159 60.918819 -92.947205
-26.279697 58.62392 -94.047188
-26.166498 56.358589 -95.098282
-26.052738 54.109512 -96.154594
-25.941904 51.883793 -97.183731
-25.833347 49.679497 -98.191727
-25.723785 47.490051 -99.209045
-25.61293 45.315174 -100.2384
-25.503189 43.159225 -101.25739
-25.395515 41.023521 -102.25718
-25.289471 38.906868 -103.24186
-25.190908 36.817474 -104.15706
-25.086088 34.734573 -105.13036
-24.98057 32.666885 -106.11014
-24.874697 30.614994 -107.09322
-24.768869 28.579449 -108.07586
-24.670652 26.568386 -108.98785
-24.563677 24.563669 -109.98119
-24.464001 22.582144 -110.90671
-24.366768 20.618017 -111.80957
-24.26927 18.668659 -112.71487
-24.171745 16.734276 -113.62045
-24.077106 14.816661 -114.49919
-23.994751 12.920234 -115.2639
-23.936783 11.047738 -115.80215
-24.32567 9.3560133 -112.19116
-24.904133 7.662797 -106.8199
-25.515999 5.8882947 -101.13844
-26.520603 4.0800796 -91.810257
-26.176802 2.0135877 -95.002586
-25.980944 -1.419123e-05 -96.821243
-25.904831 -1.9926871 -97.527969
-25.879194 -3.9814279 -97.766006
-25.910637 -5.9793935 -97.474052
-26.053078 -8.0163517 -96.151436
-26.281775 -10.108392 -94.027893
-27.332352 -12.614951 -84.27282
-34.416565 -18.532 -18.4928
-33.234882 -20.452244 -29.465223
-33.117588 -22.927582 -30.554359
-33.038712 -25.41441 -31.286785
-33.014778 -27.935595 -31.509016
-33.155033 -30.604656 -30.206676
-24.575346 67.582176 -90.85675
-24.453482 65.209274 -92.082603
-24.337406 62.87162 -93.250237
-24.226173 60.565418 -94.369164
-24.118954 58.28746 -95.447708
-24.014246 56.033234 -96.500984
-23.90889 53.794991 -97.560783
-23.808535 51.585148 -98.570267
-23.710089 49.396004 -99.56057
-23.612452 47.224888 -100.54273
-23.511786 45.064243 -101.55534
-23.411901 42.921803 -102.56011
-23.314116 40.799683 -103.54375
-23.218679 38.697781 -104.50375
-23.124605 36.613941 -105.45007
-23.029488 34.54422 -106.40687
-22.930508 32.484879 -107.40255
-22.8396 30.45278 -108.31702
-22.742802 28.428486 -109.29071
-22.652189 26.427542 -110.20223
-22.554621 24.434162 -111.18368
-22.462208 22.462196 -112.11329
-22.372858 20.508444 -113.01207
-22.283072 18.569208 -113.91525
-22.192999 16.644735 -114.82132
-22.109625 14.739732 -115.65999
-22.034193 12.853267 -116.41877
-21.983534 10.991753 -116.92838
-22.342579 9.309391 -113.31667
-22.883753 7.6279106 -107.87286
-23.44418 5.8610339 -102.2354
-24.411888 4.0686345 -92.501007
-24.189083 2.0157361 -94.742264
-24.0881 -1.4996825e-05 -95.75808
-24.054337 -2.0045478 -96.097679
-24.066132 -4.0110302 -95.97905
-24.108372 -6.0271153 -95.554153
-24.315865 -8.1053057 -93.466934
-24.853842 -10.355776 -88.055313
-30.696007 -15.348015 -29.287663
-30.576555 -17.836338 -30.489218
-30.511299 -20.340874 -31.14567
-30.486031 -22.864542 -31.399843
-30.459923 -25.383274 -31.66247
-30.49626 -27.954916 -31.296955
-30.662256 -30.662264 -29.627153
-22.395014 67.185028 -92.309525
-22.286304 64.83287 -93.50248
-22.181852 62.512478 -94.648689
-22.079746 60.217476 -95.769173
-21.981583 57.951439 -96.846382
-21.88656 55.711227 -97.88913
-21.792355 53.490311 -98.922913
-21.703075 51.298164 -99.902649
-21.614246 49.123276 -100.87743
-21.524357 46.962215 -101.86385
-21.434191 44.816933 -102.8533
-21.344101 42.688194 -103.84193
-21.256975 40.581486 -104.798
-21.170361 38.49155 -105.74851
-21.081417 36.413342 -106.72455
-20.995176 34.355732 -107.67091
-20.907501 32.311573 -108.63303
-20.825119 30.291063 -109.53709
-20.737007 28.277719 -110.50398
-20.654062 26.286966 -111.4142
-20.568266 24.307938 -112.35568
-20.482685 22.344728 -113.29483
-20.399723 20.399714 -114.20524
-20.318533 18.471375 -115.09621
-20.238712 16.558935 -115.97211
-20.161505 14.662904 -116.81937
-20.092299 12.786001 -117.57882
-20.053255 10.938126 -118.00727
-20.3874 9.2669821 -114.34048
-20.879107 7.5923877 -108.94463
-21.398512 5.8359418 -103.24484
-22.377119 4.068552 -92.505905
-22.243996 2.0221734 -93.966759
-22.202723 -2.1275422e-05 -94.41967
-22.20097 -2.0182793 -94.438904
-22.240623 -4.0437646 -94.003754
-22.356956 -6.0973678 -92.72715
-22.652006 -8.237113 -89.489365
-28.043184 -12.746912 -30.328199
-27.968229 -15.255409 -31.150757
-27.905203 -17.757874 -31.842367
-27.912476 -20.299994 -31.762566
-27.919287 -22.843065 -31.687807
-27.951778 -25.410732 -31.331249
-28.025835 -28.025845 -30.51861
-28.18454 -30.746777 -28.777029
-28.620802 -33.824604 -23.989607
-20.362278 69.231735 -92.271194
-20.242496 66.800224 -93.717102
-20.143473 64.459099 -94.912415
-20.049997 62.154984 -96.040749
-19.960438 59.881298 -97.121826
-19.873415 57.632889 -98.17231
-19.786955 55.40345 -99.215973
-19.702444 53.196583 -100.2361
-19.62154 51.015984 -101.21271
-19.540302 48.850746 -102.19334
-19.459362 46.702454 -103.17036
-19.378418 44.570347 -104.14745
-19.297356 42.454166 -105.12597
-19.218594 40.359024 -106.07671
-19.140411 38.280804 -107.02045
-19.062094 36.217964 -107.96583
-18.983883 34.170979 -108.90988
-18.906839 32.141609 -109.8399
-18.830301 30.128466 -110.76379
-18.752031 28.128035 -111.7086
-18.676796 26.147503 -112.61678
-18.59889 24.178549 -113.55716
-18.52046 22.224539 -114.50392
-18.446791 20.291452 -115.39319
-18.375465 18.375452 -116.25416
-18.304581 16.474108 -117.10979
-18.233482 14.586778 -117.96803
-18.170628 12.719427 -118.72677
-18.139038 10.883411 -119.10807
-18.459055 9.2295141 -115.24513
-18.885132 7.5540366 -110.10194
-19.364044 5.8092022 -104.32095
-20.381083 4.0762005 -92.044205
-20.330566 2.0330427 -92.653984
-20.317709 -1.915077e-05 -92.809219
-20.333195 -2.0333331 -92.622269
-20.388601 -4.0777335 -91.953445
-20.59536 -6.1786261 -89.457664
-21.099937 -8.4399967 -83.366852
-25.408394 -12.704218 -31.359194
-25.382221 -15.229344 -31.675138
-25.357357 -17.750168 -31.975248
-25.38558 -20.308472 -31.634586
-25.407658 -22.866909 -31.368086
-25.470627 -25.470633 -30.607983
-25.549646 -28.104622 -29.654118
-25.694309 -30.833178 -27.907909
-25.993668 -33.791786 -24.294317
-18.207434 68.78363 -93.862129
-18.111464 66.408691 -95.149292
-18.024559 64.087303 -96.314888
-17.94408 61.807373 -97.394302
-17.866629 59.55542 -98.433113
-17.78904 57.320229 -99.473755
-17.711439 55.102249 -100.51454
-17.634459 52.903362 -101.54704
-17.561884 50.734325 -102.52042
-17.489683 48.582443 -103.48878
-17.41758 46.446873 -104.45587
-17.344652 44.325214 -105.434
-17.271954 42.220318 -106.40905
-17.201469 40.136757 -107.3544
-17.134377 38.07637 -108.25428
-17.064375 36.024776 -109.19316
-16.994787 33.989567 -110.12649
-16.925142 31.969698 -111.06059
-16.857508 29.968884 -111.96775
-16.787397 27.978981 -112.90808
-16.719589 26.00824 -113.81753
-16.650019 24.050005 -114.75063
-16.580725 22.107613 -115.68002
-16.516253 20.18652 -116.54474
-16.451645 18.279585 -117.41131
-16.385981 16.385962 -118.29198
-16.324314 14.510489 -119.11908
-16.269148 12.653771 -119.85899
-16.244261 10.829484 -120.19277
-16.537819 9.1876621 -116.25549
-16.928204 7.5236278 -111.01953
-17.340622 5.7801933 -105.48806
-18.445301 4.098937 -90.671776
-18.421364 2.0468082 -90.992828
-18.431818 -1.8099943e-05 -90.852638
-18.507061 -2.0563498 -89.843445
-18.670633 -4.149044 -87.649551
-19.060738 -6.3535867 -82.417343
-22.842392 -10.152189 -31.696682
-22.850426 -12.694704 -31.588915
-22.842863 -15.228587 -31.690351
-22.855722 -17.776688 -31.517897
-22.880062 -20.33786 -31.191442
-22.927942 -22.927959 -30.549242
-22.991905 -25.546585 -29.691359
-23.071737 -28.198803 -28.620644
-23.221249 -30.961674 -26.615343
-23.474758 -33.907997 -23.215191
-16.087103 68.370171 -95.330017
-16.005529 66.022804 -96.560852
-15.931809 63.727234 -97.673187
-15.862406 61.466812 -98.720421
-15.793857 59.226959 -99.754745
-15.725041 57.003262 -100.79308
-15.655525 54.794323 -101.842
-15.588106 52.60984 -102.85928
-15.524359 50.454144 -103.82117
-15.461712 48.317833 -104.76641
-15.398508 46.195507 -105.72009
-15.334765 44.087437 -106.68189
-15.271833 41.997524 -107.63148
-15.208565 39.922474 -108.58611
-15.147783 37.86945 -109.50323
-15.088507 35.835186 -110.39766
-15.026701 33.810066 -111.33025
-14.964486 31.799519 -112.26897
-14.905862 29.811714 -113.15354
-14.844687 27.83378 -114.0766
-14.786419 25.876219 -114.95582
-14.722464 23.92399 -115.92081
-14.662738 21.994099 -116.82201
-14.605624 20.082716 -117.68379
-14.549084 18.186338 -118.53693
-14.490925 16.302279 -119.41448
-14.436667 14.43665 -120.23315
-14.389771 12.591039 -120.94073
-14.370099 10.777554 -121.2376
-14.63729 9.1482973 -117.206
-14.983032 7.4914999 -111.98914
-15.341187 5.7529306 -106.58499
-16.499994 4.1249766 -89.099976
-16.503265 2.0628948 -89.050583
-16.54443 -9.6580416e-06 -88.429466
-16.656607 -2.0820827 -86.73687
-16.925936 -4.2315059 -82.672997
-20.286976 -7.6076288 -31.958797
-20.29377 -10.146894 -31.856293
-20.318048 -12.698794 -31.489958
-20.334042 -15.250551 -31.248653
-20.362806 -17.817467 -30.81461
-20.383526 -20.38353 -30.502005
-20.444569 -23.000153 -29.580896
-20.510695 -25.638382 -28.583164
-20.594172 -28.316998 -27.323597
-20.753258 -31.1299 -24.923174
-20.943289 -34.032856 -22.055826
-21.306667 -37.286671 -16.572863
-13.996304 67.982033 -96.708031
-13.927676 65.659035 -97.891464
-13.863834 63.377514 -98.992393
-13.803369 61.129196 -100.03506
-13.743297 58.899834 -101.07098
-13.68331 56.687984 -102.10542
-13.6238 54.495182 -103.13161
-13.566607 52.328327 -104.11789
-13.511803 50.186684 -105.06293
-13.45685 48.060165 -106.01055
-13.401967 45.949593 -106.95699
-13.347363 43.85561 -107.89861
-13.292832 41.777462 -108.83896
-13.23695 39.710831 -109.80263
-13.183801 37.667976 -110.71914
-13.132241 35.644642 -111.60825
-13.078256 33.629787 -112.5392
-13.024831 31.631718 -113.46048
-12.975132 29.657431 -114.3175
-12.922039 27.690071 -115.23307
-12.871191 25.742369 -116.1099
-12.815806 23.800764 -117.06496
-12.765676 21.884007 -117.92943
-12.716162 19.982523 -118.78328
-12.666695 18.095263 -119.63632
-12.615868 16.220388 -120.51278
-12.569604 14.365245 -121.31059
-12.528938 12.528925 -122.01182
-12.513425 10.725773 -122.27937
-12.75241 9.1088419 -118.15821
-13.04679 7.4552917 -113.08179
-13.367179 5.7287798 -107.55689
-14.540041 4.154283 -87.331619
-14.595382 2.0850422 -86.377289
-14.690487 -2.2055674e-05 -84.737267
-14.855787 -2.122272 -81.886765
-15.247713 -4.3564978 -75.12825
-17.753819 -7.6088037 -31.911982
-17.768658 -10.153529 -31.656124
-17.800398 -12.714581 -31.108776
-17.831511 -15.284169 -30.572241
-17.860357 -17.860367 -30.074806
-17.901823 -20.459236 -29.359739
-17.962996 -23.095293 -28.304863
-18.027765 -25.753969 -27.187939
-18.113226 -28.463646 -25.714256
-18.266766 -31.314465 -23.066557
-18.40785 -34.186024 -20.633657
-18.673731 -37.347477 -16.048674
-12.065682 70.383133 -95.322853
-11.92942 67.600037 -98.064255
-11.871023 65.290619 -99.23909
-11.817026 63.024132 -100.32542
-11.76491 60.785347 -101.37394
-11.7134 58.566975 -102.41024
-11.663779 56.374924 -103.40852
-11.614578 54.201359 -104.39838
-11.566408 52.048824 -105.36749
-11.519032 49.915798 -106.32062
-11.472078 47.800316 -107.26525
-11.42508 45.700306 -108.21077
-11.378044 43.615818 -109.15708
-11.332161 41.551243 -110.08018
-11.287753 39.507118 -110.97359
-11.240431 37.46809 -111.92564
-11.196057 35.454163 -112.81836
-11.150986 33.452942 -113.72514
-11.105371 31.465195 -114.64285
-11.063551 29.502787 -115.4842
-11.01858 27.546438 -116.38893
-10.97476 25.607761 -117.27053
-10.929565 23.680714 -118.17976
-10.887447 21.774876 -119.02711
-10.844852 19.882215 -119.88406
-10.80164 18.002718 -120.75343
-10.761758 16.142616 -121.5558
-10.722013 14.295998 -122.35541
-10.686467 12.467524 -123.07053
-10.677726 10.677708 -123.24638
-10.890829 9.075675 -118.95908
-11.137019 7.4246683 -114.00613
-11.403704 5.701838 -108.64085
-12.56074 4.1868978 -85.363068
-12.617526 2.1029017 -84.220634
-12.744376 -1.698879e-05 -81.668602
-12.969139 -2.1615376 -77.146713
-15.236581 -5.0788693 -31.529318
-15.242448 -7.6212502 -31.411263
-15.270394 -10.180276 -30.849022
-15.292534 -12.743784 -30.403625
-15.328193 -15.328215 -29.686222
-15.36017 -17.920206 -29.042871
-15.414325 -20.55245 -27.953348
-15.471268 -23.206921 -26.807749
-15.53663 -25.894394 -25.492785
-15.628778 -28.652765 -23.638927
-15.760187 -31.520382 -20.995146
-15.874842 -34.395504 -18.68848
-16.087124 -37.536636 -14.417693
-16.429596 -41.074013 -7.5276699
-10.004108 70.028748 -96.545105
-9.8836594 67.20887 -99.452995
-9.8364706 64.920692 -100.59223
-9.7918549 62.667862 -101.66934
-9.7485723 60.441139 -102.71427
-9.7064695 58.238808 -103.73076
-9.6656713 56.060883 -104.71569
-9.6258802 53.904919 -105.67635
-9.5862942 51.765976 -106.63202
-9.5470037 49.644409 -107.58057
-9.5080051 47.540009 -108.52209
-9.4690895 45.451618 -109.46161
-9.4304333 43.379974 -110.39487
-9.3930969 41.329609 -111.29622
-9.35637 39.296745 -112.18289
-9.3185415 37.274151 -113.09615
-9.2797823 35.263161 -114.03188
-9.2444916 33.280151 -114.88387
-9.2065926 31.302397 -115.79881
-9.1708136 29.346594 -116.66261
-9.1331892 27.399553 -117.57095
-9.0967903 25.470991 -118.4497
-9.0621786 23.561651 -119.2853
-9.026926 21.664604 -120.13637
-8.9907351 19.7796 -121.0101
-8.9566889 17.913363 -121.83205
-8.9220171 16.059612 -122.66908
-8.8900862 14.224123 -123.43998
-8.8616829 12.406339 -124.12569
-8.8602495 10.632285 -124.16031
-9.0444374 9.044425 -119.71358
-9.2459679 7.3967538 -114.84823
-9.4636269 5.6781621 -109.59349
-10.574407 4.229753 -82.776878
-10.653543 2.1306961 -80.866325
-10.827413 -1.0052087e-05 -76.668777
-12.719367 -2.5438914 -30.992962
-12.732829 -5.0931416 -30.667952
-12.748491 -7.6491055 -30.289841
-12.762122 -10.209708 -29.960775
-12.785419 -12.785437 -29.39834
-12.817577 -15.381105 -28.621939
-12.857277 -18.000208 -27.663513
-12.905958 -20.649553 -26.488239
-12.967825 -23.342096 -24.994658
-13.028683 -26.057375 -23.525427
-13.108572 -28.838886 -21.596697
-13.215927 -31.718248 -19.00493
-13.318575 -34.628315 -16.526791
-13.444242 -37.64389 -13.492917
-13.66109 -40.983288 -8.2577448
-14.537583 -46.520279 12.902679
-14.462537 -49.172634 11.090873
-7.9083285 69.197861 -99.410713
-7.8625207 66.831421 -100.79308
-7.8248672 64.555145 -101.92937
-7.7896247 62.316986 -102.99291
-7.7551394 60.10231 -104.03362
-7.7222209 57.916637 -105.02701
-7.690352 55.755035 -105.98875
-7.6587691 53.611362 -106.94185
-7.6273251 51.484428 -107.89075
-7.5964451 49.376877 -108.82264
-7.5661397 47.288361 -109.73718
-7.5351267 45.210751 -110.67307
-7.5043678 43.150097 -111.60132
-7.474791 41.111336 -112.49387
-7.4459443 39.091194 -113.3644
-7.4165125 37.082539 -114.25259
-7.3858004 35.082531 -115.17941
-7.3575244 33.108841 -116.03271
-7.3290477 31.148438 -116.89205
-7.2980347 29.192123 -117.82797
-7.269155 27.259317 -118.69948
-7.2407808 25.342722 -119.55575
-7.2130723 23.442476 -120.39193
-7.1845651 21.553682 -121.2522
-7.1572433 19.682407 -122.07673
-7.1298175 17.824524 -122.90438
-7.1031351 15.982041 -123.70958
-7.0787334 14.157451 -124.44596
-7.0662189 12.365871 -124.82362
-7.0959873 10.643972 -123.92527
-7.2123303 9.0153942 -120.41432
-7.3708043 7.3707957 -115.63194
-7.5399427 5.6549411 -110.52776
-8.5423851 4.2711768 -80.276367
-8.6520662 2.1629975 -76.966431
-10.231234 -1.3727106e-05 -29.310829
-10.224031 -2.5560267 -29.528202
-10.224415 -5.1122203 -29.516642
-10.234605 -7.6759753 -29.209103
-10.249522 -10.249531 -28.758936
-10.268133 -12.83518 -28.197285
-10.300024 -15.450054 -27.234915
-10.338076 -18.09164 -26.086611
-10.386861 -20.773729 -24.614376
-10.445749 -23.502956 -22.837278
-10.500903 -26.252268 -21.172873
-10.563868 -29.050644 -19.272753
-10.639294 -31.917892 -16.996546
-10.724467 -34.854527 -14.426194
-10.825514 -37.889313 -11.37685
-10.974272 -41.15353 -6.88767
-11.56011 -46.240459 10.791543
-11.534845 -49.023098 10.029094
-11.564414 -52.039875 10.921422
-5.8937187 68.760033 -100.92072
-5.8636031 66.454147 -102.13248
-5.8352547 64.18779 -103.27312
-5.8092318 61.965134 -104.32021
-5.7849488 59.77779 -105.29728
-5.7607598 57.607578 -106.27057
-5.7366648 55.454418 -107.24007
-5.7127528 53.319012 -108.20221
-5.6896019 51.206409 -109.13374
-5.6666207 49.110706 -110.05842
-5.6437206 47.030991 -110.97985
-5.6205416 44.964314 -111.91251
-5.598063 42.918468 -112.81699
-5.5768781 40.897087 -113.6694
-5.5557351 38.890137 -114.52011
-5.5331888 36.887913 -115.42732
-5.5109563 34.902706 -116.32188
-5.4889998 32.933975 -117.20535
-5.4666657 30.977753 -118.104
-5.4468651 29.049925 -118.90073
-5.4255753 27.127863 -119.75736
-5.4044509 25.220753 -120.60732
-5.3837433 23.329542 -121.44054
-5.3650689 21.460264 -122.19194
-5.3614278 19.658552 -122.33844
-5.3593044 17.86433 -122.42387
-5.3602257 16.080664 -122.38682
-5.3617711 14.298045 -122.32462
-5.3636308 12.515126 -122.24982
-5.368402 10.736783 -122.05783
-5.4072771 9.0121183 -120.4936
-5.5099993 7.3466492 -116.3604
-5.6320992 5.6320839 -111.44749
-6.5368228 4.3578682 -75.044197
-7.9031014 2.634352 -20.069378
-7.7626143 -1.1880817e-05 -25.722168
-7.7239804 -2.5746815 -27.276655
-7.7252121 -5.1501575 -27.227089
-7.7213559 -7.7213736 -27.382254
-7.7251153 -10.300171 -27.230997
-7.7402215 -12.900381 -26.623192
-7.766643 -15.533308 -25.560041
-7.8058381 -18.21364 -23.982946
-7.842289 -20.912783 -22.5163
-7.8916821 -23.67506 -20.528852
-7.938859 -26.462883 -18.630623
-7.9870529 -29.285883 -16.691437
-8.0427885 -32.171181 -14.448809
-8.1083698 -35.136276 -11.81003
-8.1981878 -38.258228 -8.1960573
-8.6642056 -43.321041 10.555069
-8.644186 -46.102341 9.7495594
-8.6370478 -48.943283 9.4623041
-8.6585808 -51.9515 10.328774
-3.9594467 71.270027 -99.091896
-3.9066792 68.366875 -102.2767
-3.8866336 66.072754 -103.48656
-3.8681822 63.824993 -104.6002
-3.8519716 61.631535 -105.57859
-3.8358843 59.456192 -106.54954
-3.8196692 57.295025 -107.52821
-3.803803 55.155128 -108.48581
-3.788197 53.034744 -109.42773
-3.7726834 50.931213 -110.36405
-3.757354 48.845585 -111.28928
-3.7425251 46.781548 -112.18427
-3.7278469 44.734154 -113.07018
-3.7133055 42.702999 -113.94781
-3.6985543 40.684078 -114.83814
-3.6840968 38.683002 -115.71074
-3.6701028 36.701012 -116.55534
-3.6555722 34.727928 -117.43234
-3.6418154 32.776329 -118.26263
-3.6288488 30.845198 -119.04527
-3.6230199 28.984148 -119.39705
-3.6215551 27.161646 -119.48547
-3.6213946 25.349745 -119.49515
-3.6220574 23.54336 -119.45514
-3.621726 21.730345 -119.47514
-3.6205828 19.913185 -119.54414
-3.621042 18.105206 -119.51643
-3.6207533 16.293381 -119.53384
-3.621897 14.487575 -119.46482
-3.6243148 12.685088 -119.3189
-3.6259639 10.877875 -119.21935
-3.6326084 9.0815134 -118.81833
-3.6651151 7.330214 -116.85638
-3.743233 5.6148329 -112.14156
-5.1601472 5.1601334 -26.623201
-5.28653 2.6432586 -18.995329
-5.2610092 -7.8143194e-06 -20.535667
-5.2078233 -2.6039171 -23.745687
-5.1876125 -5.1876259 -24.965519
-5.1911678 -7.7867594 -24.750956
-5.1922441 -10.3845 -24.685984
-5.1909699 -12.977435 -24.76289
-5.2102561 -15.630788 -23.598877
-5.2432723 -18.351467 -21.606165
-5.271337 -21.085371 -19.912287
-5.3002768 -23.851265 -18.165646
-5.3375106 -26.687559 -15.918405
-5.3785691 -29.582146 -13.440287
-5.4254413 -32.55265 -10.611312
-5.8043609 -37.728359 12.258545
-5.7706227 -40.394379 10.222267
-5.7584639 -43.188492 9.4883909
-5.7591395 -46.073135 9.5291901
-5.7588692 -48.950405 9.5128679
-5.785069 -52.065639 11.094178
-5.8673339 -55.739693 16.059298
-1.9676538 70.835526 -100.54882
-1.9421602 67.975594 -103.62616
-1.9325377 65.706261 -104.78772
-1.9238659 63.487556 -105.83447
-1.9156246 61.29998 -106.82928
-1.9074539 59.13105 -107.81561
-1.8996286 56.988846 -108.76019
-1.8918848 54.864647 -109.69495
-1.8841983 52.757534 -110.62279
-1.8767289 50.671669 -111.52443
-1.8694038 48.604488 -112.40863
-1.8621356 46.553383 -113.28597
-1.8548958 44.51749 -114.15989
-1.8476567 42.496086 -115.03375
-1.8405454 40.491985 -115.89217
-1.8378932 38.595741 -116.21229
-1.837486 36.749706 -116.26145
-1.8367269 34.897797 -116.35308
-1.836062 33.049099 -116.43337
-1.836848 31.226408 -116.33849
-1.8362541 29.380051 -116.41016
-1.836507 27.54759 -116.37964
-1.8358806 25.702314 -116.45525
-1.8361497 23.869932 -116.42276
-1.8365453 22.03853 -116.37498
-1.8362981 20.199263 -116.40485
-1.8360069 18.360052 -116.44001
-1.8362048 16.525826 -116.41611
-1.8365289 14.692215 -116.37698
-1.8370019 12.858999 -116.3199
-1.8374585 11.024742 -116.26478
-1.8387855 9.1939135 -116.10458
-1.8442687 7.3770633 -115.44271
-1.8667874 5.6003442 -112.72446
-2.5687101 5.1374021 -27.994909
-2.6314635 2.6314609 -20.419912
-2.6922464 -2.1272977e-05 -13.08273
-2.6386044 -2.6386211 -19.557905
-2.6245856 -5.2491808 -21.250134
-2.6170623 -7.8512011 -22.158268
-2.6214457 -10.485798 -21.629154
-2.6197443 -13.098728 -21.834534
-2.6271591 -15.762964 -20.939482
-2.6426959 -18.498875 -19.064039
-2.6576574 -21.261272 -17.258017
-2.6775832 -24.098265 -14.852746
-2.6982374 -26.982384 -12.35956
-2.737118 -30.108303 -7.666286
-2.8976026 -34.771244 11.705933
-2.8820314 -37.466431 9.8263559
-2.8759253 -40.262978 9.0892763
-2.8733797 -43.100708 8.7819872
-2.8783946 -46.054329 9.3873014
-2.8843348 -49.033707 10.104383
-2.9003696 -52.206657 12.03994
-2.9318585 -55.705326 15.841006
8.7209002e-23 70.845055 -100.51682
3.762325e-23 67.593025 -104.94559
4.6739832e-23 65.359985 -106.01711
5.9006972e-23 63.157227 -107.04279
5.5057973e-23 60.980682 -108.03373
-9.2285366e-25 58.823456 -109.01337
6.9554182e-23 56.694126 -109.94604
1.320278e-23 54.589092 -110.8419
2.3795958e-23 52.498768 -111.73836
5.9636218e-23 50.432549 -112.59344
8.6287423e-23 48.486141 -112.95802
7.5074125e-23 46.620728 -112.96077
4.3548063e-23 44.746922 -113.00591
5.6136958e-23 42.876869 -113.03531
5.9518848e-23 41.008667 -113.0572
4.6368461e-23 39.128826 -113.14807
2.6162553e-23 37.262386 -113.1672
1.089759e-23 35.393135 -113.20613
-6.5172533e-25 33.520569 -113.27165
3.4449228e-23 31.649862 -113.33167
1.4928606e-23 29.800489 -113.2382
6.8812715e-23 27.931765 -113.28802
1.1810497e-23 26.07535 -113.23888
7.4259857e-23 24.205982 -113.30235
5.0383259e-23 22.347172 -113.27028
2.9585755e-23 20.491127 -113.20203
3.1885253e-24 18.624002 -113.25391
6.8674621e-23 16.760532 -113.26823
7.8357629e-23 14.900735 -113.23069
3.2156861e-23 13.042184 -113.16106
2.5885682e-23 11.183455 -113.07155
7.5801165e-23 9.3259163 -112.91765
5.0446292e-23 7.4672947 -112.71968
-6.7871825e-24 5.6197567 -111.94359
8.9698496e-23 5.1148725 -29.354584
-3.0742509e-24 2.6196733 -21.842638
-8.7109681e-24 -9.051405e-06 -13.977251
1.8735801e-23 -2.6811242 -14.426194
1.3499737e-23 -5.3088431 -17.649414
3.8664689e-23 -7.9454846 -18.364502
4.6778111e-23 -10.58498 -18.636129
3.1033065e-23 -13.241102 -18.397615
-2.0099469e-23 -15.938077 -17.416363
1.4633152e-23 -18.681458 -15.915599
5.7634462e-23 -21.525522 -13.27087
4.0902438e-27 -24.495621 -9.5233021
6.2058084e-23 -29.374046 16.510284
2.6528039e-23 -31.900314 11.998569
2.9731738e-23 -34.554844 9.5291796
9.9416795e-24 -37.343632 8.6861629
-1.1502318e-23 -40.163189 8.2289534
-4.22861e-26 -43.105545 8.8209724
3.4083587e-24 -46.049133 9.3481998
2.0013654e-24 -49.160595 11.005302
5.1207057e-23 -52.359879 13.067422
-1.854689e-23 -55.838203 16.685207
5.3273828e-23 -60.263371 25.655878
1.9209688 67.233894 -106.18421
1.9118522 65.002968 -107.28467
1.903796 62.825253 -108.25713
1.8965693 60.690201 -109.12949
1.8943089 58.723568 -109.40232
1.8940284 56.820839 -109.4362
1.8933445 54.906979 -109.51875
1.8928012 52.998421 -109.58431
1.8922875 51.091755 -109.64633
1.8916575 49.183075 -109.72238
1.8909926 47.274803 -109.80263
1.8904684 45.371231 -109.86592
1.8902936 43.476738 -109.88701
1.8902879 41.586315 -109.88772
1.8898859 39.687592 -109.93622
1.8898103 37.796192 -109.94535
1.8898046 35.906269 -109.94605
1.8895952 34.012695 -109.97135
1.8895484 32.122307 -109.97696
1.8895019 30.232014 -109.98258
1.8892518 28.338758 -110.01278
1.8897521 26.456512 -109.95238
1.8898453 24.56798 -109.94114
1.8899209 22.679039 -109.93199
1.8895078 20.784565 -109.98188
1.8899618 18.899607 -109.92708
1.8906548 17.015884 -109.84341
1.8912784 15.130217 -109.76815
1.8916575 13.241583 -109.72239
1.8921767 11.353047 -109.65972
2.3725326 11.862651 -51.675617
2.4266579 9.7066221 -45.142117
2.4844267 7.4532666 -38.168797
2.5448968 5.0897818 -30.869415
2.6079628 2.6079547 -23.256689
2.6726613 -1.6741262e-05 -15.446886
2.7404189 -2.7404325 -7.2678385
2.6940196 -5.3880572 -12.868693
2.6823595 -8.0470915 -14.276217
2.6736743 -10.694715 -15.324569
2.6785302 -13.392661 -14.738443
2.6903577 -16.142155 -13.310742
2.7157705 -19.010406 -10.243163
2.74894 -21.991535 -6.2392492
2.9619496 -26.657566 19.473328
2.8995607 -28.995625 11.942323
2.8779624 -31.657591 9.3351479
2.8709059 -34.450893 8.4833717
2.869751 -37.306774 8.343956
2.8690534 -40.166756 8.2597237
2.8751707 -43.127571 8.9981718
2.8844161 -46.150673 10.11421
2.9001913 -49.303268 12.018429
2.9197898 -52.556217 14.384159
2.9543762 -56.133152 18.559126
3.0186825 -60.373669 26.321581
3.86043 67.55751 -105.06807
3.8515241 65.475899 -105.60559
3.8479612 63.491352 -105.82063
3.8458025 61.532833 -105.95092
3.8450675 59.59853 -105.9953
3.8443327 57.664982 -106.03964
3.8423705 55.714367 -106.15807
3.8403141 53.764385 -106.28218
3.8382602 51.816502 -106.40615
3.8388364 49.904865 -106.37137
3.839329 47.991592 -106.34164
3.8386683 46.064003 -106.38152
3.836688 44.121902 -106.50104
3.8378518 42.216354 -106.43079
3.8368437 40.286846 -106.49162
3.8369639 38.369625 -106.48439
3.8370719 36.45216 -106.47787
3.8352489 34.517227 -106.58788
3.835537 32.602051 -106.57052
3.8373358 30.698673 -106.46194
3.836736 28.775515 -106.49815
3.8365798 26.85605 -106.50755
3.8379238 24.946495 -106.42644
3.8379481 23.027672 -106.425
3.8402541 21.121384 -106.2858
3.8459713 19.229849 -105.94074
4.3557935 19.601061 -75.170242
4.4386539 17.754595 -70.169182
4.5273991 15.845883 -64.812958
4.6229672 13.868889 -59.044872
4.7253857 11.813458 -52.8634
4.8324637 9.6649075 -46.400658
4.945065 7.4175873 -39.604584
5.064857 5.0648508 -32.374496
5.1905751 2.5952711 -24.786741
5.3210077 -1.4235125e-05 -16.914412
5.4554715 -2.7277489 -8.7988224
5.4840956 -5.4841189 -7.0711946
5.4322863 -8.1484356 -10.198165
5.4257765 -10.851573 -10.591031
5.4413919 -13.603494 -9.6485929
5.9534163 -17.860266 21.254827
5.9458294 -20.810417 20.796925
5.9690256 -23.876112 22.196911
5.7908297 -26.058744 11.441848
5.7498293 -28.749161 8.9672623
5.7378116 -31.557974 8.2419024
5.7361484 -34.416904 8.1415548
5.7372212 -37.29195 8.2062864
5.7500453 -40.250324 8.9802694
5.758626 -43.189709 9.498188
5.7891083 -46.312885 11.337965
5.8212681 -49.480789 13.278963
5.864922 -52.784325 15.913741
5.934844 -56.381035 20.133898
6.0497174 -60.497192 27.067112
6.2662826 -65.795975 40.137959
5.9611554 67.559753 -98.207268
5.8642383 64.506607 -102.10693
5.8574452 62.479401 -102.38025
5.8549485 60.501114 -102.4807
5.8519702 58.51968 -102.60054
5.8494039 56.544216 -102.70381
5.8492551 54.593037 -102.70979
5.8487902 52.639103 -102.72849
5.8462267 50.667282 -102.83165
5.8461895 48.718227 -102.83314
5.845243 46.761932 -102.87123
5.8453727 44.81451 -102.866
5.8454843 42.866871 -102.86152
5.8457069 40.919937 -102.85255
5.8459296 38.972855 -102.8436
5.8449454 37.017971 -102.88318
5.8456883 35.074112 -102.85331
5.846468 33.129971 -102.82193
5.8491063 31.195223 -102.71577
5.9829345 29.914658 -97.330948
6.0401864 28.187523 -95.027328
6.1075892 26.466209 -92.315224
6.1925559 24.770212 -88.896423
6.2887812 23.058851 -85.024612
6.3993936 21.331301 -80.573929
6.5153961 19.546173 -75.906334
6.637692 17.700495 -70.985527
6.7701907 15.797094 -65.65419
6.9093313 13.818652 -60.055603
7.0591002 11.765159 -54.029381
7.2183633 9.6244593 -47.621109
7.3850389 7.3850179 -40.914635
7.5604625 5.0403004 -33.856144
7.7469645 2.5823102 -26.351854
7.943141 -1.3470456e-05 -18.458307
8.1455088 -2.7151811 -10.315681
8.3564072 -5.5709558 -1.8297646
8.2770061 -8.2770252 -5.0246058
8.8139391 -11.751928 16.579884
9.0556908 -15.092832 26.30724
9.1779699 -18.355957 31.227345
9.0791864 -21.184778 27.252617
8.6389523 -23.037214 9.53897
8.6078033 -25.823418 8.2856398
8.5942993 -28.647671 7.7422624
8.5924139 -31.505537 7.6663899
8.6039009 -34.415615 8.1285849
8.6159029 -37.335587 8.611517
8.6377764 -40.309643 9.4916763
8.667388 -43.336956 10.683122
8.7111149 -46.459297 12.442565
8.7679644 -49.685154 14.730019
8.8442202 -53.065323 17.798292
8.9723492 -56.824898 22.953829
9.1285372 -60.856934 29.238352
9.3943863 -65.760719 39.935272
8.0610676 66.503792 -94.801407
7.9371281 63.497013 -98.541611
7.9296908 61.455093 -98.766052
7.9249535 59.43713 -98.909004
7.9231114 57.442543 -98.964592
7.9200683 55.440468 -99.056412
7.9171052 53.440445 -99.145866
7.9162111 51.455357 -99.172836
7.9152155 49.470081 -99.202873
7.9162621 47.497559 -99.171295
7.9175138 45.525692 -99.133522
7.9195833 43.55769 -99.071075
7.9200172 41.580082 -99.057968
7.9064431 39.532207 -99.467606
7.8888817 37.472176 -99.997574
7.8791056 35.455963 -100.29261
7.8919258 33.540676 -99.905716
7.9267459 31.706968 -98.854935
7.9770904 29.914072 -97.335632
8.0535021 28.187237 -95.029716
8.1433983 26.466034 -92.316872
8.2445641 24.733683 -89.263901
8.3709698 23.020153 -85.449265
8.5118389 21.279583 -81.198174
8.6644678 19.495035 -76.592178
8.8253994 17.650785 -71.735634
8.9992161 15.748617 -66.49028
9.1819048 13.772853 -60.977169
9.3767118 11.72088 -55.098324
9.5844173 9.5844135 -48.830273
9.8047428 7.353538 -42.181324
10.035397 5.0176854 -35.22076
10.2788 2.5696938 -27.875431
10.537197 -8.5446136e-06 -20.077579
10.809207 -2.7023199 -11.868949
11.089467 -5.5447507 -3.4113779
11.384645 -8.538496 5.4964447
11.695856 -11.69588 14.888072
12.01673 -15.020929 24.571283
12.360933 -18.541418 34.958542
11.499874 -20.124792 8.9737663
11.455803 -22.911623 7.6438031
11.438504 -25.736639 7.1217289
11.440689 -28.601744 7.1877193
11.450779 -31.489649 7.4921689
11.472833 -34.418514 8.1577244
11.509151 -37.404755 9.2537088
11.545589 -40.409576 10.353362
11.595942 -43.484795 11.872857
11.663672 -46.654705 13.916822
11.755128 -49.959301 16.67671
11.871469 -53.421623 20.18762
12.057171 -57.271568 25.791672
12.288764 -61.443836 32.780643
12.532436 -65.795311 40.134102
10.099655 62.617851 -94.23838
10.07544 60.452637 -94.822983
10.068463 58.397076 -94.99144
10.067242 56.376534 -95.020943
10.065127 54.351673 -95.071991
10.061133 52.317875 -95.168404
10.024705 50.123505 -96.047874
9.9974251 47.987633 -96.706451
9.9834681 45.923935 -97.043419
9.9783688 43.904808 -97.166504
9.9746056 41.893326 -97.257362
9.9771032 39.908398 -97.197052
9.9810963 37.928158 -97.100662
9.9870749 35.953453 -96.956322
9.995471 33.984585 -96.753647
10.010082 32.032249 -96.400871
10.04088 30.122629 -95.657341
10.091882 28.257256 -94.426079
10.188342 26.489676 -92.097298
10.309341 24.742401 -89.176117
10.449064 22.98793 -85.80291
10.621894 21.243774 -81.630424
10.803201 19.445745 -77.253304
11.003103 17.604952 -72.427231
11.216568 15.703182 -67.273727
11.441551 13.729855 -61.842159
11.67948 11.679458 -56.098064
11.933637 9.5468979 -49.962158
12.203955 7.3223639 -43.436104
12.490108 4.9960294 -36.527748
12.788403 2.5576642 -29.326265
13.106109 -2.1066257e-05 -21.656185
13.442416 -2.6885009 -13.536999
13.796686 -5.518692 -4.9841733
14.162416 -8.4974585 3.8453104
14.547786 -11.63824 13.148993
14.951437 -14.951445 22.893991
14.365352 -17.238432 8.7446384
14.302595 -20.023649 7.2295604
14.276771 -22.842852 6.6060691
14.265351 -25.677641 6.3303833
14.284946 -28.569895 6.8034725
14.315543 -31.494204 7.5421519
14.354328 -34.450405 8.4785061
14.41632 -37.482449 9.9751348
14.477279 -40.536385 11.446785
14.545924 -43.637787 13.10404
14.652781 -46.888916 15.683801
14.787048 -50.27597 18.925266
14.95479 -53.837246 22.974932
15.194409 -57.73877 28.759874
15.473535 -61.894154 35.498543
15.805419 -66.382774 43.510941
12.387528 61.937634 -88.847809
12.268058 59.295605 -91.251373
12.234015 57.09206 -91.936279
12.205741 54.925823 -92.505081
12.193935 52.840378 -92.742599
12.185016 50.770889 -92.92205
12.174861 48.699432 -93.126366
12.170795 46.654701 -93.208153
12.167818 44.615314 -93.268051
12.163757 42.573143 -93.349739
12.160462 40.534855 -93.416023
12.158133 38.500744 -93.462883
12.160542 36.481617 -93.414406
12.167376 34.474216 -93.276947
12.180742 32.481968 -93.008034
12.196562 30.491392 -92.689766
12.228488 28.533117 -92.04747
12.282302 26.611645 -90.964813
12.386112 24.772209 -88.876312
12.548023 23.004702 -85.618896
12.72684 21.211384 -82.021385
12.939918 19.409863 -77.734612
13.169477 17.55929 -73.116196
13.424345 15.66172 -67.988686
13.689272 13.689252 -62.658756
13.968999 11.640809 -57.031078
14.268853 9.5125551 -50.998478
14.585215 7.2925878 -44.633785
14.923359 4.974432 -37.830826
15.279964 2.5466428 -30.656467
15.650703 -1.3640642e-05 -23.19779
16.04911 -2.6748641 -15.182458
16.469877 -5.4899688 -6.7172771
16.912682 -8.456356 2.191246
17.371176 -11.580791 11.415454
17.228016 -14.356689 8.5352669
17.152239 -17.152256 7.0107603
17.11643 -19.969181 6.2903461
17.117863 -22.823835 6.31918
17.126783 -25.690191 6.4986262
17.142735 -28.571238 6.8195314
17.204264 -31.541159 8.0573978
17.265589 -34.531185 9.2911577
17.338369 -37.566486 10.755399
17.433781 -40.678829 12.674962
17.541361 -43.853413 14.839296
17.688694 -47.169868 17.803423
17.881851 -50.665253 21.689419
18.100519 -54.301563 26.088657
18.392349 -58.242443 31.959827
18.754505 -62.515034 39.245853
14.546786 58.187141 -87.215286
14.50488 55.947384 -87.937943
14.473206 53.75761 -88.484146
14.456884 51.631714 -88.765587
14.447985 49.535934 -88.919067
14.438221 47.439869 -89.087425
14.431962 45.357586 -89.195358
14.426534 43.279594 -89.288979
14.424742 41.213524 -89.319893
14.420043 39.140099 -89.400909
14.416654 37.071388 -89.459328
14.416267 35.010925 -89.466011
14.427017 32.976025 -89.280624
14.440212 30.943304 -89.053101
14.451923 28.903828 -88.851158
14.489465 26.909 -88.203758
14.54935 24.941727 -87.171089
14.670265 23.053265 -85.085991
14.855993 21.222836 -81.883217
15.073945 19.380768 -78.124771
15.334438 17.525057 -73.632729
15.621233 15.621225 -68.687111
15.927876 13.652443 -63.399258
16.247658 11.605457 -57.884819
16.587395 9.4784937 -52.026245
16.953815 7.265913 -45.707558
17.337072 4.9534307 -39.098557
17.748243 2.5354543 -32.008141
18.17893 -9.553708e-06 -24.581211
18.629585 -2.6613848 -16.809919
19.115396 -5.4615521 -8.4324455
19.628477 -8.4122181 0.41533318
20.08544 -11.477405 8.2953625
19.994177 -14.281561 6.7215948
19.958126 -17.106976 6.0999236
19.947372 -19.94739 5.9145145
19.966476 -22.818844 6.2439175
20.012625 -25.73053 7.0397015
20.063013 -28.661457 7.908658
20.120443 -31.617859 8.898984
20.208014 -34.642326 10.409081
20.308058 -37.714981 12.134303
20.427155 -40.854321 14.188033
20.5765 -44.092503 16.76339
20.77075 -47.476017 20.113108
21.051027 -51.123932 24.946316
21.344168 -54.885017 30.00135
21.724201 -58.965702 36.554817
16.915028 57.0882 -82.837585
16.859715 54.794056 -83.672188
16.826193 52.581841 -84.178001
16.800621 50.401848 -84.563843
16.782755 48.250404 -84.833405
16.771574 46.121819 -85.002144
16.761951 44.000111 -85.147324
16.747711 41.869263 -85.362198
16.746397 39.772671 -85.382042
16.751654 37.691208 -85.302689
16.747997 35.589474 -85.357903
16.744511 33.489006 -85.410477
16.755943 31.417376 -85.237984
16.770428 29.348232 -85.019432
16.785913 27.277094 -84.785782
16.82752 25.241264 -84.157974
16.890059 23.223816 -83.214355
17.029053 21.286304 -81.117081
17.24086 19.395956 -77.921158
17.501202 17.501194 -73.992897
17.815191 15.588279 -69.255173
18.156422 13.617307 -64.106407
18.518801 11.574235 -58.638515
18.896303 9.4481344 -52.94244
19.305069 7.239377 -46.774628
19.739927 4.9349585 -40.213135
20.194744 2.5243227 -33.350471
20.684864 -1.0940556e-05 -25.955141
21.19479 -2.6493647 -18.260954
21.733763 -5.4334545 -10.128478
22.313131 -8.3674326 -1.3865014
22.927551 -11.46379 7.8844132
22.797527 -14.24847 5.9224944
22.804625 -17.103481 6.0295811
22.812468 -19.960922 6.1479092
22.865816 -22.865829 6.9528942
22.942986 -25.810871 8.1172724
23.013336 -28.766687 9.1787939
23.098894 -31.760998 10.469758
23.203726 -34.805595 12.051515
23.309399 -37.877781 13.646032
23.449043 -41.035835 15.753091
23.674683 -44.390041 19.157734
23.940619 -47.881252 23.170403
24.283752 -51.602993 28.347902
24.700344 -55.575794 34.633801
19.389837 56.015068 -78.00338
19.301052 53.614021 -79.194176
19.261599 51.36425 -79.723335
19.222374 49.123837 -80.249443
19.199049 46.931 -80.562279
19.184109 44.762901 -80.76268
19.171253 42.602768 -80.935097
19.160343 40.449589 -81.081406
19.157618 38.31522 -81.117966
19.155823 36.183208 -81.142029
19.15144 34.046986 -81.200844
19.147787 31.912968 -81.249832
19.159147 29.803106 -81.097458
19.177246 27.700453 -80.854721
19.197313 25.596405 -80.585556
19.242537 23.518641 -79.979012
19.307396 21.452646 -79.109085
19.49127 19.491255 -76.642937
19.709232 17.519302 -73.719559
20.014339 15.566691 -69.627357
20.379459 13.586296 -64.730247
20.77932 11.544054 -59.367222
21.20137 9.4228134 -53.706562
21.640833 7.2135954 -47.81234
22.124846 4.9166179 -41.320637
22.632765 2.5147443 -34.508266
23.166401 -2.1514899e-05 -27.350977
23.73764 -2.6375301 -19.689371
24.335079 -5.4078021 -11.676316
24.970369 -8.3234701 -3.1556244
25.651627 -11.400733 5.9816222
25.981976 -14.434443 10.412366
25.762089 -17.174736 7.4631534
25.787113 -20.056664 7.7987957
25.847708 -22.975748 8.6115065
25.918682 -25.918694 9.5634432
25.985033 -28.872269 10.453353
26.096786 -31.896091 11.952248
26.229925 -34.97324 13.737917
26.368206 -38.087421 15.592567
26.546818 -41.295067 17.988216
26.851603 -44.752686 22.076052
27.220911 -48.392735 27.029308
27.609766 -52.151794 32.24477
30.510258 -61.020527 71.146988
21.826616 52.383869 -74.595062
21.773634 50.079342 -75.234619
21.728292 47.802235 -75.781937
21.701395 45.572918 -76.106636
21.68115 43.362282 -76.351013
21.657347 41.148949 -76.638321
21.657883 38.984173 -76.631859
