# .PCD v0.7 - Point Cloud Data file format
VERSION 0.7
FIELDS x y z
SIZE 4 4 4
TYPE F F F
COUNT 1 1 1
WIDTH 1496
HEIGHT 1
VIEWPOINT 0 0 0 1 0 0 0
POINTS 1496
DATA ascii
-10.99752 -12.372214 -37.140034
-11.170174 15.638241 -30.219311
-11.145185 14.860248 -30.420401
-11.134413 14.103588 -30.507088
-11.128978 13.354773 -30.550823
-11.126526 12.610061 -30.570551
-11.125018 11.866686 -30.582685
-11.124717 11.124717 -30.585115
-10.228683 9.5467701 -37.795822
-10.203444 8.8429842 -37.998943
-10.191756 8.1534042 -38.092995
-10.185022 7.4690146 -38.14719
-10.180854 6.7872338 -38.18074
-10.178108 6.1068645 -38.202835
-10.176341 5.427381 -38.217052
-10.175237 4.7484436 -38.225937
-10.174543 4.0698175 -38.231518
-10.174228 3.3914082 -38.234055
-10.174196 2.7131174 -38.23431
-10.173976 2.0347936 -38.236084
-10.173944 1.3565248 -38.23634
-10.17385 0.67825353 -38.237099
-10.173723 -1.2436795e-06 -38.238121
-10.173723 -0.67824888 -38.238117
-10.173723 -1.3564987 -38.238117
-10.173692 -2.0347414 -38.238369
-10.17366 -2.7129784 -38.238625
-10.173692 -3.3912318 -38.238369
-10.173692 -4.0694766 -38.238365
-10.173692 -4.7477231 -38.238369
-10.173723 -5.4259882 -38.238113
-10.17385 -6.1043096 -38.237099
-10.174165 -6.7827773 -38.234562
-10.174828 -7.4615426 -38.229233
-10.175868 -8.1406956 -38.22086
-10.177477 -8.8204823 -38.207912
-10.180159 -9.501483 -38.186329
-10.184453 -10.184456 -38.151764
-10.191915 -10.871378 -38.091724
-10.214555 -11.576495 -37.909531
-10.310176 -12.372214 -37.140034
-10.420885 15.631326 -30.25905
-10.397126 14.853033 -30.463915
-10.38775 14.097657 -30.54475
-10.382927 13.349477 -30.586327
-10.380748 12.605192 -30.605131
-10.379833 11.862664 -30.61301
-10.379552 11.120948 -30.615438
-9.5426693 9.5426683 -37.8312
-9.5196047 8.839632 -38.030064
-9.5084696 8.1501141 -38.126083
-9.5018349 7.4657302 -38.183281
-9.4978886 6.7842035 -38.217304
-9.4952984 6.1041203 -38.239639
-9.4937096 5.4249768 -38.253334
-9.4928865 4.7464395 -38.260433
-9.4924164 4.0681777 -38.264492
-9.4921217 3.3900409 -38.267025
-9.4920044 2.7119999 -38.26804
-9.4920044 2.0339994 -38.268044
-9.4919167 1.3559849 -38.268799
-9.4918575 0.67798698 -38.269306
-9.4918575 -1.4838431e-06 -38.26931
-9.4918575 -0.6779936 -38.26931
-9.4918575 -1.3559809 -38.269306
-9.4918575 -2.0339704 -38.269306
-9.4918575 -2.7119625 -38.269306
-9.4917984 -3.3899307 -38.269817
-9.4917984 -4.0679169 -38.269814
-9.4917984 -4.7458997 -38.269817
-9.4918575 -5.4239225 -38.269306
-9.4919748 -6.1019869 -38.268291
-9.4923277 -6.7802343 -38.265251
-9.4929457 -7.4587431 -38.25993
-9.4939451 -8.1376705 -38.251305
-9.4955339 -8.8172817 -38.23761
-9.498065 -9.498065 -38.215782
-9.5024242 -10.181169 -38.1782
-9.5097675 -10.868308 -38.114883
-9.5318346 -11.574372 -37.924614
-9.6228304 -12.372214 -37.140034
-9.676899 15.631914 -30.255692
-9.654768 14.853489 -30.46118
-9.6459312 14.097899 -30.543234
-9.6413231 13.349522 -30.586025
-9.6392002 12.605107 -30.605734
-9.6382856 11.862504 -30.614225
-9.002059 10.386989 -36.52187
-8.8589258 9.5403814 -37.850922
-8.837409 8.8374081 -38.050713
-8.8270187 8.148015 -38.14719
-8.8207254 7.4636898 -38.205627
-8.8170357 6.7823339 -38.239891
-8.8146324 6.1024342 -38.262211
-8.8132944 5.423562 -38.274628
-8.8124485 4.7451634 -38.282486
-8.8119574 4.0670571 -38.287048
-8.811739 3.3891258 -38.289074
-8.8116302 2.7112713 -38.290089
-8.8116302 2.0334523 -38.290089
-8.8116026 1.3556287 -38.290344
-8.8116026 0.67781293 -38.290344
-8.8115473 -1.3702565e-06 -38.290852
-8.8115473 -0.67781031 -38.290852
-8.8115473 -1.355625 -38.290852
-8.8115473 -2.0334339 -38.290852
-8.8115473 -2.7112477 -38.290852
-8.8115206 -3.38905 -38.291103
-8.8115473 -4.0668683 -38.290848
-8.8115473 -4.7446804 -38.290852
-8.8115473 -5.4224925 -38.290852
-8.8116846 -6.1003976 -38.289585
-8.8120117 -6.7784724 -38.286541
-8.8126116 -7.4568272 -38.280968
-8.8135672 -8.135603 -38.272095
-8.8151512 -8.8151522 -38.257389
-8.8175554 -9.4958305 -38.235069
-8.8217916 -10.178991 -38.195724
-8.8288546 -10.866284 -38.13015
-8.8498611 -11.572897 -37.935097
-8.9354858 -12.372214 -37.140034
-8.9383278 15.642075 -30.197285
-8.9173288 14.862215 -30.408525
-8.9082546 14.104734 -30.499792
-8.9033022 13.354955 -30.549608
-8.9007082 12.609336 -30.575708
-8.8991699 11.865559 -30.591181
-8.281846 10.352307 -36.800987
-8.1765785 9.539341 -37.85989
-8.1560383 8.8357058 -38.066509
-8.1466284 8.1466274 -38.161175
-8.1407957 7.4623961 -38.219845
-8.1373901 6.781158 -38.254093
-8.1351719 6.101377 -38.276405
-8.1338625 5.422574 -38.289581
-8.1331568 4.7443395 -38.296677
-8.1327543 4.0663733 -38.300728
-8.1325779 3.3885727 -38.302505
-8.1325274 2.7108436 -38.303013
-8.1325274 2.0331323 -38.303009
-8.1325274 1.3554175 -38.303009
-8.1325026 0.67770356 -38.303265
-8.1324768 7.653091e-08 -38.30352
-8.132452 -0.67770576 -38.303768
-8.1324263 -1.355406 -38.304024
-8.1324263 -2.0331054 -38.30402
-8.1324263 -2.7108104 -38.30402
-8.132452 -3.3885202 -38.303772
-8.132452 -4.0662255 -38.303772
-8.132452 -4.7439313 -38.303772
-8.132452 -5.4216352 -38.303772
-8.1325531 -6.0994172 -38.302753
-8.1328802 -6.7774029 -38.299465
-8.1334343 -7.4556494 -38.293888
-8.1343412 -8.1343431 -38.284767
-8.135828 -8.8138132 -38.269817
-8.1380959 -9.4944477 -38.24699
-8.142107 -10.177635 -38.206646
-8.1488018 -10.865071 -38.139305
-8.1669941 -11.56991 -37.956303
-8.2481403 -12.372214 -37.140034
-8.2080479 15.669909 -30.037275
-8.186224 14.884043 -30.276772
-8.1760769 14.122314 -30.388117
-8.1699457 13.368999 -30.455397
-8.1662607 12.620584 -30.495844
-8.1636295 11.874369 -30.524708
-7.5868602 10.345717 -36.854012
-7.4947772 9.5388041 -37.864494
-7.4757648 8.8349943 -38.073132
-7.4669313 8.1457453 -38.170067
-7.461586 7.4615855 -38.228725
-7.458396 6.7803612 -38.263729
-7.4564099 6.1006985 -38.28553
-7.4551859 5.4219513 -38.298958
-7.4545403 4.7437968 -38.306049
-7.454217 4.0659347 -38.309597
-7.4540782 3.3882167 -38.311119
-7.4540553 2.7105622 -38.311367
-7.4540319 2.032917 -38.311623
-7.4540319 1.3552775 -38.311619
-7.4540319 0.67764014 -38.311623
-7.4540319 -2.2361207e-06 -38.311623
-7.4540091 -0.67763937 -38.311874
-7.4540091 -1.3552788 -38.311874
-7.4540091 -2.0329154 -38.311874
-7.4540091 -2.710547 -38.311874
-7.4540319 -3.3881979 -38.311623
-7.4540319 -4.0658364 -38.311619
-7.4540091 -4.7434616 -38.311874
-7.4540319 -5.4211154 -38.311623
-7.4541473 -6.0988488 -38.310352
-7.4544244 -6.7767525 -38.307316
-7.4549556 -7.4549589 -38.301491
-7.4557867 -8.1335888 -38.292366
-7.4571719 -8.8130226 -38.277168
-7.4592972 -9.4936552 -38.253841
-7.4629741 -10.176786 -38.213497
-7.469202 -10.864294 -38.145157
-7.4858294 -11.569011 -37.962688
-7.5607953 -12.372214 -37.140034
-7.3105326 19.738438 -31.863989
-7.3057008 18.994822 -31.922306
-7.3207288 18.301819 -31.74091
-7.3615017 17.667604 -31.248732
-7.413413 17.05085 -30.622108
-7.5446048 15.08921 -29.038488
-7.4926414 14.236016 -29.665735
-7.4688129 13.443863 -29.953369
-7.4532986 12.670607 -30.140644
-7.4440465 11.910477 -30.252327
-6.8882461 10.332368 -36.961433
-6.8131795 9.5384464 -37.867565
-6.7957492 8.8344707 -38.077972
-6.7876983 8.1452379 -38.175148
-6.7827973 7.4610748 -38.23431
-6.7798982 6.7798972 -38.26931
-6.7780719 6.1002612 -38.291355
-6.7769799 5.4215817 -38.304527
-6.776372 4.7434592 -38.311878
-6.7760782 4.0656447 -38.315422
-6.7759943 3.3879972 -38.316433
-6.7759733 2.7103891 -38.316685
-6.7759733 2.0327892 -38.316685
-6.7759733 1.3551894 -38.316685
-6.7759733 0.67759645 -38.316685
-6.7759733 -3.3969329e-06 -38.316685
-6.7759523 -0.67759889 -38.31694
-6.7759523 -1.3551919 -38.31694
-6.7759523 -2.0327859 -38.31694
-6.7759733 -2.7103939 -38.316685
-6.7759733 -3.387989 -38.316681
-6.7759733 -4.065588 -38.316685
-6.7759523 -4.7431674 -38.316936
-6.7759733 -5.4207807 -38.316685
-6.7760572 -6.098455 -38.31567
-6.77633 -6.7763324 -38.312382
-6.7768126 -7.4544945 -38.306557
-6.7775888 -8.1331072 -38.297184
-6.7788486 -8.8125019 -38.281982
-6.7808018 -9.4931231 -38.258404
-6.7841434 -10.176217 -38.218067
-6.7898459 -10.863753 -38.149223
-6.8050666 -11.568615 -37.9655
-6.8734503 -12.372214 -37.140034
-6.5157585 20.27125 -32.718624
-6.5061607 19.518478 -32.847359
-6.5044847 18.790735 -32.869831
-6.5052371 18.070101 -32.859749
-6.507515 17.353371 -32.829197
-6.5123553 16.642685 -32.764275
-6.5171814 15.930886 -32.699547
-6.5257306 15.226705 -32.584877
-6.5336957 14.519323 -32.478046
-6.5413113 13.809433 -32.375912
-6.554544 13.109086 -32.198421
-6.5700212 12.410041 -31.990839
-6.5848894 11.706468 -31.791418
-6.199441 10.332399 -36.961174
-6.1317663 9.5383024 -37.868851
-6.1160035 8.8342285 -38.080265
-6.1087012 8.1449337 -38.1782
-6.1042719 7.4607787 -38.237606
-6.1016817 6.7796454 -38.272346
-6.100019 6.1000175 -38.294651
-6.0990176 5.4213467 -38.308075
-6.0984893 4.7432675 -38.315166
-6.0982437 4.0654941 -38.318462
-6.0981493 3.3878589 -38.319725
-6.0981684 2.7102964 -38.319473
-6.0981493 2.0327158 -38.319725
-6.0981684 1.355148 -38.319473
-6.0981684 0.67757559 -38.319473
-6.0981493 -1.6868141e-06 -38.319721
-6.0981493 -0.67757243 -38.319721
-6.0981493 -1.3551438 -38.319725
-6.0981493 -2.0327194 -38.319729
-6.0981493 -2.7102921 -38.319725
-6.0981493 -3.3878646 -38.319725
-6.0981493 -4.0654354 -38.319725
-6.0981493 -4.7430077 -38.319725
-6.0981684 -5.4205947 -38.319469
-6.0982437 -6.0982475 -38.318455
-6.0984893 -6.7761002 -38.315166
-6.0989046 -7.4542184 -38.309597
-6.0996218 -8.1328306 -38.299973
-6.1007552 -8.8122044 -38.284767
-6.1025128 -9.4927998 -38.261196
-6.1054072 -10.175681 -38.222382
-6.1107292 -10.863521 -38.151005
-6.1244459 -11.568398 -37.96703
-6.1861053 -12.372214 -37.140034
-5.8149624 21.079235 -32.368916
-5.7781587 20.223557 -32.92424
-5.7685456 19.468842 -33.069286
-5.7649755 18.736166 -33.123161
-5.7637796 18.011812 -33.141201
-5.7638936 17.291677 -33.139481
-5.7648234 16.573866 -33.125454
-5.7671022 15.859529 -33.091076
-5.7688498 15.143228 -33.064701
-5.7708459 14.427115 -33.034576
-5.773243 13.711451 -32.998402
-5.7759476 12.99588 -32.9576
-5.778254 12.278789 -32.922806
-5.7845721 11.569142 -32.827469
-5.5106311 10.332431 -36.960911
-5.450408 9.5382137 -37.869617
-5.4363794 8.834116 -38.08128
-5.4298892 8.1448317 -38.179214
-5.4259691 7.4607086 -38.238369
-5.4236331 6.7795405 -38.273613
-5.4221549 6.0999246 -38.295918
-5.4212823 5.4212828 -38.30909
-5.4208121 4.7432098 -38.316177
-5.4205942 4.0654464 -38.319473
-5.4205103 3.3878167 -38.320736
-5.4204936 2.7102482 -38.320992
-5.4204936 2.0326829 -38.320992
-5.4205103 1.3551251 -38.320736
-5.4205103 0.67756277 -38.320736
-5.4204936 -3.7713414e-07 -38.320992
-5.4204936 -0.67756265 -38.320992
-5.4204936 -1.3551223 -38.320992
-5.4204936 -2.0326867 -38.320992
-5.4204936 -2.710248 -38.320992
-5.4205103 -3.3878202 -38.32074
-5.4205103 -4.0653844 -38.320736
-5.4204936 -4.7429328 -38.320992
-5.4205103 -5.4205112 -38.320736
-5.4205942 -6.0981684 -38.319473
-5.4207954 -6.7759972 -38.316433
-5.4211817 -7.4541254 -38.310608
-5.421803 -8.1327066 -38.301235
-5.4228263 -8.8120975 -38.285782
-5.4243889 -9.4926834 -38.262211
-5.4269781 -10.175585 -38.223145
-5.4316916 -10.863386 -38.15202
-5.4439182 -11.568329 -37.967541
-5.075417 21.026728 -32.58749
-5.0514379 20.205751 -33.000984
-5.0428424 19.45096 -33.149216
-5.0389118 18.71596 -33.216999
-5.0372386 17.990139 -33.245853
-5.036725 17.268772 -33.2547
-5.0368414 16.54962 -33.252701
-5.0372882 15.831476 -33.244995
-5.0377851 15.113353 -33.236423
-5.0386963 14.396274 -33.220707
-5.0396743 13.679115 -33.203854
-5.0402708 12.960696 -33.193554
-5.042295 12.245575 -33.158661
-5.0463634 11.534544 -33.088497
-4.8218026 10.332431 -36.960911
-4.7690921 9.5381842 -37.869873
-4.7568178 8.8340864 -38.081539
-4.7511387 8.1448069 -38.179466
-4.7477083 7.4606824 -38.238621
-4.7456641 6.7795186 -38.273876
-4.7443709 6.0999031 -38.296169
-4.743607 5.4212637 -38.309341
-4.7431812 4.7431798 -38.316681
-4.7430048 4.0654297 -38.319725
-4.7429318 3.3878069 -38.320992
-4.7429318 2.7102482 -38.320992
-4.7429318 2.0326829 -38.320992
-4.7429318 1.3551205 -38.320992
-4.7429318 0.67756188 -38.320992
-4.7429318 -3.7713414e-07 -38.320992
-4.7429318 -0.67756265 -38.320992
-4.7429318 -1.3551223 -38.320992
-4.7429318 -2.0326867 -38.320992
-4.7429318 -2.710248 -38.320992
-4.7429318 -3.3878086 -38.320992
-4.7429318 -4.0653701 -38.320992
-4.7429318 -4.7429328 -38.320992
-4.7429318 -5.4204936 -38.320992
-4.7430196 -6.0981684 -38.319473
-4.743196 -6.7759972 -38.316433
-4.7435188 -7.4541044 -38.31086
-4.7440772 -8.1327066 -38.301235
-4.7449732 -8.8120975 -38.285782
-4.7463403 -9.4926834 -38.262211
-4.7485914 -10.175556 -38.223396
-4.7527304 -10.863386 -38.15202
-4.7634282 -11.568329 -37.967541
-4.3483696 21.017118 -32.62748
-4.329433 20.204018 -33.008457
-4.3227921 19.452564 -33.142063
-4.3189821 18.71559 -33.218712
-4.3172073 17.988365 -33.254414
-4.3163843 17.265539 -33.270973
-4.3160582 16.544889 -33.277534
-4.3159871 15.825287 -33.278965
-4.3158455 15.105456 -33.281818
-4.315959 14.386528 -33.279533
-4.3161292 13.667742 -33.276112
-4.3162851 12.948857 -33.272972
-4.3174343 12.23273 -33.249851
-4.3210425 11.522778 -33.177254
-4.1329737 10.332431 -36.960911
-4.0877929 9.5381842 -37.869873
-4.0772595 8.8340616 -38.081791
-4.0724044 8.1448069 -38.179466
-4.0694642 7.4606824 -38.238621
-4.0677123 6.7795186 -38.273876
-4.0666037 6.0999031 -38.296169
-4.065949 5.4212637 -38.309341
-4.0655837 4.7431798 -38.316681
-4.065433 4.0654297 -38.319725
-4.0653701 3.3878069 -38.320992
-4.0653701 2.7102482 -38.320992
-4.0653701 2.0326829 -38.320992
-4.0653701 1.3551205 -38.320992
-4.0653701 0.67756188 -38.320992
-4.0653701 -3.7713414e-07 -38.320992
-4.0653701 -0.67756265 -38.320992
-4.0653701 -1.3551223 -38.320992
-4.0653701 -2.0326867 -38.320992
-4.0653701 -2.710248 -38.320992
-4.0653701 -3.3878086 -38.320992
-4.0653701 -4.0653701 -38.320992
-4.0653701 -4.7429328 -38.320992
-4.0653701 -5.4204936 -38.320992
-4.0654454 -6.0981684 -38.319473
-4.0655966 -6.7759972 -38.316433
-4.0658731 -7.4541044 -38.31086
-4.0663519 -8.1327066 -38.301235
-4.0671201 -8.8120975 -38.285782
-4.0682917 -9.4926834 -38.262211
-4.0702209 -10.175556 -38.223396
-4.0737686 -10.863386 -38.15202
-4.0829387 -11.568329 -37.967541
-3.6253698 21.027145 -32.585747
-3.6116469 20.225224 -32.917049
-3.6062677 19.473845 -33.046917
-3.6032636 18.736971 -33.119434
-3.6012006 18.006002 -33.169247
-3.6001935 17.280928 -33.193558
-3.5994477 16.557459 -33.211563
-3.5988324 15.834864 -33.226425
-3.5982995 15.112855 -33.239281
-3.5980632 14.392252 -33.244991
-3.5977082 13.671292 -33.253559
-3.5974481 12.95081 -33.259842
-3.5981104 12.233572 -33.243847
-3.6012244 11.523916 -33.168671
-3.4441447 10.332431 -36.960911
-3.4064944 9.5381842 -37.869873
-3.397716 8.8340616 -38.081791
-3.3936703 8.1448069 -38.179466
-3.3912201 7.4606824 -38.238621
-3.3897603 6.7795186 -38.273876
-3.3888364 6.0999031 -38.296169
-3.3882909 5.4212637 -38.309341
-3.3879867 4.7431798 -38.316681
-3.3878608 4.0654297 -38.319725
-3.3878083 3.3878069 -38.320992
-3.3878083 2.7102482 -38.320992
-3.3878083 2.0326829 -38.320992
-3.3878083 1.3551205 -38.320992
-3.3878083 0.67756188 -38.320992
-3.3878083 -3.7713414e-07 -38.320992
-3.3878083 -0.67756265 -38.320992
-3.3878083 -1.3551223 -38.320992
-3.3878083 -2.0326867 -38.320992
-3.3878083 -2.710248 -38.320992
-3.3878083 -3.3878086 -38.320992
-3.3878083 -4.0653701 -38.320992
-3.3878083 -4.7429328 -38.320992
-3.3878083 -5.4204936 -38.320992
-3.3878715 -6.0981684 -38.319473
-3.3879972 -6.7759972 -38.316433
-3.3882277 -7.4541044 -38.31086
-3.3886263 -8.1327066 -38.301235
-3.3892667 -8.8120975 -38.285782
-3.3902433 -9.4926834 -38.262211
-3.3918507 -10.175556 -38.223396
-3.3948071 -10.863386 -38.15202
-3.4024487 -11.568329 -37.967541
-2.9134893 21.122795 -32.187599
-2.8985965 20.290171 -32.637035
-2.8937294 19.532673 -32.783901
-2.8905671 18.788687 -32.879337
-2.8883929 18.052456 -32.94495
-2.8871357 17.322813 -32.982895
-2.8855753 16.592058 -33.029987
-2.8847005 15.865849 -33.056385
-2.8837976 15.139937 -33.083622
-2.8832281 14.416137 -33.100819
-2.8823926 13.691363 -33.126026
-2.8817761 12.967992 -33.144638
-2.8818424 12.24783 -33.142635
-2.8839309 11.535722 -33.079609
-2.7553155 10.332431 -36.960911
-2.7251954 9.5381842 -37.869873
-2.718173 8.8340616 -38.081791
-2.7149365 8.1448069 -38.179466
-2.7129762 7.4606824 -38.238621
-2.711808 6.7795186 -38.273876
-2.7110691 6.0999031 -38.296169
-2.7106328 5.4212637 -38.309341
-2.7103891 4.7431798 -38.316681
-2.7102885 4.0654297 -38.319725
-2.7102468 3.3878069 -38.320992
-2.7102468 2.7102482 -38.320992
-2.7102468 2.0326829 -38.320992
-2.7102468 1.3551205 -38.320992
-2.7102468 0.67756188 -38.320992
-2.7102468 -3.7713414e-07 -38.320992
-2.7102468 -0.67756265 -38.320992
-2.7102468 -1.3551223 -38.320992
-2.7102468 -2.0326867 -38.320992
-2.7102468 -2.710248 -38.320992
-2.7102468 -3.3878086 -38.320992
-2.7102468 -4.0653701 -38.320992
-2.7102468 -4.7429328 -38.320992
-2.7102468 -5.4204936 -38.320992
-2.7102971 -6.0981684 -38.319473
-2.7103977 -6.7759972 -38.316433
-2.7105823 -7.4541044 -38.31086
-2.7109015 -8.1327066 -38.301235
-2.7114131 -8.8120975 -38.285782
-2.7121944 -9.4926834 -38.262211
-2.7134807 -10.175556 -38.223396
-2.7158458 -10.863386 -38.15202
-2.7219591 -11.568329 -37.967541
-2.1941416 19.747274 -31.824474
-2.1854515 18.940578 -32.174137
-2.1810961 18.175798 -32.349388
-2.178426 17.427408 -32.456821
-2.1764548 16.68615 -32.53614
-2.1745954 15.947032 -32.610966
-2.1725304 15.20771 -32.69405
-2.171345 14.475633 -32.741745
-2.1701536 13.744307 -32.789677
-2.1688349 13.013005 -32.842747
-2.1676035 12.283083 -32.892292
-2.1685841 11.56578 -32.852833
-2.0664868 10.332431 -36.960911
-2.0438964 9.5381842 -37.869873
-2.0386298 8.8340616 -38.081791
-2.0362022 8.1448069 -38.179466
-2.0347321 7.4606824 -38.238621
-2.0338562 6.7795186 -38.273876
-2.0333018 6.0999031 -38.296169
-2.0329745 5.4212637 -38.309341
-2.0327919 4.7431798 -38.316681
-2.0327165 4.0654297 -38.319725
-2.032685 3.3878069 -38.320992
-2.032685 2.7102482 -38.320992
-2.032685 2.0326829 -38.320992
-2.032685 1.3551205 -38.320992
-2.032685 0.67756188 -38.320992
-2.032685 -3.7713414e-07 -38.320992
-2.032685 -0.67756265 -38.320992
-2.032685 -1.3551223 -38.320992
-2.032685 -2.0326867 -38.320992
-2.032685 -2.710248 -38.320992
-2.032685 -3.3878086 -38.320992
-2.032685 -4.0653701 -38.320992
-2.032685 -4.7429328 -38.320992
-2.032685 -5.4204936 -38.320992
-2.0327227 -6.0981684 -38.319473
-2.0327983 -6.7759972 -38.316433
-2.0329366 -7.4541044 -38.31086
-2.0331759 -8.1327066 -38.301235
-2.03356 -8.8120975 -38.285782
-2.0341458 -9.4926834 -38.262211
-2.0351105 -10.175556 -38.223396
-2.0368843 -10.863386 -38.15202
-2.0414693 -11.568329 -37.967541
-1.5208681 19.010849 -28.317408
-1.4866959 17.840349 -30.379887
-1.4784414 17.002071 -30.878096
-1.4753422 16.228762 -31.065149
-1.4721814 15.457906 -31.255899
-1.4695227 14.695227 -31.416376
-1.4651994 13.919391 -31.677317
-1.4621651 13.159485 -31.860447
-1.4580888 12.393752 -32.10648
-1.4574043 11.659232 -32.147785
-1.3776578 10.332431 -36.960911
-1.3625977 9.5381842 -37.869873
-1.3590865 8.8340616 -38.081791
-1.3574682 8.1448069 -38.179466
-1.3564881 7.4606824 -38.238621
-1.355904 6.7795186 -38.273876
-1.3555346 6.0999031 -38.296169
-1.3553164 5.4212637 -38.309341
-1.3551946 4.7431798 -38.316681
-1.3551443 4.0654297 -38.319725
-1.3551234 3.3878069 -38.320992
-1.3551234 2.7102482 -38.320992
-1.3551234 2.0326829 -38.320992
-1.3551234 1.3551205 -38.320992
-1.3551234 0.67756188 -38.320992
-1.3551234 -3.7713414e-07 -38.320992
-1.3551234 -0.67756265 -38.320992
-1.3551234 -1.3551223 -38.320992
-1.3551234 -2.0326867 -38.320992
-1.3551234 -2.710248 -38.320992
-1.3551234 -3.3878086 -38.320992
-1.3551234 -4.0653701 -38.320992
-1.3551234 -4.7429328 -38.320992
-1.3551234 -5.4204936 -38.320992
-1.3551486 -6.0981684 -38.319473
-1.3551989 -6.7759972 -38.316433
-1.3552911 -7.4541044 -38.31086
-1.3554507 -8.1327066 -38.301235
-1.3557066 -8.8120975 -38.285782
-1.3560972 -9.4926834 -38.262211
-1.3567404 -10.175556 -38.223396
-1.3579229 -10.863386 -38.15202
-1.3609796 -11.568329 -37.967541
-0.80640596 16.934526 -22.768106
-0.79696602 15.939322 -23.907606
-0.79705894 15.144118 -23.896399
-0.80243558 14.443839 -23.247379
-0.82106215 13.958056 -20.998957
-0.85871154 13.739385 -16.454262
-0.68882889 10.332431 -36.960911
-0.68129885 9.5381842 -37.869873
-0.67954326 8.8340616 -38.081791
-0.67873412 8.1448069 -38.179466
-0.67824405 7.4606824 -38.238621
-0.67795199 6.7795186 -38.273876
-0.67776728 6.0999031 -38.296169
-0.6776582 5.4212637 -38.309341
-0.67759728 4.7431798 -38.316681
-0.67757213 4.0654297 -38.319725
-0.6775617 3.3878069 -38.320992
-0.6775617 2.7102482 -38.320992
-0.6775617 2.0326829 -38.320992
-0.6775617 1.3551205 -38.320992
-0.6775617 0.67756188 -38.320992
-0.6775617 -3.7713414e-07 -38.320992
-0.6775617 -0.67756265 -38.320992
-0.6775617 -1.3551223 -38.320992
-0.6775617 -2.0326867 -38.320992
-0.6775617 -2.710248 -38.320992
-0.6775617 -3.3878086 -38.320992
-0.6775617 -4.0653701 -38.320992
-0.6775617 -4.7429328 -38.320992
-0.6775617 -5.4204936 -38.320992
-0.67757428 -6.0981684 -38.319473
-0.67759943 -6.7759972 -38.316433
-0.67764556 -7.4541044 -38.31086
-0.67772537 -8.1327066 -38.301235
-0.67785329 -8.8120975 -38.285782
-0.67804861 -9.4926834 -38.262211
-0.67837018 -10.175556 -38.223396
-0.67896146 -10.863386 -38.15202
-0.68048978 -11.568329 -37.967541
4.5110222e-26 10.332431 -36.960911
-6.9151231e-24 9.5381842 -37.869873
-1.4796317e-24 8.8340616 -38.081791
2.9699666e-25 8.1448069 -38.179466
-1.3926109e-24 7.4606824 -38.238621
-1.6466664e-23 6.7795186 -38.273876
-6.5397326e-24 6.0999031 -38.296169
4.3028576e-24 5.4212637 -38.309341
4.5622918e-24 4.7431798 -38.316681
-9.0324384e-24 4.0654297 -38.319725
1.197316e-23 3.3878069 -38.320992
-1.3789945e-23 2.7102482 -38.320992
-1.0442777e-23 2.0326829 -38.320992
-7.0956082e-24 1.3551205 -38.320992
6.8459558e-24 0.67756188 -38.320992
-3.0417656e-24 -3.7713414e-07 -38.320992
3.0540277e-25 -0.67756265 -38.320992
-4.2851208e-24 -1.3551223 -38.320992
-2.2110534e-23 -2.0326867 -38.320992
-2.6701058e-23 -2.710248 -38.320992
3.1158901e-24 -3.3878086 -38.320992
-1.4746335e-24 -4.0653701 -38.320992
-1.9300047e-23 -4.7429328 -38.320992
-1.5952878e-23 -5.4204936 -38.320992
8.9218244e-24 -6.0981684 -38.319473
1.293027e-23 -6.7759972 -38.316433
1.3032222e-23 -7.4541044 -38.31086
6.8286735e-24 -8.1327066 -38.301235
7.3745526e-24 -8.8120975 -38.285782
1.3647003e-23 -9.4926834 -38.262211
1.1293143e-24 -10.175556 -38.223396
-1.2603145e-23 -10.863386 -38.15202
7.9195229e-24 -11.568329 -37.967541
0.68882889 10.332431 -36.960911
0.68129885 9.5381842 -37.869873
0.67954326 8.8340616 -38.081791
0.67873412 8.1448069 -38.179466
0.67824405 7.4606824 -38.238621
0.67795199 6.7795186 -38.273876
0.67776728 6.0999031 -38.296169
0.6776582 5.4212637 -38.309341
0.67759728 4.7431798 -38.316681
0.67757213 4.0654297 -38.319725
0.6775617 3.3878069 -38.320992
0.6775617 2.7102482 -38.320992
0.6775617 2.0326829 -38.320992
0.6775617 1.3551205 -38.320992
0.6775617 0.67756188 -38.320992
0.6775617 -3.7713414e-07 -38.320992
0.6775617 -0.67756265 -38.320992
0.6775617 -1.3551223 -38.320992
0.6775617 -2.0326867 -38.320992
0.6775617 -2.710248 -38.320992
0.6775617 -3.3878086 -38.320992
0.6775617 -4.0653701 -38.320992
0.6775617 -4.7429328 -38.320992
0.6775617 -5.4204936 -38.320992
0.67757428 -6.0981684 -38.319473
0.67759943 -6.7759972 -38.316433
0.67764556 -7.4541044 -38.31086
0.67772537 -8.1327066 -38.301235
0.67785329 -8.8120975 -38.285782
0.67804861 -9.4926834 -38.262211
0.67837018 -10.175556 -38.223396
0.67896146 -10.863386 -38.15202
0.68048978 -11.568329 -37.967541
1.3776578 10.332431 -36.960911
1.3625977 9.5381842 -37.869873
1.3590865 8.8340616 -38.081791
1.3574682 8.1448069 -38.179466
1.3564881 7.4606824 -38.238621
1.355904 6.7795186 -38.273876
1.3555346 6.0999031 -38.296169
1.3553164 5.4212637 -38.309341
1.3551946 4.7431798 -38.316681
1.3551443 4.0654297 -38.319725
1.3551234 3.3878069 -38.320992
1.3551234 2.7102482 -38.320992
1.3551234 2.0326829 -38.320992
1.3551234 1.3551205 -38.320992
1.3551234 0.67756188 -38.320992
1.3551234 -3.7713414e-07 -38.320992
1.3551234 -0.67756265 -38.320992
1.3551234 -1.3551223 -38.320992
1.3551234 -2.0326867 -38.320992
1.3551234 -2.710248 -38.320992
1.3551234 -3.3878086 -38.320992
1.3551234 -4.0653701 -38.320992
1.3551234 -4.7429328 -38.320992
1.3551234 -5.4204936 -38.320992
1.3551486 -6.0981684 -38.319473
1.3551989 -6.7759972 -38.316433
1.3552911 -7.4541044 -38.31086
1.3554507 -8.1327066 -38.301235
1.3557066 -8.8120975 -38.285782
1.3560972 -9.4926834 -38.262211
1.3567404 -10.175556 -38.223396
1.3579229 -10.863386 -38.15202
1.3609796 -11.568329 -37.967541
2.0664868 10.332431 -36.960911
2.0438964 9.5381842 -37.869873
2.0386298 8.8340616 -38.081791
2.0362022 8.1448069 -38.179466
2.0347321 7.4606824 -38.238621
2.0338562 6.7795186 -38.273876
2.0333018 6.0999031 -38.296169
2.0329745 5.4212637 -38.309341
2.0327919 4.7431798 -38.316681
2.0327165 4.0654297 -38.319725
2.032685 3.3878069 -38.320992
2.032685 2.7102482 -38.320992
2.032685 2.0326829 -38.320992
2.032685 1.3551205 -38.320992
2.032685 0.67756188 -38.320992
2.032685 -3.7713414e-07 -38.320992
2.032685 -0.67756265 -38.320992
2.032685 -1.3551223 -38.320992
2.032685 -2.0326867 -38.320992
2.032685 -2.710248 -38.320992
2.032685 -3.3878086 -38.320992
2.032685 -4.0653701 -38.320992
2.032685 -4.7429328 -38.320992
2.032685 -5.4204936 -38.320992
2.0327227 -6.0981684 -38.319473
2.0327983 -6.7759972 -38.316433
2.0329366 -7.4541044 -38.31086
2.0331759 -8.1327066 -38.301235
2.03356 -8.8120975 -38.285782
2.0341458 -9.4926834 -38.262211
2.0351105 -10.175556 -38.223396
2.0368843 -10.863386 -38.15202
2.0414693 -11.568329 -37.967541
2.7553155 10.332431 -36.960911
2.7251954 9.5381842 -37.869873
2.718173 8.8340616 -38.081791
2.7149365 8.1448069 -38.179466
2.7129762 7.4606824 -38.238621
2.711808 6.7795186 -38.273876
2.7110691 6.0999031 -38.296169
2.7106328 5.4212637 -38.309341
2.7103891 4.7431798 -38.316681
2.7102885 4.0654297 -38.319725
2.7102468 3.3878069 -38.320992
2.7102468 2.7102482 -38.320992
2.7102468 2.0326829 -38.320992
2.7102468 1.3551205 -38.320992
2.7102468 0.67756188 -38.320992
2.7102468 -3.7713414e-07 -38.320992
2.7102468 -0.67756265 -38.320992
2.7102468 -1.3551223 -38.320992
2.7102468 -2.0326867 -38.320992
2.7102468 -2.710248 -38.320992
2.7102468 -3.3878086 -38.320992
2.7102468 -4.0653701 -38.320992
2.7102468 -4.7429328 -38.320992
2.7102468 -5.4204936 -38.320992
2.7102971 -6.0981684 -38.319473
2.7103977 -6.7759972 -38.316433
2.7105823 -7.4541044 -38.31086
2.7109015 -8.1327066 -38.301235
2.7114131 -8.8120975 -38.285782
2.7121944 -9.4926834 -38.262211
2.7134807 -10.175556 -38.223396
2.7158458 -10.863386 -38.15202
2.7219591 -11.568329 -37.967541
3.4441447 10.332431 -36.960911
3.4064944 9.5381842 -37.869873
3.397716 8.8340616 -38.081791
3.3936703 8.1448069 -38.179466
3.3912201 7.4606824 -38.238621
3.3897603 6.7795186 -38.273876
3.3888364 6.0999031 -38.296169
3.3882909 5.4212637 -38.309341
3.3879867 4.7431798 -38.316681
3.3878608 4.0654297 -38.319725
3.3878083 3.3878069 -38.320992
3.3878083 2.7102482 -38.320992
3.3878083 2.0326829 -38.320992
3.3878083 1.3551205 -38.320992
3.3878083 0.67756188 -38.320992
3.3878083 -3.7713414e-07 -38.320992
3.3878083 -0.67756265 -38.320992
3.3878083 -1.3551223 -38.320992
3.3878083 -2.0326867 -38.320992
3.3878083 -2.710248 -38.320992
3.3878083 -3.3878086 -38.320992
3.3878083 -4.0653701 -38.320992
3.3878083 -4.7429328 -38.320992
3.3878083 -5.4204936 -38.320992
3.3878715 -6.0981684 -38.319473
3.3879972 -6.7759972 -38.316433
3.3882277 -7.4541044 -38.31086
3.3886263 -8.1327066 -38.301235
3.3892667 -8.8120975 -38.285782
3.3902433 -9.4926834 -38.262211
3.3918507 -10.175556 -38.223396
3.3948071 -10.863386 -38.15202
3.4024487 -11.568329 -37.967541
4.1329737 10.332431 -36.960911
4.0877929 9.5381842 -37.869873
4.0772595 8.8340616 -38.081791
4.0724044 8.1448069 -38.179466
4.0694642 7.4606824 -38.238621
4.0677123 6.7795186 -38.273876
4.0666037 6.0999031 -38.296169
4.065949 5.4212637 -38.309341
4.0655837 4.7431798 -38.316681
4.065433 4.0654297 -38.319725
4.0653701 3.3878069 -38.320992
4.0653701 2.7102482 -38.320992
4.0653701 2.0326829 -38.320992
4.0653701 1.3551205 -38.320992
4.0653701 0.67756188 -38.320992
4.0653701 -3.7713414e-07 -38.320992
4.0653701 -0.67756265 -38.320992
4.0653701 -1.3551223 -38.320992
4.0653701 -2.0326867 -38.320992
4.0653701 -2.710248 -38.320992
4.0653701 -3.3878086 -38.320992
4.0653701 -4.0653701 -38.320992
4.0653701 -4.7429328 -38.320992
4.0653701 -5.4204936 -38.320992
4.0654454 -6.0981684 -38.319473
4.0655966 -6.7759972 -38.316433
4.0658731 -7.4541044 -38.31086
4.0663519 -8.1327066 -38.301235
4.0671201 -8.8120975 -38.285782
4.0682917 -9.4926834 -38.262211
4.0702209 -10.175556 -38.223396
4.0737686 -10.863386 -38.15202
4.0829387 -11.568329 -37.967541
4.8218026 10.332431 -36.960911
4.7690921 9.5381842 -37.869873
4.7568026 8.8340616 -38.081791
4.7511387 8.1448069 -38.179466
4.7477083 7.4606824 -38.238621
4.7456641 6.7795186 -38.273876
4.7443709 6.0999031 -38.296169
4.743607 5.4212637 -38.309341
4.7431812 4.7431798 -38.316681
4.7430048 4.0654297 -38.319725
4.7429318 3.3878069 -38.320992
4.7429318 2.7102482 -38.320992
4.7429318 2.0326829 -38.320992
4.7429318 1.3551205 -38.320992
4.7429318 0.67756188 -38.320992
4.7429318 -3.7713414e-07 -38.320992
4.7429318 -0.67756265 -38.320992
4.7429318 -1.3551223 -38.320992
4.7429318 -2.0326867 -38.320992
4.7429318 -2.710248 -38.320992
4.7429318 -3.3878086 -38.320992
4.7429318 -4.0653701 -38.320992
4.7429318 -4.7429328 -38.320992
4.7429318 -5.4204936 -38.320992
4.7430196 -6.0981684 -38.319473
4.743196 -6.7759972 -38.316433
4.7435188 -7.4541044 -38.31086
4.7440772 -8.1327066 -38.301235
4.7449732 -8.8120975 -38.285782
4.7463403 -9.4926834 -38.262211
4.7485914 -10.175556 -38.223396
4.7527304 -10.863386 -38.15202
4.7634282 -11.568329 -37.967541
5.5106311 10.332431 -36.960911
5.4503908 9.5381842 -37.869873
5.4363461 8.8340616 -38.081791
5.429873 8.1448069 -38.179466
5.4259524 7.4606824 -38.238621
5.4236159 6.7795186 -38.273876
5.4221382 6.0999031 -38.296169
5.4212656 5.4212637 -38.309341
5.4207783 4.7431798 -38.316681
5.420577 4.0654297 -38.319725
5.4204936 3.3878069 -38.320992
5.4204936 2.7102482 -38.320992
5.4204936 2.0326829 -38.320992
5.4204936 1.3551205 -38.320992
5.4204936 0.67756188 -38.320992
5.4204936 -3.7713414e-07 -38.320992
5.4204936 -0.67756265 -38.320992
5.4204936 -1.3551223 -38.320992
5.4204936 -2.0326867 -38.320992
5.4204936 -2.710248 -38.320992
5.4204936 -3.3878086 -38.320992
5.4204936 -4.0653701 -38.320992
5.4204936 -4.7429328 -38.320992
5.4204936 -5.4204936 -38.320992
5.4205942 -6.0981684 -38.319473
5.4207954 -6.7759972 -38.316433
5.4211645 -7.4541044 -38.31086
5.421803 -8.1327066 -38.301235
5.4228263 -8.8120975 -38.285782
5.4243889 -9.4926834 -38.262211
5.4269614 -10.175556 -38.223396
5.4316916 -10.863386 -38.15202
5.4439182 -11.568329 -37.967541
6.1994605 10.332431 -36.960911
6.13169 9.5381842 -37.869873
6.1158895 8.8340616 -38.081791
6.1086068 8.1448069 -38.179466
6.1041961 7.4606824 -38.238621
6.1015677 6.7795186 -38.273876
6.0999055 6.0999031 -38.296169
6.0989232 5.4212637 -38.309341
6.0983758 4.7431798 -38.316681
6.0981493 4.0654297 -38.319725
6.0980549 3.3878069 -38.320992
6.0980549 2.7102482 -38.320992
6.0980549 2.0326829 -38.320992
6.0980549 1.3551205 -38.320992
6.0980549 0.67756188 -38.320992
6.0980549 -3.7713414e-07 -38.320992
6.0980549 -0.67756265 -38.320992
6.0980549 -1.3551223 -38.320992
6.0980549 -2.0326867 -38.320992
6.0980549 -2.710248 -38.320992
6.0980549 -3.3878086 -38.320992
6.0980549 -4.0653701 -38.320992
6.0980549 -4.7429328 -38.320992
6.0980549 -5.4204936 -38.320992
6.0981684 -6.0981684 -38.319473
6.0983949 -6.7759972 -38.316433
6.0988102 -7.4541044 -38.31086
6.0995274 -8.1327066 -38.301235
6.1006804 -8.8120975 -38.285782
6.102438 -9.4926834 -38.262211
6.1053314 -10.175556 -38.223396
6.1106529 -10.863386 -38.15202
6.1244078 -11.568329 -37.967541
6.8882895 10.332431 -36.960911
6.8129888 9.5381842 -37.869873
6.7954321 8.8340616 -38.081791
6.7873406 8.1448069 -38.179466
6.7824402 7.4606824 -38.238621
6.7795205 6.7795186 -38.273876
6.7776728 6.0999031 -38.296169
6.7765818 5.4212637 -38.309341
6.7759733 4.7431798 -38.316681
6.7757215 4.0654297 -38.319725
6.7756166 3.3878069 -38.320992
6.7756166 2.7102482 -38.320992
6.7756166 2.0326829 -38.320992
6.7756166 1.3551205 -38.320992
6.7756166 0.67756188 -38.320992
6.7756166 -3.7713414e-07 -38.320992
6.7756166 -0.67756265 -38.320992
6.7756166 -1.3551223 -38.320992
6.7756166 -2.0326867 -38.320992
6.7756166 -2.710248 -38.320992
6.7756166 -3.3878086 -38.320992
6.7756166 -4.0653701 -38.320992
6.7756166 -4.7429328 -38.320992
6.7756166 -5.4204936 -38.320992
6.775743 -6.0981684 -38.319473
6.7759943 -6.7759972 -38.316433
6.7764554 -7.4541044 -38.31086
6.7772527 -8.1327066 -38.301235
6.7785335 -8.8120975 -38.285782
6.7804866 -9.4926834 -38.262211
6.7837014 -10.175556 -38.223396
6.7896142 -10.863386 -38.15202
6.8048973 -11.568329 -37.967541
7.5771184 10.332431 -36.960911
7.4942875 9.5381842 -37.869873
7.4749756 8.8340616 -38.081791
7.4660749 8.1448069 -38.179466
7.4606843 7.4606824 -38.238621
7.4574723 6.7795186 -38.273876
7.45544 6.0999031 -38.296169
7.4542398 5.4212637 -38.309341
7.4535708 4.7431798 -38.316681
7.4532938 4.0654297 -38.319725
7.4531784 3.3878069 -38.320992
7.4531784 2.7102482 -38.320992
7.4531784 2.0326829 -38.320992
7.4531784 1.3551205 -38.320992
7.4531784 0.67756188 -38.320992
7.4531784 -3.7713414e-07 -38.320992
7.4531784 -0.67756265 -38.320992
7.4531784 -1.3551223 -38.320992
7.4531784 -2.0326867 -38.320992
7.4531784 -2.710248 -38.320992
7.4531784 -3.3878086 -38.320992
7.4531784 -4.0653701 -38.320992
7.4531784 -4.7429328 -38.320992
7.4531784 -5.4204936 -38.320992
7.4533167 -6.0981684 -38.319473
7.4535937 -6.7759972 -38.316433
7.4541011 -7.4541044 -38.31086
7.4549785 -8.1327066 -38.301235
7.456387 -8.8120975 -38.285782
7.4585352 -9.4926834 -38.262211
7.4620714 -10.175556 -38.223396
7.468576 -10.863386 -38.15202
7.4853873 -11.568329 -37.967541
8.2659473 10.332431 -36.960911
8.1755857 9.5381842 -37.869873
8.1545191 8.8340616 -38.081791
8.1448088 8.1448069 -38.179466
8.1389284 7.4606824 -38.238621
8.1354246 6.7795186 -38.273876
8.1332073 6.0999031 -38.296169
8.1318979 5.4212637 -38.309341
8.1311674 4.7431798 -38.316681
8.1308661 4.0654297 -38.319725
8.1307402 3.3878069 -38.320992
8.1307402 2.7102482 -38.320992
8.1307402 2.0326829 -38.320992
8.1307402 1.3551205 -38.320992
8.1307402 0.67756188 -38.320992
8.1307402 -3.7713414e-07 -38.320992
8.1307402 -0.67756265 -38.320992
8.1307402 -1.3551223 -38.320992
8.1307402 -2.0326867 -38.320992
8.1307402 -2.710248 -38.320992
8.1307402 -3.3878086 -38.320992
8.1307402 -4.0653701 -38.320992
8.1307402 -4.7429328 -38.320992
8.1307402 -5.4204936 -38.320992
8.1308661 -6.0981507 -38.319725
8.1311674 -6.7759752 -38.316685
8.1317463 -7.4541044 -38.31086
8.1327038 -8.1327066 -38.301235
8.1342402 -8.8120975 -38.285782
8.1365833 -9.4926834 -38.262211
8.1404419 -10.175556 -38.223396
8.1475372 -10.863386 -38.15202
8.1658773 -11.568329 -37.967541
8.9547758 10.332431 -36.960911
8.856885 9.5381842 -37.869873
8.8340626 8.8340616 -38.081791
8.8235435 8.1448069 -38.179466
8.817173 7.4606824 -38.238621
8.8133764 6.7795186 -38.273876
8.8109741 6.0999031 -38.296169
8.809556 5.4212637 -38.309341
8.8087654 4.7431798 -38.316681
8.8084383 4.0654297 -38.319725
8.8083019 3.3878069 -38.320992
8.8083019 2.7102482 -38.320992
8.8083019 2.0326829 -38.320992
8.8083019 1.3551205 -38.320992
8.8083019 0.67756188 -38.320992
8.8083019 -3.7713414e-07 -38.320992
8.8083019 -0.67756265 -38.320992
8.8083019 -1.3551223 -38.320992
8.8083019 -2.0326867 -38.320992
8.8083019 -2.710248 -38.320992
8.8083019 -3.3878086 -38.320992
8.8083019 -4.0653701 -38.320992
8.8083019 -4.7429328 -38.320992
8.8083019 -5.4204936 -38.320992
8.8084383 -6.0981507 -38.319725
8.8087654 -6.7759752 -38.316685
8.809392 -7.4541044 -38.31086
8.8104286 -8.1327066 -38.301235
8.8120937 -8.8120975 -38.285782
8.8146324 -9.4926834 -38.262211
8.8188124 -10.175556 -38.223396
8.826499 -10.863386 -38.15202
8.8463669 -11.568329 -37.967541
9.6436052 10.332431 -36.960911
9.5381842 9.5381842 -37.869873
9.5136051 8.8340616 -38.081791
9.5022774 8.1448069 -38.179466
9.4954166 7.4606824 -38.238621
9.4913282 6.7795186 -38.273876
9.4887419 6.0999031 -38.296169
9.4872141 5.4212637 -38.309341
9.4863625 4.7431798 -38.316681
9.4860096 4.0654297 -38.319725
9.4858637 3.3878069 -38.320992
9.4858637 2.7102482 -38.320992
9.4858637 2.0326829 -38.320992
9.4858637 1.3551205 -38.320992
9.4858637 0.67756188 -38.320992
9.4858637 -3.7713414e-07 -38.320992
9.4858637 -0.67756265 -38.320992
9.4858637 -1.3551223 -38.320992
9.4858637 -2.0326867 -38.320992
9.4858637 -2.710248 -38.320992
9.4858637 -3.3878086 -38.320992
9.4858637 -4.0653701 -38.320992
9.4858637 -4.7429328 -38.320992
9.4858637 -5.4204936 -38.320992
9.4860096 -6.0981507 -38.319725
9.4863625 -6.7759752 -38.316685
9.4870377 -7.4541044 -38.31086
9.4881544 -8.1327066 -38.301235
9.4899464 -8.8120975 -38.285782
9.4926805 -9.4926834 -38.262211
9.4971828 -10.175556 -38.223396
9.5054607 -10.863386 -38.15202
9.5268564 -11.568329 -37.967541
10.332434 10.332431 -36.960911
10.219482 9.5381842 -37.869873
10.193149 8.8340616 -38.081791
10.181011 8.1448069 -38.179466
10.17366 7.4606824 -38.238621
10.16928 6.7795186 -38.273876
10.16651 6.0999031 -38.296169
10.164873 5.4212637 -38.309341
10.16396 4.7431798 -38.316681
10.163582 4.0654297 -38.319725
10.163425 3.3878069 -38.320992
10.163425 2.7102482 -38.320992
10.163425 2.0326829 -38.320992
10.163425 1.3551205 -38.320992
10.163425 0.67756188 -38.320992
10.163425 -3.7713414e-07 -38.320992
10.163425 -0.67756265 -38.320992
10.163425 -1.3551223 -38.320992
10.163425 -2.0326867 -38.320992
10.163425 -2.710248 -38.320992
10.163425 -3.3878086 -38.320992
10.163425 -4.0653701 -38.320992
10.163425 -4.7429328 -38.320992
10.163425 -5.4204936 -38.320992
10.163614 -6.0981684 -38.319473
10.163992 -6.7759972 -38.316433
10.164684 -7.4541044 -38.31086
10.165879 -8.1327066 -38.301235
10.1678 -8.8120975 -38.285782
10.170729 -9.4926834 -38.262211
10.175552 -10.175556 -38.223396
10.184422 -10.863386 -38.15202
10.207346 -11.568329 -37.967541
11.021262 10.332431 -36.960911
10.900782 9.5381842 -37.869873
10.872692 8.8340616 -38.081791
10.859746 8.1448069 -38.179466
10.851905 7.4606824 -38.238621
10.847232 6.7795186 -38.273876
10.844276 6.0999031 -38.296169
10.842531 5.4212637 -38.309341
10.841557 4.7431798 -38.316681
10.841154 4.0654297 -38.319725
10.840987 3.3878069 -38.320992
10.840987 2.7102482 -38.320992
10.840987 2.0326829 -38.320992
10.840987 1.3551205 -38.320992
10.840987 0.67756188 -38.320992
10.840987 -3.7713414e-07 -38.320992
10.840987 -0.67756265 -38.320992
10.840987 -1.3551223 -38.320992
10.840987 -2.0326867 -38.320992
10.840987 -2.710248 -38.320992
10.840987 -3.3878086 -38.320992
10.840987 -4.0653701 -38.320992
10.840987 -4.7429328 -38.320992
10.840987 -5.4204936 -38.320992
10.841188 -6.0981684 -38.319473
10.841591 -6.7759972 -38.316433
10.842329 -7.4541044 -38.31086
10.843606 -8.1327066 -38.301235
10.845653 -8.8120975 -38.285782
10.848778 -9.4926834 -38.262211
10.853923 -10.175556 -38.223396
10.863383 -10.863386 -38.15202
10.887836 -11.568329 -37.967541
11.710092 10.332431 -36.960911
11.58208 9.5381842 -37.869873
11.552236 8.8340616 -38.081791
11.53848 8.1448069 -38.179466
11.530149 7.4606824 -38.238621
11.525185 6.7795186 -38.273876
11.522044 6.0999031 -38.296169
11.520188 5.4212637 -38.309341
11.519155 4.7431798 -38.316681
11.518726 4.0654297 -38.319725
11.518548 3.3878069 -38.320992
11.518548 2.7102482 -38.320992
11.518548 2.0326829 -38.320992
11.518548 1.3551205 -38.320992
11.518548 0.67756188 -38.320992
11.518548 -3.7713414e-07 -38.320992
11.518548 -0.67756265 -38.320992
11.518548 -1.3551223 -38.320992
11.518548 -2.0326867 -38.320992
11.518548 -2.710248 -38.320992
11.518548 -3.3878086 -38.320992
11.518548 -4.0653701 -38.320992
11.518548 -4.7429328 -38.320992
11.518548 -5.4204936 -38.320992
11.518762 -6.0981684 -38.319473
11.51919 -6.7759972 -38.316433
11.519975 -7.4541044 -38.31086
11.52133 -8.1327066 -38.301235
11.523507 -8.8120975 -38.285782
11.526826 -9.4926834 -38.262211
11.532292 -10.175556 -38.223396
11.542344 -10.863386 -38.15202
11.568325 -11.568329 -37.967541
12.398882 10.332399 -36.961174
12.263417 9.5382137 -37.869617
12.231893 8.8341436 -38.081032
12.21729 8.1448603 -38.178963
12.20843 7.4607086 -38.238369
12.203175 6.7795405 -38.273613
12.199887 6.0999436 -38.295666
12.197886 5.4212828 -38.30909
12.196827 4.7432098 -38.316177
12.196337 4.0654464 -38.319473
12.196185 3.3878264 -38.320484
12.196148 2.7102561 -38.320736
12.196148 2.0326905 -38.320736
12.196148 1.3551251 -38.320736
12.196148 0.67756277 -38.320736
12.196148 -7.3375736e-07 -38.32074
12.196148 -0.67756498 -38.320736
12.196148 -1.3551306 -38.320736
12.196148 -2.0326912 -38.320736
12.196148 -2.7102556 -38.320736
12.196148 -3.3878202 -38.32074
12.196148 -4.0653844 -38.320736
12.196148 -4.7429471 -38.320736
12.196148 -5.4205112 -38.320736
12.196337 -6.0981684 -38.319473
12.19679 -6.7759972 -38.316433
12.197658 -7.4541254 -38.310608
12.199094 -8.1327295 -38.300983
12.201398 -8.8121233 -38.28553
12.204876 -9.4926834 -38.262211
12.2107 -10.175585 -38.223145
12.221345 -10.86342 -38.151768
12.248816 -11.568329 -37.967541
13.087667 10.332368 -36.961433
12.944799 9.5382719 -37.869106
12.911563 8.8342285 -38.080265
12.896148 8.1449337 -38.1782
12.886836 7.4607978 -38.237354
12.881328 6.7796454 -38.272346
12.877818 6.1000175 -38.294651
12.875705 5.4213467 -38.308075
12.874628 4.7432842 -38.314915
12.874071 4.0654941 -38.318462
12.873871 3.3878589 -38.319725
12.873911 2.7102964 -38.319473
12.873871 2.0327158 -38.319725
12.873911 1.355148 -38.319473
12.873911 0.67757559 -38.319473
12.873871 -1.6868141e-06 -38.319721
12.873871 -0.67757243 -38.319721
12.873871 -1.3551438 -38.319725
12.873871 -2.0327194 -38.319729
12.873871 -2.7102921 -38.319725
12.873871 -3.3878646 -38.319725
12.873871 -4.0654354 -38.319725
12.873871 -4.7430077 -38.319725
12.873911 -5.4205947 -38.319469
12.874071 -6.0982475 -38.318455
12.874588 -6.7761002 -38.315166
12.875505 -7.4542418 -38.309341
12.876981 -8.1328306 -38.299973
12.879413 -8.812232 -38.284512
12.883084 -9.4927998 -38.261196
12.889193 -10.175681 -38.222382
12.900428 -10.863521 -38.151005
12.929386 -11.568398 -37.96703
13.10598 -12.416194 -36.845089
13.776492 10.332368 -36.961433
13.626316 9.5384178 -37.867821
13.591456 8.834446 -38.078224
13.575356 8.1452141 -38.175404
13.565554 7.4610538 -38.234562
13.559754 6.7798777 -38.269562
13.556102 6.1002455 -38.291611
13.553919 5.4215698 -38.304787
13.552702 4.7434444 -38.312126
13.552114 4.0656366 -38.315674
13.551947 3.3879821 -38.316685
13.551905 2.7103794 -38.316936
13.551905 2.0327885 -38.31694
13.551905 1.3551886 -38.31694
13.551905 0.67759359 -38.316936
13.551905 -1.0348047e-06 -38.316936
13.551863 -0.67759651 -38.317196
13.551863 -1.3551856 -38.317192
13.551863 -2.0327792 -38.317192
13.551905 -2.7103825 -38.316936
13.551863 -3.3879652 -38.317192
13.551863 -4.0655608 -38.317192
13.551905 -4.7431674 -38.316936
13.551947 -5.4207807 -38.316685
13.552114 -6.098455 -38.31567
13.552618 -6.7763114 -38.312634
13.553583 -7.4544721 -38.306812
13.555136 -8.1330843 -38.297436
13.557655 -8.8124743 -38.282238
13.561561 -9.4930944 -38.258659
13.568244 -10.176185 -38.218323
13.579692 -10.863753 -38.149223
13.610133 -11.568615 -37.9655
13.746943 -12.37225 -37.139774
14.482134 10.34438 -36.864765
14.308167 9.5387754 -37.86475
14.271782 8.8349104 -38.073898
14.254874 8.1456404 -38.171085
14.24467 7.4614911 -38.229744
14.238581 6.7802753 -38.264744
14.234744 6.1006045 -38.2868
14.232408 5.4218678 -38.300224
14.231174 4.7437243 -38.307312
14.230557 4.0658722 -38.31086
14.230293 3.3881629 -38.312378
14.230248 2.7105224 -38.312634
14.230248 2.0328882 -38.312634
14.230205 1.3552567 -38.312889
14.230205 0.67762768 -38.312889
14.230205 3.1302977e-07 -38.312889
14.230205 -0.67763227 -38.312885
14.230205 -1.3552576 -38.312885
14.230205 -2.032886 -38.312885
14.230205 -2.7105172 -38.312889
14.230205 -3.3881457 -38.312885
14.230205 -4.0657759 -38.312889
14.230205 -4.7434044 -38.312885
14.230248 -5.4210482 -38.312634
14.23047 -6.0987744 -38.311367
14.230997 -6.7766671 -38.308327
14.232011 -7.454864 -38.302502
14.233598 -8.1334887 -38.293381
14.236243 -8.8129139 -38.278179
14.240345 -9.4935656 -38.254601
14.247363 -10.176689 -38.21426
14.259253 -10.864194 -38.14592
14.291039 -11.568938 -37.9632
14.43429 -12.37225 -37.139774
15.183385 10.352307 -36.800987
14.990115 9.5391617 -37.86142
14.952319 8.8354616 -38.068798
14.934976 8.146349 -38.163967
14.924283 7.4621401 -38.222637
14.917902 6.7808642 -38.257645
14.913928 6.1011534 -38.279446
14.911435 5.422339 -38.293129
14.910142 4.7441368 -38.300224
14.90945 4.0662117 -38.304028
14.909171 3.3884473 -38.305546
14.909125 2.7107484 -38.305794
14.909125 2.0330632 -38.305798
14.909081 1.3553694 -38.306049
14.909033 0.67768139 -38.306305
14.909033 -5.7547857e-07 -38.306305
14.909033 -0.67768455 -38.306301
14.909033 -1.3553685 -38.306301
14.908987 -2.0330465 -38.306557
14.908987 -2.7107275 -38.306557
14.909033 -3.3884192 -38.306301
14.909033 -4.0661001 -38.306305
14.909033 -4.7437854 -38.306301
14.909081 -5.4214845 -38.306049
14.909265 -6.0992441 -38.305038
14.909818 -6.7771907 -38.301998
14.91088 -7.4554429 -38.296173
14.912542 -8.1341152 -38.287048
14.915268 -8.8135681 -38.272099
14.919519 -9.4942408 -38.248768
14.926873 -10.177413 -38.208424
14.939145 -10.864835 -38.141087
14.972124 -11.56937 -37.960133
15.121638 -12.37225 -37.139774
15.91187 10.377304 -36.599808
15.672751 9.5399351 -37.854763
15.633863 8.8365316 -38.058865
15.615678 8.1473103 -38.154308
15.604593 7.4630671 -38.212482
15.59826 6.7818508 -38.245724
15.594056 6.1020207 -38.267788
15.591593 5.4231629 -38.280716
15.590144 4.7448277 -38.288319
15.589372 4.0667934 -38.29237
15.589082 3.3889298 -38.293892
15.589082 2.711143 -38.293892
15.588937 2.0333393 -38.294647
15.588937 1.3555578 -38.294647
15.588937 0.67777836 -38.294651
15.58884 -3.5596281e-07 -38.295155
15.58884 -0.67777693 -38.295155
15.58884 -1.3555532 -38.295155
15.58884 -2.0333292 -38.295155
15.58884 -2.7111049 -38.295155
15.588793 -3.3888698 -38.295414
15.58884 -4.0666537 -38.295158
15.58884 -4.7444296 -38.295158
15.58884 -5.4222054 -38.295158
15.589082 -6.1000781 -38.293888
15.589662 -6.7781148 -38.290848
15.590724 -7.4564338 -38.285278
15.592462 -8.1352005 -38.27615
15.595263 -8.8147173 -38.261448
15.599565 -9.4953871 -38.238876
15.607109 -10.178551 -38.199284
15.619651 -10.865847 -38.133457
15.656326 -11.572069 -37.940975
15.808986 -12.37225 -37.139774
16.35774 9.5420122 -37.836834
16.316891 8.8383141 -38.042294
16.298058 8.1490269 -38.13702
16.286638 7.4647079 -38.194454
16.279976 6.7833204 -38.227962
16.275688 6.1033792 -38.249527
16.273016 5.4243393 -38.26297
16.271503 4.7458539 -38.27058
16.270647 4.0676613 -38.274887
16.270243 3.3896306 -38.276913
16.270193 2.7116973 -38.277164
16.270042 2.0337515 -38.277927
16.269941 1.3558257 -38.278435
16.269892 0.67790955 -38.278687
16.26984 -1.3641571e-06 -38.278942
16.26984 -0.6779114 -38.278938
16.26984 -1.3558204 -38.278938
16.26984 -2.0337336 -38.278942
16.26984 -2.7116411 -38.278938
16.269791 -3.3895419 -38.279194
16.269791 -4.067451 -38.279194
16.269791 -4.7453566 -38.27919
16.26984 -5.4232812 -38.278942
16.270092 -6.1012893 -38.277672
16.270699 -6.779458 -38.274632
16.271706 -7.4578662 -38.269562
16.27352 -8.1367626 -38.260433
16.276293 -8.8163271 -38.246487
16.280682 -9.4970665 -38.224411
16.288254 -10.180159 -38.186329
16.301245 -10.867496 -38.120995
16.339476 -11.573795 -37.928707
16.496332 -12.37225 -37.139774
17.042763 9.5439472 -37.820179
17.001936 8.8410082 -38.017311
16.982098 8.1514063 -38.113106
16.970562 7.4670448 -38.168797
16.963722 6.7854872 -38.20182
16.959202 6.1053123 -38.223652
16.956469 5.4260697 -38.236843
16.954788 4.7473416 -38.244965
16.953896 4.0689316 -38.249275
16.953369 3.3906696 -38.251812
16.953054 2.7124875 -38.25333
16.953054 2.0343637 -38.253334
