# .PCD v0.7 - Point Cloud Data file format
VERSION 0.7
FIELDS x y z
SIZE 4 4 4
TYPE F F F
COUNT 1 1 1
WIDTH 1535
HEIGHT 1
VIEWPOINT 0 0 0 1 0 0 0
POINTS 1535
DATA ascii
2.6613264e-23 -10.340891 -16.088604
-4.7594818e-24 -11.119759 -16.858128
-1.004503e-23 -11.886951 -17.61834
-2.5298275e-23 -12.643617 -18.361946
-4.1604991e-23 -13.390608 -19.085573
-2.6943576e-24 -14.123998 -19.820677
2.3473266e-24 -14.849306 -20.528276
1.6339203e-24 -15.569754 -21.192278
-1.36272e-23 -16.282352 -21.837244
-3.3348035e-23 -16.979816 -22.507763
-1.0773076e-23 -17.676977 -23.119013
9.1197622e-24 -18.378267 -23.655441
-1.3265378e-23 -19.109236 -23.997896
9.8968107e-24 -19.861742 -24.208956
-2.8300811e-24 -20.623796 -24.359444
-2.0488335e-23 -21.388649 -24.48628
-4.7778891e-24 -22.15757 -24.586535
3.4426079e-24 -22.925451 -24.684172
-1.3603595e-23 -23.701517 -24.742386
-1.709075e-23 -24.48167 -24.780924
-7.2101469e-24 -25.266571 -24.799147
-1.7567746e-23 -26.061979 -24.777828
-1.421953e-23 -26.882095 -24.67004
-4.1691504e-24 -27.943872 -23.734961
-1.2518082e-23 -28.863344 -23.328983
-3.7921976e-23 -29.608164 -23.514746
-3.7298606e-25 -30.382835 -23.5959
-2.9558091e-23 -31.173504 -23.623392
4.1760143e-24 -31.968155 -23.637478
3.6593889e-24 -32.766762 -23.639244
1.0356469e-23 -33.568893 -23.630787
1.4373986e-23 -34.378197 -23.602596
-4.9638331e-24 -35.203659 -23.531338
5.2252151e-24 -36.040104 -23.433798
-3.312131e-23 -37.191139 -22.514975
1.0260142 36.936508 3.7409477
1.0230935 35.808273 3.3883908
1.0215034 34.731117 3.1964641
1.0200136 33.660442 3.0166063
1.0189782 32.607307 2.8916402
1.0182815 31.566727 2.8075268
1.0182436 30.54731 2.802954
1.0183098 29.530989 2.8109632
1.0192108 28.537901 2.9197121
1.0209651 27.566063 3.131469
1.0271746 26.706539 3.8810246
1.0227779 25.569448 3.3503046
1.0193533 24.464474 2.9369006
1.01673 23.384787 2.6202524
1.0145198 22.319435 2.3534548
1.012455 21.261551 2.1042082
1.0106645 20.213285 1.8880707
1.0090244 19.171465 1.6901076
1.0074083 18.133352 1.4950217
1.0060238 17.102406 1.3279011
1.0050261 16.08042 1.2074544
1.0041316 15.061977 1.099483
1.0037585 14.052619 1.0544617
1.0037264 13.048442 1.0505681
1.004325 12.0519 1.1228412
1.0060886 11.066975 1.3357131
1.0091314 10.091314 1.703024
1.017472 9.1572495 2.7098179
1.008448 8.067585 1.6205201
1.000021 7.0001469 0.60329801
0.99224174 5.9534507 -0.3357465
0.98374176 4.9187088 -1.3617821
0.97589934 3.9035943 -2.3084424
0.96879381 2.9063809 -3.166157
0.96523929 1.9304771 -3.5952287
0.95383179 0.95383042 -4.9722414
0.94322288 8.1590684e-07 -6.2528462
0.93469179 -0.93469274 -7.2826376
0.92598838 -1.8519791 -8.3332291
0.91763788 -2.7529123 -9.3412294
0.90973526 -3.638941 -10.295162
0.90198988 -4.5099535 -11.230103
0.89484698 -5.369082 -12.092331
0.88738078 -6.2116647 -12.993581
0.88019735 -7.0415792 -13.860694
0.87339419 -7.8605494 -14.681915
0.86635226 -8.6635246 -15.531949
0.86009502 -9.4610453 -16.287268
0.85363114 -10.243578 -17.06752
0.84729975 -11.014903 -17.831785
0.84108424 -11.77518 -18.582073
0.83523643 -12.52855 -19.28796
0.82942539 -13.270807 -19.989416
0.82372254 -14.003285 -20.677811
0.81816792 -14.727024 -21.348312
0.81266958 -15.440722 -22.012024
0.80761999 -16.152401 -22.621565
0.80348426 -16.873173 -23.120787
0.80073005 -17.616062 -23.453253
0.7990725 -18.378672 -23.65333
0.79784042 -19.148172 -23.802053
0.79677171 -19.919294 -23.931067
0.79586488 -20.69249 -24.040529
0.79513049 -21.468525 -24.129177
0.79456192 -22.247732 -24.197821
0.79422456 -23.032515 -24.238535
0.7940833 -23.822502 -24.255575
0.79410642 -24.6173 -24.252794
0.79439461 -25.420628 -24.218006
0.79531252 -26.245314 -24.107206
0.79667598 -27.086981 -23.942625
0.80020308 -28.007109 -23.516859
0.81054491 -29.179621 -22.268488
0.80544448 -29.801449 -22.884161
0.80471015 -30.578987 -22.972813
0.80441439 -31.372166 -23.008511
0.80422819 -32.169128 -23.030989
0.80417204 -32.971054 -23.037766
0.80413371 -33.773617 -23.042397
0.8042134 -34.581181 -23.03277
0.8046273 -35.403606 -22.982809
0.80515116 -36.231808 -22.919565
0.8075127 -37.145588 -22.634508
2.0617607 36.080807 4.3283415
2.0567043 34.963978 4.0231638
2.0537999 33.887691 3.847862
2.0518649 32.829838 3.731081
2.0508459 31.788109 3.6695731
2.0505288 30.757935 3.6504505
2.052038 29.754551 3.7415254
2.0609841 28.853777 4.2814751
2.0586095 27.791227 4.138155
2.0518456 26.67399 3.7299173
2.0469141 25.586426 3.4322793
2.0422254 24.506702 3.1492958
2.0381179 23.438353 2.9013808
2.0341592 22.375751 2.662447
2.0306962 21.322306 2.4534392
2.0274701 20.2747 2.2587306
2.0246663 19.234331 2.0895047
2.0224028 18.201626 1.9528892
2.0204985 17.17424 1.8379555
2.0194175 16.155338 1.7727021
2.0192404 15.1443 1.762019
2.0205078 14.143551 1.8385222
2.023057 13.149869 1.9923768
2.0291712 12.175028 2.3613966
2.0472109 11.25966 3.4501898
2.0283062 10.141533 2.3091934
2.0102458 9.0461063 1.2191589
1.9929578 7.9718332 0.17573234
1.9769018 6.9191594 -0.79334682
1.9607068 5.8821216 -1.7707918
1.9448185 4.8620467 -2.7297432
1.9303168 3.8606317 -3.6049953
1.9168017 2.8752003 -4.4207029
1.9085284 1.9085319 -4.9200397
1.8859825 0.94299346 -6.280808
1.8653291 1.1820284e-06 -7.527349
1.8490667 -0.92453367 -8.5088644
1.8319424 -1.8319438 -9.5424061
1.8168277 -2.7252438 -10.454676
1.8009813 -3.6019633 -11.411075
1.7865824 -4.4664578 -12.280128
1.7722611 -5.316782 -13.144496
1.7575536 -6.1514387 -14.032173
1.7432824 -6.9731307 -14.893521
1.7294939 -7.7827244 -15.72572
1.7166687 -8.5833435 -16.499792
1.7040458 -9.3722525 -17.261662
1.6917573 -10.150546 -18.003332
1.6794838 -10.916644 -18.744108
1.6677682 -11.674375 -19.45121
1.656171 -12.421283 -20.151159
1.6449565 -13.159652 -20.828012
1.6336185 -13.885758 -21.512325
1.6233803 -14.610425 -22.130249
1.6156036 -15.348237 -22.599615
1.6107409 -16.107412 -22.893106
1.6074641 -16.878374 -23.090878
1.6049713 -17.654686 -23.241337
1.6030962 -18.435606 -23.354502
1.6012316 -19.214783 -23.467041
1.5997746 -19.997187 -23.554983
1.5986937 -20.78302 -23.620216
1.5978826 -21.571415 -23.669178
1.5978301 -22.369623 -23.672342
1.5978884 -23.169384 -23.668819
1.5984484 -23.97673 -23.635017
1.5998271 -24.797321 -23.551809
1.6018468 -25.629549 -23.429913
1.6046711 -26.477076 -23.259451
1.6098998 -27.368294 -22.943876
1.6365438 -28.639517 -21.335764
1.6407025 -29.532648 -21.084764
1.6233743 -30.032427 -22.13061
1.6199381 -30.77883 -22.338005
1.6191411 -31.573254 -22.386105
1.6183749 -32.3675 -22.43235
1.6181476 -33.172028 -22.446062
1.6180758 -33.979599 -22.450399
1.6182494 -34.792362 -22.43993
1.6188958 -35.615707 -22.400919
1.6197103 -36.443481 -22.351757
1.6217985 -37.301369 -22.225712
3.1246195 36.453899 5.6150632
3.1080992 35.225128 4.9503398
3.1016834 34.118515 4.6921854
3.098098 33.046383 4.5479302
3.0959508 31.991493 4.4615264
3.0949149 30.949144 4.4198408
3.0944335 29.912863 4.4004745
3.094769 28.88451 4.4139705
3.0893235 27.803905 4.1948624
3.0835643 26.724226 3.9631183
3.077451 25.645424 3.7171524
3.0718937 24.575153 3.49354
3.0660989 23.50676 3.2603726
3.0608394 22.44615 3.0487447
3.0566647 21.396656 2.8807662
3.0523736 20.349161 2.7081075
3.0496233 19.314283 2.5974488
3.047755 18.286533 2.5222678
3.0473306 17.268211 2.5051959
3.0489011 16.260805 2.5683932
3.0535514 15.267756 2.7555115
3.0614245 14.286645 3.0722919
3.0881176 13.381842 4.1463399
3.0604258 12.241698 3.0321009
3.0317554 11.116436 1.8784952
3.0050743 10.016915 0.80493212
2.9787641 8.9362965 -0.25370491
2.9538672 7.876977 -1.255481
2.9308343 6.8386116 -2.1822491
2.9075398 5.8150797 -3.1195567
2.8853602 4.8089294 -4.0119815
2.8636792 3.8182399 -4.8843675
2.8428502 2.8428507 -5.7224479
2.8320241 1.8880177 -6.1580725
2.7971354 0.93237883 -7.5618815
2.769237 2.0548416e-07 -8.6844225
2.7444453 -0.91481549 -9.6819668
2.7195415 -1.8130267 -10.684025
2.6969674 -2.6969693 -11.592332
2.6746016 -3.5661352 -12.492267
2.6528604 -4.4214387 -13.367049
2.6317024 -5.2634039 -14.218394
2.6104743 -6.0911074 -15.072544
2.5905156 -6.9080429 -15.875624
2.5706282 -7.711885 -16.675833
2.5514305 -8.5047722 -17.448282
2.5328887 -9.2872591 -18.194353
2.5149031 -10.059614 -18.918032
2.4968674 -10.819761 -19.64373
2.4798844 -11.572794 -20.327074
2.4629645 -12.314824 -21.007877
2.4484906 -13.058622 -21.590263
2.4369955 -13.809645 -22.052797
2.4297633 -14.578582 -22.343794
2.4251506 -15.359289 -22.52939
2.4216893 -16.144596 -22.668661
2.4188972 -16.932278 -22.781017
2.4165382 -17.721277 -22.875937
2.4145212 -18.51133 -22.957094
2.4129062 -19.303249 -23.022072
2.4120555 -20.100464 -23.056303
2.4114618 -20.899338 -23.080183
2.4115505 -21.703955 -23.076626
2.4126048 -22.517645 -23.034197
2.4148762 -23.343805 -22.942802
2.4175613 -24.175615 -22.834761
2.4229763 -25.037424 -22.616882
2.4694114 -26.340387 -20.748484
2.4695692 -27.165262 -20.742132
2.4693091 -27.985504 -20.752592
2.4690769 -28.805901 -20.761934
2.4714 -29.656805 -20.668451
2.4683714 -30.443251 -20.790316
2.4469304 -30.994452 -21.653044
2.4437249 -31.768425 -21.782021
2.4428432 -32.571243 -21.817507
2.4423707 -33.379066 -21.836514
2.4424796 -34.194714 -21.832129
2.4427977 -35.013432 -21.819334
2.443634 -35.83997 -21.785683
2.444571 -36.668568 -21.747976
2.4462285 -37.508839 -21.68129
2.4549718 -38.461227 -21.329479
4.180223 35.531891 6.0394678
4.1625152 34.340748 5.5050807
4.1563101 33.250481 5.3178372
4.1520133 32.178108 5.1881642
4.147234 31.104256 5.0439401
4.1430931 30.037426 4.9189744
4.1379042 28.965324 4.7623796
4.1316748 27.888802 4.5743961
4.1243954 26.808569 4.3547235
4.1171803 25.732382 4.1369882
4.1103573 24.662144 3.9310851
4.103518 23.59523 3.7246981
4.0974302 22.535868 3.5409756
4.0929289 21.487877 3.4051304
4.0895834 20.447912 3.3041711
4.0883036 19.419443 3.2655566
4.0895448 18.402952 3.3030124
4.0950537 17.403975 3.4692633
4.106617 16.426468 3.8182082
4.1369462 15.513547 4.7334723
4.1046724 14.366355 3.7595289
4.0674491 13.219208 2.6362169
4.0299668 12.089903 1.505095
3.9942443 10.984172 0.42706436
3.9601882 9.9004707 -0.60067117
3.9262674 8.8340998 -1.6243175
3.8944466 7.7888927 -2.5845885
3.8634107 6.7609644 -3.5211928
3.8320432 5.7480664 -4.4677963
3.8037405 4.7546754 -5.3219023
3.7759995 3.7759993 -6.1590567
3.7488849 2.8116605 -6.9773088
3.7347004 1.8673525 -7.4053688
3.6895621 0.9223901 -8.7675343
3.6530006 -2.4616604e-06 -9.8708715
3.6190705 -0.9047721 -10.894803
3.5894845 -1.7947456 -11.787647
3.5596251 -2.6697218 -12.688724
3.5308709 -3.530874 -13.556462
3.5025494 -4.3781915 -14.411137
3.4737687 -5.2106538 -15.279671
3.4478862 -6.0338054 -16.060751
3.4218512 -6.8437042 -16.846428
3.3959429 -7.6408696 -17.628275
3.3708913 -8.427227 -18.384275
3.3465903 -9.2031231 -19.117622
3.3236716 -9.9710159 -19.809258
3.301774 -10.730768 -20.47007
3.2813926 -11.484875 -21.085135
3.2675419 -12.253284 -21.50312
3.2585425 -13.034172 -21.7747
3.2528162 -13.824471 -21.94751
3.2482662 -14.617199 -22.084812
3.2442341 -15.410114 -22.206493
3.2410636 -16.20532 -22.302172
3.2386537 -17.002935 -22.374895
3.236702 -17.801865 -22.433786
3.2354102 -18.603615 -22.472773
3.2348244 -19.408949 -22.49045
3.236032 -20.225203 -22.45401
3.2368577 -21.039576 -22.429096
3.2405236 -21.873537 -22.318464
3.2452202 -22.716543 -22.176737
3.2521274 -23.577925 -21.968294
3.3130438 -24.847832 -20.129971
3.3124671 -25.671621 -20.147377
3.3127682 -26.502148 -20.138296
3.3131316 -27.333338 -20.127327
3.3125675 -28.156826 -20.14435
3.3128183 -28.987164 -20.136786
3.3137085 -29.823376 -20.109919
3.3196135 -30.706429 -19.931709
3.2900615 -31.255587 -20.823532
3.2809377 -31.989145 -21.098864
3.2785788 -32.785789 -21.17005
3.2774496 -33.593861 -21.204126
3.2778914 -34.417862 -21.1908
3.2784805 -35.243668 -21.173018
3.2794139 -36.073559 -21.14485
3.2810237 -36.911518 -21.096268
3.2850986 -37.778637 -20.973291
5.4115701 36.798683 10.536942
5.251153 34.657604 6.6641254
5.2498679 33.599159 6.6331139
5.3038068 32.883602 7.9352961
5.2242064 31.34524 6.0135713
5.2069063 30.200064 5.5959229
5.1950669 29.092379 5.3100929
5.185123 27.999668 5.0700293
5.1760006 26.915209 4.8497863
5.1673002 25.836506 4.6397438
5.1591401 24.763874 4.4427333
5.1517811 23.698191 4.2650795
5.1466932 22.645451 4.1422553
5.1442261 21.605753 4.0826759
5.1450238 20.580099 4.1019449
5.1511259 19.574284 4.24927
5.1648617 18.5935 4.5808744
5.2014127 17.684801 5.463294
5.1643252 16.525845 4.5679288
5.114583 15.343746 3.3670373
5.0678773 14.190055 2.2394698
5.0235386 13.061203 1.1690319
4.9765267 11.943662 0.034068909
4.9348111 10.856586 -0.97304446
4.893373 9.7867441 -1.9734448
4.8528619 8.7351513 -2.9514778
4.8147306 7.7035675 -3.8720348
4.7758813 6.6862316 -4.8099489
4.7367921 5.6841516 -5.7536407
4.7028198 4.7028179 -6.5738006
4.6670814 3.7336624 -7.4366074
4.6335292 2.7801182 -8.2466335
4.6189017 1.8475621 -8.5997772
4.5623865 0.91247791 -9.9641685
4.5177875 -4.3870277e-06 -11.040878
4.478446 -0.8956877 -11.990669
4.4403782 -1.7761512 -12.909703
4.405026 -2.643019 -13.763186
4.3695517 -3.4956405 -14.619616
4.3331332 -4.3331337 -15.498828
4.3014727 -5.1617665 -16.263191
4.2699208 -5.9778886 -17.024908
4.2377291 -6.7803679 -17.802084
4.2072806 -7.5731096 -18.53718
4.177856 -8.3557119 -19.247549
4.1493282 -9.128521 -19.936272
4.124589 -9.8990154 -20.533535
4.1079302 -10.680621 -20.935711
4.0975943 -11.473269 -21.18524
4.0905948 -12.271784 -21.354221
4.0845947 -13.070705 -21.499071
4.0801787 -13.872605 -21.605692
4.0759845 -14.673547 -21.706944
4.0725565 -15.475714 -21.789709
4.0704813 -16.281925 -21.839806
4.0689678 -17.089666 -21.876339
4.0691342 -17.904196 -21.872322
4.0696945 -18.720592 -21.858809
4.0726323 -19.548635 -21.787876
4.0772753 -20.386375 -21.675787
4.0827966 -21.230547 -21.54248
4.0921092 -22.097393 -21.317663
4.1673722 -23.337282 -19.500656
4.1669755 -24.168461 -19.510227
4.1670709 -25.002428 -19.507927
4.1672454 -25.836922 -19.503714
4.1665154 -26.665703 -19.521338
4.1668329 -27.501101 -19.513676
4.1666584 -28.333282 -19.517887
4.1672454 -29.170719 -19.503717
4.16715 -30.003483 -19.506016
4.1699128 -30.857357 -19.439318
4.1933517 -31.869476 -18.87344
4.1302395 -32.21587 -20.397116
4.1254439 -33.003551 -20.512894
4.1244955 -33.820866 -20.535788
4.125102 -34.65086 -20.521147
4.1262527 -35.485779 -20.493361
4.130723 -36.350357 -20.385456
6.4866996 37.839077 10.392393
6.3928857 36.226349 8.5050058
6.3327112 34.829914 7.2943964
6.2954326 33.575642 6.544404
6.3106794 32.605179 6.8511486
6.3655243 31.827621 7.9545364
6.2957044 30.429241 6.5498724
6.2673721 29.247736 5.9798617
6.252542 28.136436 5.6815128
6.2401829 27.040791 5.4328599
6.2305017 25.960423 5.2380981
6.2238283 24.895315 5.1038451
6.2182293 23.836542 4.9911957
6.2185826 22.801464 4.9983068
6.2245073 21.785772 5.1174932
6.2373376 20.791121 5.3756213
6.279119 19.883877 6.2161922
6.2399454 18.719841 5.4280872
6.1789083 17.506908 4.2001276
6.1220212 16.325388 3.0556383
6.0631471 15.157868 1.8711712
6.0086641 14.020217 0.77505779
5.9572315 12.907332 -0.25968018
5.9030075 11.806016 -1.3505746
5.8544044 10.733072 -2.3283956
5.8061585 9.6769304 -3.2990327
5.758575 8.6378584 -4.2563396
5.7138028 7.618402 -5.1570868
5.6685953 6.6133614 -6.0665917
5.6253991 5.625401 -6.9356356
5.5826659 4.6522202 -7.7953577
5.5405302 3.6936851 -8.6430502
5.5009379 2.7504647 -9.4395885
5.4838943 1.8279648 -9.7824907
5.415555 0.90259343 -11.157374
5.3650899 -2.1987219e-06 -12.172647
5.3190012 -0.88650477 -13.099871
5.2736349 -1.7578822 -14.012583
5.2327023 -2.6163514 -14.83608
5.1907167 -3.4604824 -15.680753
5.1510973 -4.2925835 -16.477846
5.1145658 -5.1145673 -17.212797
5.0760374 -5.9220438 -17.98794
5.0393791 -6.7191749 -18.725439
5.0068145 -7.5102258 -19.380594
4.977005 -8.2950096 -19.98031
4.9579339 -9.0895452 -20.363995
4.9465237 -9.8930521 -20.59354
4.9383392 -10.699738 -20.758196
4.9315524 -11.506961 -20.894745
4.9253378 -12.313346 -21.019773
4.9216466 -13.124389 -21.094044
4.9176288 -13.933281 -21.174873
4.9145737 -14.743727 -21.236328
4.9131031 -15.558162 -21.265919
4.9133234 -16.377747 -21.261484
4.9146476 -17.201265 -21.23485
4.918273 -18.033669 -21.161901
4.9250426 -18.879332 -21.025719
4.9317565 -19.727026 -20.89065
4.9448657 -20.603607 -20.626896
5.0317721 -21.804348 -18.878483
5.0321188 -22.644535 -18.87151
5.0305963 -23.476118 -18.902142
5.030519 -24.314175 -18.903694
5.0309238 -25.154615 -18.895552
5.0318489 -25.997887 -18.876934
5.031579 -26.835093 -18.882362
5.0316372 -27.674004 -18.881199
5.0311165 -28.509663 -18.891674
5.0312128 -29.348742 -18.889732
5.0318294 -30.190977 -18.877325
5.0330062 -31.036873 -18.853653
5.0052495 -32.534126 -19.412073
4.9858103 -33.238735 -19.803165
4.9851861 -34.065437 -19.815731
4.9990764 -34.993534 -19.536266
7.4430041 37.215019 8.2400932
7.3532724 35.715889 6.6927204
7.2908831 34.371304 5.6168637
7.2647829 33.210434 5.1667747
7.3002625 32.329735 5.7786059
7.3728399 31.597887 7.030158
7.4602547 30.906767 8.5375681
7.3638043 29.455215 6.874331
7.3366532 28.298519 6.4061317
7.3220677 27.196251 6.1546102
7.3151808 26.12565 6.0358543
7.3093529 25.060638 5.9353499
7.3130507 24.028599 5.999125
7.3267589 23.026957 6.2355194
7.3705344 22.111603 6.9904046
7.3324399 20.949827 6.3334751
7.2585878 19.701885 5.0599451
7.1893444 18.486885 3.8658972
7.1213112 17.294613 2.6926918
7.0553651 16.126551 1.5554937
6.9909477 14.980605 0.44466394
6.9276652 13.85533 -0.64660329
6.8708138 12.760085 -1.6269748
6.8076506 11.67026 -2.7161841
6.753726 10.613 -3.6460781
6.6971641 9.5673761 -4.621459
6.6452861 8.5439386 -5.5160594
6.5958238 7.5380807 -6.369009
6.5435691 6.5435696 -7.2701082
6.4932637 5.5656557 -8.1375885
6.4431033 4.6022148 -9.0025816
6.3944321 3.6539617 -9.8418875
6.3498044 2.7213418 -10.61146
6.3311229 1.8088913 -10.933619
6.251533 0.89307207 -12.306087
6.1930604 -8.1471444e-07 -13.314415
6.1422148 -0.87745595 -14.191224
6.0918088 -1.7405206 -15.060431
6.0448937 -2.5906727 -15.869453
5.999166 -3.4280963 -16.658009
5.9555593 -4.2539744 -17.409975
5.9129238 -5.0682244 -18.145189
5.8716602 -5.8716636 -18.85676
5.839747 -6.6739964 -19.407085
5.8178825 -7.4801359 -19.784124
5.8056479 -8.2937803 -19.99511
5.7963138 -9.1084957 -20.156075
5.7885389 -9.9232082 -20.290134
5.7816806 -10.737406 -20.408407
5.775948 -11.551898 -20.507254
5.7719445 -12.368453 -20.5763
5.7696838 -13.18785 -20.61528
5.7687283 -14.009768 -20.631763
5.7694016 -14.835607 -20.620148
5.7713575 -15.665113 -20.586424
5.7753386 -16.500969 -20.517771
5.7846489 -17.353951 -20.357212
5.7925658 -18.205208 -20.220694
5.9073162 -19.409754 -18.241903
5.9069519 -20.252407 -18.248182
5.9071565 -21.096989 -18.244652
5.9066324 -21.938925 -18.253679
5.9069061 -22.783781 -18.248972
5.9066553 -23.626623 -18.253294
5.9077492 -24.474958 -18.23444
5.9069519 -25.31551 -18.248182
5.9072933 -26.16087 -18.242296
5.9073162 -27.004877 -18.241899
5.9075894 -27.850065 -18.237188
5.9065189 -28.688805 -18.255648
5.9078856 -29.539427 -18.232082
8.3767233 36.64817 6.2850833
8.2911301 35.237297 4.9935694
8.228982 33.944553 4.0558281
8.2236872 32.894753 3.9759364
8.2790165 32.081192 4.8107929
8.3693571 31.385092 6.1739264
8.4666414 30.691574 7.6418304
8.5769978 30.019489 9.3069811
8.4424753 28.493357 7.2771945
8.4270353 27.387869 7.0442319
8.4215231 26.317259 6.9610558
8.433814 25.301441 7.1465044
8.4877357 24.402245 7.9601259
8.449645 23.236526 7.385385
8.3602858 21.945751 6.0370607
8.2736959 20.684238 4.7305145
8.1948986 19.462883 3.5415535
8.1161966 18.261444 2.3540211
8.0394697 17.083874 1.1963142
7.9641452 15.92829 0.059754383
7.8965168 14.805969 -0.96068847
7.8277521 13.698563 -1.9982637
7.7626853 12.614365 -2.9800396
7.6951056 11.542661 -3.9997435
7.6342134 10.497046 -4.9185328
7.5727377 9.4659204 -5.8461237
7.5155015 8.4549398 -6.709764
7.4582653 7.4582634 -7.5733819
7.3996739 6.4747152 -8.4574652
7.340857 5.5056391 -9.3449411
7.2842703 4.5526724 -10.19877
7.2316842 3.6158419 -10.992229
7.1799107 2.6924651 -11.773437
7.1613812 1.7903453 -12.053018
7.070096 0.88375789 -13.430407
7.0058556 -2.8062063e-06 -14.39972
6.9468489 -0.86835587 -15.290071
6.8940344 -1.7235123 -16.086969
6.8417501 -2.5656576 -16.875881
6.7905688 -3.3952866 -17.648142
6.7489805 -4.2181139 -18.275663
6.7123466 -5.0342622 -18.828424
6.6888857 -5.8527761 -19.182436
6.6748109 -6.6748137 -19.3948
6.6646228 -7.4977055 -19.548515
6.6559339 -8.3199177 -19.67963
6.6485038 -9.1416931 -19.791739
6.6422496 -9.9633741 -19.886112
6.637516 -10.785965 -19.957533
6.6354284 -11.612 -19.98904
6.6349511 -12.440533 -19.996248
6.6359816 -13.271965 -19.980686
6.6387239 -14.107289 -19.939312
6.6430554 -14.946877 -19.873949
6.6551747 -15.80604 -19.691082
6.6654859 -16.663717 -19.535501
6.7945743 -17.83576 -17.587711
6.7932301 -18.681383 -17.607998
6.7934141 -19.531067 -17.605215
6.7928348 -20.378506 -17.613956
6.7931242 -21.228514 -17.609587
6.7933087 -22.078253 -17.606806
6.793757 -22.928928 -17.600046
6.7928348 -23.774921 -17.613962
6.793704 -24.627178 -17.600842
6.7935991 -25.475998 -17.602425
6.7938623 -26.326218 -17.598452
6.7945743 -27.178295 -17.587715
6.7962089 -28.034367 -17.563038
9.4106236 37.642494 6.1081662
9.2904806 36.129646 4.4967771
9.2011318 34.759834 3.2984061
9.1497622 33.549129 2.6094148
9.1693115 32.601997 2.8716097
9.2479134 31.853926 3.9258428
9.34939 31.164629 5.286881
9.4639273 30.494879 6.8230915
9.5821447 29.811111 8.4086571
9.7107668 29.132296 10.133781
9.5763226 27.664934 8.3305655
9.6268177 26.741165 9.0078297
9.5873213 25.566185 8.4780893
9.4811907 24.229706 7.0546331
9.3835478 22.937567 5.7450256
9.282033 21.658072 4.3834596
9.1915159 20.425587 3.1694243
9.1057348 19.223215 2.0188992
9.0206718 18.04134 0.87801909
8.9392939 16.885328 -0.21345292
8.8617611 15.754242 -1.2533389
8.7816458 14.636078 -2.3278749
8.7060814 13.54279 -3.3413649
8.6355524 12.473574 -4.2873211
8.5632896 11.417721 -5.2565331
8.4968777 10.385075 -6.1472583
8.4297934 9.366436 -7.0470257
8.3654289 8.3654242 -7.9102988
8.3016548 7.3792481 -8.7656612
8.2389832 6.4080954 -9.6062212
8.1721287 5.4480839 -10.502892
8.1123924 4.5068803 -11.304088
8.052207 3.5787611 -12.11132
7.9954057 2.6651309 -12.873152
7.9737225 1.7719364 -13.163978
7.8781519 0.87534863 -14.445806
7.8041511 -2.078134e-06 -15.438315
7.7429547 -0.86032575 -16.259108
7.6844187 -1.7076491 -17.044212
7.6312222 -2.5437446 -17.757694
7.5943885 -3.375284 -18.251719
7.5699329 -4.2055192 -18.579727
7.5547786 -5.0365224 -18.78298
7.5438714 -5.867456 -18.929272
7.5335431 -6.696485 -19.067801
7.5257435 -7.5257435 -19.172407
7.5200553 -8.3556175 -19.248703
7.5146046 -9.1845188 -19.321806
7.5122552 -10.016337 -19.353323
7.5119114 -10.850537 -19.357933
7.5134006 -11.687512 -19.33795
7.5164971 -12.527495 -19.296421
7.5260882 -13.379714 -19.167778
7.5372615 -14.23705 -19.017923
7.5510139 -15.102027 -18.833475
7.6921301 -16.238943 -16.940777
7.6919799 -17.09329 -16.942797
7.6918898 -17.947744 -16.944
7.6910791 -18.800415 -16.954882
7.6911392 -19.655132 -16.954075
7.6917396 -20.511307 -16.946012
7.6914091 -21.365026 -16.950447
7.6903887 -22.216679 -16.964144
7.6912889 -23.073868 -16.952063
7.6926703 -23.932756 -16.933529
7.6913495 -24.783236 -16.951256
7.6929111 -25.643038 -16.930307
7.6957364 -26.507538 -16.892412
10.296485 37.067348 4.1796627
10.180351 35.631233 2.7777944
10.097366 34.331043 1.7760752
10.061856 33.204124 1.3474332
10.110286 32.352913 1.9320282
10.205748 31.637817 3.0843475
10.319788 30.959366 4.4609375
10.444075 30.287815 5.9612103
10.579107 29.621506 7.5911994
10.714949 28.930359 9.2309523
10.764112 27.986691 9.8244152
10.630177 26.575443 8.2076817
10.510778 25.225868 6.7663989
10.401638 23.923767 5.4489689
10.289612 22.637144 4.0966907
10.19225 21.403725 2.9214272
10.091733 20.183466 1.7080729
9.998291 18.996748 0.5801338
9.9106464 17.839163 -0.47783914
9.8198967 16.693823 -1.5732863
9.7344713 15.575153 -2.6044495
9.6472874 14.47093 -3.6568527
9.5693846 13.39714 -4.5972276
9.4926071 12.34039 -5.5240135
9.4166059 11.299925 -6.4414306
9.3422899 10.276521 -7.3385043
9.2684717 9.2684698 -8.2295771
9.1985922 8.2787342 -9.0730925
9.1264086 7.3011298 -9.9444208
9.056736 6.3397126 -10.785441
8.9884148 5.3930483 -11.610161
8.9223518 4.461175 -12.407598
8.8530979 3.5412397 -13.243571
8.7966681 2.6389999 -13.924741
8.7726231 1.7545254 -14.214999
8.6762285 0.86761951 -15.378568
8.5962887 -3.0882752e-06 -16.343536
8.5360117 -0.85360193 -17.071146
8.4875526 -1.697511 -17.656092
8.461566 -2.5384705 -17.969786
8.4462204 -3.3784895 -18.155027
8.4340477 -4.2170238 -18.301958
8.4237909 -5.0542746 -18.425772
8.415143 -5.8906016 -18.530155
8.4082575 -6.7266083 -18.613266
8.4027052 -7.5624352 -18.680288
8.3995457 -8.3995485 -18.718433
8.3995781 -9.2395372 -18.718044
8.4017057 -10.082048 -18.692358
8.4063845 -10.928298 -18.635878
8.4169235 -11.783691 -18.508669
8.4306698 -12.646003 -18.342743
8.451993 -13.52319 -18.085342
8.6019306 -14.623282 -16.275433
8.6020994 -15.483781 -16.273386
8.6017275 -16.343285 -16.277876
8.6004438 -17.200886 -16.293383
8.6006126 -18.061287 -16.291344
8.6015587 -18.923431 -16.279921
8.602437 -19.785608 -16.269312
8.6007137 -20.641714 -16.290117
8.6008825 -21.502209 -16.28808
8.601965 -22.365107 -16.275026
8.6000376 -23.220104 -16.298283
8.6020651 -24.085787 -16.273796
11.349573 38.175835 4.4368687
11.162252 36.53101 2.3812737
11.051023 35.16235 1.160684
10.971658 33.912399 0.28974491
10.96701 32.901031 0.23874751
11.036941 32.107464 1.0061351
11.150724 31.424772 2.254765
11.278543 30.759665 3.6574013
11.41403 30.091537 5.1442075
11.556362 29.416193 6.7061138
11.711055 28.745317 8.4036589
11.67607 27.597984 8.0197449
11.537701 26.222048 6.5013151
11.418632 24.913382 5.1947026
11.297595 23.622242 3.8664796
11.184445 22.368891 2.6248055
11.078126 21.149149 1.4580846
10.969759 19.945015 0.26889732
10.872616 18.779972 -0.79711556
10.772501 17.627729 -1.8957481
10.682737 16.509684 -2.8807766
10.586958 15.399211 -3.9318335
10.500386 14.318704 -4.8818545
10.414227 13.25447 -5.8273473
10.331375 12.209805 -6.7365227
10.24957 11.18135 -7.6342258
10.170641 10.170639 -8.5003824
10.091436 9.1740322 -9.3695498
10.01333 8.1927252 -10.226648
9.9386406 7.2280984 -11.046282
9.8644495 6.2773743 -11.860434
9.7867403 5.3382239 -12.713183
9.7111483 4.4141545 -13.542707
9.6425037 3.5063627 -14.295998
9.5849991 2.6140873 -14.927024
9.5598812 1.7381577 -15.202667
9.4635372 0.86031973 -16.259918
9.398263 -1.2479369e-06 -16.976223
9.3663082 -0.85148603 -17.326876
9.3490334 -1.6998224 -17.516455
9.3361998 -2.5462358 -17.657286
9.3235817 -3.3903975 -17.795744
9.313303 -4.2333212 -17.908541
9.3059235 -5.0759606 -17.989515
9.3013229 -5.9190211 -18.04002
9.298233 -6.7623525 -18.073919
9.2996702 -7.6088219 -18.058149
9.3036585 -8.4578705 -18.014378
9.3111429 -9.311141 -17.932257
9.3209467 -10.16831 -17.824659
9.3390245 -11.037031 -17.626282
9.5233536 -12.120635 -15.603509
9.5218096 -12.984285 -15.62046
9.5222616 -13.850563 -15.615498
9.5227137 -14.716921 -15.61054
9.5217342 -15.581021 -15.621281
9.5219221 -16.446957 -15.619219
9.5226383 -17.313889 -15.611362
9.5235043 -18.181234 -15.601861
9.5215454 -19.043091 -15.623353
9.5228262 -19.911366 -15.609296
9.5226383 -20.776665 -15.611365
9.522562 -21.642187 -15.612193
9.5255766 -22.515003 -15.579116
12.157275 37.48494 2.1828361
12.00656 36.019684 0.66674882
11.894983 34.693703 -0.4556177
11.837409 33.539318 -1.0347879
11.859054 32.6124 -0.81704897
11.950566 31.868177 0.10349658
12.082227 31.212416 1.4278909
12.223302 30.558252 2.8469911
12.372778 29.900883 4.3506193
12.530079 29.236853 5.9329467
12.694008 28.561518 7.581944
12.571581 27.238424 6.35042
12.431691 25.899355 4.9432387
12.302424 24.604849 3.6429057
12.172206 23.330061 2.3330207
12.054446 22.099817 1.1484429
11.941873 20.898279 0.016044669
11.833408 19.722347 -1.0750282
11.72496 18.564518 -2.1659348
11.621411 17.432116 -3.2075496
11.523566 16.325054 -4.1917911
11.424772 15.233026 -5.1855903
11.336309 14.170383 -6.0754442
11.243044 13.116884 -7.013629
11.152105 12.081446 -7.9284034
11.065516 11.065513 -8.7994308
10.983152 10.067887 -9.6279373
10.896308 9.0802574 -10.501534
10.815455 8.1115913 -11.314846
10.733819 7.1558795 -12.136031
10.651937 6.2136302 -12.9597
10.568233 5.2841139 -13.801694
10.493501 4.3722897 -14.553449
10.424781 3.4749269 -15.244724
10.372579 2.5931423 -15.769835
10.34321 1.7238688 -16.065264
10.30466 0.85872072 -16.453041
10.269768 -4.9145842e-07 -16.804028
10.25269 -0.85439134 -16.975821
10.238422 -1.7064047 -17.119339
10.227101 -2.5567732 -17.233229
10.218188 -3.4060659 -17.322874
10.211474 -4.2547812 -17.390413
10.209689 -5.1048465 -17.408379
10.210958 -5.9563951 -17.395605
10.216519 -6.8110132 -17.339672
10.223557 -7.6676664 -17.268867
10.238422 -8.5320177 -17.119343
10.258056 -9.4032202 -16.921846
10.457404 -10.457407 -14.916557
10.453907 -11.325069 -14.951722
10.455863 -12.198507 -14.932051
10.455572 -13.069467 -14.93498
10.454823 -13.939764 -14.942522
10.454658 -14.810761 -14.944196
10.455531 -15.683298 -14.935399
10.456322 -16.555845 -14.927448
10.455989 -17.426647 -14.930799
10.45732 -18.300312 -14.917392
10.456322 -19.169924 -14.927444
10.457113 -20.042801 -14.919488
10.461319 -20.922642 -14.87717
12.972358 36.921322 0.3440845
12.834675 35.542175 -0.93435103
12.730283 34.273842 -1.9036826
12.690597 33.190788 -2.2721906
12.744823 32.352242 -1.768672
12.863396 31.663742 -0.66766787
13.001995 31.004755 0.61929125
13.158932 30.366764 2.0765138
13.320451 29.714855 3.5762906
13.488733 29.05266 5.1388626
13.661323 28.373514 6.7414317
13.439993 26.87999 4.6862917
13.303636 25.583918 3.4201469
13.164472 24.303637 2.1279531
13.029681 23.052511 0.87635672
12.910204 21.848036 -0.23304091
12.79169 20.663498 -1.3334917
12.675672 19.501036 -2.4107771
12.563624 18.362219 -3.4511802
12.456865 17.247967 -4.442482
12.350942 16.151236 -5.4260349
12.249967 15.07688 -6.3636241
12.15416 14.02403 -7.2532415
12.052636 12.979761 -8.1959276
11.957918 11.957915 -9.0754204
11.866856 10.954023 -9.9209881
11.777996 9.9659977 -10.746078
11.687099 8.9900742 -11.590104
11.600996 8.0314627 -12.389602
11.514477 7.0858274 -13.192972
11.428227 6.1536603 -13.993834
11.348735 5.2378802 -14.731957
11.282585 4.339457 -15.346182
11.236383 3.4573491 -15.775194
11.210397 2.5870166 -16.016479
11.202276 1.723429 -16.091887
11.257143 0.86593407 -15.582424
11.175658 2.0521004e-06 -16.339052
11.156159 -0.85817009 -16.5201
11.144538 -1.7145474 -16.628025
11.138342 -2.5703871 -16.685545
11.134463 -3.4259896 -16.721567
11.135552 -4.2829084 -16.711449
11.143315 -5.1430707 -16.639368
11.152837 -6.0053749 -16.550957
11.171051 -6.8744955 -16.381824
11.191703 -7.7481036 -16.190075
11.401941 -8.7707243 -14.237906
11.399932 -9.6460972 -14.256573
11.40144 -10.524409 -14.242574
11.400161 -11.400162 -14.254447
11.399658 -12.276557 -14.259113
11.399612 -13.153399 -14.259543
11.400252 -14.031078 -14.253606
11.402353 -14.910769 -14.234092
11.402947 -15.788698 -14.228573
11.403039 -16.665979 -14.22773
11.402308 -17.542015 -14.234513
11.402399 -18.419258 -14.233669
13.974946 37.931999 0.38473532
13.775913 36.407768 -1.3313546
13.64586 35.089355 -2.4527078
13.552976 33.882439 -3.2535758
13.545247 32.895603 -3.3202069
13.624443 32.114758 -2.6373723
13.765456 31.463894 -1.4215302
13.912259 30.805719 -0.15575247
14.081098 30.173779 1.3000011
14.247589 29.512863 2.7355189
14.433413 28.866825 4.3377266
14.466255 27.8992 4.6209006
14.301315 26.559587 3.1987627
14.149107 25.266262 1.8863803
14.010793 24.018501 0.69381166
13.874213 22.793352 -0.48379847
13.747731 21.603582 -1.5743539
13.624382 20.436571 -2.6378872
13.503466 19.290667 -3.6804643
13.382688 18.16222 -4.7218294
13.270542 17.062124 -5.6887679
13.160543 15.98066 -6.6371956
13.05152 14.916022 -7.5772219
12.955288 13.880666 -8.4069557
12.849517 12.849519 -9.3189344
12.750232 11.839499 -10.174986
12.655604 10.84766 -10.99088
12.560466 9.8689356 -11.811181
12.467458 8.9053259 -12.613115
12.374216 7.9548526 -13.417049
12.285216 7.0201216 -14.184429
12.215382 6.1076903 -14.786566
12.171278 5.2162595 -15.166829
12.144747 4.337409 -15.395592
12.125476 3.4644194 -15.561742
12.113397 2.5957277 -15.665892
12.106361 1.7294822 -15.726553
12.113493 0.86524719 -15.665068
12.229373 -2.1775609e-06 -14.665929
12.086879 -0.86334556 -15.894538
12.076685 -1.7252432 -15.982428
12.074068 -2.5873024 -16.004993
12.081541 -3.4518676 -15.940556
12.092604 -4.3187861 -15.845186
12.112582 -5.1911068 -15.672912
12.142004 -6.0710025 -15.419238
12.359095 -7.0623393 -13.547442
12.358148 -7.9445252 -13.5556
12.3578 -8.8270035 -13.558609
12.358646 -9.7103643 -13.551306
12.358946 -10.59338 -13.548731
12.358197 -11.475472 -13.555176
12.35745 -12.357451 -13.561617
12.360241 -13.243116 -13.537552
12.359394 -14.125021 -13.544863
12.36089 -15.009653 -13.531967
12.360241 -15.891744 -13.53755
12.36089 -16.775494 -13.531965
14.73262 37.322632 -1.5509459
14.561168 35.917549 -2.9306903
14.437967 34.651123 -3.9221234
14.362051 33.511456 -4.5330482
14.391326 32.620335 -4.2974787
14.499562 31.899038 -3.4264545
14.647438 31.247868 -2.2364485
14.811847 30.611147 -0.91338372
14.990863 29.98173 0.52723444
15.174191 29.336769 2.0025384
15.36486 28.681068 3.536926
15.301129 27.542036 3.0240626
15.13781 26.238873 1.7097603
14.979783 24.966303 0.43806735
14.835004 23.736006 -0.72703421
14.698718 22.538038 -1.823769
14.564268 21.360926 -2.9057388
14.438349 20.213684 -3.9190607
14.311842 19.082453 -4.9371104
14.186062 17.969011 -5.9493065
14.068681 16.882412 -6.8939242
13.953817 15.814327 -7.8182697
13.846361 14.76945 -8.6830091
13.742215 13.742217 -9.5211201
13.634469 12.725507 -10.388192
13.530851 11.726739 -11.222029
13.430831 10.744661 -12.026935
13.329844 9.7752142 -12.839626
13.237777 8.825182 -13.580523
13.166375 7.8998232 -14.155119
13.121385 6.9980707 -14.517164
13.092919 6.1100316 -14.746244
13.073421 5.2293687 -14.903156
13.056992 4.3523321 -15.03537
13.044023 3.4784033 -15.139732
13.035374 2.6070719 -15.209332
13.031752 1.7375635 -15.238477
13.037134 0.86914301 -15.195169
13.063901 -2.2941381e-06 -14.979763
13.230202 -0.88201666 -13.641477
13.051282 -1.7401719 -15.081313
13.0599 -2.6119814 -15.011963
13.07592 -3.4869125 -14.883046
13.128993 -4.3763309 -14.455946
13.329464 -5.3317823 -12.84268
13.328165 -6.2198114 -12.853126
13.328002 -7.1082721 -12.854435
13.330221 -7.9981308 -12.836581
13.331358 -8.8875723 -12.82743
13.330005 -9.7753382 -12.838319
13.329464 -10.663573 -12.842679
13.330492 -11.553091 -12.834402
13.328382 -12.439827 -12.851386
13.331358 -13.331363 -12.827429
13.331196 -14.219945 -12.828737
13.336069 -15.114212 -12.78952
15.49734 36.806179 -3.1915197
15.333675 35.459129 -4.4262762
15.221244 34.247803 -5.2745028
15.175074 33.195469 -5.6228218
15.23197 32.367935 -5.1935902
15.364553 31.689392 -4.1933141
15.527299 31.054602 -2.9654987
15.70331 30.425165 -1.6375992
15.889771 29.793316 -0.23085983
16.090096 29.163298 1.2804712
16.289473 28.506578 2.7846556
16.115417 27.194761 1.4715164
15.945189 25.910927 0.18723443
15.791965 24.674948 -0.96874452
15.647039 23.470556 -2.0621221
15.508046 22.29282 -3.1107457
15.369004 21.132383 -4.1597433
15.2321 19.992134 -5.1925907
15.101849 18.877312 -6.1752734
14.980401 17.789228 -7.0915222
14.858685 16.716024 -8.0097961
14.736823 15.657874 -8.929183
14.622924 14.622925 -9.7884808
14.515101 13.607908 -10.601927
14.404828 12.604224 -11.433881
14.303167 11.621325 -12.200863
14.201836 10.651375 -12.965345
14.126162 9.7117376 -13.536263
14.083498 8.802186 -13.858131
14.055632 7.9062891 -14.068365
14.034734 7.0173688 -14.22603
14.017769 6.1327744 -14.354023
14.002019 5.2507586 -14.47284
13.990273 4.371963 -14.561464
13.984686 3.4961705 -14.603606
13.981894 2.6216002 -14.624668
13.985189 1.7481507 -14.599818
13.99469 0.87466729 -14.528136
14.019059 -2.9358812e-06 -14.344282
14.073821 -0.87961334 -13.931149
14.324228 -1.7905267 -12.041969
14.31404 -2.6838846 -12.118824
14.31211 -3.5780275 -12.13339
14.311467 -4.4723349 -12.138237
14.312988 -5.3673677 -12.12677
14.31562 -6.2630863 -12.106899
14.315796 -7.1578994 -12.10558
14.314743 -8.052042 -12.113525
14.313514 -8.9459505 -12.122792
14.312753 -9.8400221 -12.128531
14.313514 -10.735136 -12.122797
14.314568 -11.630584 -12.114853
14.316089 -12.526579 -12.103374
16.453329 37.745872 -3.2809534
16.243454 36.308899 -4.7711978
16.10335 35.04847 -5.7660112
15.996255 33.874424 -6.5264573
15.977846 32.895569 -6.6571698
16.073647 32.147293 -5.9769225
16.22221 31.490171 -4.9220481
16.394392 30.860033 -3.6994443
16.583265 30.24007 -2.35832
16.778584 29.609264 -0.97142911
16.991896 28.986172 0.54321134
17.198608 28.32712 2.0109978
16.917038 26.868238 0.011675071
16.746265 25.611933 -1.2009163
16.587479 24.393353 -2.3283997
16.443512 23.214373 -3.3506563
16.300024 22.052977 -4.3695178
16.154036 20.905222 -5.4061198
16.014225 19.782276 -6.3988771
15.882233 18.684978 -7.3360929
15.759604 17.613678 -8.2068329
15.630183 16.549606 -9.1257973
15.510303 15.510301 -9.9770193
15.395305 14.489698 -10.793586
15.283443 13.485391 -11.587877
15.177959 12.499495 -12.336869
15.103169 11.549483 -12.867933
15.059709 10.630381 -13.176535
15.031237 9.7260923 -13.37869
15.008078 8.8282804 -13.543143
14.98994 7.9358468 -13.67193
14.975943 7.0475016 -13.771322
14.963717 6.1615334 -13.858132
14.954816 5.2781687 -13.92133
14.952292 4.3977313 -13.939255
14.952412 3.5182137 -13.938403
14.963115 2.640548 -13.862399
14.976183 1.7619032 -13.769608
14.997975 0.88223368 -13.614874
15.041263 -2.6719133e-07 -13.307506
15.308846 -0.90051806 -11.407498
15.307712 -1.80091 -11.415543
15.31061 -2.7018719 -11.394974
15.311366 -3.6026771 -11.389601
15.30998 -4.5029359 -11.39945
15.312752 -5.404501 -11.379761
15.311366 -6.3046803 -11.389605
15.310736 -7.2050529 -11.394083
15.309728 -8.1051493 -11.401238
15.311744 -9.0069094 -11.386923
15.310987 -9.9071121 -11.39229
15.314958 -10.810561 -11.364099
17.164707 37.190201 -5.000833
16.987455 35.8624 -6.1895175
16.859732 34.656113 -7.0460577
16.765173 33.530346 -7.6801753
16.786388 32.640198 -7.5379043
16.910023 31.941154 -6.7087846
17.07048 31.295877 -5.6327438
17.255823 30.677023 -4.3897915
17.45459 30.060686 -3.056843
17.66456 29.440933 -1.6487516
17.881184 28.808575 -0.19603759
17.890928 27.830332 -0.13069481
17.699318 26.548973 -1.4156647
17.525244 25.314243 -2.5830204
17.372545 24.128534 -3.6070528
17.218571 22.958092 -4.6396255
17.072403 21.814737 -5.6198492
16.922806 20.683432 -6.6230574
16.780668 19.577446 -7.5762572
16.645185 18.494654 -8.4848213
16.519836 17.437607 -9.3254337
16.38954 16.389542 -10.199228
16.273104 15.369043 -10.980067
16.168058 14.371607 -11.684518
16.090866 13.409053 -12.202178
16.046955 12.480964 -12.49665
16.018118 11.568639 -12.690033
15.995616 10.663742 -12.840934
15.976027 9.7631283 -12.972295
15.961335 8.8674088 -13.070826
15.948995 7.9744964 -13.153585
15.939832 7.0843697 -13.215037
15.935899 6.1972928 -13.241413
15.941508 5.3138361 -13.20379
15.950867 4.4307928 -13.141028
15.965153 3.5478108 -13.045237
15.989839 2.6649737 -12.879682
16.034349 1.7815918 -12.581178
16.318262 0.90656745 -10.677222
16.319885 -2.9149855e-06 -10.666342
16.319885 -0.90666276 -10.666343
16.321711 -1.8135248 -10.654099
16.319208 -2.7198691 -10.670875
16.323063 -3.627346 -10.64503
16.320763 -4.5335469 -10.660449
16.32225 -5.440753 -10.65047
16.321913 -6.3474107 -10.652741
16.321304 -7.2539182 -10.656819
16.321846 -8.1609259 -10.653194
16.325769 -9.0698729 -10.62689
18.209139 38.335026 -4.4237452
17.906572 36.755596 -6.3459959
17.73839 35.476776 -7.4145012
17.615316 34.303513 -8.1964035
17.540648 33.234913 -8.6707916
17.595938 32.41357 -8.3195162
17.741795 31.748474 -7.3928609
17.914827 31.115227 -6.2935591
18.107967 30.497627 -5.0664959
18.314833 29.882092 -3.7522502
18.530933 29.259369 -2.3793101
18.756086 28.627707 -0.94886172
18.648432 27.481901 -1.6328224
18.469458 26.246069 -2.7698853
18.300646 25.04299 -3.8423679
18.13529 23.862221 -4.892909
17.985331 22.718315 -5.845634
17.833319 21.587704 -6.8113942
17.686186 20.478745 -7.7461596
17.536283 19.382206 -8.6985178
17.40564 18.321726 -9.5285196
17.279224 17.279226 -10.331663
17.16901 16.265379 -11.031877
17.091675 15.292547 -11.523206
17.05047 14.35829 -11.784986
17.018723 13.435833 -11.986686
16.995491 12.522995 -12.134272
16.975788 11.615012 -12.25944
16.961388 10.712459 -12.350939
16.946804 9.8113079 -12.44359
16.940523 8.9160614 -12.4835
16.937763 8.0231504 -12.501035
16.940592 7.1328797 -12.483059
16.955717 6.246839 -12.386962
16.972672 5.3597894 -12.27925
17.005152 4.4750404 -12.072903
17.065653 3.5927711 -11.688524
17.341911 2.7381966 -9.9333982
17.344517 1.8257415 -9.916853
17.344587 0.91286904 -9.9163895
17.345673 2.9843734e-06 -9.9094992
17.345167 -0.91290444 -9.9127102
17.346252 -1.8259224 -9.9058151
17.345095 -2.7387006 -9.9131727
17.347265 -3.6520576 -9.8993807
17.346468 -4.5648627 -9.9044371
17.345457 -5.4775128 -9.9108763
17.347918 -6.3913393 -9.8952456
18.84586 37.691719 -6.3650923
18.641535 36.350994 -7.5983033
18.509354 35.167774 -8.3960915
18.413435 34.064854 -8.975008
18.369238 33.064629 -9.2417583
18.432119 32.25621 -8.862236
18.572727 31.573633 -8.0136051
18.756151 30.947649 -6.906539
18.953896 30.326231 -5.7130399
19.160465 29.698729 -4.4662752
19.386688 29.080032 -3.1009068
19.624384 28.455355 -1.6662778
19.404476 27.166271 -2.9935398
19.224922 25.953644 -4.0772524
19.044352 24.75766 -5.1670899
18.884802 23.606001 -6.130055
18.727024 22.472425 -7.0823307
18.577536 21.364162 -7.9845796
18.427853 20.270636 -8.8879929
18.293015 19.207666 -9.7018108
18.177555 18.177555 -10.398671
18.10568 17.200396 -10.832469
18.063992 16.257589 -11.084085
18.033556 15.328524 -11.267789
18.007591 14.406077 -11.424494
17.988722 13.491541 -11.538382
17.970852 12.579593 -11.646235
17.961781 11.675155 -11.700974
17.95228 10.77137 -11.758333
17.953604 9.8744831 -11.750329
17.960602 8.9803009 -11.708091
17.972326 8.0875463 -11.637329
18.000853 7.2003403 -11.46516
18.0369 6.3129115 -11.247603
18.383972 5.5151901 -9.1528301
18.382427 4.5956044 -9.1621437
18.381887 3.6763752 -9.16541
18.385363 2.7578011 -9.1444368
18.383354 1.8383335 -9.1565571
18.384436 0.91922051 -9.1500301
18.383432 3.2949754e-06 -9.1560926
18.383354 -0.91917086 -9.1565561
18.384205 -1.8384235 -9.1514282
18.381887 -2.7572851 -9.1654034
18.384745 -3.6769466 -9.1481705
18.388453 -4.5971131 -9.1257982
19.580032 37.2953 -7.5613985
19.453409 36.127762 -8.2892389
19.37273 35.055424 -8.752984
19.331261 34.059837 -8.9913721
19.31826 33.117023 -9.0660887
19.344767 32.241276 -8.9137402
19.437862 31.470821 -8.3786106
19.605755 30.809042 -7.4135451
19.796677 30.166361 -6.316103
20.007448 29.5348 -5.1045518
20.239944 28.914211 -3.7681301
20.483202 28.286327 -2.3698621
20.138321 26.851093 -4.3522763
19.962091 25.66555 -5.365272
19.786961 24.498137 -6.3719501
19.619814 23.356918 -7.3327222
19.466263 22.247158 -8.2153606
19.321428 21.161564 -9.0478849
19.206944 20.121557 -9.7059593
19.13538 19.135374 -10.117317
19.090397 18.18133 -10.375891
19.061104 17.24576 -10.544258
19.035213 16.315899 -10.693089
19.016155 15.394029 -10.802628
18.996979 14.47389 -10.912862
18.984661 13.560469 -10.983667
18.981133 12.654086 -11.003944
18.979172 11.749012 -11.015213
18.989445 10.851114 -10.956171
19.008764 9.9569693 -10.84512
19.03009 9.0619478 -10.722528
19.084213 8.1789465 -10.411419
19.436628 7.4044285 -8.3856936
19.43819 6.4793963 -8.3767233
19.432848 5.5522389 -8.407423
19.43926 4.6283937 -8.370573
19.433672 3.7016518 -8.4027042
19.436876 2.7766988 -8.3842831
19.434656 1.8509203 -8.3970385
19.436054 0.92552596 -8.3890085
19.435314 -9.7381673e-08 -8.3932533
19.436546 -0.92554915 -8.3861694
19.435972 -1.8510457 -8.3894806
19.442385 -2.7774849 -8.3526125
20.448132 37.178425 -7.9141102
20.385025 36.137093 -8.2603617
20.348244 35.146969 -8.4621801
20.335609 34.200802 -8.5314932
20.327885 33.263813 -8.5738821
20.338274 32.356346 -8.516881
20.376228 31.490534 -8.3086338
20.474998 30.712498 -7.7666998
20.650433 30.036995 -6.8041024
20.856058 29.388081 -5.6758828
21.088789 28.757439 -4.3989158
21.081402 27.78912 -4.4394398
20.87043 26.562365 -5.597024
20.682453 25.383005 -6.6284199
20.516609 24.246899 -7.5383849
20.362442 23.139137 -8.3842802
20.248987 22.089802 -9.0067835
20.178305 21.095499 -9.3946037
20.133085 20.133085 -9.642724
20.102407 19.188662 -9.8110476
20.077513 18.252287 -9.9476376
20.056858 17.321833 -10.060969
20.036493 16.393492 -10.172698
20.024164 15.473217 -10.240358
20.020832 14.560606 -10.258636
20.022665 13.651817 -10.248587
20.036911 12.750761 -10.170408
20.05719 11.851976 -10.059136
20.084633 10.955251 -9.908576
20.142685 10.071341 -9.5900402
20.506212 9.3210049 -7.5954275
20.504292 8.3881187 -7.6059656
20.502981 7.4556293 -7.6131568
20.505251 6.5243988 -7.6007009
20.500362 5.5910072 -7.6275177
20.50272 4.6597047 -7.6145878
20.504377 3.7280645 -7.6054859
20.504992 2.7961342 -7.6021361
20.503155 1.8639202 -7.6121922
20.502808 0.9319464 -7.6141109
20.506823 2.1424029e-07 -7.5920782
20.541817 -0.93372166 -7.4000745
21.464729 37.329967 -7.4567838
21.413054 36.309086 -7.7279973
21.390762 35.341263 -7.8449879
21.377411 34.389744 -7.9150705
21.372871 33.45319 -7.9388781
21.375414 32.527802 -7.9255447
21.38958 31.619383 -7.8511848
21.427362 30.743605 -7.6528978
21.529446 29.954012 -7.1171379
21.707129 29.257433 -6.1846056
21.940042 28.617447 -4.9622064
21.794149 27.479582 -5.7279005
21.594925 26.289474 -6.7734885
21.419979 25.145193 -7.6916509
21.299986 24.078243 -8.321413
21.233505 23.079895 -8.6703186
21.192297 22.113703 -8.8865891
21.158363 21.158363 -9.0646935
21.131453 20.212692 -9.205925
21.110363 19.274679 -9.3166142
21.090374 18.339457 -9.4215069
21.084721 17.417814 -9.4511786
21.076424 16.494595 -9.4947281
21.078983 15.580118 -9.4812975
21.097092 14.676234 -9.3862524
21.121878 13.775139 -9.2561808
21.160675 12.88041 -9.0525579
21.221331 11.994662 -8.7342091
21.588072 11.263337 -6.8094473
21.585295 10.3234 -6.8240218
21.585573 9.3850317 -6.822566
21.585388 8.4464521 -6.8235359
21.584461 7.5076413 -6.8283992
21.586128 6.5696902 -6.8196559
21.588163 5.6316938 -6.8089643
21.587517 4.6929369 -6.8123612
21.586683 3.7542045 -6.8167353
21.58289 2.8151584 -6.8366523
21.587978 1.8772179 -6.809938
22.50333 36.567913 -6.926908
22.469931 35.577385 -7.0949025
22.453793 34.616268 -7.1760573
22.444391 33.666588 -7.2233486
22.446405 32.734337 -7.2132158
22.447655 31.80084 -7.2069402
22.467047 30.892189 -7.1094007
22.500343 30.00046 -6.941937
22.599075 29.190472 -6.445344
22.784431 28.480541 -5.5130844
22.535576 27.230488 -6.7647357
22.382708 26.113163 -7.5335808
22.303738 25.091707 -7.9307899
22.26309 24.118349 -8.1352215
22.230963 23.157255 -8.2968111
22.202869 22.202866 -8.4381123
22.179434 21.255291 -8.5559893
22.163338 20.316393 -8.6369381
22.154646 19.385313 -8.680665
22.154831 18.462358 -8.6797237
22.162121 17.545012 -8.6430511
22.173908 16.63043 -8.5837708
22.205872 15.729161 -8.4230089
22.255169 14.836779 -8.1750669
22.684662 14.177913 -6.0148783
22.681137 13.230666 -6.0326142
22.6828 12.286518 -6.0242357
22.680548 11.340275 -6.0355697
22.680841 10.395388 -6.0340919
22.682703 9.4511223 -6.0247269
22.684566 8.5067139 -6.0153732
22.685446 7.5618124 -6.0109353
22.682999 6.6158729 -6.0232511
22.683783 5.6709404 -6.0193081
22.68339 4.7257028 -6.0212803
22.689268 3.7815416 -5.991713
23.600302 35.872456 -6.1575823
23.559961 34.868748 -6.3523598
23.543844 33.90313 -6.4301834
23.539995 32.95599 -6.4487681
23.535135 32.007782 -6.4722309
23.547796 31.083092 -6.4111094
23.556513 30.152336 -6.3690076
23.588705 29.249992 -6.2135787
23.687857 28.425432 -5.7348294
23.405474 27.150349 -7.0982814
23.35413 26.156628 -7.3462
23.316614 25.181946 -7.5273509
23.288729 24.220276 -7.6619968
23.267439 23.267435 -7.7647891
23.247866 22.317951 -7.8592954
23.235823 21.376955 -7.91745
23.236511 20.448132 -7.9141111
23.246384 19.52696 -7.8664508
23.273277 18.61862 -7.7365994
23.302513 17.709911 -7.5954313
23.358118 16.817844 -7.3269467
23.797569 16.182348 -5.2050819
23.796122 15.229518 -5.2120786
23.796432 14.27786 -5.2105813
23.791466 13.323223 -5.2345614
23.79933 12.375652 -5.1965852
23.793432 11.420848 -5.2250719
23.79571 10.470113 -5.2140779
23.796535 9.5186129 -5.2100773
23.794052 8.5658579 -5.2220697
23.796019 7.6147265 -5.2125773
23.796638 6.6630564 -5.2095771
23.834265 5.720222 -5.0279055
