# .PCD v0.7 - Point Cloud Data file format
VERSION 0.7
FIELDS x y z
SIZE 4 4 4
TYPE F F F
COUNT 1 1 1
WIDTH 1516
HEIGHT 1
VIEWPOINT 0 0 0 1 0 0 0
POINTS 1516
DATA ascii
-27.629879 -5.0236359 -34.863674
-27.63135 -7.5358434 -34.847538
-27.633045 -10.048392 -34.828922
-27.635086 -12.561407 -34.806572
-27.636667 -15.074554 -34.789192
-27.639727 -17.588932 -34.755657
-27.646179 -20.106329 -34.684826
-27.652746 -22.624989 -34.612736
-27.658075 -25.143715 -34.554295
-27.670774 -27.670792 -34.414902
-27.698256 -30.216288 -34.113338
-27.824373 44.518993 -2.1957402
-27.738707 41.60804 -3.2298157
-27.779776 38.891674 -2.7340729
-27.893442 36.261459 -1.3620104
-25.010052 30.012047 -36.167599
-24.999453 27.499386 -36.295544
-24.98917 24.989145 -36.41967
-24.981741 22.483561 -36.509338
-24.978184 19.982533 -36.552303
-24.971676 17.48015 -36.63084
-24.970558 14.982311 -36.644333
-24.970356 12.485167 -36.64679
-24.970356 9.9881325 -36.646797
-24.970356 7.4910979 -36.646801
-24.970356 4.9940639 -36.646809
-24.971169 2.4971106 -36.63699
-24.974216 -5.1449897e-06 -36.600174
-24.978487 -2.4978602 -36.54863
-24.982149 -4.9964352 -36.504429
-24.984692 -7.4954247 -36.473721
-24.986116 -9.9944582 -36.456528
-24.98856 -12.494293 -36.427055
-24.990086 -14.994064 -36.408619
-24.992224 -17.494574 -36.382809
-24.996601 -19.997297 -36.329971
-25.00251 -22.502274 -36.258644
-25.007706 -25.007717 -36.195919
-25.018005 -27.519827 -36.07159
-25.039549 -30.04747 -35.811546
-24.951977 44.359062 -3.4023161
-24.874643 41.457729 -4.4395142
-24.911116 38.750614 -3.950361
-24.993538 36.101761 -2.8448749
-22.387491 29.849974 -37.797962
-22.378145 27.351044 -37.923294
-22.37044 24.856028 -38.026661
-22.363373 22.363356 -38.121437
-22.358753 19.874445 -38.183384
-22.354319 17.386684 -38.242863
-22.353323 14.902196 -38.25621
-22.353052 12.418344 -38.259853
-22.353052 9.9346704 -38.259861
-22.353142 7.4510307 -38.25864
-22.353142 4.9673572 -38.258644
-22.353956 2.4837639 -38.247719
-22.356581 -1.213288e-05 -38.212524
-22.359118 -2.4843624 -38.178524
-22.362286 -4.9694114 -38.136013
-22.36627 -7.4554329 -38.082573
-22.36754 -9.9411364 -38.065552
-22.369804 -12.427681 -38.035164
-22.371616 -14.914433 -38.010845
-22.37352 -17.401646 -37.985325
-22.375788 -19.88961 -37.954918
-22.380775 -22.380789 -37.88802
-22.385765 -24.873085 -37.821102
-22.393936 -27.370384 -37.711498
-22.413479 -29.884649 -37.449402
-22.10054 44.201065 -4.5942454
-22.032188 41.310345 -5.6255651
-22.063583 38.611263 -5.1518636
-22.133528 35.966976 -4.096508
-19.792942 29.689409 -39.413219
-19.784883 27.204201 -39.534809
-19.779142 24.723906 -39.621407
-19.77277 22.244358 -39.717594
-19.767513 19.767506 -39.796902
-19.764807 17.294189 -39.837734
-19.763931 14.822933 -39.850948
-19.763613 12.35224 -39.85574
-19.763613 9.8817863 -39.85574
-19.763693 7.4113679 -39.854546
-19.763693 4.940917 -39.854549
-19.76449 2.4705393 -39.842533
-19.766479 -2.1867962e-05 -39.812504
-19.767912 -2.4709938 -39.790897
-19.770699 -4.9426966 -39.748833
-19.774282 -7.415379 -39.694752
-19.776752 -9.8883886 -39.657486
-19.778746 -12.36174 -39.627419
-19.780739 -14.835564 -39.597366
-19.782412 -17.309618 -39.572098
-19.784405 -19.784414 -39.542027
-19.787277 -22.26071 -39.498688
-19.791664 -24.73959 -39.432476
-19.79821 -27.222549 -39.333714
-19.815556 -29.723333 -39.072006
-19.270813 44.047569 -5.7523689
-19.209187 41.162537 -6.815093
-19.239735 38.479462 -6.2882881
-17.283558 32.098015 -40.021347
-17.226158 29.530533 -41.011166
-17.219389 27.059029 -41.127903
-17.215111 24.59301 -41.201691
-17.209385 22.126331 -41.300411
-17.204422 19.66218 -41.386005
-17.202768 17.202761 -41.414539
-17.202009 14.744568 -41.427597
-17.201735 12.286938 -41.432354
-17.201735 9.8295517 -41.432354
-17.201801 7.3721886 -41.43116
-17.201801 4.914793 -41.431168
-17.202492 2.4574962 -41.419296
-17.203594 -7.9088486e-06 -41.400284
-17.204834 -2.4578476 -41.37888
-17.206972 -4.916286 -41.342041
-17.210073 -7.3757677 -41.288525
-17.21311 -9.8360748 -41.236198
-17.214834 -12.296321 -41.206451
-17.21656 -14.757062 -41.176693
-17.218285 -17.2183 -41.146938
-17.220011 -19.680035 -41.117176
-17.221807 -22.142338 -41.08622
-17.225399 -24.607718 -41.024288
-17.230442 -27.076422 -40.937283
-17.245594 -29.563887 -40.676006
-16.458172 43.888447 -6.9528189
-16.408798 41.021988 -7.9460979
-16.432384 38.342213 -7.471602
-14.721995 31.897642 -41.881966
-14.687048 29.374086 -42.585068
-14.68119 26.91551 -42.702908
-14.677561 24.462595 -42.775925
-14.672588 22.008865 -42.875954
-14.669256 19.55899 -42.943005
-14.667795 17.11241 -42.972397
-14.667151 14.667129 -42.985325
-14.666918 12.222421 -42.990047
-14.666918 9.7779255 -42.990032
-14.666976 7.3334789 -42.988869
-14.666976 4.8889709 -42.988857
-14.667562 2.4445851 -42.977112
-14.668613 -1.1632199e-05 -42.955936
-14.669664 -2.444963 -42.934765
-14.670893 -4.8903146 -42.910065
-14.673408 -7.3367124 -42.859478
-14.67604 -9.7840338 -42.806519
-14.677502 -12.231255 -42.7771
-14.678966 -14.678983 -42.74765
-14.680429 -17.127172 -42.718212
-14.681892 -19.575859 -42.68877
-14.683708 -22.025576 -42.652229
-14.686696 -24.47784 -42.592121
-14.690564 -26.932709 -42.51432
-14.703355 -29.406715 -42.256977
-13.667358 43.735531 -8.1064072
-13.626018 40.878036 -9.1044779
-13.646688 38.210709 -8.6054592
-12.199053 31.717522 -43.554443
-12.174701 29.219269 -44.142338
-12.169775 26.773497 -44.261295
-12.166831 24.333649 -44.332363
-12.162634 21.892736 -44.433685
-12.160608 19.456961 -44.482563
-12.159307 17.023012 -44.513977
-12.158777 14.590517 -44.526775
-12.158585 12.158565 -44.531437
-12.158633 9.7268867 -44.530266
-12.158633 7.2951641 -44.530273
-12.158633 4.8634415 -44.530281
-12.159163 2.4318166 -44.517483
-12.160127 -1.0869533e-05 -44.494202
-12.160995 -2.4322164 -44.473259
-12.162007 -4.864821 -44.448818
-12.163502 -7.2981071 -44.412735
-12.165673 -9.7325497 -44.360321
-12.166879 -12.166886 -44.331196
-12.168085 -14.601721 -44.302071
-12.169292 -17.037031 -44.27293
-12.1705 -19.472809 -44.243801
-12.172237 -21.910044 -44.201836
-12.174701 -24.349411 -44.142353
-12.177456 -26.790419 -44.075844
-12.188004 -29.251221 -43.821224
-10.893749 43.574989 -9.3176632
-10.862265 40.733479 -10.267809
-10.880565 38.081959 -9.7155638
-9.702487 31.533068 -45.267178
-9.6886978 29.06609 -45.683315
-9.6847601 26.633078 -45.802151
-9.6823912 24.205956 -45.873638
-9.6795645 21.779005 -45.958916
-9.6779613 19.355909 -46.007317
-9.6769314 16.93462 -46.038391
-9.6764736 14.514706 -46.052227
-9.676321 12.095387 -46.056812
-9.6763592 9.676343 -46.055664
-9.6763592 7.2572503 -46.055664
-9.6763592 4.8381701 -46.055679
-9.6767788 2.4191723 -46.042995
-9.677619 -6.9911584e-06 -46.017681
-9.6783056 -2.4195886 -45.996944
-9.6791067 -4.8395762 -45.972748
-9.679985 -7.2599959 -45.946251
-9.681551 -9.6815662 -45.898998
-9.6825438 -12.103187 -45.869034
-9.6834602 -14.525201 -45.841358
-9.6844158 -16.947744 -45.812523
-9.6856012 -19.371218 -45.776779
-9.6869774 -21.795715 -45.735233
-9.6889277 -24.222336 -45.67638
-9.6910706 -26.650448 -45.611732
-9.699151 -29.097477 -45.367844
-8.1361475 43.392769 -10.692364
-8.1191711 40.595856 -11.375418
-8.1350689 37.963638 -10.735769
-7.2381201 31.365175 -46.826191
-7.2286258 28.914484 -47.208195
-7.2257314 26.494339 -47.324677
-7.2238879 24.079615 -47.398834
-7.2221308 21.666376 -47.46954
-7.2209687 19.255905 -47.516293
-7.2202044 16.847136 -47.547058
-7.2198358 14.439654 -47.561867
-7.2197514 12.032911 -47.565304
-7.2197514 9.6263266 -47.5653
-7.2197514 7.2197452 -47.565296
-7.2197514 4.8131523 -47.5653
-7.2201195 2.4066861 -47.550468
-7.2207417 -4.4663648e-06 -47.525417
-7.2212806 -2.4071131 -47.503742
-7.2218757 -4.8146009 -47.479801
-7.222527 -7.2225451 -47.453575
-7.2233491 -9.6311378 -47.420513
-7.2240582 -12.040113 -47.391987
-7.2247667 -14.449552 -47.363464
-7.2254758 -16.859451 -47.334949
-7.2264967 -19.270672 -47.293858
-7.2275467 -21.682659 -47.251602
-7.2289667 -24.096577 -47.194485
-7.230557 -26.512058 -47.130512
-7.2362986 -28.945217 -46.899452
-5.4045558 43.236431 -11.87182
-5.3962379 40.471771 -12.373884
-5.4096551 37.867584 -11.564083
-4.7997441 31.19832 -48.375465
-4.7940059 28.764023 -48.72179
-4.7920966 26.356514 -48.837051
-4.7908616 23.9543 -48.911579
-4.7899451 21.554737 -48.966873
-4.7890663 19.156258 -49.01992
-4.788693 16.760418 -49.042477
-4.7883 14.364891 -49.066166
-4.7883563 11.970868 -49.062763
-4.7883563 9.5766916 -49.062763
-4.7882814 7.1824131 -49.067276
-4.7883563 4.7883368 -49.062759
-4.7886362 2.3943017 -49.045849
-4.7889733 -1.5906584e-05 -49.025551
-4.7893095 -2.3946652 -49.005241
-4.7898145 -4.7898307 -48.974766
-4.7902441 -7.1853781 -48.948826
-4.7906742 -9.5813656 -48.922852
-4.7910485 -11.977634 -48.900299
-4.7915163 -14.374559 -48.872055
-4.7921147 -16.772419 -48.835911
-4.7928076 -19.17124 -48.794117
-4.7934813 -21.570677 -48.753448
-4.7944369 -23.972204 -48.695786
-4.795486 -26.375187 -48.632469
-4.7991056 -28.794653 -48.413982
-2.6924 43.078392 -13.06421
-2.6918094 40.377132 -13.135501
-2.7015879 37.82222 -11.955128
-2.3872008 31.033592 -49.904991
-2.3844919 28.613895 -50.232021
-2.383584 26.219402 -50.341591
-2.3830841 23.830822 -50.401943
-2.3826675 21.443989 -50.452213
-2.3821032 19.056805 -50.520332
-2.3820386 16.674259 -50.528141
-2.381752 14.290494 -50.562756
-2.3818722 11.90934 -50.548241
-2.3818722 9.5274754 -50.548241
-2.3818076 7.1454158 -50.556065
-2.3818722 4.763731 -50.548248
-2.38202 2.3820028 -50.530376
-2.3820939 -1.9370864e-05 -50.521442
-2.3823624 -2.3823709 -50.489079
-2.3826306 -4.7652764 -50.456692
-2.3828435 -7.14855 -50.430992
-2.3830469 -9.532196 -50.406418
-2.3831489 -11.91575 -50.394131
-2.3833804 -14.300299 -50.366188
-2.3837507 -16.686272 -50.321461
-2.3840842 -19.072687 -50.281219
-2.3844268 -21.459866 -50.239838
-2.3849182 -23.849194 -50.180546
-2.3854375 -26.239832 -50.117859
-2.3871453 -28.645754 -49.91172
2.3521125e-23 46.040112 -11.151891
-1.8860522e-23 42.964142 -13.926192
-5.1636127e-23 40.371998 -13.176842
-5.6950646e-24 37.821888 -11.957993
4.0317255e-23 30.871918 -51.406246
3.7185521e-23 28.465645 -51.723221
-6.1182916e-23 26.08404 -51.827263
5.6368346e-23 23.70908 -51.871498
-6.8268717e-24 21.334387 -51.922367
5.1330845e-23 18.959064 -51.995312
9.2992123e-24 16.589045 -51.997517
-6.4064341e-23 14.217381 -52.033989
4.9305454e-23 11.84845 -52.018513
1.231001e-23 9.478754 -52.018505
4.0865128e-23 7.1088486 -52.027355
2.4630402e-23 4.7393527 -52.019615
3.3169727e-23 2.3698344 -51.999733
-3.3602237e-23 -1.1483477e-05 -51.997536
3.6019736e-23 -2.3702285 -51.954426
-4.767366e-23 -4.7409511 -51.924587
2.7179161e-24 -7.1120834 -51.898033
5.4975243e-23 -9.4835443 -51.874805
3.2922958e-23 -11.854795 -51.865959
2.0782257e-23 -14.22718 -51.837208
4.5869125e-23 -16.600941 -51.792946
2.2360584e-23 -18.975214 -51.752007
6.0750494e-23 -21.35009 -51.712143
1.1710312e-23 -23.727179 -51.653458
1.9143067e-24 -26.105843 -51.5881
-1.5919466e-24 -28.498501 -51.392944
2.7008743 45.914848 -12.041252
2.6957242 43.131577 -12.662949
2.7015047 40.522556 -11.965168
2.7093425 37.930786 -11.019081
2.3624561 30.711924 -52.891956
2.35993 28.319143 -53.196877
2.3590953 25.950037 -53.297649
2.3588505 23.58849 -53.327221
2.3584423 21.225973 -53.376476
2.3578622 18.862886 -53.446495
2.3578079 16.504639 -53.453056
2.3575089 14.145036 -53.489132
2.3576267 11.788118 -53.474918
2.3576357 9.4305258 -53.473835
2.3575542 7.0726433 -53.483662
2.3576267 4.7152376 -53.474918
2.3577988 2.3577859 -53.45414
2.3577988 -1.3251394e-05 -53.454144
2.3582065 -2.358223 -53.404911
2.3584332 -4.7168708 -53.377571
2.3586507 -7.0759749 -53.351284
2.3588324 -9.4353466 -53.329407
2.3588505 -11.794263 -53.327225
2.3591316 -14.154794 -53.293282
2.3595035 -16.516539 -53.248367
2.3598304 -18.878649 -53.208939
2.3601661 -21.24151 -53.168396
2.3606291 -23.606314 -53.112476
2.3612106 -25.973333 -53.042305
2.36272 -28.352657 -52.860096
4.7004962 30.553215 -54.365582
4.6958194 28.174908 -54.64785
4.6947594 25.821165 -54.711823
4.6935387 23.467684 -54.785526
4.6929641 21.118315 -54.82019
4.6919055 18.767612 -54.884106
4.6917081 16.420963 -54.895992
4.6911521 14.073445 -54.929573
4.6914573 11.728624 -54.911163
4.6914573 9.3828983 -54.91116
4.6912417 7.036859 -54.92416
4.6914573 4.6914382 -54.91116
4.6917081 2.3458476 -54.896011
4.6916718 -1.6061742e-05 -54.898163
4.6925516 -2.3462954 -54.845116
4.6929817 -4.6929951 -54.819111
4.6934128 -7.040143 -54.79311
4.6934309 -9.3868723 -54.792027
4.6940951 -11.735258 -54.751942
4.6943107 -14.082947 -54.738922
4.6951189 -16.43293 -54.69014
4.6957836 -18.783157 -54.650021
4.6964483 -21.134024 -54.60989
4.6973295 -23.486658 -54.556717
4.6984987 -25.841747 -54.486164
4.7013426 -28.208067 -54.314507
4.7200236 -30.680159 -53.187031
7.7749109 49.241085 -25.22739
7.7167916 46.300735 -27.565907
7.7366424 43.840965 -26.767189
7.0144172 30.395796 -55.827305
7.0082741 28.033085 -56.074451
7.0056605 25.687405 -56.179649
7.0045142 23.348368 -56.225773
7.0037937 21.01136 -56.254715
7.0024881 18.673292 -56.307266
7.0013962 16.336584 -56.351208
7.0014234 14.002825 -56.350117
7.0019827 11.669959 -56.327629
7.0020089 9.3359995 -56.326542
7.0014496 7.0014353 -56.349056
7.0019827 4.6679668 -56.327618
7.0018492 2.3339376 -56.332977
7.0020623 -1.4019343e-05 -56.324398
7.0032349 -2.3344185 -56.277248
7.0038743 -4.6692696 -56.251499
7.0044074 -7.004427 -56.230057
7.0047536 -9.3396912 -56.216103
7.0055804 -11.675982 -56.182865
7.0059004 -14.011824 -56.169975
7.0072603 -16.350288 -56.115257
7.0080876 -18.688253 -56.081966
7.0090752 -21.027246 -56.042233
7.0103564 -23.367863 -55.990696
7.0121193 -25.711121 -55.919758
7.0161285 -28.064529 -55.75843
7.0272985 -30.451641 -55.308998
10.293846 48.89576 -27.421362
10.229187 46.031322 -29.372597
10.223861 43.451397 -29.533358
10.281168 41.124657 -27.803953
10.385763 38.946594 -24.64752
9.304616 30.23999 -57.274021
9.2975655 27.892691 -57.486774
9.2945023 25.559874 -57.579224
9.2930593 23.23263 -57.622761
9.2913361 20.905491 -57.674778
9.2899294 18.579838 -57.717236
9.2887335 16.255266 -57.753311
9.2886982 13.933028 -57.754379
9.289506 11.611865 -57.72998
9.2891893 9.289176 -57.739525
9.2886982 6.966506 -57.754379
9.2895412 4.6447611 -57.728912
9.2886276 2.3221407 -57.756512
9.2893314 -1.3314237e-05 -57.735291
9.2906322 -2.3226759 -57.696007
9.2914762 -4.6457562 -57.670532
9.2917929 -6.9688554 -57.660999
9.2935867 -9.2935982 -57.606831
9.293869 -11.617348 -57.598347
9.2942553 -13.941396 -57.586647
9.2964029 -16.268719 -57.521854
9.2971077 -18.594219 -57.500599
9.2983761 -20.921362 -57.462318
9.3000317 -23.250092 -57.412346
9.3023233 -25.5814 -57.343208
9.3074036 -27.922222 -57.18988
9.3149986 -30.273764 -56.960682
12.785525 48.584988 -29.395775
12.709723 45.754997 -31.225779
12.702671 43.189064 -31.396021
12.753156 40.810081 -30.177223
12.847907 38.543713 -27.889721
12.982313 36.350456 -24.644873
11.571455 30.08577 -58.705986
11.564825 27.755568 -58.866055
11.561121 25.43446 -58.955502
11.558638 23.11726 -59.015442
11.555938 20.800674 -59.080605
11.554153 18.486622 -59.123692
11.554067 16.17568 -59.125793
11.55324 13.863868 -59.145752
11.554415 11.554407 -59.117393
11.553414 9.242713 -59.141548
11.55324 6.9319263 -59.145752
11.553414 4.6213489 -59.14156
11.554284 2.3108361 -59.120537
11.553761 -6.9970597e-06 -59.133156
11.555155 -2.3110528 -59.099529
11.555807 -4.6223288 -59.083775
11.557287 -6.9343915 -59.048027
11.558724 -9.2469845 -59.013348
11.559291 -11.559315 -58.99966
11.559726 -13.871687 -58.989162
11.562864 -16.188019 -58.913425
11.563604 -18.501781 -58.895527
11.564737 -20.816549 -58.868164
11.566744 -23.133501 -58.819752
11.569623 -25.453182 -58.750233
11.575517 -27.781252 -58.607956
11.582378 -30.114197 -58.442307
15.243142 48.269932 -31.397297
15.166276 45.498817 -32.943748
15.15928 42.951286 -33.084457
15.212466 40.566559 -32.014465
15.310024 38.275043 -30.051754
15.449452 36.04871 -27.246649
13.815293 29.933121 -60.123428
13.809073 27.618141 -60.248543
13.804413 25.308081 -60.342304
13.801205 23.002001 -60.406849
13.79841 20.697603 -60.463055
13.79567 18.394205 -60.518177
13.796342 16.095715 -60.504665
13.795361 13.795342 -60.524418
13.79686 11.497369 -60.494251
13.795361 9.1968975 -60.524433
13.795361 6.8976641 -60.524433
13.79567 4.5985537 -60.5182
13.796653 2.2994249 -60.498425
13.795774 -8.2886563e-06 -60.516117
13.797118 -2.2995324 -60.489071
13.798203 -4.5994153 -60.467205
13.79986 -6.8999381 -60.43391
13.801412 -9.2009487 -60.402687
13.802239 -11.501872 -60.386036
13.802653 -13.802675 -60.377689
13.806847 -16.108006 -60.293335
13.807779 -18.410385 -60.274582
13.80866 -20.712996 -60.256878
13.810783 -23.017988 -60.21413
13.814308 -25.326237 -60.143238
13.820842 -27.641701 -60.011753
13.829462 -29.963844 -59.838375
17.663496 47.94376 -33.469536
17.593309 45.239922 -34.679848
17.594175 42.728691 -34.664936
17.654928 40.354103 -33.617287
17.757195 38.051125 -31.853775
17.904213 35.808411 -29.318554
16.037611 29.784121 -61.506935
16.028933 27.478153 -61.656593
16.024866 25.18191 -61.726719
16.021519 22.887871 -61.784443
16.017933 20.594471 -61.846283
16.015305 18.303198 -61.891594
16.01656 16.016544 -61.869957
16.015425 13.727485 -61.889526
16.017157 11.440813 -61.859676
16.015484 9.1516914 -61.8885
16.015425 6.863739 -61.889538
16.015484 4.5758371 -61.888504
16.016977 2.2881277 -61.862759
16.015604 -2.3294044e-06 -61.886452
16.016977 -2.2881548 -61.862747
16.019247 -4.5769405 -61.823624
16.019844 -6.8656564 -61.813313
16.021877 -9.1553745 -61.778267
16.023012 -11.445033 -61.758675
16.023371 -13.734334 -61.752502
16.028633 -16.028648 -61.661743
16.02989 -18.319885 -61.640091
16.030907 -20.611181 -61.622536
16.032583 -22.903713 -61.593643
16.036654 -25.200472 -61.523449
16.043722 -27.503529 -61.401558
16.054279 -29.815098 -61.219543
20.432316 51.080769 -29.765825
20.079168 47.688007 -35.094383
20.002007 45.004513 -36.258659
20.006981 42.514816 -36.183605
20.079414 40.158806 -35.090664
20.186769 37.850182 -33.470791
20.338339 35.592068 -31.183813
18.238459 29.637487 -62.868549
18.229313 27.34396 -63.006527
18.223358 25.057106 -63.096401
18.21991 22.774864 -63.148441
18.215649 20.492588 -63.212719
18.213552 18.213541 -63.24435
18.214972 15.938093 -63.222931
18.213825 13.660355 -63.240269
18.215244 11.38452 -63.218845
18.213892 9.1069365 -63.239239
18.213825 6.8301711 -63.240261
18.213892 4.5534573 -63.239239
18.21558 2.276938 -63.213757
18.213688 -1.6559521e-05 -63.242298
18.215244 -2.2769234 -63.218845
18.215853 -4.5539827 -63.209656
18.218151 -6.8318152 -63.174992
18.220449 -9.1102409 -63.140289
18.221939 -11.388736 -63.117825
18.222208 -13.66667 -63.11375
18.227419 -15.949008 -63.035137
18.230602 -18.230608 -62.987114
18.232767 -20.511881 -62.954422
18.233919 -22.792406 -62.937042
18.237307 -25.076305 -62.885933
18.244085 -27.366144 -62.783649
18.257046 -29.667728 -62.58807
22.777189 50.615971 -32.571194
22.476337 47.450027 -36.6063
22.391212 44.78241 -37.748047
22.402294 42.315437 -37.599407
22.479082 39.962799 -36.569496
22.59729 37.662144 -34.984039
20.463898 31.832722 -63.597752
20.417515 29.491945 -64.219864
20.407555 27.210058 -64.353455
20.400089 24.93343 -64.453568
20.396624 22.662889 -64.500046
20.392782 20.392771 -64.55159
20.391953 18.126163 -64.562691
20.392557 15.860867 -64.554611
20.391352 13.594221 -64.570786
20.391577 11.328634 -64.567741
20.391352 9.0628128 -64.570786
20.391352 6.7971096 -64.570786
20.391352 4.5314064 -64.570786
20.391127 2.2656651 -64.573799
20.390297 -7.1920485e-06 -64.584915
20.391577 -2.2657468 -64.567741
20.392933 -4.5317783 -64.549576
20.394363 -6.798141 -64.530365
20.395794 -9.0648184 -64.511169
20.39798 -11.332219 -64.481873
20.400015 -13.600032 -64.454567
20.403858 -15.869688 -64.403008
20.407402 -18.139927 -64.355484
20.410873 -20.410892 -64.308929
20.414419 -22.682705 -64.26136
20.416382 -24.953371 -64.235046
20.42469 -27.232937 -64.123627
20.435951 -29.518618 -63.972565
25.157724 50.31543 -34.385025
24.848997 47.213089 -38.111725
24.756252 44.561249 -39.231255
24.769144 42.107533 -39.075634
24.854937 39.767895 -38.040035
24.989067 37.483589 -36.420902
22.614466 31.660234 -65.084892
22.574942 29.347416 -65.561981
22.566307 27.079554 -65.666222
22.556185 24.811787 -65.788406
22.552454 22.552446 -65.833435
22.548891 20.293985 -65.876457
22.54566 18.036522 -65.915466
22.54657 15.782584 -65.904449
22.547977 13.528769 -65.887451
22.547977 11.273968 -65.887459
22.547977 9.0191813 -65.887451
22.547977 6.7643805 -65.887459
22.547977 4.5095835 -65.887459
22.546986 2.2546833 -65.899467
22.546074 -1.0334523e-05 -65.910469
22.547647 -2.2547743 -65.891464
22.549057 -4.5098209 -65.874451
22.550631 -6.7651992 -65.855453
22.552206 -9.0208998 -65.836433
22.553782 -11.276903 -65.817413
22.556601 -13.533968 -65.783401
22.55859 -15.791031 -65.759377
22.562407 -18.049948 -65.713303
22.566307 -20.30969 -65.666222
22.570208 -22.570225 -65.619133
22.574112 -24.831539 -65.571999
22.584997 -27.102007 -65.440605
22.597059 -29.376181 -65.295021
27.498055 49.996445 -36.310291
27.198404 46.97905 -39.598564
27.09663 44.339928 -40.715401
27.114376 41.904018 -40.520679
27.215954 39.586823 -39.405983
27.355612 37.303093 -37.873413
24.74367 31.491928 -66.536079
24.711054 29.203964 -66.89399
24.70192 26.947536 -66.994232
24.694689 24.694668 -67.073578
24.688456 22.444036 -67.141983
24.686831 20.198299 -67.159828
24.681232 17.949966 -67.221245
24.678886 15.704729 -67.247002
24.684122 13.464043 -67.189537
24.684212 11.220084 -67.18856
24.684122 8.9760284 -67.189537
24.684122 6.732017 -67.189552
24.684122 4.4880033 -67.189537
24.679697 2.2435942 -67.238083
24.682405 -1.2818974e-05 -67.208374
24.685747 -2.2441783 -67.171707
24.687643 -4.4886732 -67.150902
24.688095 -6.7331181 -67.145958
24.688635 -8.9776926 -67.140007
24.691345 -11.223346 -67.110268
24.69532 -13.470183 -67.06665
24.699299 -15.717752 -67.023003
24.701378 -17.964651 -67.000183
24.702915 -20.211493 -66.983322
24.70454 -22.458691 -66.965454
24.711416 -24.711432 -66.890007
24.718929 -26.966125 -66.807579
24.739952 -29.238136 -66.576889
29.811914 49.686508 -38.180939
29.519073 46.738525 -41.126713
29.421753 44.132622 -42.105663
29.438929 41.705132 -41.932873
29.550114 39.400146 -40.814461
29.699472 37.124332 -39.312012
26.86162 31.338541 -67.858612
26.827559 29.063171 -68.201241
26.81769 26.817671 -68.300522
26.809681 24.575521 -68.381073
26.80324 22.336023 -68.445869
26.800606 20.100441 -68.472366
26.797289 17.86484 -68.50573
26.794655 15.630204 -68.532234
26.797777 13.398885 -68.500832
26.797874 11.165769 -68.49984
26.797777 8.9325857 -68.500832
26.797777 6.6994295 -68.500824
26.797874 4.4662924 -68.49984
26.795143 2.2329082 -68.527306
26.798752 -1.184233e-05 -68.491028
26.801971 -2.2335114 -68.458626
26.802166 -4.467031 -68.456673
26.803043 -6.7007704 -68.447838
26.803532 -8.9345226 -68.44294
26.806265 -11.169293 -68.415436
26.810558 -13.405292 -68.372238
26.814953 -15.642066 -68.328033
26.817299 -17.878212 -68.304443
26.818958 -20.114233 -68.287735
26.821596 -22.351337 -68.261223
26.828634 -24.592934 -68.19043
26.836164 -26.836178 -68.114685
26.855642 -29.09363 -67.918732
32.094032 49.375431 -40.05854
31.819271 46.505081 -42.60981
31.722208 43.923046 -43.511097
31.747963 41.516556 -43.271912
31.862745 39.215664 -42.20615
32.021622 36.948009 -40.730919
28.960827 31.18857 -69.151718
28.923544 28.923531 -69.497894
28.913374 26.689249 -69.592331
28.904051 24.457258 -69.678909
28.897451 22.228806 -69.740181
28.893894 20.003443 -69.773232
28.893368 17.780519 -69.778091
28.890648 15.556489 -69.803352
28.890753 13.33418 -69.802376
28.890753 11.111812 -69.802383
28.890753 8.8894453 -69.802383
28.890753 6.667088 -69.802376
28.890858 4.4447365 -69.801414
28.891066 2.222369 -69.799461
28.895147 -2.561642e-05 -69.761559
28.895567 -2.2227552 -69.757675
28.895775 -4.4455233 -69.75573
28.897032 -6.6685519 -69.74408
28.898081 -8.8917303 -69.734337
28.900906 -11.115755 -69.708084
28.905619 -13.341078 -69.664322
28.910231 -15.567058 -69.621521
28.912851 -17.792542 -69.597191
28.91568 -20.018555 -69.570923
28.918406 -22.244942 -69.545609
28.925642 -24.475552 -69.478416
28.933723 -26.708067 -69.403404
28.950842 -28.950853 -69.244446
34.358055 49.082928 -41.823917
34.090652 46.265862 -44.129513
33.992435 43.704544 -44.976334
34.028393 41.320187 -44.666336
34.147572 39.025776 -43.638729
34.330318 36.782467 -42.06308
31.032522 31.032516 -70.497284
30.998814 28.784595 -70.787933
30.988749 26.561768 -70.874725
30.977797 24.339685 -70.969154
30.97143 22.122431 -71.024055
30.968525 19.908321 -71.04908
30.969645 17.69692 -71.039452
30.965513 15.482738 -71.075073
30.963728 13.270146 -71.090469
30.963615 11.058422 -71.091423
30.963615 8.8467236 -71.091423
30.963728 6.635067 -71.090469
30.963728 4.4233675 -71.090462
30.96674 2.2118993 -71.064491
30.969309 -1.4470177e-05 -71.042351
30.968525 -2.2120483 -71.04908
30.969645 -4.4242516 -71.039459
30.971094 -6.6366777 -71.026947
30.972548 -8.8493204 -71.014412
30.975117 -11.062553 -70.992287
30.98003 -13.277178 -70.94989
30.98506 -15.49254 -70.906525
30.989643 -17.70838 -70.86702
30.992662 -19.92387 -70.840996
30.995682 -22.139782 -70.814949
31.001947 -24.358681 -70.760941
31.010565 -26.580498 -70.686607
31.028151 -28.811871 -70.534988
36.599342 48.799122 -43.536873
36.335632 46.025112 -45.659069
36.248047 43.497646 -46.363903
36.281483 41.119011 -46.094818
36.423065 38.851254 -44.955471
36.623085 36.623074 -43.345821
33.088589 30.882666 -71.789253
33.056023 28.648548 -72.051315
33.041779 26.433409 -72.165916
33.031704 24.223225 -72.24704
33.026958 22.017963 -72.285202
33.022102 19.813244 -72.324303
33.021152 17.611269 -72.331924
33.020203 15.409418 -72.339554
33.018311 13.207307 -72.354813
33.018192 11.00605 -72.355766
33.018192 8.8048353 -72.355766
33.018311 6.6036463 -72.354805
33.018192 4.4024034 -72.355759
33.018902 2.2012477 -72.350044
33.019966 -1.289475e-05 -72.341454
33.021866 -2.2014625 -72.32621
33.025299 -4.4033928 -72.298553
33.02684 -6.6053882 -72.286148
33.028381 -8.8075867 -72.27375
33.030514 -11.010187 -72.256584
33.033123 -13.213264 -72.235603
33.038101 -15.417806 -72.195511
33.044155 -17.623556 -72.146828
33.050797 -19.830498 -72.093338
33.053886 -22.035942 -72.068504
33.058399 -24.242847 -72.032196
33.065762 -26.452625 -71.972946
33.08847 -28.676689 -71.790199
38.809338 48.511662 -45.271824
38.558426 45.788109 -47.164783
38.47229 43.281307 -47.814625
38.526039 40.933907 -47.4091
38.678291 38.678272 -46.260464
38.891132 36.460415 -44.654705
35.124889 30.734262 -73.06881
35.094627 28.514368 -73.297127
35.076694 26.30751 -73.432404
35.068302 24.10944 -73.495743
35.063412 21.914618 -73.532608
35.057777 19.719986 -73.575111
35.052147 17.526062 -73.617607
35.055527 15.336781 -73.592125
35.053398 13.145006 -73.60817
35.053398 10.954168 -73.60817
35.053398 8.7633343 -73.60817
35.053398 6.5725007 -73.608177
35.053398 4.3816633 -73.60817
35.05415 2.190876 -73.602516
35.052647 -1.6129115e-05 -73.613838
35.058029 -2.1911447 -73.573227
35.061661 -4.3827281 -73.545822
35.063412 -6.5743995 -73.532608
35.065044 -8.7662725 -73.520317
35.067173 -10.958507 -73.504257
35.069927 -13.151229 -73.483467
35.072685 -15.344318 -73.462654
35.077698 -17.53887 -73.424835
35.084721 -19.735167 -73.371887
35.09174 -21.93235 -73.318893
35.097137 -24.12929 -73.278191
35.102158 -26.326624 -73.240326
35.126774 -28.540527 -73.054588
41.004566 48.24065 -46.907463
40.757011 45.551937 -48.665245
40.68071 43.073677 -49.207043
40.746506 40.746487 -48.739876
40.909355 38.502903 -47.583515
41.154869 36.31311 -45.84021
37.139862 30.585758 -74.349266
37.106701 28.37569 -74.584755
37.093239 26.183456 -74.680336
37.085857 23.996719 -74.732788
37.080448 21.812021 -74.771164
37.074253 19.627531 -74.81514
37.068195 17.443846 -74.858192
37.071617 15.264773 -74.833855
37.069511 13.083344 -74.848831
37.069511 10.902778 -74.848831
37.069511 8.7222261 -74.848824
37.069378 6.5416403 -74.84977
37.069511 4.3611159 -74.848839
37.070435 2.1805949 -74.842278
37.069115 -1.625352e-05 -74.851646
37.07465 -2.1808653 -74.812347
37.078735 -4.3622217 -74.783318
37.080582 -6.5436397 -74.770233
37.082687 -8.7253561 -74.755257
37.085194 -10.907421 -74.737465
37.088097 -13.089931 -74.716858
37.090996 -15.27277 -74.696259
37.094559 -17.456266 -74.670975
37.098389 -19.640327 -74.643799
37.104591 -21.826248 -74.599754
37.110531 -24.012711 -74.557579
37.121887 -26.203695 -74.476913
37.143833 -28.404114 -74.321098
37.238918 -30.667358 -73.645935
43.172195 47.96909 -48.546474
42.93103 45.316078 -50.163757
42.869038 42.869022 -50.579494
42.950565 40.564415 -50.032764
43.146557 38.352486 -48.718391
43.405334 36.171108 -46.983006
39.133518 30.437164 -75.630432
39.102619 28.24077 -75.837646
39.091412 26.060928 -75.912842
39.083248 23.884195 -75.967567
39.078266 21.710135 -76.000961
39.072186 19.536081 -76.041756
39.06403 17.361776 -76.096428
39.066795 15.192627 -76.077896
39.064995 13.021646 -76.089951
39.064995 10.851377 -76.089943
39.064995 8.6810989 -76.089951
39.064995 6.5108156 -76.089943
39.064995 4.3405375 -76.089951
39.069973 2.1705496 -76.056595
39.067764 -1.4270326e-05 -76.071411
39.073566 -2.1707623 -76.032486
39.076611 -4.3418512 -76.012085
39.078819 -6.5131454 -75.997261
39.081032 -8.6846924 -75.982399
39.083248 -10.856474 -75.96756
39.086151 -13.028721 -75.948097
39.089336 -15.20142 -75.926743
39.093487 -17.374893 -75.898911
39.097775 -19.548901 -75.870132
39.101929 -21.723307 -75.842293
39.106083 -23.898176 -75.814423
39.11647 -26.077665 -75.744774
39.143646 -28.270422 -75.562546
39.192822 -30.483315 -75.23275
45.323135 47.708553 -50.118992
45.088581 45.088562 -51.609154
45.041893 42.671246 -51.905781
45.160374 40.406631 -51.153046
45.373413 38.209183 -49.799568
45.678684 36.062107 -47.860115
41.113262 30.29397 -76.865135
41.081528 28.108402 -77.066719
41.069809 25.938812 -77.141212
41.061417 23.772381 -77.194511
41.05621 21.608511 -77.227577
41.051147 19.445263 -77.259727
41.04797 17.28334 -77.279938
41.041901 15.12068 -77.318497
41.040459 12.96013 -77.327682
41.040024 10.799994 -77.330437
41.040314 8.6400547 -77.328598
41.040459 6.4800634 -77.32769
41.040459 4.320034 -77.327682
41.045803 2.1602926 -77.293716
41.048836 -5.4226962e-06 -77.274437
41.052162 -2.1606581 -77.253311
41.054329 -4.3215213 -77.239525
41.056789 -6.4826541 -77.223915
41.059246 -8.6440639 -77.208298
41.061562 -10.805696 -77.193596
41.064163 -12.967648 -77.17704
41.065323 -15.129334 -77.169701
41.074005 -17.294334 -77.11454
41.082542 -19.460169 -77.060272
41.089207 -21.625908 -77.017982
41.086597 -23.787001 -77.034515
41.094852 -25.954659 -76.982086
41.11964 -28.134508 -76.824608
41.165817 -30.332726 -76.531235
47.428825 47.428814 -51.807346
47.222397 44.861263 -53.053272
47.208408 42.487549 -53.137707
47.352692 40.249779 -52.26688
47.623573 38.09885 -50.631939
47.969296 35.976955 -48.545345
43.072498 30.15073 -78.100143
43.044392 27.97884 -78.269753
43.032921 25.819738 -78.338989
43.019947 23.660959 -78.417313
43.016476 21.508224 -78.43824
43.00909 19.354078 -78.482819
43.008938 17.203558 -78.483742
43.000648 15.050214 -78.533768
43.001099 12.900318 -78.531044
43.002758 10.750683 -78.521027
43.001854 8.6003542 -78.526497
43.001854 6.4502668 -78.526489
43.001701 4.3001585 -78.527397
43.007584 2.1503565 -78.49192
43.011501 -1.0988255e-05 -78.468262
43.011803 -2.1506054 -78.466438
43.011955 -4.3012118 -78.465546
43.017834 -6.4526901 -78.430054
43.017834 -8.6035814 -78.430054
43.020245 -10.755075 -78.415482
43.025375 -12.907632 -78.384529
43.029148 -15.060221 -78.361755
43.038204 -17.215296 -78.307114
43.040768 -19.368361 -78.291634
43.045601 -21.522814 -78.262466
43.051945 -23.678583 -78.224182
43.058743 -25.835253 -78.183151
43.079903 -28.001949 -78.05542
43.12093 -30.184668 -77.807785
50.211124 50.211109 -49.44569
49.507687 47.150166 -53.48914
49.349541 44.649574 -54.398182
49.376587 42.322777 -54.242729
49.608906 40.159573 -52.907322
49.915253 38.030647 -51.146378
50.253815 35.895569 -49.200283
45.017223 30.011463 -79.300911
44.990498 27.851244 -79.454521
44.977779 25.701578 -79.527641
44.962395 23.551714 -79.616058
44.954708 21.406994 -79.66024
44.949062 19.263866 -79.692696
44.949379 17.123556 -79.690887
44.944515 14.981493 -79.718834
44.947182 12.842028 -79.703506
44.947651 10.701812 -79.700806
44.94577 8.5610895 -79.711624
44.947651 6.4210858 -79.700813
44.945301 4.2804909 -79.714333
44.947182 2.1403248 -79.703506
44.952358 -8.1284825e-06 -79.673767
44.951885 -2.1405737 -79.676483
44.95377 -4.2813253 -79.665657
44.95549 -6.4222245 -79.655739
44.962711 -8.5643454 -79.61425
44.962082 -10.705267 -79.617859
44.968517 -12.848164 -79.580872
44.976364 -14.992132 -79.535759
44.978718 -17.134769 -79.522217
44.981075 -19.277626 -79.508682
44.989555 -21.423616 -79.45993
44.998039 -23.570421 -79.411156
45.004799 -25.717052 -79.372299
45.033741 -27.878036 -79.20594
45.068714 -30.045813 -79.004929
52.244003 49.869259 -51.410686
51.595768 46.905228 -54.967449
51.476917 44.457329 -55.619553
51.629517 42.242317 -54.782276
51.91227 40.114017 -53.230839
52.230255 37.985622 -51.486118
47.045509 32.076473 -79.934036
46.938843 29.870159 -80.519302
46.91486 27.722401 -80.650887
46.900513 25.582083 -80.729599
46.886181 23.443083 -80.808258
46.8769 21.307661 -80.859184
46.871037 19.174496 -80.891342
46.875755 17.045723 -80.86544
46.871689 14.913706 -80.887764
46.868759 12.782372 -80.903839
46.87006 10.652277 -80.89669
46.868923 8.5216122 -80.902946
46.868759 6.3911839 -80.903839
46.869572 4.2608547 -80.899376
46.874294 2.1306357 -80.873482
46.875271 -1.4693702e-05 -80.868118
46.873802 -2.1306379 -80.876152
46.879337 -4.261775 -80.845779
46.881943 -6.3930035 -80.831497
46.883896 -8.5243483 -80.820778
46.888134 -10.656412 -80.797539
46.893833 -12.789232 -80.766266
46.897255 -14.921859 -80.747482
46.900841 -17.054867 -80.727798
46.909805 -19.19039 -80.678612
46.91861 -21.326647 -80.630318
46.927254 -23.463646 -80.582878
46.934269 -25.600531 -80.544365
46.958763 -27.748373 -80.410004
46.979519 -29.896076 -80.296089
54.198338 49.485424 -53.617016
53.70863 46.703144 -56.187149
53.795853 44.440037 -55.729382
54.024872 42.280315 -54.527412
54.291546 40.128525 -53.127842
54.598652 37.981659 -51.516064
48.92831 31.909748 -81.275658
48.846848 29.732843 -81.703209
48.824032 27.596172 -81.822952
48.806641 25.464315 -81.91423
48.799717 23.338985 -81.950546
48.785378 21.211027 -82.02581
48.781837 19.08853 -82.044403
48.779308 16.966698 -82.057678
48.774418 14.84438 -82.083336
48.772732 12.723304 -82.092186
48.7729 10.602798 -82.091301
48.7729 8.4822273 -82.091301
48.7729 6.3616595 -82.091301
48.7729 4.2410994 -82.091301
48.778294 2.1207814 -82.062988
48.781837 -2.2688895e-05 -82.044395
48.780823 -2.1209195 -82.049706
48.783352 -4.2420473 -82.036423
48.789932 -6.3639069 -82.001915
48.796513 -8.4863539 -81.967384
48.8009 -10.608898 -81.944359
48.8036 -12.731387 -81.930176
48.806301 -14.854102 -81.916008
48.811195 -16.977831 -81.890305
48.820484 -19.103672 -81.841568
48.829777 -21.230358 -81.792801
48.838394 -23.357513 -81.747566
48.845833 -25.4848 -81.708542
48.862915 -27.618183 -81.618874
48.902199 -29.766582 -81.412689
56.453968 47.04496 -54.124126
56.484287 44.716717 -53.971638
56.623512 42.467628 -53.271378
56.856358 40.273243 -52.100254
57.102856 38.068558 -50.860439
50.796371 31.747726 -82.579613
50.737389 29.596798 -82.876282
50.712055 27.469017 -83.003708
50.70245 25.351206 -83.052017
50.686569 23.231329 -83.131897
50.683777 21.118227 -83.145943
50.676449 19.00366 -83.182785
50.66843 16.889456 -83.223129
50.66407 14.777002 -83.245049
50.662674 12.665657 -83.252052
50.662674 10.554707 -83.25206
50.662498 8.4437351 -83.252937
50.662674 6.3328252 -83.25206
50.662674 4.2218633 -83.25206
50.667732 2.1111412 -83.226631
50.671043 -1.3255193e-05 -83.209969
50.675751 -2.1114995 -83.186287
50.68203 -4.2235236 -83.154709
50.686043 -6.3357658 -83.134537
50.686569 -8.4477844 -83.131889
50.687962 -10.560011 -83.124886
50.693546 -12.673407 -83.096786
50.701225 -14.787868 -83.058151
50.707687 -16.902571 -83.025673
50.711704 -19.016907 -83.005455
50.715546 -21.131498 -82.986145
50.724457 -23.248728 -82.941338
50.738613 -25.36932 -82.870117
50.757854 -27.493843 -82.773369
50.794098 -29.629906 -82.591072
60.03907 38.424992 -48.171352
52.672134 31.603262 -83.742065
52.611069 29.462189 -84.036919
52.583294 27.343292 -84.171028
52.568157 25.232704 -84.244125
52.561855 23.127203 -84.274567
52.552849 21.021122 -84.318039
52.554291 18.919527 -84.311089
52.546726 16.814939 -84.347595
52.542408 14.711866 -84.368454
52.541145 12.609865 -84.374535
52.541145 10.50822 -84.374542
52.54097 8.4065418 -84.375404
52.54097 6.3048997 -84.37542
52.541145 4.2032795 -84.374527
52.546009 2.1018305 -84.351074
52.551949 -7.6317938e-06 -84.322388
52.554291 -2.1021864 -84.311089
52.55447 -4.2043743 -84.310211
52.560234 -6.3072419 -84.282387
52.563477 -8.4101753 -84.266739
52.564735 -10.512961 -84.260643
52.566895 -12.616068 -84.250221
52.570499 -14.719744 -84.232819
52.578789 -16.825226 -84.19278
52.587803 -18.931625 -84.149261
52.595554 -21.038229 -84.111832
52.602592 -23.145159 -84.077858
52.617386 -25.256351 -84.006424
52.636524 -27.371016 -83.914001
52.671955 -29.496309 -83.742943
54.535564 31.462816 -84.87236
54.477272 29.333897 -85.143005
54.450867 27.225416 -85.265602
54.437675 25.125065 -85.326851
54.430801 23.028402 -85.358765
54.419662 20.930624 -85.410484
54.410194 18.834286 -85.45443
54.411491 16.741978 -85.448395
54.413536 14.649783 -85.438919
54.412235 12.556654 -85.444962
54.412235 10.46388 -85.444954
54.412235 8.3710995 -85.444962
54.412235 6.2783256 -85.444954
54.412235 4.1855454 -85.444954
54.412052 2.0927582 -85.445824
54.408894 -1.5254331e-05 -85.460457
54.414089 -2.092864 -85.436333
54.419102 -4.1861005 -85.413078
54.424488 -6.2797718 -85.388069
54.429874 -8.3738451 -85.36306
54.43433 -10.468159 -85.342369
54.437115 -12.56242 -85.329437
54.439346 -14.656769 -85.319077
54.443245 -16.751789 -85.300972
54.452171 -18.848841 -85.25956
54.460907 -20.946514 -85.218994
54.471317 -23.04557 -85.170654
54.486576 -25.147665 -85.099823
54.505566 -27.2528 -85.011658
54.544518 -29.370136 -84.830811
56.432064 31.351137 -85.771118
56.327679 29.206936 -86.237793
56.294369 27.104681 -86.386696
56.28022 25.013416 -86.449966
56.265118 22.922813 -86.517479
56.251934 20.834038 -86.576408
56.241047 18.746994 -86.625092
56.236652 16.662693 -86.644722
56.23341 14.579015 -86.659233
56.231884 12.495955 -86.666054
56.231693 10.41326 -86.666908
56.231884 8.3306351 -86.666061
56.231693 6.2479482 -86.666908
56.231884 4.1653104 -86.666054
56.234364 2.0827379 -86.654953
56.237034 -1.2711456e-05 -86.643013
56.240093 -2.0829902 -86.629356
56.242764 -4.1661458 -86.617401
56.249447 -6.2499623 -86.587524
56.254604 -8.3340311 -86.564461
56.26244 -10.418983 -86.529434
56.271805 -12.504857 -86.487572
56.278114 -14.590632 -86.459366
56.283661 -16.676651 -86.434586
56.288822 -18.762953 -86.411491
56.300491 -20.852055 -86.359322
56.315418 -22.943333 -86.292595
56.331127 -25.036066 -86.222374
56.349899 -27.131451 -86.13842
56.440521 -29.265471 -85.733284
56.473999 -31.374464 -85.583603
58.216331 31.187311 -87.08947
58.127102 29.063534 -87.474159
58.102329 26.976059 -87.58094
58.088772 24.89517 -87.639374
58.077972 22.816338 -87.685951
58.059914 20.735664 -87.763802
58.053635 18.660089 -87.790871
58.039906 16.582821 -87.850052
58.036381 14.509081 -87.86528
58.034805 12.436015 -87.872032
58.034805 10.363347 -87.872032
58.03442 8.2906199 -87.873726
58.034611 6.2179761 -87.872879
58.034805 4.145328 -87.872032
58.037746 2.0727603 -87.859344
58.041866 -1.3889696e-05 -87.841599
58.052654 -2.0733182 -87.795097
58.056187 -4.1468821 -87.779877
58.059322 -6.2206569 -87.766342
58.067368 -8.2953491 -87.731651
58.076794 -10.370864 -87.691025
58.081699 -12.446091 -87.669861
58.087399 -14.521862 -87.645317
58.093292 -16.598099 -87.619911
58.099186 -18.674749 -87.594498
58.107243 -20.752602 -87.559753
58.117069 -22.831717 -87.517403
58.133003 -24.914162 -87.448708
58.158386 -27.002127 -87.339264
58.238628 -29.119333 -86.993324
58.328011 -31.247158 -86.608017
59.990746 31.029682 -88.357918
59.928509 28.930992 -88.616966
59.904705 26.853817 -88.716072
59.879105 24.777548 -88.822647
59.864594 22.707247 -88.883018
59.854725 20.639542 -88.924095
59.847477 18.573334 -88.954262
59.840031 16.507582 -88.98526
59.835606 14.443057 -89.003685
59.833797 12.379384 -89.01123
59.833797 10.316154 -89.011223
59.833797 8.2529297 -89.01123
59.833591 6.189672 -89.012054
59.834198 4.1264877 -89.00956
59.837421 2.0633414 -88.996155
59.841438 -1.7767426e-05 -88.979401
59.846878 -2.0637016 -88.956772
59.8507 -4.1276393 -88.940857
59.854725 -6.1918864 -88.924103
59.859356 -8.256485 -88.904816
59.864193 -10.321428 -88.884705
59.869232 -12.386757 -88.863739
59.876888 -14.453055 -88.831871
59.888775 -16.521059 -88.782387
59.900871 -18.589947 -88.73201
59.911968 -20.659323 -88.685837
59.922256 -22.729151 -88.643005
59.935379 -24.800861 -88.588402
59.956177 -26.876921 -88.501816
60.021912 -28.976114 -88.228195
60.175983 -31.125521 -87.586876
61.764511 30.882248 -89.544418
61.710258 28.798107 -89.762726
61.685856 26.730524 -89.860931
61.666016 24.666397 -89.940758
61.653419 22.606243 -89.991447
61.642475 20.54748 -90.035484
61.634422 18.490316 -90.067871
61.615234 16.430712 -90.145081
61.610703 14.375812 -90.163338
61.608635 12.321713 -90.171631
61.608635 10.268086 -90.171631
61.608635 8.2144632 -90.171631
61.608433 6.1608214 -90.172455
61.609051 4.1072555 -90.169975
61.612762 2.0537412 -90.155037
61.621426 -1.1460926e-05 -90.120171
61.633804 -2.0544808 -90.070366
61.638348 -4.109242 -90.052078
61.642887 -6.1643076 -90.033806
61.648254 -8.2197847 -90.012222
61.653831 -10.275643 -89.989784
61.659203 -12.33186 -89.968178
61.6656 -14.388653 -89.942413
61.673042 -16.446159 -89.912483
61.682343 -18.504705 -89.875069
61.694332 -20.564793 -89.826797
61.70509 -22.625221 -89.783539
61.715851 -24.686356 -89.74025
61.747108 -26.75709 -89.614464
61.816788 -28.847857 -89.334091
62.009842 -31.004938 -88.557304
62.052696 -33.094784 -88.384865
63.536362 30.743385 -90.661865
63.482285 28.669401 -90.872429
63.45602 26.610579 -90.974701
63.435066 24.555498 -91.056274
63.421322 22.504326 -91.109818
63.409901 20.454792 -91.154274
63.40081 18.40667 -91.189674
63.393627 16.359629 -91.217644
63.388767 14.313582 -91.236565
63.386654 12.268373 -91.244804
63.386654 10.223635 -91.244797
63.386654 8.1789055 -91.244797
63.386444 6.1341567 -91.245621
63.387077 4.0894785 -91.243156
63.391094 2.0448527 -91.227516
63.39595 -1.790104e-05 -91.208595
63.40081 -2.0452039 -91.189667
63.405888 -4.0907183 -91.169914
63.410751 -6.136538 -91.150986
63.416241 -8.1827593 -91.129585
63.422161 -10.229404 -91.106522
63.427879 -12.276376 -91.084282
63.435066 -14.324059 -91.056282
63.443325 -16.372492 -91.024147
63.454117 -18.422182 -90.982117
63.46661 -20.473124 -90.933456
63.47826 -22.524559 -90.888107
63.490124 -24.576832 -90.841911
63.521717 -26.638157 -90.718872
63.579262 -28.713228 -90.494804
63.840252 -30.890465 -89.478516
63.781807 -32.919655 -89.706108
65.293213 30.60618 -91.766022
65.249596 28.54668 -91.930557
65.224022 26.49724 -92.027039
65.206032 24.452246 -92.094856
65.191963 22.409723 -92.147957
65.180061 20.368752 -92.192848
65.17054 18.329199 -92.22876
65.163406 16.290836 -92.255684
65.157997 14.253298 -92.276077
65.156265 12.216792 -92.2826
65.156052 10.180622 -92.283424
65.156052 8.1444912 -92.283424
65.156052 6.1083655 -92.283417
65.156487 4.0722628 -92.281792
65.161026 2.036262 -92.264664
65.165993 -9.2544333e-06 -92.245895
65.170975 -2.0366099 -92.227127
65.176163 -4.073523 -92.207542
65.181145 -6.1107407 -92.188774
65.186989 -8.1483936 -92.166725
65.193047 -10.186422 -92.14386
65.199112 -12.224841 -92.120995
65.206467 -14.263922 -92.093231
65.214699 -16.303688 -92.06218
65.222717 -18.34391 -92.031937
65.232903 -20.385298 -91.993523
65.245262 -22.428066 -91.946915
65.257622 -24.471626 -91.900276
65.280624 -26.520271 -91.813507
65.335365 -28.58423 -91.607018
65.765404 -30.827557 -89.984795
65.607178 -32.803604 -90.58168
67.042435 30.473829 -92.831139
66.997406 28.42313 -92.99588
66.971039 26.382517 -93.092331
66.952873 24.346493 -93.158768
66.93959 22.313175 -93.207344
66.928749 20.281425 -93.247017
66.919685 18.250805 -93.280182
66.912827 16.221279 -93.30526
66.90818 14.192622 -93.322243
66.906189 12.16475 -93.329529
66.906189 10.137293 -93.329529
66.906189 8.109828 -93.329521
66.906189 6.0823617 -93.329529
66.906853 4.0549536 -93.327103
66.910393 2.027566 -93.314156
66.91526 -1.5821721e-05 -93.296364
66.92012 -2.0278959 -93.278564
66.924988 -4.0560713 -93.260757
66.929634 -6.0845361 -93.243767
66.934952 -8.1133404 -93.224342
66.940918 -10.142583 -93.202484
66.946899 -12.172182 -93.180626
66.95443 -14.202475 -93.153091
66.962616 -16.233381 -93.123116
66.97081 -18.264778 -93.09314
66.98101 -20.297285 -93.05587
66.994301 -22.331448 -93.007225
67.007385 -24.366344 -92.959366
67.030899 -26.406134 -92.873344
67.076866 -28.456875 -92.7052
67.763832 -30.801762 -90.19236
67.595284 -32.773491 -90.808884
68.787262 30.347307 -93.849236
68.740341 28.304832 -94.015816
68.71431 26.2731 -94.108269
68.697334 24.246105 -94.168526
68.684669 22.221498 -94.213501
68.674713 20.198437 -94.248817
68.66703 18.176554 -94.2761
68.661163 16.155546 -94.296974
68.656868 14.135223 -94.312225
68.655281 12.115627 -94.317833
68.655052 10.096316 -94.318634
68.655281 8.0770712 -94.317833
68.655281 6.0578084 -94.317825
68.65551 4.0385494 -94.317032
68.659348 2.0193827 -94.303391
68.663193 -2.0233931e-05 -94.289749
68.667259 -2.01964 -94.275299
68.671326 -4.0395093 -94.260857
68.675621 -6.0596266 -94.245605
68.680374 -8.0800552 -94.228752
68.685799 -10.100868 -94.209473
68.691452 -12.122028 -94.189415
68.698242 -14.143766 -94.165306
68.706383 -16.166222 -94.136391
68.714531 -18.189165 -94.107468
68.724495 -20.213099 -94.072105
68.738304 -22.23888 -94.023064
68.752129 -24.265472 -93.973999
68.777519 -26.29731 -93.88385
68.821762 -28.338385 -93.726776
69.201668 -30.530167 -92.377991
69.75238 -32.824665 -90.422783
70.856216 30.366936 -93.691292
70.727158 28.290848 -94.136406
70.702011 26.260731 -94.223137
70.684792 24.234768 -94.282532
70.674553 22.21199 -94.317833
70.699455 20.199823 -94.231972
70.749527 18.192724 -94.059242
70.757225 16.173061 -94.032715
70.753029 14.150591 -94.047188
70.75116 12.12876 -94.053612
70.751625 10.107362 -94.052002
70.751625 8.0858898 -94.052002
70.751625 6.0644045 -94.05201
70.751862 4.0429492 -94.051208
70.755356 2.0215685 -94.039154
70.759087 -1.6111208e-05 -94.026276
70.750237 -2.0214469 -94.056824
70.713654 -4.0407968 -94.182976
70.699684 -6.0599866 -94.231163
70.68898 -8.0787592 -94.268089
70.673622 -10.096242 -94.32103
70.678978 -12.116404 -94.302589
70.685722 -14.137161 -94.27932
70.693398 -16.158504 -94.252823
70.701317 -18.180349 -94.225548
70.71109 -20.203184 -94.191818
70.724365 -22.227673 -94.146034
70.73764 -24.252918 -94.100235
70.812996 -26.301979 -93.840378
70.914948 -28.365988 -93.488747
72.310226 -30.990118 -88.676598
72.357742 -33.077835 -88.512741
74.783928 31.159956 -87.309555
74.669151 29.037998 -87.694412
74.63736 26.952374 -87.801018
74.613411 24.871117 -87.881325
74.595016 22.792904 -87.943016
74.577881 20.716064 -88.000443
74.564545 18.641125 -88.045181
74.624748 16.583267 -87.843292
74.665367 14.51825 -87.7071
74.661583 12.443583 -87.719795
74.661331 10.369617 -87.720642
74.661331 8.2956905 -87.72065
74.661331 6.2217593 -87.720657
74.661835 4.1478705 -87.718964
74.667892 2.0740902 -87.698647
74.60862 -1.277959e-05 -87.897385
74.562782 -2.0711982 -88.051086
74.569328 -4.1427469 -88.029144
74.576874 -6.2147489 -88.003815
74.585442 -8.287282 -87.975098
74.594254 -10.36033 -87.945549
74.601814 -12.433655 -87.920204
74.610886 -14.507688 -87.889786
74.621475 -16.582556 -87.854286
74.631813 -18.65797 -87.819603
74.64518 -20.734795 -87.774788
74.660065 -22.812809 -87.724892
74.675468 -24.891846 -87.673241
74.704262 -26.976543 -87.576714
74.824211 -29.09832 -87.174492
75.597099 -31.498808 -84.582932
79.238266 32.1236 -79.55471
