# .PCD v0.7 - Point Cloud Data file format
VERSION 0.7
FIELDS x y z
SIZE 4 4 4
TYPE F F F
COUNT 1 1 1
WIDTH 1498
HEIGHT 1
VIEWPOINT 0 0 0 1 0 0 0
POINTS 1498
DATA ascii
-71.044624 -2.7324986 -8.2254496
-71.044312 -5.4649625 -8.2269115
-71.043999 -8.1973886 -8.2283831
-71.044312 -10.929905 -8.2269087
-71.052223 -13.663898 -8.1901884
-71.067734 -16.400269 -8.1181612
-71.075966 -19.135851 -8.0799484
-71.086731 -21.87286 -8.0299368
-71.108597 -24.614536 -7.9284334
-71.139679 -27.361429 -7.7841578
-68.095909 32.68602 -9.2695084
-68.038513 29.936932 -9.546607
-67.997192 27.198875 -9.7461433
-67.98243 24.473654 -9.8174267
-67.972786 21.751284 -9.8639975
-67.964958 19.03018 -9.9018068
-67.955925 16.309406 -9.9454079
-67.945389 13.589067 -9.9962912
-67.935753 10.869716 -10.04279
-67.927032 8.1512327 -10.084917
-67.931549 5.4345131 -10.063132
-67.934258 2.7173486 -10.050036
-67.924324 -2.0014653e-05 -10.097969
-67.908989 -2.7163787 -10.172034
-67.917107 -5.4333811 -10.132825
-67.909294 -8.149128 -10.170569
-67.921013 -10.867382 -10.113946
-67.920418 -13.584095 -10.116871
-67.931847 -16.30365 -10.06167
-67.930641 -19.020586 -10.067487
-67.9487 -21.743593 -9.9803028
-67.96978 -24.469131 -9.8785362
-67.995689 -27.198299 -9.7534037
-75.106773 -39.055527 24.581932
-74.563492 -41.755569 21.95874
-74.882004 -44.929211 23.496651
-64.979744 32.489853 -11.242781
-64.938759 29.76359 -11.448886
-64.913284 27.047195 -11.577041
-64.891258 24.334204 -11.687811
-64.87896 21.626312 -11.749652
-64.866676 18.919422 -11.811461
-64.857529 16.214367 -11.857446
-64.847534 13.50989 -11.907744
-64.838394 10.806391 -11.953693
-64.83297 8.1041145 -11.980978
-64.838676 5.4032154 -11.952262
-64.836685 2.7015111 -11.962304
-64.824409 -8.9885662e-06 -12.024044
-64.812706 -2.7005389 -12.082882
-64.819557 -5.4016342 -12.04844
-64.80957 -8.1012173 -12.098651
-64.825264 -10.80422 -12.019734
-64.824692 -13.505165 -12.022596
-64.833832 -16.208481 -11.97666
-64.831833 -18.909298 -11.986712
-64.849533 -21.616533 -11.897667
-64.8741 -24.327805 -11.774094
-64.894119 -27.03923 -11.673441
-71.946434 -35.973221 23.796978
-71.253624 -38.595726 20.312424
-71.15377 -41.506393 19.810228
-71.448624 -44.655407 21.293179
-61.906456 32.299015 -13.162588
-61.870628 29.590294 -13.350613
-61.845955 26.889532 -13.480117
-61.825359 24.19252 -13.588188
-61.813175 21.500216 -13.65215
-61.801533 18.809151 -13.713242
-61.79612 16.120718 -13.741653
-61.78611 13.431755 -13.794209
-61.777451 10.743885 -13.839623
-61.786377 8.0590734 -13.792768
-61.770695 5.3713551 -13.875113
-61.775017 2.6858609 -13.852404
-61.762856 -1.5031957e-05 -13.916259
-61.752312 -2.6848888 -13.971576
-61.757988 -5.3702774 -13.94178
-61.748798 -8.0542068 -13.990017
-61.763126 -10.741432 -13.914836
-61.763126 -13.426781 -13.914832
-61.771774 -16.114391 -13.869428
-61.782597 -18.803417 -13.81265
-61.786377 -21.490938 -13.79277
-61.811005 -24.186924 -13.663523
-61.831318 -26.883198 -13.556909
-69.109055 -33.052166 24.638754
-68.24939 -35.608387 20.126959
-67.866997 -38.359619 18.120049
-67.788422 -41.262531 17.707705
-68.056839 -44.384907 19.116396
-58.868813 32.110256 -15.061371
-58.83725 29.418608 -15.234548
-58.814434 26.73382 -15.359747
-58.795475 24.052689 -15.463758
-58.782925 21.375603 -15.532603
-58.771664 18.700068 -15.594398
-58.77013 16.028214 -15.602818
-58.75964 13.354446 -15.660365
-58.760666 10.683738 -15.654747
-58.749409 8.0112705 -15.7165
-58.745319 5.3404694 -15.738935
-58.74839 2.6703687 -15.722114
-58.733562 -1.2552125e-05 -15.803457
-58.727169 -2.6694279 -15.838519
-58.732025 -5.3392916 -15.811872
-58.723343 -8.0077362 -15.85954
-58.728195 -10.677872 -15.832905
-58.736629 -13.349245 -15.786621
-58.745319 -16.021467 -15.738944
-58.745831 -18.691864 -15.736134
-58.758877 -21.366877 -15.664571
-58.784721 -24.048306 -15.522769
-58.803413 -26.728832 -15.420188
-59.016808 -29.508417 -14.249315
-64.903458 -35.401897 18.049841
-64.552094 -38.144428 16.121948
-64.463921 -41.022522 15.638186
-64.709923 -44.120407 16.987932
-55.86816 31.924646 -16.928333
-55.838863 29.248919 -17.096743
-55.817822 26.579899 -17.217701
-55.800407 23.914455 -17.31777
-55.788574 21.252775 -17.385817
-55.776978 18.592302 -17.452438
-55.778667 15.93675 -17.442741
-55.769497 13.278439 -17.495468
-55.768532 10.622559 -17.501007
-55.755501 7.9650674 -17.575932
-55.754776 5.3099728 -17.580088
-55.756706 2.6550753 -17.568998
-55.748745 -1.3808332e-05 -17.614752
-55.736687 -2.6541367 -17.684069
-55.740543 -5.3086414 -17.661879
-55.733307 -7.9619074 -17.703476
-55.734032 -10.616014 -17.699322
-55.743439 -13.272258 -17.645264
-55.753567 -15.929599 -17.587029
-55.755013 -18.585016 -17.578703
-55.768768 -21.245266 -17.499624
-55.788811 -23.909515 -17.384415
-55.810322 -26.576357 -17.260786
-55.955021 -29.30979 -16.429039
-61.628521 -35.216309 16.182936
-61.301292 -37.948437 14.301995
-61.195309 -40.796886 13.692819
-61.387447 -43.848194 14.79727
-62.289955 -47.459026 19.984976
-52.902225 31.741327 -18.772476
-52.875553 29.081539 -18.933445
-52.855736 26.427849 -19.053034
-52.839806 23.777895 -19.149187
-52.828434 21.131357 -19.217838
-52.817516 18.486118 -19.283735
-52.820927 15.846254 -19.263138
-52.818653 13.204653 -19.276863
-52.799789 10.559945 -19.390715
-52.798882 7.9198217 -19.396198
-52.797974 5.2797813 -19.401691
-52.79911 2.6399505 -19.394836
-52.796154 -1.7835184e-05 -19.412659
-52.780487 -2.639044 -19.507223
-52.783211 -5.2783327 -19.490786
-52.777534 -7.9166427 -19.525028
-52.777534 -10.555523 -19.52504
-52.784798 -13.196208 -19.481194
-52.796837 -15.839066 -19.408533
-52.798428 -18.479464 -19.398935
-52.815018 -21.126026 -19.298809
-52.824566 -23.771072 -19.241173
-52.851185 -26.425611 -19.080524
-52.929832 -29.11142 -18.605827
-58.389961 -35.033981 14.348939
-58.076302 -37.749611 12.455836
-57.94302 -40.560131 11.651442
-58.122517 -43.5919 12.734783
-58.765507 -47.012417 16.615549
-49.970371 31.560213 -20.594191
-49.946392 28.916319 -20.746542
-49.927353 26.277544 -20.867493
-49.912819 23.642902 -20.959843
-49.902134 21.011417 -21.027725
-49.892738 18.381523 -21.08742
-49.896793 15.756869 -21.061657
-49.886116 13.127907 -21.129465
-49.87822 10.500675 -21.179657
-49.877365 7.8753605 -21.18508
-49.876728 5.2501607 -21.189135
-49.87566 2.6250153 -21.195908
-49.869259 -1.436509e-05 -21.236572
-49.857525 -2.6240942 -21.311106
-49.856888 -5.2481136 -21.31517
-49.856674 -7.8721156 -21.316536
-49.856674 -10.496157 -21.316534
-49.864994 -13.122377 -21.263685
-49.8699 -15.748404 -21.232525
-49.876942 -18.375725 -21.18778
-49.882915 -21.003344 -21.149811
-49.896156 -23.63504 -21.065704
-49.922863 -26.275209 -20.896021
-49.983871 -28.938053 -20.50843
-55.177971 -34.849258 12.49069
-54.885185 -37.553032 10.630584
-54.736748 -40.332359 9.6875048
-54.864265 -43.3139 10.497649
-55.418247 -46.668011 14.017225
-47.072388 31.381573 -22.391205
-47.050529 28.753088 -22.537809
-47.032093 26.128931 -22.661417
-47.018879 23.50942 -22.750048
-47.008869 20.892811 -22.81715
-47.000668 18.278028 -22.872171
-47.002468 15.667477 -22.86009
-46.995266 13.054228 -22.908381
-46.989269 10.442048 -22.94862
-46.98867 7.8314347 -22.952629
-46.987869 5.2208729 -22.957998
-46.981472 2.6100659 -23.000883
-46.97588 -1.8413961e-05 -23.038404
-46.968887 -2.609401 -23.085295
-46.968685 -5.2187557 -23.086639
-46.968487 -7.8280969 -23.087975
-46.968487 -10.437452 -23.08799
-46.971481 -13.047641 -23.067888
-46.976078 -15.658703 -23.037067
-46.988071 -18.273149 -22.956654
-46.991268 -20.885017 -22.935207
-47.00227 -23.501144 -22.861429
-47.027088 -26.126167 -22.695005
-47.081417 -28.771997 -22.330645
-52.04084 -34.693913 10.927987
-51.747494 -37.373211 8.9607677
-51.569889 -40.109932 7.7697248
-51.648273 -43.040237 8.2953548
-52.086739 -46.299335 11.235793
-44.207401 31.205206 -24.165319
-44.186985 28.591564 -24.310266
-44.169773 25.982208 -24.432522
-44.157429 23.377443 -24.520142
-44.148087 20.775547 -24.586504
-44.140984 18.175686 -24.636913
-44.138744 15.578363 -24.652843
-44.135941 12.98115 -24.672729
-44.132393 10.384084 -24.697935
-44.131836 7.7879515 -24.701902
-44.130714 5.1918349 -24.70985
-44.119514 2.5952501 -24.789385
-44.114845 -1.5256102e-05 -24.822508
-44.112793 -2.5948842 -24.837078
-44.112606 -5.1897426 -24.838402
-44.112423 -7.7845659 -24.839733
-44.112606 -10.379452 -24.838415
-44.11298 -12.974421 -24.835756
-44.115223 -15.570088 -24.819857
-44.131271 -18.171717 -24.705877
-44.132954 -20.768457 -24.693951
-44.141171 -23.368862 -24.635605
-44.163788 -25.978708 -24.475018
-44.211521 -28.607468 -24.136049
-48.908386 -34.523575 9.2146053
-48.635628 -37.191967 7.2778821
-48.45195 -39.901615 5.9736261
-48.47131 -42.768822 6.1111288
-48.821392 -45.949551 8.5969057
-41.373566 31.030149 -25.926191
-41.354744 28.431366 -26.068205
-41.338718 25.836689 -26.189089
-41.329147 23.247633 -26.261309
-41.320621 20.660295 -26.325602
-41.312798 18.074337 -26.384645
-41.310364 15.491378 -26.403021
-41.307755 12.908651 -26.422676
-41.306019 10.326493 -26.435791
-41.305496 7.7447715 -26.43973
-41.302368 5.1627779 -26.463322
-41.292118 2.5807519 -26.540663
-41.288124 -1.42983e-05 -26.570797
-41.287258 -2.5804601 -26.577349
-41.287083 -5.1608944 -26.578667
-41.286907 -7.7413063 -26.579971
-41.287083 -10.321789 -26.578657
-41.28743 -12.902343 -26.576027
-41.2883 -15.48313 -26.56949
-41.30463 -18.070786 -26.446289
-41.306713 -20.653372 -26.430561
-41.312622 -23.238373 -26.385954
-41.334019 -25.833775 -26.224546
-41.374786 -28.445179 -25.916981
-45.821289 -34.365986 7.6292858
-45.551895 -37.010937 5.5968742
-45.357422 -39.687756 4.1296716
-45.346737 -42.512585 4.0490685
-45.594845 -45.594856 5.9209023
-38.571667 30.857317 -27.664812
-38.55341 28.27248 -27.81175
-38.540817 25.693857 -27.913092
-38.533073 23.119837 -27.975433
-38.524841 20.546577 -28.041634
-38.517265 17.974712 -28.102612
-38.515011 15.405994 -28.120785
-38.512592 12.837521 -28.140226
-38.510498 10.269453 -28.157099
-38.509689 7.7019267 -28.163586
-38.50663 5.1342049 -28.188225
-38.497288 2.5664663 -28.263384
-38.493423 -1.0251531e-05 -28.294493
-38.492458 -2.5661793 -28.302275
-38.492294 -5.1323204 -28.303574
-38.492294 -7.6984839 -28.303555
-38.492294 -10.264634 -28.30356
-38.492619 -12.830889 -28.300972
-38.493748 -15.397513 -28.291899
-38.50808 -17.970451 -28.17655
-38.511303 -20.539366 -28.150614
-38.516941 -23.110176 -28.105215
-38.536781 -25.691206 -27.945564
-38.570538 -28.285076 -27.673929
-42.760262 -34.208233 6.0423679
-42.487244 -36.822289 3.8453152
-42.313 -39.492153 2.4430995
-42.279762 -42.279774 2.1755977
-42.45295 -45.283157 3.5693042
-35.801708 30.687166 -29.376469
-35.783066 28.115246 -29.537201
-35.774719 25.553366 -29.609177
-35.767418 22.993326 -29.672092
-35.759228 20.433826 -29.742718
-35.752533 17.876249 -29.800461
-35.750301 15.321546 -29.819714
-35.748066 12.767162 -29.838959
-35.746132 10.213172 -29.855637
-35.744499 7.6595159 -29.869726
-35.741673 5.1059356 -29.894102
-35.733051 2.552351 -29.968464
-35.729332 -1.7217746e-05 -30.000504
-35.728294 -2.5520341 -30.009464
-35.728294 -5.1040535 -30.009462
-35.728294 -7.6560864 -30.009464
-35.728294 -10.208107 -30.00946
-35.728588 -12.760214 -30.006912
-35.729778 -15.31277 -29.996658
-35.742565 -17.871292 -29.886414
-35.746727 -20.426718 -29.8505
-35.751785 -22.983295 -29.806885
-35.770252 -25.55019 -29.647715
-35.79768 -28.12676 -29.411196
-39.750191 -34.071602 4.668098
-39.47961 -36.659653 2.3351259
-39.29575 -39.295753 0.74981469
-39.256241 -42.060265 0.40915397
-39.395954 -45.023952 1.6138149
-33.06213 30.518867 -31.069323
-33.044731 27.960915 -31.230858
-33.038574 25.414276 -31.288059
-33.031597 22.868015 -31.352854
-33.023937 20.322407 -31.423958
-33.017784 17.778786 -31.481085
-33.015736 15.238016 -31.500113
-33.013683 12.697556 -31.519163
-33.011909 10.157489 -31.535648
-33.010132 7.6177068 -31.552145
-33.006989 5.0779819 -31.581318
-32.999207 2.5383859 -31.653591
-32.995522 -1.0517334e-05 -31.68782
-32.994568 -2.5380569 -31.696688
-32.994568 -5.0761032 -31.696676
-32.994568 -7.6141448 -31.696693
-32.994568 -10.152189 -31.696682
-32.994701 -12.690274 -31.695427
-32.996204 -15.229033 -31.681473
-33.007401 -17.773237 -31.577505
-33.01218 -20.315203 -31.533115
-33.016964 -22.857914 -31.488695
-33.033783 -25.410618 -31.332539
-33.055828 -27.970329 -31.127853
-36.791538 -33.96143 3.5598476
-36.527344 -36.527359 1.106707
-36.330349 -39.125004 -0.72248185
-36.264278 -41.843407 -1.3359807
-36.393673 -44.792233 -0.13447246
-37.04237 -48.440037 5.8889389
-30.407843 32.941818 -32.186375
-30.352308 30.352289 -32.744995
-30.337551 27.809402 -32.893448
-30.331926 25.27659 -32.950024
-30.324932 22.743675 -33.020397
-30.317936 20.211939 -33.090748
-30.312321 17.682167 -33.14724
-30.310446 15.155216 -33.166077
-30.308575 12.62857 -33.184906
-30.306953 10.1023 -33.201221
-30.305332 7.5763249 -33.217533
-30.301964 5.0503139 -33.251408
-30.294731 2.524549 -33.324165
-30.291742 -1.9309036e-05 -33.35424
-30.290871 -2.524251 -33.363014
-30.290871 -5.0484967 -33.36301
-30.290871 -7.5727282 -33.363029
-30.290871 -10.096971 -33.363026
-30.291117 -12.621313 -33.360512
-30.292364 -15.146191 -33.347969
-30.30184 -17.676088 -33.252666
-30.307079 -20.204742 -33.199959
-30.311321 -22.733507 -33.15728
-30.326054 -25.271729 -33.009094
-30.344053 -27.815392 -32.828049
-33.869244 -33.869259 2.6326466
-33.629452 -36.431919 0.22052956
-33.433521 -39.005795 -1.7503567
-33.333618 -41.667042 -2.7553203
-33.406673 -44.542248 -2.0204699
-33.959225 -48.108917 3.5378036
-27.711905 32.750416 -33.963562
-27.671116 30.186653 -34.411179
-27.658413 27.658401 -34.550556
-27.653316 25.139355 -34.606506
-27.646856 22.620144 -34.677383
-27.640514 20.102186 -34.746956
-27.635424 17.586157 -34.802837
-27.633389 15.072743 -34.825188
-27.631577 12.559788 -34.845051
-27.630106 10.047301 -34.861195
-27.628635 7.5350761 -34.877335
-27.625584 5.0228205 -34.910843
-27.619591 2.5108495 -34.976589
-27.61801 -1.4004536e-05 -34.993958
-27.617105 -2.5106499 -35.003887
-27.617105 -5.021296 -35.003891
-27.617105 -7.5319548 -35.003872
-27.617105 -10.0426 -35.00388
-27.617443 -12.553391 -35.000168
-27.618572 -15.064682 -34.987766
-27.625017 -17.579565 -34.917053
-27.630219 -20.094721 -34.859962
-27.634066 -22.609705 -34.817734
-27.647083 -25.13373 -34.674877
-27.662041 -27.662058 -34.510742
-30.990351 -33.807663 2.0131164
-30.78636 -36.383896 -0.22541879
-30.610283 -38.958557 -2.1576314
-30.468912 -41.548523 -3.709013
-30.462721 -44.309425 -3.7769227
-30.870005 -47.708206 0.69247013
-25.041594 32.554062 -35.786869
-25.019129 30.022949 -36.058044
-25.008419 27.509253 -36.187313
-25.003733 25.003717 -36.243885
-24.997824 22.498028 -36.315216
-24.99202 19.993605 -36.385269
-24.987541 17.491274 -36.439339
-24.985201 14.991115 -36.467598
-24.983673 12.49183 -36.486008
-24.98225 9.9928942 -36.503208
-24.980928 7.4942746 -36.519165
-24.978081 4.9956007 -36.553528
-24.974318 2.4974144 -36.598942
-24.972794 -1.7041435e-05 -36.617348
-24.971979 -2.4972057 -36.627163
-24.971979 -4.9944053 -36.627178
-24.971979 -7.4916067 -36.627163
-24.971979 -9.9888058 -36.627178
-24.972286 -12.486163 -36.623486
-24.973303 -14.983997 -36.611214
-24.977369 -17.484173 -36.562122
-24.982351 -19.985899 -36.501957
-24.986013 -22.487429 -36.457756
-24.997213 -24.997227 -36.322598
-25.011274 -27.512417 -36.152843
-28.164898 -33.797886 1.9147687
-28.009066 -36.411797 0.033676784
-27.87266 -39.02174 -1.6128552
-27.763937 -41.645931 -2.9252605
-27.686886 -44.29903 -3.8553736
-27.827528 -47.306816 -2.1576409
-22.415482 32.377903 -37.422535
-22.395752 29.860987 -37.687134
-22.387037 27.361921 -37.804043
-22.382589 24.869534 -37.863689
-22.377237 22.377234 -37.935471
-22.371889 19.886112 -38.007202
-22.368082 17.39739 -38.05827
-22.365908 14.910592 -38.087425
-22.364187 12.424535 -38.110497
-22.363008 9.9390965 -38.126286
-22.361832 7.4539304 -38.142094
-22.359207 4.9686952 -38.177307
-22.357124 2.4841018 -38.205223
-22.355858 -9.9863473e-06 -38.222237
-22.355043 -2.4839144 -38.23315
-22.355043 -4.9678006 -38.233162
-22.355043 -7.4516978 -38.233154
-22.355043 -9.9355946 -38.233147
-22.355314 -12.419631 -38.229511
-22.356218 -14.904162 -38.217365
-22.358482 -17.389946 -38.187035
-22.363008 -19.878242 -38.126305
-22.366543 -22.366554 -38.078915
-22.37606 -24.862303 -37.951275
-22.389032 -27.364384 -37.77726
-25.391537 -33.855396 2.493207
-25.292099 -36.533043 1.159519
-25.21472 -39.222908 0.12168315
-25.197691 -41.996166 -0.10672509
-25.252079 -44.892601 0.62276787
-19.817717 32.203777 -39.039402
-19.800367 29.700539 -39.301178
-19.793501 27.216047 -39.404785
-19.789351 24.736673 -39.4674
-19.784643 22.257713 -39.538414
-19.779942 19.779932 -39.609386
-19.776592 17.304499 -39.659882
-19.774681 14.83099 -39.688747
-19.772848 12.358009 -39.716385
-19.771814 9.8858948 -39.732014
-19.770699 7.4139948 -39.74884
-19.769186 4.9422812 -39.771675
-19.767752 2.4709527 -39.793282
-19.766638 -1.2704207e-05 -39.810116
-19.765841 -2.4707537 -39.822113
-19.765841 -4.9414759 -39.822128
-19.765841 -7.4122114 -39.822121
-19.765841 -9.8829241 -39.822124
-19.766081 -12.353806 -39.818527
-19.766956 -14.825227 -39.805302
-19.768867 -17.297771 -39.776466
-19.771654 -19.77166 -39.734425
-19.775158 -22.24707 -39.681534
-19.783051 -24.728827 -39.562477
-19.794937 -27.21805 -39.383114
-22.695908 -34.043877 4.3891616
-22.687412 -36.867058 4.2609525
-22.833693 -39.958981 6.4681783
-17.247742 32.031509 -40.638977
-17.232311 29.541092 -40.905109
-17.227678 27.07205 -40.984966
-17.223326 24.604736 -41.060013
-17.219597 22.139471 -41.124336
-17.215593 19.674948 -41.193359
-17.212765 17.212746 -41.242146
-17.211109 14.75237 -41.270683
-17.209385 12.292407 -41.300423
-17.20842 9.8333693 -41.317062
-17.207523 7.3746367 -41.332523
-17.206282 4.9160614 -41.35392
-17.205042 2.4578416 -41.375317
-17.203938 -2.7005278e-06 -41.394341
-17.203249 -2.4576287 -41.406212
-17.203249 -4.915225 -41.406216
-17.203249 -7.3728342 -41.406231
-17.203249 -9.8304453 -41.406216
-17.203457 -12.288186 -41.40266
-17.204214 -14.746478 -41.38958
-17.20587 -17.205879 -41.361065
-17.208212 -19.666546 -41.320625
-17.211246 -22.128765 -41.268307
-17.217871 -24.596972 -41.154083
-17.227747 -27.072182 -40.98378
-17.308702 -29.672071 -39.587742
-14.705118 31.861071 -42.221519
-14.692381 29.384752 -42.477734
-14.688864 26.929565 -42.548504
-14.684177 24.473619 -42.642818
-14.681717 22.022562 -42.692295
-14.678323 19.571091 -42.760616
-14.675981 17.121965 -42.807686
-14.674577 14.674561 -42.835945
-14.673115 12.227577 -42.865364
-14.672296 9.7815199 -42.881836
-14.67136 7.3356738 -42.900658
-14.670191 4.8900499 -42.924194
-14.669138 2.4448397 -42.945343
-14.668028 -1.3686486e-05 -42.967693
-14.667444 -2.4445961 -42.97945
-14.667444 -4.8891635 -42.979443
-14.667444 -7.3337398 -42.979446
-14.667444 -9.7783184 -42.979446
-14.667619 -12.223037 -42.975918
-14.668262 -14.668274 -42.962994
-14.669782 -17.114759 -42.932407
-14.672062 -19.562763 -42.886555
-14.674519 -22.011784 -42.83712
-14.679903 -24.466522 -42.728802
-14.687574 -26.927238 -42.57444
-14.726058 -29.452133 -41.800201
-12.188245 31.689419 -43.815365
-12.179341 29.230398 -44.030323
-12.176248 26.787735 -44.105015
-12.171948 24.343895 -44.208832
-12.170258 21.906443 -44.249619
-12.1677 19.468309 -44.311394
-12.165865 17.032202 -44.355656
-12.16466 14.597571 -44.384769
-12.163406 12.163394 -44.415058
-12.162779 9.7302122 -44.430195
-12.161766 7.2970386 -44.454632
-12.160753 4.8642826 -44.479069
-12.159886 2.4319539 -44.500015
-12.158874 -1.1658394e-05 -44.524452
-12.158441 -2.4317021 -44.534924
-12.158392 -4.8633657 -44.536098
-12.158392 -7.2950559 -44.536083
-12.158392 -9.7267323 -44.536095
-12.158537 -12.158546 -44.5326
-12.159115 -14.590948 -44.518642
-12.160368 -17.02454 -44.488377
-12.162344 -19.459774 -44.440662
-12.164467 -21.896048 -44.389442
-12.168713 -24.337439 -44.286919
-12.174604 -26.78414 -44.14468
-12.197162 -29.273199 -43.600105
-13.84938 -36.008392 -3.7120366
-13.740082 -38.472244 -6.3507156
-13.783111 -41.349346 -5.3119025
-9.6983461 31.519608 -45.392139
-9.6926775 29.078028 -45.563225
-9.6895018 26.64612 -45.659073
-9.6862507 24.215611 -45.75716
-9.6848745 21.790953 -45.798702
-9.6832695 19.366524 -45.847118
-9.6818943 16.943304 -45.888638
-9.6809015 14.521336 -45.918591
-9.6799469 12.099912 -45.947399
-9.6792974 9.679287 -45.966991
-9.6784582 7.2588277 -45.992329
-9.6776562 4.83882 -46.016521
-9.6769314 2.4192176 -46.038391
-9.6760921 -1.2804629e-05 -46.06374
-9.6757107 -2.4189439 -46.075233
-9.6757107 -4.8378592 -46.075245
-9.6757107 -7.2567992 -46.075237
-9.6757107 -9.6757183 -46.075245
-9.675787 -12.094746 -46.072945
-9.6762829 -14.514437 -46.057968
-9.6772747 -16.935247 -46.02803
-9.6788397 -19.357687 -45.98082
-9.6806726 -21.781532 -45.92551
-9.6838427 -24.209623 -45.829826
-9.6884298 -26.643196 -45.691383
-9.7032547 -29.109777 -45.244022
-10.93077 -35.525009 -8.2004671
-10.899603 -38.148624 -9.1410027
-10.936519 -41.011959 -8.0269966
-7.2353029 31.35297 -46.939518
-7.2318068 28.927221 -47.080215
-7.228909 26.505985 -47.196785
-7.2265825 24.088589 -47.290413
-7.2255611 21.676661 -47.331509
-7.2245688 19.265505 -47.371449
-7.2236896 16.855274 -47.40683
-7.222981 14.445945 -47.435337
-7.2222719 12.037113 -47.463852
-7.2216487 9.6288452 -47.488926
-7.2209969 7.2209764 -47.515141
-7.2204304 4.8136148 -47.537949
-7.2198925 2.4066224 -47.559605
-7.2192693 -1.7471712e-05 -47.584656
-7.2189298 -2.4063208 -47.598339
-7.2189016 -4.8126121 -47.599483
-7.2189016 -7.218924 -47.599468
-7.2189016 -9.6252203 -47.599472
-7.2189584 -12.031621 -47.597191
-7.2193828 -14.438787 -47.580101
-7.2201195 -16.846951 -47.550484
-7.2212238 -19.25662 -47.506023
-7.222754 -21.668283 -47.44445
-7.2247391 -24.082478 -47.364616
-7.228313 -26.503839 -47.22076
-7.238461 -28.953867 -46.812439
-8.1317616 -35.237652 -10.868814
-8.1126938 -37.859257 -11.636036
-8.1348524 -40.674278 -10.744443
-4.7984676 31.190025 -48.452503
-4.7960482 28.776276 -48.598534
-4.794137 26.367737 -48.713875
-4.7928824 23.964403 -48.789593
-4.7922087 21.564926 -48.830265
-4.7915535 19.166197 -48.869793
-4.7908802 16.768064 -48.910439
-4.7903938 14.371171 -48.939796
-4.7900949 11.975219 -48.957848
-4.7896647 9.57932 -48.98381
-4.7892537 7.1838722 -49.008629
-4.789104 4.7890902 -49.017662
-4.7888236 2.3943939 -49.034561
-4.7880573 -6.5408335e-06 -49.080822
-4.7878146 -2.3939252 -49.095478
-4.7880201 -4.7880387 -49.083065
-4.7877955 -7.1817036 -49.096603
-4.7877955 -9.5756111 -49.096592
-4.7881508 -11.970381 -49.075184
-4.7881322 -14.364412 -49.076302
-4.7889166 -16.76123 -49.028934
-4.7893653 -19.157482 -49.001854
-4.7901692 -21.555775 -48.953331
-4.7917409 -23.958714 -48.858498
-4.7933879 -26.363651 -48.759087
-4.7992373 -28.795439 -48.406052
-5.3828869 -34.98877 -13.17968
-5.3694372 -37.586071 -13.991426
-5.3808804 -40.356617 -13.300771
-2.3868852 31.029505 -49.943119
-2.3855858 28.627008 -50.099945
-2.3846865 26.231539 -50.208508
-2.3841767 23.841753 -50.270039
-2.3838434 21.454573 -50.310287
-2.3835099 19.068068 -50.350552
-2.3831396 16.681959 -50.395237
-2.3828804 14.297268 -50.426521
-2.3827972 11.913968 -50.436565
-2.3825936 9.5303612 -50.461151
-2.3823807 7.1471248 -50.486835
-2.3822699 4.7645311 -50.500244
-2.3823624 2.3823423 -50.489063
-2.3817797 -1.3136758e-05 -50.559391
-2.3816409 -2.381655 -50.576141
-2.3817613 -4.7635298 -50.561642
-2.3816316 -7.1449065 -50.577271
-2.3816316 -9.5265408 -50.577248
-2.3818815 -11.909422 -50.547131
-2.3818076 -14.290859 -50.556057
-2.3823714 -16.676609 -50.487961
-2.3824363 -19.059511 -50.480129
-2.3828342 -21.445518 -50.432117
-2.3836582 -23.836601 -50.332645
-2.3845289 -26.229822 -50.227539
-2.3870523 -28.644638 -49.922939
-2.6729057 -34.747784 -15.417388
-2.6656826 -37.319576 -16.289301
-2.6685462 -40.028206 -15.943617
-2.6989496 -43.183216 -12.273585
3.7121024e-23 30.870483 -51.419567
5.0481096e-23 28.479403 -51.584778
5.1047479e-23 26.097744 -51.676727
2.8518262e-23 23.720367 -51.735413
4.060854e-23 21.345264 -51.77636
3.5883282e-23 18.970926 -51.816193
6.4370962e-23 16.596994 -51.860435
6.278041e-23 14.224508 -51.890301
-1.2972925e-23 11.853388 -51.899155
6.9360033e-23 9.4819317 -51.922356
8.7967836e-23 7.1107883 -51.948887
8.0001975e-23 4.7402091 -51.967678
3.361294e-23 2.3702164 -51.952206
7.4583959e-23 -1.3345604e-05 -52.02293
5.432336e-23 -2.3695183 -52.041706
3.6702542e-23 -4.7393084 -52.024036
1.9102929e-24 -7.1085086 -52.041725
-1.3734264e-23 -9.4780073 -52.041721
-4.7834316e-24 -11.848739 -52.01189
7.6210407e-23 -14.218 -52.021824
-3.7522888e-23 -16.591757 -51.951115
-4.6272132e-23 -18.962379 -51.945587
-2.7669069e-23 -21.336296 -51.896938
-2.2674784e-23 -23.715342 -51.79628
3.4085348e-23 -26.09667 -51.688896
-3.2641266e-24 -28.495527 -51.422901
7.6401993e-23 -34.518017 -17.550957
-1.7667834e-24 -37.065758 -18.477631
8.1619538e-23 -39.718803 -18.433475
-4.7531082e-23 -42.730942 -15.685632
2.3625562 30.713219 -52.879864
2.3611016 28.333199 -53.055466
2.3604929 25.965399 -53.128922
2.3600209 23.600193 -53.185932
2.3596849 21.237141 -53.22646
2.3593493 18.874771 -53.266987
2.358932 16.512512 -53.317356
2.3587687 14.152602 -53.337063
2.3586597 11.793283 -53.350201
2.358506 9.4340038 -53.368805
2.3582883 7.0748539 -53.395073
2.3580797 4.7161441 -53.420231
2.3581524 2.358135 -53.411488
2.3576539 -7.3959463e-06 -53.471645
2.3574817 -2.3574917 -53.492428
2.3576901 -4.7153993 -53.467258
2.3574817 -7.0724645 -53.49242
2.3574817 -9.4299459 -53.492413
2.3578169 -11.789101 -53.451962
2.3576539 -14.145944 -53.471638
2.358134 -16.50695 -53.413677
2.3582883 -18.86632 -53.395069
2.3585873 -21.227293 -53.358959
2.359422 -23.594231 -53.258244
2.3604476 -25.964933 -53.134422
2.3623469 -28.348183 -52.905117
2.63764 -34.289341 -19.674309
2.6300647 -36.820919 -20.588739
2.6269455 -39.404194 -20.965273
2.6450655 -42.321068 -18.777981
4.7011447 30.557425 -54.326447
4.6983366 28.190002 -54.49593
4.6971498 25.834314 -54.567566
4.6962509 23.481241 -54.621811
4.6955857 21.130121 -54.661953
4.6949034 18.779606 -54.703171
4.6938796 16.428568 -54.764938
4.6938972 14.081683 -54.763859
4.6932511 11.733106 -54.802856
4.6931615 9.3863096 -54.808277
4.6927309 7.0390906 -54.834286
4.6923003 4.6922836 -54.860283
4.6923718 2.3461673 -54.855942
4.6915469 -1.7757749e-05 -54.905743
4.6910982 -2.3455577 -54.932816
4.6917796 -4.6917911 -54.891674
4.6910982 -7.0366659 -54.932812
4.6910982 -9.3822136 -54.932819
4.6916184 -11.729069 -54.901409
4.6915646 -14.074713 -54.904663
4.6922822 -16.422997 -54.861362
4.6926951 -18.7708 -54.836445
4.6933413 -21.120043 -54.797447
4.6943827 -23.471933 -54.734596
4.6968803 -25.832857 -54.583855
4.7002807 -28.201694 -54.378616
5.2418613 -34.072102 -21.691338
5.2246089 -36.572269 -22.732597
5.2170563 -39.127941 -23.188423
5.2433844 -41.947083 -21.599405
7.0263867 32.789787 -55.345699
7.015861 30.40204 -55.769192
7.0119586 28.047823 -55.926212
7.0101695 25.703936 -55.998196
7.0088615 23.362862 -56.050838
7.007874 21.023615 -56.090569
7.0067539 18.684662 -56.135654
7.0054202 16.34597 -56.189297
7.0054998 14.01099 -56.186085
7.0044074 11.673992 -56.230057
7.0043278 9.3390837 -56.233265
7.0036607 7.0036449 -56.26009
7.0030217 4.6686778 -56.285828
7.0030217 2.3343267 -56.285812
7.0025415 -3.2843184e-06 -56.305122
7.0011568 -2.333735 -56.360836
7.0015297 -4.6677094 -56.345833
7.0012903 -7.0013065 -56.355469
7.0011568 -9.3348961 -56.360836
7.0013962 -11.669003 -56.351208
7.0027022 -14.005417 -56.298679
7.0028081 -16.339903 -56.294392
7.0035548 -18.676155 -56.264374
7.0051541 -21.015465 -56.200027
7.0076337 -23.358801 -56.10022
7.0095825 -25.701824 -56.021835
7.0141501 -28.056618 -55.838047
7.8177409 -33.876896 -23.504044
7.7855659 -36.332668 -24.798656
7.7731051 -38.865536 -25.300056
7.7968774 -41.583359 -24.343504
9.3163071 32.607067 -56.921204
9.3071566 30.248247 -57.197346
9.3023233 27.906952 -57.343193
9.299962 25.574873 -57.414467
9.2983055 23.245754 -57.464455
9.2969322 20.918085 -57.505901
9.2953119 18.590614 -57.554779
9.293869 16.264248 -57.598331
9.2940454 13.941058 -57.593029
9.2934818 11.616831 -57.61002
9.2918978 9.2918835 -57.657799
9.291441 6.9685645 -57.6716
9.290597 4.6452794 -57.697071
9.2904558 2.3225996 -57.701324
9.2897873 -7.4421464e-06 -57.721489
9.2884865 -2.322129 -57.76075
9.2888384 -4.6444364 -57.750141
9.2891893 -6.9668994 -57.739532
9.2881002 -9.2881098 -57.772411
9.2888384 -11.611057 -57.750134
9.2890491 -13.933584 -57.743774
9.2900343 -16.257568 -57.714062
9.2912302 -18.582481 -57.677967
9.2935867 -20.910589 -57.606823
9.2959461 -23.239872 -57.53566
9.2989044 -25.572002 -57.446369
9.304369 -27.913115 -57.281467
10.370008 -33.702549 -25.122959
10.325722 -36.140041 -26.459385
10.300154 -38.62558 -27.231009
10.325549 -41.302212 -26.464647
11.582553 32.431133 -58.438076
11.575429 30.096094 -58.610058
11.569841 27.767605 -58.744968
11.566875 25.447109 -58.816597
11.564912 23.129805 -58.863953
11.562951 20.813292 -58.911316
11.560946 18.497509 -58.959709
11.559552 16.183363 -58.993359
11.559813 13.871758 -58.987053
11.558987 11.558975 -59.007027
11.556852 9.2454586 -59.058537
11.556808 6.9340811 -59.059605
11.555372 4.6221299 -59.094276
11.555024 2.3109877 -59.102688
11.553066 -1.6611692e-05 -59.149956
11.554023 -2.3108208 -59.126854
11.553675 -4.6214929 -59.13525
11.554589 -6.9327698 -59.113182
11.552282 -9.2418346 -59.168869
11.553675 -11.553695 -59.135254
11.553414 -13.864115 -59.141548
11.554371 -16.176126 -59.11845
11.555851 -18.489367 -59.082722
11.558987 -20.80619 -59.007042
11.561557 -23.123129 -58.944988
11.564476 -25.441858 -58.874477
11.571238 -27.770983 -58.711258
12.909217 -33.563969 -26.409573
12.855715 -35.996014 -27.701242
12.814847 -38.444557 -28.687862
12.816506 -41.012836 -28.647797
13.830032 32.270061 -59.826874
13.821051 29.945602 -60.007591
13.814774 27.629538 -60.133854
13.811249 25.32062 -60.204769
13.808814 23.014669 -60.253735
13.80638 20.709551 -60.302715
13.803999 18.405313 -60.350624
13.802757 16.103205 -60.375626
13.803068 13.803054 -60.369362
13.802032 11.501678 -60.390194
13.800376 9.2002382 -60.423512
13.798876 6.8994265 -60.453686
13.797738 4.5992303 -60.476578
13.797066 2.2994909 -60.490097
13.795464 -1.609273e-05 -60.522339
13.797066 -2.2995327 -60.490097
13.796239 -4.5987697 -60.506737
13.796239 -6.8981318 -60.506752
13.793964 -9.1959934 -60.552517
13.796239 -11.496884 -60.506741
13.79598 -13.795992 -60.511951
13.796239 -16.095625 -60.506748
13.798464 -18.397959 -60.462017
13.801877 -20.702835 -60.393311
13.804464 -23.007462 -60.341244
13.80809 -25.314842 -60.26833
13.815189 -27.63039 -60.125519
15.453019 -33.481548 -27.174906
15.398013 -35.928707 -28.281546
15.352292 -38.380749 -29.20138
15.317732 -40.847305 -29.89666
15.479987 -43.859985 -26.632351
16.055237 32.110466 -61.202969
16.044382 29.796694 -61.390175
16.037014 27.492006 -61.517254
16.032942 25.194603 -61.587452
16.030787 22.901115 -61.624603
16.028036 20.60746 -61.672062
16.025225 18.314533 -61.720531
16.023911 16.02389 -61.743214
16.024208 13.735025 -61.738068
16.022953 11.44495 -61.75972
16.02104 9.1548662 -61.792694
16.019129 6.8653302 -61.825676
16.018591 4.576725 -61.834942
16.017157 2.2881563 -61.859676
16.015902 -1.8473444e-05 -61.881298
16.016857 -2.2881465 -61.864815
16.016857 -4.5762639 -61.864807
16.016857 -6.8643785 -61.86483
16.013573 -9.1506262 -61.921448
16.016857 -11.440624 -61.864826
16.016619 -13.728548 -61.868938
16.016977 -16.016987 -61.862759
16.019547 -18.308067 -61.81847
16.022594 -20.600489 -61.765907
16.025106 -22.893017 -61.722607
16.030308 -25.190491 -61.632866
16.036594 -27.491322 -61.524483
18.025042 -33.475098 -27.234915
17.987673 -35.975361 -27.879322
17.963146 -38.492477 -28.302259
17.954962 -41.039925 -28.443413
18.258474 31.952309 -62.566559
18.245916 29.649599 -62.75602
18.235952 27.353916 -62.90638
18.232904 25.070229 -62.952377
18.230736 22.788403 -62.985073
18.228571 20.507137 -63.017773
18.225727 18.225723 -63.060669
18.223291 15.94536 -63.097412
18.223562 13.667651 -63.093323
18.222345 11.388953 -63.111713
18.220585 9.1102819 -63.138252
18.218353 6.8318648 -63.171909
18.216866 4.5541954 -63.194363
18.215446 2.2769182 -63.215778
18.213079 -1.742434e-05 -63.251484
18.214703 -2.2768593 -63.227001
18.214703 -4.5536804 -63.227009
18.214703 -6.8305278 -63.226994
18.212 -9.1060095 -63.267807
18.214703 -11.384209 -63.226994
18.215919 -13.661951 -63.208637
18.214363 -15.937591 -63.232098
18.217203 -18.217213 -63.189259
18.22072 -20.498322 -63.136211
18.223696 -22.779634 -63.09129
18.228704 -25.064486 -63.015713
18.235544 -27.353331 -62.91251
20.714109 -33.660435 -25.513884
20.761772 -36.333107 -24.794691
20.438221 31.792782 -63.942142
20.424236 29.501663 -64.129715
20.413666 27.218203 -64.2715
20.411251 24.947071 -64.303879
20.408836 22.676464 -64.336258
20.406424 20.406414 -64.368637
20.404011 18.136879 -64.400978
20.401522 15.867828 -64.434349
20.400089 13.600052 -64.453568
20.398657 11.332569 -64.472763
20.397301 9.0654573 -64.490952
20.395947 6.7986403 -64.509148
20.394514 4.5321035 -64.528343
20.392405 2.2658083 -64.556641
20.389996 -1.8950424e-05 -64.588951
20.388943 -2.2654419 -64.603096
20.389017 -4.5309062 -64.602081
20.389017 -6.7963529 -64.602074
20.388943 -9.0617638 -64.603096
20.388943 -11.327208 -64.603088
20.390221 -13.593492 -64.585915
20.39263 -15.860953 -64.553596
20.394665 -18.128597 -64.526337
20.397829 -20.397846 -64.483887
20.40107 -22.667873 -64.440407
20.407402 -24.942392 -64.355476
20.413965 -27.218645 -64.267441
20.487738 -29.593418 -63.277996
22.597307 31.636223 -65.292
22.58375 29.35886 -65.455658
22.574858 27.089817 -65.562988
22.569794 24.826765 -65.624138
22.565891 22.565876 -65.671242
22.56282 20.306526 -65.708298
22.560167 18.04812 -65.740349
22.558424 15.79089 -65.761368
22.557098 13.534249 -65.777382
22.554527 11.27725 -65.808411
22.55204 9.0208101 -65.83844
22.550549 6.7651544 -65.856453
22.549057 4.5098033 -65.874451
22.549469 2.2549343 -65.869461
22.547152 -1.2834891e-05 -65.897453
22.544996 -2.2545111 -65.92347
22.544996 -4.5090036 -65.92347
22.544996 -6.7635055 -65.923477
22.544912 -9.0179815 -65.924454
22.544912 -11.27246 -65.924469
22.546322 -13.527813 -65.907463
22.548973 -15.784307 -65.87545
22.550051 -18.040052 -65.862457
22.555025 -20.299536 -65.802406
22.55826 -22.55827 -65.763367
22.566057 -24.822681 -65.66922
22.575275 -27.090349 -65.557961
22.622971 -29.40987 -64.982224
24.736324 31.48258 -66.616699
24.721645 29.216473 -66.777771
24.714312 26.961048 -66.858246
24.707617 24.707596 -66.931717
24.704269 22.458414 -66.968437
24.70002 20.209093 -67.01506
24.696316 17.960951 -67.05574
24.69496 15.71497 -67.070618
24.693604 13.469215 -67.085472
24.691526 11.223407 -67.108284
24.688545 8.9776421 -67.140999
24.685566 6.7324061 -67.173691
24.684303 4.4880381 -67.187569
24.684935 2.2440729 -67.180634
24.683039 -1.237254e-05 -67.201447
24.680601 -2.2437065 -67.22818
24.68051 -4.4873838 -67.229164
24.68051 -6.7310643 -67.229164
24.68042 -8.9747152 -67.230156
24.68042 -11.218386 -67.230156
24.681953 -13.462899 -67.21331
24.685024 -15.70866 -67.179649
24.684122 -17.952101 -67.189545
24.690172 -20.201059 -67.123154
24.694689 -22.44973 -67.073586
24.701197 -24.701214 -67.002159
24.714132 -26.960882 -66.860229
24.74358 -29.242422 -66.537071
26.856133 31.332144 -67.913803
26.836847 29.073233 -68.107788
26.829613 26.829599 -68.180588
26.822477 24.587257 -68.252373
26.819937 22.34993 -68.277916
26.816322 20.112232 -68.314278
26.812416 17.874928 -68.353569
26.810951 15.639702 -68.368301
26.809484 13.404734 -68.383049
26.807241 11.169666 -68.405624
26.803923 8.9346294 -68.439003
26.799923 6.6999636 -68.47924
26.798555 4.4664164 -68.492989
26.799141 2.2332394 -68.487083
26.796898 -1.9322275e-05 -68.509651
26.794168 -2.2328584 -68.537132
26.794069 -4.4656916 -68.538094
26.794069 -6.6985288 -68.538101
26.793974 -8.9313326 -68.539078
26.794069 -11.164212 -68.538094
26.795631 -13.397839 -68.522408
26.799046 -15.632791 -68.48806
26.798363 -17.865583 -68.494942
26.805386 -20.104059 -68.424263
26.810463 -22.342066 -68.373215
26.817299 -24.582546 -68.304451
26.828732 -26.828754 -68.18943
26.86162 -29.100103 -67.85862
28.956095 31.183479 -69.195656
28.932253 28.932236 -69.417038
28.924175 26.699223 -69.492058
28.916834 24.468077 -69.560211
28.914108 22.24161 -69.58551
28.911385 20.015564 -69.610817
28.908346 17.789738 -69.63903
28.906773 15.565176 -69.653633
28.905096 13.340803 -69.669205
28.902582 11.116367 -69.692535
28.898287 8.8917694 -69.732399
28.893995 6.6678319 -69.772255
28.892532 4.4449902 -69.785851
28.893055 2.2225244 -69.780998
28.890543 -8.0102654e-06 -69.804329
28.887405 -2.2221231 -69.833466
28.887299 -4.4442139 -69.834442
28.887405 -6.6663418 -69.833466
28.887299 -8.8884087 -69.834457
28.887299 -11.110518 -69.83445
28.888973 -13.33339 -69.818901
28.892845 -15.557698 -69.782951
28.892321 -17.779902 -69.787796
28.899649 -20.007473 -69.719757
28.90625 -22.235588 -69.658508
28.911802 -24.463848 -69.606934
28.92239 -26.697613 -69.508606
28.959038 -28.959051 -69.16832
31.033421 31.033407 -70.489548
31.011124 28.796032 -70.681793
31.002619 26.573662 -70.755142
30.993782 24.352238 -70.831345
30.987967 22.134249 -70.88147
30.98506 19.918953 -70.906532
30.982603 17.704334 -70.927727
30.980814 15.490392 -70.943146
30.978912 13.27666 -70.959526
30.977127 11.06324 -70.97493
30.973886 8.8496675 -71.002876
30.969309 6.6362681 -71.042336
30.967299 4.4238873 -71.059677
30.967857 2.2119761 -71.054855
30.965178 -1.5861047e-05 -71.07795
30.961494 -2.2115555 -71.109711
30.961494 -4.4230804 -71.109726
30.961494 -6.6346273 -71.109718
30.961494 -8.8461609 -71.109711
30.961494 -11.057681 -71.109718
30.96328 -13.269991 -71.094315
30.967411 -15.483723 -71.058701
30.967299 -17.695604 -71.059677
30.971989 -19.910583 -71.019234
30.980253 -22.128773 -70.947952
30.987743 -24.347521 -70.883392
30.999596 -26.571108 -70.781181
31.035664 -28.818842 -70.47023
33.089897 30.883888 -71.778725
33.071465 28.661921 -71.92704
33.061722 26.449358 -72.005447
33.052464 24.238453 -72.079971
33.045815 22.030529 -72.133453
33.039173 19.823486 -72.186928
33.036205 17.619297 -72.210793
33.033951 15.415831 -72.228912
33.031582 13.212617 -72.247993
33.029568 11.009846 -72.264221
33.028145 8.8074865 -72.27565
33.025654 6.6051087 -72.295685
33.023521 4.4031177 -72.312851
33.023521 2.2015588 -72.312859
33.020676 -2.1368342e-05 -72.335739
33.016769 -2.2011352 -72.36721
33.016769 -4.4022465 -72.367188
33.016533 -6.6033211 -72.369095
33.016651 -8.8044472 -72.368156
33.016769 -11.005602 -72.367203
33.018547 -13.207425 -72.352898
33.02293 -15.410714 -72.317635
33.023403 -17.612492 -72.31382
33.025894 -19.815556 -72.293785
33.03265 -22.021786 -72.239395
33.040833 -24.229958 -72.173561
33.057686 -26.446173 -72.037933
33.090611 -28.678549 -71.77298
35.125519 30.734814 -73.064072
35.108562 28.525696 -73.192017
35.098015 26.323498 -73.271568
35.088482 24.123312 -73.343498
35.081459 21.9259 -73.396469
35.075695 19.730059 -73.439972
35.072311 17.536133 -73.4655
35.069679 15.34297 -73.485352
35.066921 13.150077 -73.506149
35.064541 10.957651 -73.524094
35.06279 8.7656841 -73.537323
35.061161 6.5739522 -73.549614
35.06041 4.3825321 -73.555275
35.059906 2.1912308 -73.559052
35.054653 -1.9407888e-05 -73.598717
35.052647 -2.1908033 -73.613846
35.052647 -4.3815894 -73.613846
35.052399 -6.5723391 -73.615707
35.052525 -8.7631407 -73.614792
35.052647 -10.953966 -73.613831
35.054527 -13.145467 -73.59967
35.056904 -15.337409 -73.581734
35.057655 -17.528851 -73.57605
35.062664 -19.722763 -73.538269
35.067924 -21.917458 -73.498589
35.075191 -24.114206 -73.443756
35.092621 -26.319475 -73.312279
35.125645 -28.539608 -73.06311
37.24091 32.859612 -73.631783
37.141582 30.587168 -74.337059
37.123207 28.388323 -74.467537
37.112247 26.196867 -74.545387
37.103004 24.007812 -74.611
37.099045 21.822958 -74.639122
37.094955 19.638487 -74.668159
37.091396 17.454756 -74.693443
37.08849 15.271723 -74.71405
37.08559 13.089025 -74.73465
37.083088 10.906771 -74.752441
37.080975 8.7249308 -74.767418
37.078735 6.5432882 -74.783325
37.076363 4.3619161 -74.800186
37.070698 2.1806147 -74.840408
37.070168 -1.6632093e-05 -74.844154
37.069378 -2.1805654 -74.84977
37.069511 -4.3611341 -74.848839
37.069511 -6.5416913 -74.848831
37.069378 -8.7222204 -74.849762
37.069511 -10.902802 -74.848839
37.071487 -13.084072 -74.834793
37.068325 -15.263441 -74.857246
37.07412 -17.446671 -74.816078
37.080711 -19.63097 -74.769295
37.086384 -21.815523 -74.729034
37.094032 -24.002043 -74.674713
37.104855 -26.191677 -74.597878
37.138939 -28.400379 -74.35585
40.321205 -33.205719 -51.75975
40.524864 -35.757236 -50.313652
39.216061 32.680042 -75.076889
39.143227 30.444717 -75.565331
39.115223 28.249872 -75.753128
39.106358 26.07089 -75.812576
39.101929 23.895607 -75.842293
39.097912 21.72105 -75.869209
39.093761 19.546869 -75.897057
39.089611 17.373148 -75.924896
39.085461 15.199884 -75.952728
39.083248 13.027734 -75.967575
39.081032 10.855826 -75.982407
39.078819 8.6841717 -75.997253
39.076473 6.5127277 -76.013008
39.074257 4.3415723 -76.02784
39.070801 2.1705928 -76.051033
39.06472 -1.5625916e-05 -76.091797
39.061131 -2.170083 -76.115891
39.061405 -4.3401589 -76.114044
39.061268 -6.5102243 -76.114967
39.061131 -8.6802645 -76.115883
39.061268 -10.850367 -76.114983
39.062649 -13.020889 -76.105705
39.068455 -15.193293 -76.066788
39.073154 -17.365858 -76.035263
39.078407 -19.539217 -76.000031
39.083523 -21.713074 -75.965721
39.092377 -23.889805 -75.906342
39.103176 -26.0688 -75.833946
39.133656 -28.263216 -75.629509
42.271435 -32.877796 -54.587093
42.230541 -35.192131 -54.861351
42.259464 -37.56398 -54.667377
42.434505 -40.077061 -53.493507
41.156807 32.492199 -76.588478
41.12022 30.299093 -76.820908
41.094128 28.117023 -76.986679
41.090073 25.951609 -77.012444
41.085152 23.786125 -77.043732
41.084862 21.623598 -77.04557
41.076321 19.457193 -77.099838
41.068069 17.291809 -77.152229
41.066189 15.12964 -77.164185
41.062431 12.967075 -77.18808
41.059971 10.805242 -77.203697
41.057655 8.6437044 -77.218399
41.054619 6.4822974 -77.237686
41.053749 4.3214321 -77.243195
41.048981 2.160454 -77.273506
41.049126 -2.12129e-05 -77.272591
41.043777 -2.1602125 -77.30658
41.043777 -4.3204131 -77.306572
41.043777 -6.4806118 -77.306572
41.041031 -8.6402349 -77.323997
41.043777 -10.801012 -77.306564
41.042767 -12.960894 -77.312981
41.051292 -15.124184 -77.258812
41.051582 -17.284889 -77.256989
41.056934 -19.448036 -77.222992
41.062286 -21.61174 -77.188995
41.070965 -23.777952 -77.133842
41.082397 -25.946793 -77.061203
41.111378 -28.128851 -76.877121
44.469212 -32.766796 -55.544136
44.291973 -34.967365 -56.670174
44.172474 -37.197899 -57.429352
44.125656 -39.480877 -57.726788
44.152565 -41.82877 -57.555836
44.209999 -44.210011 -57.19096
43.123352 32.342506 -77.793167
43.085049 30.159519 -78.024376
43.055416 27.986013 -78.203209
43.055267 25.833149 -78.204117
43.047413 23.676065 -78.251518
43.040466 21.52022 -78.293442
43.041824 19.368811 -78.285248
43.034431 17.21376 -78.329887
43.028542 15.059973 -78.36541
43.021603 12.906468 -78.407295
43.019642 10.754895 -78.419121
43.020851 8.6041574 -78.411835
43.01527 6.45228 -78.445511
43.013157 4.3013034 -78.458252
43.008335 2.1504092 -78.487381
43.005016 -1.8360797e-05 -78.507385
43.004112 -2.1502273 -78.51284
42.998993 -4.2999101 -78.54377
43.003963 -6.4505997 -78.513763
43.001404 -8.600296 -78.529228
42.997486 -10.749385 -78.552856
43.001701 -12.900528 -78.527397
43.004112 -15.051453 -78.512848
43.011051 -17.204441 -78.470993
43.015419 -19.356953 -78.444618
43.021301 -21.510664 -78.409119
43.030956 -23.667046 -78.35083
43.045902 -25.827557 -78.260635
43.068413 -27.994484 -78.124763
46.767593 -32.737328 -55.798241
46.504566 -34.878445 -57.385738
46.305912 -37.044743 -58.584743
46.132519 -39.212646 -59.631264
46.01799 -41.416199 -60.322517
45.9692 -43.670757 -60.616959
46.021957 -46.021976 -60.298542
45.056419 32.183151 -79.075592
45.025402 30.016922 -79.253883
44.999298 27.856697 -79.403938
45.003227 25.716116 -79.381348
44.994583 23.568577 -79.431038
44.985943 21.421858 -79.480698
44.977779 19.276176 -79.527634
44.979034 17.134855 -79.520416
44.972912 14.990948 -79.555611
44.970085 12.84858 -79.571846
44.959885 10.704718 -79.630486
44.95816 8.5634413 -79.640411
44.956276 6.4223151 -79.651222
44.954239 4.2813454 -79.662941
44.949379 2.1404271 -79.690887
44.942005 -1.9154719e-05 -79.733253
44.942947 -2.1401632 -79.727844
44.949379 -4.2809134 -79.690895
44.944046 -6.4205942 -79.721542
44.943729 -8.5607262 -79.723335
44.949379 -10.702252 -79.69088
44.942791 -12.840806 -79.728752
44.943577 -14.981199 -79.724243
44.952198 -17.124662 -79.674675
44.957218 -19.267389 -79.645813
44.967888 -21.413296 -79.58448
44.973068 -23.557333 -79.554726
44.989555 -25.708334 -79.459923
45.011562 -27.864305 -79.333458
49.142307 -32.761543 -55.589394
48.813145 -34.866543 -57.481445
48.533844 -36.978188 -59.086918
48.28738 -39.089798 -60.503624
48.099724 -41.228348 -61.582298
47.945793 -43.379543 -62.467113
47.986149 -45.701107 -62.235134
46.986225 32.036057 -80.259308
46.956478 29.881378 -80.422546
46.932804 27.733006 -80.552437
46.921711 25.593649 -80.613304
46.918446 23.459206 -80.631203
46.914207 21.324627 -80.654472
46.90736 19.189365 -80.692039
46.902794 17.05555 -80.717087
46.896603 14.921633 -80.751053
46.888947 12.787883 -80.793068
46.883736 10.655381 -80.821671
46.881943 8.5239735 -80.83149
46.87999 6.392715 -80.842209
46.877548 4.2615809 -80.855606
46.872341 2.1305463 -80.884193
46.87299 -1.6917591e-05 -80.88063
46.870872 -2.130507 -80.892235
46.872501 -4.2611542 -80.883293
46.872501 -6.3917246 -80.883286
46.865665 -8.5210505 -80.920807
46.872501 -10.652845 -80.883301
46.866318 -12.78174 -80.917244
46.867619 -14.912445 -80.910088
46.874619 -17.045328 -80.871704
46.880806 -19.17852 -80.837753
46.886017 -21.311832 -80.809158
46.90247 -23.451256 -80.718864
46.912575 -25.588699 -80.663406
46.939983 -27.737268 -80.513039
47.054367 -29.943707 -79.885437
51.186256 -34.899731 -57.214394
50.854939 -36.985432 -59.032253
50.553623 -39.064178 -60.685535
50.315052 -41.166878 -61.994537
50.240517 -43.389553 -62.403519
50.59095 -45.991783 -60.480751
48.903385 31.893503 -81.406471
48.864101 29.743351 -81.612656
48.844479 27.607731 -81.71563
48.834 25.478601 -81.77063
48.828255 23.352623 -81.800781
48.823524 21.227602 -81.825615
48.815418 19.101675 -81.868156
48.807819 16.97662 -81.908028
48.80056 14.85233 -81.946136
48.797356 12.729725 -81.962952
48.792969 10.607158 -81.985977
48.788921 8.485013 -82.007233
48.787064 6.3635173 -82.016953
48.782513 4.24194 -82.040855
48.779308 2.1208308 -82.057678
48.784027 -1.9038514e-05 -82.03289
48.779308 -2.120852 -82.057678
48.779308 -4.2416897 -82.057678
48.779137 -6.3625102 -82.058556
48.779308 -8.4833612 -82.057686
48.779476 -10.604241 -82.056793
48.780823 -12.725453 -82.049706
48.782848 -14.846972 -82.039093
48.784874 -16.96867 -82.028473
48.787571 -19.090801 -82.014313
48.795837 -21.215593 -81.970932
48.810184 -23.344023 -81.895615
48.825043 -25.473942 -81.817635
48.84803 -27.609766 -81.696999
48.912708 -29.772961 -81.357552
53.639015 -34.981979 -56.552509
53.244164 -37.039429 -58.624828
52.919693 -39.114571 -60.327721
52.756275 -41.287529 -61.185371
52.876667 -43.680744 -60.553535
53.419518 -46.451775 -57.704498
50.789364 31.743341 -82.614861
50.754353 29.606686 -82.790955
50.73914 27.483683 -82.867477
50.730221 25.365105 -82.912331
50.722534 23.24781 -82.950989
50.714149 21.13088 -82.993179
50.705593 19.014584 -83.036209
50.700878 16.900278 -83.059914
50.69791 14.786872 -83.074844
50.69442 12.67359 -83.0924
50.690407 10.560483 -83.112595
50.684998 8.4474859 -83.139793
50.679588 6.3349357 -83.167
50.676971 4.2230601 -83.180145
50.678196 2.1115763 -83.174011
50.675228 -1.6666543e-05 -83.188927
50.669998 -2.1112568 -83.215233
50.670174 -4.2225232 -83.214363
50.669998 -6.3337622 -83.215225
50.669998 -8.4450073 -83.215233
50.670174 -10.556301 -83.214363
50.671566 -12.667906 -83.207336
50.675926 -14.780495 -83.185425
50.677673 -16.89257 -83.176651
50.67889 -19.004602 -83.170509
50.690754 -21.121164 -83.11084
