# .PCD v0.7 - Point Cloud Data file format
VERSION 0.7
FIELDS x y z
SIZE 4 4 4
TYPE F F F
COUNT 1 1 1
WIDTH 1543
HEIGHT 1
VIEWPOINT 0 0 0 1 0 0 0
POINTS 1543
DATA ascii
1.3615469 16.33856 -37.147713
1.3597676 14.957439 -37.362488
1.3596717 13.596719 -37.374073
1.3956068 12.560455 -33.036316
1.3956865 11.165486 -33.026691
1.4091052 9.8637342 -31.406919
1.4090672 8.4544096 -31.411501
1.4090292 7.0451474 -31.41608
1.4089967 5.6359887 -31.420006
1.4089696 4.2269049 -31.423275
1.4089371 2.8178716 -31.427195
1.4089046 1.408905 -31.431131
1.4040114 -5.3095869e-06 -32.021778
1.3957875 -1.3957874 -33.014503
1.3958088 -2.7916164 -33.011925
1.3958832 -4.1876512 -33.002937
1.4044476 -5.6177931 -31.969145
1.3959738 -18.147659 -32.992016
1.3958248 -19.541552 -33.009995
1.3978065 -20.967096 -32.770786
1.4092461 -22.547941 -31.3899
1.4092352 -23.957005 -31.391199
1.4092245 -25.366039 -31.392519
1.4092135 -26.775059 -31.393829
1.4092028 -28.184052 -31.39514
1.4091918 -29.593031 -31.396442
1.409181 -31.001986 -31.397747
1.4091703 -32.410919 -31.399059
1.4091593 -33.819828 -31.400373
1.4091486 -35.228718 -31.401676
1.4091377 -36.637585 -31.402985
1.4091268 -38.046429 -31.404297
1.409116 -39.455246 -31.405611
1.4091052 -40.864052 -31.406916
1.4090997 -42.272995 -31.40757
1.4090889 -43.681755 -31.408884
1.4090835 -45.090672 -31.409538
1.4090781 -46.499577 -31.410187
1.4090672 -47.908291 -31.411491
1.4090618 -49.317162 -31.412155
1.4090564 -50.726032 -31.4128
1.4090456 -52.134689 -31.414108
1.4090401 -53.543526 -31.414768
1.4090346 -54.952354 -31.415424
1.4090239 -56.360954 -31.416731
1.4090185 -57.769756 -31.417391
1.409013 -59.178547 -31.418041
1.3956439 -60.012695 -33.031822
1.3958354 -61.416763 -33.008709
3.5942624 70.08812 15.431964
3.5498805 67.447731 12.753287
3.5065813 64.87175 10.139951
3.4643257 62.357861 7.5896034
3.4230764 59.903835 5.0999813
3.3827822 57.507298 2.668009
3.3434408 55.166767 0.29354808
3.3050039 52.88007 -2.0263176
3.267441 50.645329 -4.2934461
3.2307222 48.460831 -6.5096364
3.1948195 46.324886 -8.6765432
3.1597056 44.235882 -10.795843
3.1253557 42.192303 -12.869049
3.0917313 40.192513 -14.898461
3.0586441 38.233051 -16.895454
3.0262451 36.314941 -18.850916
2.9945128 34.436897 -20.766113
2.9634511 32.597961 -22.640848
2.9330156 30.796667 -24.477808
2.9032104 29.032101 -26.276707
2.8739934 27.30294 -28.040113
2.8453698 25.608324 -29.767693
2.8172998 23.947052 -31.46187
2.789789 22.318314 -33.122295
2.7627997 20.720995 -34.75124
2.7402277 19.181595 -36.113586
2.7361438 17.784935 -36.360073
2.7359905 16.415936 -36.36932
2.8082812 15.445545 -32.006199
2.8083887 14.041941 -31.999691
2.8354135 12.759356 -30.368628
2.8353364 11.341348 -30.37326
2.8352597 9.9234085 -30.377901
2.8351936 8.5055799 -30.38187
2.8351281 7.0878201 -30.385845
2.8350623 5.6701255 -30.389822
2.8350072 4.2525029 -30.393126
2.8246219 2.8246233 -31.019943
2.8086259 1.4043074 -31.985397
2.8086472 -4.1678031e-06 -31.984093
2.8087981 -1.4043996 -31.974991
2.8260713 -2.8260763 -30.932459
2.8224778 -18.346109 -31.149338
2.8088734 -19.662113 -31.970448
2.8086689 -21.065012 -31.982801
2.8357317 -22.685854 -30.349411
2.8357096 -24.103537 -30.350737
2.8356876 -25.521187 -30.352062
2.8356657 -26.938826 -30.35338
2.8356438 -28.356441 -30.354704
2.8356218 -29.774035 -30.356031
2.8355999 -31.191603 -30.357361
2.835578 -32.609154 -30.358681
2.835556 -34.026669 -30.360016
2.8355341 -35.444183 -30.36133
2.8355119 -36.86166 -30.362659
2.8354902 -38.279125 -30.363981
2.8354681 -39.696552 -30.365316
2.8354464 -41.113976 -30.366632
2.8354352 -42.531532 -30.36729
2.8354135 -43.948906 -30.368628
2.8354023 -45.366436 -30.369289
2.8353913 -46.783958 -30.369946
2.8353693 -48.201283 -30.371273
2.8353584 -49.618778 -30.371929
2.8353474 -51.036259 -30.372597
2.8353255 -52.453526 -30.373924
2.8353145 -53.870983 -30.374578
2.8353038 -55.288429 -30.375242
2.8352816 -56.705639 -30.376572
2.8352706 -58.123051 -30.377232
2.8352597 -59.540462 -30.377893
2.8084211 -60.381054 -31.997746
2.8085506 -61.788113 -31.989939
2.8227935 -63.512852 -31.130316
5.3045893 68.959663 11.939252
5.2401304 66.374977 9.3456097
5.1772189 63.852375 6.8142524
5.1158004 61.389603 4.3429489
5.0558219 58.984592 1.9296165
4.9972105 56.635052 -0.42871785
4.9399652 54.339611 -2.732106
4.8840165 52.096176 -4.9833174
4.8293204 49.902977 -7.1841145
4.7758365 47.758366 -9.3361378
4.7235236 45.660725 -11.441039
4.6723447 43.608543 -13.500319
4.6222048 41.59985 -15.517807
4.5728631 39.631477 -17.503172
4.5245819 37.704849 -19.445841
4.4772916 35.818329 -21.348658
4.4309974 33.970978 -23.211386
4.3856335 32.161312 -25.036697
4.3412061 30.388443 -26.824331
4.2976527 28.651016 -28.576765
4.254981 26.94821 -30.293739
4.2131324 25.278791 -31.977602
4.1721148 23.641983 -33.628017
4.1363678 22.060627 -35.066364
4.1294346 20.647171 -35.345337
4.1292481 19.269823 -35.352825
4.2383385 18.366137 -30.96339
4.2384043 16.953615 -30.960754
4.2792583 15.690613 -29.316902
4.2791414 14.263801 -29.321602
4.2790251 12.837079 -29.3263
4.2789083 11.41042 -29.330994
4.2788081 9.9838848 -29.335005
4.2787085 8.5574131 -29.339031
4.2786083 7.1310115 -29.34305
4.2621112 5.6828108 -30.006838
4.2388124 4.2388134 -30.944313
4.2388124 2.8258801 -30.944311
4.2390418 1.4130105 -30.935093
4.2652049 -2.3328009e-06 -29.882349
4.2599297 -19.879679 -30.094604
4.2389927 -21.19496 -30.937073
4.2388291 -22.607086 -30.943645
4.2797418 -24.251863 -29.297461
4.2797084 -25.678253 -29.298794
4.279675 -27.104607 -29.300144
4.2796416 -28.530941 -29.301483
4.2796082 -29.957254 -29.302826
4.2795749 -31.383554 -29.304161
4.2795415 -32.809818 -29.305511
4.2795081 -34.236069 -29.30685
4.2794747 -35.662289 -29.308195
4.2794414 -37.088497 -29.309528
4.2794085 -38.514671 -29.310877
4.2793751 -39.94083 -29.312218
4.2793417 -41.366974 -29.313547
4.279325 -42.793251 -29.314222
4.2792916 -44.219349 -29.315563
4.2792749 -45.645596 -29.316238
4.2792583 -47.071838 -29.31691
4.2792249 -48.497879 -29.318249
4.2792082 -49.924095 -29.318924
4.2791915 -51.3503 -29.319592
4.2791748 -52.776489 -29.320267
4.2791414 -54.202461 -29.321602
4.2791247 -55.628628 -29.322266
4.279108 -57.054783 -29.322937
4.2790747 -58.480686 -29.324286
4.279058 -59.906822 -29.324947
4.2790418 -61.332924 -29.325624
4.2384696 -62.164223 -30.958124
4.239058 -63.585876 -30.934431
7.0460153 70.460152 11.131361
6.9607153 67.866982 8.5572195
6.8774562 65.335838 6.044641
6.7961645 62.864521 3.5914557
6.716773 60.450947 1.1955969
6.6391845 58.092865 -1.1458406
6.5633974 55.788879 -3.4329247
6.4893208 53.536888 -5.6683736
6.4168983 51.335178 -7.8539338
6.3460736 49.182079 -9.9912462
6.2767959 47.075958 -12.08189
6.2090139 45.01535 -14.127378
6.1425004 42.997505 -16.134605
6.0771446 41.020729 -18.106899
6.0131898 39.085732 -20.036905
5.9505424 37.190891 -21.927454
5.8892112 35.335258 -23.778292
5.8291078 33.517368 -25.592072
5.7702413 31.736326 -27.368526
5.7125301 29.99078 -29.110126
5.6559834 28.279913 -30.816565
5.6005235 26.602488 -32.490204
5.5503011 24.976357 -34.005798
5.5399542 23.544804 -34.318054
5.5397863 22.159143 -34.323101
5.6861234 21.32296 -29.906994
5.686079 19.901276 -29.90834
5.7409368 18.658047 -28.252861
5.7407794 17.222338 -28.257612
5.7406216 15.786707 -28.262369
5.7404647 14.35116 -28.267126
5.7403069 12.915691 -28.271877
5.7401948 11.480389 -28.275267
5.7400599 10.045097 -28.279335
5.7168097 8.5752153 -28.980968
5.686697 7.1083689 -29.889688
5.6866751 5.6866741 -29.890358
5.6869402 4.265204 -29.882355
5.7221684 2.8610806 -28.819244
5.6874037 -21.327766 -29.86837
5.6868515 -22.747414 -29.885017
5.6937256 -24.198332 -29.677593
5.7416115 -25.837259 -28.232491
5.7415667 -27.272448 -28.233852
5.7415218 -28.707617 -28.235205
5.7414765 -30.14275 -28.23657
5.7414317 -31.577875 -28.23793
5.7413869 -33.012978 -28.239279
5.7413416 -34.448055 -28.240646
5.7412968 -35.88311 -28.242001
5.7412519 -37.318138 -28.243359
5.7412066 -38.753147 -28.244719
5.7411613 -40.188137 -28.246071
5.741117 -41.6231 -28.247425
5.7410941 -43.058208 -28.24811
5.7410717 -44.493305 -28.248789
5.7410264 -45.928219 -28.250147
5.741004 -47.363289 -28.250828
5.7409821 -48.798351 -28.251503
5.7409368 -50.2332 -28.252861
5.7409143 -51.668232 -28.253536
5.7408915 -53.103249 -28.254221
5.7408471 -54.538044 -28.255581
5.7408242 -55.973042 -28.256252
5.7408018 -57.40802 -28.256933
5.7407565 -58.842758 -28.258295
5.7407346 -60.27771 -28.258976
5.7407122 -61.712654 -28.259653
5.6862559 -62.548817 -29.903004
5.6866751 -63.975094 -29.890348
5.7153821 -65.726898 -29.024038
8.6684809 69.347847 7.7746863
8.565176 66.808372 5.2806897
8.4643049 64.328712 2.8454273
8.3657799 61.90678 0.4668538
8.2694874 59.54031 -1.8578669
8.1754217 57.227959 -4.1288128
8.0834723 54.967609 -6.3486776
7.9935679 52.757553 -8.5191565
7.9056416 50.596111 -10.641888
7.8196282 48.481701 -12.71843
7.7354665 46.4128 -14.75027
7.6527452 44.385925 -16.747341
7.5716186 42.401054 -18.705919
7.4921627 40.457676 -20.624155
7.4143872 38.554817 -22.50182
7.3381805 36.690899 -24.341614
7.2635531 34.865055 -26.143272
7.1904001 33.07584 -27.90934
7.1187334 31.322428 -29.639526
7.0484548 29.603508 -31.336206
6.9823704 27.92948 -32.931629
6.9680238 26.478489 -33.277981
6.9678912 25.08441 -33.281181
7.1519566 24.316656 -28.837454
7.1517329 22.885546 -28.842846
7.2207932 21.662378 -27.175583
7.2205939 20.217661 -27.180393
7.2203946 18.773027 -27.185211
7.2201953 17.328468 -27.190023
7.219996 15.883991 -27.194838
7.2198253 14.439649 -27.198957
7.2196546 12.995377 -27.203074
7.1889606 11.502337 -27.944094
7.1525989 10.013636 -28.821934
7.1525707 8.5830822 -28.822611
7.1528506 7.1528468 -28.815872
7.1972952 5.7578406 -27.742878
7.1534934 -22.89118 -28.800358
7.1526828 -24.319122 -28.819918
7.2217331 -25.998241 -27.152893
7.2216763 -27.442364 -27.154276
7.2216187 -28.886475 -27.155651
7.2215619 -30.330561 -27.15703
7.2215047 -31.774628 -27.158396
7.2214479 -33.218662 -27.159779
7.2213912 -34.662678 -27.161152
7.221334 -36.10667 -27.162527
7.2212772 -37.55064 -27.163906
7.22122 -38.994595 -27.165276
7.2211633 -40.438519 -27.166647
7.2211065 -41.88242 -27.168022
7.2210779 -43.326469 -27.168713
7.2210493 -44.770508 -27.169397
7.2209926 -46.214355 -27.170774
7.220964 -47.658367 -27.171459
7.2209353 -49.10236 -27.172153
7.2208786 -50.546158 -27.173519
7.22085 -51.990124 -27.174213
7.2208219 -53.434078 -27.174902
7.2207646 -54.877819 -27.17627
7.220736 -56.321747 -27.176958
7.2207079 -57.765667 -27.177645
7.2206507 -59.209335 -27.179022
7.2206225 -60.653229 -27.179707
7.2205939 -62.097118 -27.180393
7.2205367 -63.540726 -27.18177
7.1521244 -64.369125 -28.833397
7.1531301 -65.8088 -28.809118
10.240517 68.270111 4.5223227
10.120352 65.782295 2.1048021
10.002974 63.352165 -0.25665852
9.8882885 60.977776 -2.5639672
9.7761593 58.656956 -4.8198376
9.6665859 56.388412 -7.0242658
9.5594425 54.170174 -9.1798306
9.454648 52.000568 -11.288121
9.3521261 49.87801 -13.350702
9.2518044 47.800983 -15.369043
9.153039 45.765198 -17.356022
9.0563231 43.772228 -19.301802
8.9615946 41.820766 -21.207602
8.8688622 39.909874 -23.073236
8.7779932 38.037971 -24.901367
8.689003 36.204182 -26.691719
8.6017647 34.407059 -28.446812
8.5162945 32.64579 -30.166349
8.4329262 30.920727 -31.84359
8.4139729 29.448904 -32.224892
8.4139404 28.046465 -32.22554
8.636178 27.347897 -27.75449
8.6357708 25.907312 -27.762676
8.7191687 24.704311 -26.084826
8.6970844 23.192221 -26.529137
8.6502171 21.625542 -27.472029
8.6711063 20.232574 -27.051769
8.7181997 18.889435 -26.104313
8.7179928 17.435986 -26.108488
8.7177849 15.982607 -26.112671
8.6788797 14.464805 -26.895384
8.6368561 12.955281 -27.740816
8.6367884 11.515715 -27.742191
8.6370602 10.076573 -27.736727
11.627761 11.627765 32.431522
11.852146 9.8767958 36.945812
12.085428 8.0569544 41.639091
8.6797714 -23.146059 -26.877447
8.6375008 -24.472925 -27.72785
8.6368227 -25.910467 -27.741507
8.7203445 -27.614428 -26.061163
8.7202759 -29.067587 -26.062553
8.7202063 -30.520721 -26.063948
8.7201376 -31.973841 -26.065332
8.720068 -33.426926 -26.066732
8.7199993 -34.879997 -26.068123
8.7199297 -36.333042 -26.069517
8.719861 -37.786064 -26.0709
8.7197914 -39.239063 -26.0723
8.7197227 -40.692039 -26.073689
8.7196531 -42.144989 -26.075081
8.7196188 -43.598099 -26.075777
8.7195845 -45.051186 -26.076475
8.7195148 -46.504082 -26.077869
8.7194805 -47.957146 -26.078556
8.7194462 -49.410198 -26.079252
8.7193756 -50.863029 -26.080647
8.7193413 -52.316055 -26.081343
8.7193069 -53.769062 -26.082048
8.7192373 -55.221848 -26.083429
8.719203 -56.67482 -26.084133
8.7191687 -58.1278 -26.084824
8.719099 -59.580521 -26.08622
8.7190647 -61.033451 -26.086916
8.7190304 -62.486385 -26.087612
8.7189608 -63.939056 -26.088997
8.6361103 -64.770821 -27.75585
8.6369581 -66.216682 -27.738773
8.6804562 -67.996918 -26.863646
11.903614 69.721169 3.7695227
11.764439 67.225365 1.3695244
11.628479 64.787247 -0.97499698
11.495626 62.404835 -3.2659562
11.365726 60.075974 -5.506041
11.238776 57.799427 -7.6951838
11.114633 55.573154 -9.8359861
10.993199 53.395542 -11.93001
10.874393 51.264988 -13.978767
10.758036 49.1796 -15.985272
10.643524 47.135605 -17.959955
10.531381 45.134487 -19.893801
10.421618 43.175282 -21.786575
10.314079 41.256317 -23.641024
10.208777 39.376709 -25.45689
10.105564 37.53495 -27.23674
10.004457 35.730202 -28.980288
9.9053125 33.961067 -30.689953
9.8781395 32.456745 -31.158531
9.8782158 31.04582 -31.157227
10.139134 30.417406 -26.657845
10.138654 28.967579 -26.666132
10.236413 27.784546 -24.980337
10.236126 26.32147 -24.985273
10.157814 24.668976 -26.335718
10.187116 23.284838 -25.83042
10.186631 21.828495 -25.8388
10.156446 20.312893 -26.359324
10.234778 19.007444 -25.008518
10.186913 17.463276 -25.83391
10.139816 15.933997 -26.646093
10.139736 14.485339 -26.647472
10.139977 13.037113 -26.643322
12.951361 14.801554 21.837271
13.190847 13.190844 25.967066
13.438231 11.518478 30.233027
13.695143 9.7822514 34.663311
13.961993 7.9782863 39.264996
14.239529 6.1026602 44.050926
10.190355 -24.748001 -25.774567
10.140057 -26.074438 -26.641933
10.150133 -27.550364 -26.46817
10.237844 -29.250975 -24.955666
10.237761 -30.713285 -24.957081
10.23768 -32.175571 -24.958479
10.237597 -33.637821 -24.959896
10.237516 -35.100056 -24.961302
10.237435 -36.562271 -24.962711
10.237353 -38.024456 -24.964123
10.237271 -39.486618 -24.965538
10.237189 -40.948761 -24.966942
10.237108 -42.410877 -24.968348
10.237067 -43.873146 -24.969053
10.237025 -45.335407 -24.969755
10.236944 -46.797459 -24.971176
10.236904 -48.259689 -24.971876
10.236862 -49.721905 -24.972588
10.236781 -51.183903 -24.973993
10.23674 -52.646099 -24.974691
10.236699 -54.108273 -24.975395
10.236617 -55.570213 -24.976803
10.236576 -57.032352 -24.97752
10.236536 -58.494492 -24.97822
10.236454 -59.956375 -24.97963
10.236413 -61.418484 -24.980328
10.236372 -62.880573 -24.981035
10.23629 -64.3424 -24.982445
10.236249 -65.804459 -24.983154
10.139295 -66.629662 -26.655069
10.140738 -68.087822 -26.630178
13.396693 68.658058 0.639534
13.242422 66.212105 -1.6882429
13.091662 63.82185 -3.9630187
12.94424 61.485134 -6.1874633
12.800157 59.200729 -8.3615036
12.659245 56.966606 -10.487693
12.521403 54.781139 -12.567571
12.386531 52.642757 -14.602642
12.254225 50.548683 -16.598982
12.124214 48.496857 -18.56069
11.996883 46.487926 -20.481956
11.872248 44.520931 -22.362562
11.750129 42.594215 -24.20521
11.630542 40.706894 -26.009632
11.51332 38.857449 -27.778379
11.398481 37.045059 -29.511158
11.360871 35.50272 -30.078661
11.361135 34.083408 -30.074673
11.66318 33.531635 -25.517151
11.720002 32.23 -24.659779
11.660673 30.60927 -25.554979
11.666199 29.165497 -25.471617
11.77227 27.959139 -23.871122
11.771939 26.48686 -23.87611
11.771607 25.014662 -23.881109
11.680616 23.361229 -25.254068
11.770946 22.070524 -23.891106
11.713395 20.498438 -24.759457
11.661834 18.950481 -25.537464
11.661741 17.492609 -25.53887
11.661881 16.035088 -25.536772
14.15685 17.69606 12.10941
14.408298 16.209333 15.903466
14.668914 14.668919 19.835855
14.937456 13.070274 23.88784
15.215066 11.411298 28.076656
15.503107 9.6894369 32.422867
15.80235 7.9011736 36.938095
16.113283 6.0424867 41.629726
16.436792 4.1091957 46.511082
11.663692 -26.243301 -25.509451
11.661927 -27.697084 -25.536062
11.774683 -29.436708 -23.834717
11.774588 -30.908298 -23.836143
11.774493 -32.379856 -23.83757
11.774399 -33.851395 -23.839001
11.774303 -35.32291 -23.840435
11.77421 -36.794407 -23.84186
11.774115 -38.265877 -23.843285
11.77402 -39.73732 -23.844711
11.773926 -41.208736 -23.846142
11.77383 -42.680141 -23.847565
11.773784 -44.151691 -23.848282
11.773736 -45.62323 -23.848993
11.773642 -47.094566 -23.850428
11.773594 -48.566078 -23.851141
11.773547 -50.037579 -23.851847
11.773453 -51.508854 -23.853283
11.773404 -52.980328 -23.853991
11.773357 -54.451782 -23.854704
11.773263 -55.922997 -23.856138
11.773216 -57.394432 -23.85684
11.773168 -58.865841 -23.857565
11.773074 -60.337006 -23.858986
11.773026 -61.808395 -23.859697
11.77298 -63.279766 -23.860415
11.772884 -64.75087 -23.861837
11.772837 -66.222214 -23.862556
11.660721 -67.049149 -25.55427
11.662159 -68.515182 -25.53256
11.720893 -70.325356 -24.646341
15.017243 70.080475 -0.085208222
14.844924 67.626869 -2.3964262
14.676513 65.228951 -4.6552076
14.51188 62.884808 -6.8633013
14.350837 60.59243 -9.0232477
14.193392 58.350605 -11.13497
14.039362 56.157444 -13.200856
13.88864 54.011379 -15.222382
13.740547 51.908733 -17.208645
13.595243 49.849228 -19.157515
13.452925 47.832619 -21.066326
13.313609 45.857986 -22.934875
13.177096 43.923653 -24.765827
13.043406 42.028751 -26.558907
12.912351 40.171761 -28.316656
12.862521 38.587559 -28.984999
12.862972 37.159695 -28.978945
13.203698 36.676937 -24.409023
13.203116 35.208305 -24.416821
13.203698 33.74279 -24.409029
13.20809 32.286438 -24.35013
13.267204 30.956814 -23.557268
13.201847 29.337439 -24.433851
13.213437 27.895035 -24.278404
13.327119 26.654236 -22.753668
13.326742 25.172733 -22.758728
13.258613 23.570866 -23.672497
13.203276 22.005457 -24.414705
13.203169 20.53826 -24.416111
13.203222 19.071316 -24.415403
15.264462 20.352613 3.2305567
15.521345 18.970528 6.6759539
15.789896 17.544331 10.277829
16.067904 16.067896 14.006548
16.355957 14.538634 17.869997
16.652508 12.951946 21.847425
16.959051 11.306041 25.958868
17.277182 9.5984344 30.22574
17.607382 7.8255033 34.65448
17.950546 5.9835138 39.257133
18.307253 4.0682817 44.041386
18.67853 2.0753982 49.021049
13.269287 -26.53857 -23.529337
13.204703 -27.876604 -24.395542
13.203169 -29.340378 -24.416122
13.330999 -31.105671 -22.701616
13.330893 -32.586624 -22.703066
13.330785 -34.067562 -22.70451
13.330677 -35.548473 -22.705956
13.330568 -37.029358 -22.707401
13.330461 -38.51022 -22.708851
13.330353 -39.991062 -22.710291
13.330299 -41.472042 -22.711021
13.330192 -42.952847 -22.712454
13.330137 -44.433796 -22.713184
13.330084 -45.914734 -22.713907
13.329976 -47.39547 -22.715353
13.329922 -48.876385 -22.716078
13.329867 -50.357281 -22.716795
13.32976 -51.837959 -22.718243
13.329707 -53.318832 -22.71896
13.329653 -54.799686 -22.719688
13.329545 -56.280304 -22.721134
13.329491 -57.761127 -22.721861
13.329436 -59.241943 -22.722582
13.329329 -60.7225 -22.72403
13.329275 -62.203285 -22.724749
13.329221 -63.684055 -22.725479
13.329114 -65.164551 -22.726925
13.32906 -66.645294 -22.727638
13.329006 -68.12603 -22.728363
13.202852 -68.948235 -24.420366
13.204756 -70.425377 -24.394829
16.436106 69.031647 -3.0996125
16.250296 66.626198 -5.3425465
16.068638 64.274559 -7.5353365
15.890928 61.974621 -9.6804857
15.717175 59.725254 -11.777885
15.547178 57.524567 -13.829908
15.380821 55.370949 -15.838028
15.217163 53.260071 -17.813541
15.056705 51.192802 -19.750448
14.899655 49.168865 -21.646202
14.745789 47.186523 -23.503536
14.595126 45.244892 -25.322199
14.447453 43.342361 -27.104757
14.383454 41.712021 -27.877302
14.38402 40.275253 -27.870481
14.765287 39.866276 -23.268171
14.764632 38.388046 -23.276077
14.905538 37.263844 -21.575209
14.905354 35.77285 -21.577402
14.905295 34.282173 -21.578138
14.764811 32.482582 -23.273922
14.78257 31.043402 -23.059557
14.763324 29.526646 -23.29188
14.763264 28.050194 -23.292595
14.782749 26.608944 -23.05739
14.764513 25.099672 -23.277517
14.764395 23.62303 -23.27894
14.764276 22.146414 -23.28039
16.281864 22.794607 -4.9614849
16.547119 21.511255 -1.7595648
16.818069 20.181688 1.5111195
17.101797 18.811975 4.9359884
17.395178 17.395174 8.4774008
17.698799 15.928918 12.142429
18.013294 14.410638 15.938752
18.336693 12.835686 19.842505
18.671249 11.202744 23.880955
19.018139 9.5090733 28.068308
19.378267 7.7513065 32.415447
19.752192 5.9256573 36.929096
20.14094 4.0281906 41.621704
20.545761 2.0545719 46.508308
14.838146 -28.19248 -22.388685
14.765347 -29.530699 -23.26745
14.776129 -31.029873 -23.137304
14.907357 -32.796188 -21.553234
14.907236 -34.28664 -21.554705
14.907115 -35.777077 -21.556164
14.906993 -37.26749 -21.557627
14.906872 -38.75787 -21.559088
14.906751 -40.24823 -21.560556
14.90669 -41.738735 -21.561283
14.906569 -43.22905 -21.562759
14.906508 -44.719528 -21.563486
14.906447 -46.209984 -21.564222
14.906325 -47.700245 -21.565683
14.906265 -49.190674 -21.56642
14.906205 -50.681095 -21.567148
14.906083 -52.171295 -21.568609
14.906022 -53.661686 -21.56934
14.905961 -55.152061 -21.570078
14.905841 -56.6422 -21.571539
14.90578 -58.132542 -21.572275
14.905719 -59.622879 -21.573008
14.905658 -61.113205 -21.573734
14.905538 -62.60326 -21.575199
14.905477 -64.093552 -21.575939
14.905416 -65.583832 -21.576677
14.859096 -66.865929 -22.135813
14.779706 -67.986649 -23.094122
14.76368 -69.389305 -23.287571
14.764871 -70.871384 -23.273193
14.824753 -72.641296 -22.550354
18.016088 70.426521 -3.7978401
17.813126 68.013741 -6.0251064
17.614683 65.654732 -8.2027512
17.420612 63.347679 -10.332415
17.2307 61.090656 -12.416466
17.044954 58.882565 -14.454782
16.8631 56.721344 -16.450386
16.68405 54.602341 -18.415239
16.508692 52.527657 -20.339548
16.337051 50.496338 -22.223091
16.168877 48.50663 -24.068588
16.004192 46.557648 -25.87578
15.924046 44.876858 -26.755285
15.924676 43.430935 -26.748379
16.347126 43.096973 -22.112522
16.346397 41.609009 -22.120531
16.502337 40.505733 -20.409292
16.502066 39.004879 -20.412258
16.501797 37.504082 -20.415232
16.501728 36.003777 -20.415976
16.501593 34.50333 -20.417454
16.501526 33.003052 -20.418203
16.346066 31.206123 -22.124168
16.380226 29.782227 -21.749304
16.344475 28.231359 -22.14163
16.3458 26.747671 -22.127083
16.345667 25.261486 -22.12854
17.225027 25.054581 -12.478713
17.492012 23.852741 -9.5488968
17.768738 22.614754 -6.512208
18.055895 21.338789 -3.3610237
18.349058 20.017149 -0.14391683
18.656048 18.65604 3.2248743
18.973392 17.248541 6.7073183
19.301722 15.792316 10.310302
19.641708 14.284879 14.041222
19.99091 12.721484 17.873272
20.352345 11.101278 21.839531
20.727089 9.4214048 25.951843
21.11578 7.6784644 30.217243
21.519444 5.8689432 34.646915
21.937645 3.9886682 39.236149
22.37603 2.0341876 44.046833
22.836561 1.8698033e-06 49.100571
16.349117 -29.725672 -22.090689
16.345999 -31.205999 -22.124897
16.491461 -32.982922 -20.528643
16.504093 -34.508568 -20.390003
16.503958 -36.00864 -20.391491
16.503822 -37.508698 -20.392969
16.503689 -39.008717 -20.394463
16.503553 -40.508724 -20.395947
16.503485 -42.008873 -20.396687
16.503349 -43.508839 -20.398163
16.503283 -45.008957 -20.398907
16.503216 -46.50906 -20.399654
16.50308 -48.008968 -20.401133
16.503012 -49.509037 -20.40188
16.502945 -51.009109 -20.402611
16.502876 -52.509155 -20.403362
16.502743 -54.00898 -20.404844
16.502674 -55.509003 -20.405581
16.502607 -57.00901 -20.406326
16.502472 -58.50877 -20.407806
16.502403 -60.008747 -20.408552
16.502337 -61.508717 -20.409294
16.502201 -63.008415 -20.410772
16.409647 -64.146805 -21.426441
16.344408 -65.377632 -22.142359
16.3458 -66.869186 -22.127077
16.347061 -68.360435 -22.113253
16.348984 -69.854752 -22.092148
16.416067 -71.633751 -21.355997
16.346066 -72.814293 -22.124166
19.365116 69.391678 -6.7029352
19.150124 67.025429 -8.865591
18.939852 64.711166 -10.980746
18.734072 62.446907 -13.050765
18.532789 60.231567 -15.075493
18.33548 58.062355 -17.060263
18.141357 55.935848 -19.013
17.951372 53.854122 -20.924089
17.765255 51.815331 -22.796293
17.583027 49.818584 -24.629356
17.484678 48.082859 -25.618673
17.485374 46.627666 -25.611671
17.949614 46.369835 -20.941793
17.948807 44.872017 -20.9499
18.119967 43.789917 -19.228184
18.119665 42.279213 -19.231182
18.119293 40.76841 -19.234945
18.118994 39.257824 -19.237944
18.118919 37.747742 -19.238693
18.118771 36.237537 -19.240202
18.118696 34.727497 -19.240944
18.118547 33.217331 -19.242453
17.965902 31.440323 -20.777941
17.947855 29.913094 -20.959496
18.001148 28.501816 -20.423386
18.095718 27.143581 -19.472076
18.367434 26.020533 -16.73885
18.647432 24.863243 -13.922275
18.934549 23.668184 -11.034098
19.23233 22.437717 -8.038662
19.536499 21.164541 -4.9789453
19.855288 19.855284 -1.7721895
20.184744 18.502684 1.541888
20.525223 17.104353 4.9668312
20.877386 15.658035 8.5093164
21.241945 14.161293 12.176516
21.616062 12.609372 15.939824
22.003262 11.001629 19.834757
22.404699 9.3352909 23.872915
22.821058 7.6070228 28.061155
23.253061 5.8132687 32.406769
23.701481 3.9502485 36.917522
24.170324 2.0141959 41.633739
24.660721 -1.2354076e-07 46.566757
25.178495 -2.0982084 51.775154
18.035421 -30.05904 -20.078615
17.950493 -31.413366 -20.932938
17.947708 -32.904133 -20.960968
18.121759 -34.733376 -19.210131
18.121609 -36.243225 -19.211643
18.12146 -37.753036 -19.21315
18.121311 -39.26284 -19.214651
18.121161 -40.772614 -19.216152
18.121086 -42.282539 -19.216896
18.121012 -43.792446 -19.217649
18.120861 -45.302155 -19.219166
18.120787 -46.812042 -19.219906
18.120712 -48.321899 -19.220665
18.120564 -49.831551 -19.222164
18.120489 -51.341393 -19.222912
18.120415 -52.851212 -19.223667
18.120264 -54.360798 -19.225163
18.12019 -55.870586 -19.225916
18.120115 -57.380367 -19.226665
18.119967 -58.889889 -19.228176
18.078003 -60.260014 -19.650276
17.973396 -61.4091 -20.70256
17.94734 -62.815701 -20.964645
17.948734 -64.316299 -20.950634
17.950127 -65.817131 -20.936621
18.024845 -67.593178 -20.184998
18.025068 -69.096092 -20.182777
18.02529 -70.599052 -20.180548
18.025511 -72.102051 -20.178307
18.025658 -73.604782 -20.176821
20.675072 68.386772 -9.5238962
20.448824 66.06543 -11.624701
20.227388 63.794075 -13.680817
20.010782 61.571632 -15.692117
19.798107 59.394325 -17.666889
19.589178 57.260677 -19.606876
19.384693 55.171814 -21.505617
19.184355 53.125916 -23.365839
19.065746 51.330856 -24.467175
19.066511 49.866261 -24.460079
19.572992 49.685287 -19.757174
19.572268 48.177883 -19.763901
19.758833 47.117222 -18.031549
19.758505 45.596554 -18.034586
19.758179 44.075928 -18.037642
19.757767 42.555199 -18.041447
19.757439 41.034683 -18.044491
19.757277 39.514557 -18.046021
19.757113 37.994446 -18.047541
19.75703 36.474518 -18.0483
19.756866 34.954456 -18.049826
19.756784 33.434559 -18.050587
19.75662 31.914537 -18.052107
19.56921 30.106476 -19.792282
19.57066 28.603268 -19.778831
19.64592 27.202047 -19.080021
19.749493 25.826258 -18.118309
20.048275 24.674801 -15.343959
20.355022 23.486563 -12.495678
20.673187 22.263432 -9.5413904
20.997471 20.997471 -6.5302625
21.337349 19.696012 -3.3743384
21.688511 18.351818 -0.11365407
22.051325 16.962555 3.2552042
22.426479 15.526022 6.7387047
22.814732 14.039831 10.343792
23.2127 12.499146 14.039116
23.62492 10.903808 17.866732
24.05192 9.2507391 21.831625
24.494766 7.5368466 25.943665
24.952135 5.7581849 30.190516
25.431526 3.9125457 34.641865
25.929699 1.9945873 39.267616
26.448511 -2.3834298e-06 44.08503
26.997999 -2.0767729 49.187252
19.666124 -31.768358 -18.892406
19.57267 -33.122982 -19.760168
19.581606 -34.644379 -19.677195
19.760475 -36.480877 -18.016317
19.760309 -38.000595 -18.017851
19.760147 -39.52029 -18.019373
19.759981 -41.039963 -18.020897
19.759899 -42.559788 -18.02165
19.759817 -44.079597 -18.022411
19.759655 -45.599201 -18.023932
19.759571 -47.11898 -18.024693
19.759489 -48.638748 -18.025463
19.759327 -50.158291 -18.026983
19.759243 -51.678032 -18.027739
19.759161 -53.19775 -18.028498
19.758999 -54.717228 -18.030031
19.758917 -56.236916 -18.030792
19.663038 -57.476574 -18.921062
19.575005 -58.725018 -19.738489
19.571304 -60.219398 -19.772854
19.57283 -61.729698 -19.758669
19.582651 -63.267036 -19.667475
19.65484 -65.012161 -18.99719
19.655085 -66.524902 -18.994926
19.655327 -68.037674 -18.992668
19.655571 -69.550484 -18.990398
19.655815 -71.063324 -18.988144
19.656057 -72.57621 -18.985884
19.656301 -74.089134 -18.983625
22.189631 69.738838 -10.177715
21.947628 67.410568 -12.264318
21.710846 65.132538 -14.305895
21.479029 62.902878 -16.304655
21.251143 60.717545 -18.26955
21.027609 58.576904 -20.196905
20.808811 56.481064 -22.083399
20.668819 54.624741 -23.290442
20.668486 53.14753 -23.293316
21.217726 53.044312 -18.557665
21.217199 51.527485 -18.562204
21.419453 50.488716 -16.818336
21.419004 48.957729 -16.822191
21.418648 47.427006 -16.825274
21.4182 45.896141 -16.82914
21.417843 44.365524 -16.832222
21.417484 42.834969 -16.835302
21.417217 41.304623 -16.837626
21.417038 39.774498 -16.839167
21.416948 38.244549 -16.839933
21.416769 36.714458 -16.841471
21.416679 35.184547 -16.842257
21.4165 33.654499 -16.843786
21.416412 32.124619 -16.844568
21.416321 30.594748 -16.845343
21.213161 28.789289 -18.597021
21.214741 27.2761 -18.583406
21.315277 25.882833 -17.716564
21.428135 24.489296 -16.743479
21.753862 23.307709 -13.935015
22.086502 22.086502 -11.066913
22.435558 20.833019 -8.0572853
22.795927 19.539364 -4.9501224
23.167955 18.203396 -1.7424077
23.552328 16.823088 1.571735
23.949673 15.396219 4.9976912
24.36042 13.920237 8.5392551
24.78179 12.390894 12.172383
25.217869 10.807655 15.932345
25.669699 9.1677494 19.828098
26.137882 7.4679704 23.864868
26.622217 5.7047648 28.040895
27.128859 3.8755441 32.409256
27.655306 1.9753777 36.94838
28.200729 -5.33722e-06 41.651127
28.780693 -2.0557628 46.651688
21.219658 -33.345173 -18.541014
21.216057 -34.854958 -18.572046
21.380423 -36.652161 -17.154856
21.420795 -38.251419 -16.806772
21.420614 -39.781147 -16.808308
21.420437 -41.310848 -16.809845
21.420347 -42.840698 -16.810627
21.420258 -44.370533 -16.811398
21.420078 -45.900173 -16.812935
21.419989 -47.429977 -16.813705
21.419901 -48.959774 -16.814472
21.419722 -50.489342 -16.816021
21.419632 -52.019112 -16.816788
21.386309 -53.465775 -17.104111
21.260834 -54.670719 -18.185972
21.214565 -56.067066 -18.584911
21.216848 -57.588589 -18.565237
21.218428 -59.108479 -18.551609
21.306154 -60.874722 -17.795221
21.306417 -62.397369 -17.792936
21.306684 -63.920059 -17.79064
21.30695 -65.442787 -17.788345
21.307127 -66.965263 -17.786823
21.307392 -68.488052 -17.784533
21.307571 -70.01059 -17.783012
21.307482 -71.532257 -17.783775
21.307482 -73.05423 -17.783766
21.307482 -74.576187 -17.783768
23.436369 68.746674 -12.899635
23.184366 66.461853 -14.927591
22.937628 64.225365 -16.913179
22.694681 62.032124 -18.868267
22.456825 59.884869 -20.782375
22.296513 57.97094 -22.072479
22.291718 56.472351 -22.111071
22.884314 56.447975 -17.342218
22.884029 54.921661 -17.344524
23.102083 53.904865 -15.589754
23.101597 52.363609 -15.593666
23.101208 50.822662 -15.596785
23.100819 49.281742 -15.59992
23.100334 47.740685 -15.603823
23.099945 46.19989 -15.606953
23.011221 44.488365 -16.320942
22.977633 42.891579 -16.591242
23.098972 41.578159 -15.614766
23.098877 40.038055 -15.61555
23.098682 38.497803 -15.617107
23.098587 36.957737 -15.617887
23.098392 35.41753 -15.619457
23.098293 33.877495 -15.620235
23.098099 32.337345 -15.621805
23.098003 30.79734 -15.622584
23.097906 29.257341 -15.623359
22.878881 27.454659 -17.385933
22.880693 25.931454 -17.371363
23.022793 24.557648 -16.227823
23.126881 23.126884 -15.390193
23.483051 21.917511 -12.523953
23.851294 20.671118 -9.5605583
24.231377 19.385099 -6.5018897
24.623661 18.05735 -3.3450422
25.028852 16.685898 -0.084291503
25.447605 15.268567 3.2855558
25.880119 13.802727 6.7661772
26.323807 12.284448 10.336679
26.783102 10.713243 14.032805
27.258575 9.0861921 17.859119
27.74815 7.3995099 21.79892
28.261593 5.6523166 25.930796
28.794546 3.8392775 30.219662
29.34783 1.9565217 34.672146
29.91872 -1.4161182e-06 39.266312
30.527857 -2.0351932 44.168274
22.99427 -33.724937 -16.457352
22.885553 -35.091183 -17.332241
22.881168 -36.609875 -17.367523
23.103346 -38.505581 -15.579586
23.103151 -40.045464 -15.581156
23.102957 -41.585323 -15.582714
23.102859 -43.12534 -15.5835
23.102762 -44.66534 -15.584277
23.102568 -46.205135 -15.585849
23.10247 -47.74511 -15.586625
23.102373 -49.285065 -15.587412
23.007849 -50.617268 -16.348089
22.894995 -51.895329 -17.256258
22.882122 -53.391617 -17.359859
22.884314 -54.922359 -17.342213
22.904922 -56.498814 -17.176367
22.979553 -58.214878 -16.575773
22.979843 -59.747597 -16.573454
22.980131 -61.28035 -16.571135
22.980419 -62.813156 -16.568811
22.980709 -64.345985 -16.566486
22.980612 -65.877754 -16.56727
22.980612 -67.409805 -16.567268
22.980516 -68.941551 -16.568041
22.980516 -70.473579 -16.568045
22.980516 -72.005623 -16.568039
22.980419 -73.537346 -16.568813
22.980419 -75.069374 -16.568817
24.915146 70.073845 -13.5307
24.648129 67.782356 -15.545181
24.386368 65.538368 -17.520014
24.128817 63.338146 -19.463083
23.946608 61.363182 -20.837753
23.93663 59.841576 -20.913033
24.573195 59.897163 -16.11051
24.573093 58.361103 -16.11129
24.807249 57.366756 -14.344718
24.806829 55.815365 -14.34788
24.806305 54.263786 -14.351844
24.805885 52.712505 -14.355013
24.805359 51.161053 -14.35897
24.804937 49.609875 -14.362149
24.804518 48.058758 -14.365308
24.609623 46.143044 -15.83569
24.687069 44.745308 -15.251419
24.666595 43.166546 -15.405863
24.803259 41.855499 -14.374816
24.803049 40.304958 -14.3764
24.802944 38.754597 -14.377193
24.802732 37.204098 -14.37877
24.802629 35.653778 -14.379573
24.80242 34.103329 -14.381155
24.802315 32.553036 -14.381941
24.80221 31.002756 -14.382735
24.660473 29.284313 -15.452068
24.567118 27.638004 -16.156366
24.567427 26.102888 -16.15403
24.567633 24.567633 -16.152485
24.695078 23.151642 -15.190986
24.858391 21.751089 -13.958877
25.245195 20.511723 -11.040657
25.644341 19.233255 -8.0293388
26.056194 17.913637 -4.9221578
26.481493 16.550932 -1.7135168
26.920906 15.14301 1.601581
27.37425 13.687128 5.021811
27.839687 12.179866 8.5332594
28.321087 10.620406 12.16515
28.81447 9.0045271 15.887434
29.333275 7.3333178 19.80151
29.871105 5.6008315 23.859127
30.429182 3.8036523 28.069496
31.008347 1.9380244 32.438953
31.603167 -1.7028852e-06 36.926525
32.240219 -2.0150113 41.732719
24.690084 -35.492004 -15.228654
24.572989 -36.859486 -16.112062
24.577318 -38.402065 -16.079405
24.808193 -40.31332 -14.337581
24.807983 -41.863476 -14.339169
24.807878 -43.413788 -14.339967
24.807774 -44.964088 -14.340756
24.788675 -46.478771 -14.484844
24.642429 -47.744709 -15.588187
24.569178 -49.138359 -16.140821
24.572062 -50.679878 -16.119068
24.574327 -52.220451 -16.101955
24.675114 -53.97681 -15.341603
24.675425 -55.519707 -15.339256
24.675735 -57.062645 -15.3369
24.675943 -58.605366 -15.335331
24.676048 -60.147865 -15.334551
24.675943 -61.689865 -15.335325
24.675943 -63.232109 -15.335327
24.675943 -64.774353 -15.335329
24.67584 -66.316322 -15.336122
24.67584 -67.858559 -15.336119
24.676048 -69.401382 -15.334542
24.676256 -70.944237 -15.332982
24.676464 -72.487114 -15.331415
26.102234 69.094154 -16.158695
25.825506 66.842484 -18.123636
25.619675 64.802704 -19.585175
25.603661 63.2561 -19.698881
26.284821 63.392807 -14.862215
26.284708 61.846375 -14.863012
26.535408 60.875343 -13.08289
26.534956 59.313438 -13.086098
26.534391 57.751324 -13.090108
26.533939 56.189518 -13.093331
26.533485 54.627758 -13.09654
26.532921 53.065838 -13.10056
26.532469 51.504204 -13.10376
26.531902 49.942406 -13.107775
26.531452 48.380878 -13.110997
26.530998 46.819416 -13.114202
26.530661 45.258179 -13.116614
26.530546 43.697372 -13.117418
26.530321 42.136391 -13.119012
26.530207 40.575615 -13.119813
26.529982 39.014675 -13.121418
26.529869 37.453934 -13.122236
26.529642 35.89304 -13.123829
26.52953 34.332329 -13.124626
26.356028 32.557442 -14.356598
26.279161 30.916664 -14.902396
26.279385 29.371078 -14.900826
26.279718 27.825586 -14.898458
26.285599 26.285597 -14.856703
26.287151 24.740854 -14.845676
26.287262 23.194643 -14.844881
26.414618 21.753212 -13.940578
26.617765 20.354767 -12.49811
27.035339 19.083771 -9.5330601
27.466105 17.772192 -6.4743657
27.910818 16.418129 -3.316608
28.370171 15.019503 -0.054925341
28.843693 13.573507 3.3073792
29.329836 12.076985 6.7593074
29.83279 10.529226 10.33059
30.348709 8.9260874 13.993944
30.890293 7.2683043 17.839523
31.451717 5.5503025 21.825994
32.033764 3.7686708 25.958876
32.637928 1.9198755 30.248814
33.256611 -1.0160522e-07 34.641872
33.918964 -1.9952375 39.345001
26.285486 -37.108921 -14.85749
26.282934 -38.651379 -14.875609
26.457495 -40.464401 -13.636132
26.535973 -42.145374 -13.078865
26.44738 -43.56039 -13.707945
26.306921 -44.876514 -14.705296
26.281824 -46.379696 -14.88349
26.284931 -47.931347 -14.861425
26.319485 -49.542568 -14.616066
26.393679 -51.234787 -14.089256
26.394014 -52.788033 -14.086863
26.394239 -54.34108 -14.085286
26.394127 -55.893444 -14.086079
26.394127 -57.446045 -14.086074
26.394014 -58.99839 -14.086872
26.394127 -60.551235 -14.086077
26.39435 -62.104355 -14.084494
26.394575 -63.657505 -14.082891
26.394798 -65.210678 -14.081302
26.395021 -66.763885 -14.079712
26.395247 -68.317101 -14.078135
27.546776 70.397308 -16.768181
27.31599 68.28997 -18.315861
27.293261 66.716858 -18.468294
27.352938 65.343124 -18.06809
28.017746 63.818199 -13.609784
28.019293 62.265099 -13.599398
28.250544 61.209515 -12.048608
28.285452 59.713734 -11.814514
28.284966 58.141312 -11.817767
28.284359 56.568714 -11.82184
28.283873 54.996422 -11.825096
28.283388 53.424183 -11.828349
28.282782 51.851765 -11.832415
28.282297 50.27964 -11.83567
28.281691 48.707355 -11.839742
28.281324 47.13554 -11.842178
28.281204 45.564159 -11.842995
28.280962 43.992611 -11.84462
28.28084 42.421268 -11.845433
28.2806 40.849758 -11.847054
28.280478 39.278435 -11.847875
28.280233 37.706982 -11.849497
28.07155 35.869202 -13.248962
28.014412 34.239838 -13.632141
28.014771 32.683903 -13.629746
28.092604 31.21401 -13.107781
28.020008 29.576677 -13.594614
28.021677 28.021679 -13.583426
28.045876 26.48777 -13.421143
28.285452 25.142622 -11.814507
28.021915 23.351595 -13.581827
28.020128 21.793432 -13.593809
28.157516 20.335978 -12.672467
28.404882 18.936586 -11.013571
28.853924 17.632946 -8.002244
29.31739 16.287434 -4.8941712
29.795986 14.897988 -1.6846272
30.288801 13.461691 1.6202459
30.795168 11.975896 5.0160241
31.31221 10.437401 8.4833899
31.856451 8.8490143 12.13315
32.420105 7.2044706 15.913092
33.003899 5.5006504 19.828098
33.609104 3.7343428 23.886694
34.237095 1.9020572 28.098114
34.879593 -4.0232308e-06 32.406776
35.565262 -1.9758497 37.00499
28.021437 -38.918667 -13.585022
28.015959 -40.467499 -13.62176
28.014532 -42.021801 -13.631338
28.017984 -43.583538 -13.608177
28.0212 -45.145267 -13.586616
28.135284 -46.892147 -12.821548
28.135525 -48.455627 -12.819941
28.135525 -50.018715 -12.819937
28.135405 -51.581573 -12.820751
28.135645 -53.145103 -12.819139
28.135885 -54.708668 -12.817526
28.136126 -56.272255 -12.815911
28.136364 -57.835861 -12.814307
28.136604 -59.399506 -12.81269
28.136845 -60.963165 -12.811084
28.137085 -62.526859 -12.809477
28.137325 -64.090576 -12.807868
28.137566 -65.65432 -12.806257
29.055542 68.815758 -16.905472
29.775616 62.685501 -12.330709
29.777271 61.121769 -12.32018
29.986162 59.972328 -10.993063
30.059216 58.536366 -10.528943
30.058695 56.95332 -10.532247
30.058048 55.37009 -10.53636
30.057528 53.787159 -10.539665
30.057009 52.204273 -10.542962
30.056358 50.621239 -10.547086
30.055841 49.038471 -10.550385
30.05558 47.456181 -10.55204
30.05545 45.874104 -10.552856
30.055321 44.292042 -10.553684
30.055061 42.70982 -10.555332
30.054932 41.127792 -10.556158
29.812353 39.226788 -12.097306
29.773323 37.60841 -12.345277
29.773832 36.042011 -12.342037
29.832163 34.542503 -11.971447
29.77791 32.912426 -12.316126
29.779819 31.347178 -12.303995
30.060513 30.060509 -10.520687
30.060255 28.478132 -10.522339
30.059996 26.895782 -10.523991
30.059475 25.313244 -10.527292
30.059086 23.730856 -10.529762
29.77829 21.9419 -12.31371
29.77829 20.374624 -12.313711
29.924141 18.899458 -11.387105
30.220167 17.495884 -9.5063763
30.701744 16.15881 -6.4468212
31.19906 14.778506 -3.2872958
31.710293 13.351699 -0.039319411
32.236023 11.876429 3.3007386
32.773613 10.349558 6.7161469
33.338379 8.7732592 10.30421
33.923111 7.1417074 14.019153
34.528557 5.451879 17.865644
35.156178 3.7006497 21.853073
35.806858 1.8845657 25.986965
36.471947 -9.6460758e-07 30.212381
37.179676 -1.9568243 34.708736
29.920668 -39.369297 -11.409168
29.778164 -40.749065 -12.314518
29.830246 -42.39035 -11.983635
29.900612 -44.064064 -11.536584
29.900869 -45.638168 -11.534952
29.901125 -47.212303 -11.533319
29.90151 -48.786674 -11.53087
29.901768 -50.36087 -11.529239
29.902023 -51.935101 -11.527607
29.902281 -53.50935 -11.525971
29.902538 -55.083626 -11.524334
29.902796 -56.657928 -11.522711
29.903051 -58.232262 -11.521074
29.903309 -59.806618 -11.519447
29.903566 -61.381008 -11.517805
31.558805 61.539673 -11.026709
31.559351 59.962769 -11.023428
31.741367 58.721535 -9.924861
31.857185 57.342941 -9.2258234
31.856632 55.749107 -9.2291803
31.855938 54.155098 -9.2333508
31.855385 52.56139 -9.236702
31.854832 50.967735 -9.2400446
31.854416 49.374344 -9.2425594
31.854279 47.781418 -9.2433786
31.854137 46.188499 -9.244215
31.840292 44.576408 -9.3277874
31.586432 42.641682 -10.859972
31.556631 41.023621 -11.039832
31.55731 39.446636 -11.035732
31.591879 37.910255 -10.827101
31.559895 36.293877 -11.020138
31.562069 34.718277 -11.007019
31.85968 33.452663 -9.2107716
31.859402 31.859402 -9.2124481
31.859125 30.266172 -9.2141209
31.858849 28.672964 -9.2158003
31.858433 27.07967 -9.2183094
31.857878 25.486301 -9.2216396
31.857462 23.893091 -9.2241507
31.857048 22.299931 -9.2266684
31.558533 20.513048 -11.028354
31.561117 18.936668 -11.012764
31.715256 17.44339 -10.082451
32.064407 16.0322 -7.975143
32.579659 14.660844 -4.8653169
33.108898 13.243557 -1.671078
33.645412 11.77589 1.5670649
34.210621 10.263182 4.9784117
34.795311 8.6988239 8.5073261
35.400162 7.080029 12.15792
36.026588 5.4039841 15.938759
36.675404 3.6675365 19.854708
37.347641 1.8673829 23.911974
38.034698 -3.216825e-06 28.058773
38.763512 -1.93818 32.457527
31.556902 -41.023972 -11.038204
31.691244 -42.78318 -10.227376
31.691519 -44.368126 -10.22572
31.691792 -45.953098 -10.224066
31.692068 -47.538105 -10.22241
31.692343 -49.123135 -10.220753
31.692616 -50.708191 -10.219094
31.69289 -52.293266 -10.217445
31.693165 -53.878384 -10.215787
31.693438 -55.463512 -10.214137
31.693712 -57.048687 -10.212474
31.693987 -58.633877 -10.210824
33.367043 60.378456 -9.7029533
33.366024 58.787754 -9.7087784
33.513302 57.451366 -8.8622341
33.679863 56.133106 -7.9048119
33.679272 54.528347 -7.908205
33.678535 52.923409 -7.9124436
33.678093 51.319008 -7.9149818
33.677944 49.715054 -7.9158273
33.635384 48.050552 -8.1604843
33.382538 46.099693 -9.6138859
33.364727 44.486298 -9.7162657
33.365448 42.898438 -9.7121077
33.372974 41.318924 -9.6688385
33.366463 39.721985 -9.7062817
33.368923 38.135914 -9.6921387
33.683552 36.891502 -7.8836184
33.683258 35.287224 -7.8853083
33.683109 33.683109 -7.886157
33.682812 32.078873 -7.8878589
33.682518 30.474655 -7.8895473
33.682076 28.870346 -7.8920856
33.681484 27.265963 -7.895484
33.681042 25.661745 -7.8980217
33.680599 24.057571 -7.9005694
33.680008 22.453341 -7.9039655
33.679569 20.849251 -7.9065003
33.363132 19.064646 -9.7254086
33.368633 17.478811 -9.6938
33.531563 15.967414 -8.7572527
33.93845 14.545046 -6.4184217
34.480698 13.135501 -3.3015091
35.040077 11.680029 -0.086130418
35.624008 10.178288 3.2703786
36.227558 8.6256094 6.7396889
36.851917 7.0194111 10.328568
37.498356 5.3569036 14.044376
38.167686 3.635016 17.891771
38.859974 1.8504708 21.871128
39.568676 1.3710917e-06 25.944828
40.317226 -1.9198651 30.247601
33.364433 -41.30835 -9.717927
33.361397 -42.893223 -9.7353945
33.507168 -44.676228 -8.8974686
33.507462 -46.272205 -8.8958006
33.507751 -47.868217 -8.8941183
33.508041 -49.464264 -8.892436
33.508339 -51.060322 -8.8907623
33.508629 -52.656422 -8.8890781
33.508923 -54.252541 -8.8874054
35.199665 59.199421 -8.3657236
35.198429 57.597439 -8.3724756
35.30423 56.165821 -7.7919946
35.527756 54.90654 -6.5655069
35.52713 53.290695 -6.5689526
35.452259 51.566921 -6.9797759
35.201199 49.601688 -8.3572836
35.198124 47.997452 -8.3741617
35.199047 46.39875 -8.3691025
35.195511 44.794281 -8.388505
35.197971 43.197514 -8.3750095
35.200893 41.601059 -8.3589754
35.532928 40.378334 -6.5371432
35.532612 38.762852 -6.5388699
35.532303 37.147408 -6.5405731
35.53199 35.531982 -6.5423021
35.531834 33.916744 -6.5431566
35.531517 32.30138 -6.5448828
35.531048 30.685905 -6.5474563
35.530422 29.070345 -6.5508928
35.529953 27.454966 -6.5534782
35.52948 25.839624 -6.5560603
35.529015 24.224325 -6.5586352
35.528385 22.608974 -6.5620708
35.527912 20.993765 -6.5646434
35.527447 19.378607 -6.5672235
35.193356 17.596676 -8.4003029
35.201351 16.00061 -8.3564425
35.373196 14.47085 -7.4135747
35.829815 13.029024 -4.9081612
36.412216 11.585702 -1.7126193
37.014034 10.094737 1.589451
37.635902 8.5536146 5.001554
38.279205 6.9598598 8.5312634
38.944698 5.3106399 12.1827
39.63393 3.603081 15.964427
40.344967 1.8338559 19.865786
41.07486 -1.0133448e-06 23.870615
41.841866 -1.9019023 28.079041
35.194279 -43.192986 -8.3952494
35.190746 -44.788219 -8.41465
35.348679 -46.595985 -7.5481005
35.348988 -48.203167 -7.5463972
35.3493 -49.810379 -7.5446925
35.349609 -51.41761 -7.5430002
37.284695 58.358654 -5.8200531
37.057529 56.391891 -7.0122962
37.115326 54.866138 -6.7089453
37.056225 53.167625 -7.019124
37.057365 51.558071 -7.0131431
37.058342 49.948204 -7.0080004
37.051659 48.328259 -7.0430813
37.055248 46.721828 -7.0242581
37.058506 45.1147 -7.0071573
37.408207 43.913982 -5.1718154
37.407875 42.287155 -5.1735587
37.407543 40.660381 -5.175302
37.407211 39.033611 -5.1770453
37.406883 37.406879 -5.1787982
37.363907 35.739399 -5.4043241
37.114346 33.887005 -6.7140903
37.117783 32.276329 -6.6960626
37.405384 30.900099 -5.1866336
37.40472 29.273256 -5.1901174
37.404224 27.646599 -5.1927323
37.403725 26.019983 -5.1953564
37.403061 24.393297 -5.1988382
37.402561 22.766777 -5.2014589
37.402065 21.140303 -5.204071
37.401402 19.513771 -5.2075481
37.400902 17.887381 -5.2101636
37.051334 16.109278 -7.0447922
37.059811 14.501667 -7.0003114
37.241344 12.953512 -6.0475779
37.762543 11.492951 -3.3121727
38.38142 10.012547 -0.064101905
39.021107 8.4828529 3.2931521
39.682289 6.9012666 6.7632265
40.366264 5.2651682 10.352921
41.074432 3.5716918 14.069587
41.803741 1.8175565 17.897219
42.553616 -1.4542924e-06 21.83276
43.338459 -1.8842841 25.951849
37.049541 -45.10379 -7.0541959
37.215679 -46.924114 -6.1822796
38.943169 55.169491 -5.6319337
38.944206 53.548283 -5.6267295
38.934891 51.913181 -5.6735797
38.938686 50.295807 -5.6545029
38.94231 48.677891 -5.6362767
39.309765 47.499302 -3.7881091
39.309414 45.860989 -3.7898772
39.309238 44.222889 -3.7907729
39.308884 42.584618 -3.7925303
39.308533 40.946396 -3.7942989
39.308182 39.308178 -3.7960787
39.307831 37.670002 -3.7978346
39.007458 35.756828 -5.3085976
39.104115 34.216095 -4.8224545
38.998802 32.499001 -5.3521209
39.305897 31.117167 -3.8075621
39.30537 29.479031 -3.8102171
39.304844 27.840929 -3.8128705
39.304142 26.202757 -3.8163962
39.303612 24.56476 -3.8190565
39.303085 22.9268 -3.8217134
39.241146 21.255625 -4.1332211
38.971657 19.485834 -5.4886546
38.934719 17.845083 -5.6744494
38.938858 16.224527 -5.6536274
38.954041 14.607763 -5.5772471
38.934372 12.978125 -5.6761861
39.135101 11.414406 -4.6666007
39.726727 9.9316816 -1.6909502
40.383396 8.413209 1.6118453
41.061951 6.8436513 5.0247097
