# .PCD v0.7 - Point Cloud Data file format
VERSION 0.7
FIELDS x y z
SIZE 4 4 4
TYPE F F F
COUNT 1 1 1
WIDTH 1506
HEIGHT 1
VIEWPOINT 0 0 0 1 0 0 0
POINTS 1506
DATA ascii
-32.344074 7.6604381 -18.070229
-31.469887 6.6252413 -20.847181
-30.741583 5.6629238 -23.160706
-34.371651 11.147561 -8.6784992
-33.22892 9.8788681 -12.4066
-32.222698 8.7088385 -15.68935
-31.29413 7.6120882 -18.718761
-30.496042 6.5937352 -21.322481
-29.793552 5.6366186 -23.614313
-29.122288 4.7225327 -25.804296
-28.477314 3.8482862 -27.908484
-27.884611 3.0145516 -29.84215
-27.653347 2.2421649 -30.596634
-34.559731 12.479899 -4.93297
-33.141186 11.047064 -9.6894512
-32.103104 9.8092833 -13.170223
-31.158794 8.6552219 -16.336565
-30.348658 7.5871625 -19.053015
-29.569977 6.571104 -21.663984
-28.842951 5.6083484 -24.101755
-28.193075 4.6988454 -26.280836
-27.571747 3.8294089 -28.364199
-27.064636 3.007179 -30.064577
-26.767744 2.2306473 -31.060081
-34.73135 13.892538 -1.030178
-33.255909 12.352192 -6.1187882
-32.176872 11.032067 -9.8402634
-31.289677 9.8339024 -12.900089
-30.450096 8.7000246 -15.795697
-29.654392 7.6254139 -18.53998
-28.892387 6.6039748 -21.168039
-28.161976 5.632391 -23.687138
-27.46768 4.708744 -26.081676
-26.806704 3.82953 -28.361305
-26.296677 3.0053337 -30.120325
-26.053761 2.2331777 -30.958113
-33.369766 13.740492 -2.3411596
-32.354614 12.370881 -5.945272
-31.429331 11.092703 -9.2303209
-30.558119 9.8864508 -12.323401
-29.733902 8.7452688 -15.249629
-28.953203 7.6640816 -18.021351
-28.207668 6.6370983 -20.66823
-27.491383 5.6599927 -23.211275
-26.810383 4.7312431 -25.629038
-26.162214 3.8473854 -27.930239
-25.585947 3.0101111 -29.976171
-25.357553 2.2374303 -30.787035
-32.545582 13.807218 -1.7658548
-31.581562 12.441221 -5.2921386
-30.673658 11.154057 -8.613163
-29.818821 9.9396076 -11.740078
-29.010338 8.7910109 -14.697426
-28.244209 7.7029691 -17.499846
-27.512608 6.6697187 -20.175968
-26.814188 5.6878576 -22.730721
-26.146772 4.7539582 -25.172054
-25.511686 3.8654053 -27.495136
-24.923124 3.0209858 -29.648033
-24.686005 2.2441828 -30.515396
-33.424664 -15.193029 1.4497374
-31.745363 13.888596 -1.0641791
-30.799805 12.51242 -4.6310277
-29.909578 11.216092 -7.9891353
-29.071531 9.9933405 -11.150438
-28.279163 8.8372383 -14.139406
-27.527876 7.7422137 -16.973421
-26.811394 6.7028456 -19.676146
-26.130291 5.7160006 -22.245409
-25.476761 4.776896 -24.710663
-24.855038 3.8836005 -27.055935
-24.272797 3.0341008 -29.25226
-24.010391 2.2509744 -30.242113
-31.56218 -4.9315915 -1.7551891
-31.563313 -5.9181218 -1.7509202
-31.564444 -6.9047241 -1.7466514
-31.565573 -7.8913946 -1.7423804
-31.566706 -8.8781319 -1.7381177
-31.567837 -9.8649464 -1.7338465
-31.568829 -10.851785 -1.7301124
-31.570383 -11.838897 -1.7242385
-31.572081 -12.826158 -1.7178351
-31.570526 -13.812104 -1.7237051
-31.568544 -14.797754 -1.7311786
-31.566565 -15.783281 -1.7386539
-31.564585 -16.768684 -1.7461194
-30.935795 13.971002 -0.35364395
-30.008915 12.584385 -3.9628172
-29.136831 11.278772 -7.3586168
-28.315998 10.047614 -10.554851
-27.54015 8.8839226 -13.575932
-26.804312 7.781898 -16.4412
-26.103178 6.7363029 -19.171335
-25.439213 5.7443395 -21.75675
-24.800251 4.8000507 -24.244793
-24.192175 3.901963 -26.612579
-23.616796 3.0473289 -28.853035
-23.330595 2.2577999 -29.967476
-23.214731 1.497723 -30.418644
-29.79966 0.96128219 -4.7776384
-29.80122 3.7756072e-06 -4.7715592
-29.802782 -0.9613806 -4.7654786
-29.804344 -1.9228631 -4.7593923
-29.805906 -2.884443 -4.7533102
-29.807337 -3.846108 -4.7477365
-29.805515 -4.8073387 -4.7548351
-29.803694 -5.7684555 -4.7619295
-29.80187 -6.7294579 -4.7690206
-29.800049 -7.6903367 -4.7761126
-29.798229 -8.6510963 -4.7832093
-29.796408 -9.611743 -4.7903018
-29.794584 -10.572275 -4.7973905
-29.792765 -11.532684 -4.804481
-29.790813 -12.492925 -4.8120775
-29.788994 -13.453096 -4.8191652
-29.787174 -14.413148 -4.8262572
-29.785353 -15.373083 -4.8333426
-29.783533 -16.332907 -4.8404274
-29.781713 -17.292608 -4.8475122
-29.779894 -18.252197 -4.8545947
-30.116425 14.054335 0.36482194
-29.208876 12.65718 -3.2868793
-28.355518 11.342207 -6.7205291
-27.552332 10.102522 -9.9522972
-26.793394 8.9311304 -13.006031
-26.073292 7.8219857 -15.903489
-25.387859 6.7700953 -18.661457
-24.73819 5.7722406 -21.275526
-24.117153 4.823431 -23.774391
-23.523014 3.920505 -26.165014
-22.957525 3.0610027 -28.440363
-22.646744 2.2646737 -29.690861
-22.500692 1.5000461 -30.278522
-28.123093 0.93743443 -7.6557288
-28.121416 -2.6871999e-06 -7.6624727
-28.119741 -0.93732101 -7.6692214
-28.118065 -1.8745376 -7.6759634
-28.11639 -2.811636 -7.6827087
-28.114714 -3.7486284 -7.6894445
-28.113037 -4.6855063 -7.6961875
-28.111362 -5.6222734 -7.7029281
-28.109686 -6.5589271 -7.7096658
-28.107893 -7.4954391 -7.7168922
-28.106218 -8.4318628 -7.7236323
-28.104544 -9.3681822 -7.7303629
-28.102869 -10.304387 -7.7370996
-28.101196 -11.240481 -7.7438354
-28.099524 -12.176456 -7.7505751
-28.097849 -13.112329 -7.7573075
-28.096176 -14.04809 -7.7640367
-28.094501 -14.983735 -7.770772
-28.092829 -15.919269 -7.7775054
-28.091156 -16.854692 -7.7842379
-28.089485 -17.790005 -7.7909665
-28.087811 -18.725208 -7.7976961
-28.08614 -19.660299 -7.8044214
-29.287224 14.13866 1.0919048
-28.399527 12.730826 -2.6030788
-27.565247 11.406311 -6.0757113
-26.780159 10.157995 -9.3435917
-26.038765 8.9788857 -12.429599
-25.3347 7.862493 -15.360216
-24.665232 6.804203 -18.146845
-24.030321 5.8004236 -20.789606
-23.427366 4.8470421 -23.299374
-22.847467 3.9392176 -25.713173
-22.295658 3.0752652 -28.010035
-21.958714 2.2715886 -29.412552
-21.770174 1.5013931 -30.197329
-26.509727 0.91413099 -10.469242
-26.508406 -7.449251e-07 -10.474734
-26.506977 -0.91403514 -10.48069
-26.505547 -1.827968 -10.486648
-26.504116 -2.7418036 -10.492601
-26.502686 -3.6555424 -10.49855
-26.501255 -4.5691833 -10.504506
-26.499825 -5.4827261 -10.510457
-26.498396 -6.3961639 -10.516409
-26.496965 -7.3095078 -10.522358
-26.495647 -8.2227869 -10.527857
-26.494217 -9.1359367 -10.533808
-26.492788 -10.048988 -10.539755
-26.491358 -10.961943 -10.545696
-26.489929 -11.874795 -10.551653
-26.488503 -12.787551 -10.557594
-26.487072 -13.70021 -10.563541
-26.485643 -14.612769 -10.569484
-26.484327 -15.525294 -10.574971
-26.482897 -16.437664 -10.580917
-26.481468 -17.349928 -10.586865
-26.480043 -18.262096 -10.592811
-26.478615 -19.174166 -10.598749
-26.477186 -20.086138 -10.604694
-28.448141 14.224069 1.8283464
-27.580828 12.805386 -1.9107341
-26.766109 11.471188 -5.423058
-25.999571 10.214115 -8.7276821
-25.276127 9.0271893 -11.846521
-24.588421 7.9034224 -14.811288
-23.935379 6.8386807 -17.626608
-23.316128 5.8290339 -20.296259
-22.730373 4.8707905 -22.821497
-22.165438 3.9581139 -25.256996
-21.627598 3.0896549 -27.575678
-21.266394 2.2785413 -29.132858
-21.079353 1.5056678 -29.939207
-24.969284 0.89176023 -13.169349
-24.967968 3.1354275e-06 -13.17502
-24.966654 -0.89166987 -13.180683
-24.965441 -1.7832451 -13.185921
-24.964127 -2.6747277 -13.191578
-24.962811 -3.5661163 -13.197244
-24.961496 -4.457407 -13.202915
-24.960184 -5.3486094 -13.208577
-24.95887 -6.2397146 -13.214245
-24.957558 -7.1307302 -13.219902
-24.956244 -8.0216494 -13.225566
-24.954929 -8.9124746 -13.231227
-24.953716 -9.8032455 -13.236456
-24.952404 -10.693888 -13.242115
-24.95109 -11.584438 -13.247774
-24.949778 -12.47489 -13.253437
-24.948061 -13.365033 -13.260841
-24.946245 -14.254997 -13.268668
-24.944529 -15.144889 -13.276073
-24.942812 -16.034662 -13.28347
-24.941097 -16.92432 -13.290862
-24.939381 -17.813843 -13.298261
-24.937666 -18.703249 -13.305654
-24.935951 -19.592531 -13.313047
-24.935246 -20.482525 -13.316086
-24.971205 -21.403891 -13.161065
-24.897879 -22.230249 -13.477176
-27.598732 14.310456 2.5731518
-26.752481 12.880828 -1.2102406
-25.957829 11.536812 -4.7629395
-25.210306 10.270862 -8.1049376
-24.505238 9.0760145 -11.25713
-23.834332 7.9447784 -14.256611
-23.198092 6.8735075 -17.101072
-22.59494 5.8579483 -19.79763
-22.023823 4.8941822 -22.350954
-21.476833 3.97719 -24.796423
-20.953251 3.1041851 -27.137238
-20.569824 2.2855361 -28.851446
-20.384026 1.5099272 -29.682112
-23.502426 0.87046039 -15.740479
-23.501217 -9.9234819e-07 -15.745874
-23.50001 -0.87036866 -15.751279
-23.498802 -1.7406528 -15.756676
-23.497595 -2.6108437 -15.762071
-23.496387 -3.4809494 -15.767469
-23.495272 -4.3509779 -15.772452
-23.493879 -5.2208643 -15.778681
-23.4923 -6.0906005 -15.785736
-23.490629 -6.9601884 -15.793212
-23.489052 -7.8296862 -15.800264
-23.487473 -8.6990614 -15.807321
-23.486916 -9.5687466 -15.809806
-23.486546 -10.438464 -15.811468
-23.486267 -11.308204 -15.81271
-23.485989 -12.17792 -15.813961
-23.488682 -13.049268 -15.801924
-23.523912 -13.940094 -15.644422
-23.558313 -14.833014 -15.49061
-23.592911 -15.728604 -15.335942
-23.643209 -16.637814 -15.111066
-23.702887 -17.557697 -14.844252
-23.762585 -18.482014 -14.577368
-23.82258 -19.41099 -14.309137
-23.882883 -20.344677 -14.039544
-23.949085 -21.288078 -13.743567
-24.026234 -22.246513 -13.398647
-25.9142 12.957103 -0.50198531
-25.140137 11.603137 -4.0957389
-24.412119 10.328207 -7.4757175
-23.726067 9.125412 -10.660881
-23.072214 7.9865332 -13.696528
-22.453257 6.9086943 -16.570168
-21.86656 5.8871527 -19.294039
-21.310537 4.9178143 -21.875502
-20.781559 3.9964547 -24.331396
-20.272533 3.1188521 -26.694653
-19.868898 2.2925677 -28.568621
-19.689018 1.5145392 -29.403749
-22.104263 0.85016644 -18.190453
-22.10392 2.4701822e-06 -18.192039
-22.103666 -0.85014242 -18.193226
-22.103409 -1.700261 -18.194418
-22.103153 -2.5503643 -18.195599
-22.102896 -3.4004457 -18.196789
-22.102642 -4.2505088 -18.197981
-22.102299 -5.1005282 -18.199566
-22.108788 -5.9523649 -18.169445
-22.141199 -6.812675 -18.018965
-22.173534 -7.6754541 -17.868847
-22.20536 -8.5405264 -17.721077
-22.251629 -9.4141493 -17.506271
-22.30678 -10.295434 -17.250219
-22.362118 -11.181062 -16.993298
-22.417294 -12.070851 -16.737141
-22.472738 -12.965041 -16.479719
-22.531919 -13.865798 -16.204956
-22.602564 -14.778596 -15.876982
-22.67374 -15.697208 -15.546518
-22.74555 -16.621746 -15.213135
-22.817724 -17.552097 -14.878049
-22.890448 -18.488441 -14.540408
-22.968063 -19.434515 -14.180068
-23.058365 -20.397785 -13.760821
-23.149099 -21.368401 -13.339565
-23.244419 -22.350405 -12.897014
-25.066048 13.034346 0.21525967
-24.313095 11.670284 -3.4203062
-23.605074 10.386231 -6.8389416
-22.937885 9.1751537 -10.060411
-22.302134 8.0287666 -13.13009
-21.700758 6.9442391 -16.033789
-21.13088 5.9166479 -18.785397
-20.590324 4.9416785 -21.395433
-20.079079 4.0158143 -23.863955
-19.585354 3.1336579 -26.247868
-19.163647 2.2996347 -28.28405
-18.989687 1.5191762 -29.124001
-20.789743 0.83158827 -20.432564
-20.819546 -2.2815691e-06 -20.288651
-20.849438 -0.83397752 -20.144327
-20.879177 -1.670333 -20.00074
-20.921717 -2.5106049 -19.795334
-20.972422 -3.3555884 -19.550508
-21.023369 -4.2046714 -19.30451
-21.074566 -5.057899 -19.057301
-21.12561 -5.9151711 -18.810846
-21.178366 -6.7770772 -18.556114
-21.243271 -7.6475773 -18.242741
-21.308573 -8.5234289 -17.927425
-21.374277 -9.4046831 -17.610176
-21.440639 -10.291505 -17.289755
-21.50733 -11.183812 -16.967739
-21.574522 -12.081733 -16.643311
-21.658148 -12.994885 -16.239538
-21.742077 -13.914927 -15.834286
-21.825882 -14.841602 -15.429636
-21.910421 -15.775507 -15.021431
-22.006439 -16.724895 -14.557833
-22.135658 -17.708529 -13.933901
-24.207718 13.112514 0.94111139
-23.476324 11.738159 -2.7375307
-22.788809 10.444874 -6.1954694
-22.140694 9.2252884 -9.4552269
-21.523865 8.0714493 -12.557635
-20.940392 6.9801278 -15.492282
-20.387794 5.9464393 -18.271629
-19.863539 4.9658847 -20.908438
-19.367556 4.0349107 -23.403038
-18.891617 3.1486032 -25.79682
-18.454094 2.3067639 -27.997395
-18.286123 1.5238439 -28.842216
-19.837139 0.8265456 -21.04121
-19.884394 -8.7388213e-07 -20.803535
-19.943914 -0.83099812 -20.504173
-20.003866 -1.6669908 -20.202639
-20.064255 -2.5080314 -19.898905
-20.124933 -3.3541558 -19.593708
-20.18606 -4.2054286 -19.286278
-20.247633 -5.0619092 -18.976582
-20.320442 -5.9267936 -18.610392
-20.397869 -6.7992897 -18.220961
-20.475809 -7.6784282 -17.828951
-20.55323 -8.5638466 -17.43956
-20.63188 -9.4562759 -17.04398
-20.742031 -10.371016 -16.489954
-20.862093 -11.300302 -15.886095
-23.339035 13.191629 1.6757177
-22.62986 11.806883 -2.0462406
-21.963654 10.504359 -5.542685
-21.334833 9.2760153 -8.8429174
-20.737278 8.1145897 -11.97906
-20.172205 7.0164199 -14.944731
-19.637186 5.9765339 -17.752661
-19.129742 4.9903646 -20.415878
-18.649237 4.0541825 -22.937716
-18.191233 3.1636915 -25.341448
-17.752945 2.3155999 -27.641714
-17.578224 1.5285395 -28.558691
-19.042048 0.82791352 -20.876123
-19.112989 2.3065038e-06 -20.503799
-19.184389 -0.83410221 -20.129076
-19.256397 -1.6744692 -19.751152
-19.328211 -2.5210724 -19.374254
-19.42095 -3.3775573 -18.887533
-19.522785 -4.2440882 -18.353069
-20.398687 -5.3213964 -13.756081
-20.467951 -6.2293801 -13.392565
-20.537769 -7.1435728 -13.026139
-22.459805 13.271703 2.4192393
-21.773331 11.876361 -1.3473465
-21.128956 10.564479 -4.8829274
-20.52006 9.327302 -8.2238464
-19.942238 8.1581898 -11.394262
-19.395988 7.0530872 -14.391456
-18.878941 6.006937 -17.228416
-18.388672 5.0150919 -19.91844
-17.923954 4.073626 -22.468283
-17.48366 3.1788466 -24.884119
-17.058167 2.3261125 -27.218725
-16.865889 1.5332623 -28.273739
-19.14127 0.87005913 -15.789062
-19.205101 -2.8898563e-07 -15.438824
-19.269283 -0.87587523 -15.086675
-19.333971 -1.7576323 -14.731734
-19.399096 -2.6453311 -14.374407
-19.464582 -3.5390136 -14.015083
-19.530592 -4.4387712 -13.6529
-19.597052 -5.3446522 -13.288252
-19.663885 -6.2566905 -12.921549
-19.731255 -7.1750031 -12.551898
-21.569836 13.352757 3.1718471
-20.906754 11.946718 -0.63962948
-20.284647 10.625291 -4.2155709
-19.69623 9.3791533 -7.597878
-19.138529 8.2022285 -10.803611
-18.611618 7.0901403 -13.832358
-18.112871 6.0376267 -16.699223
-17.640224 5.0400643 -19.416056
-17.191746 4.0932732 -21.993971
-16.767391 3.1937878 -24.433216
-16.359657 2.3370945 -26.776915
-16.14908 1.5380089 -27.987341
-16.070045 0.76524132 -28.441645
-18.410912 -2.2290906e-06 -14.986047
-18.472778 -0.87965763 -14.630429
-18.535063 -1.7652438 -14.272417
-18.597692 -2.6568136 -13.912409
-18.660824 -3.5544465 -13.549523
-18.724384 -4.4581861 -13.184174
-18.788301 -5.3680844 -12.816759
-18.852736 -6.2842445 -12.446388
-18.917612 -7.2067103 -12.073465
-20.668928 13.434805 3.9337041
-20.029848 12.01791 0.076516554
-19.430649 10.686857 -3.5399809
-18.863186 9.4315958 -6.9649181
-18.326174 8.2467747 -10.206076
-17.818962 7.1275868 -13.267368
-17.339003 6.0686498 -16.164175
-16.884287 5.0652857 -18.908632
-16.452686 4.1131697 -21.513571
-16.044415 3.208883 -23.977715
-15.654579 2.3481867 -26.330576
-15.427822 1.5427829 -27.699167
-15.329049 0.76645315 -28.295324
-17.60994 -7.5492358e-07 -14.528928
-17.669371 -0.88346946 -14.17023
-17.729134 -1.7729143 -13.809529
-17.789373 -2.6684053 -13.445952
-17.850025 -3.5700049 -13.07989
-17.911016 -4.4777541 -12.711768
-17.972502 -5.3917499 -12.340671
-18.03441 -6.3120418 -11.967027
-18.096672 -7.2386694 -11.591238
-19.756882 13.517868 4.7049789
-19.142344 12.089904 0.80069435
-18.566614 10.749092 -2.8570292
-18.020775 9.4846172 -6.3248415
-17.504944 8.2918139 -9.6020193
-17.017889 7.1654282 -12.696374
-16.55714 6.1000018 -15.623607
-16.120743 5.0907602 -18.396114
-15.706642 4.1333289 -21.026978
-15.314572 3.2241204 -23.51787
-14.94224 2.3592994 -25.883373
-14.702125 1.5475901 -27.408873
-14.591093 0.76795489 -28.114275
-16.802017 -1.1060112e-06 -14.067847
-16.858969 -0.88731176 -13.70603
-16.916239 -1.7806575 -13.34217
-16.973969 -2.6800988 -12.975406
-17.032026 -3.5856924 -12.606563
-17.090549 -4.4975142 -12.234742
-17.149477 -5.4156203 -11.86037
-17.208742 -6.340064 -11.483843
-17.26849 -7.2709436 -11.104256
-18.833487 13.601966 5.4858499
-18.244308 12.162873 1.5347319
-17.692455 10.812054 -2.1660798
-17.168766 9.5382051 -5.6780219
-16.674696 8.3373499 -8.9913321
-16.208199 7.2036414 -12.119723
-15.767157 6.1316686 -15.077416
-15.349422 5.1164732 -17.878811
-14.953251 4.1536803 -20.535595
-14.577766 3.2395065 -23.053652
-14.221697 2.3702817 -25.441498
-13.971838 1.5524278 -27.11709
-13.863619 0.77020001 -27.842829
-15.987054 -2.6054745e-06 -13.602751
-16.041416 -0.89118892 -13.238201
-16.096212 -1.7884647 -12.87072
-16.15132 -2.691889 -12.501158
-16.206873 -3.6015251 -12.128619
-16.262808 -4.5174427 -11.753505
-16.319065 -5.4396887 -11.37624
-16.375778 -6.3683581 -10.995909
-16.43289 -7.3035035 -10.612921
-17.898531 13.687111 6.2765026
-17.335527 12.236844 2.2788222
-16.807995 10.875762 -1.4669895
-16.307144 9.5924416 -5.0233545
-15.835278 8.3833828 -8.3738985
-15.389888 7.2423005 -11.536448
-14.968926 6.1636791 -14.525532
-14.570326 5.142468 -17.355848
-14.192402 4.1742373 -20.039347
-13.833843 3.2550199 -22.585339
-13.494367 2.3813586 -24.995836
-13.238661 1.5574863 -26.811508
-13.116222 0.77154046 -27.680895
-15.164898 3.1347367e-06 -13.134021
-15.216751 -0.89510334 -12.765821
-15.26896 -1.7963508 -12.395103
-15.321466 -2.7037864 -12.02228
-15.374399 -3.6175032 -11.646426
-15.427633 -4.53754 -11.268418
-15.481304 -5.4639878 -10.887336
-15.535348 -6.3969083 -10.503594
-15.589705 -7.3363338 -10.117614
-16.415548 12.311662 3.0314381
-15.912621 10.939928 -0.76286656
-15.435668 9.6472912 -4.3611927
-14.98654 8.4299297 -7.7496099
-14.562747 7.2813706 -10.94687
-14.162265 6.1959896 -13.968278
-13.783274 5.1687284 -16.827551
-13.423986 4.1949983 -19.538166
-13.082954 3.2707353 -22.11105
-12.760253 2.3925493 -24.545645
-12.503924 1.5629911 -26.479494
-12.388749 0.77429563 -27.348429
-14.335579 4.3955441e-07 -12.660733
-14.384812 -0.89904839 -12.289289
-14.434327 -1.8042909 -11.915733
-14.484243 -2.7157931 -11.539143
-14.534505 -3.6336269 -11.15994
-14.585058 -4.5578299 -10.778557
-14.636024 -5.4885082 -10.394052
-14.687285 -6.4256887 -10.007304
-14.73897 -7.3694849 -9.6173763
-15.484252 12.387403 3.7933156
-15.006482 11.004752 -0.051476691
-14.554168 9.7027817 -3.6914213
-14.128263 8.4769554 -7.1188321
-13.726633 7.320869 -10.3509
-13.347153 6.2286725 -13.404722
-12.988141 5.1952534 -16.293827
-12.647888 4.2159638 -19.031973
-12.325007 3.2866666 -21.630312
-12.019209 2.4038441 -24.091202
-11.764021 1.5685391 -26.144785
-11.65602 0.77707034 -27.013908
-13.498938 -1.7563852e-06 -12.183262
-13.545447 -0.90302986 -11.80897
-13.592336 -1.8123138 -11.431642
-13.639549 -2.7279081 -11.051698
-13.687037 -3.6498778 -10.669558
-13.734912 -4.5783062 -10.284283
-13.783066 -5.5132284 -9.8967724
-13.831616 -6.4547544 -9.5060635
-13.88051 -7.4029393 -9.1125994
-14.541493 12.464141 4.5652199
-14.089603 11.070404 0.66893679
-13.662469 9.7589035 -3.0138896
-13.260413 8.5245504 -6.4804897
-12.881399 7.3608031 -9.7484341
-12.523396 6.2616992 -12.835195
-12.184805 5.2220635 -15.754601
-11.863994 4.2371416 -18.520693
-11.559643 3.3027546 -21.144871
-11.271134 2.4152458 -23.632442
-11.018809 1.5741156 -25.808027
-10.918068 0.77986294 -26.676653
-12.654824 -2.8170577e-06 -11.702004
-12.698672 -0.90704662 -11.323936
-12.742826 -1.8204029 -10.943241
-12.787234 -2.7401214 -10.560342
-12.832006 -3.6662879 -10.174301
-12.877093 -4.598959 -9.7855558
-12.922444 -5.5381918 -9.3945274
-12.96817 -6.484087 -9.0002699
-13.014167 -7.4366693 -8.6036854
-13.586918 12.541773 5.3461461
-13.16172 11.136844 1.3980064
-12.760337 9.8156471 -2.3290148
-12.382765 8.5726862 -5.8349419
-12.026843 7.4011326 -9.1398201
-11.690859 6.2950807 -12.259587
-11.373092 5.2491179 -15.210196
-11.072184 4.2585301 -18.00425
-10.786748 3.3190014 -20.65465
-10.51593 2.4267521 -23.16931
-10.268314 1.5797417 -25.468533
-10.174788 0.78267282 -26.336956
-11.803246 -1.6460683e-06 -11.216018
-11.844327 -0.91110283 -10.834562
-11.885646 -1.8285623 -10.450911
-11.927303 -2.7524526 -10.064107
-11.969253 -3.6828468 -9.6745758
-12.011448 -4.6197872 -9.2827749
-12.053994 -5.5633845 -8.8877182
-12.096841 -6.5136871 -8.4898586
-12.139944 -7.4707355 -8.0896406
-12.620377 12.620375 6.1368608
-12.222633 11.20408 2.1358812
-11.847708 9.8730869 -1.6355858
-11.495149 8.6213608 -5.1820574
-11.162917 7.4419475 -8.5240355
-10.849397 6.3288174 -11.677812
-10.552964 5.2764835 -14.659695
-10.272339 4.280139 -17.482567
-10.006214 3.3354034 -20.15958
-9.7535295 2.4383833 -22.701387
-9.5124025 1.585403 -25.126942
-9.4261265 0.78551179 -25.99481
-10.944049 1.98165e-06 -10.725679
-10.982265 -0.91519111 -10.341259
-11.020795 -1.8367981 -9.9536877
-11.059595 -2.7648962 -9.5633812
-11.098624 -3.699543 -9.170785
-11.137975 -4.6408243 -8.7749405
-11.177607 -5.5888042 -8.376277
-11.217474 -6.5435262 -7.9752436
-11.257673 -7.5051174 -7.5708637
-11.641643 12.699976 6.9375505
-11.272138 11.272141 2.8827112
-10.924333 9.9312115 -0.93399751
-10.597393 8.6705923 -4.5217152
-10.289412 7.4832101 -7.9014153
-9.998867 6.3629169 -11.089763
-9.7242413 5.3041306 -14.103425
-9.4643345 4.3019667 -16.955564
-9.2179251 3.351969 -19.659594
-8.9840202 2.4501867 -22.226397
-8.7624531 1.5931728 -24.657806
-8.6720219 0.78836411 -25.650171
-10.07713 1.9657621e-06 -10.230936
-10.112477 -0.91931474 -9.843049
-10.148116 -1.8451091 -9.4519615
-10.183963 -2.7774441 -9.0585794
-10.220108 -3.716403 -8.6619329
-10.256511 -4.6620522 -8.2624626
-10.29313 -5.6144304 -7.8606238
-10.330054 -6.5736713 -7.4554129
-10.367247 -7.5398135 -7.0472865
-10.650536 12.780645 7.7490215
-10.309976 11.340972 3.6380982
-9.9900208 9.9900198 -0.22409572
-9.6892843 8.720356 -3.854306
-9.4061661 7.5249319 -7.271852
-9.1390848 6.3973608 -10.495807
-8.8867884 5.3320756 -13.541299
-8.6480131 4.324007 -16.423573
-8.4217653 3.3687074 -19.154617
-8.2069931 2.4620974 -21.747147
-8.0034256 1.6006827 -24.204414
-7.912415 0.79124224 -25.303017
-9.2023449 8.5204306e-07 -9.7321873
-9.2348089 -0.92348182 -9.3403149
-9.2674627 -1.8534929 -8.9461403
-9.3003883 -2.7901149 -8.5487041
-9.3335485 -3.7334161 -8.1484261
-9.3669062 -4.6834526 -7.7457619
-9.4005432 -5.6403251 -7.3397307
-9.4344225 -6.6040926 -6.9307694
-9.4685059 -7.5748019 -6.5193391
-9.6467113 12.862283 8.5702477
-9.3360348 11.410712 4.4033475
-9.0445786 10.049532 0.49425516
-8.77073 8.770731 -3.1786728
-8.5130148 7.5671239 -6.6352277
-8.2699776 6.4322062 -9.8949213
-8.0404644 5.3603063 -12.973216
-7.8233156 4.3462858 -15.88568
-7.6176171 3.3856094 -18.644579
-7.4224019 2.4741344 -21.262856
-7.2372074 1.6082696 -23.746738
-7.1472206 0.79413658 -24.953667
-8.3196678 -6.9337534e-07 -9.2284441
-8.3491516 -0.92768383 -8.8330088
-8.378809 -1.8619576 -8.4352417
-8.4087133 -2.8029025 -8.0341511
-8.438796 -3.7505748 -7.6306691
-8.4691315 -4.7050729 -7.2238035
-8.4996853 -5.6664562 -6.8140125
-8.5304241 -6.6347742 -6.4017367
-8.5614223 -7.6101565 -5.9859691
-8.6298952 12.944843 9.4007463
-8.3500404 11.481307 5.1780705
-8.0878048 10.109755 1.2212251
-7.8415022 8.8216906 -2.4951866
-7.6097913 7.6097918 -5.9914279
-7.3913503 6.467433 -9.2874527
-7.1851296 5.3888483 -12.39909
-6.9900756 4.3687968 -15.34222
-6.8053327 3.4026661 -18.129782
-6.6301026 2.4862888 -20.773798
-6.4636707 1.6159186 -23.285061
-6.376431 0.7970553 -24.601406
-7.4289498 6.3268186e-07 -8.7201262
-7.4553652 -0.93191677 -8.3215475
-7.4820008 -1.8705022 -7.9196415
-7.5088277 -2.8158123 -7.5148554
-7.5358148 -3.7679074 -7.1076484
-7.5630298 -4.7268953 -6.6970091
-7.5904088 -5.6928062 -6.2838893
-7.6180205 -6.6657677 -5.8672695
-7.6458335 -7.6458349 -5.4476042
-7.5997162 13.028087 10.238104
-7.3517714 11.552786 5.9624414
-7.1194606 10.17066 1.9563857
-6.9014134 8.8732443 -1.8037083
-6.6962962 7.6529107 -5.3408332
-6.5030465 6.5030489 -8.6732941
-6.3206124 5.4176683 -11.819254
-6.1481595 4.3915424 -14.793097
-5.9848442 3.4199083 -17.609375
-5.8299804 2.4985621 -20.279903
-5.6829286 1.6236949 -22.815722
-5.5999556 0.79999399 -24.246546
-5.5743113 -5.9566673e-08 -24.688761
-6.5534043 -0.93620217 -7.8049021
-6.5769253 -1.8791231 -7.3992939
-6.6005883 -2.8288224 -6.9912496
-6.6244497 -3.7854023 -6.5797663
-6.6484561 -4.7488966 -6.1657968
-6.6726656 -5.7194266 -5.7483172
-6.6970525 -6.6970487 -5.3277855
-6.5562353 13.112473 11.086956
-6.3409944 11.625155 6.7566414
-6.1394081 10.232346 2.701041
-5.9502716 8.9254084 -1.1041049
-5.7724147 7.6965528 -4.682303
-5.6049051 6.5390558 -8.0523348
-5.4468212 5.4468226 -11.232739
-5.297431 4.4145255 -14.238234
-5.1559968 3.43733 -17.083666
-5.0219188 2.5109577 -19.781116
-4.8946366 1.6315448 -22.341833
-4.8177309 0.80295587 -23.889065
-4.7912045 2.1539506e-06 -24.422731
-5.6431208 -0.94051832 -7.2834926
-5.6634445 -1.8878124 -6.8746161
-5.6839395 -2.8419676 -6.4622889
-5.7045827 -3.8030572 -6.0469661
-5.7253523 -4.7711272 -5.6291213
-5.7462988 -5.7463021 -5.2077093
-5.7673736 -6.7286029 -4.78372
-5.4992037 13.198091 11.948201
-5.3174734 11.698441 7.5608521
-5.1473947 10.294788 3.454777
-4.9878812 8.9781876 -0.39621997
-4.8379354 7.7406931 -4.0162277
-4.6967616 6.5754652 -7.4244561
-4.5635748 5.4762907 -10.639873
-4.4377332 4.4377332 -13.677959
-4.3186626 3.4549274 -16.552576
-4.2057986 2.5234787 -19.277361
-4.0986834 1.6394717 -21.863344
-4.0296931 0.80594015 -23.528915
-4.0036926 3.489673e-06 -24.156633
-4.7243781 -0.94487399 -6.7577453
-4.7414923 -1.8965958 -6.3445687
-4.7587309 -2.8552403 -5.92839
-4.7760749 -3.8208582 -5.5096731
-4.7935662 -4.7935638 -5.0873895
-4.8111863 -5.7734251 -4.662004
-4.8289156 -6.7604852 -4.2339859
-4.4282103 13.284634 12.818742
-4.2809868 11.772717 8.3758869
-4.143199 10.357995 4.2177753
-4.0140224 9.0315504 0.319529
-3.8926747 7.7853527 -3.3424726
-3.7784321 6.6122551 -6.7900376
-3.6707194 5.5060806 -10.040559
-3.5689631 4.4612064 -13.111327
-3.4727101 3.4727104 -16.016022
-3.3814993 2.5361276 -18.768551
-3.2949574 1.6474769 -21.38018
-3.2363605 0.80908805 -23.148499
-3.2134264 7.7305987e-07 -23.840609
-3.7971027 -0.94927543 -6.2265987
-3.8109221 -1.9054617 -5.809567
-3.8248262 -2.8686182 -5.3899837
-3.8388486 -3.8388515 -4.9668159
-3.8529737 -4.816216 -4.5405416
-3.8671868 -5.8007784 -4.1116352
-3.8815222 -6.7926612 -3.6790283
-3.343045 13.372178 13.699424
-3.2312708 11.847993 9.2019825
-3.126611 10.422037 4.9907904
-3.028532 9.0855999 1.0443925
-2.9364452 7.8305192 -2.6608901
-2.849781 6.6494889 -6.1479864
-2.7680972 5.5361948 -9.4346943
-2.6909544 4.4849253 -12.538673
-2.6180055 3.4906752 -15.473915
-2.5488973 2.5489006 -18.254616
-2.4833438 1.6555641 -20.892282
-2.4371946 0.81239796 -22.74918
-2.4207137 -2.6881419e-06 -23.412313
-2.8611507 -0.95371741 -5.6904945
-2.8716006 -1.9144007 -5.2700377
-2.882139 -2.8821394 -4.845994
-2.8927555 -3.8570061 -4.4188309
-2.9034374 -4.8390603 -3.989018
-2.9142115 -5.8284264 -3.5554996
-2.9250658 -6.8251505 -3.1187594
-2.2434704 13.460822 14.591097
-2.1680546 11.924304 10.039351
-2.0973744 10.486874 5.7734199
-2.0311854 9.1403332 1.7785578
-1.9690459 7.8761826 -1.9718869
-1.9106123 6.68714 -5.4986634
-1.8555391 5.5666151 -8.8226261
-1.8035592 4.5088973 -11.959891
-1.7544053 3.50881 -14.926588
-1.7078662 2.5617976 -17.735476
-1.6637261 1.6637255 -20.399565
-1.631467 0.81573719 -22.346579
-1.6209742 -1.8704739e-06 -22.97987
-1.9163917 -0.95819509 -5.1498504
-1.9234321 -1.9234324 -4.724916
-1.9305245 -2.8957899 -4.2968569
-1.9376608 -3.8753226 -3.8661401
-1.9448586 -4.8621459 -3.4317164
-1.9521102 -5.8563294 -2.9940495
-1.9594072 -6.8579254 -2.553628
-1.1292264 13.550719 15.495375
-1.0910488 12.00154 10.886926
-1.0552621 10.552623 6.56708
-1.0217483 9.1957359 2.5216162
-0.99030668 7.9224577 -1.2737266
-0.96074653 6.7252264 -4.8419461
-0.93290001 5.5974011 -8.2033291
-0.90662593 4.5331306 -11.374887
-0.88178778 3.527154 -14.373126
-0.85827756 2.5748327 -17.211056
-0.83598524 1.6719676 -19.90197
-0.81917548 0.819175 -21.931089
-0.81145495 -1.8900556e-06 -22.863031
-0.96272117 -0.96272188 -4.6035872
-0.96627474 -1.9325527 -4.1746325
-0.96985042 -2.9095507 -3.7430153
-0.97345698 -3.8938248 -3.3076708
-0.97709036 -4.8854513 -2.8690677
-0.98074675 -5.8844814 -2.4277151
-0.98443484 -6.8910446 -1.9825164
-1.9100315e-23 12.079843 11.746213
-1.9934566e-24 10.619145 7.3701301
-5.555758e-24 9.2518539 3.274318
6.6816574e-24 7.9693079 -0.56676364
2.7384281e-24 6.7637753 -4.1771955
-4.189278e-23 5.6285276 -7.5771394
1.0796467e-23 4.557621 -10.783566
-2.93132e-23 3.5456858 -13.813844
-1.619122e-23 2.5879989 -16.681271
1.7807052e-24 1.6802981 -19.399416
2.4663768e-24 0.82265121 -21.511713
-8.9789221e-24 -9.3641222e-07 -22.440619
-5.8759622e-24 -0.96728653 -4.0521536
4.6934068e-24 -1.9417557 -3.6191063
-2.1821548e-23 -2.9234586 -3.1833601
-2.7884343e-23 -3.9125102 -2.7438316
-3.789554e-23 -4.9089589 -2.3015385
-1.4327178e-23 -5.9129291 -1.855381
4.2910602e-24 -6.9244866 -1.4058548
1.1053795 12.159175 12.616781
1.068657 10.686571 8.1839933
1.034296 9.3086653 4.0362606
1.0020851 8.0166788 0.14805672
0.97182405 6.8027692 -3.5047781
0.94333714 5.6600208 -6.9434533
0.91647261 4.582366 -10.186281
0.89110315 3.5644138 -13.248648
0.86709702 2.6012878 -16.146452
0.84435356 1.6887048 -18.891829
0.82615042 0.82614887 -21.089136
0.81848109 8.1244752e-07 -22.01491
0.97190559 -0.97190636 -3.4949377
0.97551876 -1.9510394 -3.0587797
0.9791677 -2.9375045 -2.6183186
0.98283958 -3.9313583 -2.1750877
0.98654354 -4.932714 -1.72798
0.99027556 -5.9416533 -1.2774909
0.99403137 -6.958221 -0.82411337
2.2253287 12.239305 13.496156
2.1509709 10.754855 9.0082655
2.0813823 9.3662224 4.8082204
2.0161552 8.06462 0.87141991
1.9549184 6.8422122 -2.8245578
1.8972915 5.6918764 -6.3026395
1.842965 4.6074142 -9.5815401
1.7916702 3.5833423 -12.677455
1.7431535 2.6147287 -15.605699
1.6972015 1.6972013 -18.379139
1.6593622 0.82968205 -20.662954
1.6440829 3.7156792e-07 -21.585129
1.9531233 -0.97656304 -2.9328947
1.9604192 -1.9604186 -2.4925523
1.9677875 -2.9516811 -2.0478306
1.9752024 -3.9504082 -1.6002973
1.9826825 -4.9567046 -1.1488404
1.9902104 -5.9706297 -0.69449562
1.9978046 -6.9923143 -0.23613398
3.3600864 12.320315 14.385129
3.2471893 10.823963 9.8424921
3.1414974 9.4244957 5.5897789
3.0424552 8.1132126 1.6046205
2.9494929 6.8821526 -2.135884
2.8620436 5.7240868 -5.6545701
2.7796421 4.6327372 -8.9701576
2.7018526 3.6024709 -12.100157
2.628309 2.6283064 -15.059322
2.5586629 1.7057754 -17.86166
2.4997263 0.83324403 -20.233103
2.4768898 4.5692736e-06 -21.151972
2.9438007 -0.98126686 -2.3649206
2.9548373 -1.9698894 -1.9208428
2.9659836 -2.9659858 -1.4723495
2.9772279 -3.9696352 -1.0199226
2.9885576 -4.9809303 -0.56404138
2.9999604 -5.9999208 -0.10523532
3.0114639 -7.0267477 0.35763946
4.5099893 12.402467 15.286641
4.3576088 10.894019 10.688159
4.2148662 9.4834499 6.3805156
4.0811973 8.1623945 2.3467088
3.9557285 6.9225259 -1.4396502
3.8377943 5.7566891 -4.9986224
3.7266886 4.6583605 -8.351532
3.6218352 3.6218383 -11.515775
3.5227065 2.6420324 -14.50725
3.4288862 1.7144418 -17.338531
3.3473349 0.83683181 -19.799549
3.3170116 -7.5596699e-07 -20.714634
3.9440711 -0.98601705 -1.7914481
3.9589119 -1.9794534 -1.3435861
3.9739184 -2.9804375 -0.8907218
3.9890573 -3.9890566 -0.43386361
4.0042939 -5.0053649 0.025945017
4.0196657 -6.0294981 0.48983011
4.0351377 -7.0614872 0.95672917
5.6753001 12.485663 16.199553
5.4824963 10.964989 11.544847
5.301774 9.5431929 7.181829
5.132586 8.2121382 3.0972691
4.9738626 6.963407 -0.73465663
4.8247032 5.7896476 -4.3356733
4.6842504 4.6842508 -7.7265134
4.551743 3.6413927 -10.925516
4.4265265 2.6559167 -13.948521
4.3080149 1.7232084 -16.809645
4.2023625 0.8404727 -19.360315
4.1645393 1.4223451e-07 -20.273443
4.954052 -0.99081105 -1.2129303
4.9728065 -1.9891205 -0.7601555
4.9917259 -2.9950352 -0.30339044
5.0108132 -4.0086522 0.15741536
5.0300698 -5.0300698 0.62231266
5.0494747 -6.05937 1.0907959
5.0690069 -7.096611 1.5623406
6.8565993 12.570431 17.129807
6.6221356 11.036897 12.412768
6.4024634 9.6036949 7.9933004
6.196897 8.2625313 3.8576202
6.0041203 7.004806 -0.020741362
5.8229761 5.8229728 -3.6650834
5.6525145 4.7104316 -7.094512
5.4917493 3.6611669 -10.328862
5.3398752 2.669935 -13.384315
5.1961761 1.7320571 -16.275328
5.065208 0.84419912 -18.910194
5.0195522 -2.3387747e-07 -19.828722
5.9739256 -0.99565488 -0.62821704
5.9966245 -1.9988776 -0.17154197
6.0195251 -3.0097601 0.28916711
6.0426831 -4.0284548 0.75508147
6.06602 -5.0550194 1.2245893
6.0895104 -6.0895143 1.6971763
6.1132116 -7.1320763 2.1739998
8.0547638 12.657491 18.085117
7.7767806 11.109684 13.291466
7.5171614 9.6649237 8.8144884
7.2743506 8.3135433 4.6273656
7.0467024 7.0467024 0.70171666
6.8328705 5.8567462 -2.9856923
6.6316905 4.7369232 -6.4549055
6.4420452 3.6811714 -9.7252178
6.2629199 2.684109 -12.814131
6.0935106 1.7410017 -15.735489
5.9368873 0.84812325 -18.436356
5.8821845 -2.9439377e-07 -19.379675
7.0038199 -1.000546 -0.037761446
7.0305643 -2.008733 0.42342603
7.0575132 -3.0246484 0.88813901
7.0847998 -4.0484529 1.3586758
7.1122656 -5.0801878 1.832302
7.1399779 -6.1199846 2.3101916
7.1679068 -7.1679101 2.7918139
9.2695913 12.745691 19.053022
8.9466209 11.18328 14.179777
8.6462059 9.7269831 9.6468554
8.3651514 8.3651505 5.4060702
8.1018305 7.0890999 1.4328638
7.8545465 5.8909116 -2.2983677
7.6219106 4.7636933 -5.8085666
7.4027524 3.7013755 -9.1154127
7.1958447 2.6984434 -12.237409
7.0001888 1.7500477 -15.189628
6.8189802 0.85237235 -17.923849
6.7524977 -5.1218439e-07 -18.926998
8.0438843 -1.0054839 0.55852544
8.0747519 -2.0186868 1.0242822
8.1058578 -3.039696 1.4936274
8.1372786 -4.0686383 1.9677367
8.1690197 -5.105639 2.4466772
8.2010098 -6.1507568 2.929369
8.2332134 -7.2040629 3.4152796
10.498909 12.831999 20.000175
10.131961 11.257734 15.078551
9.7898445 9.7898455 10.489985
9.4696245 8.4174452 6.1951108
9.1696901 7.1319838 2.1722922
8.8881721 5.9254484 -1.6035106
8.6234627 4.790813 -5.1538763
8.3740644 3.7218077 -8.4988842
8.1387529 2.7129188 -11.654951
7.9163041 1.7591772 -14.638487
7.70998 0.85666585 -17.405775
7.6306424 -9.0255855e-07 -18.469868
9.0942278 -1.0104728 1.1601747
9.1293001 -2.0287316 1.6305649
9.1646852 -3.0548952 2.1051705
9.200346 -4.0890436 2.5834656
9.2364159 -5.1313419 3.0672338
9.2727251 -6.1818166 3.5542288
9.3093643 -7.2406139 4.0456471
11.744802 12.919283 20.957979
11.333131 11.33313 15.988662
10.94836 9.8535233 11.344087
10.587994 8.4703922 6.9940772
10.250595 7.175416 2.9213045
9.9340343 5.9604187 -0.89991701
9.6364403 4.8182216 -4.4921927
9.3561974 3.7424824 -7.8750257
9.0918312 2.7275515 -11.066203
8.8420296 1.7684044 -14.08157
8.6099977 0.86099887 -16.88245
8.5167027 -3.2566247e-06 -18.008623
10.155084 -1.0155059 1.7683784
10.194442 -2.038887 2.2434831
10.234107 -3.0702326 2.7222891
10.274131 -4.109653 3.2054057
10.314564 -5.1572838 3.6934924
10.355367 -6.2132173 4.1860147
10.396493 -7.2775412 4.6824527
13.007828 13.007834 21.929661
12.550887 11.409896 16.915335
12.121986 9.9179926 12.208698
11.720467 8.5239754 7.8025379
11.344746 7.2193813 3.679492
10.992315 5.99581 -0.18797202
10.661121 4.8459616 -3.8223796
10.349303 3.7633803 -7.2441916
10.055289 2.7423513 -10.470614
9.7775583 1.7777367 -13.51834
9.519208 0.86537975 -16.353401
9.4107485 -1.7996388e-06 -17.543602
11.22657 -1.0205965 2.3826733
11.270301 -2.0491445 2.8625646
11.314374 -3.0857382 3.3462074
11.358793 -4.1304698 3.8336439
11.403723 -5.1835132 4.3266983
11.449064 -6.244945 4.8242579
11.494713 -7.3148165 5.325191
13.622082 -13.622082 28.670301
13.595241 -14.831172 28.375744
13.584563 -16.054482 28.258579
14.28852 13.097811 22.917086
13.786478 11.488736 17.866941
13.311136 9.9833527 13.085382
12.867418 8.5782776 8.6219196
12.452329 7.2638593 4.4464316
12.063237 6.0316215 0.53247905
11.697673 4.8740325 -3.144815
11.353613 3.7845414 -6.6057925
11.029214 2.7573068 -9.8689919
10.722969 1.7871597 -12.949581
10.437847 0.86982137 -15.817688
10.316665 1.9579829e-06 -17.03668
12.308793 -1.0257318 3.0025895
12.35704 -2.0595045 3.4879086
12.405608 -3.1013997 3.9764662
12.454559 -4.1515188 4.4688749
12.504016 -5.2100081 4.9663773
12.553927 -6.2769637 5.4684477
12.604299 -7.3525062 5.9751444
14.650963 -9.7673092 26.562992
14.650719 -10.988037 26.560535
14.650476 -12.20873 26.558086
14.650231 -13.429377 26.555634
14.649988 -14.649984 26.553181
14.649744 -15.870555 26.550732
15.589345 13.190986 23.939562
15.039341 11.568721 18.832533
14.516065 10.049585 13.973691
14.029079 8.6332779 9.4518118
13.573708 7.3089209 5.2234879
13.146968 6.0678349 1.2610251
12.746243 4.9024014 -2.4598746
12.369278 3.805933 -5.9601698
12.01392 2.7724435 -9.2598314
11.678456 1.7966849 -12.374756
11.366 0.87430882 -15.276044
11.238356 2.4087313e-07 -16.461285
13.402026 -1.0309249 3.6293516
13.454762 -2.0699611 4.1190205
13.507914 -3.1172101 4.6125598
13.561551 -4.1727853 5.1106091
13.615617 -5.2367783 5.6126347
13.670245 -6.3093429 6.1198835
13.72538 -7.3905907 6.631834
15.680392 -9.6494741 24.784985
15.679448 -10.855005 24.776213
15.678503 -12.060384 24.767435
15.678417 -13.266355 24.766638
15.678246 -14.472227 24.765045
15.678074 -15.678075 24.763449
15.677902 -16.883898 24.761856
16.908812 13.285499 24.976683
16.309772 11.649837 19.811649
15.736767 10.116493 14.871098
15.205732 8.6889915 10.29241
14.709086 7.3545461 6.0102377
14.243857 6.1045089 1.9989461
13.807156 4.9311266 -1.7663889
13.396434 3.8275509 -5.3077035
13.009442 2.7877364 -8.6444149
12.644233 1.8063214 -11.793324
12.303732 0.87883496 -14.729191
12.170323 1.4522301e-06 -15.87947
14.506383 -1.0361679 4.2624979
14.563755 -2.080539 4.7571716
14.621584 -3.1331961 5.2557702
14.679872 -4.1942458 5.7583499
14.738628 -5.2637939 6.264955
14.798141 -6.3420558 6.7780728
14.858135 -7.4290667 7.295362
16.68248 -9.5328474 23.025229
16.682301 -10.724336 23.02367
16.682119 -11.915802 23.022114
16.681938 -13.107236 23.020557
16.681759 -14.298652 23.019001
16.681578 -15.490034 23.017443
16.681396 -16.681395 23.015886
16.681217 -17.872736 23.014332
18.247421 13.381446 26.029585
17.598143 11.732099 20.804607
16.973568 10.184143 15.778419
16.397587 8.7453804 11.143282
15.858652 7.4007039 6.806262
15.354088 6.141633 2.7458358
14.880572 4.9601912 -1.0647249
14.435389 3.8494391 -4.6472783
14.016069 2.8032155 -8.0217037
13.620422 1.8160541 -11.205618
13.25123 0.88341725 -14.176655
13.112741 -3.3184317e-06 -15.291121
15.622035 -1.0414685 4.9021125
15.684137 -2.0912201 5.4018736
15.746734 -3.1493478 5.9056153
15.809834 -4.2159586 6.413404
15.873441 -5.2911448 6.925271
15.937792 -6.3751163 7.4431281
16.002668 -7.4679141 7.96521
17.662241 -9.4198618 21.320427
17.662052 -10.597232 21.318905
17.661863 -11.774576 21.317385
17.661674 -12.951896 21.315861
17.661486 -14.129189 21.314341
17.661392 -15.30654 21.313587
17.661201 -16.483788 21.312063
17.661013 -17.661013 21.310541
19.605396 13.478708 27.096985
18.902506 11.814074 21.794079
18.227402 10.252916 16.700808
17.605103 8.8025532 12.005926
17.022823 7.4474854 7.6129608
16.477825 6.1791859 3.501281
15.966718 4.9895992 -0.35473546
15.486294 3.8715706 -3.9792557
15.033936 2.8188591 -7.3920298
14.607255 1.825905 -10.61109
14.212779 0.88830131 -13.587183
14.065786 2.1324233e-06 -14.696153
16.749077 -1.0468159 5.5477023
16.816002 -2.1020012 6.0526185
16.883545 -3.1656659 6.5621948
16.951551 -4.2378864 7.0752616
17.020109 -5.3187823 7.5924792
17.089304 -6.4084907 8.1145277
17.159317 -7.5072031 8.6427317
18.619049 -9.3095226 19.655554
18.618853 -10.473106 19.654074
18.618753 -11.636718 19.65333
18.618557 -12.800258 19.651842
18.618361 -13.963768 19.65036
18.618162 -15.127253 19.648872
18.617966 -16.290716 19.647388
18.617769 -17.454159 19.645905
18.617573 -18.617571 19.644417
20.222382 11.895525 22.7773
19.500315 10.323694 17.650173
18.828508 8.8604784 12.879923
18.201805 7.4948587 8.4299259
17.615475 6.2172284 4.2666183
17.065741 5.0193377 0.36316067
16.54928 3.8939514 -3.3040311
16.063231 2.8346887 -6.7552943
15.604851 1.835867 -10.010079
15.188284 0.89342433 -12.967962
15.029641 1.0864035e-06 -14.094429
17.887838 -1.0522221 6.2005706
17.959684 -2.1129036 6.7107248
18.03211 -3.182138 7.2249942
18.105122 -4.2600269 7.7434258
18.178728 -5.3466816 8.2660732
18.253025 -6.442245 8.7936268
18.328201 -7.5469041 9.3274126
19.553802 -9.2017908 18.029972
19.553598 -10.351902 18.028513
19.553394 -11.501995 18.027069
19.55319 -12.652064 18.025614
19.552986 -13.802106 18.024168
19.55278 -14.952125 18.022711
19.552576 -16.102123 18.021267
19.552372 -17.252092 18.01981
19.552271 -18.40214 18.019091
19.552067 -19.552065 18.017637
21.5634 11.979671 23.793051
20.790928 10.395467 18.61273
20.068022 8.9191198 13.764818
19.395882 7.5428452 9.2573471
18.767216 6.2557392 5.0414352
18.178026 5.0494518 1.090235
17.624704 3.9166026 -2.6204264
17.104073 2.850677 -6.1118565
16.613317 1.8459244 -9.4029369
16.175186 0.89862317 -12.341116
16.004488 -5.6774348e-07 -13.485846
19.038429 -1.0576882 6.8602161
19.115294 -2.1239204 7.3756971
19.192785 -3.1987948 7.8953481
19.270905 -4.2824202 8.4192352
19.349665 -5.374907 8.9474144
19.42907 -6.4763551 9.4799099
19.509417 -7.5869975 10.018744
20.467592 -9.0967064 16.444403
20.467382 -10.233689 16.442991
20.467064 -11.370591 16.440865
20.466854 -12.507518 16.439444
20.466536 -13.644356 16.437321
20.466326 -14.781237 16.435904
20.466112 -15.918087 16.434484
20.465797 -17.054827 16.432358
20.465584 -18.191631 16.430944
20.465374 -19.328411 16.429525
20.465055 -20.465057 16.427399
22.099491 10.468181 19.58802
21.32416 8.9785957 14.662193
20.605244 7.5914063 10.09479
19.933222 6.2947054 5.8253012
19.30374 5.0799327 1.8260819
18.712715 3.9395204 -1.9288213
18.156803 2.8668656 -5.4606256
17.633715 1.8561825 -8.7839184
17.173628 0.90387642 -11.706932
16.990517 2.1404173e-07 -12.87028
20.200933 -1.0632069 7.5261335
20.28302 -2.135052 8.0476351
20.365677 -3.2156305 8.5727615
20.449007 -4.3050508 9.102191
20.533026 -5.4034271 9.6359749
20.617737 -6.5108652 10.174159
20.703352 -7.6275516 10.718102
21.361729 -8.9944115 14.900888
21.361513 -10.11861 14.899508
21.361292 -11.242787 14.898117
21.360968 -12.366878 14.896039
21.360748 -13.490996 14.894653
21.360531 -14.615098 14.893266
21.360203 -15.739099 14.891186
21.358894 -16.862284 14.882874
21.356604 -17.984507 14.86832
21.354313 -19.106493 14.853779
21.352026 -20.228233 14.839232
21.349628 -21.349628 14.824003
23.426615 10.541978 20.57781
22.596697 9.0386782 15.568822
21.830389 7.640636 10.943735
21.113943 6.3341842 6.6196065
20.443031 5.1107574 2.5702879
19.81353 3.962709 -1.2290797
19.221558 2.8832307 -4.8019495
18.665672 1.8665651 -8.1570187
18.183813 0.90919173 -11.065296
17.987921 7.013569e-07 -12.247611
21.375736 -1.0687835 8.1996508
21.462946 -2.1462953 8.7260294
21.550873 -3.2326317 9.2567101
21.639631 -4.3279238 9.7924004
21.729013 -5.4322529 10.331882
21.819139 -6.5457392 10.875829
21.910122 -7.6685414 11.424972
22.236094 -8.8944368 13.392376
22.235756 -10.006092 13.390346
22.235533 -11.117766 13.388991
22.234297 -12.228865 13.381534
22.231939 -13.339162 13.367302
22.229582 -14.449227 13.353082
22.227226 -15.559059 13.33886
22.224871 -16.668648 13.324632
22.222515 -17.778011 13.310424
22.22027 -18.88723 13.296881
22.22386 -20.001476 13.318544
22.248789 -21.136353 13.46901
22.246092 -22.246092 13.452726
24.772585 10.616823 21.581656
23.886385 9.099575 16.487665
23.071527 7.6905103 11.803766
22.30957 6.3741622 7.423943
21.596334 5.1419859 3.3241665
20.92729 3.9861526 -0.52158862
20.298986 2.8998578 -4.1331558
19.70916 1.877064 -7.5235553
19.20595 0.91456765 -10.416064
18.996899 -1.8362003e-06 -11.617719
22.562929 -1.0744205 8.8802786
22.655474 -2.1576672 9.4122372
22.748779 -3.2498245 9.9485645
22.842857 -4.3510227 10.489339
22.937716 -5.4613585 11.0346
23.033365 -6.5809612 11.584411
23.090654 -7.6968832 11.913719
23.088234 -8.795516 11.899794
23.085814 -9.8939209 11.885885
23.083277 -10.992037 11.871302
23.080856 -12.089972 11.857396
23.07913 -13.188074 11.847462
23.077631 -14.286151 11.838851
23.076826 -15.384548 11.834214
23.100578 -16.50041 11.970752
23.126114 -17.6199 12.117544
23.174803 -18.760555 12.397405
23.227198 -19.909025 12.698573
23.296721 -21.077986 13.098201
23.377411 -22.264202 13.562035
25.196318 9.162302 17.434074
24.328852 7.741003 12.674424
23.520388 6.4146528 8.2384958
22.763817 5.1735954 4.0873151
22.054403 4.0098896 0.19487394
21.389477 2.9167466 -3.4534895
20.76454 1.8876866 -6.8824348
20.240252 0.92001444 -9.7591085
20.017653 3.352246e-06 -10.980474
23.762718 -1.0801193 9.5681267
23.860703 -2.1691546 10.105752
23.928366 -3.2629576 10.477012
23.925882 -4.3501582 10.463391
23.923403 -5.4371352 10.449778
23.921158 -6.523953 10.437459
23.919621 -7.6107922 10.429035
23.918085 -8.6974859 10.420611
23.91655 -9.7840452 10.412183
23.915016 -10.870464 10.403763
23.933567 -11.966784 10.505562
23.959734 -13.068942 10.649125
24.004265 -14.184338 10.893455
24.058039 -15.30966 11.188507
24.124306 -16.448391 11.552098
24.207016 -17.605103 12.005922
24.312244 -18.786737 12.5833
26.524296 9.2258387 18.392895
25.602926 7.7921939 13.557278
24.746561 6.4556255 9.0628262
23.945631 5.2055688 4.8593125
23.195026 4.033917 0.9199177
22.492846 2.9338493 -2.7653339
21.831835 1.8984201 -6.2345085
21.298399 0.92601812 -9.0341377
21.124424 -1.8026724e-06 -9.9472065
24.743902 -1.0758228 9.0488691
24.742331 -2.1515062 9.0406151
24.740757 -3.2270539 9.0323639
24.739187 -4.3024669 9.0241213
24.737616 -5.3777432 9.015872
24.736044 -6.4528809 9.0076323
24.750313 -7.5327067 9.0825109
24.775139 -8.6174355 9.2127953
24.816057 -9.7106285 9.4275494
24.870174 -10.813116 9.7115755
24.932873 -11.924417 10.040644
25.017502 -13.052611 10.484799
25.113041 -14.194328 10.986214
25.253567 -15.371734 11.723733
27.870972 9.2903233 19.365841
26.893965 7.8440733 14.451879
25.98863 6.4971576 9.8984003
25.142263 5.2379704 5.6415076
24.350746 4.0584579 1.660473
23.609123 2.9511414 -2.0695918
22.911442 1.9092888 -5.5786748
22.370358 0.93209559 -8.3001099
22.169306 2.2378545e-06 -9.3113174
25.541393 -1.0642229 7.6489692
25.539787 -2.128315 7.6408963
25.549915 -3.1937387 7.691834
25.572914 -4.2621517 7.807518
25.610102 -5.3354378 7.9945421
25.664461 -6.4161191 8.2679605
25.723186 -7.502594 8.5633154
25.809633 -8.6032124 8.9981213
25.896284 -9.7111063 9.4339352
26.037167 -10.848816 10.142523
28.202307 7.8966465 15.358472
27.246784 6.539227 10.744796
26.353886 5.2707782 6.4334989
25.520494 4.0832791 2.4095261
24.738749 2.9686506 -1.3650694
24.003372 1.9202677 -4.915791
23.463886 0.93855363 -7.5206523
23.226246 -2.9725566e-06 -8.6680861
26.386738 -1.0554696 6.5921178
26.442133 -2.1153688 6.8596015
26.498531 -3.1798193 7.1319089
26.583771 -4.2534027 7.543489
26.672276 -5.3344517 7.9708219
26.802683 -6.4326434 8.6004915
29.527699 7.9497666 16.274471
28.521194 6.5818114 11.601564
27.581713 5.3041725 7.2398043
26.704763 4.1084251 3.1683803
25.881275 2.9862983 -0.65484518
25.104963 1.9311469 -4.2590404
24.572777 0.9451105 -6.7298346
24.398489 1.2841072e-06 -7.5390067
27.431026 -1.0550379 6.5402203
27.552105 -2.1193881 7.1023474
30.874409 8.0044756 17.217936
29.812464 6.6249895 12.470231
28.825895 5.3381276 8.0595074
27.902529 4.133708 3.9313588
27.034639 3.0038505 0.051224269
26.219229 1.9421653 -3.5942898
25.697369 0.95175576 -5.9273973
31.121258 6.6688399 13.352401
30.084347 5.3722038 8.882184
29.112654 4.1589518 4.6931257
28.201767 3.0216162 0.76620501
27.346153 1.9532984 -2.9224429
26.837776 0.95849371 -5.1140928
32.446335 6.7130389 14.241522
31.356506 5.4062948 9.7051687
30.337507 4.1844826 5.4636497
29.38265 3.0395863 1.4891256
28.486069 1.9645545 -2.2428396
27.99555 0.96536595 -4.2846003
32.644913 5.4408197 10.538665
31.577488 4.2103348 6.2436838
30.577803 3.0577807 2.2212639
29.639339 1.9759551 -1.554823
29.172106 0.97240633 -3.4348266
33.949879 5.475791 11.382871
32.832886 4.2365022 7.0334253
31.787203 3.0761819 2.961643
30.806347 1.9875095 -0.85769904
30.365948 0.97954643 -2.5725718
35.271729 5.5112057 12.238006
34.103989 4.2629962 7.833046
33.011089 3.094789 3.710407
32.058258 2.0036409 0.11612929
31.60338 0.98760933 -1.5997677
35.39109 4.2898288 8.6427317
34.250038 3.1136398 4.4688778
33.345348 2.0209317 1.1596093
32.864319 0.99588996 -0.59994763
36.694496 4.3170004 9.4626722
35.504169 3.1327221 5.2366371
34.654686 2.0385134 2.2206941
34.148922 1.0043775 0.42508364
36.773769 3.1520345 6.0138726
35.984814 2.0562739 3.2928662
38.064785 3.1720679 6.8197446
37.334637 2.074147 4.371501
38.707943 2.0923228 5.4684477
40.150188 2.1131716 6.7266364
