# .PCD v0.7 - Point Cloud Data file format
VERSION 0.7
FIELDS x y z
SIZE 4 4 4
TYPE F F F
COUNT 1 1 1
WIDTH 1192
HEIGHT 1
VIEWPOINT 0 0 0 1 0 0 0
POINTS 1192
DATA ascii
-39.996792 7.2721419 -11.086137
-38.566261 7.175118 -12.55014
-37.545174 7.1514592 -12.907096
-36.559944 7.1336455 -13.175887
-35.579609 7.1159196 -13.443348
-34.604137 7.0982819 -13.709478
-33.633892 7.0808158 -13.973005
-32.668278 7.0634122 -14.235672
-37.684185 7.1294394 2.1284883
-31.734062 7.0520163 -14.407645
-36.651451 7.1266699 2.0807278
-31.22463 8.0291929 -13.124422
-30.85219 7.0519276 -14.40892
-35.651493 7.130302 2.1432724
-30.240593 8.0048647 -13.450726
-29.970339 7.0518436 -14.410203
-34.638168 7.1313901 2.1620474
-29.262379 7.9806466 -13.775484
-29.093636 7.0530028 -14.392729
-33.624531 7.1324773 2.1808324
-28.29018 7.9566116 -14.097854
-28.217432 7.0543585 -14.372268
-32.610435 7.1335306 2.199053
-27.32382 7.9327216 -14.418294
-27.341005 7.0557432 -14.351378
-31.596188 7.1346259 2.2178433
-26.363245 7.9089713 -14.736814
-26.456598 7.0550928 -14.361181
-28.108252 6.5585938 -7.7154512
-28.108252 5.6216497 -7.7154422
-28.108252 4.6847067 -7.7154431
-28.108252 3.7477639 -7.715445
-28.108252 2.8108251 -7.7154441
-28.108252 1.8738822 -7.715446
-28.108252 0.93694311 -7.7154446
-28.108252 2.7247563e-07 -7.7154465
-28.108252 -0.93694264 -7.7154474
-28.108252 -1.8738816 -7.7154469
-28.108252 -2.8108244 -7.7154479
-28.108252 -3.7477634 -7.7154474
-28.108252 -4.6847067 -7.7154493
-28.108252 -5.6216488 -7.7154503
-28.108252 -6.5585928 -7.7154412
-28.108252 -7.4955363 -7.7154431
-28.108252 -8.4324789 -7.7154441
-28.108252 -9.3694172 -7.7154431
-28.108252 -10.306361 -7.715445
-28.108252 -11.243299 -7.7154441
-28.108252 -12.180243 -7.7154455
-28.108252 -13.117186 -7.7154469
-28.108252 -14.054125 -7.715446
-28.108252 -14.991068 -7.7154479
-28.108252 -15.928011 -7.7154493
-28.108252 -16.864948 -7.7154479
-28.108252 -17.801891 -7.7154498
-28.108252 -18.738831 -7.7154484
-28.108252 -19.675779 -7.7154422
-28.046423 -20.567379 -7.9642262
-25.417709 7.8882546 -15.01469
-25.571638 7.0542459 -14.373981
-27.168882 6.5580082 -7.7255578
-27.168882 5.6211495 -7.7255511
-27.168882 4.6842914 -7.7255554
-27.168882 3.7474329 -7.7255502
-27.168882 2.810575 -7.725554
-27.168882 1.8737123 -7.7255507
-27.168882 0.93685853 -7.7255526
-27.168882 4.6636731e-07 -7.7255569
-27.168766 -0.93685287 -7.7260361
-27.168766 -1.8737066 -7.726038
-27.168766 -2.8105655 -7.7260323
-27.168766 -3.7474153 -7.7260313
-27.168766 -4.6842685 -7.7260332
-27.168766 -5.6211228 -7.7260351
-27.168766 -6.5579762 -7.726037
-27.168766 -7.4948359 -7.7260313
-27.168766 -8.4316893 -7.7260327
-27.168766 -9.3685389 -7.7260327
-27.168766 -10.305393 -7.7260346
-27.168766 -11.242247 -7.7260365
-27.168766 -12.179101 -7.7260385
-27.168766 -13.115959 -7.7260323
-27.168766 -14.052809 -7.7260318
-27.168766 -14.989664 -7.7260342
-27.168766 -15.926517 -7.7260361
-27.168766 -16.863371 -7.7260375
-27.168766 -17.80023 -7.7260313
-27.168766 -18.73708 -7.7260313
-27.168766 -19.673933 -7.7260327
-27.147392 -20.594576 -7.8149953
-24.494818 7.8733339 -15.214812
-24.686893 7.0533977 -14.386768
-26.441309 6.6103239 -6.8232965
-26.441309 5.6659956 -6.8232994
-26.441309 4.7216635 -6.8232961
-26.441309 3.7773316 -6.8233023
-26.441309 2.8329988 -6.823298
-26.441309 1.8886622 -6.8232965
-26.441309 0.94433445 -6.8233004
-26.441309 -2.2401289e-06 -6.8232989
-26.441309 -0.94433486 -6.8232946
-26.441309 -1.8886625 -6.8232985
-26.441196 -2.8329847 -6.8237877
-26.441196 -3.7773123 -6.8237915
-26.441196 -4.7216411 -6.8237848
-26.441196 -5.6659689 -6.8237891
-26.441196 -6.6103015 -6.8237848
-26.441196 -7.5546293 -6.8237886
-26.441196 -8.4989529 -6.8237901
-26.441196 -9.443285 -6.8237858
-26.441196 -10.387613 -6.8237901
-26.441196 -11.331942 -6.8237834
-26.441196 -12.276269 -6.8237872
-26.441196 -13.220597 -6.823791
-26.441196 -14.164927 -6.8237848
-26.441196 -15.109253 -6.8237882
-26.441196 -16.053585 -6.8237844
-26.441196 -16.997913 -6.8237882
-26.441196 -17.942238 -6.8237901
-26.441196 -18.88657 -6.8237858
-26.441196 -19.830898 -6.8237896
-26.315451 -20.676426 -7.3658891
-23.575411 7.8584681 -15.41417
-23.802261 7.0525198 -14.399975
-26.203161 6.7934155 -3.6661203
-26.203161 5.8229265 -3.666122
-26.203161 4.8524413 -3.6661208
-26.203161 3.881952 -3.6661224
-26.203161 2.9114618 -3.6661136
-26.203161 1.9409728 -3.6661153
-26.203161 0.97048759 -3.6661141
-26.203161 -1.5597462e-06 -3.666116
-26.203161 -0.97048676 -3.666115
-26.203161 -1.9409759 -3.6661165
-26.203161 -2.9114609 -3.6661155
-26.203161 -3.8819504 -3.6661174
-26.203161 -4.8524394 -3.6661189
-26.203161 -5.8229246 -3.6661179
-26.385303 -6.8406377 -2.8517919
-26.385303 -7.8178673 -2.8517969
-26.385303 -8.7951021 -2.8517945
-26.385303 -9.772336 -2.8517916
-26.385303 -10.749566 -2.8517966
-26.385303 -11.7268 -2.8517938
-26.385303 -12.704035 -2.8517911
-26.385303 -13.681273 -2.8517909
-26.385303 -14.658503 -2.8517959
-26.385303 -15.635736 -2.8517931
-26.385303 -16.612972 -2.8517907
-26.385303 -17.5902 -2.8517959
-26.385303 -18.567436 -2.8517931
-26.385303 -19.544674 -2.8517931
-26.385303 -20.521904 -2.8517981
-22.659559 7.8436909 -15.61236
-22.917944 7.0516758 -14.41276
-25.231451 6.7930837 -3.6717968
-25.231451 5.8226457 -3.6718001
-25.231451 4.8522029 -3.6717958
-25.231451 3.8817644 -3.6717992
-25.231451 2.9113214 -3.6717944
-25.231451 1.9408832 -3.6717978
-25.231451 0.97044098 -3.6718035
-25.231451 -2.1402018e-06 -3.6717989
-25.231451 -0.97044027 -3.6718023
-25.231451 -1.9408834 -3.6717975
-25.231451 -2.9113219 -3.6718009
-25.231451 -3.8817649 -3.6717961
-25.231451 -4.8522029 -3.6717994
-25.231451 -5.8226409 -3.6718028
-26.38508 -7.1036763 1.6841897
-26.38508 -8.1184883 1.6841871
-26.38508 -9.133296 1.6841874
-26.38508 -10.148108 1.6841847
-26.38508 -11.162916 1.6841848
-26.38508 -12.177728 1.6841823
-26.38508 -13.192541 1.6841899
-26.38508 -14.207353 1.6841875
-26.38508 -15.222164 1.684185
-26.38508 -16.236973 1.684185
-26.38508 -17.251785 1.684182
-26.38508 -18.266592 1.6841822
-26.38508 -19.281408 1.6841878
-26.38508 -20.296217 1.6841873
-21.747061 7.8289404 -15.810225
-22.033749 7.0508018 -14.425964
-24.259726 6.7927227 -3.6779919
-24.259726 5.8223352 -3.6779966
-24.259726 4.8519435 -3.677994
-24.259726 3.8815601 -3.6779964
-24.259726 2.9111681 -3.6779935
-24.259726 1.9407809 -3.6779985
-24.259726 0.97038889 -3.6779957
-24.259726 -3.2398964e-06 -3.6779926
-24.259726 -0.97038639 -3.6779952
-24.259726 -1.9407786 -3.6779923
-24.259726 -2.9111655 -3.6779974
-24.259726 -3.8815575 -3.6779945
-24.259726 -4.8519449 -3.6779995
-24.259726 -5.8223329 -3.677994
-26.384964 -7.3877902 6.5835648
-26.384964 -8.4431906 6.583571
-26.384964 -9.4985895 6.5835676
-26.384964 -10.553986 6.5835667
-26.384964 -11.609382 6.5835652
-26.384964 -12.664786 6.583569
-26.38484 -13.720114 6.5829549
-26.38484 -14.77551 6.5829539
-26.38484 -15.830901 6.5829554
-26.38484 -16.886297 6.5829544
-26.38484 -17.941689 6.5829554
-26.38484 -18.997084 6.5829544
-26.38484 -20.052477 6.5829554
-20.837986 7.8142443 -16.007341
-21.14986 7.0499568 -14.438739
-23.288208 6.7923956 -3.6836765
-23.288208 5.8220549 -3.6836753
-23.288208 4.8517094 -3.6836767
-23.288208 3.8813684 -3.6836755
-23.288208 2.9110274 -3.6836743
-23.288208 1.9406863 -3.6836731
-23.288208 0.97034127 -3.6836743
-23.288208 2.3586753e-07 -3.6836731
-23.288208 -0.97034091 -3.683672
-23.288208 -1.9406859 -3.6836731
-23.288208 -2.9110267 -3.683672
-23.288208 -3.8813679 -3.6836708
-23.288208 -4.8517132 -3.6836722
-23.288208 -5.8220544 -3.683671
-26.219736 -20.757288 11.06077
-19.932318 7.7996006 -16.203718
-20.2661 7.049078 -14.451935
-22.316687 6.7920341 -3.6898708
-22.316687 5.821744 -3.6898713
-22.316687 4.8514543 -3.689872
-22.316687 3.8811641 -3.6898725
-22.316687 2.9108691 -3.6898654
-22.316687 1.9405791 -3.6898656
-22.316687 0.97028917 -3.6898665
-22.316687 -8.3988846e-07 -3.689867
-22.316687 -0.9702909 -3.6898675
-22.316687 -1.940581 -3.689868
-22.316687 -2.9108708 -3.6898687
-22.316687 -3.881161 -3.6898692
-22.316687 -4.8514509 -3.6898699
-22.316687 -5.8217406 -3.6898704
-19.032282 7.7859364 -16.387062
-19.382639 7.0482283 -14.464703
-21.34536 6.7917066 -3.6955452
-21.34536 5.8214636 -3.69555
-21.34536 4.8512197 -3.6955442
-21.34536 3.8809764 -3.6955492
-21.34536 2.9107287 -3.6955459
-21.34536 1.9404896 -3.6955483
-21.34536 0.97024161 -3.6955452
-21.34536 2.6358753e-06 -3.6955476
-21.34536 -0.97024524 -3.6955442
-21.34536 -1.9404844 -3.6955466
-21.34536 -2.910732 -3.6955433
-21.34536 -3.8809752 -3.6955481
-21.34536 -4.8512197 -3.6955426
-21.34536 -5.8214622 -3.6955471
-18.135609 7.7724071 -16.568531
-18.507387 7.0504317 -14.431499
-20.374039 6.7913451 -3.70174
-20.374039 5.821157 -3.7017441
-20.374039 4.8509641 -3.7017398
-20.374039 3.8807673 -3.7017386
-20.374039 2.9105794 -3.7017426
-20.374039 1.9403863 -3.7017386
-20.374039 0.97018951 -3.7017372
-20.374039 1.5361808e-06 -3.7017412
-20.374039 -0.97019136 -3.7017374
-20.374039 -1.9403834 -3.7017438
-20.374039 -2.9105763 -3.70174
-20.374039 -3.8807695 -3.701736
-20.374039 -4.8509612 -3.7017424
-20.374039 -5.8211541 -3.7017386
-17.242044 7.7589188 -16.749367
-17.637308 7.0549202 -14.36374
-19.402906 6.7910175 -3.7074142
-19.402906 5.8208714 -3.7074146
-19.402906 4.8507257 -3.7074149
-19.402906 3.8805795 -3.7074149
-19.402906 2.9104338 -3.7074153
-19.402906 1.9402878 -3.7074156
-19.402906 0.97014594 -3.7074134
-19.402906 -1.817746e-09 -3.7074137
-19.402906 -0.97014582 -3.7074139
-19.402906 -1.9402918 -3.7074144
-19.402906 -2.9104376 -3.7074146
-19.402906 -3.8805838 -3.7074149
-19.402906 -4.8507295 -3.7074151
-19.402906 -5.8208718 -3.7074132
-16.351578 7.7454839 -16.929579
-16.766123 7.0594187 -14.295898
-18.431786 6.7906561 -3.7136085
-18.431786 5.8205652 -3.713608
-18.431786 4.8504705 -3.7136104
-18.431786 3.8803794 -3.7136099
-18.431786 2.9102845 -3.7136118
-18.431786 1.9401896 -3.7136137
-18.431786 0.97009373 -3.7136054
-18.431786 -1.0775738e-06 -3.7136075
-18.431786 -0.97009599 -3.7136095
-18.431786 -1.9401869 -3.7136092
-18.431786 -2.9102817 -3.7136114
-18.431786 -3.8803723 -3.7136106
-18.431786 -4.8504677 -3.713613
-18.431786 -5.8205671 -3.7136068
-15.464188 7.7320952 -17.109175
-15.893823 7.0639224 -14.227976
-17.460846 6.790328 -3.7192829
-17.460846 5.8202844 -3.7192867
-17.460846 4.8502359 -3.7192826
-17.460846 3.8801916 -3.7192862
-17.460846 2.9101388 -3.7192845
-17.460846 1.9400951 -3.7192883
-17.460846 0.97004634 -3.7192843
-17.460846 2.39819e-06 -3.7192881
-17.460846 -0.97004628 -3.7192838
-17.460846 -1.9400903 -3.7192876
-17.460846 -2.9101388 -3.7192833
-17.460846 -3.8801868 -3.7192895
-17.460846 -4.8502359 -3.7192855
-17.460846 -5.8202848 -3.7192812
-14.582703 7.720253 -17.267971
-15.020412 7.0684299 -14.159962
-16.489927 6.7899709 -3.7254751
-16.489927 5.819973 -3.7254727
-16.489927 4.8499804 -3.7254782
-16.489927 3.8799825 -3.7254755
-16.489927 2.9099846 -3.7254729
-16.489927 1.9399918 -3.7254786
-16.489927 0.96999413 -3.7254763
-16.489927 -3.5899227e-06 -3.7254739
-16.489927 -0.96999246 -3.725477
-16.489927 -1.9399903 -3.7254744
-16.489927 -2.9099879 -3.725472
-16.489927 -3.8799808 -3.7254775
-16.489927 -4.8499784 -3.7254751
-16.489927 -5.8199763 -3.7254727
-13.704871 7.7089906 -17.419052
-14.145885 7.0729432 -14.091857
-15.519179 6.7896433 -3.7311492
-15.519179 5.8196926 -3.7311513
-15.519179 4.8497458 -3.7311504
-15.519179 3.8797948 -3.7311523
-15.519179 2.909848 -3.7311513
-15.519179 1.9398973 -3.7311532
-15.519179 0.9699505 -3.7311525
-15.519179 3.8406547e-06 -3.7311518
-15.519179 -0.96994692 -3.7311535
-15.519179 -1.9398937 -3.7311528
-15.519179 -2.9098444 -3.7311547
-15.519179 -3.879796 -3.7311459
-15.519179 -4.8497467 -3.7311478
-15.519179 -5.8196936 -3.7311471
-12.833387 7.7000341 -17.539194
-13.270241 7.0774608 -14.02367
-14.548462 6.7892857 -3.7373412
-14.548462 5.819386 -3.7373447
-14.548462 4.8494854 -3.7373378
-14.548462 3.8795896 -3.7373388
-14.548462 2.909694 -3.7373402
-14.548462 1.9397984 -3.7373412
-14.548462 0.9698984 -3.7373445
-14.548462 -2.147458e-06 -3.7373376
-14.548462 -0.96989793 -3.7373388
-14.548462 -1.9397937 -3.7373397
-14.548462 -2.9096892 -3.7373407
-14.548462 -3.8795891 -3.7373443
-14.548462 -4.8494897 -3.7373374
-14.548462 -5.8193855 -3.7373385
-11.967364 7.6933064 -17.629412
-12.393476 7.0819831 -13.955391
-13.577907 6.7889538 -3.7430179
-13.577907 5.8191042 -3.7430129
-13.577907 4.8492508 -3.7430103
-13.577907 3.8794019 -3.7430155
-13.577907 2.9095523 -3.7430103
-13.577907 1.9397036 -3.7430155
-13.577907 0.96984994 -3.7430129
-13.577907 1.3283059e-06 -3.7430182
-13.577907 -0.96984833 -3.7430129
-13.577907 -1.939702 -3.74301
-13.577907 -2.9095507 -3.7430153
-13.577907 -3.8794045 -3.7430127
-13.577907 -4.8492494 -3.7430155
-13.577907 -5.8191028 -3.7430129
-11.102896 7.6866217 -17.719082
-11.512442 7.0845776 -13.916274
-12.607388 6.7885957 -3.7491996
-12.607388 5.8187933 -3.7491987
-12.607388 4.8489995 -3.7492034
-12.607388 3.8791969 -3.7492023
-12.607388 2.9093981 -3.7491989
-12.607388 1.9396006 -3.7492061
-12.607388 0.96980178 -3.7492023
-12.607388 -7.0499317e-07 -3.7492015
-12.607388 -0.96979934 -3.749198
-12.607388 -1.9395971 -3.7492049
-12.607388 -2.9093957 -3.7492015
-12.607388 -3.8791983 -3.7492006
-12.607388 -4.8489919 -3.7492051
-12.607388 -5.8187947 -3.7492042
-10.239888 7.6799159 -17.808987
-10.628237 7.0854907 -13.902514
-11.637026 6.7882676 -3.754874
-11.637026 5.8185163 -3.7548749
-11.637026 4.8487644 -3.7548757
-11.637026 3.8790092 -3.754879
-11.637026 2.9092524 -3.7548716
-11.637026 1.939501 -3.7548726
-11.637026 0.96974933 -3.754873
-11.637026 -2.2429917e-06 -3.754874
-11.637026 -0.96975386 -3.7548747
-11.637026 -1.9395055 -3.7548754
-11.637026 -2.9092569 -3.7548761
-11.637026 -3.8790088 -3.7548771
-11.637026 -4.8487601 -3.7548776
-11.637026 -5.818512 -3.7548785
-9.3792219 7.6739092 -17.889572
-9.7438431 7.086432 -13.888323
-10.66671 6.7879057 -3.7610581
-10.66671 5.8182054 -3.7610607
-10.66671 4.8485045 -3.7610629
-10.66671 3.8788037 -3.7610655
-10.66671 2.9091022 -3.7610576
-10.66671 1.9394017 -3.7610602
-10.66671 0.96970123 -3.7610629
-10.66671 6.1212756e-07 -3.7610652
-10.66671 -0.96970093 -3.7610571
-10.66671 -1.9394015 -3.7610598
-10.66671 -2.909102 -3.7610624
-10.66671 -3.8788028 -3.761065
-10.66671 -4.8485084 -3.7610593
-10.66671 -5.8182044 -3.7610593
-8.5201635 7.6681461 -17.966852
-8.8592157 7.0873733 -13.874124
-9.6965389 6.7875781 -3.7667322
-9.6965389 5.8179231 -3.7667284
-9.6965389 4.8482699 -3.7667356
-9.6965389 3.8786151 -3.7667317
-9.6965389 2.9089656 -3.7667358
-9.6965389 1.9393073 -3.7667348
-9.6965389 0.96965271 -3.7667308
-9.6965389 3.154287e-06 -3.7667353
-9.6965389 -0.96965528 -3.7667341
-9.6965389 -1.93931 -3.7667301
-9.6965389 -2.9089596 -3.7667346
-9.6965389 -3.8786139 -3.7667308
-9.6965389 -4.8482723 -3.7667294
-9.6965389 -5.8179216 -3.7667336
-7.6624236 7.6624217 -18.04361
-7.9743533 7.0883136 -13.859913
-8.7264242 6.7872157 -3.7729161
-8.7264242 5.8176169 -3.7729225
-8.7264242 4.8480134 -3.7729204
-8.7264242 3.8784101 -3.7729185
-8.7264242 2.9088068 -3.7729166
-8.7264242 1.939208 -3.7729225
-8.7264242 0.96960461 -3.7729206
-8.7264242 1.1209879e-06 -3.7729187
-8.7264242 -0.96960235 -3.7729166
-8.7264242 -1.9392058 -3.7729144
-8.7264242 -2.9088042 -3.7729204
-8.7264242 -3.878408 -3.7729187
-8.7264242 -4.8480153 -3.7729192
-8.7264242 -5.8176188 -3.7729173
-6.8059373 7.6566796 -18.120653
-7.0892553 7.0892544 -13.845714
-7.7564459 6.7868919 -3.7785883
-7.7564459 5.8173356 -3.7785904
-7.7564459 4.8477788 -3.7785926
-7.7564459 3.8782215 -3.7785845
-7.7564459 2.9086649 -3.7785869
-7.7564459 1.9391125 -3.7785864
-7.7564459 0.96955609 -3.7785888
-7.7564459 -3.1560515e-07 -3.7785909
-7.7564459 -0.96955281 -3.7785907
-7.7564459 -1.9391142 -3.778585
-7.7564459 -2.9086668 -3.778585
-7.7564459 -3.8782232 -3.7785871
-7.7564459 -4.8477798 -3.7785892
-7.7564459 -5.8173323 -3.778589
-5.9507341 7.6509452 -18.197584
-6.203898 7.0901694 -13.831929
-6.7865314 6.7865295 -3.7847722
-6.7865314 5.817028 -3.7847738
-6.7865314 4.8475266 -3.784775
-6.7865314 3.8780162 -3.7847712
-6.7865314 2.9085147 -3.7847729
-6.7865314 1.9390095 -3.7847769
-6.7865314 0.96950305 -3.7847703
-6.7865314 1.6059097e-06 -3.7847719
-6.7865314 -0.96950382 -3.7847757
-6.7865314 -1.9390101 -3.7847693
-6.7865314 -2.9085155 -3.7847731
-6.7865314 -3.8780169 -3.7847748
-6.7865314 -4.8475232 -3.7847683
-6.7865314 -5.8170285 -3.7847724
-5.0968108 7.6452174 -18.274399
-5.3181615 7.0908823 -13.821167
-5.8167448 6.7862058 -3.7904439
-5.8167448 5.8167462 -3.790442
-5.8167448 4.8472872 -3.7904396
-5.8167448 3.8778327 -3.7904453
-5.8167448 2.9083731 -3.7904429
-5.8167448 1.9389138 -3.7904406
-5.8167448 0.96945947 -3.7904465
-5.8167448 6.7911159e-08 -3.7904441
-5.8167448 -0.96945912 -3.790442
-5.8167448 -1.9389186 -3.7904396
-5.8167448 -2.9083691 -3.7904429
-5.8167448 -3.8778286 -3.7904408
-5.8167448 -4.8472877 -3.7904384
-5.8167448 -5.8167419 -3.7904441
-4.2441654 7.6394997 -18.351097
-4.4315696 7.0905137 -13.826766
-4.8470316 6.7858434 -3.796628
-4.8470316 5.8164392 -3.7966254
-4.8470316 4.8470306 -3.7966244
-4.8470316 3.8776224 -3.7966242
-4.8470316 2.9082179 -3.7966208
-4.8470316 1.9388148 -3.7966287
-4.8470316 0.96940643 -3.796628
-4.8470316 2.0908315e-06 -3.7966251
-4.8470316 -0.96940619 -3.7966244
-4.8470316 -1.9388145 -3.7966242
-4.8470316 -2.9082191 -3.7966213
-4.8470316 -3.8776221 -3.7966287
-4.8470316 -4.8470306 -3.7966282
-4.8470316 -5.8164392 -3.7966278
-3.3927946 7.6337843 -18.427681
-3.5450702 7.0901403 -13.832358
-3.8774374 6.7855144 -3.8022916
-3.8774374 5.8161573 -3.8022928
-3.8774374 4.8467999 -3.802294
-3.8774374 3.8774388 -3.8022978
-3.8774374 2.9080765 -3.8022914
-3.8774374 1.9387193 -3.8022926
-3.8774374 0.9693619 -3.8022938
-3.8774374 6.78177e-07 -3.8022976
-3.8774374 -0.96936172 -3.8022909
-3.8774374 -1.938719 -3.8022921
-3.8774374 -2.9080763 -3.8022933
-3.8774374 -3.8774338 -3.8022947
-3.8774374 -4.8467999 -3.8022902
-3.8774374 -5.8161573 -3.8022916
-2.5427837 7.6283507 -18.500608
-2.6586633 7.0897679 -13.837959
-2.9079244 6.7851562 -3.8084733
-2.9079244 5.8158503 -3.8084762
-2.9079244 4.846539 -3.8084714
-2.9079244 3.8772326 -3.8084743
-2.9079244 2.9079263 -3.8084774
-2.9079244 1.938615 -3.8084722
-2.9079244 0.96930885 -3.8084755
-2.9079244 2.4743479e-06 -3.8084784
-2.9079244 -0.96930867 -3.8084733
-2.9079244 -1.938615 -3.8084764
-2.9079244 -2.9079263 -3.8084714
-2.9079244 -3.8772323 -3.8084743
-2.9079244 -4.8465385 -3.8084774
-2.9079244 -5.8158498 -3.8084724
-1.6942172 7.6239781 -18.559269
-1.7723495 7.0893993 -13.843559
-1.9385225 6.7848277 -3.814137
-1.9385225 5.8155684 -3.8141444
-1.9385225 4.8463082 -3.814141
-1.9385225 3.877044 -3.8141403
-1.9385225 2.9077797 -3.8141396
-1.9385225 1.9385246 -3.8141444
-1.9385225 0.96926033 -3.8141434
-1.9385225 2.0555575e-07 -3.8141403
-1.9385225 -0.96926409 -3.8141396
-1.9385225 -1.9385194 -3.8141444
-1.9385225 -2.9077835 -3.8141434
-1.9385225 -3.877044 -3.8141403
-1.9385225 -4.8463082 -3.8141396
-1.9385225 -5.8155632 -3.8141441
-0.84662646 7.6196408 -18.617468
-0.88612843 7.0890307 -13.849158
-0.96920997 6.7844696 -3.8203187
-0.96920997 5.8152609 -3.8203278
-0.96920997 4.8460517 -3.8203261
-0.96920997 3.876843 -3.8203247
-0.96920997 2.9076295 -3.8203256
-0.96920997 1.9384205 -3.8203242
-0.96920997 0.96921128 -3.8203225
-0.96920997 -1.8277433e-06 -3.8203235
-0.96920997 -0.96921104 -3.820322
-0.96920997 -1.9384203 -3.8203208
-0.96920997 -2.9076295 -3.8203192
-0.96920997 -3.8768425 -3.8203201
-0.96920997 -4.8460522 -3.8203187
-0.96920997 -5.8152561 -3.8203251
-6.5945679e-24 7.6207242 -18.602922
-1.2376428e-23 7.0886579 -13.854751
-3.4874947e-23 6.7841458 -3.8259904
3.3626632e-24 5.8149786 -3.8259852
1.9118147e-24 4.8458166 -3.8259881
-3.2626258e-23 3.8766541 -3.8259907
5.611353e-24 2.9074872 -3.8259854
2.5061433e-24 1.938325 -3.8259883
-2.9385356e-23 0.96916276 -3.8259909
8.0250741e-24 -2.4312692e-07 -3.825983
6.5742252e-24 -0.96916234 -3.8259859
-2.6971637e-23 -1.9383247 -3.8259885
-2.8422485e-23 -2.9074867 -3.8259912
9.4015362e-24 -3.8766537 -3.8259859
-2.4433637e-23 -4.8458161 -3.8259888
-2.5667502e-23 -5.8149781 -3.8259916
0.84714448 7.6243043 -18.554939
0.88603562 7.0882888 -13.86035
0.96911186 6.7837825 -3.832164
0.96911186 5.814671 -3.8321686
0.96911186 4.8455601 -3.8321729
0.96911186 3.8764482 -3.8321671
0.96911186 2.907337 -3.8321714
0.96911186 1.9382248 -3.8321652
0.96911186 0.96911371 -3.83217
0.96911186 -2.2764259e-06 -3.8321664
0.96911186 -0.96910959 -3.8321683
0.96911186 -1.9382255 -3.8321648
0.96911186 -2.9073367 -3.8321693
0.96911186 -3.8764486 -3.8321633
0.96911186 -4.8455596 -3.8321679
0.96911186 -5.8146667 -3.8321698
1.6951303 7.628089 -18.504154
1.7719786 7.0879159 -13.865941
1.9381299 6.7834535 -3.8378277
1.9381299 5.8143935 -3.8378341
1.9381299 4.8453245 -3.8378348
1.9381299 3.8762593 -3.8378327
1.9381299 2.9071944 -3.837831
1.9381299 1.9381293 -3.8378294
1.9381299 0.96906424 -3.8378277
1.9381299 4.1966086e-06 -3.8378339
1.9381299 -0.96906489 -3.8378346
1.9381299 -1.9381301 -3.8378327
1.9381299 -2.9071951 -3.837831
1.9381299 -3.8762603 -3.8378294
1.9381299 -4.845325 -3.8378274
1.9381299 -5.8143892 -3.8378363
2.5443311 7.6329942 -18.438335
2.657829 7.0875478 -13.871541
2.9070413 6.7830954 -3.8440094
2.9070413 5.8140812 -3.8440094
2.9070413 4.8450675 -3.8440092
2.9070413 3.8760531 -3.8440092
2.9070413 2.9070394 -3.8440094
2.9070413 1.9380252 -3.8440094
2.9070413 0.96901119 -3.8440092
2.9070413 -2.8504526e-06 -3.8440092
2.9070413 -0.96901691 -3.8440092
2.9070413 -1.938027 -3.8440068
2.9070413 -2.9070411 -3.8440068
2.9070413 -3.8760548 -3.8440065
2.9070413 -4.8450689 -3.8440065
2.9070413 -5.8140831 -3.8440065
3.3946254 7.637908 -18.372423
3.5436008 7.0872035 -13.876704
3.8758674 6.7827668 -3.849673
3.8758674 5.8138037 -3.8496749
3.8758674 4.8448315 -3.8496714
3.8758674 3.8758686 -3.8496728
3.8758674 2.9069016 -3.8496771
3.8758674 1.9379338 -3.8496709
3.8758674 0.96896678 -3.8496749
3.8758674 3.747926e-06 -3.8496766
3.8758674 -0.96896827 -3.8496728
3.8758674 -1.9379313 -3.8496747
3.8758674 -2.9069033 -3.8496709
3.8758674 -3.8758664 -3.8496726
3.8758674 -4.8448334 -3.8496766
3.8758674 -5.8138013 -3.8496704
4.2459993 7.6427999 -18.306835
4.429287 7.0868587 -13.881866
4.8445783 6.7824125 -3.8558524
4.8445783 5.8134913 -3.8558502
4.8445783 4.8445792 -3.8558538
4.8445783 3.8756623 -3.855849
4.8445783 2.9067504 -3.8558526
4.8445783 1.9378295 -3.8558505
4.8445783 0.96891773 -3.855854
4.8445783 7.5708402e-07 -3.8558495
4.8445783 -0.96891117 -3.8558528
4.8445783 -1.937832 -3.8558509
4.8445783 -2.9067442 -3.8558545
4.8445783 -3.8756609 -3.8558497
4.8445783 -4.8445821 -3.8558478
4.8445783 -5.8134937 -3.8558512
5.0984831 7.6477256 -18.240763
5.3152514 7.0869999 -13.879715
5.8132129 6.7820835 -3.861516
5.8132129 5.8132138 -3.8615158
5.8132129 4.8443437 -3.8615153
5.8132129 3.8754778 -3.8615127
5.8132129 2.9066081 -3.8615124
5.8132129 1.9377381 -3.8615119
5.8132129 0.96886826 -3.8615117
5.8132129 -1.7145189e-06 -3.8615115
5.8132129 -0.96887171 -3.8615112
5.8132129 -1.9377376 -3.8615084
5.8132129 -2.9066074 -3.8615079
5.8132129 -3.8754725 -3.861516
5.8132129 -4.8443422 -3.8615155
5.8132129 -5.8132119 -3.861515
5.952044 7.6526265 -18.174992
6.2012515 7.0871453 -13.877562
6.781723 6.7817245 -3.8676872
6.781723 5.8129058 -3.8676884
6.781723 4.8440866 -3.8676901
6.781723 3.8752718 -3.8676889
6.781723 2.9064529 -3.8676903
6.781723 1.937638 -3.8676894
6.781723 0.9688192 -3.8676908
6.781723 3.0840133e-07 -3.8676922
6.781723 -0.96881461 -3.8676913
6.781723 -1.9376335 -3.8676927
6.781723 -2.9064531 -3.8676836
6.781723 -3.875272 -3.8676851
6.781723 -4.8440914 -3.8676865
6.781723 -5.8129058 -3.8676856
6.8067265 7.6575699 -18.108751
7.0872874 7.0872855 -13.875409
7.7501659 6.7813954 -3.8733509
7.7501659 5.812623 -3.8733461
7.7501659 4.8438549 -3.873349
7.7501659 3.8750873 -3.8733525
7.7501659 2.9063103 -3.8733499
7.7501659 1.9375426 -3.8733535
7.7501659 0.96876973 -3.8733485
7.7501659 1.8930177e-06 -3.8733518
7.7501659 -0.96877086 -3.8733468
7.7501659 -1.9375389 -3.8733501
7.7501659 -2.9063118 -3.8733454
7.7501659 -3.8750837 -3.8733511
7.7501659 -4.8438563 -3.8733463
7.7501659 -5.812624 -3.8733494
7.6624832 7.6624813 -18.042816
7.9733582 7.0874267 -13.873259
8.7184753 6.7810364 -3.8795218
8.7184753 5.8123198 -3.8795269
8.7184753 4.8435979 -3.8795238
8.7184753 3.874876 -3.8795209
8.7184753 2.9061594 -3.8795259
8.7184753 1.9374375 -3.8795228
8.7184753 0.96872067 -3.8795276
8.7184753 -1.0978243e-06 -3.8795245
8.7184753 -0.96872282 -3.8795214
8.7184753 -1.9374398 -3.8795266
8.7184753 -2.9061613 -3.8795233
8.7184753 -3.8748746 -3.8795259
8.7184753 -4.8435965 -3.8795228
8.7184753 -5.8123178 -3.8795199
8.519372 7.6674347 -17.976404
8.8594656 7.0875716 -13.871104
9.6867266 6.7807074 -3.8851855
9.6867266 5.812037 -3.8851845
9.6867266 4.8433619 -3.8851855
9.6867266 3.8746915 -3.8851843
9.6867266 2.9060166 -3.8851855
9.6867266 1.9373459 -3.8851838
9.6867266 0.9686712 -3.8851852
9.6867266 4.8679198e-07 -3.885184
9.6867266 -0.96867037 -3.8851826
9.6867266 -1.9373451 -3.8851838
9.6867266 -2.9060159 -3.8851826
9.6867266 -3.8746908 -3.8851838
9.6867266 -4.8433614 -3.8851824
9.6867266 -5.812036 -3.8851838
9.3780222 7.6729293 -17.902729
9.7456083 7.0877175 -13.86896
10.654837 6.7803483 -3.8913567
10.654837 5.811729 -3.8913572
10.654837 4.8431091 -3.8913577
10.654837 3.8744893 -3.8913581
10.654837 2.9058654 -3.8913608
10.654837 1.9372408 -3.8913531
10.654837 0.96862119 -3.8913538
10.654837 -2.5040501e-06 -3.8913567
10.654837 -0.96862221 -3.8913574
10.654837 -1.937242 -3.8913577
10.654837 -2.9058619 -3.8913581
10.654837 -3.8744855 -3.8913612
10.654837 -4.8431106 -3.8913536
10.654837 -5.8117299 -3.8913538
10.238461 7.6788425 -17.82336
10.631786 7.0878587 -13.86681
11.622845 6.7799892 -3.8975279
11.622845 5.8114204 -3.8975298
11.622845 4.8428516 -3.897532
11.622845 3.8742831 -3.8975341
11.622845 2.9057095 -3.8975286
11.622845 1.9371408 -3.8975308
11.622845 0.96857208 -3.8975329
11.622845 -1.6414838e-06 -3.8975272
11.622845 -0.96857011 -3.8975294
11.622845 -1.9371389 -3.8975315
11.622845 -2.9057126 -3.8975258
11.622845 -3.8742814 -3.8975282
11.622845 -4.8428497 -3.8975301
11.622845 -5.8114185 -3.8975325
11.100226 7.6847706 -17.743868
11.518187 7.0881152 -13.862932
12.590805 6.7796645 -3.9031889
12.590805 5.811142 -3.9031849
12.590805 4.8426204 -3.9031916
12.590805 3.8740935 -3.9031897
12.590805 2.905571 -3.9031856
12.590805 1.9370493 -3.9031923
12.590805 0.9685266 -3.903188
12.590805 -5.6867393e-08 -3.9031866
12.590805 -0.9685266 -3.9031851
12.590805 -1.9370443 -3.9031889
12.590805 -2.9055707 -3.9031873
12.590805 -3.8740976 -3.9031858
12.590805 -4.8426151 -3.9031897
12.590805 -5.811142 -3.9031882
11.963323 7.6907082 -17.664259
12.405048 7.0886002 -13.855618
13.558613 6.7793055 -3.9093599
13.558613 5.8108335 -3.9093575
13.558613 4.8423619 -3.9093552
13.558613 3.8738914 -3.9093635
13.558613 2.9054201 -3.9093616
13.558613 1.9369442 -3.9093616
13.558613 0.9684726 -3.9093592
13.558613 1.0085099e-06 -3.9093568
13.558613 -0.96847451 -3.9093571
13.558613 -1.9369411 -3.9093628
13.558613 -2.9054167 -3.909363
13.558613 -3.8738885 -3.9093606
13.558613 -4.84236 -3.9093583
13.558613 -5.8108358 -3.9093587
12.833636 7.7001839 -17.537182
13.29198 7.0890551 -13.848722
14.526383 6.7789755 -3.9150136
14.526383 5.8105512 -3.9150152
14.526383 4.8421264 -3.9150174
14.526383 3.8737018 -3.915019
14.526383 2.9052773 -3.9150209
14.526383 1.9368519 -3.9150126
14.526383 0.96842724 -3.9150145
14.526383 2.5931263e-06 -3.9150164
14.526383 -0.96842206 -3.9150183
14.526383 -1.9368514 -3.9150121
14.526383 -2.9052763 -3.9150143
14.526383 -3.8737006 -3.9150162
14.526383 -4.8421249 -3.9150178
14.526383 -5.810555 -3.9150119
13.707485 7.7104602 -17.39933
14.179082 7.08954 -13.841408
15.493991 6.7786202 -3.9211817
15.493991 5.8102469 -3.9211855
15.493991 4.8418732 -3.9211891
15.493991 3.8734946 -3.9211848
15.493991 2.9051251 -3.921186
15.493991 1.9367516 -3.9211895
15.493991 0.96837312 -3.9211855
15.493991 -3.9771578e-07 -3.9211891
15.493991 -0.96837485 -3.9211824
15.493991 -1.9367483 -3.921186
15.493991 -2.905122 -3.9211898
15.493991 -3.8735006 -3.9211855
15.493991 -4.8418698 -3.9211864
15.493991 -5.8102489 -3.9211824
14.585202 7.7215776 -17.250217
15.066305 7.0900245 -13.834084
16.461569 6.7782955 -3.9268432
16.461569 5.8099642 -3.9268429
16.461569 4.8416367 -3.9268405
16.461569 3.8733094 -3.9268382
16.461569 2.9049828 -3.9268458
16.461569 1.9366553 -3.9268434
16.461569 0.96832776 -3.9268405
16.461569 3.547016e-07 -3.9268382
16.461569 -0.96832621 -3.926846
16.461569 -1.9366537 -3.9268436
16.461569 -2.9049811 -3.926841
16.461569 -3.8733127 -3.9268408
16.461569 -4.84164 -3.9268382
16.461569 -5.8099627 -3.9268439
15.466722 7.7333608 -17.092169
15.953587 7.0904841 -13.827195
17.428976 6.7779365 -3.9330139
17.428976 5.80966 -3.9330132
17.428976 4.8413835 -3.9330125
17.428976 3.873107 -3.9330115
17.428976 2.9048305 -3.9330108
17.428976 1.9365541 -3.9330099
17.428976 0.96827769 -3.9330094
17.428976 1.2172679e-06 -3.9330084
17.428976 -0.96827924 -3.9330101
17.428976 -1.9365556 -3.9330094
17.428976 -2.9048321 -3.9330084
17.428976 -3.8731084 -3.9330077
17.428976 -4.8413801 -3.9330149
17.428976 -5.8096561 -3.9330139
16.350874 7.7451496 -16.934048
16.841049 7.0909686 -13.819871
18.396362 6.777607 -3.9386673
18.396362 5.8093815 -3.9386683
18.396362 4.8411469 -3.9386637
18.396362 3.8729174 -3.9386671
18.396362 2.9046922 -3.9386683
18.396362 1.9364576 -3.9386632
18.396362 0.96822828 -3.9386671
18.396362 3.0046951e-06 -3.938668
18.396362 -0.96823144 -3.9386632
18.396362 -1.9364609 -3.9386668
18.396362 -2.9046865 -3.9386678
18.396362 -3.8729205 -3.9386628
18.396362 -4.841146 -3.938664
18.396362 -5.8093753 -3.9386673
17.237793 7.7570062 -16.775032
17.728563 7.0914235 -13.812974
19.363569 6.7772517 -3.9448361
19.363569 5.809072 -3.9448309
19.363569 4.8408937 -3.9448359
19.363569 3.8727145 -3.9448307
19.363569 2.904536 -3.9448354
19.363569 1.9363565 -3.9448302
19.363569 0.96817821 -3.9448354
19.363569 -1.1465008e-06 -3.9448302
19.363569 -0.96817935 -3.9448354
19.363569 -1.9363588 -3.9448299
19.363569 -2.9045334 -3.9448328
19.363569 -3.8727164 -3.9448297
19.363569 -4.8408909 -3.9448326
19.363569 -5.8090692 -3.9448378
18.12743 7.7688999 -16.615538
18.616264 7.0919127 -13.805657
20.330765 6.7769217 -3.950489
20.330765 5.8087897 -3.9504883
20.330765 4.8406572 -3.9504871
20.330765 3.872525 -3.9504862
20.330765 2.9043925 -3.950485
20.330765 1.9362601 -3.9504836
20.330765 0.96813273 -3.9504907
20.330765 4.3811553e-07 -3.9504898
20.330765 -0.96813178 -3.9504886
20.330765 -1.936264 -3.9504874
20.330765 -2.9043965 -3.9504864
20.330765 -3.872529 -3.9504855
20.330765 -4.840661 -3.950484
20.330765 -5.8087883 -3.9504912
19.019875 7.7808614 -16.455137
19.503538 7.0921936 -13.801344
21.297771 6.7765617 -3.9566495
21.297771 5.8084803 -3.9566505
21.297771 4.8404031 -3.9566486
21.297771 3.8723218 -3.9566493
21.297771 2.9042404 -3.9566498
21.297771 1.9361591 -3.9566505
21.297771 0.96807784 -3.9566512
21.297771 6.7129389e-07 -3.9566495
21.297771 -0.96808088 -3.95665
21.297771 -1.9361621 -3.9566507
21.297771 -2.9042432 -3.9566514
21.297771 -3.8723247 -3.9566522
21.297771 -4.8404016 -3.9566503
21.297771 -5.8084831 -3.956651
19.920166 7.794848 -16.267513
20.390474 7.0923386 -13.799191
22.264776 6.7762361 -3.9623005
22.264776 5.8082018 -3.9623053
22.264776 4.8401713 -3.9623077
22.264776 3.8721364 -3.9623024
22.264776 2.9041021 -3.9623072
22.264776 1.9360666 -3.9623015
22.264776 0.96803242 -3.9623065
22.264776 2.2559102e-06 -3.9623089
22.264776 -0.96803308 -3.9623032
22.264776 -1.9360673 -3.9623082
22.264776 -2.9041023 -3.9623024
22.264776 -3.8721328 -3.9623051
22.264776 -4.8401718 -3.9623017
22.264776 -5.8082023 -3.9623044
25.164335 -20.787926 11.25542
20.823696 7.8088846 -16.079212
21.277445 7.0924835 -13.797036
23.231585 6.7758808 -3.9684691
23.231585 5.8078923 -3.9684675
23.231585 4.8399134 -3.968472
23.231585 3.8719292 -3.9684682
23.231585 2.9039497 -3.968472
23.231585 1.9359657 -3.9684682
23.231585 0.96798646 -3.9684727
23.231585 -1.8952858e-06 -3.9684713
23.231585 -0.96798587 -3.9684672
23.231585 -1.9359652 -3.9684715
23.231585 -2.9039497 -3.9684677
23.231585 -3.8719287 -3.9684718
23.231585 -4.8399129 -3.968468
23.231585 -5.8078961 -3.9684746
25.448023 -7.4223423 7.1793618
25.448023 -8.4826765 7.1793613
25.448023 -9.5430069 7.1793618
25.448023 -10.603342 7.1793604
25.448023 -11.663676 7.1793585
25.448023 -12.724011 7.1793575
25.448023 -13.784346 7.1793561
25.448023 -14.844681 7.1793652
25.448023 -15.905016 7.1793633
25.448023 -16.965349 7.1793618
25.448023 -18.025684 7.1793609
25.448023 -19.08602 7.1793594
25.448023 -20.146349 7.1793599
21.730574 7.8230047 -15.889819
22.164362 7.0925951 -13.795313
24.198397 6.7755513 -3.9741223
24.198397 5.8076138 -3.9741225
24.198397 4.8396807 -3.9741209
24.198397 3.8717437 -3.9741211
24.198397 2.9038064 -3.9741213
24.198397 1.9358732 -3.9741192
24.198397 0.9679361 -3.9741197
24.198397 -1.2682125e-06 -3.9741201
24.198397 -0.9679383 -3.9741206
24.198397 -1.9358716 -3.9741185
24.198397 -2.9038086 -3.9741187
24.198397 -3.8717458 -3.9741192
24.198397 -4.8396831 -3.9741194
24.198397 -5.8076162 -3.9741175
25.428642 -7.120018 1.9660347
25.428642 -8.137166 1.9660314
25.428642 -9.1543093 1.9660304
25.428642 -10.171458 1.9660378
25.428642 -11.188606 1.9660342
25.428642 -12.20575 1.9660335
25.428642 -13.222893 1.9660327
25.428642 -14.240037 1.9660319
25.428642 -15.257185 1.9660282
25.428642 -16.274334 1.9660355
25.428642 -17.291477 1.9660348
25.428642 -18.30862 1.9660341
25.428642 -19.325768 1.9660307
25.428642 -20.342913 1.9660304
22.64065 7.8371468 -15.700156
23.051401 7.0927401 -13.793159
25.165005 6.7751908 -3.9802828
25.165005 5.8073087 -3.9802825
25.165005 4.8394222 -3.9802847
25.165005 3.8715405 -3.9802845
25.165005 2.9036543 -3.9802866
25.165005 1.9357722 -3.9802861
25.165005 0.96788603 -3.9802885
25.165005 3.9787283e-06 -3.980288
25.165005 -0.96788716 -3.9802821
25.165005 -1.9357693 -3.9802818
25.165005 -2.9036555 -3.980284
25.165005 -3.8715374 -3.9802835
25.165005 -4.8394237 -3.9802856
25.165005 -5.8073096 -3.9802878
25.410891 -6.8413901 -2.8387051
25.410891 -7.8187346 -2.8387036
25.410891 -8.7960787 -2.8387022
25.410891 -9.7734194 -2.8386981
25.410891 -10.750759 -2.8387048
25.410891 -11.728104 -2.8387039
25.410891 -12.705448 -2.8387022
25.410891 -13.682789 -2.8386981
25.410891 -14.660129 -2.8387053
25.410891 -15.637473 -2.8387041
25.410891 -16.614813 -2.8387001
25.410891 -17.592159 -2.8386991
25.410891 -18.569496 -2.8387053
25.410891 -19.546837 -2.8387012
25.410891 -20.524183 -2.8387001
23.55402 7.8513379 -15.509809
23.938475 7.0928802 -13.790998
25.444481 6.5967155 -7.058001
25.444481 5.6543293 -7.0580034
25.444481 4.7119379 -7.0579982
25.444481 3.769552 -7.058001
25.444481 2.8271658 -7.0580034
25.444481 1.8847747 -7.0579987
25.444481 0.94238853 -7.058001
25.444481 2.179941e-06 -7.0580034
25.444481 -0.94238877 -7.0579987
25.444481 -1.8847749 -7.058001
25.444481 -2.8271611 -7.0580034
25.444481 -3.7695525 -7.0579987
25.44459 -4.7119613 -7.0575156
25.44459 -5.654356 -7.0575123
25.44459 -6.5967422 -7.0575156
25.44459 -7.5391378 -7.0575128
25.44459 -8.4815273 -7.0575175
25.44459 -9.4239235 -7.0575151
25.44459 -10.366318 -7.0575118
25.44459 -11.308704 -7.0575147
25.44459 -12.2511 -7.0575118
25.44459 -13.19349 -7.0575171
25.44459 -14.135884 -7.0575137
25.44459 -15.078276 -7.0575089
25.44459 -16.020666 -7.0575137
25.44459 -16.963062 -7.0575113
25.44459 -17.905453 -7.0575161
25.44459 -18.847847 -7.0575132
25.44459 -19.790234 -7.0575161
25.280857 -20.599222 -7.7895203
24.470705 7.865581 -15.318773
24.825485 7.0929966 -13.789282
26.156446 6.5391135 -8.0513773
26.156446 5.6049557 -8.0513773
26.156446 4.6707978 -8.0513783
26.156446 3.7366316 -8.0513735
26.156446 2.8024735 -8.0513735
26.156446 1.8683161 -8.0513744
26.156446 0.93415815 -8.0513744
26.156446 5.7914571e-07 -8.0513754
26.156336 -0.93415636 -8.0518532
26.156336 -1.8683103 -8.0518503
26.156336 -2.8024631 -8.0518599
26.156336 -3.7366166 -8.051857
26.156336 -4.6707749 -8.0518579
26.156336 -5.604928 -8.0518551
26.156336 -6.5390816 -8.0518532
26.156336 -7.4732394 -8.0518541
26.156336 -8.4073935 -8.0518522
26.156336 -9.3415508 -8.0518532
26.156336 -10.275705 -8.0518513
26.156336 -11.209858 -8.0518599
26.156336 -12.144011 -8.051857
26.156336 -13.078165 -8.0518551
26.156336 -14.012322 -8.051856
26.156336 -14.946476 -8.0518541
26.156336 -15.880633 -8.0518541
26.156336 -16.814787 -8.0518522
26.156336 -17.748941 -8.0518503
26.156336 -18.6831 -8.0518513
26.156336 -19.617249 -8.051857
26.156336 -20.551405 -8.051857
25.413864 7.8870621 -15.030702
25.712627 7.0931368 -13.787121
27.087271 6.5383081 -8.0652494
27.087271 5.6042609 -8.0652485
27.087271 4.6702218 -8.0652523
27.087271 3.7361743 -8.0652514
27.087271 2.8021309 -8.0652485
27.087271 1.8680921 -8.0652533
27.087271 0.93404448 -8.0652523
27.087271 8.7190529e-07 -8.0652485
27.087271 -0.93404675 -8.0652475
27.087271 -1.8680855 -8.0652523
27.087271 -2.8021328 -8.0652514
27.087271 -3.7361765 -8.0652485
27.087271 -4.6702151 -8.0652523
27.087271 -5.6042633 -8.0652514
27.087271 -6.5383067 -8.0652485
27.087271 -7.4723539 -8.0652466
27.087271 -8.4063921 -8.0652514
27.087271 -9.3404398 -8.0652504
27.087271 -10.274484 -8.0652475
27.087271 -11.208523 -8.0652523
27.087271 -12.14257 -8.0652514
27.087271 -13.076614 -8.0652475
27.087271 -14.010661 -8.0652466
27.087271 -14.9447 -8.0652514
27.087271 -15.878749 -8.0652504
27.087271 -16.812792 -8.0652466
27.087271 -17.746832 -8.0652523
27.087271 -18.680878 -8.0652504
27.087271 -19.614922 -8.0652475
27.087271 -20.548964 -8.0652542
26.366926 7.9100766 -14.721991
26.599699 7.0932527 -13.785396
30.719172 7.1678061 2.7900853
27.325569 7.9332261 -14.411477
27.480268 7.0916805 -13.809097
31.743883 7.1679707 2.7929618
28.289839 7.9565167 -14.099145
28.358393 7.0895977 -13.84054
32.763004 7.1669078 2.774569
29.259785 7.9799409 -13.784965
29.236118 7.0875478 -13.871541
33.763607 7.1619778 2.6895568
30.23546 8.0035048 -13.468935
30.113214 7.0854611 -13.902942
34.78093 7.160779 2.6689048
30.991667 7.0838103 -13.927891
35.802399 7.1604819 2.6637378
31.874193 7.0831547 -13.937776
32.756557 7.0824981 -13.947659
33.63876 7.0818462 -13.957541
34.567215 7.0907121 -13.823747
35.537682 7.1075392 -13.569872
36.512028 7.1242962 -13.316961
37.529934 7.148562 -12.950895
