# .PCD v0.7 - Point Cloud Data file format
VERSION 0.7
FIELDS x y z
SIZE 4 4 4
TYPE F F F
COUNT 1 1 1
WIDTH 1527
HEIGHT 1
VIEWPOINT 0 0 0 1 0 0 0
POINTS 1527
DATA ascii
130.60172 341.5737 -633.33002
131.3868 333.52032 -626.04022
132.18137 325.36954 -618.66223
132.98561 317.1196 -611.1944
133.79971 308.76855 -603.63519
134.62383 300.3147 -595.98285
135.45818 291.75607 -588.23572
136.3029 283.0907 -580.39191
137.15825 274.31653 -572.44958
138.0244 265.43155 -564.4071
138.90201 256.43448 -556.25812
139.79037 247.32149 -548.00916
140.6902 238.09117 -539.65393
141.60168 228.74117 -531.19049
142.52504 219.26933 -522.61664
143.46054 209.67313 -513.93018
144.40839 199.95007 -505.12906
145.36885 190.0977 -496.21075
146.34216 180.11348 -487.1731
147.3286 169.9946 -478.01355
148.32843 159.73834 -468.72968
149.34244 149.34244 -459.31424
150.36987 138.80298 -449.77399
151.41156 128.11749 -440.1015
152.46777 117.28295 -430.29413
153.53883 106.29615 -420.34891
154.62503 95.153847 -410.263
155.7267 83.852867 -400.03345
156.84421 72.389641 -389.65701
157.97786 60.760723 -379.13058
159.12801 48.962418 -368.45081
160.29504 36.99115 -357.61444
161.47931 24.842966 -346.61798
162.68181 12.514035 -335.45224
163.90175 4.8200225e-05 -324.12454
165.14012 -12.703055 -312.62576
166.39734 -25.599611 -300.95184
167.67387 -38.693905 -289.09888
168.97012 -51.990753 -277.06259
170.28656 -65.494812 -264.83875
171.6237 -79.210915 -252.42296
172.98198 -93.144089 -239.81071
174.36195 -107.29961 -226.99721
175.7641 -121.68282 -213.97745
177.18898 -136.29922 -200.74677
178.63791 -151.15508 -187.29301
180.10995 -166.25531 -173.6243
181.60649 -181.60643 -159.72844
183.12808 -197.21487 -145.59966
184.67462 -213.08612 -131.23946
186.24509 -229.2247 -116.65691
187.8425 -245.6402 -101.8242
189.46758 -262.33969 -86.734901
191.12097 -279.33069 -71.382065
192.80351 -296.62076 -55.759033
194.51593 -314.21799 -39.858501
196.25905 -332.13068 -23.672966
198.03368 -350.36728 -7.1946936
199.8407 -368.93661 9.5842533
201.681 -387.84802 26.672178
203.5555 -407.11102 44.077946
205.46518 -426.73538 61.810127
207.41104 -446.73145 79.878189
209.3941 -467.10992 98.291855
211.41545 -487.88181 117.06089
213.4762 -509.05862 136.19586
141.0531 503.76111 -629.8371
141.04927 493.67252 -629.87012
142.45224 488.40775 -617.77344
143.88385 483.03873 -605.42981
145.34409 477.55911 -592.83948
146.83424 471.96722 -579.99097
148.35622 466.26245 -566.86823
140.97707 433.00101 -630.49268
140.9707 422.91214 -630.54761
140.96434 412.82419 -630.60248
140.95798 402.73709 -630.65741
140.9516 392.65088 -630.71222
140.94524 382.56573 -630.76715
140.93887 372.48138 -630.82196
140.93251 362.39789 -630.87689
140.92615 352.3154 -630.9317
140.91978 342.23376 -630.98657
140.91512 332.15704 -631.02679
141.23991 322.83411 -628.22644
142.09254 314.63348 -620.87488
142.95552 306.33325 -613.43408
143.82904 297.93161 -605.9024
144.71332 289.42667 -598.27808
145.60852 280.81641 -590.55939
146.51488 272.09912 -582.74469
147.43259 263.27252 -574.83197
148.36186 254.33463 -566.81958
149.30293 245.28342 -558.70544
150.25601 236.11664 -550.48785
151.22183 226.83275 -542.1604
152.19965 217.42813 -533.72949
153.19019 207.901 -525.18884
154.19371 198.24913 -516.53625
155.21046 188.46989 -507.76959
156.24072 178.56081 -498.88651
157.28474 168.51939 -489.8848
158.34282 158.34282 -480.7619
159.41522 148.02841 -471.51541
160.50226 137.57336 -462.14282
161.60419 126.97473 -452.6416
162.72195 116.22995 -443.00412
163.85471 105.33518 -433.23727
165.00333 94.287605 -423.33359
166.1682 83.084122 -413.28998
167.34961 71.721268 -403.10364
168.54793 60.195766 -392.77139
169.76355 48.503853 -382.29007
170.99684 36.642231 -371.65652
172.24815 24.606892 -360.86734
173.51794 12.394165 -349.91907
174.80659 4.1076692e-05 -338.80807
176.1145 -12.579594 -327.53091
177.44283 -25.348946 -316.07794
178.79066 -38.312225 -304.45676
180.1591 -51.474041 -292.65762
181.54866 -64.838753 -280.67661
182.95982 -78.411316 -268.50928
184.3931 -92.196579 -256.15121
185.84901 -106.19944 -243.59807
187.32811 -120.42518 -230.84514
188.83092 -134.87921 -217.88754
190.35803 -149.56697 -204.72052
191.91006 -164.49431 -191.33859
193.48759 -179.66701 -177.73674
195.0921 -195.0921 -163.90245
196.72261 -210.7742 -149.8438
198.37894 -226.71873 -135.56279
200.06166 -242.93201 -121.05404
201.77319 -259.42264 -106.29693
203.51424 -276.19791 -91.285164
205.28561 -293.26511 -76.012115
207.08807 -310.63211 -60.470848
208.92249 -328.30676 -44.654255
210.78969 -346.29733 -28.554956
212.69057 -364.61234 -12.165246
214.62602 -383.26071 4.5226665
216.59705 -402.25156 21.517183
218.60458 -421.5946 38.826771
220.64972 -441.29944 56.460144
222.73344 -461.37637 74.426498
224.85693 -481.8363 92.735542
227.02127 -502.68988 111.39693
229.22771 -523.94897 130.4212
152.14597 507.15323 -621.64783
152.93266 499.58005 -615.31683
154.47272 494.31271 -602.92358
156.04359 488.93658 -590.2821
157.64775 483.45312 -577.37286
159.28522 477.85571 -564.19543
160.9576 472.1423 -550.7373
162.66493 466.30615 -536.99774
164.40886 460.34485 -522.96362
152.0528 415.61102 -622.39758
152.04588 405.45575 -622.45319
152.03896 395.30133 -622.50885
152.03206 385.14789 -622.56445
152.02513 374.99539 -622.62006
152.01823 364.84378 -622.67572
152.01132 354.69312 -622.73132
152.00441 344.54333 -622.78693
151.9975 334.39456 -622.84253
151.9906 324.24667 -622.89813
151.98508 314.10251 -622.94257
151.99796 303.99594 -622.83881
152.88933 295.58606 -615.66571
153.82185 287.13409 -608.16132
154.76582 278.57849 -600.56476
155.72145 269.91721 -592.87451
156.68895 261.14825 -585.08862
157.66856 252.26973 -577.20538
158.66048 243.27939 -569.22296
159.66498 234.17531 -561.13953
160.68227 224.95518 -552.953
161.7126 215.61678 -544.66144
162.75623 206.15791 -536.263
163.81396 196.57677 -527.75104
164.88498 186.86964 -519.13214
165.97009 177.03482 -510.39978
167.0696 167.06964 -501.5517
168.18375 156.97156 -492.58566
169.31287 146.73784 -483.49921
170.45726 136.36583 -474.28992
171.6172 125.85265 -464.95529
172.79306 115.1954 -455.49274
173.98514 104.39113 -445.8996
175.19377 93.436722 -436.17325
176.41934 82.329063 -426.31076
177.66278 71.065132 -416.30423
178.92323 59.641087 -406.16086
180.20172 48.053852 -395.8725
181.4986 36.299713 -385.43604
182.81427 24.375263 -374.84824
184.14917 12.276646 -364.1059
185.50369 5.1590287e-05 -353.20551
186.8783 -12.458572 -342.14349
188.27344 -25.1031 -330.91638
189.68953 -37.937893 -319.52039
191.12712 -50.967209 -307.95163
192.5874 -64.195816 -296.20023
194.06941 -77.627777 -284.2739
195.5744 -91.26799 -272.16269
197.10292 -105.12154 -259.86203
198.65553 -119.19323 -247.36777
200.23279 -133.48848 -234.675
201.83528 -148.01251 -221.77902
203.46365 -162.77087 -208.67503
205.11848 -177.76935 -195.3578
206.80048 -193.01373 -181.82217
208.51027 -208.51024 -168.06288
210.24858 -224.26512 -154.07399
212.01523 -240.28387 -139.85722
213.80907 -256.57089 -125.42137
215.63353 -273.1358 -110.73933
217.4894 -289.98581 -95.804436
219.37747 -307.12848 -80.610237
221.29863 -324.57129 -65.150047
223.25374 -342.32236 -49.416588
225.24368 -360.38992 -33.40263
227.26944 -378.78244 -17.100605
229.33195 -397.50873 -0.50281322
231.43225 -416.578 16.399038
233.5703 -435.99789 33.604664
235.7493 -455.78198 51.140011
237.96936 -475.93869 69.005623
240.23163 -496.47867 87.210907
242.53731 -517.4129 105.76566
163.45509 510.79721 -612.85046
165.10443 505.63235 -600.40723
166.7879 500.36371 -587.70642
168.50606 494.98657 -574.74396
170.25998 489.49747 -561.51154
172.05136 483.8945 -547.99658
173.88026 478.17081 -534.19861
175.74847 472.32407 -520.10406
177.66493 466.37051 -505.64551
179.61942 460.27481 -490.89999
181.59706 453.99271 -475.97989
163.26906 387.76401 -614.25409
163.26158 377.54245 -614.31049
163.2541 367.32181 -614.36682
163.24663 357.10208 -614.42316
163.23917 346.88327 -614.47955
163.2317 336.66541 -614.53589
163.22423 326.44849 -614.59229
163.21677 316.23248 -614.64862
163.20929 306.01746 -614.70496
163.20332 295.806 -614.75006
163.19783 285.59628 -614.79132
163.77831 276.37589 -610.41205
164.78154 267.76999 -602.8432
165.79713 259.05804 -595.18109
166.82535 250.23805 -587.42389
167.86638 241.30794 -579.57001
168.92047 232.26567 -571.61737
169.9879 223.10918 -563.56427
171.06889 213.83617 -555.40869
172.16374 204.44447 -547.14874
173.27269 194.93181 -538.78241
174.39601 185.29581 -530.30768
175.534 175.53403 -521.72223
176.6875 165.64452 -513.01965
177.8557 155.62373 -504.20636
179.03941 145.46957 -495.27576
180.23903 135.17926 -486.22552
181.4548 124.7502 -477.05319
182.68709 114.17945 -467.75626
183.93623 103.46414 -458.33218
185.20258 92.601303 -448.77838
186.48648 81.58786 -439.09207
187.78831 70.420654 -429.27057
189.10843 59.096436 -419.31091
190.44725 47.611813 -409.21027
191.80586 35.963612 -398.96036
193.1833 24.147938 -388.56848
194.58064 12.161335 -378.02634
195.99837 1.1745999e-05 -367.33035
197.43689 -12.339737 -356.4776
198.8967 -24.862022 -345.46423
200.37823 -37.570915 -334.28683
201.88203 -50.47047 -322.94165
203.40857 -63.565105 -311.4249
204.95834 -76.859337 -299.7326
206.53194 -90.357735 -287.86081
208.13068 -104.06533 -275.79919
209.75356 -117.98631 -263.55573
211.40192 -132.12622 -251.11961
213.0764 -146.49002 -238.48657
214.77762 -161.08321 -225.6519
216.50623 -175.91129 -212.61053
218.26289 -190.98001 -199.35747
220.04829 -206.29521 -185.8877
221.86314 -221.86311 -172.19579
223.70818 -237.68996 -158.27599
225.58226 -253.78003 -144.13718
227.48607 -270.13971 -129.77405
229.42229 -286.77786 -115.16645
231.39174 -303.70163 -100.30799
233.39529 -320.91855 -85.192368
235.43387 -338.43622 -69.812523
237.50836 -356.26248 -54.161785
239.61974 -374.40585 -38.232605
241.76898 -392.8746 -22.017838
243.95712 -411.67767 -5.5094647
246.18524 -430.82413 11.30036
248.45444 -450.32367 28.42016
250.76587 -470.18597 45.858452
253.12068 -490.4213 63.624203
255.52017 -511.04031 81.726906
175.77982 516.99951 -597.87677
177.57637 511.83783 -585.12012
179.40947 506.56796 -572.104
181.28081 501.1882 -558.81635
183.19217 495.6965 -545.24438
185.14369 490.08627 -531.38739
187.13722 484.35522 -517.23212
189.18359 478.52325 -502.7016
191.27264 472.556 -487.86801
193.384 466.39676 -472.87604
174.6442 369.83481 -605.94049
174.63615 359.54501 -605.99762
174.6281 349.25623 -606.05475
174.62006 338.96838 -606.11194
174.612 328.68143 -606.16901
174.60396 318.39548 -606.22614
174.59592 308.11047 -606.2832
174.58788 297.82639 -606.34033
174.57982 287.54324 -606.39746
174.57286 277.26279 -606.44696
174.56644 266.98395 -606.49261
174.76016 257.00021 -605.11707
175.83583 248.23883 -597.47913
176.92426 239.36813 -589.75055
178.02625 230.38696 -581.92578
179.14206 221.29315 -574.00281
180.27196 212.08467 -565.97986
181.41617 202.75926 -557.85516
182.57503 193.31476 -549.62665
183.74876 183.74881 -541.29224
184.9377 174.05904 -532.8501
186.14214 164.24309 -524.29785
187.36234 154.2984 -515.63367
188.59865 144.22249 -506.85501
189.85204 134.01321 -497.95526
191.12154 123.66692 -488.94101
192.40813 113.1813 -479.80536
193.71216 102.55355 -470.5459
195.03398 91.780731 -461.16013
196.37399 80.859901 -451.64532
197.73253 69.787971 -441.99887
199.10999 58.561749 -432.21799
200.50677 47.178066 -422.29993
201.92331 35.633522 -412.2417
203.35999 23.924765 -402.04044
204.81725 12.048102 -391.69281
206.2963 4.7069107e-06 -381.19052
207.79611 -12.223283 -370.54092
209.3179 -24.625612 -359.73532
210.86214 -37.210957 -348.77032
212.42932 -49.983349 -337.64227
214.01999 -62.947052 -326.34753
215.63464 -76.106308 -314.88254
217.27385 -89.46566 -303.2431
218.93817 -103.02969 -291.42535
220.6282 -116.8031 -279.42517
222.34451 -130.79083 -267.23828
224.08774 -144.99794 -254.86024
225.85941 -159.43013 -242.28026
227.6584 -174.09169 -229.50621
229.48628 -188.98866 -216.52716
231.34377 -204.12679 -203.33788
233.23157 -219.51204 -189.93332
235.15041 -235.15036 -176.30835
237.1011 -251.0482 -162.45721
239.08141 -267.20862 -148.39578
241.09404 -283.63998 -134.10477
243.14085 -300.35046 -119.57104
245.22273 -317.34698 -104.78856
247.34056 -334.63718 -89.750618
249.49527 -352.22861 -74.450729
251.68788 -370.12924 -58.881851
253.91936 -388.3472 -43.037056
256.19077 -406.89111 -26.90868
258.50317 -425.7699 -10.489093
260.8577 -444.99249 6.2295089
263.25549 -464.56854 23.255491
265.69778 -484.50772 40.597366
268.18585 -504.8204 58.264084
270.72092 -525.51703 76.264671
188.4093 523.35919 -582.52319
190.35825 518.19751 -569.45312
192.34798 512.92792 -556.1098
194.38034 507.54871 -542.48041
196.45547 502.05292 -528.56427
198.57539 496.43857 -514.34766
200.75229 490.72787 -499.74915
202.97812 484.89218 -484.82242
205.22377 478.85553 -469.76279
207.51967 472.68375 -454.36615
186.1647 341.30203 -597.57574
186.15608 330.94418 -597.63361
186.14743 320.58725 -597.69153
186.13879 310.23135 -597.74945
186.13017 299.87646 -597.80737
186.12154 289.52237 -597.86523
186.11292 279.16937 -597.9231
186.10426 268.81726 -597.98102
186.0968 258.46777 -598.03113
186.08989 248.11987 -598.07745
186.08357 237.77345 -598.11993
186.98532 228.53763 -592.07257
188.14839 219.5065 -584.27271
189.32545 210.36163 -576.37933
190.51732 201.10162 -568.38641
191.72429 191.72429 -560.2923
192.94666 182.22742 -552.09503
194.18469 172.60866 -543.79242
195.43874 162.86566 -535.38269
196.70909 152.99596 -526.86365
197.99605 142.99721 -518.23303
199.29996 132.86665 -509.48874
200.62115 122.60186 -500.6286
201.95999 112.2 -491.65018
203.31749 101.65874 -482.54651
204.69269 90.974579 -473.32431
206.08661 80.144768 -463.97647
207.49963 69.166565 -454.50046
208.93219 58.036777 -444.89365
210.38464 46.752182 -435.1532
211.85744 35.309578 -425.27646
213.351 23.705641 -415.26031
214.86577 11.937001 -405.10205
216.40221 -2.5606902e-05 -394.79846
217.96077 -12.108879 -384.34656
219.54195 -24.393505 -373.74298
221.14705 -36.857838 -362.97888
222.77496 -49.505524 -352.06186
224.42702 -62.340839 -340.98279
226.10379 -75.367889 -329.73834
227.80577 -88.59111 -318.32449
229.53358 -102.01488 -306.73755
231.2878 -115.64388 -294.97345
233.06905 -129.48277 -283.0282
234.87793 -143.53648 -270.89761
236.7151 -157.81001 -258.57715
238.58127 -172.30867 -246.06235
240.4771 -187.0377 -233.34888
242.40424 -202.00352 -220.42503
244.36154 -217.21028 -207.29907
246.35071 -232.66455 -193.95941
248.37253 -248.37254 -180.40079
250.42781 -264.34042 -166.61772
252.51315 -280.5701 -152.63313
254.63351 -297.07242 -138.41362
256.78979 -313.85416 -123.95342
258.98291 -330.92258 -109.24609
261.21378 -348.2851 -94.285355
263.48346 -365.94919 -79.064774
265.79288 -383.92303 -63.577236
268.14316 -402.21472 -47.815922
270.5354 -420.83279 -31.773329
272.97067 -439.78604 -15.441924
275.45023 -459.08371 1.1862779
277.97522 -478.73502 18.119211
280.54691 -498.75006 35.365494
283.16666 -519.13885 52.933903
201.35271 529.87561 -566.79126
203.46179 524.71722 -553.39185
205.61617 519.45135 -539.70477
207.81598 514.07111 -525.72888
210.06406 508.57617 -511.44632
212.37268 502.98795 -496.77924
214.73259 497.27551 -481.78622
217.11736 491.37088 -466.63538
219.55188 485.32526 -451.16833
197.85156 322.81042 -589.03467
197.8423 312.38263 -589.09338
197.83307 301.95572 -589.1521
197.82382 291.52994 -589.21082
197.81459 281.10495 -589.26953
197.80536 270.68106 -589.32819
197.79613 260.25803 -589.3869
197.78688 249.83612 -589.44556
197.77765 239.41508 -589.50421
197.77087 228.99786 -589.54724
197.76411 218.58139 -589.59021
198.23242 208.66573 -586.61505
199.47025 199.47026 -578.75085
200.7236 190.15924 -570.78802
201.99348 180.73105 -562.72028
203.27887 171.18225 -554.55396
204.5807 161.51109 -546.28308
205.89934 151.71538 -537.90558
207.23508 141.79245 -529.41937
208.58827 131.73999 -520.82233
209.95923 121.55538 -512.11224
211.34836 111.23601 -503.28693
212.75598 100.77917 -494.34406
214.18245 90.182121 -485.28128
215.62822 79.441978 -476.0961
217.09436 68.556129 -466.7814
218.57983 57.521027 -457.34399
220.08575 46.333878 -447.77652
221.61259 34.991501 -438.07626
223.16075 23.49061 -428.24051
224.7307 11.828 -418.26636
226.32288 2.8300949e-05 -408.15082
227.93779 -11.99666 -397.89105
229.57591 -24.165888 -387.4837
231.23775 -36.511192 -376.92569
232.92383 -49.036564 -366.21381
234.63466 -61.745953 -355.34439
236.37172 -74.643692 -344.30862
238.13377 -87.73349 -333.11392
239.92229 -101.01992 -321.7511
241.7379 -114.50736 -310.21631
243.58118 -128.20059 -298.50555
245.45279 -142.10423 -286.61484
247.35339 -156.22311 -274.54001
249.28365 -170.56253 -262.27664
251.24426 -185.1273 -249.8204
253.23598 -199.92313 -237.16676
255.25951 -214.95528 -224.31088
257.31564 -230.22977 -211.24785
259.40622 -245.75328 -197.96582
261.53 -261.52994 -184.47324
263.68774 -277.56601 -170.76468
265.87802 -293.86517 -156.84935
268.10501 -310.43732 -142.70097
270.3696 -327.28952 -128.31349
272.67279 -344.42874 -113.68092
275.01556 -361.86258 -98.796806
277.39893 -379.59848 -83.654816
279.82397 -397.64456 -68.248016
282.29181 -416.00891 -52.569542
284.80353 -434.70013 -36.611958
287.36035 -453.7269 -20.367943
289.9635 -473.0983 -3.8296671
292.61426 -492.82397 13.011122
295.3139 -512.91364 30.162579
214.62251 536.55634 -550.66248
216.89993 531.40485 -536.91711
219.22546 526.14117 -522.88129
221.60361 520.76855 -508.52783
224.04442 515.30219 -493.79617
226.53961 509.71417 -478.73648
229.06511 503.94327 -463.49365
231.63953 498.02505 -447.95569
234.27246 491.9722 -432.06451
209.68889 293.56442 -580.43951
209.67903 283.06674 -580.49902
209.66917 272.56998 -580.55859
209.65932 262.07416 -580.61804
209.64944 251.57936 -580.67749
209.63959 241.08556 -580.73706
209.62973 230.59273 -580.79657
209.61989 220.10091 -580.85608
209.61267 209.61272 -580.8996
209.60542 199.12517 -580.94324
209.61792 188.65614 -580.86792
210.89226 179.25839 -573.17651
212.22328 169.77863 -565.14313
213.57118 160.17842 -557.00781
214.93703 150.45593 -548.76422
216.31975 140.60783 -540.4187
217.72038 130.63228 -531.96515
219.13927 120.5266 -523.40149
220.57675 110.28842 -514.7254
222.03325 99.915024 -505.93475
223.50909 89.403633 -497.02722
225.0047 78.751663 -488.00052
226.52043 67.956154 -478.85217
228.05675 57.014229 -469.57971
229.61403 45.922844 -460.18069
231.19353 34.679047 -450.64755
232.79411 23.279415 -440.98724
234.41699 11.720864 -431.19223
236.06267 3.0853695e-05 -421.25977
237.7316 -11.886586 -411.18668
239.42432 -23.94239 -400.97037
241.14131 -36.1712 -390.60739
242.88309 -48.576595 -380.09482
244.65024 -61.162525 -369.42911
246.44328 -73.93293 -358.60715
248.26279 -86.891907 -347.62546
250.10939 -100.04377 -336.48022
251.98459 -113.39304 -325.16232
253.88716 -126.94358 -313.67932
255.8187 -140.7003 -302.02148
257.77985 -154.66791 -290.18497
259.77127 -168.85132 -278.16556
261.79373 -183.25554 -265.95905
263.84793 -197.88594 -253.56093
265.9346 -212.7476 -240.96669
268.05453 -227.84633 -228.17168
270.20856 -243.1877 -215.1709
272.39749 -258.77756 -201.9597
274.62216 -274.62216 -188.53255
276.88345 -290.72763 -174.8844
279.17767 -307.0954 -161.03761
281.51019 -323.73666 -146.95961
283.88205 -340.65842 -132.64427
286.29419 -357.86774 -118.0857
288.74768 -375.37198 -103.27748
291.24359 -393.17883 -88.213394
293.78302 -411.2962 -72.886559
296.36581 -429.73038 -57.298119
298.99573 -448.49362 -41.424984
301.67279 -467.5928 -25.267557
304.39819 -487.03711 -8.8183184
307.17328 -506.83591 7.930902
309.99945 -526.99908 24.988369
228.23195 543.40942 -534.11761
230.68428 538.26337 -520.0213
233.19296 533.01251 -505.60101
235.76712 527.66931 -490.80444
238.39874 522.20679 -475.67761
241.06824 516.57483 -460.33295
243.78299 510.78345 -444.72821
246.56042 504.86191 -428.76321
221.70042 274.48627 -571.66162
221.68993 263.9166 -571.72198
221.67943 253.34798 -571.78229
221.66893 242.78027 -571.84259
221.65845 232.21362 -571.90289
221.64793 221.64796 -571.96326
221.63745 211.08334 -572.02362
221.62697 200.51967 -572.08386
221.61858 189.95877 -572.13214
221.61087 179.39934 -572.17633
221.60248 168.84004 -572.22461
222.41522 158.86807 -567.55286
223.82521 149.21681 -559.44812
225.25317 139.44243 -551.23999
226.69948 129.54259 -542.92645
228.16522 119.51514 -534.50122
229.64928 109.35684 -525.97064
231.15277 99.065514 -517.32831
232.67609 88.638542 -508.57211
234.2196 78.073219 -499.69977
235.78375 67.366837 -490.70889
237.36891 56.516418 -481.59717
238.97554 45.519154 -472.36203
240.60406 34.37204 -463.00101
242.25494 23.071888 -453.51163
243.92862 11.615687 -443.89108
245.62561 2.4958319e-05 -434.13669
247.34723 -11.778401 -424.24054
249.09225 -23.723007 -414.2099
250.86209 -35.837463 -404.03659
252.65726 -48.125134 -393.71774
254.47832 -60.590038 -383.25018
256.32578 -73.235962 -372.63049
258.20029 -86.066772 -361.85568
260.10245 -99.086578 -350.92203
262.03281 -112.29977 -339.82599
263.992 -125.71053 -328.56412
265.98077 -139.32324 -317.13254
268.00073 -153.14328 -305.52158
270.05057 -167.17415 -293.73883
272.13202 -181.42133 -281.77448
274.24579 -195.8898 -269.62424
276.39264 -210.58487 -257.28378
278.57339 -225.51175 -244.74872
280.78879 -240.67603 -232.01411
283.03976 -256.08356 -219.07529
285.32709 -271.73999 -205.92751
287.65167 -287.65164 -192.56538
290.01328 -303.82346 -178.99062
292.41031 -320.25888 -165.21228
294.84729 -336.96829 -151.20404
297.32526 -353.95865 -136.96045
299.84518 -371.23688 -122.47549
302.40823 -388.81055 -107.74287
305.01547 -406.68729 -92.75605
307.66803 -424.87494 -77.508698
310.36716 -443.38159 -61.9939
313.11407 -462.21597 -46.204357
315.91 -481.38666 -30.132895
318.75635 -500.9028 -13.77174
321.65445 -520.7738 2.8868456
242.19273 550.43805 -517.14899
244.83398 545.31207 -502.65692
247.54263 540.09302 -487.79486
250.31189 534.7572 -472.60037
253.1255 529.26251 -457.16248
255.98352 523.60272 -441.48105
258.90588 517.81183 -425.44641
261.8967 511.88904 -409.03638
233.86786 244.49821 -562.82635
233.8567 233.85674 -562.88757
233.84555 223.21625 -562.94879
233.8344 212.57675 -563.00989
233.82326 201.93826 -563.07104
233.8121 191.30087 -563.1322
233.8017 180.66499 -563.18927
233.79204 170.03061 -563.24231
233.78313 159.39763 -563.2912
233.77496 148.76588 -563.336
234.04045 138.29668 -561.87927
235.53076 128.47133 -553.70221
237.04015 118.52014 -545.42041
238.56902 108.44054 -537.03174
240.11774 98.230034 -528.53412
241.6875 87.886421 -519.92108
243.27711 77.406357 -511.19916
244.88777 66.787567 -502.36169
246.5199 56.027287 -493.40646
248.17393 45.122551 -484.33112
249.8503 34.070503 -475.13312
251.54947 22.868139 -465.80994
253.27191 11.512369 -456.35916
255.01811 1.8782837e-05 -446.77805
256.78854 -11.67214 -437.06396
258.58374 -23.507534 -427.21396
260.40424 -35.509651 -417.22528
262.25143 -47.682072 -407.08981
264.12411 -60.028164 -396.81488
266.02371 -72.551918 -386.39194
267.95084 -85.25705 -375.81812
269.9061 -98.147644 -365.09
271.89008 -111.22776 -354.20407
273.90347 -124.50157 -343.15695
275.9469 -137.97343 -331.94498
278.02103 -151.64781 -320.56451
280.12659 -165.52934 -309.01163
282.26428 -179.6227 -297.28247
284.43594 -193.93358 -285.36679
286.64017 -208.46555 -273.27264
288.87881 -223.22455 -260.98938
291.15274 -238.21584 -248.51286
293.46271 -253.44505 -235.83827
295.80963 -268.91788 -222.96104
298.1944 -284.64011 -209.87619
300.61795 -300.61795 -196.57857
303.0787 -316.85501 -183.07684
305.57755 -333.3573 -169.36612
308.11792 -350.13397 -155.42743
310.7009 -367.19199 -141.25497
313.32751 -384.53836 -126.84298
315.99896 -402.18051 -112.18525
318.71637 -420.1261 -97.275368
321.48087 -438.38297 -82.10688
324.29379 -456.95938 -66.672928
327.15634 -475.86377 -50.966438
330.06985 -495.1048 -34.980309
333.0358 -514.69165 -18.706844
256.52625 557.66577 -499.6998
259.37054 552.57208 -484.77188
262.27777 547.36237 -469.51407
265.23807 542.0083 -453.97745
268.23978 536.47968 -438.2236
271.31024 530.8244 -422.10907
274.45078 525.03625 -405.62653
246.21779 224.80753 -553.80151
246.20595 214.09213 -553.86359
246.19414 203.37782 -553.9256
246.18231 192.66444 -553.98767
246.1705 181.95213 -554.04968
246.15868 171.24089 -554.11176
246.14687 160.53059 -554.17371
246.13661 149.82233 -554.22754
246.12717 139.1154 -554.2771
246.11852 128.40965 -554.32257
246.10985 117.70475 -554.36804
247.34132 107.53973 -547.90479
248.93356 97.408852 -539.54822
250.54645 87.146591 -531.08337
252.18037 76.750565 -522.50818
253.83572 66.218056 -513.82031
255.51382 55.546471 -505.01318
257.21338 44.732803 -496.09341
258.9357 33.774231 -487.05411
260.68124 22.667971 -477.89297
262.4505 11.410902 -468.60751
264.24393 5.5957586e-05 -459.19513
266.06201 -11.567908 -449.65317
267.9053 -23.296093 -439.97913
269.77432 -35.18795 -430.16995
271.66959 -47.246811 -420.22308
273.59167 -59.476418 -410.13544
275.54117 -71.880264 -399.9039
277.51962 -84.462509 -389.52032
279.5257 -97.226334 -378.99188
281.56097 -110.17599 -368.31021
283.6261 -123.31571 -357.47174
285.72174 -136.64954 -346.47321
287.8486 -150.18182 -335.31088
290.00735 -163.91721 -323.98108
292.19876 -177.86009 -312.4801
294.42349 -192.01532 -300.80405
296.68237 -206.38766 -288.94876
298.9762 -220.98236 -276.91006
301.30573 -235.80449 -264.68387
303.67307 -250.86038 -252.25941
306.07669 -266.15363 -239.64445
308.51868 -281.69092 -226.82832
310.99994 -297.47818 -213.80591
313.52142 -313.52136 -200.57245
316.08023 -329.82285 -187.14307
318.67984 -346.39108 -173.49957
321.3226 -363.23422 -159.62978
324.00949 -380.35892 -145.52805
326.74173 -397.77252 -131.18845
329.52042 -415.48227 -116.60502
332.34677 -433.49576 -101.7715
335.22208 -451.82101 -86.68119
338.14752 -470.46613 -71.327454
341.12451 -489.43951 -55.703419
344.15436 -508.74988 -39.801922
347.23853 -528.40643 -23.61537
271.25034 565.10492 -481.74008
274.29849 560.02612 -466.40906
277.40729 554.8147 -450.77292
280.55307 549.41644 -434.95102
283.77197 543.8963 -418.76105
287.06561 538.24811 -402.19531
258.73013 194.04761 -544.71179
258.71762 183.25833 -544.77478
258.70511 172.47011 -544.83765
258.6926 161.68294 -544.90057
258.68011 150.89677 -544.9635
258.6676 140.11169 -545.02637
258.65509 129.32761 -545.08929
258.64594 118.54606 -545.13538
258.63675 107.76534 -545.18152
258.62759 96.985397 -545.2276
259.25836 86.419495 -542.05511
260.93488 76.105995 -533.62286
262.63324 65.65831 -525.08081
264.35382 55.073761 -516.42682
266.09714 44.349533 -507.65866
267.86359 33.482983 -498.77414
269.65454 22.471239 -489.76627
271.46869 11.311199 -480.64185
273.30743 1.3625066e-05 -471.39371
275.17123 -11.465496 -462.01947
277.06064 -23.088346 -452.51651
278.97617 -34.872002 -442.88214
280.91837 -46.819683 -433.11371
282.88779 -58.934902 -423.20825
284.88504 -71.221207 -413.16287
286.91068 -83.682251 -402.97461
288.96533 -96.321709 -392.64059
291.04962 -109.14357 -382.15744
293.16528 -122.15219 -371.51642
295.31082 -135.35085 -360.72516
297.48801 -148.744 -349.77475
299.69754 -162.33618 -338.66177
301.94009 -176.13171 -327.38245
304.21652 -190.13527 -315.93298
306.52753 -204.35167 -304.30954
308.8739 -218.78568 -292.50821
311.25647 -233.44231 -280.52484
313.67609 -248.32689 -268.3551
316.13358 -263.44461 -255.99464
318.62997 -278.80115 -243.43906
321.1673 -294.40329 -230.67715
323.74411 -310.25473 -217.71681
326.36258 -326.36258 -204.54692
329.01834 -342.72742 -191.18941
331.71771 -359.36084 -177.61266
334.46173 -376.26941 -163.81131
337.25156 -393.46011 -149.77969
340.08826 -410.93997 -135.51207
342.97311 -428.71634 -121.00236
345.90732 -446.79697 -106.24436
348.89218 -465.18954 -91.231743
351.92899 -483.90231 -75.957794
355.01917 -502.94376 -60.415573
358.16403 -522.32251 -44.597996
286.37357 572.74719 -463.29004
289.63168 567.67816 -447.5585
292.92371 562.41357 -431.66318
296.29248 557.02997 -415.39731
299.73965 551.52094 -398.7529
271.4321 173.71657 -535.43378
271.41891 162.85136 -535.49756
271.4057 151.98723 -535.5614
271.39246 141.12411 -535.62524
271.37924 130.26205 -535.68903
271.36603 119.40105 -535.75281
271.35281 108.54115 -535.81659
271.34314 97.683556 -535.8634
271.33344 86.826729 -535.91016
271.32288 75.970398 -535.96118
271.3317 65.119652 -535.91864
273.04553 54.609131 -527.64343
274.83087 43.972969 -519.02313
276.63971 33.196758 -510.28928
278.4725 22.277842 -501.43976
280.32974 11.213204 -492.47217
282.21191 1.0783509e-05 -483.38422
284.12051 -11.364802 -474.1687
286.05414 -22.884308 -464.8324
288.01425 -34.561695 -455.36819
290.00137 -46.400215 -445.77341
292.01614 -58.403194 -436.04517
294.05911 -70.574142 -426.18088
296.13086 -82.916603 -416.17764
298.23199 -95.434219 -406.03247
300.36316 -108.13072 -395.74228
302.52499 -121.01003 -385.30389
304.7182 -134.07599 -374.7142
306.94342 -147.33286 -363.96988
309.20255 -160.78529 -353.06198
311.49399 -174.43663 -341.99786
313.81967 -188.29178 -330.76855
316.1803 -202.35536 -319.37033
318.57675 -216.63216 -307.79922
321.0098 -231.12701 -296.05151
323.48029 -245.84497 -284.12289
325.98911 -260.79132 -272.00922
328.53714 -275.97119 -259.70621
331.12534 -291.39023 -247.20947
333.75461 -307.0542 -234.51413
336.42596 -322.9689 -221.61565
339.14182 -339.14182 -208.5023
341.8949 -355.57068 -195.20932
344.69305 -372.26849 -181.69867
347.53735 -389.24182 -167.96515
350.42902 -406.49759 -154.0031
353.36914 -424.043 -139.80667
356.35757 -441.88333 -125.37744
359.3985 -460.03003 -110.69453
362.49173 -478.48911 -95.758904
365.63873 -497.26865 -80.563972
368.84082 -516.3772 -65.102844
301.9104 580.59692 -444.33896
305.35318 575.47339 -428.35498
284.3035 142.15182 -526.08289
284.28955 131.21056 -526.14758
284.2756 120.2705 -526.21234
284.26169 109.33143 -526.27704
284.24774 98.393463 -526.34174
284.2338 87.456604 -526.40649
284.22266 76.521469 -526.45819
284.2124 65.587502 -526.50568
284.20129 54.654091 -526.55743
284.19107 43.72171 -526.60486
285.26706 32.915455 -521.60925
287.1409 22.087801 -512.90961
289.03952 11.116945 -504.09485
290.96341 2.0638854e-06 -495.16284
292.91306 -11.265841 -486.11105
294.88904 -22.683771 -476.9371
296.89188 -34.256741 -467.63855
298.9231 -45.98814 -458.20819
300.98126 -57.880959 -448.65265
303.06799 -69.938713 -438.96454
305.18387 -82.164833 -429.14127
307.32944 -94.562897 -419.17981
309.50543 -107.13651 -409.0773
311.71249 -119.88936 -398.83072
313.95117 -132.82547 -388.43689
316.22232 -145.94868 -377.89285
318.52652 -159.26326 -367.19498
320.86456 -172.77316 -356.34015
323.23718 -186.48294 -345.3248
325.64636 -200.39775 -334.13959
328.09048 -214.52071 -322.79224
330.57159 -228.85719 -311.27319
333.09048 -243.41231 -299.57858
335.64807 -258.19086 -287.70444
338.24524 -273.19806 -275.64658
340.88293 -288.43933 -263.40057
343.56204 -303.92023 -250.96211
346.28363 -319.64636 -238.32658
349.04868 -335.62369 -225.48924
351.85822 -351.85825 -212.44521
354.70761 -368.35016 -199.21646
357.60349 -385.11142 -185.77165
360.54706 -402.14865 -172.10544
363.53949 -419.4686 -158.21255
366.582 -437.07846 -144.08699
369.67584 -454.98566 -129.72302
372.82242 -473.19763 -115.11451
376.02295 -491.72232 -100.25517
379.27896 -510.56778 -85.13858
382.59183 -529.74249 -69.757812
297.37357 121.15223 -516.53625
297.35889 110.13296 -516.60199
297.34421 99.114746 -516.66766
297.32953 88.097679 -516.73328
297.31485 77.081665 -516.79895
297.30014 66.066719 -516.86462
297.28839 55.053398 -516.91705
297.27664 44.041 -516.96967
297.2659 33.02953 -517.0177
297.25513 22.018942 -517.06586
297.60098 11.022256 -515.51965
299.56488 1.1646887e-05 -506.7395
301.55487 -11.16865 -497.84271
303.57147 -22.486784 -488.82693
305.61523 -33.957237 -479.68979
307.68671 -45.583176 -470.42871
309.78644 -57.367828 -461.04135
311.91504 -69.314354 -451.5249
314.07309 -81.426369 -441.87674
316.2623 -93.707336 -432.0892
318.48114 -106.1604 -422.16931
320.73129 -118.78931 -412.10928
323.01352 -131.59808 -401.90601
325.32846 -144.59041 -391.55655
327.67679 -157.77029 -381.05762
330.0593 -171.14185 -370.4061
332.47668 -184.70927 -359.59845
334.92975 -198.47685 -348.63147
337.41925 -212.44914 -337.50134
339.94611 -226.63071 -326.20453
342.51236 -241.02716 -314.73151
345.1163 -255.64165 -303.08975
347.76019 -270.4801 -291.26965
350.44485 -285.5477 -279.267
353.17133 -300.84961 -267.0777
355.94052 -316.39154 -254.6972
358.75351 -332.17917 -242.12093
361.6113 -348.21832 -229.34436
364.51352 -364.51349 -216.36931
367.45822 -381.06775 -203.20422
370.4509 -397.89169 -189.82463
373.49271 -414.99185 -176.22546
376.5849 -432.37518 -162.40108
379.7287 -450.04883 -148.34576
382.92545 -468.01999 -134.05389
386.17645 -486.2963 -119.51936
389.48315 -504.88553 -104.736
392.84695 -523.79596 -89.697128
310.63516 99.846985 -506.84613
310.61969 88.748543 -506.91275
310.60422 77.65107 -506.97937
310.58875 66.554733 -507.04605
310.5733 55.459564 -507.11267
310.55786 44.365444 -507.17923
310.54449 33.272625 -507.23697
310.5321 22.180908 -507.29025
310.52078 11.090081 -507.33908
310.50946 -2.1393911e-05 -507.38791
310.49713 -11.089186 -507.44122
312.10437 -22.293144 -500.51199
314.18738 -33.662918 -491.53201
316.29837 -45.185486 -482.43137
318.43793 -56.863873 -473.20761
320.6066 -68.701416 -463.85812
322.80505 -80.70121 -454.38055
325.03381 -92.866776 -444.77203
327.29361 -105.20152 -435.02988
329.58502 -117.70896 -425.15137
331.90991 -130.39313 -415.12851
334.26669 -143.25713 -404.96829
336.6571 -156.30513 -394.66284
339.08203 -169.54094 -384.20895
341.54208 -182.96896 -373.60327
344.03812 -196.59319 -362.84271
346.57092 -210.41806 -351.92358
349.14127 -224.44791 -340.84256
351.75003 -238.68752 -329.59592
354.39807 -253.14145 -318.17999
357.08627 -267.8147 -306.59079
359.81696 -282.71335 -294.81851
362.58835 -297.84036 -282.87094
365.40274 -313.20233 -270.73779
368.2612 -328.80457 -258.41479
371.16467 -344.65286 -245.89758
374.11432 -360.75305 -233.18135
377.10818 -377.10822 -220.2744
380.14728 -393.72397 -207.17261
383.23575 -410.60968 -193.858
386.37482 -427.77213 -180.32513
389.5657 -445.21796 -166.56888
392.80978 -462.95435 -152.58339
396.10831 -480.98865 -138.36305
399.46271 -499.32837 -123.90194
402.87442 -517.98138 -109.19374
324.07413 67.049805 -497.08585
324.05789 55.87204 -497.15344
324.04163 44.695419 -497.22101
324.02539 33.519875 -497.28867
324.00916 22.345461 -497.35623
323.99399 11.172235 -497.41934
323.98209 2.3846998e-05 -497.46893
323.97018 -11.171413 -497.51843
323.95721 -22.341866 -497.57251
323.94531 -33.511559 -497.62207
324.76108 -44.794601 -494.22632
326.93872 -56.368717 -485.16199
329.14581 -68.099113 -475.97525
331.38284 -79.98893 -466.66367
333.65051 -92.041496 -457.22458
335.94946 -104.26012 -447.65546
338.2803 -116.64841 -437.95346
340.64368 -129.2097 -428.11597
343.04034 -141.94774 -418.14008
345.47098 -154.86624 -408.02283
347.9375 -167.9698 -397.75595
350.43826 -181.26112 -387.34665
352.97525 -194.7449 -376.78671
355.54919 -208.42535 -366.07269
358.16098 -222.30678 -355.20135
360.81143 -236.39366 -344.16904
363.50137 -250.6906 -332.97217
366.23175 -265.20227 -321.60727
369.00348 -279.93365 -310.07016
371.81741 -294.88962 -298.35724
374.67465 -310.0755 -286.46426
377.57611 -325.49661 -274.38705
380.52438 -341.15979 -262.11505
383.51752 -357.06805 -249.65631
386.55814 -373.22849 -237.00008
389.64261 -389.64264 -224.16092
392.77515 -406.31912 -211.12195
395.95847 -423.26587 -197.8717
399.19379 -440.48969 -184.40477
402.48242 -457.99728 -170.71602
405.82568 -475.79565 -156.79985
409.22498 -493.89224 -142.65056
412.6817 -512.29449 -128.2623
337.72861 45.03051 -487.10904
337.71152 33.771172 -487.17764
337.69449 22.513 -487.24622
337.67743 11.255941 -487.31485
337.6604 -6.5461627e-06 -487.38345
337.64334 -11.254742 -487.45203
337.63083 -22.508711 -487.50232
337.61835 -33.761833 -487.55258
337.60474 -45.013966 -487.60748
337.59222 -56.265316 -487.65778
337.59335 -67.518646 -487.65323
339.81058 -79.289108 -478.73181
342.11542 -91.230797 -469.45767
344.45178 -103.33553 -460.05688
346.82028 -115.60675 -450.52701
349.22153 -128.0479 -440.86493
351.65631 -140.66246 -431.0683
354.12524 -153.45419 -421.13403
356.62912 -166.42693 -411.0592
359.16861 -179.5843 -400.84094
361.74457 -192.93045 -390.47614
364.35904 -206.47012 -379.95633
367.01025 -220.20616 -369.28864
369.70035 -234.14352 -358.46469
372.43015 -248.28671 -347.4808
375.20053 -262.64035 -336.3335
378.01248 -277.20917 -325.0191
380.86691 -291.99792 -313.53394
383.76474 -307.01178 -301.87384
386.70703 -322.25586 -290.03503
389.69473 -337.73541 -278.01334
392.729 -353.45615 -265.80438
395.81091 -369.42352 -253.40376
398.94315 -385.64496 -240.80074
402.11887 -402.1189 -228.02246
405.34393 -418.85544 -215.04573
408.61954 -435.86078 -201.86592
411.95016 -453.14514 -188.46455
415.33551 -470.71353 -174.8429
418.77701 -488.57315 -160.99542
422.27594 -506.73117 -146.91663
425.83389 -525.19513 -132.60057
351.5675 11.340917 -477.05783
351.54959 3.0627831e-05 -477.12747
351.53171 -11.33969 -477.19711
351.51382 -22.678322 -477.26669
351.49597 -34.015659 -477.33633
351.48285 -45.3526 -477.38739
351.46973 -56.688652 -477.43845
351.45544 -68.023575 -477.49411
351.44232 -79.357903 -477.54517
351.4292 -90.691353 -477.59619
352.80463 -102.42717 -472.24042
355.20908 -114.58355 -462.87778
357.64651 -126.90682 -453.38666
360.11761 -139.40041 -443.76443
362.62314 -152.06779 -434.00821
365.16376 -164.91266 -424.11533
367.7402 -177.93881 -414.08282
370.35333 -191.15009 -403.90781
373.00378 -204.55043 -393.5871
375.6925 -218.144 -383.11761
378.42023 -231.93498 -372.49603
381.18927 -245.92856 -361.71371
383.99771 -260.1275 -350.77795
386.84784 -274.53714 -339.67993
389.7406 -289.16238 -328.41574
392.67694 -304.00787 -316.98203
395.65787 -319.07889 -305.3746
398.68439 -334.38049 -293.58957
401.7576 -349.91788 -281.62302
404.87851 -365.69672 -269.47037
408.04834 -381.7226 -257.12747
411.26813 -398.00143 -244.58975
414.53421 -414.53418 -231.87212
417.85089 -431.32996 -218.95729
421.22107 -448.39658 -205.83423
424.64606 -465.74078 -192.49768
428.1272 -483.36938 -178.94254
431.66589 -501.28937 -165.16324
435.26358 -519.50806 -151.15431
365.6326 -11.426005 -466.78146
365.61389 -22.850813 -466.85214
365.59512 -34.274525 -466.92279
365.57642 -45.697048 -466.99344
365.55765 -57.118389 -467.06409
365.54266 -68.539238 -467.12073
365.52768 -79.959183 -467.17715
365.51395 -91.378479 -467.229
365.50021 -102.7969 -467.28082
365.48523 -114.21413 -467.33725
365.92267 -125.7859 -465.68732
368.42847 -138.16069 -456.23477
370.96887 -150.70605 -446.65198
373.54449 -163.42577 -436.936
376.15619 -176.32321 -427.08423
378.80463 -189.40236 -417.09375
381.49063 -202.6669 -406.96158
384.21503 -216.12093 -396.68469
386.97858 -229.76846 -386.26004
389.78217 -243.61383 -375.6842
392.62668 -257.66129 -364.95407
395.51303 -271.91516 -354.06625
398.4436 -286.38135 -343.01144
401.41644 -301.06226 -331.79733
404.43399 -315.96405 -320.41458
407.49722 -331.09149 -308.85941
410.60721 -346.4498 -297.12796
413.76501 -362.04437 -285.21594
416.9718 -377.88065 -273.11935
420.22864 -393.96432 -260.83377
423.53677 -410.30127 -248.35474
426.89062 -426.89059 -235.70343
430.29797 -443.74478 -222.85014
433.76016 -460.87015 -209.79002
437.27853 -478.27341 -196.51794
440.85446 -495.96118 -183.0289
444.48935 -513.9408 -169.31731
379.89087 -46.047417 -456.42136
379.87125 -57.556248 -456.4931
379.85162 -69.063919 -456.56485
379.83203 -80.570366 -456.63663
379.81503 -92.076332 -456.6987
379.79938 -103.58165 -456.75613
379.78497 -115.0863 -456.80878
379.7706 -126.59016 -456.8613
379.75491 -138.0927 -456.9187
379.74054 -149.59477 -456.97128
381.7742 -161.96478 -449.53244
384.42072 -174.73666 -439.85175
387.10278 -187.68623 -430.04077
389.8226 -200.81769 -420.09207
392.5809 -214.13503 -410.00247
395.37851 -227.64212 -399.7692
398.21628 -241.34319 -389.38892
401.09503 -255.24231 -378.85858
404.01575 -269.34381 -368.17502
406.97931 -283.65219 -357.33456
409.98669 -298.17215 -346.33386
413.03882 -312.90817 -335.16949
416.13834 -327.86652 -323.83182
419.28308 -343.04974 -312.32864
422.47574 -358.46426 -300.65015
425.71738 -374.11526 -288.79257
429.00919 -390.00836 -276.7515
432.35226 -406.14914 -264.52277
435.74615 -422.54175 -252.10832
439.18848 -439.18845 -239.51659
442.68567 -456.10034 -226.72443
446.23898 -473.28369 -213.72679
449.84979 -490.74518 -200.51884
453.5195 -508.49149 -187.09532
457.24957 -526.52985 -173.451
394.38409 -69.597137 -445.83649
394.36359 -81.192505 -445.9093
394.34308 -92.78656 -445.98215
394.32254 -104.37947 -446.05496
394.30341 -115.9715 -446.12302
394.28839 -127.56387 -446.17642
394.27332 -139.15529 -446.22977
394.25693 -150.74529 -446.28796
394.24188 -162.33492 -446.34137
394.22687 -173.9236 -446.39474
395.25058 -186.00021 -442.76031
398.0025 -199.00124 -432.99008
400.79446 -212.1853 -423.07776
403.62439 -225.55475 -413.03067
406.49457 -239.11444 -402.84048
409.40588 -252.86832 -392.50449
412.35916 -266.82062 -382.01935
415.35538 -280.97568 -371.38184
418.39548 -295.33798 -360.58853
421.48038 -309.91205 -349.63614
424.61111 -324.70264 -338.521
427.78873 -339.7146 -327.23953
431.01425 -354.95288 -315.78793
434.29047 -370.42416 -304.15649
437.61514 -386.13095 -292.35278
440.99115 -402.08014 -280.36694
444.41962 -418.27722 -268.19476
447.89828 -434.72482 -255.8443
451.42825 -451.42828 -243.31175
455.01431 -468.397 -230.58018
458.65784 -485.6377 -217.64461
462.36014 -503.15659 -204.50014
466.12271 -520.96063 -191.14194
409.0798 -105.1919 -435.15811
409.05838 -116.87377 -435.23215
409.03693 -128.55441 -435.30606
409.0155 -140.23389 -435.37994
408.99979 -151.91418 -435.43427
408.98404 -163.59364 -435.48837
408.96692 -175.27148 -435.54761
408.95117 -186.94908 -435.60178
408.93546 -198.62573 -435.65604
408.92404 -210.30376 -435.69547
411.71896 -223.50458 -426.056
414.6199 -236.92564 -416.05109
417.56354 -250.53809 -405.89893
420.54773 -264.34427 -395.60669
423.57489 -278.34915 -385.16653
426.64594 -292.55719 -374.57477
429.76184 -306.97275 -363.82837
432.92358 -321.60037 -352.92389
436.13223 -336.44485 -341.85773
439.38876 -351.51099 -330.62628
442.69431 -366.80383 -319.22592
446.04996 -382.32849 -307.65274
449.45688 -398.09036 -295.90265
452.91623 -414.09485 -283.97171
456.43103 -430.34924 -271.84964
459.99359 -446.85086 -259.5629
463.61035 -463.61035 -247.0891
467.28442 -480.63541 -234.4176
471.01721 -497.93246 -221.54369
474.81012 -515.50812 -208.46246
424.02231 -129.56236 -424.24551
423.99991 -141.33333 -424.32062
423.97751 -153.10295 -424.39578
423.95514 -164.87138 -424.47086
423.93869 -176.64108 -424.52597
423.92224 -188.40987 -424.58102
423.90436 -200.17708 -424.64102
423.88794 -211.94395 -424.69608
423.87152 -223.70999 -424.75113
423.85364 -235.47417 -424.81125
425.57071 -248.24954 -419.05374
428.58414 -261.91254 -408.94937
431.64056 -275.77032 -398.70099
434.74246 -289.82831 -388.30005
437.88766 -304.08868 -377.75394
441.07874 -318.55679 -367.0542
444.31662 -333.23746 -356.19717
447.60245 -348.13516 -345.17975
450.93719 -363.25497 -333.99799
454.32199 -378.60165 -322.64844
457.758 -394.18048 -311.12729
461.24637 -409.99673 -299.43054
464.78836 -426.056 -287.55402
468.3851 -442.36374 -275.49374
472.0343 -458.92218 -263.25781
475.737 -475.737 -250.84229
479.49829 -492.81763 -238.23045
483.31952 -510.17056 -225.41768
487.20212 -527.80231 -212.39894
439.17593 -166.17465 -413.23404
439.15256 -178.03481 -413.31033
439.12918 -189.89365 -413.38666
439.11047 -201.75348 -413.4476
439.0918 -213.61217 -413.50864
439.07465 -225.47072 -413.56454
439.05746 -237.32835 -413.62042
439.03879 -249.1842 -413.68143
439.02167 -261.03989 -413.7374
439.55972 -273.23981 -411.98193
442.68777 -287.1488 -401.77686
445.86066 -301.25711 -391.42557
449.07932 -315.56924 -380.92474
452.34647 -330.09067 -370.26587
455.65982 -344.82364 -359.45618
459.02206 -359.77405 -348.487
462.4343 -374.94672 -337.35477
465.89764 -390.34668 -326.05569
469.41327 -405.97903 -314.58618
472.98236 -421.84912 -302.94223
476.60614 -437.9624 -291.11984
480.28586 -454.3244 -279.11502
484.01715 -470.93558 -266.94183
487.80496 -487.80502 -254.5842
491.65253 -504.94046 -242.03169
495.56128 -522.34833 -229.27969
454.58887 -191.40579 -401.97836
454.56448 -203.3578 -402.05582
454.5401 -215.30841 -402.13339
454.5206 -227.26025 -402.19537
454.50107 -239.21109 -402.25723
454.48322 -251.16173 -402.31409
454.4653 -263.11145 -402.37091
454.4458 -275.0593 -402.43277
454.42792 -287.00711 -402.48959
454.41006 -298.95395 -402.54645
456.93289 -312.63824 -394.53238
460.2244 -327.00156 -384.07654
463.56366 -341.57318 -373.46909
466.95178 -356.35794 -362.70636
470.39151 -371.36169 -351.77982
473.88049 -386.5867 -340.69662
477.42166 -402.03931 -329.44775
481.01614 -417.72449 -318.0296
484.66516 -433.6478 -306.43811
488.36993 -449.81448 -294.66946
492.13184 -466.2301 -282.71954
495.94437 -482.89319 -270.60861
499.81644 -499.81644 -258.30869
503.74945 -517.00598 -245.81505
470.22214 -229.0826 -390.61783
470.19672 -241.12653 -390.69659
470.173 -253.17006 -390.77008
470.15436 -265.21524 -390.8277
470.13571 -277.25952 -390.88544
470.11539 -289.30176 -390.94836
470.09674 -301.34406 -391.00607
470.07809 -313.38535 -391.06381
470.05945 -325.42572 -391.12152
471.32162 -338.38477 -387.21481
474.73404 -353.00732 -376.65298
478.1962 -367.8432 -365.93707
481.70926 -382.89713 -355.06357
485.27429 -398.17374 -344.02933
488.89435 -413.67984 -332.82468
492.56693 -429.41733 -321.45755
496.2951 -445.3931 -309.91818
500.0802 -461.61249 -298.20288
503.92148 -478.07935 -286.31357
507.81631 -494.79538 -274.25848
511.77179 -511.77179 -262.01569
515.78943 -529.01477 -249.58057
486.12811 -255.21724 -379.00259
486.10159 -267.35587 -379.08255
486.07687 -279.49417 -379.15714
486.05746 -291.63443 -379.21585
486.03802 -303.77371 -379.27448
486.01685 -315.91089 -379.33841
485.99741 -328.04825 -379.39706
485.97797 -340.18451 -379.45566
485.95679 -352.31863 -379.51956
485.93738 -364.45303 -379.57819
489.39175 -379.27859 -369.15363
492.97919 -394.38333 -358.32758
496.61963 -409.71118 -347.34167
500.31418 -425.267 -336.19235
504.06412 -441.05609 -324.87582
507.87265 -457.08539 -313.38257
511.73721 -473.35687 -301.72034
515.65704 -489.87421 -289.89108
519.63336 -506.64252 -277.89154
523.67145 -523.67151 -265.70532
562.28967 -301.71637 -190.55148
559.03412 -313.60452 -200.13628
502.26422 -294.00836 -367.27621
502.23663 -306.24182 -367.35748
502.21637 -318.47864 -367.41708
502.19431 -330.71332 -367.48206
502.17407 -342.94815 -367.5416
502.15384 -355.18198 -367.60117
502.13361 -367.41479 -367.6608
502.11154 -379.64532 -367.72577
502.09131 -391.87613 -367.78534
504.19989 -405.81943 -361.57727
507.91498 -421.19778 -350.63943
511.68521 -436.80444 -339.53928
515.51184 -452.6445 -328.27313
519.39612 -468.7233 -316.83722
523.33936 -485.04623 -305.22754
527.34094 -501.61697 -293.44629
531.39801 -518.43707 -281.50171
580.05768 -290.02878 -178.9012
576.67572 -302.0683 -188.621
573.33301 -313.96802 -198.22829
570.02881 -325.73071 -207.72475
566.76019 -337.3573 -217.11887
518.68719 -321.09204 -355.28384
518.65845 -333.42331 -355.36639
518.63739 -345.75827 -355.42697
518.61444 -358.09091 -355.49298
518.59332 -370.4238 -355.55362
518.57227 -382.75568 -355.61411
518.54932 -395.08511 -355.68018
518.52826 -407.41504 -355.74066
518.5072 -419.7439 -355.80115
519.16071 -432.63397 -353.92276
523.00592 -448.29071 -342.87158
526.90851 -464.18127 -331.65536
530.86975 -480.3107 -320.27048
534.89099 -496.68448 -308.7131
538.96948 -513.30432 -296.99121
598.07751 -278.17563 -167.08571
594.56348 -290.36823 -176.95036
591.09296 -302.41962 -186.69302
587.66266 -314.33121 -196.32246
584.27203 -326.10532 -205.84082
580.92023 -337.74429 -215.25003
577.60437 -349.24918 -224.55832
574.31702 -360.61761 -233.78683
571.06683 -371.85748 -242.91078
535.35083 -361.05051 -343.17368
535.3269 -373.48383 -343.24091
535.30298 -385.91608 -343.30795
535.28101 -398.34869 -343.36954
535.25916 -410.78021 -343.43109
535.23523 -423.20923 -343.4982
535.21332 -435.6387 -343.55966
535.19141 -448.0672 -343.62122
535.16748 -460.49295 -343.68829
538.25452 -475.66675 -335.0224
542.29193 -491.84619 -323.68832
546.39044 -508.27017 -312.18289
550.54504 -524.93829 -300.52002
616.35199 -266.15198 -155.10869
612.70746 -278.50336 -165.10722
609.10577 -290.70959 -174.98807
605.5462 -302.77313 -184.75357
602.02802 -314.69641 -194.40559
598.55042 -326.48209 -203.94592
595.11279 -338.13226 -213.37689
