# .PCD v0.7 - Point Cloud Data file format
VERSION 0.7
FIELDS x y z
SIZE 4 4 4
TYPE F F F
COUNT 1 1 1
WIDTH 1497
HEIGHT 1
VIEWPOINT 0 0 0 1 0 0 0
POINTS 1497
DATA ascii
-24.334158 56.779694 -38.312469
-24.219196 55.165947 -39.08342
-24.105227 53.567169 -39.847721
-23.992411 51.983555 -40.604271
-23.880562 50.414513 -41.354359
-23.769835 48.860222 -42.096909
-23.660046 47.320087 -42.833168
-23.551266 45.794132 -43.562668
-23.443316 44.281818 -44.286598
-23.336349 42.783306 -45.003925
-23.230272 41.298264 -45.71529
-23.125238 39.826794 -46.419666
-23.021151 38.368584 -47.117702
-22.917994 36.923431 -47.809486
-22.813625 35.487858 -48.509396
-22.711767 34.067654 -49.192459
-22.610817 32.660065 -49.86945
-22.510759 31.264942 -50.540459
-22.411583 29.882107 -51.205547
-22.313276 28.511408 -51.864803
-22.215755 27.152588 -52.518799
-22.119156 25.805679 -53.166611
-22.023466 24.470518 -53.808323
-21.928528 23.14678 -54.444984
-21.834404 21.8344 -55.076191
-21.741087 20.533247 -55.701996
-21.649487 19.243988 -56.31628
-21.557949 17.964954 -56.930138
-21.467115 16.696642 -57.539291
-21.377111 15.439025 -58.142868
-21.28779 14.191858 -58.741875
-21.19928 12.955114 -59.335426
-21.111435 11.728571 -59.924522
-21.024384 10.512185 -60.508308
-20.937981 9.3057709 -61.087742
-20.85235 8.1092434 -61.661999
-20.767351 6.9224448 -62.232002
-20.683109 5.7453084 -62.796955
-20.599352 4.5776315 -63.358631
-20.516209 3.4193692 -63.916206
-20.433733 2.2704113 -64.469299
-19.694273 1.0941221 -69.42823
-19.622408 -4.5287193e-06 -69.910179
-20.033787 -1.1129884 -67.151413
-20.621325 -2.2912586 -63.211288
-21.244434 -3.5407374 -59.032608
-21.906305 -4.8680673 -54.594025
-22.610739 -6.2807646 -49.869972
-23.361984 -7.7873244 -44.832012
-24.164865 -9.3974504 -39.447765
-25.024897 -11.122183 -33.680267
-25.948404 -12.974199 -27.487095
-26.942684 -14.968162 -20.819294
-28.016199 -17.12101 -13.620162
-29.178808 -19.452541 -5.8235149
-30.442087 -21.985954 2.6482103
-23.62709 68.101624 -33.733757
-23.510489 66.382553 -34.561718
-23.395294 64.681107 -35.379673
-23.281223 62.996258 -36.189648
-23.169897 61.332081 -36.980133
-23.059118 59.682423 -37.766735
-22.948549 58.046329 -38.551846
-22.839453 56.42688 -39.326504
-22.732218 54.82476 -40.087929
-22.625904 53.237419 -40.842823
-22.520662 51.665051 -41.590107
-22.416313 50.107048 -42.331051
-22.313005 48.563599 -43.06459
-22.210569 47.034142 -43.791965
-22.109146 45.518833 -44.512131
-22.008413 44.016827 -45.227406
-21.908516 42.528286 -45.936737
-21.809595 41.053356 -46.639122
-21.711567 39.591679 -47.335197
-21.614416 38.143085 -48.025032
-21.518129 36.707394 -48.708729
-21.420486 35.280796 -49.40205
-21.325403 33.869762 -50.077183
-21.231163 32.471188 -50.746361
-21.137753 31.084925 -51.409637
-21.045158 29.710812 -52.067104
-20.953373 28.34868 -52.718845
-20.862385 26.998379 -53.364918
-20.772182 25.65976 -54.005409
-20.682758 24.332657 -54.640377
-20.594101 23.016933 -55.269905
-20.506199 21.712442 -55.894066
-20.419044 20.419037 -56.512917
-20.333557 19.137465 -57.11993
-20.248058 17.865931 -57.727028
-20.16321 16.604996 -58.329494
-20.079136 15.354633 -58.926479
-19.995695 14.114609 -59.518963
-19.913008 12.88489 -60.106091
-19.83094 11.665256 -60.688831
-19.749607 10.455675 -61.266342
-19.668877 9.2559433 -61.839577
-19.588865 8.066 -62.407707
-19.509441 6.885684 -62.971664
-19.430719 5.7149148 -63.53064
-19.35257 4.5535445 -64.085548
-19.274868 3.4014413 -64.637283
-19.197786 2.2585626 -65.184608
-18.503414 1.0884356 -70.115089
-18.435808 -1.2625878e-07 -70.595139
-18.818264 -1.1069591 -67.879463
-19.367077 -2.2784808 -63.982536
-19.948862 -3.5203841 -59.851494
-20.566687 -4.8392258 -55.464573
-21.223999 -6.2423553 -50.79723
-21.924791 -7.7381663 -45.821148
-22.673363 -9.3360949 -40.505844
-23.474855 -11.046993 -34.814732
-24.335089 -12.883286 -28.706528
-25.260769 -14.859275 -22.133625
-26.259657 -16.991539 -15.040905
-27.340796 -19.299383 -7.3641496
-28.514778 -21.805424 0.97188246
-22.094732 67.665115 -34.809086
-21.986385 65.959152 -35.626495
-21.879343 64.270569 -36.434063
-21.773823 62.599735 -37.230152
-21.670597 60.948563 -38.00893
-21.567156 59.309673 -38.789333
-21.463911 57.684258 -39.56826
-21.363207 56.078415 -40.328011
-21.263521 54.487766 -41.080082
-21.164684 52.911709 -41.825741
-21.066837 51.350414 -42.563942
-20.969816 49.803318 -43.295906
-20.873758 48.270569 -44.020599
-20.778505 46.75164 -44.739239
-20.684189 45.246662 -45.450802
-20.590508 43.754826 -46.157566
-20.497673 42.276443 -46.857964
-20.40567 40.811337 -47.552071
-20.314489 39.359325 -48.239971
-20.224119 37.920219 -48.921753
-20.134483 36.493748 -49.598019
-20.043577 35.076263 -50.28384
-19.955122 33.674267 -50.951183
-19.867443 32.284592 -51.612671
-19.780533 30.907085 -52.268368
-19.694378 29.541567 -52.918354
-19.608971 28.187891 -53.562698
-19.524237 26.845821 -54.201969
-19.440294 25.515388 -54.835255
-19.357071 24.196341 -55.46312
-19.274622 22.888615 -56.085155
-19.19281 21.591909 -56.702385
-19.111689 20.306168 -57.3144
-19.032177 19.032181 -57.914265
-18.952528 17.767994 -58.515175
-18.873604 16.514402 -59.110615
-18.795273 15.271155 -59.701572
-18.717649 14.038233 -60.287189
-18.640606 12.815416 -60.868439
-18.564253 11.602658 -61.444485
-18.488464 10.399759 -62.01627
-18.413349 9.2066736 -62.582962
-18.338785 8.023222 -63.145508
-18.264822 6.8493042 -63.703506
-18.191511 5.6848464 -64.256599
-18.118729 4.5296822 -64.805702
-18.046473 3.3837123 -65.350845
-17.974678 2.2468305 -65.892487
-17.324879 1.0827984 -70.794838
-17.261497 -3.3420681e-06 -71.27301
-17.615847 -1.1009947 -68.599655
-18.126743 -2.2658463 -64.745247
-18.668159 -3.5002801 -60.660564
-19.242914 -4.81073 -56.324387
-19.854183 -6.2044315 -51.712711
-20.505562 -7.68959 -46.798443
-21.201132 -9.2755013 -41.550766
-21.945545 -10.97278 -35.934586
-22.744228 -12.793633 -29.908998
-23.603146 -14.751966 -23.42897
-24.529482 -16.864014 -16.440321
-25.531496 -19.148623 -8.8806925
-26.618862 -21.627821 -0.67715383
-27.802967 -24.327599 8.2562323
-20.581812 67.233925 -35.871323
-20.481602 65.541122 -36.67775
-20.382513 63.865211 -37.475151
-20.285578 62.20911 -38.255226
-20.189857 60.569576 -39.025528
-20.093786 58.941769 -39.798645
-19.998333 57.32856 -40.566788
-19.905083 55.734234 -41.317223
-19.812767 54.154892 -42.060116
-19.721235 52.589954 -42.796719
-19.630613 51.039589 -43.525986
-19.540752 49.503235 -44.24913
-19.451778 47.981049 -44.965141
-19.363541 46.4725 -45.675198
-19.276171 44.97773 -46.378311
-19.189449 43.496082 -47.076183
-19.103441 42.027569 -47.768333
-19.018198 40.572155 -48.454315
-18.933714 39.129673 -49.134197
-18.849911 37.699821 -49.808586
-18.766912 36.282696 -50.476509
-18.68248 34.873962 -51.155972
-18.600504 33.480904 -51.815659
-18.519245 32.100025 -52.469589
-18.438692 30.731153 -53.117825
-18.358837 29.374142 -53.760448
-18.279673 28.028826 -54.39753
-18.201185 26.695065 -55.029133
-18.123369 25.372711 -55.655342
-18.046217 24.061623 -56.276218
-17.969719 22.761637 -56.891834
-17.893866 21.472637 -57.502247
-17.818649 20.194466 -58.107536
-17.744984 18.927977 -58.700371
-17.671124 17.671124 -59.294727
-17.597935 16.424734 -59.883709
-17.525295 15.188587 -60.468281
-17.453306 13.962646 -61.047596
-17.381851 12.746692 -61.622623
-17.311033 11.54069 -62.192509
-17.240738 10.344438 -62.758217
-17.171064 9.1578979 -63.318913
-17.101896 7.9808841 -63.875523
-17.033339 6.8133316 -64.427238
-16.965275 5.6550899 -64.974976
-16.897804 4.5060792 -65.517929
-16.830816 3.3661621 -66.056999
-16.764206 2.2352233 -66.593048
-16.158476 1.0772326 -71.46759
-16.099285 1.0327808e-06 -71.943901
-16.426321 -1.0950854 -69.312134
-16.900091 -2.25335 -65.499519
-17.402002 -3.4804041 -61.460461
-17.934639 -4.7825766 -57.174137
-18.500908 -6.1669683 -52.617134
-19.104105 -7.6416383 -47.762993
-19.747959 -9.2157164 -42.581657
-20.436726 -10.899591 -37.038879
-21.175274 -12.705167 -31.095507
-21.969204 -14.646136 -24.706451
-22.824987 -16.738329 -17.819643
-23.750246 -19.0002 -10.373735
-24.753578 -21.453102 -2.299536
-25.845421 -24.122393 6.4869337
-19.088053 66.808174 -36.920113
-18.995842 65.128601 -37.715172
-18.904657 63.46563 -38.501385
-18.815725 61.823093 -39.268181
-18.727077 60.19418 -40.032513
-18.638517 58.57819 -40.796101
-18.55072 56.977215 -41.553093
-18.464748 55.394249 -42.294373
-18.379633 53.826061 -43.028248
-18.295233 52.272091 -43.755947
-18.21167 50.73251 -44.47644
-18.128803 49.206757 -45.190945
-18.046751 47.694984 -45.898411
-17.965376 46.196674 -46.600056
-17.884792 44.711983 -47.294865
-17.804865 43.240383 -47.983997
-17.725531 41.781601 -48.668053
-17.646835 40.335625 -49.346569
-17.568897 38.902557 -50.018559
-17.491646 37.482098 -50.684647
-17.412525 36.068806 -51.366825
-17.337049 34.674099 -52.017597
-17.261412 33.28986 -52.669762
-17.186432 31.917656 -53.316261
-17.112099 30.557316 -53.957176
-17.038406 29.2087 -54.59256
-16.965345 27.871639 -55.2225
-16.892855 26.54591 -55.847534
-16.821035 25.23155 -56.466782
-16.749823 23.928316 -57.080784
-16.679213 22.636074 -57.68961
-16.609245 21.354742 -58.292862
-16.539814 20.084057 -58.891533
-16.471802 18.824917 -59.477913
-16.403669 17.575356 -60.06538
-16.336044 16.336042 -60.648457
-16.269028 15.106952 -61.226295
-16.202505 13.88786 -61.799858
-16.136524 12.678697 -62.368755
-16.071131 11.479381 -62.93259
-16.006214 10.289705 -63.49231
-15.941871 9.1096401 -64.047104
-15.877992 7.938993 -64.597878
-15.814672 6.7777176 -65.143829
-15.751807 5.6256471 -65.68586
-15.689488 4.4827094 -66.223183
-15.627613 3.348772 -66.756691
-15.566129 2.2237315 -67.286819
-15.004017 1.0717102 -72.133453
-14.948989 -1.2901617e-06 -72.607918
-15.249436 -1.0892421 -70.017403
-15.686849 -2.2409792 -66.245949
-16.150095 -3.460741 -62.251743
-16.64159 -4.7547431 -58.013992
-17.163879 -6.1299582 -53.5107
-17.720016 -7.5942955 -48.71558
-18.313398 -9.1567059 -43.599327
-18.947899 -10.827375 -38.12854
-19.627945 -12.617961 -32.265068
-20.35862 -14.541875 -25.965034
-21.1458 -16.614559 -19.177822
-21.996304 -18.853981 -11.844615
-22.918089 -21.28109 -3.8968
-23.920511 -23.920509 4.7462707
-25.014757 -26.801527 14.181072
-17.69886 68.072525 -37.159317
-17.613157 66.388046 -37.955101
-17.528603 64.720993 -38.740215
-17.445625 63.072643 -39.510712
-17.364061 61.442062 -40.268051
-17.282318 59.823399 -41.0271
-17.20109 58.21907 -41.781326
-17.120745 56.630154 -42.527363
-17.04188 55.058376 -43.25967
-16.963797 53.501209 -43.984692
-16.886368 51.95805 -44.703655
-16.8097 50.429104 -45.415543
-16.733669 48.913799 -46.12154
-16.658379 47.412312 -46.820633
-16.583706 45.92411 -47.514
-16.509758 44.449348 -48.200645
-16.436409 42.987526 -48.881729
-16.363596 41.538357 -49.557823
-16.291426 40.101971 -50.227955
-16.219889 38.678196 -50.892204
-16.148977 37.266872 -51.550648
-16.076946 35.863956 -52.21949
-16.006901 34.476395 -52.869896
-15.937461 33.10088 -53.514668
-15.868623 31.737244 -54.153862
-15.800377 30.38534 -54.78756
-15.732715 29.045008 -55.415836
-15.665629 27.71611 -56.03875
-15.599113 26.3985 -56.656376
-15.533161 25.092028 -57.268768
-15.467763 23.796556 -57.876019
-15.402915 22.511948 -58.478168
-15.338607 21.238066 -59.075294
-15.274834 19.974777 -59.66745
-15.212415 18.722971 -60.24704
-15.14983 17.48057 -60.828171
-15.087709 16.248301 -61.404984
-15.026143 15.026142 -61.97665
-14.965031 13.813871 -62.544102
-14.904461 12.611465 -63.106525
-14.844333 11.418718 -63.664848
-14.784733 10.235581 -64.218254
-14.725565 9.0618801 -64.767654
-14.666914 7.8975668 -65.312256
-14.608683 6.7424617 -65.852959
-14.550957 5.5965204 -66.388969
-14.493642 4.4595795 -66.921158
-14.436819 3.3315713 -67.448792
-14.380354 2.2123635 -67.973091
-13.861362 1.0662568 -72.79216
-13.810382 -3.4002965e-06 -73.265526
-14.085084 -1.0834717 -70.714798
-14.486895 -2.2287552 -66.983818
-14.912303 -3.4413052 -63.033707
-15.363452 -4.7272162 -58.844593
-15.842751 -6.0933661 -54.3941
-16.352917 -7.5475006 -49.656975
-16.897095 -9.0984411 -44.60405
-17.47867 -10.756101 -39.203865
-18.101709 -12.531952 -33.418682
-18.770805 -14.439084 -27.20582
-19.491264 -16.492615 -20.516045
-20.269238 -18.71007 -13.292235
-21.111895 -21.111895 -5.4677939
-22.027657 -23.722095 3.0354459
-23.026463 -26.569004 12.309819
-16.234758 67.644821 -38.19191
-16.156696 65.973175 -38.977146
-16.079617 64.318466 -39.752506
-16.004494 62.684261 -40.508194
-15.930068 61.065262 -41.256844
-15.855246 59.457176 -42.009495
-15.781123 57.864117 -42.755123
-15.708082 56.287296 -43.489845
-15.636161 54.726562 -44.213333
-15.564949 53.180244 -44.929665
-15.494328 51.647762 -45.640049
-15.4244 50.129299 -46.343472
-15.355047 48.624313 -47.041122
-15.286366 47.132961 -47.731976
-15.218246 45.654739 -48.417221
-15.150783 44.189781 -49.095852
-15.083862 42.737606 -49.769016
-15.017479 41.298065 -50.436775
-14.951627 39.871002 -51.099201
-14.886351 38.456402 -51.75584
-14.821641 37.054104 -52.406765
-14.755807 35.659866 -53.069
-14.691881 34.281055 -53.71204
-14.628507 32.914139 -54.349545
-14.565677 31.558966 -54.981564
-14.503384 30.215382 -55.608181
-14.441623 28.883242 -56.229458
-14.380383 27.562401 -56.845463
-14.319616 26.252626 -57.456741
-14.259406 24.953962 -58.062408
-14.1997 23.666166 -58.662998
-14.140492 22.389111 -59.258587
-14.081777 21.122667 -59.849228
-14.02359 19.866753 -60.434528
-13.966594 18.62212 -61.007874
-13.909442 17.386801 -61.582775
-13.852713 16.161491 -62.153431
-13.796487 14.946193 -62.719017
-13.740673 13.740668 -63.28046
-13.685351 12.544908 -63.836948
-13.630431 11.358691 -64.389404
-13.575993 10.181993 -64.937019
-13.521945 9.0146313 -65.480698
-13.468367 7.856544 -66.019646
-13.415172 6.7075868 -66.554756
-13.362435 5.5676832 -67.085243
-13.310071 4.4366879 -67.611984
-13.258156 3.3145351 -68.134201
-13.206605 2.2010968 -68.652763
-12.730247 1.0608511 -73.444557
-12.683371 -5.2875189e-06 -73.9161
-12.933019 -1.0777528 -71.404839
-13.299962 -2.2166607 -67.713676
-13.688335 -3.4220829 -63.806938
-14.100073 -4.7000265 -59.665176
-14.537348 -6.0572305 -55.266529
-15.002614 -7.5013156 -50.586311
-15.498645 -9.0408735 -45.596634
-16.028599 -10.685739 -40.265701
-16.596077 -12.447062 -34.557304
-17.205282 -14.337735 -28.429201
-17.86084 -16.372442 -21.834774
-18.568336 -18.568342 -14.71792
-19.334192 -20.945375 -7.0140014
-20.165943 -23.526937 1.3527778
-21.072475 -26.340593 10.471772
-22.064344 -29.41913 20.449223
-14.788939 67.22245 -39.211613
-14.718378 65.56369 -39.985916
-14.649021 63.923012 -40.747021
-14.581054 62.300861 -41.492882
-14.513295 60.691963 -42.23645
-14.445594 59.095608 -42.979374
-14.37811 57.512447 -43.719925
-14.312423 55.948566 -44.440742
-14.247284 54.398716 -45.155563
-14.182784 52.863106 -45.863358
-14.118817 51.341152 -46.565315
-14.055473 49.833042 -47.260429
-13.992647 48.338234 -47.949879
-13.930429 46.856895 -48.632645
-13.868712 45.388508 -49.309902
-13.807587 43.933235 -49.980663
-13.746952 42.490582 -50.646049
-13.686849 41.060547 -51.305622
-13.627174 39.642693 -51.960461
-13.568019 38.237144 -52.609612
-13.50933 36.843628 -53.253654
-13.449574 35.457966 -53.909389
-13.391636 34.087799 -54.545189
-13.334194 32.729385 -55.175533
-13.277244 31.382572 -55.800495
-13.220777 30.047216 -56.420143
-13.164788 28.723173 -57.034534
-13.109273 27.410297 -57.643749
-13.054223 26.108448 -58.247849
-12.999634 24.817482 -58.846897
-12.9455 23.53727 -59.440952
-12.891814 22.267679 -60.030083
-12.838572 21.008572 -60.614338
-12.785769 19.759825 -61.193798
-12.734161 18.522415 -61.76012
-12.682291 17.294033 -62.32933
-12.63088 16.075665 -62.89349
-12.579845 14.867094 -63.453529
-12.529261 13.668283 -64.008629
-12.479043 12.479041 -64.559708
-12.429264 11.299334 -65.105965
-12.379844 10.12896 -65.648293
-12.330851 8.9678879 -66.185928
-12.282207 7.8159518 -66.719727
-12.233984 6.67308 -67.248917
-12.1861 5.5391326 -67.774376
-12.138626 4.4140396 -68.295334
-12.091485 3.2976744 -68.812653
-12.044744 2.1899481 -69.325569
-11.610542 1.0555003 -74.090378
-11.567738 -5.2917103e-06 -74.560097
-11.793046 -1.0720979 -72.087631
-12.125839 -2.2047005 -68.435661
-12.477962 -3.4030786 -64.571579
-12.851145 -4.6731458 -60.476379
-13.247338 -6.0215206 -56.128674
-13.668738 -7.4556746 -51.504356
-14.117827 -8.9840765 -46.576172
-14.597431 -10.616312 -41.313164
-15.110765 -12.363357 -35.679989
-15.661518 -14.237748 -29.636177
-16.253939 -16.253939 -23.135149
-16.892939 -18.428658 -16.122952
-17.584314 -20.781462 -8.536006
-18.334612 -23.334969 -0.30244657
-19.151794 -26.116083 8.6650515
-20.045219 -29.156679 18.469212
-13.361064 66.805313 -40.218651
-13.297758 65.159012 -40.982815
-13.23591 63.532372 -41.729382
-13.174872 61.921906 -42.466171
-13.113737 60.323193 -43.204144
-13.052935 58.738205 -43.938099
-12.992463 57.166836 -44.668056
-12.933461 55.61388 -45.380268
-12.874949 54.074783 -46.086578
-12.817007 52.549728 -46.785984
-12.759542 51.038166 -47.47966
-12.702632 49.540268 -48.166618
-12.646185 48.0555 -48.847996
-12.59028 46.584038 -49.522827
-12.534825 45.12537 -50.192238
-12.479898 43.679642 -50.855263
-12.425409 42.246395 -51.513008
-12.371435 40.825729 -52.164524
-12.317803 39.416969 -52.811916
-12.264594 38.020237 -53.454205
-12.211884 36.635643 -54.090488
-12.158089 35.258461 -54.739834
-12.106009 33.896816 -55.368507
-12.054371 32.546799 -55.991829
-12.003172 31.208246 -56.609856
-11.952407 29.881018 -57.222649
-11.902069 28.564962 -57.830276
-11.852153 27.259951 -58.432812
-11.802616 25.965757 -59.030773
-11.75353 24.682409 -59.623299
-11.704849 23.409698 -60.210922
-11.656571 22.14748 -60.793697
-11.608688 20.895639 -61.371681
-11.561235 19.654097 -61.9445
-11.51482 18.42371 -62.50478
-11.468165 17.202248 -63.067963
-11.421923 15.990692 -63.62616
-11.376016 14.788815 -64.180298
-11.330511 13.596616 -64.729584
-11.285335 12.413867 -65.27491
-11.240552 11.240549 -65.815491
-11.196089 10.076472 -66.352211
-11.15201 8.9216099 -66.884285
-11.108244 7.7757635 -67.412598
-11.064852 6.6389036 -67.936378
-11.021766 5.5108795 -68.456474
-10.979046 4.3916135 -68.972153
-10.936624 3.2809856 -69.484238
-10.89456 2.1789114 -69.991982
-10.502074 1.050208 -74.729713
-10.46331 -3.9553843e-06 -75.197632
-10.664947 -1.0664952 -72.763672
-10.964289 -2.1928627 -69.150284
-11.280921 -3.3842802 -65.328194
-11.616422 -4.6465669 -61.278347
-11.972449 -5.9862313 -56.980701
-12.350993 -7.4105978 -52.411289
-12.754253 -8.9279766 -47.543495
-13.184737 -10.547795 -42.347095
-13.645296 -12.28077 -36.78767
-14.139194 -14.139191 -30.825792
-14.670188 -16.137207 -24.416121
-15.242622 -18.291149 -17.506227
-15.861543 -20.620008 -10.035193
-16.532854 -23.145996 -1.9317707
-17.263496 -25.895247 6.8878903
-18.061798 -28.89888 16.524229
-18.937408 -32.193592 27.093786
-11.950843 66.39357 -41.212688
-11.894738 64.760239 -41.965191
-11.840009 63.146713 -42.699242
-11.785653 61.547295 -43.428272
-11.731086 59.958885 -44.160145
-11.67702 58.385105 -44.885288
-11.623369 56.825367 -45.604877
-11.570899 55.28318 -46.308609
-11.51886 53.754684 -47.006573
-11.467328 52.240051 -47.697746
-11.416215 50.738728 -48.383286
-11.365595 49.250912 -49.062225
-11.315382 47.776054 -49.735683
-11.26565 46.314342 -50.402706
-11.216315 44.865261 -51.064396
-11.167449 43.428967 -51.719818
-11.118968 42.004986 -52.370049
-11.070944 40.593456 -53.014164
-11.023223 39.193672 -53.654221
-10.975909 37.805912 -54.288784
-10.929002 36.430004 -54.917923
-10.881021 35.061069 -55.561466
-10.834669 33.707867 -56.18314
-10.788713 32.366138 -56.799538
-10.743143 31.035742 -57.410732
-10.697956 29.716539 -58.016781
-10.653149 28.408394 -58.617756
-10.608715 27.11116 -59.213726
-10.564649 25.824697 -59.804733
-10.520948 24.54888 -60.390858
-10.477609 23.283577 -60.972153
-10.434624 22.028652 -61.548668
-10.391991 20.783979 -62.120487
-10.349705 19.549438 -62.687637
-10.308405 18.326054 -63.241558
-10.266891 17.111485 -63.798363
-10.225677 15.906607 -64.351128
-10.184826 14.711411 -64.899048
-10.144268 13.525686 -65.443024
-10.104062 12.349406 -65.982277
-10.064143 11.182375 -66.51767
-10.024569 10.024569 -67.048454
-9.9852753 8.8758001 -67.575478
-9.9463167 7.7360253 -68.097984
-9.9076328 6.6050844 -68.616829
-9.869278 5.4829283 -69.131264
-9.8311892 4.3694162 -69.64212
-9.7934227 3.2644737 -70.148659
-9.7559156 2.1679814 -70.651711
-9.4046745 1.0449626 -75.362671
-9.3699207 -3.3531223e-06 -75.828789
-9.5485983 -1.0609571 -73.432312
-9.815177 -2.181154 -69.856888
-10.097068 -3.3656926 -66.07608
-10.395629 -4.620286 -62.07169
-10.712384 -5.9513245 -57.823265
-11.049049 -7.366034 -53.307812
-11.407601 -8.8725777 -48.49881
-11.790164 -10.48015 -43.367771
-12.199274 -12.199278 -37.880646
-12.637798 -14.042002 -31.999046
-13.109024 -16.022142 -25.678827
-13.616753 -18.15567 -18.869026
-14.165395 -20.46113 -11.510455
-14.760106 -22.960163 -3.5340271
-15.40694 -25.678236 5.1415124
-16.113066 -28.645451 14.612279
-16.887026 -31.897717 24.992863
-10.557861 65.986641 -42.195122
-10.509013 64.367699 -42.932194
-10.460914 62.765491 -43.657955
-10.412993 61.176342 -44.38102
-10.365069 59.599148 -45.10413
-10.317586 58.036415 -45.82061
-10.270535 56.487946 -46.53056
-10.224445 54.956394 -47.22599
-10.178734 53.438351 -47.915737
-10.133462 51.933994 -48.598816
-10.088558 50.442791 -49.276367
-10.044085 48.964912 -49.947418
-9.9999676 47.49984 -50.613098
-9.9562693 46.047741 -51.272446
-9.9129181 44.608135 -51.926567
-9.869977 43.181149 -52.574505
-9.8273726 41.766335 -53.217358
-9.7851667 40.363808 -53.854187
-9.7432575 38.97303 -54.486553
-9.7016745 37.593987 -55.11401
-9.6604433 36.226665 -55.73613
-9.6182041 34.86599 -56.37347
-9.5774593 33.521107 -56.988258
-9.5370579 32.187565 -57.597862
-9.4969959 30.865238 -58.202347
-9.4572706 29.55397 -58.801777
-9.4178743 28.25362 -59.396202
-9.3788061 26.964067 -59.985706
-9.3400307 25.685081 -60.570782
-9.3016033 24.41671 -61.150593
-9.2634916 23.158728 -61.725658
-9.2256918 21.911016 -62.296024
-9.1881971 20.673441 -62.861763
-9.1512079 19.446316 -63.419891
-9.1147127 18.229422 -63.970558
-9.0781984 17.021622 -64.521523
-9.0419474 15.823409 -65.068504
-9.0060129 14.634767 -65.610718
-8.970335 13.455501 -66.149055
-8.9349661 12.285581 -66.682732
-8.899848 11.124804 -67.212624
-8.8650312 9.9731588 -67.737961
-8.8304596 8.8304596 -68.259605
-8.7961836 7.6966596 -68.776802
-8.763587 6.5726886 -69.268646
-8.7644253 5.4777617 -69.255989
-8.7675457 4.3837709 -69.208893
-8.7420416 3.2782624 -69.593735
-8.709197 2.1772923 -70.08931
-8.318202 1.0397758 -75.988976
-8.287405 -2.3145319e-06 -76.453674
-8.4437876 -1.0554758 -74.094055
-8.6782694 -2.1695678 -70.555977
-8.9261475 -3.3473129 -66.815804
-9.1886005 -4.5943065 -62.855675
-9.4669571 -5.916852 -58.655617
-9.7627029 -7.3220334 -54.193138
-10.077524 -8.8178396 -49.442856
-10.413326 -10.413331 -44.375999
-10.772279 -12.118817 -38.959824
-11.156861 -13.946074 -33.156921
-11.569966 -15.908705 -26.923653
-12.014791 -18.022188 -20.211769
-12.495186 -20.304686 -12.963161
-13.015597 -22.777292 -5.1107693
-13.581242 -25.464828 3.4241452
-14.198284 -28.39657 12.73461
-14.874063 -31.607386 22.931335
-9.1819172 65.585129 -43.164455
-9.139986 63.979893 -43.887543
-9.098403 62.389053 -44.604614
-9.0567493 60.809605 -45.32291
-9.015316 59.243511 -46.037392
-8.9739151 57.689457 -46.751331
-8.933671 56.154507 -47.44532
-8.893816 54.63345 -48.13258
-8.8542862 53.125717 -48.814259
-8.815136 51.631512 -49.489388
-8.7762995 50.15028 -50.159081
-8.7378349 48.682217 -50.822395
-8.6996746 47.226803 -51.480431
-8.6618776 45.784206 -52.13224
-8.6243773 44.353939 -52.778904
-8.5872288 42.936142 -53.419491
-8.5503712 41.530373 -54.055096
-8.5138569 40.136753 -54.684761
-8.4776239 38.754852 -55.30957
-8.4416437 37.384418 -55.930027
-8.4045067 36.019314 -56.570435
-8.3693342 34.672951 -57.176956
-8.334075 33.336304 -57.784981
-8.2991123 32.01086 -58.38789
-8.2644415 30.696495 -58.985767
-8.2300587 29.393064 -59.578671
-8.195962 28.100433 -60.166656
-8.1621456 26.818478 -60.749794
-8.1286077 25.547049 -61.32814
-8.0953436 24.286028 -61.901756
-8.0623512 23.03529 -62.470692
-8.0296259 21.794697 -63.035011
-7.9971657 20.564144 -63.594769
-7.9654374 19.344627 -64.141907
-7.933567 18.133869 -64.691498
-7.901926 16.932699 -65.237122
-7.8705602 15.74112 -65.778
-7.8394189 14.558919 -66.31501
-7.8085465 13.386079 -66.847389
-7.7778931 12.222398 -67.375984
-7.7691727 11.098815 -67.526367
-7.7698555 9.9898081 -67.514595
-8.2936354 9.4784374 -58.482334
-7.7290511 7.7290521 -68.218231
-7.6997113 6.5997524 -68.724182
-7.6827984 5.4877062 -69.015831
-7.6825452 4.3900232 -69.020203
-7.6823149 3.2924154 -69.024178
-7.682085 2.1948829 -69.028145
-7.33954 1.0485038 -74.93512
-7.3107209 1.4572574e-06 -75.432083
-7.3504395 -1.0500655 -74.747162
-7.5534182 -2.1581211 -71.246925
-7.7679486 -3.3291273 -67.547485
-7.9950709 -4.5686107 -63.63089
-8.2358761 -5.8827701 -59.478374
-8.4916353 -7.2785473 -55.067947
-8.7637901 -8.763793 -50.374817
-9.0539665 -10.347397 -45.370888
-9.3640175 -12.039454 -40.024258
-9.6960573 -13.851508 -34.298447
-10.052508 -15.796806 -28.151646
-10.43617 -17.890577 -21.535652
-10.850277 -20.150517 -14.394619
-11.298657 -22.597321 -6.6625843
-11.785638 -25.254942 1.7350895
-12.316488 -28.151976 10.889282
-12.897415 -31.322294 20.907
-13.535855 -34.806484 31.916508
-7.8228669 65.190559 -44.11702
-7.7873282 63.596512 -44.832016
-7.7520833 62.016674 -45.541073
-7.7166686 60.447235 -46.253578
-7.6815758 58.892082 -46.959587
-7.6465878 57.349411 -47.663486
-7.6124973 55.824974 -48.349335
-7.5787354 54.314266 -49.028576
-7.5452456 52.816723 -49.702332
-7.5120769 51.332527 -50.369644
-7.4791722 49.861145 -51.031631
-7.4465804 48.402767 -51.687332
-7.4142456 46.95689 -52.337852
-7.382216 45.523666 -52.982243
-7.3504372 44.102623 -53.621582
-7.3189545 42.693901 -54.254959
-7.2877173 41.297066 -54.883415
-7.2567687 39.912228 -55.50605
-7.2260585 38.538979 -56.123886
-7.1955838 37.177185 -56.737003
-7.1643834 35.821915 -57.364697
-7.1342402 34.482155 -57.971138
-7.1043487 33.153625 -58.572495
-7.0747075 31.83618 -59.168831
-7.0453129 30.529686 -59.76022
-7.016161 29.234003 -60.346703
-6.9872489 27.94899 -60.928356
-6.9585528 26.674448 -61.505684
-6.9301133 25.410414 -62.077843
-6.9019046 24.156664 -62.645359
-6.8739252 22.913082 -63.20826
-6.8461719 21.679541 -63.766617
-6.8186417 20.455917 -64.32048
-6.7917514 19.243292 -64.861473
-6.7647185 18.039251 -65.405327
-6.7479973 16.869995 -65.741745
-6.7482042 15.745805 -65.737572
-6.7487426 14.622272 -65.72673
-6.7214546 13.442907 -66.275742
-6.6947327 12.273675 -66.813339
-6.6734262 11.122374 -67.241989
-6.6724133 10.008615 -67.262367
-6.6722107 8.8962831 -67.266441
-6.6719875 7.7839808 -67.270927
-6.6717854 6.6717887 -67.275002
-6.6715827 5.5596514 -67.279076
-6.7924652 4.5283065 -64.847115
-6.7924228 3.3962069 -64.847961
-6.7924023 2.2641289 -64.848381
-6.6727171 1.1121207 -67.256248
-6.3493629 -3.0960134e-06 -73.761642
-6.349895 -1.0583193 -73.750938
-6.4404883 -2.1468341 -71.928337
-6.6224055 -3.3112047 -68.26844
-6.8148985 -4.5432658 -64.395782
-7.0189166 -5.8490973 -60.291252
-7.2355752 -7.2355752 -55.932423
-7.4660606 -8.7103996 -51.295422
-7.7117128 -10.282288 -46.353268
-7.9740806 -11.961128 -41.074837
-8.2549295 -13.758214 -35.424606
-8.556284 -15.686521 -29.36182
-8.8804731 -17.760952 -22.839622
-9.2301979 -19.99876 -15.803711
-9.6085958 -22.420057 -8.1909246
-10.019347 -25.048363 0.072738677
-10.466784 -27.911425 9.0744724
-10.956105 -31.042295 18.91885
-11.493362 -34.480091 29.727631
-6.4800487 64.800491 -45.058746
-6.450808 63.217922 -45.764671
-6.4216499 61.647846 -46.468613
-6.3924866 60.089378 -47.172668
-6.363565 58.544804 -47.870903
-6.3348165 57.013348 -48.564957
-6.3067389 55.499298 -49.242817
-6.2789307 53.998802 -49.914165
-6.2513447 52.511299 -50.580139
-6.2240224 51.036983 -51.239777
-6.1969161 49.575321 -51.894173
-6.1700659 48.126514 -52.542397
-6.1434264 46.690044 -53.18552
-6.1170368 45.266068 -53.822628
-6.0908527 43.854137 -54.454773
-6.0649118 42.45438 -55.081039
-6.0391707 41.066357 -55.70248
-6.0136671 39.690197 -56.318188
-5.9883585 38.325497 -56.929192
-5.963243 36.972103 -57.535538
-5.9374895 35.624943 -58.15728
-5.9126453 34.293339 -58.757084
-5.8880076 32.972839 -59.351887
-5.8635745 31.663301 -59.94175
-5.8393431 30.364582 -60.526745
-5.8153119 29.076557 -61.106918
-5.7914772 27.799086 -61.682343
-5.7678366 26.532049 -62.253063
-5.7443891 25.275309 -62.819149
-5.7211308 24.028751 -63.380642
-5.6980605 22.79224 -63.937611
-5.68852 21.616377 -64.167931
-5.6886792 20.479248 -64.164093
-5.6841588 19.326139 -64.273224
-5.6610527 18.115368 -64.831055
-5.6383591 16.915073 -65.378929
-5.6351318 15.778369 -65.456841
-5.6349411 14.650845 -65.461449
-5.6347675 13.523438 -65.46563
-5.6345773 12.396072 -65.470238
-5.6344037 11.268806 -65.474419
-5.7367587 10.326162 -63.003342
-5.7367411 9.1787796 -63.003777
-5.7367048 8.0313873 -63.004646
-5.7366872 6.8840208 -63.005081
-5.7366691 5.7366652 -63.005516
-5.7366333 4.5893049 -63.006378
-5.7366147 3.4419661 -63.006813
-5.7365971 2.2946396 -63.007252
-5.7365613 1.1473087 -63.008114
-5.6358604 1.4873854e-07 -65.439247
-5.3626256 -1.0725276 -72.035713
-5.3714814 -2.1485927 -71.821922
-5.4891605 -3.293499 -68.980896
-5.6478357 -4.5182729 -65.150131
-5.8159394 -5.8159409 -61.091759
-5.9943762 -7.1932554 -56.783905
-6.1841092 -8.6577539 -52.203354
-6.3862453 -10.217998 -47.32336
-6.6021128 -11.883807 -42.111843
-6.8330851 -13.666165 -36.53569
-7.0808043 -15.57777 -30.55522
-7.3471599 -17.633181 -24.124832
-7.6343374 -19.849283 -17.19174
-7.9448781 -22.245657 -9.6946297
-8.2817535 -24.845257 -1.5617371
-8.6484623 -27.675079 7.2913866
-9.0491505 -30.767111 16.964859
-9.4887705 -34.159576 27.578234
-9.9732866 -37.898491 39.27549
-5.1532221 64.415276 -45.988724
-5.1300883 62.843578 -46.68684
-5.1069298 61.283161 -47.385708
-5.0838742 59.735519 -48.081478
-5.0610251 58.201794 -48.771008
-5.0383286 56.681202 -49.455933
-5.0161271 55.177399 -50.125927
-4.9941378 53.686974 -50.789528
-4.9723225 52.209385 -51.447849
-4.9507146 50.74482 -52.099934
-4.9292765 49.292767 -52.746876
-4.90804 47.853386 -53.387745
-4.8869691 46.426205 -54.023605
-4.8660946 45.011375 -54.653553
-4.8453817 43.608437 -55.278618
-4.824861 42.217529 -55.897907
-4.8044968 40.838219 -56.51244
-4.7843194 39.470634 -57.121342
-4.7642956 38.114361 -57.72562
-4.7444382 36.769398 -58.324856
-4.72403 35.430229 -58.940735
-4.7043705 34.106689 -59.534012
-4.6848745 32.794113 -60.122368
-4.6655388 31.492386 -60.705868
-4.6463623 30.201353 -61.28458
-4.6273427 28.920891 -61.858543
-4.6123223 27.673933 -62.311806
-4.6131654 26.5257 -62.286381
-4.613296 25.373125 -62.282436
-4.5966649 24.132488 -62.784332
-4.5785642 22.892817 -63.330574
-4.568655 21.701105 -63.629601
-4.5693245 20.561958 -63.609394
-4.5699801 19.422411 -63.589603
-4.5693955 18.27758 -63.607239
-4.568954 17.133577 -63.620567
-4.5687971 15.990788 -63.625298
-4.6521459 15.119475 -61.110035
-4.6521459 13.956435 -61.110039
-4.6521163 12.793315 -61.110931
-4.6521015 11.630249 -61.111374
-4.6520867 10.467196 -61.111816
-4.6520567 9.3041134 -61.112713
-4.6520424 8.1410723 -61.113163
-4.6520276 6.9780416 -61.113602
-4.651998 5.8149958 -61.114491
-4.6519833 4.6519804 -61.114944
-4.6519685 3.4889708 -61.115387
-4.6519389 2.3259645 -61.11628
-4.6519246 1.1629739 -61.116726
-4.5695672 -7.8156677e-07 -63.602077
-4.5705504 -1.1426419 -63.572392
-4.3488722 -2.174437 -70.262123
-4.3686094 -3.2764602 -69.666504
-4.4935317 -4.4935327 -65.896645
-4.6265388 -5.783174 -61.882797
-4.7676597 -7.1514893 -57.624088
-4.9176612 -8.6059065 -53.097397
-5.0774078 -10.15482 -48.276615
-5.2478628 -11.807689 -43.132694
-5.4301796 -13.575447 -37.630795
-5.6256418 -15.470513 -31.732183
-5.8357482 -17.50724 -25.391676
-6.0621572 -19.702009 -18.559177
-6.3068433 -22.073948 -11.175127
-6.5721121 -24.64542 -3.1699247
-6.8606763 -27.442705 5.5382695
-7.1757441 -30.49691 15.046268
-7.521142 -33.845142 25.469595
-7.9014735 -37.531998 36.947098
-3.8420637 64.034393 -46.908253
-3.8249176 62.47366 -47.598156
-3.8076732 60.922768 -48.292027
-3.7905834 59.385811 -48.97966
-3.7736466 57.862579 -49.661148
-3.7568603 56.352901 -50.336575
-3.7404008 54.859211 -50.998852
-3.7240977 53.378727 -51.654835
-3.7079237 51.910931 -52.305634
-3.6919017 50.45599 -52.950298
-3.6760054 49.013405 -53.58992
-3.6602576 47.583347 -54.223568
-3.6446321 46.16534 -54.852287
-3.6291513 44.759525 -55.475182
-3.6137898 43.365475 -56.093292
-3.5985694 41.983311 -56.705704
-3.5834649 40.612606 -57.313457
-3.5684986 39.253483 -57.915668
-3.5536449 37.905544 -58.513325
-3.5389259 36.568905 -59.105568
-3.5237522 35.237522 -59.716122
-3.5091672 33.921951 -60.302979
-3.5071957 32.733826 -60.382301
-3.5078564 31.570702 -60.355717
-3.4992878 30.32716 -60.700497
-3.4851916 29.043262 -61.267677
-3.474051 27.79241 -61.715939
-3.473963 26.63372 -61.719471
-3.474062 25.476454 -61.715492
-3.4746883 24.322813 -61.690296
-3.4753146 23.168768 -61.665092
-3.4759305 22.014225 -61.64032
-3.5368528 21.221115 -59.188988
-3.4755785 19.694939 -61.654476
-3.4751058 18.533892 -61.673492
-3.4745235 17.372618 -61.696926
-3.4741609 16.212748 -61.711514
-3.5112529 15.215424 -60.219051
-3.5373652 14.149455 -59.168373
-3.5373878 12.970421 -59.167458
-3.5373878 11.791294 -59.167458
-3.5373652 10.612097 -59.168373
-3.5373538 9.4329414 -59.168835
-3.5373425 8.2537947 -59.169289
-3.5373197 7.0746341 -59.170208
-3.5373082 5.8955145 -59.170666
-3.5372968 4.7163968 -59.171127
-3.5372741 3.5372734 -59.172039
-3.5372627 2.3581707 -59.172493
-3.5372512 1.1790786 -59.172951
-3.5372286 -4.5695192e-06 -59.17387
-3.4745674 -1.1581906 -61.695156
-3.3067086 -2.2044749 -68.449272
-3.3069475 -3.3069475 -68.439667
-3.3517978 -4.4690685 -66.635017
-3.450454 -5.7507563 -62.665405
-3.5550938 -7.1101875 -58.455029
-3.6662786 -8.5546513 -53.981297
-3.7846427 -10.09238 -49.218697
-3.9109046 -11.732721 -44.138302
-4.0458817 -13.486277 -38.707245
-4.1905084 -15.365195 -32.887913
-4.3458591 -17.38344 -26.637093
-4.5131712 -19.557074 -19.904978
-4.6939015 -21.904877 -12.632937
-4.8897543 -24.448771 -4.7524428
-5.1026626 -27.214207 3.8143353
-5.3349557 -30.231422 13.161082
-5.5894074 -33.536438 23.399422
-5.8693466 -37.172531 34.663311
-6.1788058 -41.192036 47.114975
-2.5463288 63.658211 -47.816425
-2.53497 62.106758 -48.501984
-2.523608 60.566589 -49.187737
-2.5123475 59.040161 -49.867374
-2.5010843 57.52494 -50.54715
-2.4901505 56.028389 -51.207085
-2.4793034 54.54467 -51.861759
-2.4685585 53.074009 -52.510265
-2.4578984 51.61586 -53.153671
-2.4473379 50.170429 -53.79105
-2.4368598 48.73719 -54.423458
-2.4264789 47.316338 -55.049999
-2.4161782 45.907391 -55.671703
-2.4059725 44.51049 -56.28767
-2.3958449 43.125202 -56.89893
-2.3858097 41.751671 -57.504589
-2.3758509 40.389462 -58.105671
-2.3705456 39.114006 -58.425865
-2.3709679 37.935482 -58.400398
-2.3684838 36.711502 -58.550312
-2.3587446 35.381168 -59.138126
-2.3495977 34.06916 -59.690205
-2.3485053 32.879074 -59.756119
-2.3485203 31.705025 -59.755222
-2.3485353 30.530958 -59.754311
-2.3487236 29.359045 -59.742947
-2.3491528 28.189837 -59.717033
-2.3906062 27.49197 -57.215111
-2.3906765 26.297441 -57.210876
-2.3907387 25.102757 -57.207104
-2.3908091 23.908089 -57.202869
-2.3908794 22.71335 -57.198627
-2.3909495 21.518541 -57.194389
-2.3910198 20.323669 -57.190151
-2.3496051 18.796837 -59.689747
-2.3503137 17.627352 -59.646976
-2.348897 16.442276 -59.732491
-2.3486407 15.266165 -59.747948
-2.3778019 14.266809 -57.987907
-2.3913162 13.152237 -57.172245
-2.3913319 11.95666 -57.171303
-2.3913398 10.761032 -57.170834
-2.3913476 9.5653849 -57.170364
-2.3913398 8.3696852 -57.170837
-2.391324 7.1739683 -57.171776
-2.3913162 5.9782929 -57.172245
-2.3913007 4.7825985 -57.173195
-2.3912928 3.5869417 -57.17366
-2.3912849 2.3912833 -57.174129
-2.3912697 1.1956332 -57.175072
-2.3912618 -7.9235554e-07 -57.175549
-2.3912539 -1.1956319 -57.176014
-2.34904 -2.3490415 -59.723846
-2.2354865 -3.3532305 -66.5774
-2.2380412 -4.4760847 -66.423233
-2.2874875 -5.7187209 -63.438869
-2.3564532 -7.0693622 -59.276432
-2.4297144 -8.5040026 -54.854717
-2.5076773 -10.030708 -50.149246
-2.5908093 -11.658648 -45.131783
-2.6796422 -13.398211 -39.770252
-2.7747827 -15.261308 -34.028
-2.8769281 -17.261568 -27.862984
-2.9868815 -19.414732 -21.226717
-3.1055729 -21.739012 -14.063037
-3.2340882 -24.255663 -6.3064618
-3.3736992 -26.989599 2.1198075
-3.5259244 -29.970362 11.307412
-3.6925917 -33.233326 21.366676
-3.8757768 -36.819874 32.422863
-4.0780859 -40.780853 44.633289
-1.2657242 63.286209 -48.714539
-1.2600893 61.744377 -49.394722
-1.2544743 60.214764 -50.072517
-1.248909 58.698723 -50.744308
-1.2433507 57.194134 -51.415245
-1.2379464 55.707584 -52.067616
-1.2325846 54.233715 -52.71484
-1.2272731 52.772739 -53.355988
-1.2220032 51.324131 -53.992123
-1.2167823 49.888077 -54.622337
-1.211602 48.464077 -55.247662
-1.2064694 47.052307 -55.867207
-1.2023268 45.688416 -56.367275
-1.2022439 44.483025 -56.377285
-1.202461 43.288601 -56.351078
-1.1974798 41.911793 -56.952351
-1.1924855 40.544502 -57.555222
-1.1917522 39.327812 -57.643749
-1.1912404 38.119698 -57.705517
-1.1909926 36.920769 -57.735439
-1.1910003 35.730003 -57.734501
-1.191008 34.539234 -57.73357
-1.2121192 33.939339 -55.185219
-1.2121474 32.727978 -55.181831
-1.2121835 31.516771 -55.177471
-1.2122195 30.305483 -55.173115
-1.2122556 29.094133 -55.168762
-1.2122918 27.88271 -55.164394
-1.2123278 26.671209 -55.160038
-1.21236 25.459557 -55.156166
-1.2123961 24.247923 -55.151802
-1.2124321 23.036207 -55.147438
-1.2124684 21.824429 -55.143082
-1.2125045 20.612577 -55.138721
-1.2125366 19.400583 -55.13485
-1.1915427 17.873142 -57.669022
-1.1927418 16.698381 -57.524288
-1.1911824 15.485368 -57.712528
-1.1910546 14.292651 -57.727955
-1.2079735 13.287711 -55.68565
-1.212669 12.12669 -55.118855
-1.2126731 10.914054 -55.118366
-1.2126812 9.7014456 -55.117397
-1.2126851 8.4887953 -55.116917
-1.2126892 7.2761316 -55.116425
-1.2126851 6.0634265 -55.116917
-1.2126771 4.8507113 -55.117882
-1.2126731 3.6380172 -55.118362
-1.212669 2.4253373 -55.118847
-1.212661 1.21266 -55.119816
-1.212657 1.0811417e-06 -55.120308
-1.212649 -1.2126489 -55.121277
-1.1914613 -2.3829257 -57.678852
-1.1913218 -3.5739703 -57.695686
-1.1337069 -4.5348291 -64.650421
-1.1383724 -5.6918674 -64.087257
-1.1715033 -7.0290217 -60.087997
-1.2077106 -8.4539795 -55.717381
-1.2462276 -9.9698238 -51.067986
-1.2872822 -11.585544 -46.112247
-1.3311291 -13.311291 -40.819473
-1.3780733 -15.158807 -35.152786
-1.42845 -17.141397 -29.071796
-1.4826492 -19.274441 -22.529356
-1.5411239 -21.575739 -15.470846
-1.6044002 -24.066006 -7.8327174
-1.673095 -26.769522 0.45948303
-1.7479355 -29.714912 9.493536
-1.8297851 -32.936131 19.373646
-1.9196768 -36.473858 30.224524
-2.0188789 -40.377586 42.19931
-2.1289177 -44.707272 55.482155
5.3097142e-23 62.918739 -49.601673
5.2527774e-23 61.385975 -50.27763
3.4270869e-23 59.866798 -50.947601
3.0012358e-23 58.361012 -51.611656
4.8923513e-23 56.867107 -52.273403
4.304405e-23 55.39043 -52.91835
4.0231149e-24 53.926292 -53.558247
2.5945925e-23 52.47488 -54.192162
1.7600686e-23 51.231148 -54.259369
4.4691331e-23 50.00819 -54.268684
2.6029292e-23 48.653679 -54.675499
4.7540595e-23 47.235756 -55.299412
3.5075078e-23 45.938602 -55.57254
3.0696787e-23 44.733532 -55.56002
4.3888434e-25 43.525379 -55.557133
5.5814774e-23 42.315636 -55.559536
3.7710694e-23 41.105812 -55.562428
4.2355116e-23 40.601505 -52.98473
1.7754406e-23 38.67926 -55.594696
3.7334489e-23 37.457432 -55.645718
3.8769143e-23 36.247814 -55.651009
1.6709942e-23 35.039783 -55.650055
3.6452745e-23 34.081684 -54.57156
5.183764e-23 33.200565 -53.068996
2.9894862e-23 31.971453 -53.066509
2.8460076e-23 30.742397 -53.063522
4.0955531e-23 29.51359 -53.059032
4.8105161e-23 28.284718 -53.054546
5.0524925e-23 27.055674 -53.05056
4.6950483e-23 25.826645 -53.046074
2.7435819e-23 24.597553 -53.041592
5.5482468e-23 23.368382 -53.037098
4.1119116e-23 22.139132 -53.032612
1.0815542e-23 20.909817 -53.02813
3.4035069e-23 19.680355 -53.024136
3.5352587e-23 18.45089 -53.019646
5.198582e-23 16.922674 -55.590359
2.3039566e-23 15.741139 -55.337593
-5.9939608e-24 14.500848 -55.63369
5.3541504e-23 13.29095 -55.650051
3.2972436e-23 12.276718 -53.307823
8.2134367e-24 11.071501 -53.00668
6.2344151e-23 9.841362 -53.00618
3.902522e-23 8.6112518 -53.005188
5.8732253e-23 7.3810949 -53.004688
-6.9642597e-24 6.1509557 -53.003693
5.5616246e-23 4.912529 -53.252159
4.3328469e-23 3.6709034 -53.794998
2.0409264e-23 2.4381561 -54.345135
4.5008377e-23 1.2301792 -53.005188
1.5842782e-23 -5.1750385e-06 -53.005688
4.5643372e-23 -1.2301706 -53.006683
1.915069e-23 -2.460326 -53.007183
5.3894586e-23 -3.6259439 -55.604324
2.5808537e-23 -4.6106877 -62.361301
2.6387549e-23 -5.7506838 -62.667156
3.3371259e-23 -6.9891162 -60.890804
2.619472e-23 -8.4045095 -56.570427
6.4256772e-23 -9.9096346 -51.976135
5.8431596e-23 -11.513311 -47.081032
2.1791273e-23 -13.225545 -41.854572
1.9524721e-23 -15.057736 -36.261932
1.273437e-23 -17.022963 -30.263233
6.3903956e-23 -19.13625 -23.812576
-1.8635496e-23 -21.41498 -16.856907
1.4243661e-23 -23.879284 -9.3353081
3.8002573e-23 -26.553009 -1.1739799
2.5991683e-23 -29.463913 7.7113099
1.7352463e-23 -32.645012 17.421375
5.1663952e-24 -36.135784 28.076654
1.6515005e-23 -39.983727 39.822208
3.5865656e-23 -44.246655 52.834431
1.2510805 62.554028 -50.482185
1.2455451 61.031715 -51.150345
1.2400588 59.522823 -51.812622
1.2348495 58.037918 -52.441448
1.2377665 56.93726 -52.089329
1.2358369 55.612659 -52.322243
1.2304726 54.1408 -52.969769
1.2264963 52.739342 -53.449745
1.2266278 51.518368 -53.433884
1.2267346 50.29612 -53.42099
1.2268414 49.073662 -53.408092
1.2268373 47.846657 -53.408588
1.2481174 47.428463 -50.839855
1.24816 46.181919 -50.834728
1.2482067 44.93544 -50.829071
1.2482493 43.688721 -50.82394
1.2482919 42.441921 -50.818802
1.2483344 41.195038 -50.813671
1.248377 39.948063 -50.808533
1.2266319 38.025589 -53.433388
1.2261966 36.7859 -53.485931
1.2260325 35.554943 -53.505749
1.2260448 34.329254 -53.504265
1.2319793 33.263435 -52.787907
1.2476965 32.440105 -50.890667
1.2477177 31.192944 -50.888103
1.247739 29.945734 -50.88554
1.2477602 28.698486 -50.882977
1.2477942 27.451473 -50.878864
1.2478325 26.204481 -50.874249
1.2478708 24.957413 -50.869629
1.2479091 23.710272 -50.865009
1.2479473 22.463049 -50.860394
1.2479813 21.215679 -50.856289
1.2480196 19.968315 -50.851665
1.248058 18.720867 -50.847046
1.2294359 17.212101 -53.09491
1.2264923 15.944397 -53.450237
1.229535 14.754424 -53.082954
1.2261268 13.487393 -53.494358
1.2265744 12.265745 -53.440331
1.2480196 11.23218 -50.851665
1.2481769 9.9854097 -50.832668
1.2481855 8.7372942 -50.831638
1.2481897 7.4891338 -50.831123
1.2481983 6.2409945 -50.830101
1.2482024 4.992805 -50.829586
1.236943 3.7108262 -52.188736
1.2374529 2.4749031 -52.12719
1.2426337 1.2426322 -51.501812
1.2482024 -4.8642903e-07 -50.829586
1.2481983 -1.2481965 -50.830101
1.248194 -2.4963875 -50.830612
1.2481855 -3.7445631 -50.831642
1.2263362 -4.9053469 -53.469078
1.1669384 -5.8346944 -60.63903
1.1676303 -7.0057826 -60.555504
1.1936592 -8.3556137 -57.413551
1.2312709 -9.850173 -52.873394
1.2713304 -11.441977 -48.037815
1.3140839 -13.140842 -42.877007
1.3598131 -14.957943 -37.357002
1.4088396 -16.906078 -31.438974
1.4615335 -18.999937 -25.078253
1.5183225 -21.256523 -18.223211
1.5797031 -23.695551 -10.813931
1.6462554 -26.340082 -2.7803562
1.7186621 -29.217257 5.9599113
1.797731 -32.359158 15.504371
1.8844165 -35.803913 25.968231
1.9798959 -39.597916 37.493622
2.0855672 -43.796909 50.24929
2.4882979 62.207443 -51.31889
2.4877656 60.95026 -51.351025
2.4878755 59.709007 -51.344387
2.4878333 58.464081 -51.346935
2.5088971 57.704632 -50.075638
2.4895666 56.015247 -51.242329
2.4900827 54.781826 -51.211166
2.497869 53.704185 -50.741219
2.5275788 53.079151 -48.948082
2.5330153 51.926815 -48.619961
2.5330853 50.661709 -48.615734
2.5331817 49.397045 -48.609917
2.5332694 48.132114 -48.60463
2.5333569 46.8671 -48.599342
2.5334446 45.602001 -48.594051
2.5335321 44.336815 -48.588764
2.5336199 43.071533 -48.583477
2.5337074 41.806168 -48.578186
2.5337951 40.540722 -48.572899
2.5338826 39.275177 -48.567604
2.4898627 37.347939 -51.224445
2.4892533 36.094173 -51.261215
2.4884586 34.838421 -51.309193
2.488704 33.597496 -51.294392
2.495223 32.437901 -50.900932
2.5324371 31.655464 -48.654846
2.5326035 30.391243 -48.644806
2.5326476 29.125444 -48.642159
2.5326912 27.859604 -48.639523
2.5327437 26.593809 -48.636345
2.5327961 25.327965 -48.633179
2.5328751 24.062309 -48.628422
2.532954 22.796579 -48.623661
2.5330241 21.530704 -48.619427
2.5331028 20.26482 -48.614674
2.5331817 18.998861 -48.609917
2.5332606 17.732817 -48.605156
2.4939146 16.210442 -50.979893
2.4894989 14.936995 -51.246407
2.4975882 13.736732 -50.758183
2.4887631 12.443815 -51.290821
2.4914463 11.211503 -51.128864
2.5334358 10.133741 -48.594578
2.5334532 8.8670816 -48.593525
2.533462 7.6003823 -48.592991
2.5334709 6.3336773 -48.592464
2.5334883 5.066977 -48.591408
2.496269 3.7444024 -50.837803
2.5014772 2.5014777 -50.523441
2.4971795 1.2485887 -50.782845
2.5335321 -2.5594532e-06 -48.588764
2.5335321 -1.2667702 -48.58876
2.5335145 -2.533519 -48.589821
2.5335059 -3.8002667 -48.590347
2.5334971 -5.0669894 -48.590881
2.4891012 -6.2227535 -51.270409
2.368706 -7.1061158 -58.536903
2.377424 -8.3209829 -58.010731
2.4478614 -9.7914486 -53.75946
2.5270119 -11.371552 -48.982288
2.6114526 -13.057263 -43.885864
2.7017212 -14.85947 -38.437656
2.7984645 -16.790787 -32.598679
2.9023936 -18.865555 -26.326012
3.0143397 -21.100382 -19.569454
3.135268 -23.514513 -12.270789
3.2663045 -26.130432 -4.36204
3.4087718 -28.974562 4.2366252
3.564234 -32.078106 13.619609
3.7345543 -35.478268 23.899338
3.9219692 -39.219696 35.210831
4.1291885 -43.35648 47.717602
3.8209538 63.682556 -47.757648
3.820821 62.406746 -47.762985
3.820688 61.131016 -47.768341
3.8205552 59.855362 -47.773682
3.8204093 58.579609 -47.77956
3.8202763 57.304146 -47.784908
3.7937901 55.642254 -48.850636
3.7911327 54.339569 -48.957554
3.7919178 53.086849 -48.925968
3.8298638 52.341469 -47.399139
3.857034 51.427124 -46.305889
3.8570747 50.141972 -46.304256
3.8571153 48.856792 -46.302624
3.8572507 47.572762 -46.297169
3.8573861 46.288631 -46.291725
3.8575215 45.004414 -46.286274
3.8576572 43.720112 -46.280827
3.8577924 42.435719 -46.275375
3.8579278 41.151226 -46.269928
3.8580768 39.866795 -46.263931
3.8582122 38.582127 -46.25848
3.8583479 37.297359 -46.253033
3.7908711 35.381462 -48.968079
3.797632 34.178692 -48.696053
3.7896423 32.843563 -49.017529
3.7941699 31.61808 -48.835354
3.846812 30.774496 -46.717194
3.8563435 29.565296 -46.333668
3.8564115 28.28035 -46.330948
3.8564925 26.995451 -46.327679
3.8565602 25.7104 -46.324951
3.8566282 24.425304 -46.322231
3.8267162 22.960293 -47.525795
3.8121779 21.602341 -48.11076
3.8467581 20.516047 -46.719368
3.8570478 19.285238 -46.305344
3.8571694 18.000126 -46.300442
3.8572776 16.714869 -46.296082
3.7908187 15.163273 -48.970181
3.7906621 13.89909 -48.976494
3.8060112 12.686707 -48.358891
3.7895768 11.368731 -49.020161
3.7966216 10.124321 -48.736702
3.857481 9.0007896 -46.28791
3.8574944 7.7149887 -46.287365
3.8575082 6.4291811 -46.286819
3.8575351 5.1433778 -46.285732
3.8575487 3.8575511 -46.285187
3.8575757 2.5717161 -46.284092
3.8575895 1.2858604 -46.283546
3.8576028 2.1973819e-06 -46.283012
3.8576298 -1.2858827 -46.281914
3.8576434 -2.5717659 -46.281364
3.8576434 -3.8576443 -46.281364
3.8576164 -5.1434927 -46.282459
3.7911327 -6.3185635 -48.95755
3.789943 -7.5798879 -49.005436
3.6068738 -8.4160376 -56.371563
3.6500199 -9.7333889 -54.635502
3.7673197 -11.301964 -49.915722
3.8924091 -12.974698 -44.882511
4.0260906 -14.762327 -39.503586
4.169281 -16.677132 -33.742035
4.3230329 -18.733141 -27.555561
4.4885583 -20.946609 -20.895317
4.667264 -23.336323 -13.704757
4.8607683 -25.924099 -5.9187422
5.0710354 -28.735874 2.5417528
5.3003163 -31.801899 11.767304
5.5513124 -35.158314 21.866619
5.8272619 -38.848408 32.969963
6.132081 -42.924564 45.234932
5.1730189 64.662743 -45.391293
