# .PCD v0.7 - Point Cloud Data file format
VERSION 0.7
FIELDS x y z
SIZE 4 4 4
TYPE F F F
COUNT 1 1 1
WIDTH 1376
HEIGHT 1
VIEWPOINT 0 0 0 1 0 0 0
POINTS 1376
DATA ascii
-529.86383 296.72372 -566.81958
-529.83862 286.11285 -566.88037
-529.81177 275.50211 -566.94519
-529.78491 264.89246 -567.01007
-529.75806 254.28387 -567.07489
-529.7312 243.67638 -567.13977
-529.70264 233.06917 -567.20856
-529.67578 222.4639 -567.27338
-529.64899 211.85963 -567.33826
-529.62213 201.25645 -567.40302
-529.59363 190.65373 -567.47186
-529.56677 180.05273 -567.53662
-529.53992 169.45279 -567.60138
-529.51141 158.85349 -567.67029
-529.48462 148.25568 -567.73505
-529.45776 137.65906 -567.7998
-529.43097 127.06345 -567.86462
-529.40247 116.46852 -567.93341
-529.37561 105.87516 -567.99811
-529.34882 95.282791 -568.06281
-529.32031 84.691277 -568.13159
-529.29352 74.101105 -568.19635
-529.26672 63.511997 -568.26099
-529.23987 52.92403 -568.32574
-529.21143 42.336964 -568.39453
-529.18463 31.751064 -568.45923
-529.15784 21.166374 -568.52393
-518.29114 10.365859 -594.75842
-518.25415 2.1980006e-05 -594.84766
-518.21564 -10.36434 -594.94073
-518.17706 -20.727085 -595.03381
-518.14014 -31.088373 -595.12299
-518.10162 -41.448124 -595.21594
-522.33038 298.47452 -559.27185
-522.30872 287.80276 -559.32513
-522.28876 277.13287 -559.37433
-522.26715 266.46283 -559.42767
-522.24048 255.79128 -559.49329
-522.21387 245.1208 -559.55884
-522.18719 234.45145 -559.62445
-522.15894 223.78242 -559.69415
-522.13232 213.11525 -559.75977
-522.10571 202.4492 -559.82526
-522.0791 191.78419 -559.89087
-522.05078 181.11972 -559.96051
-522.02417 170.45688 -560.02606
-521.99762 159.79521 -560.09155
-521.97101 149.1346 -560.15717
-521.94275 138.47464 -560.22681
-521.91614 127.81618 -560.2923
-521.88953 117.15891 -560.35785
-521.86127 106.50231 -560.42749
-521.83466 95.847198 -560.49298
-521.80811 85.193184 -560.55841
-521.78149 74.540199 -560.62396
-521.75323 63.888195 -560.69348
-521.72668 53.237419 -560.75903
-521.70007 42.587772 -560.82452
-521.67188 31.939121 -560.89398
-521.64532 21.291683 -560.95947
-507.92532 10.365859 -594.75842
-507.88913 2.1980006e-05 -594.84766
-507.85132 -10.36434 -594.94073
-507.81354 -20.727085 -595.03381
-507.77737 -31.088373 -595.12299
-507.73962 -41.448124 -595.21594
-514.70752 300.24609 -551.63446
-514.6861 289.51096 -551.68842
-514.66626 278.77759 -551.73816
-514.64484 268.04425 -551.79218
-514.62341 257.31168 -551.84607
-514.60358 246.58093 -551.89581
-514.58051 235.84944 -551.95392
-514.55408 225.11742 -552.02032
-514.52606 214.38585 -552.09082
-514.49969 203.65614 -552.15717
-514.47327 192.92752 -552.22357
-514.4469 182.19995 -552.28992
-514.41888 171.47296 -552.36035
-514.39252 160.74767 -552.4267
-514.36609 150.02345 -552.49304
-514.33978 139.3004 -552.55933
-514.31171 128.57796 -552.62976
-514.2854 117.85712 -552.69611
-514.25903 107.13725 -552.76239
-514.23267 96.418678 -552.82867
-514.20465 85.700813 -552.89917
-514.17828 74.984383 -552.96539
-514.15192 64.269005 -553.03168
-514.12396 53.5546 -553.10205
-514.0976 42.841488 -553.16833
-514.07129 32.12944 -553.23456
-514.04492 21.418585 -553.30084
-497.55948 10.365859 -594.75842
-497.52405 2.1980006e-05 -594.84766
-497.487 -10.36434 -594.94073
-497.45001 -20.727085 -595.03381
-497.41455 -31.088373 -595.12299
-497.37756 -41.448124 -595.21594
-506.992 302.03784 -543.91003
-506.97241 291.2395 -543.96051
-506.95114 280.44107 -544.01508
-506.93155 269.64447 -544.06543
-506.91028 258.84781 -544.12006
-506.89066 248.05292 -544.17047
-506.86942 237.25804 -544.22504
-506.84814 226.4641 -544.2796
-506.82852 215.67177 -544.32996
-506.8024 204.87756 -544.39703
-506.77625 194.08452 -544.46429
-506.75009 183.2926 -544.53137
-506.72394 172.5018 -544.59857
-506.69781 161.71207 -544.66565
-506.67007 150.92299 -544.73694
-506.64392 140.13553 -544.80408
-506.6178 129.3493 -544.87122
-506.59003 118.56364 -544.9425
-506.5639 107.77956 -545.00964
-506.53781 96.996628 -545.07666
-506.51166 86.214813 -545.1438
-506.48392 75.433792 -545.21503
-506.45782 64.654205 -545.28204
-506.43173 53.875774 -545.34918
-506.40558 43.098392 -545.4162
-506.37787 32.321991 -545.48743
-506.35178 21.546854 -545.55444
-487.19366 10.365859 -594.75842
-487.15894 2.1980006e-05 -594.84766
-487.12271 -10.36434 -594.94073
-487.08646 -20.727085 -595.03381
-487.05176 -31.088373 -595.12299
-487.01553 -41.448124 -595.21594
-499.18552 303.85205 -536.08868
-499.16443 292.98785 -536.14398
-499.14499 282.12546 -536.19501
-499.12396 271.26306 -536.25024
-499.10452 260.4024 -536.30121
-499.08347 249.54178 -536.35645
-499.06403 238.68285 -536.40747
-499.043 227.82399 -536.46271
-499.02356 216.96678 -536.51367
-499.0025 206.10974 -536.56885
-498.98148 195.25366 -536.62408
-498.96042 184.39844 -536.67932
-498.93454 173.54242 -536.74719
-498.90866 162.68765 -536.81519
-498.88278 151.83392 -536.88312
-498.85529 140.98085 -536.95532
-498.82938 130.12938 -537.02325
-498.8035 119.27912 -537.09113
-498.77762 108.42994 -537.15906
-498.75012 97.581543 -537.2312
-498.72427 86.734688 -537.29901
-498.69839 75.888916 -537.367
-498.67093 65.044006 -537.43909
-498.64502 54.200535 -537.50696
-498.61917 43.3582 -537.57489
-498.59332 32.516972 -537.64264
-498.56583 21.676823 -537.71478
-476.82785 10.365859 -594.75842
-476.79385 2.1980006e-05 -594.84766
-476.75839 -10.36434 -594.94073
-476.72293 -20.727085 -595.03381
-476.68896 -31.088373 -595.12299
-476.6535 -41.448124 -595.21594
-491.28464 305.68826 -528.17285
-491.26376 294.75833 -528.22876
-491.24451 283.8302 -528.28033
-491.22369 272.90207 -528.33624
-491.20285 261.97488 -528.39227
-491.18359 251.04945 -528.44385
-491.16278 240.12408 -528.49976
-491.14352 229.20036 -528.55139
-491.12268 218.27675 -528.60718
-491.10342 207.35481 -528.65881
-491.08261 196.43304 -528.71466
-491.06339 185.51288 -528.7663
-491.04254 174.59293 -528.82214
-491.02173 163.67392 -528.87799
-490.99927 152.75534 -528.93817
-490.97363 141.83688 -529.00696
-490.94644 130.91908 -529.08002
-490.92081 120.00288 -529.14874
-490.8952 109.08782 -529.21747
-490.86957 98.173912 -529.28619
-490.84235 87.260872 -529.35919
-490.81671 76.349327 -529.42798
-490.79114 65.438843 -529.49664
-490.76553 54.529533 -529.56531
-490.73831 43.621189 -529.63831
-490.71271 32.714172 -529.70697
-490.6871 21.808363 -529.7757
-466.46201 10.365859 -594.75842
-466.42877 2.1980006e-05 -594.84766
-466.39407 -10.36434 -594.94073
-466.35941 -20.727085 -595.03381
-466.32614 -31.088373 -595.12299
-466.29147 -41.448124 -595.21594
-483.26706 296.55026 -520.21729
-483.2464 285.55475 -520.27386
-483.22736 274.56104 -520.32611
-483.20673 263.56729 -520.38269
-483.18768 252.57542 -520.435
-483.16705 241.58354 -520.49152
-483.14645 230.59267 -520.54816
-483.12741 219.60339 -520.60034
-483.10678 208.61432 -520.65698
-483.08777 197.62685 -520.70911
-483.06714 186.63959 -520.76569
-483.0481 175.65388 -520.81793
-483.0275 164.66846 -520.87451
-483.00845 153.68457 -520.9267
-482.98782 142.70102 -520.98328
-482.96722 131.71835 -521.03973
-482.94186 120.73553 -521.10938
-482.91653 109.75375 -521.17889
-482.89114 98.773224 -521.24854
-482.86578 87.793785 -521.31805
-482.83887 76.815308 -521.39197
-482.81354 65.838264 -521.46149
-482.78818 54.862286 -521.53101
-482.76282 43.887547 -521.60059
-482.7359 32.913818 -521.67444
-482.71054 21.941389 -521.74396
-456.09619 10.365859 -594.75842
-456.06369 2.1980006e-05 -594.84766
-456.02979 -10.36434 -594.94073
-455.99585 -20.727085 -595.03381
-455.96335 -31.088373 -595.12299
-455.92941 -41.448124 -595.21594
-475.17245 298.36414 -512.10785
-475.15207 287.30127 -512.1651
-475.13168 276.23935 -512.22241
-475.11282 265.17929 -512.27533
-475.09241 254.11922 -512.33258
-475.07358 243.06091 -512.3855
-475.05319 232.00278 -512.44275
-475.03433 220.94621 -512.49561
-475.01392 209.88992 -512.55286
-474.99353 198.83456 -512.61017
-474.9747 187.78078 -512.66302
-474.95432 176.72725 -512.72021
-474.93549 165.67522 -512.77307
-474.91513 154.62358 -512.83032
-474.8963 143.57333 -512.88318
-474.87589 132.52351 -512.94043
-474.85709 121.47508 -512.99323
-474.8367 110.4272 -513.05042
-474.81473 99.379845 -513.11206
-474.78967 88.332932 -513.1825
-474.76459 77.287315 -513.25287
-474.7395 66.24276 -513.3233
-474.71283 55.199196 -513.39813
-474.68777 44.157066 -513.46851
-474.66272 33.116062 -513.53888
-474.63766 22.076218 -513.60925
-445.73038 10.365859 -594.75842
-445.6972 -1.0530377e-05 -594.8515
-445.66544 -10.36434 -594.94073
-445.63232 -20.727085 -595.03381
-445.60056 -31.088373 -595.12299
-445.56741 -41.448124 -595.21594
-466.97675 300.19937 -503.90305
-466.9581 289.06934 -503.95651
-466.93793 277.93927 -504.01456
-466.91931 266.81107 -504.06812
-466.89911 255.68286 -504.12607
-466.87894 244.55566 -504.18411
-466.86032 233.43019 -504.23758
-466.84015 222.3049 -504.29559
-466.82153 211.18118 -504.34906
-466.80136 200.05775 -504.40707
-466.78275 188.93593 -504.46057
-466.76257 177.81432 -504.51852
-466.7424 166.69371 -504.57645
-466.72382 155.57463 -504.62994
-466.70364 144.45593 -504.68796
-466.68506 133.33861 -504.74136
-466.66486 122.22178 -504.79932
-466.64624 111.10626 -504.85278
-466.6261 99.991302 -504.91074
-466.60751 88.877609 -504.9642
-466.58734 77.764595 -505.02213
-466.56412 66.652077 -505.08893
-466.53931 55.540379 -505.16022
-466.51297 44.429829 -505.2359
-466.48819 33.32058 -505.30719
-466.46338 22.212542 -505.37836
-435.36456 10.365859 -594.75842
-435.33215 -1.0530377e-05 -594.8515
-435.30115 -10.36434 -594.94073
-435.26877 -20.727085 -595.03381
-435.23776 -31.088373 -595.12299
-435.20538 -41.448124 -595.21594
-458.68109 302.05832 -495.5921
-458.66113 290.85828 -495.65082
-458.64273 279.66019 -495.70505
-458.62277 268.46216 -495.76373
-458.60437 257.2659 -495.81796
-458.58444 246.06973 -495.87665
-458.56601 234.87532 -495.93082
-458.54608 223.681 -495.98953
-458.52615 212.48778 -496.04822
-458.50775 201.29607 -496.10242
-458.48782 190.10469 -496.1611
-458.46942 178.91492 -496.21527
-458.44949 167.72546 -496.27396
-458.43109 156.53746 -496.32812
-458.41116 145.34993 -496.38675
-458.39127 134.16333 -496.4454
-458.37286 122.97812 -496.49957
-458.35294 111.79344 -496.5582
-458.33453 100.61005 -496.61234
-458.31464 89.427254 -496.67099
-458.29626 78.245728 -496.72516
-458.27634 67.064812 -496.78372
-458.25797 55.885117 -496.83786
-458.23804 44.706184 -496.89651
-458.21353 33.527855 -496.96863
-458.18753 22.350599 -497.04529
-424.99872 10.365859 -594.75842
-424.9671 -1.0530377e-05 -594.8515
-424.9368 -10.36434 -594.94073
-424.90521 -20.727085 -595.03381
-424.87494 -31.088373 -595.12299
-424.84335 -41.448124 -595.21594
-450.28204 303.9404 -487.17767
-450.26233 292.67053 -487.23706
-450.24265 281.4017 -487.29654
-450.22446 270.13474 -487.35144
-450.20474 258.86777 -487.41083
-450.18658 247.60268 -487.46576
-450.1669 236.33762 -487.52515
-450.14871 225.07439 -487.58008
-450.129 213.81128 -487.63947
-450.11081 202.54988 -487.69437
-450.09113 191.28873 -487.75375
-450.07144 180.02859 -487.81317
-450.05328 168.77 -487.86798
-450.0336 157.51181 -487.9274
-450.01541 146.255 -487.98224
-449.99573 134.99875 -488.04163
-449.9776 123.74385 -488.09644
-449.95792 112.48952 -488.15582
-449.93823 101.23611 -488.21518
-449.92007 89.984047 -488.27005
-449.90039 78.732628 -488.32938
-449.88223 67.482353 -488.38416
-449.86258 56.232838 -488.44354
-449.84439 44.984489 -488.49829
-449.82474 33.73687 -488.55765
-449.80661 22.490337 -488.61246
-414.63293 10.365859 -594.75842
-414.60205 -1.0530377e-05 -594.8515
-414.57251 -10.36434 -594.94073
-414.54169 -20.727085 -595.03381
-414.51215 -31.088373 -595.12299
-414.48129 -41.448124 -595.21594
-404.26709 10.365859 -594.75842
-404.237 -1.0530377e-05 -594.8515
-404.20822 -10.36434 -594.94073
-404.17813 -20.727085 -595.03381
-404.14935 -31.088373 -595.12299
-404.11926 -41.448124 -595.21594
-393.90128 10.365859 -594.75842
-393.87195 -1.0530377e-05 -594.8515
-393.84387 -10.36434 -594.94073
-393.81458 -20.727085 -595.03381
-393.78653 -31.088373 -595.12299
-393.75723 -41.448124 -595.21594
-383.53543 10.365859 -594.75842
-383.5069 -1.0530377e-05 -594.8515
-383.47958 -10.36434 -594.94073
-383.45105 -20.727085 -595.03381
-383.42374 -31.088373 -595.12299
-383.39523 -41.448124 -595.21594
-373.16959 10.365859 -594.75842
-373.14185 -1.0530377e-05 -594.8515
-373.11523 -10.36434 -594.94073
-373.08749 -20.727085 -595.03381
-373.06094 -31.088373 -595.12299
-373.03317 -41.448124 -595.21594
-362.8038 10.365859 -594.75842
-362.77679 -1.0530377e-05 -594.8515
-362.75095 -10.36434 -594.94073
-362.72397 -20.727085 -595.03381
-362.69809 -31.088373 -595.12299
-362.67114 -41.448124 -595.21594
-352.43796 10.365859 -594.75842
-352.41174 -1.0530377e-05 -594.8515
-352.38663 -10.36434 -594.94073
-352.36041 -20.727085 -595.03381
-352.33533 -31.088373 -595.12299
-352.30911 -41.448124 -595.21594
-342.07214 10.365859 -594.75842
-342.04669 -1.0530377e-05 -594.8515
-342.02231 -10.36434 -594.94073
-341.99686 -20.727085 -595.03381
-341.97253 -31.088373 -595.12299
-341.94705 -41.448124 -595.21594
-331.70633 10.365859 -594.75842
-331.68164 -1.0530377e-05 -594.8515
-331.65802 -10.36434 -594.94073
-331.63336 -20.727085 -595.03381
-331.60968 -31.088373 -595.12299
-331.58502 -41.448124 -595.21594
-321.34052 10.365859 -594.75842
-321.31659 -1.0530377e-05 -594.8515
-321.2937 -10.36434 -594.94073
-321.26981 -20.727085 -595.03381
-321.24689 -31.088373 -595.12299
-321.22302 -41.448124 -595.21594
-609.78278 284.56531 607.55237
-609.70862 264.20718 607.25415
-609.63452 243.85387 606.95593
-609.56415 223.50691 606.67279
-609.49011 203.16348 606.37476
-609.41608 182.82481 606.07684
-609.34198 162.4912 605.77899
-609.26801 142.1626 605.4812
-609.19397 121.83888 605.18341
-609.12006 101.52013 604.8858
-609.04602 81.206245 604.5882
-608.97211 60.897205 604.29071
-608.89819 40.593281 603.99335
-310.97467 10.365859 -594.75842
-310.95154 -1.0530377e-05 -594.8515
-310.92938 -10.36434 -594.94073
-310.90628 -20.727085 -595.03381
-310.88412 -31.088373 -595.12299
-310.86099 -41.448124 -595.21594
-583.05981 281.47714 580.92584
-582.98969 261.34021 580.63409
-582.91962 241.20818 580.34229
-582.84955 221.0809 580.05072
-582.77948 200.9585 579.75916
-582.70947 180.84088 579.46753
-582.64294 160.72914 579.19067
-582.57294 140.62106 578.89935
-582.50293 120.51793 578.60809
-582.43298 100.41945 578.31683
-582.36304 80.325996 578.02563
-582.29309 60.237175 577.73456
-582.22321 40.153378 577.4436
-300.60886 10.365859 -594.75842
-300.58649 -1.0530377e-05 -594.8515
-300.56506 -10.36434 -594.94073
-300.54272 -20.727085 -595.03381
-300.5213 -31.088373 -595.12299
-300.49893 -41.448124 -595.21594
-556.97687 298.38049 555.15668
-556.91058 278.45535 554.87109
-556.84436 258.53497 554.58551
-556.77814 238.61926 554.29999
-556.71191 218.70836 554.01453
-556.64575 198.80217 553.72913
-556.57959 178.90059 553.44391
-556.51343 159.00392 553.15869
-556.44727 139.11194 552.87347
-556.3811 119.22456 552.58844
-556.315 99.342026 552.30347
-556.25226 79.4646 552.03265
-556.18616 59.591446 551.7478
-556.12012 39.72287 551.46295
-290.24304 10.365859 -594.75842
-290.22144 -1.0530377e-05 -594.8515
-290.20078 -10.36434 -594.94073
-290.17917 -20.727085 -595.03381
-290.15759 -31.088276 -595.12677
-290.1369 -41.448124 -595.21594
-531.37634 295.20911 529.63531
-531.31696 275.49774 529.36963
-531.25439 255.78923 529.09015
-531.19189 236.08536 528.81073
-531.12939 216.38603 528.53131
-531.06696 196.69154 528.25201
-531.00446 177.00153 527.97278
-530.94202 157.3161 527.69348
-530.87958 137.63551 527.41437
-530.81714 117.9594 527.13531
-530.75476 98.288002 526.85626
-530.69238 78.621071 526.57733
-530.62994 58.958992 526.29846
-530.56763 39.301311 526.01965
-279.8772 10.365859 -594.75842
-279.85638 -1.0530377e-05 -594.8515
-279.83646 -10.36434 -594.94073
-279.81564 -20.727085 -595.03381
-279.79483 -31.088276 -595.12677
-279.77487 -41.448124 -595.21594
-506.31723 292.1062 504.66446
-506.25827 272.60062 504.39069
-506.19931 253.09973 504.11703
-506.14038 233.60335 503.84335
-506.08148 214.11145 503.56989
-506.02551 194.62523 503.31006
-505.96661 175.14238 503.03662
-505.90775 155.66394 502.76321
-505.84888 136.19008 502.48996
-505.79004 116.7208 502.21667
-505.73117 97.256042 501.94345
-505.67236 77.795876 501.67038
-505.61353 58.34013 501.39734
-505.55472 38.888836 501.12439
-269.51138 10.365859 -594.75842
-269.49133 -1.0530377e-05 -594.8515
-269.47214 -10.36434 -594.94073
-269.45209 -20.727085 -595.03381
-269.43204 -31.088276 -595.12677
-269.41284 -41.448124 -595.21594
-486.2149 291.72894 501.62939
-486.181 272.26144 501.46561
-486.14709 252.79649 501.30185
-486.11032 233.33304 501.12436
-486.07642 213.87367 500.96054
-486.03967 194.41591 500.7832
-486.00577 174.9622 500.61948
-485.97186 155.51099 500.45581
-485.93515 136.0619 500.27859
-485.90125 116.61631 500.11484
-485.86453 97.172935 499.93762
-485.83066 77.733002 499.77402
-485.79678 58.295685 499.6105
-485.7601 38.86087 499.43335
-259.14557 10.365859 -594.75842
-259.12628 -1.0530377e-05 -594.8515
-259.10782 -10.36434 -594.94073
-259.08853 -20.727085 -595.03381
-259.06927 -31.088276 -595.12677
-259.05081 -41.448124 -595.21594
-466.76633 291.72894 501.62939
-466.73376 272.26144 501.46561
-466.70117 252.79649 501.30185
-466.66589 233.33304 501.12436
-466.63336 213.87367 500.96054
-466.59808 194.41591 500.7832
-466.56555 174.9622 500.61948
-466.53299 155.51099 500.45581
-466.49774 136.0619 500.27859
-466.46521 116.61631 500.11484
-466.42996 97.172935 499.93762
-466.39743 77.733002 499.77402
-466.36493 58.295685 499.6105
-466.32968 38.86087 499.43335
-248.77974 10.365859 -594.75842
-248.76125 -1.0530377e-05 -594.8515
-248.7435 -10.36434 -594.94073
-248.72501 -20.727085 -595.03381
-248.7065 -31.088276 -595.12677
-248.68878 -41.448124 -595.21594
-238.41393 10.365859 -594.75842
-238.39619 -1.0530377e-05 -594.8515
-238.3792 -10.36434 -594.94073
-238.36147 -20.727085 -595.03381
-238.34375 -31.088276 -595.12677
-238.32675 -41.448124 -595.21594
-228.0481 10.365859 -594.75842
-228.03113 -1.0530377e-05 -594.8515
-228.01489 -10.36434 -594.94073
-227.99792 -20.727085 -595.03381
-227.98097 -31.088276 -595.12677
-227.96471 -41.448124 -595.21594
-217.68228 10.365859 -594.75842
-217.66608 -1.0530377e-05 -594.8515
-217.65057 -10.36434 -594.94073
-217.63438 -20.727085 -595.03381
-217.61819 -31.088276 -595.12677
-217.60269 -41.448124 -595.21594
-207.31647 10.365859 -594.75842
-207.30103 -1.0530377e-05 -594.8515
-207.28625 -10.36434 -594.94073
-207.27084 -20.727085 -595.03381
-207.25542 -31.088276 -595.12677
-207.24065 -41.448124 -595.21594
-196.95064 10.365859 -594.75842
-196.93597 -1.0530377e-05 -594.8515
-196.92194 -10.36434 -594.94073
-196.90729 -20.727085 -595.03381
-196.89265 -31.088276 -595.12677
-196.87862 -41.448124 -595.21594
-186.58479 10.365859 -594.75842
-186.57092 -1.0530377e-05 -594.8515
-186.55762 -10.36434 -594.94073
-186.54375 -20.727085 -595.03381
-186.52988 -31.088276 -595.12677
-186.51659 -41.448124 -595.21594
-176.21898 10.365859 -594.75842
-176.20587 -1.0530377e-05 -594.8515
-176.19331 -10.36434 -594.94073
-176.18021 -20.727085 -595.03381
-176.1671 -31.088276 -595.12677
-176.15456 -41.448124 -595.21594
-165.85316 10.365859 -594.75842
-165.84082 -1.0530377e-05 -594.8515
-165.82901 -10.36434 -594.94073
-165.81668 -20.727085 -595.03381
-165.80435 -31.088276 -595.12677
-165.79251 -41.448124 -595.21594
-155.48734 10.365859 -594.75842
-155.47577 -1.0530377e-05 -594.8515
-155.46469 -10.36434 -594.94073
-155.45314 -20.727085 -595.03381
-155.44157 -31.088276 -595.12677
-155.4305 -41.448124 -595.21594
-145.12152 10.365859 -594.75842
-145.11072 -1.0530377e-05 -594.8515
-145.10039 -10.36434 -594.94073
-145.08958 -20.727085 -595.03381
-145.0788 -31.088276 -595.12677
-145.06845 -41.448124 -595.21594
-134.75569 10.365859 -594.75842
-134.74567 -1.0530377e-05 -594.8515
-134.73607 -10.36434 -594.94073
-134.72604 -20.727085 -595.03381
-134.71602 -31.088276 -595.12677
-134.70642 -41.448124 -595.21594
-124.38987 10.365859 -594.75842
-124.38062 -1.0530377e-05 -594.8515
-124.37175 -10.36434 -594.94073
-124.3625 -20.727085 -595.03381
-124.35325 -31.088276 -595.12677
-124.34439 -41.448124 -595.21594
-114.02405 10.365859 -594.75842
-114.01556 -1.0530377e-05 -594.8515
-114.00745 -10.36434 -594.94073
-113.99896 -20.727085 -595.03381
-113.99049 -31.088276 -595.12677
-113.98235 -41.448124 -595.21594
-103.65823 10.365859 -594.75842
-103.65051 -1.0530377e-05 -594.8515
-103.64281 -10.364246 -594.94464
-103.63542 -20.727085 -595.03381
-103.62771 -31.088276 -595.12677
-103.62032 -41.448124 -595.21594
-93.292397 10.365859 -594.75842
-93.285461 -1.0530377e-05 -594.8515
-93.278526 -10.364246 -594.94464
-93.271873 -20.727085 -595.03381
-93.264938 -31.088276 -595.12677
-93.258293 -41.448124 -595.21594
-82.926582 10.365859 -594.75842
-82.92041 -1.0530377e-05 -594.8515
-82.914246 -10.364246 -594.94464
-82.90834 -20.727085 -595.03381
-82.902176 -31.088276 -595.12677
-82.896255 -41.448124 -595.21594
-72.56076 10.365859 -594.75842
-72.555359 -1.0530377e-05 -594.8515
-72.549965 -10.364246 -594.94464
-72.544792 -20.727085 -595.03381
-72.539398 -31.088276 -595.12677
-72.534225 -41.448124 -595.21594
-62.194935 10.365859 -594.75842
-62.190311 -1.0530377e-05 -594.8515
-62.18568 -10.364246 -594.94464
-62.181252 -20.727085 -595.03381
-62.176624 -31.088276 -595.12677
-62.172195 -41.448124 -595.21594
-51.829117 10.365859 -594.75842
-51.825256 -1.0530377e-05 -594.8515
-51.821404 -10.364246 -594.94464
-51.817711 -20.727085 -595.03381
-51.813854 -31.088276 -595.12677
-51.810162 -41.448124 -595.21594
-41.463291 10.365859 -594.75842
-41.460205 -1.0530377e-05 -594.8515
-41.457123 -10.364246 -594.94464
-41.45417 -20.727085 -595.03381
-41.451088 -31.088276 -595.12677
-41.448128 -41.448124 -595.21594
-31.097467 10.365859 -594.75842
-31.095156 -1.0530377e-05 -594.8515
-31.09284 -10.364246 -594.94464
-31.090626 -20.727085 -595.03381
-31.088312 -31.088276 -595.12677
-31.086098 -41.448124 -595.21594
-20.731646 10.365859 -594.75842
-20.730103 -1.0530377e-05 -594.8515
-20.728561 -10.364246 -594.94464
-20.727085 -20.727085 -595.03381
-20.725544 -31.088276 -595.12677
-20.724064 -41.448124 -595.21594
-10.365823 10.365859 -594.75842
-10.365051 -1.0530377e-05 -594.8515
-10.364281 -10.364246 -594.94464
-10.363543 -20.727085 -595.03381
-10.362772 -31.088276 -595.12677
-10.362032 -41.448124 -595.21594
7.3772757e-24 10.365859 -594.75842
4.0833712e-22 -1.0530377e-05 -594.8515
9.0823209e-23 -10.364246 -594.94464
3.1941985e-22 -20.727085 -595.03381
3.4326077e-22 -31.088276 -595.12677
3.2044479e-22 -41.448124 -595.21594
10.365823 10.365859 -594.75842
10.365051 -1.0530377e-05 -594.8515
10.364281 -10.364246 -594.94464
10.363543 -20.727085 -595.03381
10.362772 -31.088276 -595.12677
10.362032 -41.448124 -595.21594
20.731646 10.365859 -594.75842
20.730103 -1.0530377e-05 -594.8515
20.728561 -10.364246 -594.94464
20.727085 -20.727085 -595.03381
20.725544 -31.088276 -595.12677
20.724064 -41.448124 -595.21594
31.097467 10.365859 -594.75842
31.095156 -1.0530377e-05 -594.8515
31.09284 -10.364246 -594.94464
31.090626 -20.727085 -595.03381
31.088312 -31.088276 -595.12677
31.086098 -41.448124 -595.21594
41.463291 10.365859 -594.75842
41.460205 -1.0530377e-05 -594.8515
41.457123 -10.364246 -594.94464
41.45417 -20.727085 -595.03381
41.451088 -31.088276 -595.12677
41.448128 -41.448124 -595.21594
51.829117 10.365859 -594.75842
51.825256 -1.0530377e-05 -594.8515
51.821404 -10.364246 -594.94464
51.817711 -20.727085 -595.03381
51.813854 -31.088276 -595.12677
51.810162 -41.448124 -595.21594
62.194935 10.365859 -594.75842
62.190311 -1.0530377e-05 -594.8515
62.18568 -10.364246 -594.94464
62.181252 -20.727085 -595.03381
62.176624 -31.088276 -595.12677
62.172195 -41.448124 -595.21594
72.56076 10.365859 -594.75842
72.555359 -1.0530377e-05 -594.8515
72.549965 -10.364246 -594.94464
72.544792 -20.727085 -595.03381
72.539398 -31.088276 -595.12677
72.534225 -41.448124 -595.21594
82.926582 10.365859 -594.75842
82.92041 -1.0530377e-05 -594.8515
82.914246 -10.364246 -594.94464
82.90834 -20.727085 -595.03381
82.902176 -31.088276 -595.12677
82.896255 -41.448124 -595.21594
93.292397 10.365859 -594.75842
93.285461 -1.0530377e-05 -594.8515
93.278526 -10.364246 -594.94464
93.271873 -20.727085 -595.03381
93.264938 -31.088276 -595.12677
93.258293 -41.448124 -595.21594
103.65823 10.365859 -594.75842
103.65051 -1.0530377e-05 -594.8515
103.64281 -10.364246 -594.94464
103.63542 -20.727085 -595.03381
103.62771 -31.088276 -595.12677
103.62032 -41.448124 -595.21594
114.02405 10.365859 -594.75842
114.01556 -1.0530377e-05 -594.8515
114.00709 -10.364246 -594.94464
113.99896 -20.727085 -595.03381
113.99049 -31.088276 -595.12677
113.98235 -41.448124 -595.21594
124.38949 10.365794 -594.76227
124.38062 -1.0530377e-05 -594.8515
124.37136 -10.364246 -594.94464
124.3625 -20.727085 -595.03381
124.35325 -31.088276 -595.12677
124.34439 -41.448124 -595.21594
134.75528 10.365794 -594.76227
134.74567 -1.0530377e-05 -594.8515
134.73566 -10.364246 -594.94464
134.72604 -20.727085 -595.03381
134.71602 -31.088276 -595.12677
134.70642 -41.448124 -595.21594
145.12106 10.365794 -594.76227
145.11072 -1.0530377e-05 -594.8515
145.09993 -10.364246 -594.94464
145.08958 -20.727085 -595.03381
145.0788 -31.088276 -595.12677
145.06845 -41.448124 -595.21594
155.48685 10.365794 -594.76227
155.47577 -1.0530377e-05 -594.8515
155.46422 -10.364246 -594.94464
155.45314 -20.727085 -595.03381
155.44157 -31.088276 -595.12677
155.4305 -41.448124 -595.21594
165.85266 10.365794 -594.76227
165.84082 -1.0530377e-05 -594.8515
165.82849 -10.364246 -594.94464
165.81668 -20.727085 -595.03381
165.80435 -31.088276 -595.12677
165.79251 -41.448124 -595.21594
176.21844 10.365794 -594.76227
176.20587 -1.0530377e-05 -594.8515
176.19276 -10.364246 -594.94464
176.18021 -20.727085 -595.03381
176.1671 -31.088276 -595.12677
176.15456 -41.448124 -595.21594
186.58423 10.365794 -594.76227
186.57092 -1.0530377e-05 -594.8515
186.55705 -10.364246 -594.94464
186.54375 -20.727085 -595.03381
186.52988 -31.088276 -595.12677
186.51659 -41.448124 -595.21594
196.95003 10.365794 -594.76227
196.93597 -1.0530377e-05 -594.8515
196.92133 -10.364246 -594.94464
196.90729 -20.727085 -595.03381
196.89265 -31.088276 -595.12677
196.87862 -41.448124 -595.21594
207.31581 10.365794 -594.76227
207.30103 -1.0530377e-05 -594.8515
207.28561 -10.364246 -594.94464
207.27084 -20.727085 -595.03381
207.25542 -31.088276 -595.12677
207.24065 -41.448124 -595.21594
217.68159 10.365794 -594.76227
217.66608 -1.0530377e-05 -594.8515
217.64989 -10.364246 -594.94464
217.63438 -20.727085 -595.03381
217.61819 -31.088276 -595.12677
217.60269 -41.448124 -595.21594
228.04738 10.365794 -594.76227
228.03113 -1.0530377e-05 -594.8515
228.01418 -10.364246 -594.94464
227.99792 -20.727085 -595.03381
227.98097 -31.088276 -595.12677
227.96471 -41.448124 -595.21594
447.31775 291.72894 501.62939
447.2865 272.26144 501.46561
447.25531 252.79649 501.30185
447.2215 233.33304 501.12436
447.19028 213.87367 500.96054
447.15649 194.41591 500.7832
447.12531 174.9622 500.61948
447.09412 155.51099 500.45581
447.06036 136.0619 500.27859
447.02914 116.61631 500.11484
446.99539 97.172935 499.93762
446.9642 77.733002 499.77402
446.93304 58.295685 499.6105
446.89926 38.86087 499.43335
238.41319 10.365794 -594.76227
238.39619 -1.0530377e-05 -594.8515
238.37845 -10.364246 -594.94464
238.36147 -20.727085 -595.03381
238.34375 -31.088276 -595.12677
238.32675 -41.448124 -595.21594
466.76633 291.72894 501.62939
466.73376 272.26144 501.46561
466.70117 252.79649 501.30185
466.66589 233.33304 501.12436
466.63336 213.87367 500.96054
466.59808 194.41591 500.7832
466.56555 174.9622 500.61948
466.53299 155.51099 500.45581
466.49774 136.0619 500.27859
466.46521 116.61631 500.11484
466.42996 97.172935 499.93762
466.39743 77.733002 499.77402
466.36493 58.295685 499.6105
466.32968 38.86087 499.43335
248.77898 10.365794 -594.76227
248.76125 -1.0530377e-05 -594.8515
248.74272 -10.364246 -594.94464
248.72501 -20.727085 -595.03381
248.7065 -31.088276 -595.12677
248.68878 -41.448124 -595.21594
486.84348 292.1062 504.66446
486.7868 272.60062 504.39069
486.7301 253.09973 504.11703
486.67346 233.60335 503.84335
486.61679 214.11145 503.56989
486.56302 194.62523 503.31006
486.50635 175.14238 503.03662
486.44974 155.66394 502.76321
486.39313 136.19008 502.48996
486.33658 116.7208 502.21667
486.28 97.256042 501.94345
486.22342 77.795876 501.67038
486.16687 58.34013 501.39734
486.11032 38.888836 501.12439
259.14478 10.365794 -594.76227
259.12628 -1.0530377e-05 -594.8515
259.10699 -10.364246 -594.94464
259.08853 -20.727085 -595.03381
259.06927 -31.088276 -595.12677
259.05081 -41.448124 -595.21594
511.69574 295.20911 529.63531
511.63852 275.49774 529.36963
511.57834 255.78923 529.09015
511.51813 236.08536 528.81073
511.45795 216.38603 528.53131
511.3978 196.69154 528.25201
511.33762 177.00153 527.97278
511.2775 157.3161 527.69348
511.21738 137.63551 527.41437
511.15726 117.9594 527.13531
511.09717 98.288002 526.85626
511.03708 78.621071 526.57733
510.97702 58.958992 526.29846
510.91696 39.301311 526.01965
269.51056 10.365794 -594.76227
269.49133 -1.0530377e-05 -594.8515
269.47131 -10.364246 -594.94464
269.45209 -20.727085 -595.03381
269.43204 -31.088276 -595.12677
269.41284 -41.448124 -595.21594
537.08484 298.38049 555.15668
537.02094 278.45535 554.87109
536.95709 258.53497 554.58551
536.89319 238.61926 554.29999
536.82941 218.70836 554.01453
536.76556 198.80217 553.72913
536.70172 178.90059 553.44391
536.63794 159.00392 553.15869
536.57416 139.11194 552.87347
536.51038 119.22456 552.58844
536.44666 99.342026 552.30347
536.38611 79.4646 552.03265
536.32239 59.591446 551.7478
536.25867 39.72287 551.46295
279.87634 10.365794 -594.76227
279.85638 -1.0530377e-05 -594.8515
279.83557 -10.364246 -594.94464
279.81564 -20.727085 -595.03381
279.79483 -31.088276 -595.12677
279.77487 -41.448124 -595.21594
562.95428 281.47714 580.92584
562.8866 261.34021 580.63409
562.81897 241.20818 580.34229
562.75128 221.0809 580.05072
562.68365 200.9585 579.75916
562.61603 180.84088 579.46753
562.55182 160.72914 579.19067
562.48425 140.62106 578.89935
562.41663 120.51793 578.60809
562.34912 100.41945 578.31683
562.28156 80.325996 578.02563
562.21405 60.237175 577.73456
562.14655 40.153378 577.4436
290.24213 10.365794 -594.76227
290.22144 -1.0530377e-05 -594.8515
290.19986 -10.364246 -594.94464
290.17917 -20.727085 -595.03381
290.15759 -31.088276 -595.12677
290.1369 -41.448124 -595.21594
589.45667 284.56531 607.55237
589.38501 264.20718 607.25415
589.31335 243.85387 606.95593
589.24536 223.50691 606.67279
589.17377 203.16348 606.37476
589.10217 182.82481 606.07684
589.03058 162.4912 605.77899
588.95905 142.1626 605.4812
588.88757 121.83888 605.18341
588.81604 101.52013 604.8858
588.74451 81.206245 604.5882
588.67303 60.897205 604.29071
588.60156 40.593281 603.99335
300.60791 10.365794 -594.76227
300.58649 -1.0530377e-05 -594.8515
300.56415 -10.364246 -594.94464
300.54272 -20.727085 -595.03381
300.52036 -31.088276 -595.12677
300.49893 -41.448124 -595.21594
310.97369 10.365794 -594.76227
310.95154 -1.0530377e-05 -594.8515
310.92844 -10.364246 -594.94464
310.90628 -20.727085 -595.03381
310.88315 -31.088276 -595.12677
310.86099 -41.448124 -595.21594
321.33951 10.365794 -594.76227
321.31659 -1.0530377e-05 -594.8515
321.29269 -10.364246 -594.94464
321.26981 -20.727085 -595.03381
321.24591 -31.088276 -595.12677
321.22302 -41.448124 -595.21594
331.70532 10.365794 -594.76227
331.68164 -1.0530377e-05 -594.8515
331.65698 -10.364246 -594.94464
331.63336 -20.727085 -595.03381
331.6087 -31.088276 -595.12677
331.58502 -41.448124 -595.21594
342.07108 10.365794 -594.76227
342.04669 -1.0530377e-05 -594.8515
342.02124 -10.364246 -594.94464
341.99686 -20.727085 -595.03381
341.97144 -31.088276 -595.12677
341.94705 -41.448124 -595.21594
352.43689 10.365794 -594.76227
352.41174 -1.0530377e-05 -594.8515
352.38553 -10.364246 -594.94464
352.36041 -20.727085 -595.03381
352.3342 -31.088276 -595.12677
352.30911 -41.448124 -595.21594
362.80267 10.365794 -594.76227
362.77679 -1.0530377e-05 -594.8515
362.74985 -10.364246 -594.94464
362.72397 -20.727085 -595.03381
362.69699 -31.088276 -595.12677
362.67114 -41.448124 -595.21594
373.16846 10.365794 -594.76227
373.14185 -1.0530377e-05 -594.8515
373.11411 -10.364246 -594.94464
373.08749 -20.727085 -595.03381
373.05975 -31.088276 -595.12677
373.03317 -41.448124 -595.21594
383.53427 10.365794 -594.76227
383.5069 -1.0530377e-05 -594.8515
383.47839 -10.364246 -594.94464
383.45105 -20.727085 -595.03381
383.42255 -31.088276 -595.12677
383.39523 -41.448124 -595.21594
393.90005 10.365794 -594.76227
393.87195 -1.0530377e-05 -594.8515
393.84265 -10.364246 -594.94464
393.81458 -20.727085 -595.03381
393.78531 -31.088276 -595.12677
393.75723 -41.448124 -595.21594
439.02353 303.93942 -487.18222
439.00577 292.67053 -487.23706
438.9866 281.4017 -487.29654
438.96884 270.13474 -487.35144
438.94962 258.86777 -487.41083
438.93192 247.60268 -487.46576
438.91269 236.33762 -487.52515
438.89352 225.07365 -487.58463
438.87576 213.81128 -487.63947
438.8566 202.54924 -487.69891
438.83887 191.28873 -487.75375
438.81967 180.02859 -487.81317
438.80194 168.77 -487.86798
438.78278 157.51181 -487.9274
438.76508 146.255 -487.98224
438.74585 134.99875 -488.04163
438.72812 123.74385 -488.09644
438.70895 112.48952 -488.15582
438.68976 101.23611 -488.21518
438.67206 89.984047 -488.27005
438.65289 78.732628 -488.32938
438.63516 67.482353 -488.38416
438.61603 56.232838 -488.44354
438.5983 44.984489 -488.49829
438.57913 33.73687 -488.55765
438.56143 22.490337 -488.61246
404.26584 10.365794 -594.76227
404.237 -1.0530377e-05 -594.8515
404.20697 -10.364246 -594.94464
404.17813 -20.727085 -595.03381
404.1481 -31.088276 -595.12677
404.11926 -41.448124 -595.21594
447.49222 302.05734 -495.59665
447.47128 290.85638 -495.65988
447.45334 279.65839 -495.71411
447.43387 268.46036 -495.77283
447.41589 257.26416 -495.827
447.39645 246.06805 -495.88565
447.37698 234.87291 -495.94437
447.35904 223.67953 -495.99863
447.3396 212.4863 -496.05728
447.32166 201.29472 -496.11142
447.30222 190.10344 -496.1701
447.28424 178.91376 -496.2243
447.2648 167.7243 -496.28299
447.24686 156.53644 -496.33713
447.22742 145.34894 -496.39581
447.20798 134.16245 -496.45447
447.19003 122.97727 -496.50861
447.17059 111.79271 -496.56726
447.15268 100.60938 -496.62137
447.13324 89.426682 -496.68002
447.11533 78.245216 -496.73416
447.09589 67.064407 -496.79276
447.07794 55.884762 -496.84683
447.05853 44.70586 -496.90552
447.03763 33.527855 -496.96863
447.01221 22.350599 -497.04529
414.63162 10.365794 -594.76227
414.60205 -1.0530377e-05 -594.8515
414.57123 -10.364246 -594.94464
414.54169 -20.727085 -595.03381
414.51083 -31.088276 -595.12677
414.48129 -41.448124 -595.21594
455.85519 300.19736 -503.91196
455.83398 289.06546 -503.97443
455.8143 277.93555 -504.03241
455.79459 266.80664 -504.09045
455.7764 255.67949 -504.14395
455.75671 244.55241 -504.2019
455.73856 233.42706 -504.25543
455.71887 222.30193 -504.31345
455.70068 211.17841 -504.36691
455.681 200.0551 -504.42484
455.66281 188.9334 -504.47842
455.64313 177.812 -504.53632
455.62344 166.69151 -504.59433
455.60529 155.57253 -504.6478
455.5856 144.45403 -504.70572
455.56741 133.33682 -504.75925
455.54773 122.22017 -504.81717
455.5296 111.1048 -504.87064
455.50992 99.990021 -504.92856
455.49176 88.876488 -504.98199
455.47208 77.763557 -505.03995
455.45392 66.651802 -505.09341
455.43121 55.540379 -505.16022
455.40552 44.429829 -505.2359
455.38132 33.32058 -505.30719
455.35712 22.212542 -505.37836
424.99741 10.365794 -594.76227
424.9671 -1.0530377e-05 -594.8515
424.93552 -10.364246 -594.94464
424.90521 -20.727085 -595.03381
424.8736 -31.088276 -595.12677
424.84335 -41.448124 -595.21594
464.11737 298.36121 -512.12109
464.0928 287.29556 -512.19159
464.07288 276.23389 -512.2489
464.05447 265.17404 -512.30176
464.03455 254.11415 -512.35901
464.01614 243.05609 -512.41193
463.99622 231.99814 -512.46924
463.97784 220.94188 -512.52203
463.95789 209.88576 -512.57928
463.93954 198.83122 -512.63214
463.91962 187.77704 -512.68945
463.89966 176.72369 -512.7467
463.88129 165.67192 -512.7995
463.86139 154.62053 -512.85675
463.84299 143.5705 -512.90955
463.82309 132.52092 -512.9668
463.80469 121.47271 -513.01965
463.78479 110.42498 -513.07684
463.76642 99.378532 -513.1297
463.74652 88.332695 -513.18683
463.72354 77.287315 -513.25287
463.69904 66.24276 -513.3233
463.673 55.199196 -513.39813
463.64853 44.157066 -513.46851
463.62402 33.116062 -513.53888
463.59955 22.076218 -513.60925
435.36319 10.365794 -594.76227
435.33215 -1.0530377e-05 -594.8515
435.29977 -10.364246 -594.94464
435.26877 -20.727085 -595.03381
435.23639 -31.088276 -595.12677
435.20538 -41.448124 -595.21594
472.27902 296.54736 -520.23035
472.25421 285.54907 -520.29999
472.23254 274.5538 -520.36096
472.21234 263.56042 -520.4176
472.19373 252.56879 -520.46979
472.17358 241.57727 -520.52643
472.155 230.58733 -520.57861
472.13483 219.59763 -520.63519
472.11469 208.60886 -520.69177
472.09607 197.62166 -520.74396
472.07593 186.63466 -520.80054
472.05731 175.64926 -520.85272
472.0372 164.6642 -520.9093
472.01862 153.68053 -520.96149
471.99844 142.69724 -521.01807
471.97989 131.71535 -521.07025
471.95972 120.73389 -521.12677
471.93958 109.75342 -521.18329
471.91635 98.773224 -521.24854
471.89157 87.793785 -521.31805
471.86526 76.815308 -521.39197
471.84048 65.838264 -521.46149
471.8157 54.862286 -521.53101
471.79092 43.887547 -521.60059
471.76462 32.913818 -521.67444
471.73984 21.941389 -521.74396
445.729 10.365794 -594.76227
445.6972 -1.0530377e-05 -594.8515
445.66406 -10.364246 -594.94464
445.63232 -20.727085 -595.03381
445.59915 -31.088276 -595.12677
445.56741 -41.448124 -595.21594
480.36719 305.68826 -528.17285
480.34052 294.75446 -528.24591
480.31543 283.82275 -528.31482
480.2919 272.89316 -528.37927
480.27313 261.96716 -528.43091
480.25272 251.0412 -528.48682
480.23236 240.11624 -528.54272
480.21353 229.19286 -528.59436
480.19318 218.26965 -528.65021
480.17435 207.34804 -528.70184
480.15399 196.42665 -528.75763
480.13519 185.50679 -528.80927
480.11484 174.5872 -528.86511
480.09604 163.66911 -528.91669
480.07568 152.75139 -528.9726
480.05685 141.83501 -529.02411
480.0365 130.91908 -529.08002
480.01147 120.00288 -529.14874
479.98642 109.08782 -529.21747
479.96136 98.173912 -529.28619
479.93475 87.260872 -529.35919
479.9097 76.349327 -529.42798
479.88467 65.438843 -529.49664
479.85959 54.529533 -529.56531
479.83301 43.621189 -529.63831
479.80798 32.714172 -529.70697
479.78296 21.808363 -529.7757
456.09476 10.365794 -594.76227
456.06226 -1.0530377e-05 -594.8515
456.02835 -10.364246 -594.94464
455.99585 -20.727085 -595.03381
455.96194 -31.088276 -595.12677
455.92941 -41.448124 -595.21594
488.33206 303.85107 -536.09296
488.3067 292.98404 -536.16095
488.28134 282.11816 -536.229
488.25598 271.25333 -536.29694
488.23541 260.39221 -536.35223
488.21484 249.53207 -536.40741
488.1958 238.67357 -536.4585
488.17523 227.81511 -536.51367
488.15622 216.95831 -536.56464
488.13565 206.10173 -536.61987
488.11664 195.24664 -536.67084
488.09607 184.39189 -536.72601
488.07706 173.53856 -536.77698
488.05649 162.6855 -536.83215
488.03589 151.83347 -536.88739
488.01059 140.98085 -536.95532
487.98526 130.12938 -537.02325
487.95993 119.27912 -537.09113
487.9346 108.42994 -537.15906
487.90771 97.581543 -537.2312
487.88242 86.734688 -537.29901
487.85712 75.888916 -537.367
487.83026 65.044006 -537.43909
487.80493 54.200535 -537.50696
487.77963 43.3582 -537.57489
487.75433 32.516972 -537.64264
487.72745 21.676823 -537.71478
466.46057 10.365794 -594.76227
466.42734 -1.0530377e-05 -594.8515
466.39264 -10.364246 -594.94464
466.35941 -20.727085 -595.03381
466.32471 -31.088276 -595.12677
466.29147 -41.448124 -595.21594
496.20337 302.03687 -543.91425
496.17776 291.2348 -543.98145
496.15213 280.43384 -544.04865
496.12497 269.63318 -544.12006
496.10257 258.83612 -544.17883
496.08334 248.04169 -544.22919
496.06253 237.24734 -544.28381
496.04337 226.45456 -544.33411
496.02258 215.66202 -544.38873
496.00336 204.871 -544.43909
495.9826 194.08018 -544.49365
495.96179 183.29025 -544.54816
495.94263 172.5018 -544.59857
495.91702 161.71207 -544.66565
495.88983 150.92299 -544.73694
495.86429 140.13553 -544.80408
495.83868 129.3493 -544.87122
495.81155 118.56364 -544.9425
495.78595 107.77956 -545.00964
495.76038 96.996628 -545.07666
495.7348 86.214813 -545.1438
495.70767 75.433792 -545.21503
495.68213 64.654205 -545.28204
495.65656 53.875774 -545.34918
495.63101 43.098392 -545.4162
495.60385 32.321991 -545.48743
495.57831 21.546854 -545.55444
476.82639 10.365794 -594.76227
476.79239 -1.0530377e-05 -594.8515
476.7569 -10.364246 -594.94464
476.72293 -20.727085 -595.03381
476.6875 -31.088276 -595.12677
476.6535 -41.448124 -595.21594
503.98123 300.24414 -551.64276
503.95377 289.50534 -551.71332
503.92792 278.76865 -551.77966
503.90207 268.03305 -551.84607
503.87784 257.29932 -551.90833
503.85684 246.5683 -551.96228
503.83743 235.83884 -552.01208
503.81647 225.10953 -552.06592
503.79544 214.38103 -552.11987
503.77609 203.65421 -552.16968
503.7551 192.92752 -552.22357
503.72928 182.19995 -552.28992
503.70181 171.47296 -552.36035
503.67599 160.74767 -552.4267
503.65018 150.02345 -552.49304
503.62433 139.3004 -552.55933
503.59689 128.57796 -552.62976
503.57108 117.85712 -552.69611
503.54526 107.13725 -552.76239
503.51947 96.418678 -552.82867
503.49203 85.700813 -552.89917
503.46625 74.984383 -552.96539
503.44043 64.269005 -553.03168
503.41302 53.5546 -553.10205
503.38724 42.841488 -553.16833
503.36142 32.12944 -553.23456
503.33563 21.418585 -553.30084
487.19214 10.365794 -594.76227
487.15744 -1.0530377e-05 -594.8515
487.12119 -10.364246 -594.94464
487.08646 -20.727085 -595.03381
487.05023 -31.088276 -595.12677
487.01553 -41.448124 -595.21594
511.66568 298.47165 -559.28412
511.63962 287.79733 -559.34973
511.61349 277.12399 -559.41534
511.5874 266.45175 -559.48096
511.56134 255.7807 -559.54651
511.54013 245.11304 -559.59985
511.51892 234.44621 -559.65308
511.49774 223.78029 -559.70636
511.47656 213.11525 -559.75977
511.4505 202.4492 -559.82526
511.42441 191.78419 -559.89087
511.3967 181.11972 -559.96051
511.37064 170.45688 -560.02606
511.34457 159.79521 -560.09155
511.31851 149.1346 -560.15717
511.29083 138.47464 -560.22681
511.26477 127.81618 -560.2923
511.23871 117.15891 -560.35785
511.21103 106.50231 -560.42749
511.185 95.847198 -560.49298
511.15894 85.193184 -560.55841
511.1329 74.540199 -560.62396
511.10522 63.888195 -560.69348
511.07919 53.237419 -560.75903
511.05316 42.587772 -560.82452
511.02548 31.939121 -560.89398
510.99945 21.291683 -560.95947
497.55795 10.365794 -594.76227
497.52249 -1.0530377e-05 -594.8515
497.48544 -10.364246 -594.94464
497.45001 -20.727085 -595.03381
497.41299 -31.088276 -595.12677
497.37756 -41.448124 -595.21594
519.2616 296.72098 -566.83173
519.23529 286.10925 -566.89655
519.20892 275.49863 -566.96143
519.18097 264.88828 -567.03033
519.15466 254.27988 -567.09515
519.13165 243.67407 -567.15186
519.10858 233.06917 -567.20856
519.08228 222.4639 -567.27338
519.05597 211.85963 -567.33826
519.02972 201.25645 -567.40302
519.00171 190.65373 -567.47186
518.9754 180.05273 -567.53662
518.94916 169.45279 -567.60138
518.9212 158.85349 -567.67029
518.8949 148.25568 -567.73505
518.86859 137.65906 -567.7998
518.84235 127.06345 -567.86462
518.81439 116.46852 -567.93341
518.78815 105.87516 -567.99811
518.76184 95.282791 -568.06281
518.73389 84.691277 -568.13159
518.70764 74.101105 -568.19635
518.6814 63.511997 -568.26099
518.65509 52.92403 -568.32574
518.6272 42.336964 -568.39453
518.60095 31.751064 -568.45923
518.57471 21.166374 -568.52393
507.92377 10.365794 -594.76227
507.88754 -1.0530377e-05 -594.8515
507.84976 -10.364246 -594.94464
507.81354 -20.727085 -595.03381
507.77579 -31.088276 -595.12677
507.73962 -41.448124 -595.21594
