# .PCD v0.7 - Point Cloud Data file format
VERSION 0.7
FIELDS x y z
SIZE 4 4 4
TYPE F F F
COUNT 1 1 1
WIDTH 1128
HEIGHT 1
VIEWPOINT 0 0 0 1 0 0 0
POINTS 1128
DATA ascii
-518.28149 62.193855 -594.78174
-518.28149 51.828171 -594.78168
-518.28149 41.462543 -594.78174
-518.28149 31.096888 -594.78174
-518.28149 20.731312 -594.78174
-518.28149 10.365651 -594.78168
-543.83008 -5.3426065e-06 -533.10211
-543.85303 -10.877021 -533.04651
-543.87604 -21.75502 -532.99097
-543.90436 -32.634251 -532.92273
-543.93268 -43.514645 -532.85431
-543.95917 -54.395905 -532.79028
-543.98749 -65.278473 -532.72186
-544.01587 -76.162209 -532.6535
-544.04236 -87.046791 -532.58942
-544.07068 -97.932716 -532.52106
-544.09906 -108.81981 -532.4527
-544.12561 -119.70764 -532.38855
-544.15393 -130.59691 -532.32019
-544.18225 -141.48737 -532.25171
-544.20886 -152.37843 -532.18762
-544.23718 -163.27115 -532.11914
-544.2655 -174.16499 -532.05072
-544.29388 -185.05989 -531.98224
-544.3222 -195.95596 -531.91388
-544.35059 -206.85321 -531.84534
-544.37714 -217.75087 -531.78119
-544.40552 -228.6503 -531.71277
-544.4339 -239.55087 -531.64435
-544.46222 -250.45267 -531.57574
-544.4906 -261.35547 -531.50732
-544.51898 -272.25952 -531.43878
-544.54736 -283.16461 -531.37036
-507.91586 62.193855 -594.78174
-507.91586 51.828171 -594.78168
-507.91586 41.462543 -594.78174
-507.91586 31.096888 -594.78174
-507.91586 20.731312 -594.78174
-507.91586 10.365651 -594.78168
-536.10602 4.9534283e-06 -525.33569
-536.12878 -10.941373 -525.27954
-536.15161 -21.883707 -525.22345
-536.17621 -32.827126 -525.1629
-536.19897 -43.771358 -525.10669
-536.2218 -54.716469 -525.05048
-536.24463 -65.66256 -524.99432
-536.27094 -76.610123 -524.9295
-536.29901 -87.559036 -524.86029
-536.32532 -98.50872 -524.79541
-536.35345 -109.45985 -524.72614
-536.38153 -120.41216 -524.65704
-536.4079 -131.36516 -524.5921
-536.43597 -142.31975 -524.52289
-536.46405 -153.27544 -524.45367
-536.49042 -164.23174 -524.38879
-536.51849 -175.18971 -524.31952
-536.54663 -186.14879 -524.25031
-536.57471 -197.10907 -524.18109
-536.60284 -208.07048 -524.11176
-536.62921 -219.03232 -524.04675
-536.65735 -229.99602 -523.97754
-536.68542 -240.96083 -523.90826
-536.71356 -251.92676 -523.83905
-536.7417 -262.89386 -523.76971
-536.76984 -273.86215 -523.70044
-536.79797 -284.83157 -523.63116
-497.55023 62.193855 -594.78174
-497.55023 51.828171 -594.78168
-497.55023 41.462543 -594.78174
-497.55023 31.096888 -594.78174
-497.55023 20.731312 -594.78174
-497.55023 10.365651 -594.78168
-528.29181 1.5680143e-05 -517.47266
-528.31439 -11.006516 -517.41583
-528.33704 -22.013994 -517.35895
-528.35962 -33.022457 -517.30212
-528.38226 -44.031826 -517.24524
-528.40485 -55.042168 -517.18835
-528.42743 -66.053444 -517.13153
-528.45184 -77.06588 -517.07025
-528.47443 -88.079056 -517.01343
-528.49701 -99.093132 -516.95648
-528.51965 -110.10822 -516.8996
-528.54407 -121.12468 -516.83832
-528.5719 -132.14297 -516.76825
-528.59802 -143.16194 -516.70258
-528.62585 -154.18253 -516.63257
-528.65369 -165.20422 -516.56256
-528.67981 -176.22659 -516.49689
-528.70764 -187.2506 -516.42676
-528.73553 -198.27577 -516.35675
-528.76166 -209.30153 -516.29095
-528.78955 -220.32896 -516.22095
-528.81738 -231.35757 -516.15088
-528.84528 -242.38744 -516.08069
-528.87317 -253.41843 -516.01056
-528.90106 -264.45053 -515.94043
-528.92896 -275.48383 -515.87036
-487.18463 62.193855 -594.78174
-487.18463 51.828171 -594.78168
-487.18463 41.462543 -594.78174
-487.18463 31.096888 -594.78174
-487.18463 20.731312 -594.78174
-487.18463 10.365651 -594.78168
-520.38226 4.7823778e-05 -509.51978
-520.40466 -11.072401 -509.46225
-520.42706 -22.145803 -509.40463
-520.45117 -33.22028 -509.34274
-520.47357 -44.295624 -509.28519
-520.49597 -55.371906 -509.22769
-520.51837 -66.449104 -509.17007
-520.54083 -77.527328 -509.11252
-520.56323 -88.606506 -509.05496
-520.58563 -99.686554 -508.99741
-520.6098 -110.76803 -508.93539
-520.6322 -121.85006 -508.87781
-520.65466 -132.93309 -508.82019
-520.67706 -144.01704 -508.7627
-520.69946 -155.10194 -508.70511
-520.72192 -166.18781 -508.64749
-520.74951 -177.27641 -508.57654
-520.7771 -188.36618 -508.50562
-520.80298 -199.45642 -508.43921
-520.83063 -210.54855 -508.36826
-520.85822 -221.6418 -508.2973
-520.88416 -232.73547 -508.2308
-520.91174 -243.83099 -508.15991
-520.93939 -254.92776 -508.08896
-520.96698 -266.02567 -508.01801
-520.99463 -277.12482 -507.94699
-476.819 62.193855 -594.78174
-476.819 51.828171 -594.78168
-476.819 41.462543 -594.78174
-476.819 31.096888 -594.78174
-476.819 20.731312 -594.78174
-476.819 10.365651 -594.78168
-512.37915 7.6225624e-06 -501.46667
-512.40137 -11.139134 -501.40839
-512.42352 -22.279285 -501.35016
-512.44574 -33.420361 -501.2919
-512.4679 -44.562443 -501.2337
-512.49011 -55.705448 -501.17545
-512.51233 -66.849411 -501.11722
-512.53619 -77.994598 -501.0545
-512.55841 -89.140579 -500.99625
-512.58063 -100.28748 -500.93796
-512.60284 -111.43539 -500.87973
-512.62506 -122.58421 -500.82147
-512.64722 -133.73409 -500.76306
-512.66949 -144.88483 -500.7049
-512.69336 -156.03711 -500.64209
-512.71558 -167.18983 -500.58377
-512.73779 -178.34357 -500.52545
-512.76001 -189.49826 -500.46716
-512.78229 -200.65395 -500.40884
-512.8045 -211.81052 -500.35056
-512.83014 -222.96962 -500.2832
-512.85748 -234.13055 -500.21143
-512.88312 -245.29192 -500.14417
-512.91046 -256.45526 -500.07236
-512.93787 -267.61972 -500.00055
-512.96521 -278.78543 -499.92871
-466.45334 62.193855 -594.78174
-466.45334 51.828171 -594.78168
-466.45334 41.462543 -594.78174
-466.45334 31.096888 -594.78174
-466.45334 20.731312 -594.78174
-466.45334 10.365651 -594.78168
-504.27734 6.0459086e-05 -493.32037
-504.29932 -11.206616 -493.26141
-504.32126 -22.414278 -493.20251
-504.34494 -33.623009 -493.13904
-504.36691 -44.832649 -493.08008
-504.38889 -56.043179 -493.02112
-504.41086 -67.254745 -492.96216
-504.43286 -78.4673 -492.90323
-504.45486 -89.680847 -492.84427
-504.47684 -100.89533 -492.78534
-504.50049 -112.11121 -492.72171
-504.52249 -123.32775 -492.66275
-504.54449 -134.54518 -492.60382
-504.56647 -145.76364 -492.5448
-504.58847 -156.98308 -492.48575
-504.61044 -168.20348 -492.42679
-504.63248 -179.42487 -492.3678
-504.65448 -190.64717 -492.30884
-504.67813 -201.87123 -492.24521
-504.70016 -213.09563 -492.18619
-504.72217 -224.32092 -492.12723
-504.74417 -235.5473 -492.06805
-504.7662 -246.77454 -492.00912
-504.78821 -258.00287 -491.95001
-504.81189 -269.233 -491.88644
-504.83902 -280.46609 -491.81375
-456.08771 62.193855 -594.78174
-456.08771 51.828171 -594.78168
-456.08771 41.462543 -594.78174
-456.08771 31.096888 -594.78174
-456.08771 20.731312 -594.78174
-456.08771 10.365651 -594.78168
-499.7532 4.1198975e-05 -474.98874
-499.83636 -11.359879 -474.76053
-499.91959 -22.723558 -474.53223
-500.00284 -34.091114 -474.30383
-500.08612 -45.462353 -474.07547
-500.1694 -56.837402 -473.84689
-500.25272 -68.216263 -473.61832
-500.33777 -79.599174 -473.38498
-500.42117 -90.985641 -473.15622
-500.50458 -102.37592 -472.92743
-500.58801 -113.77 -472.69852
-500.67148 -125.16784 -472.46951
-500.75497 -136.56946 -472.24051
-500.83847 -147.97496 -472.01138
-500.92203 -159.38425 -471.7822
-501.00732 -170.7979 -471.54816
-501.09091 -182.21483 -471.31882
-501.17624 -193.63626 -471.08469
-501.26505 -205.06293 -470.84116
-501.35214 -216.4929 -470.6022
-501.4393 -227.92696 -470.36307
-501.52646 -239.36488 -470.12393
-501.61365 -250.80678 -469.88477
-501.70261 -262.25366 -469.64072
-501.78986 -273.70349 -469.4014
-501.87714 -285.15744 -469.1619
-445.72208 62.193855 -594.78174
-445.72208 51.828171 -594.78168
-445.72208 41.462543 -594.78174
-445.72208 31.096888 -594.78174
-445.72208 20.731312 -594.78174
-445.72208 10.365651 -594.78168
-499.87747 3.1071355e-05 -442.75534
-499.96265 -11.626999 -442.51627
-500.04956 -23.258093 -442.27222
-500.13824 -34.89336 -442.02322
-500.22699 -46.532753 -441.77411
-500.3175 -58.176437 -441.52005
-500.40628 -69.824142 -441.27081
-500.49512 -81.475929 -441.02142
-500.58395 -93.131882 -440.77209
-500.67288 -104.79197 -440.52243
-500.76355 -116.45658 -440.26797
-500.85251 -128.12498 -440.01825
-500.9415 -139.79761 -439.7684
-501.03052 -151.4743 -439.51855
-501.11954 -163.15518 -439.26859
-501.21039 -174.84081 -439.01364
-501.29947 -186.53001 -438.76346
-435.35648 62.193855 -594.78174
-435.35648 51.828171 -594.78168
-435.35648 41.462543 -594.78174
-435.35648 31.096888 -594.78174
-435.35648 20.731312 -594.78174
-435.35648 10.365651 -594.78168
-424.99084 62.193855 -594.78174
-424.99084 51.828171 -594.78168
-424.99084 41.462543 -594.78174
-424.99084 31.096888 -594.78174
-424.99084 20.731312 -594.78174
-424.99084 10.365651 -594.78168
-414.62521 62.193855 -594.78174
-414.62521 51.828171 -594.78168
-414.62521 41.462543 -594.78174
-414.62521 31.096888 -594.78174
-414.62521 20.731312 -594.78174
-414.62521 10.365651 -594.78168
-404.25955 62.193855 -594.78174
-404.25955 51.828171 -594.78168
-404.25955 41.462543 -594.78174
-404.25955 31.096888 -594.78174
-404.25955 20.731312 -594.78174
-404.25955 10.365651 -594.78168
-393.89392 62.193855 -594.78174
-393.89392 51.828171 -594.78168
-393.89392 41.462543 -594.78174
-393.89392 31.096888 -594.78174
-393.89392 20.731312 -594.78174
-393.89392 10.365651 -594.78168
-383.52832 62.193855 -594.78174
-383.52832 51.828171 -594.78168
-383.52832 41.462543 -594.78174
-383.52832 31.096888 -594.78174
-383.52832 20.731312 -594.78174
-383.52832 10.365651 -594.78168
-373.16269 62.193855 -594.78174
-373.16269 51.828171 -594.78168
-373.16269 41.462543 -594.78174
-373.16269 31.096888 -594.78174
-373.16269 20.731312 -594.78174
-373.16269 10.365651 -594.78168
-362.79706 62.193855 -594.78174
-362.79706 51.828171 -594.78168
-362.79706 41.462543 -594.78174
-362.79706 31.096888 -594.78174
-362.79706 20.731312 -594.78174
-362.79706 10.365651 -594.78168
-352.43143 62.193855 -594.78174
-352.43143 51.828171 -594.78168
-352.43143 41.462543 -594.78174
-352.43143 31.096888 -594.78174
-352.43143 20.731312 -594.78174
-352.43143 10.365651 -594.78168
-342.06577 62.193855 -594.78174
-342.06577 51.828171 -594.78168
-342.06577 41.462543 -594.78174
-342.06577 31.096888 -594.78174
-342.06577 20.731312 -594.78174
-342.06577 10.365651 -594.78168
-331.70013 62.193855 -594.78174
-331.70013 51.828171 -594.78168
-331.70013 41.462543 -594.78174
-331.70013 31.096888 -594.78174
-331.70013 20.731312 -594.78174
-331.70013 10.365651 -594.78168
-321.33453 62.193855 -594.78174
-321.33453 51.828171 -594.78168
-321.33453 41.462543 -594.78174
-321.33453 31.096888 -594.78174
-321.33453 20.731312 -594.78174
-321.33453 10.365651 -594.78168
-310.9689 62.193855 -594.78174
-310.9689 51.828171 -594.78168
-310.9689 41.462543 -594.78174
-310.9689 31.096888 -594.78174
-310.9689 20.731312 -594.78174
-310.9689 10.365651 -594.78168
-592.25854 4.3533073e-05 537.04047
-592.20258 -19.740032 536.81525
-592.14667 -39.476391 536.59033
-592.09076 -59.209072 536.3653
-592.03485 -78.937904 536.14032
-591.98242 -98.663696 535.9295
-591.92657 -118.38523 535.70459
-591.87067 -138.10309 535.47986
-591.81482 -157.81729 535.25507
-591.75897 -177.52766 535.03033
-591.70312 -197.2343 534.8056
-591.64728 -216.93729 534.58093
-591.59497 -236.63799 534.37042
-591.53918 -256.33362 534.14587
-591.48688 -276.0271 533.9353
-300.60327 51.828171 -594.78168
-300.60327 41.462543 -594.78174
-300.60327 31.096888 -594.78174
-300.60327 20.731312 -594.78174
-300.60327 10.365651 -594.78168
-566.31482 3.8005783e-05 511.22607
-566.2619 -19.526211 511.00568
-566.20898 -39.048901 510.78555
-566.15613 -58.567863 510.56552
-566.10327 -78.083191 510.34531
-566.05371 -97.595406 510.13904
-566.00085 -117.10355 509.91895
-565.94794 -136.60809 509.69904
-565.89514 -156.10895 509.47903
-565.84558 -175.60722 509.27298
-565.79279 -195.10088 509.05304
-565.74329 -214.59225 508.84702
-565.69379 -234.08014 508.64093
-565.64429 -253.56461 508.43494
-565.59485 -273.04575 508.22897
-290.23764 51.828171 -594.78168
-290.23764 41.462543 -594.78174
-290.23764 31.096888 -594.78174
-290.23764 20.731312 -594.78174
-290.23764 10.365651 -594.78168
-540.92712 6.2406354e-05 485.96481
-540.8772 -19.316969 485.74936
-540.82721 -38.630463 485.53387
-540.77722 -57.940422 485.31839
-540.72723 -77.246719 485.10303
-540.68042 -96.550049 484.90109
-540.63361 -115.85002 484.69922
-540.58362 -135.14587 484.48386
-540.5368 -154.43912 484.2821
-540.49005 -173.72891 484.08026
-540.44324 -193.01546 483.8786
-540.39648 -212.29857 483.67685
-540.34656 -231.57707 483.46176
-540.29974 -250.85345 483.26016
-540.25299 -270.12646 483.05856
-279.87201 51.828171 -594.78168
-279.87201 41.462543 -594.78174
-279.87201 31.096888 -594.78174
-279.87201 20.731312 -594.78174
-279.87201 10.365651 -594.78168
-516.07788 9.0871526e-07 461.23944
-516.0307 -19.112206 461.02835
-515.98645 -38.221233 460.83066
-515.9422 -57.326843 460.6329
-515.89502 -76.428848 460.42206
-515.85083 -95.527901 460.22433
-515.80664 -114.62369 460.02676
-515.76245 -133.71619 459.82919
-515.71826 -152.80539 459.63162
-515.67108 -171.89034 459.42087
-515.62695 -190.97285 459.22339
-515.58276 -210.05217 459.02591
-515.53857 -229.12825 458.82852
-515.49445 -248.20102 458.63123
-515.45032 -267.27054 458.43384
-269.50638 51.828171 -594.78168
-269.50638 41.462543 -594.78174
-269.50638 31.096888 -594.78174
-269.50638 20.731312 -594.78174
-269.50638 10.365651 -594.78168
-503.98111 5.5139186e-05 493.81845
-504.14471 -19.390089 494.57812
-504.3085 -38.792934 495.33838
-504.47235 -58.208298 496.09912
-504.63339 -77.635826 496.8468
-504.79745 -97.076378 497.60852
-504.96161 -116.52958 498.37085
-505.12595 -135.99541 499.13345
-259.14075 51.828171 -594.78168
-259.14075 41.462543 -594.78174
-259.14075 31.096888 -594.78174
-259.14075 20.731312 -594.78174
-259.14075 10.365651 -594.78168
-248.77512 51.828171 -594.78168
-248.77512 41.462543 -594.78174
-248.77512 31.096888 -594.78174
-248.77512 20.731312 -594.78174
-248.77512 10.365651 -594.78168
-238.4095 51.828171 -594.78168
-238.4095 41.462543 -594.78174
-238.4095 31.096888 -594.78174
-238.4095 20.731312 -594.78174
-238.4095 10.365651 -594.78168
-228.04385 51.828171 -594.78168
-228.04385 41.462543 -594.78174
-228.04385 31.096888 -594.78174
-228.04385 20.731312 -594.78174
-228.04385 10.365651 -594.78168
-217.67824 51.828171 -594.78168
-217.67824 41.462543 -594.78174
-217.67824 31.096888 -594.78174
-217.67824 20.731312 -594.78174
-217.67824 10.365651 -594.78168
-207.31261 51.828171 -594.78168
-207.31261 41.462543 -594.78174
-207.31261 31.096888 -594.78174
-207.31261 20.731312 -594.78174
-207.31261 10.365651 -594.78168
-196.94696 51.828171 -594.78168
-196.94696 41.462543 -594.78174
-196.94696 31.096888 -594.78174
-196.94696 20.731312 -594.78174
-196.94696 10.365651 -594.78168
-186.58134 51.828171 -594.78168
-186.58134 41.462543 -594.78174
-186.58134 31.096888 -594.78174
-186.58134 20.731312 -594.78174
-186.58134 10.365651 -594.78168
-176.21571 51.828171 -594.78168
-176.21571 41.462543 -594.78174
-176.21571 31.096888 -594.78174
-176.21571 20.731312 -594.78174
-176.21571 10.365651 -594.78168
-165.85007 51.828171 -594.78168
-165.85007 41.462543 -594.78174
-165.85007 31.096888 -594.78174
-165.85007 20.731312 -594.78174
-165.85007 10.365651 -594.78168
-155.48445 51.828171 -594.78168
-155.48445 41.462543 -594.78174
-155.48445 31.096888 -594.78174
-155.48445 20.731312 -594.78174
-155.48445 10.365651 -594.78168
-145.11882 51.828171 -594.78168
-145.11882 41.462543 -594.78174
-145.11882 31.096888 -594.78174
-145.11882 20.731312 -594.78174
-145.11882 10.365651 -594.78168
-134.75319 51.828171 -594.78168
-134.75319 41.462543 -594.78174
-134.75319 31.096888 -594.78174
-134.75319 20.731312 -594.78174
-134.75319 10.365651 -594.78168
-124.38756 51.828171 -594.78168
-124.38756 41.462543 -594.78174
-124.38756 31.096888 -594.78174
-124.38756 20.731312 -594.78174
-124.38756 10.365651 -594.78168
-114.02193 51.828171 -594.78168
-114.02193 41.462543 -594.78174
-114.02193 31.096888 -594.78174
-114.02193 20.731312 -594.78174
-114.02193 10.365651 -594.78168
-103.6563 51.828171 -594.78168
-103.6563 41.462543 -594.78174
-103.6563 31.096888 -594.78174
-103.6563 20.731312 -594.78174
-103.6563 10.365651 -594.78168
-93.290672 51.828171 -594.78168
-93.290672 41.462543 -594.78174
-93.290672 31.096888 -594.78174
-93.290672 20.731312 -594.78174
-93.290672 10.365651 -594.78168
-82.925034 51.828171 -594.78168
-82.925034 41.462543 -594.78174
-82.925034 31.096888 -594.78174
-82.925034 20.731312 -594.78174
-82.925034 10.365651 -594.78168
-72.55941 51.828171 -594.78168
-72.55941 41.462543 -594.78174
-72.55941 31.096888 -594.78174
-72.55941 20.731312 -594.78174
-72.55941 10.365651 -594.78168
-72.55941 1.3456598e-05 -594.78174
-62.193779 51.828171 -594.78168
-62.193779 41.462543 -594.78174
-62.193779 31.096888 -594.78174
-62.193779 20.731312 -594.78174
-62.193779 10.365651 -594.78168
-62.193779 1.3456598e-05 -594.78174
-51.828152 51.828171 -594.78168
-51.828152 41.462543 -594.78174
-51.828152 31.096888 -594.78174
-51.828152 20.731312 -594.78174
-51.828152 10.365651 -594.78168
-51.828152 1.3456598e-05 -594.78174
-41.462517 51.828171 -594.78168
-41.462517 41.462543 -594.78174
-41.462517 31.096888 -594.78174
-41.462517 20.731312 -594.78174
-41.462517 10.365651 -594.78168
-41.462517 1.3456598e-05 -594.78174
-31.096889 51.828171 -594.78168
-31.096889 41.462543 -594.78174
-31.096889 31.096888 -594.78174
-31.096889 20.731312 -594.78174
-31.096889 10.365651 -594.78168
-31.096889 1.3456598e-05 -594.78174
-20.731258 51.828171 -594.78168
-20.731258 41.462543 -594.78174
-20.731258 31.096888 -594.78174
-20.731258 20.731312 -594.78174
-20.731258 10.365651 -594.78168
-20.731258 1.3456598e-05 -594.78174
-10.365629 51.828171 -594.78168
-10.365629 41.462543 -594.78174
-10.365629 31.096888 -594.78174
-10.365629 20.731312 -594.78174
-10.365629 10.365651 -594.78168
-10.365629 1.3456598e-05 -594.78174
1.1791847e-22 51.828171 -594.78168
-3.8982603e-23 41.462543 -594.78174
1.5874557e-23 31.096888 -594.78174
7.0731717e-23 20.731312 -594.78174
1.6783678e-22 10.365651 -594.78168
9.5690873e-23 1.3456598e-05 -594.78174
10.365629 51.828171 -594.78168
10.365629 41.462543 -594.78174
10.365629 31.096888 -594.78174
10.365629 20.731312 -594.78174
10.365629 10.365651 -594.78168
10.365629 1.3456598e-05 -594.78174
20.731258 51.828171 -594.78168
20.731258 41.462543 -594.78174
20.731258 31.096888 -594.78174
20.731258 20.731312 -594.78174
20.731258 10.365651 -594.78168
20.731258 1.3456598e-05 -594.78174
31.096889 51.828171 -594.78168
31.096889 41.462543 -594.78174
31.096889 31.096888 -594.78174
31.096889 20.731312 -594.78174
31.096889 10.365651 -594.78168
31.096889 1.3456598e-05 -594.78174
41.462517 51.828171 -594.78168
41.462517 41.462543 -594.78174
41.462517 31.096888 -594.78174
41.462517 20.731312 -594.78174
41.462517 10.365651 -594.78168
41.462517 1.3456598e-05 -594.78174
51.828152 51.828171 -594.78168
51.828152 41.462543 -594.78174
51.828152 31.096888 -594.78174
51.828152 20.731312 -594.78174
51.828152 10.365651 -594.78168
51.828152 1.3456598e-05 -594.78174
62.193779 51.828171 -594.78168
62.193779 41.462543 -594.78174
62.193779 31.096888 -594.78174
62.193779 20.731312 -594.78174
62.193779 10.365651 -594.78168
62.193779 1.3456598e-05 -594.78174
72.55941 51.828171 -594.78168
72.55941 41.462543 -594.78174
72.55941 31.096888 -594.78174
72.55941 20.731312 -594.78174
72.55941 10.365651 -594.78168
72.55941 1.3456598e-05 -594.78174
82.925034 51.828171 -594.78168
82.925034 41.462543 -594.78174
82.925034 31.096888 -594.78174
82.925034 20.731312 -594.78174
82.925034 10.365651 -594.78168
82.925034 1.3456598e-05 -594.78174
93.290672 51.828171 -594.78168
93.290672 41.462543 -594.78174
93.290672 31.096888 -594.78174
93.290672 20.731312 -594.78174
93.290672 10.365651 -594.78168
93.290672 1.3456598e-05 -594.78174
103.6563 51.828171 -594.78168
103.6563 41.462543 -594.78174
103.6563 31.096888 -594.78174
103.6563 20.731312 -594.78174
103.6563 10.365651 -594.78168
103.6563 1.3456598e-05 -594.78174
114.02193 51.828171 -594.78168
114.02193 41.462543 -594.78174
114.02193 31.096888 -594.78174
114.02193 20.731312 -594.78174
114.02193 10.365651 -594.78168
114.02193 1.3456598e-05 -594.78174
124.38756 51.828171 -594.78168
124.38756 41.462543 -594.78174
124.38756 31.096888 -594.78174
124.38756 20.731312 -594.78174
124.38756 10.365651 -594.78168
124.38756 1.3456598e-05 -594.78174
134.75319 51.828171 -594.78168
134.75319 41.462543 -594.78174
134.75319 31.096888 -594.78174
134.75319 20.731312 -594.78174
134.75319 10.365651 -594.78168
134.75319 1.3456598e-05 -594.78174
145.11882 51.828171 -594.78168
145.11882 41.462543 -594.78174
145.11882 31.096888 -594.78174
145.11882 20.731312 -594.78174
145.11882 10.365651 -594.78168
145.11882 1.3456598e-05 -594.78174
155.48445 51.828171 -594.78168
155.48445 41.462543 -594.78174
155.48445 31.096888 -594.78174
155.48445 20.731312 -594.78174
155.48445 10.365651 -594.78168
155.48445 1.3456598e-05 -594.78174
165.85007 51.828171 -594.78168
165.85007 41.462543 -594.78174
165.85007 31.096888 -594.78174
165.85007 20.731312 -594.78174
165.85007 10.365651 -594.78168
165.85007 1.3456598e-05 -594.78174
176.21571 51.828171 -594.78168
176.21571 41.462543 -594.78174
176.21571 31.096888 -594.78174
176.21571 20.731312 -594.78174
176.21571 10.365651 -594.78168
176.21571 1.3456598e-05 -594.78174
186.58134 51.828171 -594.78168
186.58134 41.462543 -594.78174
186.58134 31.096888 -594.78174
186.58134 20.731312 -594.78174
186.58134 10.365651 -594.78168
186.58134 1.3456598e-05 -594.78174
196.94696 51.828171 -594.78168
196.94696 41.462543 -594.78174
196.94696 31.096888 -594.78174
196.94696 20.731312 -594.78174
196.94696 10.365651 -594.78168
196.94696 1.3456598e-05 -594.78174
207.31261 51.828171 -594.78168
207.31261 41.462543 -594.78174
207.31261 31.096888 -594.78174
207.31261 20.731312 -594.78174
207.31261 10.365651 -594.78168
207.31261 1.3456598e-05 -594.78174
217.67824 51.828171 -594.78168
217.67824 41.462543 -594.78174
217.67824 31.096888 -594.78174
217.67824 20.731312 -594.78174
217.67824 10.365651 -594.78168
217.67824 1.3456598e-05 -594.78174
228.04385 51.828171 -594.78168
228.04385 41.462543 -594.78174
228.04385 31.096888 -594.78174
228.04385 20.731312 -594.78174
228.04385 10.365651 -594.78168
228.04385 1.3456598e-05 -594.78174
238.4095 51.828171 -594.78168
238.4095 41.462543 -594.78174
238.4095 31.096888 -594.78174
238.4095 20.731312 -594.78174
238.4095 10.365651 -594.78168
238.4095 1.3456598e-05 -594.78174
248.77512 51.828171 -594.78168
248.77512 41.462543 -594.78174
248.77512 31.096888 -594.78174
248.77512 20.731312 -594.78174
248.77512 10.365651 -594.78168
248.77512 1.3456598e-05 -594.78174
259.14075 51.828171 -594.78168
259.14075 41.462543 -594.78174
259.14075 31.096888 -594.78174
259.14075 20.731312 -594.78174
259.14075 10.365651 -594.78168
259.14075 1.3456598e-05 -594.78174
484.37259 -19.374941 492.73386
484.21829 -38.737396 491.98877
484.06131 -58.087299 491.23071
483.90442 -77.42469 490.47318
483.7504 -96.750053 489.72958
483.59366 -116.06248 488.97296
483.43707 -135.36232 488.21683
483.28058 -154.6497 487.46115
483.12698 -173.92567 486.71945
482.9707 -193.18823 485.96481
482.80334 -212.43343 485.15683
482.54974 -231.62387 483.93234
482.29364 -250.79262 482.69568
482.04059 -269.94269 481.47382
481.78778 -289.07269 480.25333
269.50638 51.828171 -594.78168
269.50638 41.462543 -594.78174
269.50638 31.096888 -594.78174
269.50638 20.731312 -594.78174
269.50638 10.365651 -594.78168
269.50638 1.3456598e-05 -594.78174
497.04626 -19.117161 461.62189
497.11163 -38.23925 461.92529
497.17697 -57.366512 462.22888
497.24237 -76.498795 462.53253
497.3078 -95.63604 462.83618
497.37323 -114.77845 463.14001
497.43869 -133.92575 463.44385
497.50415 -153.07816 463.74774
497.56964 -172.23566 464.05185
497.63513 -191.39812 464.3559
497.70065 -210.56561 464.66006
497.76617 -229.7382 464.96432
497.82889 -248.91443 465.25549
497.89447 -268.09692 465.55978
497.96002 -287.28464 465.86432
279.87201 51.828171 -594.78168
279.87201 41.462543 -594.78174
279.87201 31.096888 -594.78174
279.87201 20.731312 -594.78174
279.87201 10.365651 -594.78168
279.87201 1.3456598e-05 -594.78174
521.69574 -19.322111 486.35559
521.76813 -38.649433 486.67902
521.84045 -57.982182 487.00259
521.90985 -77.319962 487.31281
521.98224 -96.663345 487.63654
522.05469 -116.01206 487.96039
522.12415 -135.36551 488.27081
522.19354 -154.724 488.58136
522.26306 -174.08763 488.89194
522.32953 -193.45534 489.18903
522.39905 -212.82922 489.49982
522.46857 -232.20822 489.8107
522.53809 -251.59235 490.12155
522.60767 -270.98175 490.43259
522.67725 -290.37619 490.74365
290.23764 51.828171 -594.78168
290.23764 41.462543 -594.78174
290.23764 31.096888 -594.78174
290.23764 20.731312 -594.78174
290.23764 10.365651 -594.78168
290.23764 1.3456598e-05 -594.78174
546.87933 -19.531351 511.62531
546.95605 -39.068249 511.95572
547.03271 -58.610596 512.28638
547.10938 -78.158417 512.61713
547.18616 -97.711792 512.94794
547.26288 -117.27058 513.27887
547.33649 -136.83411 513.59601
547.41327 -156.40379 513.92712
547.49011 -175.97888 514.25824
547.56372 -195.5585 514.57574
547.63739 -215.14323 514.89325
547.71106 -234.73329 515.21094
547.78473 -254.32861 515.52869
547.85846 -273.92917 515.84644
300.60327 51.828171 -594.78168
300.60327 41.462543 -594.78174
300.60327 31.096888 -594.78174
300.60327 20.731312 -594.78174
300.60327 10.365651 -594.78168
300.60327 1.3456598e-05 -594.78174
572.61462 -19.745285 537.44843
572.6958 -39.496208 537.78638
572.77698 -59.252792 538.12415
572.85815 -79.014938 538.46222
572.93939 -98.782593 538.80023
573.02063 -118.55596 539.13843
573.10187 -138.33488 539.47675
573.18323 -158.11945 539.81506
573.26111 -177.90858 540.13953
573.34247 -197.70425 540.47809
573.42383 -217.50554 540.81677
573.50519 -237.31242 541.15546
573.58661 -257.12503 541.49438
573.66467 -276.94156 541.81927
310.9689 51.828171 -594.78168
310.9689 41.462543 -594.78174
310.9689 31.096888 -594.78174
310.9689 20.731312 -594.78174
310.9689 10.365651 -594.78168
310.9689 1.3456598e-05 -594.78174
321.33453 51.828171 -594.78168
321.33453 41.462543 -594.78174
321.33453 31.096888 -594.78174
321.33453 20.731312 -594.78174
321.33453 10.365651 -594.78168
321.33453 1.3456598e-05 -594.78174
331.70013 51.828171 -594.78168
331.70013 41.462543 -594.78174
331.70013 31.096888 -594.78174
331.70013 20.731312 -594.78174
331.70013 10.365651 -594.78168
331.70013 1.3456598e-05 -594.78174
342.06577 51.828171 -594.78168
342.06577 41.462543 -594.78174
342.06577 31.096888 -594.78174
342.06577 20.731312 -594.78174
342.06577 10.365651 -594.78168
342.06577 1.3456598e-05 -594.78174
352.43143 51.828171 -594.78168
352.43143 41.462543 -594.78174
352.43143 31.096888 -594.78174
352.43143 20.731312 -594.78174
352.43143 10.365651 -594.78168
352.43143 1.3456598e-05 -594.78174
362.79706 51.828171 -594.78168
362.79706 41.462543 -594.78174
362.79706 31.096888 -594.78174
362.79706 20.731312 -594.78174
362.79706 10.365651 -594.78168
362.79706 1.3456598e-05 -594.78174
373.16269 51.828171 -594.78168
373.16269 41.462543 -594.78174
373.16269 31.096888 -594.78174
373.16269 20.731312 -594.78174
373.16269 10.365651 -594.78168
373.16269 1.3456598e-05 -594.78174
383.52832 51.828171 -594.78168
383.52832 41.462543 -594.78174
383.52832 31.096888 -594.78174
383.52832 20.731312 -594.78174
383.52832 10.365651 -594.78168
383.52832 1.3456598e-05 -594.78174
393.89392 51.828171 -594.78168
393.89392 41.462543 -594.78174
393.89392 31.096888 -594.78174
393.89392 20.731312 -594.78174
393.89392 10.365651 -594.78168
393.89392 1.3456598e-05 -594.78174
404.25955 51.828171 -594.78168
404.25955 41.462543 -594.78174
404.25955 31.096888 -594.78174
404.25955 20.731312 -594.78174
404.25955 10.365651 -594.78168
404.25955 1.3456598e-05 -594.78174
414.62521 51.828171 -594.78168
414.62521 41.462543 -594.78174
414.62521 31.096888 -594.78174
414.62521 20.731312 -594.78174
414.62521 10.365651 -594.78168
414.62521 1.3456598e-05 -594.78174
424.99084 51.828171 -594.78168
424.99084 41.462543 -594.78174
424.99084 31.096888 -594.78174
424.99084 20.731312 -594.78174
424.99084 10.365651 -594.78168
424.99084 1.3456598e-05 -594.78174
435.35648 51.828171 -594.78168
435.35648 41.462543 -594.78174
435.35648 31.096888 -594.78174
435.35648 20.731312 -594.78174
435.35648 10.365651 -594.78168
435.35648 1.3456598e-05 -594.78174
488.1506 -11.622642 -443.048
488.04034 -23.23995 -443.3649
487.92844 -34.852032 -443.68643
487.81323 -46.458313 -444.0177
487.69971 -58.059422 -444.3439
487.58459 -69.654953 -444.67474
487.46951 -81.244881 -445.00549
487.35617 -92.829659 -445.33124
487.24124 -104.40882 -445.66159
487.12802 -115.98282 -445.98706
487.01312 -127.55103 -446.3172
486.90002 -139.11424 -446.64224
486.78525 -150.6716 -446.97208
486.67224 -162.22408 -447.29688
486.55759 -173.77054 -447.62643
486.44302 -185.31161 -447.95566
486.33014 -196.8479 -448.28003
486.21567 -208.37808 -448.6091
486.10294 -219.90366 -448.93314
485.98856 -231.42311 -449.26181
485.87589 -242.93794 -449.5856
485.76163 -254.44656 -449.914
485.64743 -265.9498 -450.24225
485.53494 -277.44855 -450.56555
485.42081 -288.94095 -450.89352
445.72208 51.828171 -594.78168
445.72208 41.462543 -594.78174
445.72208 31.096888 -594.78174
445.72208 20.731312 -594.78174
445.72208 10.365651 -594.78168
445.72208 1.3456598e-05 -594.78174
488.29898 -11.355748 -475.25876
488.19122 -22.706577 -475.56128
488.08185 -34.0522 -475.86832
487.97418 -45.392921 -476.17047
487.86493 -56.728474 -476.47723
487.75571 -68.058945 -476.78384
487.64819 -79.384537 -477.08569
487.53909 -90.704948 -477.39197
487.42999 -102.02024 -477.69818
487.3226 -113.33083 -477.9996
487.21365 -124.636 -478.30557
487.10474 -135.93613 -478.61136
486.9975 -147.23183 -478.91229
486.88864 -158.52188 -479.2179
486.78152 -169.80753 -479.51855
486.67279 -181.08757 -479.82385
486.56412 -192.36249 -480.12906
486.45709 -203.63316 -480.42938
486.34854 -214.89818 -480.73416
486.23999 -226.15813 -481.03885
486.13315 -237.41382 -481.33887
486.02469 -248.66377 -481.64328
485.91464 -259.90784 -481.95215
485.80466 -271.14676 -482.26086
485.69308 -282.37967 -482.57413
485.58319 -293.60843 -482.8826
456.08771 51.828171 -594.78168
456.08771 41.462543 -594.78174
456.08771 31.096888 -594.78174
456.08771 20.731312 -594.78174
456.08771 10.365651 -594.78168
456.08771 1.3456598e-05 -594.78174
493.04474 -11.20553 -493.39291
493.01831 -22.409933 -493.46542
492.98859 -33.612812 -493.54697
492.96048 -44.814583 -493.62402
492.93076 -56.014828 -493.70557
492.90103 -67.21376 -493.78711
492.87296 -78.411583 -493.86417
492.84329 -89.607834 -493.94562
492.81522 -100.80309 -494.02258
492.78549 -111.99665 -494.10416
492.75745 -123.18929 -494.18112
492.72772 -134.38025 -494.2626
492.69971 -145.57034 -494.33951
492.67001 -156.75861 -494.42102
492.64197 -167.94608 -494.49799
492.61224 -179.13171 -494.57938
492.5842 -190.3166 -494.65625
492.55457 -201.49957 -494.73773
492.52487 -212.68118 -494.81912
492.49683 -223.8622 -494.89603
492.46719 -235.04111 -494.97745
492.43915 -246.21957 -495.05426
492.40952 -257.39587 -495.13562
492.38147 -268.57172 -495.21246
492.35345 -279.74628 -495.28937
492.32712 -290.92059 -495.3616
466.45334 51.828171 -594.78168
466.45334 41.462543 -594.78174
466.45334 31.096888 -594.78174
466.45334 20.731312 -594.78174
466.45334 10.365651 -594.78168
466.45334 1.3456598e-05 -594.78174
501.20877 -11.137966 -501.55176
501.18207 -22.274746 -501.62332
501.15533 -33.410343 -501.69495
501.12863 -44.544743 -501.7666
501.10028 -55.677769 -501.84274
501.07193 -66.809586 -501.91885
501.04187 -77.939819 -501.99939
501.01187 -89.068741 -502.07986
500.98352 -100.1967 -502.15594
500.95349 -111.32298 -502.23648
500.92514 -122.4483 -502.31256
500.89514 -133.57204 -502.39297
500.86676 -144.69484 -502.46909
500.83676 -155.8159 -502.54953
500.80844 -166.93613 -502.62555
500.77844 -178.05455 -502.70602
500.75012 -189.17224 -502.78204
500.72012 -200.28807 -502.86243
500.69012 -211.40245 -502.94293
500.6618 -222.51631 -503.01892
500.63184 -233.62819 -503.09927
500.60352 -244.7395 -503.1752
500.57355 -255.84868 -503.25568
500.54858 -266.95923 -503.32269
500.52194 -278.06778 -503.39407
500.4953 -289.17505 -503.46545
476.819 51.828171 -594.78168
476.819 41.462543 -594.78174
476.819 31.096888 -594.78174
476.819 20.731312 -594.78174
476.819 10.365651 -594.78168
476.819 1.3456598e-05 -594.78174
509.2749 -11.071129 -509.61267
509.24792 -22.141178 -509.68344
509.22092 -33.210072 -509.75427
509.19397 -44.277706 -509.82507
509.1687 -55.344444 -509.89139
509.14172 -66.409721 -509.96213
509.1131 -77.473694 -510.03729
509.08276 -88.536148 -510.11691
509.05411 -99.597549 -510.19208
509.02377 -110.65732 -510.27164
508.99518 -121.71618 -510.34674
508.96484 -132.77344 -510.42627
508.93622 -143.82976 -510.5014
508.90588 -154.8844 -510.5809
508.87729 -165.93825 -510.65607
508.84698 -176.9902 -510.73563
508.81839 -188.04163 -510.81058
508.78809 -199.09096 -510.89017
508.75778 -210.1391 -510.96957
508.72919 -221.1866 -511.04465
508.69891 -232.23213 -511.12408
508.672 -243.27791 -511.19473
508.64676 -254.32333 -511.26099
508.61987 -265.36685 -511.3316
508.59293 -276.40924 -511.40216
508.56604 -287.45035 -511.47278
487.18463 51.828171 -594.78168
487.18463 41.462543 -594.78174
487.18463 31.096888 -594.78174
487.18463 20.731312 -594.78174
487.18463 10.365651 -594.78168
487.18463 1.3456598e-05 -594.78174
517.24487 -11.005168 -517.57758
517.21765 -22.00923 -517.64752
517.19037 -33.012154 -517.71747
517.16321 -44.013912 -517.78735
517.13763 -55.014648 -517.85297
517.11041 -66.014053 -517.92285
517.08319 -77.012375 -517.9928
517.05597 -88.009521 -518.06268
517.02875 -99.005486 -518.13257
516.99817 -109.99958 -518.21118
516.96924 -120.9928 -518.2854
516.93866 -131.98431 -518.36401
516.90973 -142.97499 -518.43829
516.87915 -153.96397 -518.51685
516.85028 -164.95222 -518.59106
516.8197 -175.93858 -518.66968
516.79077 -186.92432 -518.74384
516.76019 -197.90814 -518.82239
516.72961 -208.89072 -518.90088
516.70245 -219.87334 -518.97076
516.67529 -230.8549 -519.04053
516.64978 -241.83606 -519.10596
516.62262 -252.81528 -519.17578
516.5954 -263.79337 -519.24554
516.5683 -274.77032 -519.31537
516.54279 -285.74704 -519.38074
497.55023 51.828171 -594.78168
497.55023 41.462543 -594.78174
497.55023 31.096888 -594.78174
497.55023 20.731312 -594.78174
497.55023 10.365651 -594.78168
497.55023 1.3456598e-05 -594.78174
525.12042 -10.939978 -525.44806
525.0929 -21.878828 -525.51721
525.06543 -32.816532 -525.5863
525.03796 -43.753136 -525.6554
525.01221 -54.688736 -525.72015
524.98474 -65.623039 -525.78931
524.95728 -76.556198 -525.8584
524.92981 -87.488266 -525.92743
524.90234 -98.419182 -525.99652
524.87488 -109.34892 -526.06555
524.84741 -120.27753 -526.13464
524.81824 -131.20454 -526.20801
524.78906 -142.13034 -526.28137
524.75818 -153.05446 -526.35901
524.729 -163.97775 -526.43237
524.69812 -174.89941 -526.50995
524.66901 -185.82027 -526.58331
524.63983 -196.73991 -526.65662
524.61237 -207.65901 -526.72571
524.58496 -218.57706 -526.79462
524.55927 -229.49466 -526.85925
524.5318 -240.4104 -526.92822
524.50439 -251.32501 -526.99725
524.47699 -262.23846 -527.06616
524.45129 -273.1517 -527.1308
524.42389 -284.06296 -527.19971
507.91586 51.828171 -594.78168
507.91586 41.462543 -594.78174
507.91586 31.096888 -594.78174
507.91586 20.731312 -594.78174
507.91586 10.365651 -594.78168
507.91586 1.3456598e-05 -594.78174
532.9032 -10.875593 -533.22589
532.87543 -21.749949 -533.29419
532.84772 -32.623344 -533.36249
532.82001 -43.495472 -533.43079
532.79401 -54.366756 -533.49481
532.7663 -65.236687 -533.56311
532.73859 -76.105537 -533.63135
532.71088 -86.973198 -533.69958
532.68317 -97.839745 -533.76788
532.65546 -108.70517 -533.83612
532.62775 -119.56945 -533.90442
532.60181 -130.43306 -533.96832
532.5741 -141.29515 -534.03656
532.54468 -152.15558 -534.10907
532.51526 -163.01485 -534.18158
532.48584 -173.87288 -534.25403
532.45813 -184.73035 -534.32227
532.43048 -195.58664 -534.39044
532.40277 -206.44183 -534.45862
532.37683 -217.29665 -534.52252
532.34918 -228.14964 -534.5907
532.32147 -239.00148 -534.65881
532.29382 -249.85219 -534.72699
532.26788 -260.70264 -534.79083
532.24023 -271.55109 -534.85907
532.21259 -282.39847 -534.92719
532.18494 -293.24469 -534.99536
