# .PCD v0.7 - Point Cloud Data file format
VERSION 0.7
FIELDS x y z
SIZE 4 4 4
TYPE F F F
COUNT 1 1 1
WIDTH 1076
HEIGHT 1
VIEWPOINT 0 0 0 1 0 0 0
POINTS 1076
DATA ascii
-21.070307 -6.2430553 -26.613914
-20.681688 -6.8938928 -28.351337
-20.262201 -6.2345257 -26.742628
-19.753294 -6.8376784 -29.105335
-19.485369 -6.2353153 -26.73064
-18.901062 -6.8043833 -29.55192
-18.708338 -6.2361135 -26.718647
-18.057087 -6.7714114 -29.994175
-17.931108 -6.2369056 -26.706652
-17.221197 -6.7387285 -30.432482
-19.474289 -6.196362 -13.961842
-17.153622 -6.2376814 -26.694988
-16.393389 -6.7063885 -30.866259
-18.589169 -6.196393 -13.961406
-16.375999 -6.2384753 -26.682981
-15.57349 -6.6743498 -31.295908
-17.704041 -6.1964145 -13.960975
-15.598178 -6.239275 -26.670979
-14.761338 -6.6426015 -31.721762
-16.818771 -6.196393 -13.961406
-14.82016 -6.2400699 -26.658972
-13.956922 -6.6111751 -32.143291
-21.932535 -6.0923696 26.268528
-18.342775 -6.1142545 2.1950641
-15.931907 -6.1957412 -13.972578
-14.040897 -6.240397 -26.653969
-13.160082 -6.5800395 -32.560844
-20.435713 -6.0105014 24.292072
-17.314997 -6.1111751 2.1330373
-15.045229 -6.1950951 -13.983745
-13.260895 -6.2404222 -26.653631
-12.370835 -6.5492687 -32.973614
-19.241808 -6.0130668 24.353907
-16.294809 -6.1105556 2.1205235
-14.152421 -6.1916833 -14.042547
-12.480577 -6.2402897 -26.655634
-11.608069 -6.5295405 -33.238197
-11.636266 21.721029 -27.172892
-18.046883 -6.0156283 24.415787
-15.274758 -6.1099019 2.1074424
-13.259797 -6.1879058 -14.107716
-11.699504 -6.2397375 -26.663973
-10.849921 -6.5099521 -33.500896
-10.810081 21.620163 -27.607725
-10.847175 20.919552 -27.287905
-10.847175 20.144754 -27.287903
-10.847175 19.369955 -27.287901
-10.847175 18.595158 -27.287899
-10.847175 17.820358 -27.287901
-10.847175 17.045561 -27.287905
-10.847175 16.270763 -27.287901
-10.847175 15.495963 -27.287903
-10.847175 14.721167 -27.287901
-10.847175 13.946368 -27.287903
-10.847175 13.171573 -27.287903
-10.847175 12.396771 -27.287901
-10.847175 11.621973 -27.287905
-10.847137 10.847135 -27.288229
-10.847137 10.072339 -27.288229
-10.847137 9.2975445 -27.288231
-10.847137 8.5227499 -27.288231
-10.847137 7.7479553 -27.288231
-10.847137 6.9731607 -27.288231
-10.847137 6.1983657 -27.288231
-10.847137 5.4235711 -27.288233
-10.847137 4.6487751 -27.288231
-10.847137 3.8739743 -27.288231
-10.847137 3.0991793 -27.288231
-10.847137 2.3243849 -27.288231
-10.847137 1.5495905 -27.288231
-10.847137 0.77479422 -27.288231
-10.847137 -2.1900735e-06 -27.288227
-10.847137 -0.77479738 -27.288227
-10.847137 -1.5495918 -27.288227
-10.847137 -2.324388 -27.288227
-10.847137 -3.0991833 -27.288227
-10.847137 -3.8739767 -27.288227
-10.847137 -4.6487722 -27.288227
-10.847137 -5.4235706 -27.288231
-10.918531 -6.2391582 -26.672647
-10.096175 -6.4903989 -33.763165
-10.046213 21.637995 -27.530842
-10.061859 20.897707 -27.385557
-10.061859 20.12372 -27.385555
-10.061859 19.349731 -27.385559
-10.061859 18.575741 -27.385557
-10.061859 17.80175 -27.385557
-10.061859 17.027761 -27.385559
-10.061859 16.253773 -27.385555
-10.061859 15.479785 -27.385557
-10.061859 14.705795 -27.385557
-10.061859 13.931806 -27.385561
-10.061859 13.157814 -27.385557
-10.061859 12.383829 -27.385557
-10.061859 11.609839 -27.385557
-10.061859 10.835847 -27.385555
-10.061859 10.061858 -27.385557
-10.061859 9.2878695 -27.385561
-10.061859 8.5138817 -27.385555
-10.061859 7.7398915 -27.385555
-10.061859 6.9659028 -27.385557
-10.061859 6.1919141 -27.385561
-10.061859 5.4179215 -27.385557
-10.061859 4.6439366 -27.385555
-10.061859 3.8699474 -27.385559
-10.061859 3.0959551 -27.385555
-10.061859 2.3219662 -27.385559
-10.061859 1.5479778 -27.385561
-10.061859 0.77398974 -27.385555
-10.061859 2.6302928e-06 -27.385561
-10.061859 -0.77399248 -27.385553
-10.061859 -1.5479808 -27.385555
-10.061859 -2.3219659 -27.385555
-10.061859 -3.0959561 -27.385557
-10.061859 -3.869945 -27.385559
-10.061859 -4.6439342 -27.385561
-10.061859 -5.4179277 -27.385553
-10.137703 -6.2385874 -26.68132
-9.3423357 -6.4677711 -34.066647
-9.3271208 21.763285 -26.990726
-9.2883596 20.898811 -27.380629
-9.2883596 20.124781 -27.380627
-9.2883596 19.350748 -27.38063
-9.2883596 18.576721 -27.380632
-9.2883596 17.802691 -27.38063
-9.2883596 17.02866 -27.38063
-9.2883596 16.254631 -27.38063
-9.2883596 15.480601 -27.380629
-9.2883596 14.706567 -27.38063
-9.2883596 13.93254 -27.380632
-9.2883596 13.15851 -27.380632
-9.2883596 12.38448 -27.38063
-9.2883596 11.610451 -27.38063
-9.2883596 10.836421 -27.380629
-9.2883596 10.062391 -27.380629
-9.2883596 9.2883577 -27.38063
-9.2883596 8.5143299 -27.380632
-9.2883596 7.7402997 -27.38063
-9.2883596 6.9662704 -27.38063
-9.2883596 6.1922407 -27.38063
-9.2883596 5.4182105 -27.380629
-9.2883596 4.6441817 -27.380629
-9.2883596 3.8701479 -27.380629
-9.2883596 3.0961204 -27.380632
-9.2883596 2.3220906 -27.380632
-9.2883596 1.5480601 -27.38063
-9.2883596 0.77403027 -27.380629
-9.2883596 3.5411897e-06 -27.380632
-9.2883596 -0.77403307 -27.38063
-9.2883596 -1.5480598 -27.380634
-9.2883596 -2.3220925 -27.380627
-9.2883596 -3.0961192 -27.38063
-9.2883596 -3.8701527 -27.380627
-9.2883596 -4.6441793 -27.38063
-9.2883596 -5.4182072 -27.380632
-9.3570185 -6.2380099 -26.689987
-8.5969505 -6.4477124 -34.335667
-8.5147495 20.899839 -27.376032
-8.5147495 20.125771 -27.376032
-8.5147495 19.351702 -27.376032
-8.5147495 18.577635 -27.376032
-8.5147495 17.803568 -27.376036
-8.5147495 17.029495 -27.376028
-8.5147495 16.255428 -27.37603
-8.5147495 15.481361 -27.37603
-8.5147495 14.707294 -27.37603
-8.5147495 13.933225 -27.37603
-8.5147495 13.159158 -27.376032
-8.5147495 12.38509 -27.376032
-8.5147495 11.611021 -27.376032
-8.5147495 10.836954 -27.376032
-8.5147495 10.062886 -27.376032
-8.5147495 9.2888184 -27.376032
-8.5147495 8.5147476 -27.376028
-8.5147495 7.7406807 -27.37603
-8.5147495 6.9666119 -27.37603
-8.5147495 6.192544 -27.37603
-8.5147495 5.4184766 -27.376032
-8.5147495 4.6444087 -27.37603
-8.5147495 3.8703403 -27.37603
-8.5147495 3.0962732 -27.376032
-8.5147495 2.3222051 -27.376032
-8.5147495 1.5481379 -27.376034
-8.5147495 0.77406973 -27.376032
-8.5147495 -4.2042871e-07 -27.37603
-8.5147495 -0.77406555 -27.376034
-8.5147495 -1.5481367 -27.376028
-8.5147495 -2.322201 -27.376032
-8.5147495 -3.096272 -27.37603
-8.5147495 -3.870343 -27.376026
-8.5147495 -4.6444073 -27.37603
-8.5147495 -5.4184785 -27.376028
-8.5764761 -6.2374358 -26.698654
-7.8642621 -6.4343967 -34.514278
-7.7410893 20.900944 -27.371103
-7.7410893 20.126831 -27.371103
-7.7410893 19.352722 -27.371101
-7.7410893 18.578615 -27.371101
-7.7410893 17.804504 -27.371101
-7.7410893 17.030396 -27.371099
-7.7410893 16.25629 -27.371101
-7.7410893 15.482178 -27.371103
-7.7410893 14.708073 -27.371105
-7.7410893 13.93396 -27.371105
-7.7410893 13.159851 -27.371101
-7.7410893 12.385745 -27.371103
-7.7410893 11.611633 -27.371103
-7.7410893 10.837524 -27.371101
-7.7410893 10.063418 -27.371103
-7.7410893 9.2893057 -27.371103
-7.7410893 8.5151978 -27.371099
-7.7410893 7.7410884 -27.371105
-7.7410893 6.9669805 -27.371103
-7.7410893 6.192872 -27.371099
-7.7410893 5.4187613 -27.371103
-7.7410893 4.6446533 -27.371101
-7.7410893 3.870548 -27.371103
-7.7410893 3.0964353 -27.371103
-7.7410893 2.3223274 -27.371101
-7.7410893 1.5482168 -27.371105
-7.7410893 0.77410829 -27.371103
-7.7410893 4.9046832e-07 -27.371099
-7.7410893 -0.77411216 -27.371101
-7.7410893 -1.5482157 -27.371107
-7.7410893 -2.3223236 -27.371103
-7.7410893 -3.0964353 -27.371103
-7.7410893 -3.870544 -27.371101
-7.7410893 -4.6446571 -27.371101
-7.7410893 -5.4187641 -27.371099
-7.7960792 -6.2368679 -26.707315
-7.1327214 -6.4194489 -34.714752
-6.9673233 20.901966 -27.366501
-6.9673233 20.127821 -27.366501
-6.9673233 19.353678 -27.366507
-6.9673233 18.579531 -27.366505
-6.9673233 17.805386 -27.366503
-6.9673233 17.031235 -27.366505
-6.9673233 16.257088 -27.366503
-6.9673233 15.482942 -27.366503
-6.9673233 14.708796 -27.366501
-6.9673233 13.934645 -27.366503
-6.9673233 13.160499 -27.366501
-6.9673233 12.386353 -27.366503
-6.9673233 11.612208 -27.366503
-6.9673233 10.838058 -27.366505
-6.9673233 10.063911 -27.366503
-6.9673233 9.2897654 -27.366503
-6.9673233 8.5156183 -27.366501
-6.9673233 7.741468 -27.366503
-6.9673233 6.9673219 -27.366501
-6.9673233 6.1931748 -27.366501
-6.9673233 5.4190316 -27.366505
-6.9673233 4.6448812 -27.366505
-6.9673233 3.8707352 -27.366503
-6.9673233 3.0965881 -27.366503
-6.9673233 2.3224421 -27.366501
-6.9673233 1.5482917 -27.366503
-6.9673233 0.77414471 -27.366501
-6.9673233 1.5426122e-06 -27.366505
-6.9673233 -0.77414465 -27.366505
-6.9673233 -1.5482917 -27.366503
-6.9673233 -2.3224418 -27.366505
-6.9673233 -3.0965881 -27.366503
-6.9673233 -3.8707342 -27.366501
-6.9673233 -4.6448803 -27.366501
-6.9673233 -5.4190316 -27.366501
-7.0158501 -6.236311 -26.715651
-6.4045925 -6.4045925 -34.914017
-6.1935029 20.903074 -27.361576
-6.1935029 20.128887 -27.361572
-6.1935029 19.354698 -27.361574
-6.1935029 18.580509 -27.361578
-6.1935029 17.806324 -27.361574
-6.1935029 17.032135 -27.361576
-6.1935029 16.257946 -27.361572
-6.1935029 15.483758 -27.361574
-6.1935029 14.709568 -27.361572
-6.1935029 13.935383 -27.361572
-6.1935029 13.161195 -27.361576
-6.1935029 12.387008 -27.361572
-6.1935029 11.612819 -27.361574
-6.1935029 10.838629 -27.361574
-6.1935029 10.064445 -27.361574
-6.1935029 9.2902536 -27.361572
-6.1935029 8.5160685 -27.361572
-6.1935029 7.7418799 -27.361574
-6.1935029 6.9676895 -27.361574
-6.1935029 6.1935048 -27.361574
-6.1935029 5.4193144 -27.361574
-6.1935029 4.6451297 -27.361574
-6.1935029 3.870939 -27.361572
-6.1935029 3.0967503 -27.361576
-6.1935029 2.3225627 -27.36157
-6.1935029 1.5483749 -27.361574
-6.1935029 0.77419031 -27.361574
-6.1935029 2.4535091e-06 -27.361576
-6.1935029 -0.77419126 -27.36157
-6.1935029 -1.5483758 -27.36157
-6.1935029 -2.3225644 -27.361576
-6.1935029 -3.0967481 -27.361574
-6.1935029 -3.8709369 -27.361578
-6.1935029 -4.6451306 -27.361572
-6.1935029 -5.4193158 -27.361572
-6.2350302 -6.2350292 -26.73497
-5.6798263 -6.3898044 -35.112366
-5.4195819 20.904102 -27.356972
-5.4195819 20.129879 -27.356972
-5.4195819 19.35565 -27.356974
-5.4195819 18.581425 -27.35697
-5.4195819 17.807199 -27.356974
-5.4195819 17.032974 -27.356972
-5.4195819 16.258743 -27.356972
-5.4195819 15.484522 -27.356974
-5.4195819 14.710294 -27.356974
-5.4195819 13.936068 -27.35697
-5.4195819 13.161842 -27.356976
-5.4195819 12.387616 -27.356972
-5.4195819 11.613388 -27.356972
-5.4195819 10.839166 -27.356974
-5.4195819 10.064936 -27.356974
-5.4195819 9.2907114 -27.356972
-5.4195819 8.516489 -27.356972
-5.4195819 7.74226 -27.356972
-5.4195819 6.9680347 -27.35697
-5.4195819 6.1938066 -27.35697
-5.4195819 5.4195838 -27.356972
-5.4195819 4.6453543 -27.356972
-5.4195819 3.8711302 -27.35697
-5.4195819 3.0969031 -27.356974
-5.4195819 2.3226788 -27.356972
-5.4195819 1.5484499 -27.356972
-5.4195819 0.77422678 -27.356974
-5.4195819 -1.5081093e-06 -27.356974
-5.4195819 -0.77422452 -27.356974
-5.4195819 -1.5484558 -27.35697
-5.4195819 -2.3226779 -27.356972
-5.4195819 -3.0969009 -27.356974
-5.4195819 -3.8711321 -27.35697
-5.4195819 -4.6453543 -27.356972
-5.4195819 -5.4195805 -27.356976
-5.4527178 -6.2316809 -26.785564
-4.9583983 -6.3750844 -35.309795
-5.0489635 -7.2128067 -33.748051
-4.6456008 20.905207 -27.352041
-4.6456008 20.130939 -27.352043
-4.6456008 19.35667 -27.352041
-4.6456008 18.582403 -27.352043
-4.6456008 17.808136 -27.352045
-4.6456008 17.033873 -27.352043
-4.6456008 16.259604 -27.352041
-4.6456008 15.485336 -27.352041
-4.6456008 14.71107 -27.352043
-4.6456008 13.936803 -27.352045
-4.6456008 13.162539 -27.352043
-4.6456008 12.38827 -27.352041
-4.6456008 11.614003 -27.352041
-4.6456008 10.839736 -27.352043
-4.6456008 10.06547 -27.352045
-4.6456008 9.2911997 -27.352041
-4.6456008 8.5169373 -27.352041
-4.6456008 7.7426696 -27.352041
-4.6456008 6.9684024 -27.352043
-4.6456008 6.1941328 -27.352039
-4.6456008 5.4198661 -27.352041
-4.6456008 4.6455994 -27.352043
-4.6456008 3.8713367 -27.352041
-4.6456008 3.0970693 -27.352043
-4.6456008 2.3227994 -27.352039
-4.6456008 1.5485328 -27.352041
-4.6456008 0.77426612 -27.352043
-4.6456008 -1.4084562e-06 -27.352045
-4.6456008 -0.77426708 -27.352039
-4.6456008 -1.5485308 -27.352045
-4.6456008 -2.3228014 -27.352041
-4.6456008 -3.0970693 -27.352039
-4.6456008 -3.8713348 -27.352045
-4.6456008 -4.6456003 -27.352039
-4.6456008 -5.4198651 -27.352045
-4.6712456 -6.2283273 -26.836113
-4.240274 -6.3604121 -35.506596
-4.3151574 -7.1919312 -34.000053
-3.8715246 20.906235 -27.347439
-3.8715246 20.131929 -27.347441
-3.8715246 19.357622 -27.347441
-3.8715246 18.583321 -27.347441
-3.8715246 17.809013 -27.347439
-3.8715246 17.034708 -27.347443
-3.8715246 16.260405 -27.347437
-3.8715246 15.4861 -27.347441
-3.8715246 14.711793 -27.347439
-3.8715246 13.937491 -27.347439
-3.8715246 13.163183 -27.347437
-3.8715246 12.388879 -27.347441
-3.8715246 11.614572 -27.347439
-3.8715246 10.840271 -27.347439
-3.8715246 10.065966 -27.347443
-3.8715246 9.2916584 -27.347441
-3.8715246 8.5173578 -27.347441
-3.8715246 7.7430496 -27.347439
-3.8715246 6.9687448 -27.347443
-3.8715246 6.1944418 -27.347439
-3.8715246 5.4201365 -27.347441
-3.8715246 4.6458282 -27.347439
-3.8715246 3.8715231 -27.347443
-3.8715246 3.0972202 -27.347439
-3.8715246 2.3229151 -27.347441
-3.8715246 1.5486077 -27.347439
-3.8715246 0.77430665 -27.347439
-3.8715246 -5.026115e-07 -27.347439
-3.8715246 -0.77430862 -27.347437
-3.8715246 -1.5486068 -27.347441
-3.8715246 -2.3229148 -27.347439
-3.8715246 -3.0972221 -27.347439
-3.8715246 -3.871525 -27.347445
-3.8715246 -4.6458273 -27.347441
-3.8715246 -5.4201355 -27.347439
-3.8928976 -6.2286367 -26.831453
-3.5254135 -6.3457437 -35.703308
-3.5855749 -7.1711512 -34.250881
-3.0973723 20.907265 -27.342836
-3.0973723 20.132921 -27.34284
-3.0973723 19.358578 -27.342836
-3.0973723 18.584232 -27.342836
-3.0973723 17.809893 -27.342838
-3.0973723 17.035547 -27.342838
-3.0973723 16.261204 -27.342838
-3.0973723 15.486862 -27.342836
-3.0973723 14.712519 -27.34284
-3.0973723 13.938176 -27.342836
-3.0973723 13.163832 -27.342838
-3.0973723 12.389492 -27.342838
-3.0973723 11.615147 -27.34284
-3.0973723 10.840805 -27.342836
-3.0973723 10.06646 -27.342836
-3.0973723 9.2921162 -27.34284
-3.0973723 8.5177755 -27.342838
-3.0973723 7.7434292 -27.342836
-3.0973723 6.9690881 -27.342834
-3.0973723 6.1947446 -27.342838
-3.0973723 5.420404 -27.342836
-3.0973723 4.6460571 -27.342836
-3.0973723 3.8717146 -27.34284
-3.0973723 3.097373 -27.342838
-3.0973723 2.3230283 -27.342838
-3.0973723 1.5486858 -27.342834
-3.0973723 0.77434307 -27.342838
-3.0973723 3.6029992e-06 -27.34284
-3.0973723 -0.77434194 -27.34284
-3.0973723 -1.5486867 -27.34284
-3.0973723 -2.3230283 -27.342836
-3.0973723 -3.0973747 -27.342838
-3.0973723 -3.8717146 -27.342834
-3.0973723 -4.6460619 -27.342834
-3.0973723 -5.4204021 -27.342833
-3.1145382 -6.229075 -26.82481
-2.8138332 -6.3311272 -35.899387
-2.8601961 -7.1504912 -34.500259
-2.3231518 20.908369 -27.337908
-2.3231518 20.133984 -27.337906
-2.3231518 19.359598 -27.337904
-2.3231518 18.585215 -27.337906
-2.3231518 17.810831 -27.337908
-2.3231518 17.036446 -27.337906
-2.3231518 16.262062 -27.337906
-2.3231518 15.487679 -27.337908
-2.3231518 14.713292 -27.337906
-2.3231518 13.938912 -27.337904
-2.3231518 13.16453 -27.337906
-2.3231518 12.390145 -27.337906
-2.3231518 11.61576 -27.337904
-2.3231518 10.841375 -27.337904
-2.3231518 10.066992 -27.337906
-2.3231518 9.2926083 -27.337908
-2.3231518 8.5182228 -27.337904
-2.3231518 7.7438393 -27.337906
-2.3231518 6.9694557 -27.337908
-2.3231518 6.1950698 -27.337904
-2.3231518 5.4206862 -27.337906
-2.3231518 4.6463022 -27.337906
-2.3231518 3.8719182 -27.337908
-2.3231518 3.0975361 -27.337902
-2.3231518 2.323153 -27.337904
-2.3231518 1.5487698 -27.337906
-2.3231518 0.77438569 -27.337906
-2.3231518 5.0288634e-07 -27.337904
-2.3231518 -0.7743845 -27.337904
-2.3231518 -1.5487677 -27.337906
-2.3231518 -2.3231509 -27.337908
-2.3231518 -3.0975349 -27.33791
-2.3231518 -3.8719232 -27.337902
-2.3231518 -4.646307 -27.337904
-2.3231518 -5.4206896 -27.337904
-2.3360689 -6.2295179 -26.818157
-2.105531 -6.3165932 -36.094296
-2.1389849 -7.12995 -34.748215
-1.5488441 20.909397 -27.333303
-1.5488441 20.134974 -27.333303
-1.5488441 19.360556 -27.333303
-1.5488441 18.58613 -27.3333
-1.5488441 17.811708 -27.333303
-1.5488441 17.037285 -27.333302
-1.5488441 16.262863 -27.333305
-1.5488441 15.488443 -27.333302
-1.5488441 14.714022 -27.333303
-1.5488441 13.939597 -27.333302
-1.5488441 13.165176 -27.333303
-1.5488441 12.390752 -27.333302
-1.5488441 11.61633 -27.333305
-1.5488441 10.84191 -27.333302
-1.5488441 10.067489 -27.333305
-1.5488441 9.2930651 -27.333303
-1.5488441 8.5186405 -27.333302
-1.5488441 7.7442188 -27.333303
-1.5488441 6.9697981 -27.3333
-1.5488441 6.1953773 -27.333302
-1.5488441 5.4209538 -27.333302
-1.5488441 4.6465311 -27.333303
-1.5488441 3.8721077 -27.333302
-1.5488441 3.0976901 -27.333303
-1.5488441 2.3232656 -27.333302
-1.5488441 1.5488447 -27.333303
-1.5488441 0.77442014 -27.333302
-1.5488441 -3.4587322e-06 -27.333302
-1.5488441 -0.77442199 -27.3333
-1.5488441 -1.5488436 -27.333303
-1.5488441 -2.3232644 -27.333305
-1.5488441 -3.0976911 -27.3333
-1.5488441 -3.8721125 -27.333303
-1.5488441 -4.6465311 -27.333303
-1.5488441 -5.4209518 -27.333303
-1.5574839 -6.2299347 -26.811846
-1.4004728 -6.3021283 -36.288311
-1.4219053 -7.1095276 -34.994743
-0.77446294 20.9105 -27.328371
-0.77446294 20.136038 -27.328371
-0.77446294 19.361576 -27.328373
-0.77446294 18.587112 -27.328369
-0.77446294 17.812649 -27.328367
-0.77446294 17.038183 -27.328371
-0.77446294 16.26372 -27.328369
-0.77446294 15.489258 -27.328369
-0.77446294 14.714796 -27.328369
-0.77446294 13.940333 -27.328369
-0.77446294 13.165871 -27.328367
-0.77446294 12.391405 -27.328371
-0.77446294 11.616943 -27.328371
-0.77446294 10.842482 -27.328371
-0.77446294 10.068019 -27.328369
-0.77446294 9.2935572 -27.328371
-0.77446294 8.5190945 -27.328369
-0.77446294 7.7446289 -27.328373
-0.77446294 6.9701667 -27.328371
-0.77446294 6.1957016 -27.328367
-0.77446294 5.4212403 -27.328369
-0.77446294 4.6467776 -27.328367
-0.77446294 3.8723152 -27.328367
-0.77446294 3.0978491 -27.328371
-0.77446294 2.3233869 -27.328369
-0.77446294 1.5489249 -27.328371
-0.77446294 0.7744627 -27.328369
-0.77446294 6.9714031e-07 -27.328369
-0.77446294 -0.77446353 -27.328365
-0.77446294 -1.5489275 -27.328373
-0.77446294 -2.3233917 -27.328367
-0.77446294 -3.097851 -27.328371
-0.77446294 -3.8723152 -27.328367
-0.77446294 -4.6467772 -27.328371
-0.77446294 -5.4212413 -27.328365
-0.77879703 -6.2303777 -26.805193
-0.69863641 -6.2877278 -36.481438
-0.7087965 -7.087966 -35.255016
-9.739201e-24 20.911531 -27.323765
-3.714462e-25 20.13703 -27.323763
-6.8790754e-24 19.36253 -27.323765
2.4886795e-24 18.588028 -27.323763
1.1856434e-23 17.813526 -27.323763
5.3488051e-24 17.039022 -27.323767
6.7788679e-24 16.264523 -27.323767
2.7123878e-25 15.490022 -27.323769
1.7576686e-23 14.715519 -27.323767
-2.0697921e-23 13.941018 -27.323767
-2.720555e-23 13.166519 -27.323769
-9.9001034e-24 12.392016 -27.323765
-1.6407733e-23 11.617517 -27.323767
-1.497767e-23 10.843016 -27.323767
2.3277771e-24 10.068513 -27.323765
-4.1798521e-24 9.294013 -27.323767
-2.7497893e-24 8.5195122 -27.323767
1.3207677e-24 7.7450099 -27.323763
-5.1868614e-24 6.97051 -27.323765
-3.7567986e-24 6.1960096 -27.323765
5.6109562e-24 5.4215078 -27.323763
7.041019e-24 4.6470065 -27.323765
5.3338988e-25 3.8725069 -27.323767
1.7838837e-23 3.0980041 -27.323763
1.9268899e-23 2.3235035 -27.323763
-2.6943399e-23 1.5490038 -27.323765
-2.5513336e-23 0.77450323 -27.323765
-1.6145581e-23 1.602985e-06 -27.323765
1.1598653e-24 -0.77450103 -27.323761
-2.1223148e-23 -1.5489994 -27.323767
-3.917701e-24 -2.3235054 -27.323765
6.7703009e-24 -3.0980089 -27.323763
-1.5612712e-23 -3.8725057 -27.323767
1.6927346e-24 -4.6470089 -27.323765
-2.0690279e-23 -5.4215074 -27.323771
-1.1172637e-24 -6.2308211 -26.79854
3.3019382e-24 -6.273396 -36.673683
-1.9943477e-23 -7.0663056 -35.516453
0.77453929 20.912561 -27.319164
0.77453929 20.13802 -27.31916
0.77453929 19.363482 -27.319162
0.77453929 18.588942 -27.319162
0.77453929 17.8144 -27.31916
0.77453929 17.039865 -27.31916
0.77453929 16.265326 -27.319159
0.77453929 15.490787 -27.31916
0.77453929 14.716246 -27.319159
0.77453929 13.941709 -27.319162
0.77453929 13.167168 -27.31916
0.77453929 12.392627 -27.319159
0.77453929 11.618089 -27.319162
0.77453929 10.843548 -27.31916
0.77453929 10.06901 -27.319162
0.77453929 9.2944689 -27.31916
0.77453929 8.5199299 -27.319162
0.77453929 7.7453947 -27.31916
0.77453929 6.9708557 -27.31916
0.77453929 6.1963143 -27.319159
0.77453929 5.4217744 -27.319159
0.77453929 4.6472363 -27.31916
0.77453929 3.872695 -27.319159
0.77453929 3.0981569 -27.319162
0.77453929 2.323616 -27.31916
0.77453929 1.5490787 -27.319162
0.77453929 0.77453768 -27.31916
0.77453929 -3.361386e-06 -27.319159
0.77453929 -0.77454036 -27.319155
0.77453929 -1.5490754 -27.319162
0.77453929 -2.3236156 -27.31916
0.77453929 -3.0981567 -27.319159
0.77453929 -3.8726978 -27.319157
0.77453929 -4.647234 -27.319164
0.77453929 -5.4217749 -27.319162
0.7789073 -6.2312593 -26.791885
0.69645947 -6.2681351 -36.744225
0.70477796 -7.0477805 -35.740089
1.5491602 20.91366 -27.314224
1.5491602 20.139082 -27.314226
1.5491602 19.364504 -27.314226
1.5491602 18.589924 -27.314224
1.5491602 17.815342 -27.314228
1.5491602 17.040764 -27.314228
1.5491602 16.266184 -27.314228
1.5491602 15.491606 -27.314226
1.5491602 14.717022 -27.314228
1.5491602 13.942441 -27.314224
1.5491602 13.167863 -27.314224
1.5491602 12.393279 -27.314226
1.5491602 11.618701 -27.314226
1.5491602 10.844122 -27.314226
1.5491602 10.069544 -27.314226
1.5491602 9.294961 -27.314228
1.5491602 8.5203819 -27.314228
1.5491602 7.7458014 -27.314224
1.5491602 6.9712181 -27.314226
1.5491602 6.1966395 -27.314226
1.5491602 5.422061 -27.314226
1.5491602 4.6474824 -27.314226
1.5491602 3.8728995 -27.314228
1.5491602 3.09832 -27.314226
1.5491602 2.3237424 -27.314228
1.5491602 1.549163 -27.314226
1.5491602 0.77457827 -27.314226
1.5491602 2.6084829e-06 -27.31423
1.5491602 -0.77457684 -27.314228
1.5491602 -1.5491596 -27.31423
1.5491602 -2.3237441 -27.314222
1.5491602 -3.0983217 -27.314222
1.5491602 -3.8729005 -27.314222
1.5491602 -4.6474838 -27.314224
1.5491602 -5.4220614 -27.314224
1.5579194 -6.2316809 -26.785564
1.3929629 -6.2683339 -36.741562
1.4072133 -7.036068 -35.881474
2.3238547 20.914694 -27.309622
2.3238547 20.140076 -27.30962
2.3238547 19.365458 -27.309618
2.3238547 18.590839 -27.309618
2.3238547 17.816219 -27.309622
2.3238547 17.041601 -27.309622
2.3238547 16.266983 -27.309622
2.3238547 15.492367 -27.309622
2.3238547 14.717748 -27.30962
2.3238547 13.94313 -27.30962
2.3238547 13.168514 -27.309622
2.3238547 12.39389 -27.309622
2.3238547 11.619274 -27.309622
2.3238547 10.844654 -27.30962
2.3238547 10.070037 -27.30962
2.3238547 9.2954216 -27.309622
2.3238547 8.5208025 -27.309618
2.3238547 7.746181 -27.309622
2.3238547 6.9715633 -27.309622
2.3238547 6.1969442 -27.30962
2.3238547 5.4223285 -27.309622
2.3238547 4.6477113 -27.309622
2.3238547 3.8730922 -27.30962
2.3238547 3.0984752 -27.30962
2.3238547 2.3238521 -27.30962
2.3238547 1.5492358 -27.309622
2.3238547 0.7746188 -27.309622
2.3238547 1.7003312e-06 -27.309622
2.3238547 -0.7746194 -27.309616
2.3238547 -1.5492365 -27.309616
2.3238547 -2.3238575 -27.30962
2.3238547 -3.0984745 -27.309622
2.3238547 -3.8730907 -27.309622
2.3238547 -4.6477075 -27.309624
2.3238547 -5.4223289 -27.309616
2.3370445 -6.232121 -26.77891
2.089504 -6.2685127 -36.73917
2.1073179 -7.0243921 -36.022392
3.0986366 20.9158 -27.304686
3.0986366 20.141138 -27.304686
3.0986366 19.366482 -27.304686
3.0986366 18.59182 -27.304684
3.0986366 17.817163 -27.304684
3.0986366 17.042501 -27.304684
3.0986366 16.267839 -27.304684
3.0986366 15.493182 -27.304684
3.0986366 14.71852 -27.304684
3.0986366 13.943867 -27.304688
3.0986366 13.169205 -27.304688
3.0986366 12.394547 -27.304686
3.0986366 11.619886 -27.304688
3.0986366 10.845229 -27.304686
3.0986366 10.070568 -27.304686
3.0986366 9.2959108 -27.304686
3.0986366 8.5212498 -27.304686
3.0986366 7.746592 -27.304684
3.0986366 6.971931 -27.304684
3.0986366 6.1972737 -27.304684
3.0986366 5.4226122 -27.304684
3.0986366 4.6479573 -27.304688
3.0986366 3.8732967 -27.304688
3.0986366 3.0986392 -27.304686
3.0986366 2.3239777 -27.304688
3.0986366 1.5493209 -27.304686
3.0986366 0.77465934 -27.304686
3.0986366 1.8451938e-06 -27.304686
3.0986366 -0.77465689 -27.304688
3.0986366 -1.5493205 -27.304686
3.0986366 -2.3239751 -27.304688
3.0986366 -3.0986395 -27.304686
3.0986366 -3.8732951 -27.304688
3.0986366 -4.6479578 -27.304686
3.0986366 -5.4226131 -27.304686
3.1162796 -6.2325583 -26.772257
2.7860847 -6.2686892 -36.736774
2.8050942 -7.0127344 -36.163109
3.8734868 20.916826 -27.300079
3.8734868 20.14213 -27.300077
3.8734868 19.367435 -27.300077
3.8734868 18.592735 -27.300077
3.8734868 17.818041 -27.300079
3.8734868 17.043341 -27.300079
3.8734868 16.268644 -27.300077
3.8734868 15.493948 -27.300077
3.8734868 14.719249 -27.300079
3.8734868 13.944553 -27.300079
3.8734868 13.169853 -27.300081
3.8734868 12.395159 -27.300079
3.8734868 11.620461 -27.300076
3.8734868 10.845761 -27.300077
3.8734868 10.071066 -27.300077
3.8734868 9.2963667 -27.300079
3.8734868 8.5216713 -27.300079
3.8734868 7.7469754 -27.300079
3.8734868 6.9722743 -27.300077
3.8734868 6.1975784 -27.300077
3.8734868 5.4228792 -27.300079
3.8734868 4.6481843 -27.300077
3.8734868 3.8734882 -27.300077
3.8734868 3.0987892 -27.300079
3.8734868 2.3240919 -27.300076
3.8734868 1.549392 -27.300077
3.8734868 0.77469689 -27.300077
3.8734868 1.748286e-06 -27.300077
3.8734868 -0.77470022 -27.300076
3.8734868 -1.5493923 -27.300079
3.8734868 -2.3240952 -27.300077
3.8734868 -3.0987875 -27.300081
3.8734868 -3.8734856 -27.300076
3.8734868 -4.6481876 -27.300076
3.8734868 -5.4228797 -27.300079
3.8956118 -6.2329807 -26.765934
3.4827161 -6.2688899 -36.734116
3.5005693 -7.0011392 -36.303093
4.6484294 20.917933 -27.295143
4.6484294 20.143192 -27.295141
4.6484294 19.368452 -27.295139
4.6484294 18.593719 -27.295143
4.6484294 17.818977 -27.295141
4.6484294 17.044239 -27.295143
4.6484294 16.269503 -27.295145
4.6484294 15.494766 -27.295143
4.6484294 14.720026 -27.295141
4.6484294 13.945286 -27.295141
4.6484294 13.170548 -27.295145
4.6484294 12.395813 -27.295141
4.6484294 11.621074 -27.295141
4.6484294 10.846336 -27.295145
4.6484294 10.071596 -27.295145
4.6484294 9.2968597 -27.295139
4.6484294 8.5221205 -27.295139
4.6484294 7.7473826 -27.295143
4.6484294 6.9726434 -27.295143
4.6484294 6.1979036 -27.295143
4.6484294 5.4231682 -27.295141
4.6484294 4.6484303 -27.295143
4.6484294 3.8736899 -27.295141
4.6484294 3.0989501 -27.295141
4.6484294 2.3242166 -27.295143
4.6484294 1.5494771 -27.295143
4.6484294 0.77473742 -27.295141
4.6484294 -2.1630708e-06 -27.295141
4.6484294 -0.77473873 -27.295137
4.6484294 -1.5494783 -27.295137
4.6484294 -2.3242128 -27.295145
4.6484294 -3.0989525 -27.295145
4.6484294 -3.8736932 -27.295143
4.6484294 -4.648428 -27.295141
4.6484294 -5.4231672 -27.295141
4.6750646 -6.2334189 -26.759279
4.179378 -6.2690673 -36.73172
4.1937485 -6.9895802 -36.442616
5.4234347 20.918962 -27.290533
5.4234347 20.144184 -27.290533
5.4234347 19.369411 -27.290533
5.4234347 18.594635 -27.290537
5.4234347 17.819859 -27.290539
5.4234347 17.045082 -27.290535
5.4234347 16.270306 -27.290537
5.4234347 15.495527 -27.290537
5.4234347 14.720754 -27.290537
5.4234347 13.945975 -27.290535
5.4234347 13.171197 -27.290537
5.4234347 12.396423 -27.290535
5.4234347 11.621646 -27.290537
5.4234347 10.846869 -27.290537
5.4234347 10.072094 -27.290537
5.4234347 9.2973156 -27.290535
5.4234347 8.522542 -27.290533
5.4234347 7.7477646 -27.290535
5.4234347 6.9729867 -27.290537
5.4234347 6.1982136 -27.290535
5.4234347 5.4234352 -27.290535
5.4234347 4.6486564 -27.290535
5.4234347 3.8738832 -27.290533
5.4234347 3.0991051 -27.290535
5.4234347 2.3243272 -27.290535
5.4234347 1.549554 -27.290533
5.4234347 0.77477598 -27.290535
5.4234347 -3.0712224e-06 -27.290535
5.4234347 -0.77477622 -27.290533
5.4234347 -1.5495542 -27.290535
5.4234347 -2.3243282 -27.290533
5.4234347 -3.0991054 -27.290533
5.4234347 -3.8738825 -27.290535
5.4234347 -4.6486578 -27.290531
5.4234347 -5.4234366 -27.290533
5.4546285 -6.2338629 -26.752619
4.87608 -6.2692451 -36.729328
4.8846426 -6.9780612 -36.581676
6.1985164 20.919994 -27.285927
6.1985164 20.145178 -27.285929
6.1985164 19.370365 -27.285927
6.1985164 18.595549 -27.285927
6.1985164 17.820738 -27.285929
6.1985164 17.045919 -27.285929
6.1985164 16.271105 -27.285923
6.1985164 15.496289 -27.285925
6.1985164 14.721478 -27.285925
6.1985164 13.946662 -27.285927
6.1985164 13.17185 -27.285927
6.1985164 12.397033 -27.285927
6.1985383 11.62226 -27.285595
6.1985383 10.847444 -27.285597
6.1985383 10.072626 -27.285595
6.1985383 9.2978096 -27.285597
6.1985383 8.5229874 -27.285597
6.1985383 7.7481713 -27.285599
6.1985383 6.9733534 -27.285599
6.1985383 6.1985378 -27.285601
6.1985383 5.4237189 -27.285597
6.1985383 4.6489034 -27.285601
6.1985383 3.874084 -27.285597
6.1985383 3.0992682 -27.285599
6.1985383 2.3244507 -27.285599
6.1985383 1.5496342 -27.285601
6.1985383 0.7748155 -27.285599
6.1985383 -2.1151159e-06 -27.285597
6.1985383 -0.77481776 -27.285599
6.1985383 -1.5496342 -27.285601
6.1985383 -2.3244541 -27.285595
6.1985383 -3.0992715 -27.285595
6.1985383 -3.8740878 -27.285599
6.1985383 -4.6489029 -27.285601
6.1985383 -5.4237242 -27.285595
6.2335081 -6.2335048 -26.757946
5.5728216 -6.2694235 -36.726929
5.573245 -6.9665551 -36.720547
6.9675927 21.676954 -27.362888
6.9736748 20.921024 -27.281317
6.9736748 20.14617 -27.281319
6.9736748 19.371319 -27.281319
6.9736748 18.596468 -27.281319
6.9736748 17.821611 -27.281317
6.9736748 17.046762 -27.281319
6.9736748 16.271906 -27.281319
6.9736748 15.497056 -27.281319
6.9736748 14.722202 -27.281315
6.9736991 13.9474 -27.280989
6.9736991 13.172544 -27.280987
6.9736991 12.397687 -27.280987
6.9736991 11.622833 -27.280991
6.9736991 10.847976 -27.280989
6.9736991 10.07312 -27.280989
6.9736991 9.2982635 -27.280987
6.9736991 8.5234089 -27.280991
6.9736991 7.7485571 -27.280989
6.9736991 6.9737005 -27.280987
6.9736991 6.1988444 -27.280987
6.9736991 5.4239883 -27.280987
6.9736991 4.6491342 -27.280991
6.9736991 3.8742774 -27.280989
6.9736991 3.0994213 -27.280989
6.9736991 2.3245642 -27.280987
6.9736991 1.5497102 -27.280991
6.9736991 0.77485406 -27.280991
6.9737239 -2.9730058e-06 -27.280659
6.9737239 -0.77485704 -27.280661
6.9737239 -1.5497193 -27.280659
6.9737239 -2.3245742 -27.280663
6.9737239 -3.0994332 -27.280657
6.9737239 -3.8742905 -27.280663
6.9737239 -4.6491494 -27.280659
6.9737239 -5.4240036 -27.280661
7.0119023 -6.2327991 -26.768599
6.2696228 -6.2696223 -36.724274
6.2597389 -6.9552631 -36.856838
7.7252531 21.630707 -27.562265
7.7521019 20.930676 -27.238173
7.7521019 20.155464 -27.238174
7.7521019 19.380255 -27.238176
7.7521019 18.605042 -27.238174
7.7521019 17.829836 -27.238173
7.7521019 17.054626 -27.238174
7.7521019 16.279415 -27.238174
7.7521019 15.504202 -27.238173
7.7521019 14.728992 -27.238174
7.7521019 13.953782 -27.238176
7.7521019 13.178576 -27.238174
7.7521019 12.403362 -27.238173
7.7521019 11.628152 -27.238173
7.7521019 10.852942 -27.238174
7.7521019 10.077729 -27.238173
7.7521019 9.3025227 -27.238173
7.7521291 8.5273438 -27.237844
7.7521291 7.75213 -27.237843
7.7521291 6.9769158 -27.237846
7.7521291 6.2017031 -27.237844
7.7521291 5.4264903 -27.237841
7.7521291 4.6512761 -27.237844
7.7521291 3.8760633 -27.237843
7.7521291 3.100853 -27.237844
7.7521291 2.3256361 -27.237844
7.7521291 1.5504237 -27.237843
7.7521291 0.77521318 -27.237844
7.7521291 3.5107669e-06 -27.237844
7.7521291 -0.77521604 -27.237841
7.7521291 -1.5504266 -27.237843
7.7521291 -2.3256371 -27.237844
7.7521291 -3.1008565 -27.237841
7.7521291 -3.8760662 -27.237843
7.7521291 -4.6512761 -27.237843
7.7521291 -5.4264903 -27.237846
7.7901478 -6.232121 -26.77891
6.9664459 -6.2698016 -36.721874
6.9446902 -6.9446917 -36.984489
8.521431 21.690916 -27.302711
8.5703154 21.036228 -26.76627
8.5703154 20.257109 -26.766266
8.5703154 19.477993 -26.76627
8.5703154 18.698868 -26.766268
8.5703154 17.91975 -26.766268
8.5703154 17.140633 -26.766268
8.5703154 16.361509 -26.76627
8.5703154 15.582391 -26.766268
8.5703154 14.803273 -26.766268
8.5703154 14.024154 -26.766266
8.5703154 13.24503 -26.766268
8.5703154 12.465915 -26.76627
8.5703154 11.686795 -26.766268
8.5703154 10.907671 -26.766266
8.5703154 10.128555 -26.76627
8.5703154 9.3494358 -26.766268
8.5703154 8.5703163 -26.766266
8.5703154 7.791193 -26.766266
8.5703154 7.0120764 -26.766268
8.5703154 6.2329569 -26.766266
8.5703154 5.4538379 -26.766264
8.5703154 4.6747169 -26.76627
8.5703154 3.8955972 -26.766266
8.5703154 3.1164777 -26.766264
8.5703154 2.3373578 -26.76627
8.5703154 1.5582381 -26.766268
8.5703154 0.77912128 -26.766268
8.5703154 1.6282437e-06 -26.766266
8.5703154 -0.77912128 -26.766268
8.5703154 -1.5582401 -26.766264
8.5703154 -2.3373597 -26.766264
8.5703154 -3.1164777 -26.766272
8.5703154 -3.8955972 -26.76627
8.5703154 -4.6747169 -26.766268
8.5703154 -5.453835 -26.766266
8.5720139 -6.2341905 -26.747625
7.6633086 -6.2699795 -36.719482
7.6275377 -6.9341264 -37.112015
14.492869 -6.0386953 24.972689
12.213818 -6.1069078 2.0472057
10.610863 -6.1896701 -14.077285
9.3555603 -6.2370439 -26.704651
8.3602381 -6.2701793 -36.71682
8.3083372 -6.9236164 -37.238895
15.701297 -6.0389581 24.979086
13.231575 -6.1068778 2.0466363
11.496024 -6.1901641 -14.06871
10.139822 -6.2398915 -26.661636
9.0571823 -6.2703576 -36.714428
8.9870481 -6.9131141 -37.365654
14.249322 -6.1068563 2.046072
12.381329 -6.1906662 -14.060131
10.924763 -6.242722 -26.618923
9.7541666 -6.2705369 -36.712029
9.6637325 -6.9026651 -37.491768
15.26706 -6.1068268 2.0455024
13.264644 -6.1901641 -14.06871
11.710458 -6.2455773 -26.57584
10.45119 -6.2707133 -36.709637
10.338343 -6.8922286 -37.61776
16.28479 -6.1067963 2.0449331
14.147135 -6.1893716 -14.082428
12.496872 -6.248436 -26.532709
11.148289 -6.2709122 -36.706974
11.010951 -6.8818436 -37.743111
17.302509 -6.1067662 2.0443633
15.029459 -6.188602 -14.095715
13.284004 -6.2512941 -26.489538
11.845432 -6.271112 -36.704311
11.704806 -6.885181 -37.702843
18.349995 -6.1166663 2.2434847
15.911501 -6.1878061 -14.109429
14.071859 -6.2541595 -26.446325
12.54794 -6.2739697 -36.665958
12.462742 -6.9237456 -37.237324
19.380478 -6.1201487 2.3136084
16.793316 -6.1870117 -14.123134
14.854157 -6.2543807 -26.442978
13.251091 -6.2768326 -36.627575
17.666605 -6.1833119 -14.186919
15.636456 -6.2545819 -26.43996
14.13343 -6.360044 -35.511524
18.548149 -6.1827173 -14.197185
16.421719 -6.2558942 -26.420183
