# .PCD v0.7 - Point Cloud Data file format
VERSION 0.7
FIELDS x y z
SIZE 4 4 4
TYPE F F F
COUNT 1 1 1
WIDTH 1231
HEIGHT 1
VIEWPOINT 0 0 0 1 0 0 0
POINTS 1231
DATA ascii
-828.98004 287.60535 196.15445
-828.93805 270.67371 196.05106
-828.89197 253.74245 195.93745
-828.85004 236.81439 195.83424
-828.80389 219.88689 195.7206
-828.76196 202.96217 195.61743
-828.71588 186.03833 195.50385
-828.67401 169.11722 195.40056
-828.62787 152.19698 195.28702
-828.586 135.27942 195.18372
-828.54407 118.36346 195.08058
-828.49805 101.44875 194.96707
-828.45605 84.536407 194.8638
-828.41003 67.625298 194.75034
-828.36816 50.716427 194.64719
-828.32214 33.809067 194.53368
-828.28027 16.90373 194.43051
-818.87585 1.3777211e-05 171.26295
-818.82678 -16.710726 171.142
-818.77356 -33.419258 171.01093
-818.72443 -50.125954 170.89011
-810.31158 286.98541 191.75233
-810.27069 270.0903 191.6496
-810.22571 253.1956 191.53633
-810.18481 236.30399 191.43356
-810.13983 219.41287 191.3205
-810.099 202.5248 191.21754
-810.05804 185.63841 191.11481
-810.01306 168.75272 191.00171
-809.97223 151.86981 190.89894
-809.92725 134.98793 190.78583
-809.88635 118.10843 190.68312
-809.84149 101.23019 190.57008
-809.8006 84.35424 190.46739
-809.75568 67.479691 190.35426
-809.71478 50.607216 190.25153
-809.66992 33.736313 190.13863
-809.62494 16.867208 190.02567
-772.58557 -2.1189378e-05 96.878738
-772.54095 -16.094582 96.766518
-772.49261 -32.187134 96.64492
-772.44794 -48.277966 96.532822
-791.72351 286.3681 187.3692
-791.68359 269.50934 187.26685
-791.64374 252.65228 187.16437
-791.59991 235.79578 187.05177
-791.56006 218.9422 186.94942
-791.51617 202.08925 186.83682
-791.47626 185.23921 186.73448
-791.4325 168.38997 186.62183
-791.39258 151.54329 186.51952
-791.34882 134.69766 186.40691
-791.3089 117.85452 186.30458
-791.26514 101.01257 186.19205
-791.22534 84.172966 186.08972
-791.18152 67.33461 185.97723
-791.1377 50.498173 185.86473
-791.09387 33.663612 185.75223
-791.05005 16.830931 185.63968
-729.58765 7.5423959e-05 27.784893
-729.54364 -15.522132 27.671869
-729.50299 -31.042608 27.567503
-729.46228 -46.561413 27.46316
-773.21906 285.75494 183.01511
-773.17633 268.93097 182.90306
-773.13745 252.11006 182.80101
-773.09473 235.2897 182.68884
-773.05585 218.47227 182.58691
-773.01312 201.65561 182.47482
-772.97424 184.84172 182.37289
-772.93152 168.02864 182.26067
-772.89276 151.21819 182.15883
-772.85004 134.40875 182.04668
-772.81122 117.60176 181.94479
-772.76849 100.79588 181.83279
-772.72583 83.992004 181.7207
-772.68311 67.18985 181.60866
-772.64044 50.389645 181.49663
-772.59778 33.591221 181.38469
-772.5589 16.794857 181.28281
-689.50885 3.7412945e-05 -36.652622
-689.50269 -14.989218 -36.668743
-689.46558 -29.976749 -36.766075
-689.42853 -44.962673 -36.863422
-754.78992 285.14291 178.66946
-754.74829 268.35498 178.55777
-754.71045 251.57018 178.45628
-754.66882 234.78587 178.34465
-754.63092 218.00449 178.24309
-754.58936 201.22394 178.13141
-754.55151 184.44603 178.02995
-754.50989 167.66884 177.91833
-754.47205 150.89445 177.81688
-754.43048 134.12099 177.7052
-754.38885 117.34938 177.59366
-754.34729 100.57965 177.4821
-754.30566 83.811783 177.3705
-754.2641 67.045784 177.25888
-754.22626 50.281837 177.15747
-754.18469 33.519367 177.04601
-754.14313 16.758711 176.93449
-652.08936 4.9633356e-05 -96.82077
-652.12042 -14.49152 -96.73735
-652.08649 -28.981598 -96.828339
-652.05255 -43.470131 -96.919212
-736.43958 284.53354 174.3425
-736.39905 267.78156 174.23128
-736.36218 251.03256 174.13017
-736.32166 234.28413 174.01895
-736.28479 217.5387 173.91786
-736.24432 200.79391 173.8067
-736.20746 184.0519 173.70552
-736.16693 167.31078 173.59445
-736.1264 150.5714 173.48326
-736.08588 133.83382 173.37218
-736.04541 117.09816 173.26111
-736.00488 100.36432 173.14999
-735.96808 83.632797 173.04887
-735.92755 66.902481 172.93791
-735.88715 50.174175 172.82683
-735.84662 33.447598 172.71581
-735.80609 16.722898 172.60475
-617.08093 -6.6113412e-06 -153.10892
-617.14044 -14.025848 -152.94569
-617.10944 -28.050426 -153.03085
-617.07837 -42.073444 -153.11607
-718.16748 283.9267 170.03377
-718.13165 267.21182 169.93318
-718.09216 250.49734 169.82239
-718.05267 233.78464 169.71167
-718.01685 217.07484 169.61102
-717.97742 200.3658 169.50038
-717.93799 183.65852 169.38965
-717.89862 166.95317 169.27893
-717.85919 150.24962 169.1683
-717.8197 133.54787 169.05763
-717.78387 116.84855 168.95705
-717.74451 100.15041 168.84641
-717.70508 83.454132 168.73572
-717.66571 66.759651 168.62515
-717.62628 50.067047 168.51456
-717.58691 33.376156 168.40401
-717.55103 16.687281 168.30347
-584.25305 7.4746538e-05 -205.8942
-584.3385 -13.589262 -205.65425
-584.31 -27.177193 -205.73422
-584.28149 -40.763763 -205.81422
-699.97314 283.32245 165.74352
-699.93481 266.64188 165.63327
-699.8999 249.96434 165.53299
-699.86151 233.28729 165.42274
-699.82318 216.61201 165.31258
-699.78479 199.93851 165.20232
-699.74652 183.26697 165.0921
-699.70813 166.59726 164.98183
-699.67328 149.93004 164.8817
-699.63495 133.26381 164.77155
-699.59656 116.59941 164.66136
-699.55829 99.936897 164.55115
-699.5199 83.276184 164.44106
-699.48163 66.617348 164.33092
-699.44678 49.960495 164.23079
-699.40851 33.305187 164.12065
-699.37018 16.651747 164.0105
-553.41034 2.136472e-05 -255.4872
-553.50635 -13.17868 -255.21141
-553.49109 -26.356647 -255.25534
-553.4649 -39.533119 -255.33057
-683.73645 283.50052 167.00755
-683.6853 266.80417 166.85704
-683.63422 250.11018 166.70648
-683.57965 233.41751 166.54594
-683.52856 216.72858 166.39546
-683.474 200.0412 166.235
-683.42297 183.35736 166.08447
-683.36847 166.67528 165.92407
-683.31732 149.99651 165.77364
-683.2663 133.3203 165.62328
-683.21179 116.64595 165.46292
-683.16071 99.974823 165.3125
-683.10626 83.305702 165.15219
-683.05518 66.639519 165.00195
-683.00421 49.975929 164.85162
-682.94977 33.314636 164.69144
-682.89874 16.656057 164.54118
-524.38019 8.2683073e-07 -302.16324
-524.46643 -12.79183 -301.90936
-524.47845 -25.584339 -301.87387
-524.45441 -38.374649 -301.94476
-669.89288 284.70453 175.55663
-669.84253 267.93698 175.40479
-669.78882 251.17084 175.24283
-669.73859 234.40852 175.09102
-669.68823 217.64873 174.93922
-669.638 200.89143 174.78746
-669.58771 184.13666 174.63574
-669.53406 167.38358 174.47395
-669.48383 150.63394 174.3222
-669.43353 133.88675 174.17062
-669.38 117.14156 174.00882
-669.32971 100.39947 173.85718
-669.27618 83.659561 173.69543
-669.22589 66.9226 173.54395
-669.1723 50.187973 173.38225
-669.12213 33.456158 173.23074
-496.92401 12.423097 -346.423
-497.00342 7.4035437e-05 -346.18347
-497.08282 -12.427066 -345.94373
-497.11792 -24.855888 -345.83789
-497.09576 -37.28215 -345.90482
-655.92786 285.91733 184.1683
-655.87836 269.07834 184.01512
-655.82892 252.24196 183.86203
-655.77942 235.4081 183.70897
-655.73004 218.57663 183.55588
-655.67725 201.7469 183.39256
-655.62775 184.92076 183.23956
-655.57837 168.09712 183.08659
-655.52899 151.27594 182.93362
-655.47949 134.4574 182.78059
-655.43005 117.64128 182.62772
-655.37738 100.82733 182.46455
-655.32806 84.016434 182.31169
-655.27863 67.20813 182.15875
-655.22595 50.402081 181.99576
-655.17664 33.598846 181.84291
-471.07138 12.078794 -387.98953
-471.14456 -6.6248504e-08 -387.76294
-471.21945 -12.08253 -387.5311
-471.27222 -24.167782 -387.36771
-471.2518 -36.250126 -387.43094
-446.61481 11.753037 -427.30875
-446.68231 1.7256179e-05 -427.09424
-446.74988 -11.756536 -426.87979
-446.81741 -23.51672 -426.66516
-446.80014 -35.273628 -426.72015
-446.78128 -47.029598 -426.77991
-423.44125 11.444394 -464.56766
-423.50357 1.1125759e-05 -464.36441
-423.56592 -11.447658 -464.16101
-423.62973 -22.898901 -463.95282
-423.63116 -34.348442 -463.94812
-423.61377 -45.79607 -464.00491
-401.4537 11.15148 -499.91977
-401.5126 -5.8225851e-06 -499.7222
-401.57022 -11.154697 -499.52917
-401.62784 -22.312635 -499.336
-401.64658 -33.47052 -499.27304
-401.63049 -44.625584 -499.32693
-380.56467 10.873294 -533.50336
-380.61792 1.6669395e-05 -533.31982
-380.67111 -10.876307 -533.13623
-380.72437 -21.755646 -532.95258
-380.75781 -32.636345 -532.83722
-380.74295 -43.513493 -532.88855
-360.69144 10.608596 -565.45605
-360.74063 -4.2819538e-06 -565.28131
-360.78986 -10.611493 -565.10657
-360.84027 -21.225889 -564.92773
-360.88489 -31.842733 -564.7691
-360.87003 -42.455261 -564.82196
-341.76282 10.356459 -595.89001
-341.80939 3.0149282e-05 -595.7196
-341.85492 -10.35921 -595.55304
-341.90045 -20.721184 -595.38647
-341.94601 -31.085968 -595.21985
-341.9418 -41.447445 -595.23535
-323.71399 10.116084 -624.90723
-323.7561 5.6349301e-05 -624.74835
-323.79825 -10.11872 -624.58942
-323.84036 -20.239988 -624.43054
-323.88348 -30.364096 -624.26782
-323.89136 -40.486362 -624.23822
-306.48312 9.88657 -652.61145
-306.52209 3.1112104e-06 -652.45978
-306.56198 -9.8890295 -652.30444
-306.60095 -19.780701 -652.15265
-306.63995 -29.674849 -652.00073
-306.659 -39.568924 -651.92657
-290.01764 9.6672935 -679.08313
-290.05368 5.8224057e-05 -678.93805
-290.08975 -9.6696482 -678.79297
-290.12582 -19.341717 -678.64783
-290.1619 -29.016176 -678.50256
-290.19043 -38.692055 -678.38782
-274.26593 9.4574165 -704.40918
-274.29932 -8.9845253e-06 -704.27032
-274.33267 -9.4597435 -704.13147
-274.36603 -18.921749 -703.99261
-274.40018 -28.386196 -703.85034
-274.43359 -37.852898 -703.71136
-259.18344 9.2565556 -728.65924
-259.21429 5.3140564e-05 -728.52625
-259.24588 -9.2587948 -728.39008
-259.27676 -18.519768 -728.25708
-259.30762 -27.78294 -728.12396
-259.3385 -37.04834 -727.99078
-244.72906 9.0640602 -751.89758
-244.75758 3.1952201e-05 -751.77008
-244.78612 -9.0661373 -751.64252
-244.81467 -18.13439 -751.51495
-244.8432 -27.204758 -751.38733
-244.87242 -36.277374 -751.25665
-230.86304 8.8793488 -774.19189
-230.88939 3.9601859e-05 -774.06952
-230.91576 -8.8813648 -773.94702
-230.94276 -17.764858 -773.82172
-230.96913 -26.650286 -773.69928
-230.99551 -35.537746 -773.57678
-231.01332 -44.42564 -773.49414
-217.55081 8.7020426 -795.5957
-217.57573 -4.3864184e-06 -795.4754
-217.60007 -8.7039738 -795.35785
-217.62444 -17.409916 -795.2403
-217.64879 -26.117838 -795.12262
-217.67316 -34.827648 -795.005
-217.69696 -43.539387 -794.89001
-204.76036 8.5316982 -816.15881
-204.78282 9.4071074e-06 -816.04584
-204.8053 -8.5335169 -815.9328
-204.82777 -17.068964 -815.81982
-204.85027 -25.606279 -815.70673
-204.87326 -34.145531 -815.591
-204.89575 -42.686607 -815.47784
-195.55415 297.58243 -819.69891
-195.53873 289.05725 -819.77979
-195.52383 280.53421 -819.85815
-195.50842 272.01169 -819.93896
-195.49303 263.49063 -820.01984
-195.4776 254.97084 -820.10071
-195.4622 246.45235 -820.18146
-195.44731 237.9359 -820.25964
-195.43192 229.42012 -820.34052
-195.41653 220.90569 -820.42126
-195.40114 212.39256 -820.50201
-195.38576 203.8808 -820.58276
-195.37038 195.37039 -820.66357
-195.35497 186.8613 -820.74426
-195.33958 178.35358 -820.82501
-195.32423 169.84718 -820.90576
-195.30885 161.34212 -820.98639
-195.29347 152.83839 -821.06708
-195.27811 144.336 -821.14771
-195.26273 135.83498 -821.22839
-195.24736 127.33526 -821.30914
-195.23199 118.83686 -821.38965
-195.21713 110.34013 -821.46777
-195.20178 101.84445 -821.54834
-195.18643 93.350029 -821.62897
-195.17107 84.857002 -821.70947
-195.15572 76.365303 -821.7901
-195.14037 67.874901 -821.87061
-195.12502 59.385883 -821.95117
-195.10966 50.898174 -822.03168
-195.09435 42.411804 -822.11218
-195.07899 33.926781 -822.19275
-195.06366 25.443096 -822.27325
-195.04832 16.960751 -822.3537
-195.03101 8.4796152 -822.44452
-195.01123 6.4486085e-06 -822.54834
-194.99147 -8.4778757 -822.65216
-194.97169 -16.954004 -822.75598
-194.95192 -25.428495 -822.85968
-194.93214 -33.901264 -822.96338
-194.9124 -42.37225 -823.06708
-187.91226 298.95135 -814.97778
-187.89786 290.38757 -815.0567
-187.88298 281.82452 -815.13837
-187.86859 273.26343 -815.21735
-187.85373 264.703 -815.29901
-187.83932 256.14456 -815.37787
-187.82446 247.58688 -815.45947
-187.81007 239.03104 -815.53839
-187.79521 230.47595 -815.61993
-187.78084 221.92281 -815.69879
-187.76598 213.37048 -815.78033
-187.75113 204.8194 -815.86188
-187.73627 196.26974 -815.94336
-187.72144 187.72141 -816.02478
-187.70659 179.17453 -816.10632
-187.69173 170.62889 -816.18774
-187.67688 162.08458 -816.26917
-187.66252 153.54207 -816.34796
-187.64767 145.00044 -816.42938
-187.63286 136.46028 -816.51074
-187.61801 127.92145 -816.59216
-187.6032 119.38386 -816.67358
-187.58836 110.84768 -816.75494
-187.57353 102.31282 -816.83624
-187.55872 93.779396 -816.91766
-187.54388 85.247223 -816.99902
-187.52907 76.716469 -817.08026
-187.51425 68.187035 -817.16162
-187.49944 59.658939 -817.24286
-187.48462 51.132156 -817.3241
-187.46982 42.606777 -817.4054
-187.45502 34.082764 -817.48663
-187.44067 25.560133 -817.56531
-187.42589 17.038744 -817.64648
-187.41202 8.5187168 -817.72241
-187.39293 5.6897334e-06 -817.82721
-187.37384 -8.516984 -817.93195
-187.35475 -17.032221 -818.03668
-187.33568 -25.545729 -818.14142
-187.3166 -34.057575 -818.24603
-187.29753 -42.567608 -818.35071
-180.2002 300.33368 -810.21021
-180.18585 291.72949 -810.29266
-180.172 283.12744 -810.37231
-180.15765 274.526 -810.45477
-180.1438 265.92657 -810.53436
-180.12947 257.32788 -810.6167
-180.11562 248.73111 -810.69635
-180.1013 240.13513 -810.77875
-180.08743 231.54102 -810.8584
-180.07312 222.94772 -810.94061
-180.05928 214.35631 -811.02032
-180.04543 205.76627 -811.09991
-180.03111 197.17693 -811.18213
-180.01727 188.58951 -811.26172
-180.00298 180.00296 -811.34393
-179.98914 171.41823 -811.42352
-179.97482 162.83441 -811.50562
-179.96053 154.25186 -811.58783
-179.94623 145.67076 -811.66998
-179.93195 137.091 -811.75214
-179.91765 128.51259 -811.83429
-179.90335 119.93562 -811.9165
-179.88908 111.35991 -811.99854
-179.8748 102.78564 -812.08069
-179.86052 94.212639 -812.16278
-179.84622 85.64109 -812.24487
-179.83243 77.07103 -812.32422
-179.81813 68.502205 -812.40631
-179.80386 59.934628 -812.48834
-179.7896 51.368481 -812.57037
-179.77533 42.803669 -812.65234
-179.76106 34.240204 -812.73438
-179.74681 25.678106 -812.81635
-179.73254 17.117384 -812.89838
-179.72195 8.5582247 -812.95917
-179.70357 2.3962386e-05 -813.06488
-179.68518 -8.5563974 -813.17065
-179.66678 -17.111092 -813.27637
-179.64841 -25.66404 -813.38202
-179.63002 -34.215233 -813.48767
-179.61165 -42.764671 -813.59326
-172.41603 301.72809 -805.40106
-172.40269 293.08459 -805.48163
-172.38893 284.44174 -805.56476
-172.3756 275.80096 -805.6452
-172.36183 267.16086 -805.72833
-172.3485 258.52277 -805.80872
-172.33473 249.88541 -805.89178
-172.32141 241.25005 -805.97223
-172.30809 232.61595 -806.05255
-172.29434 223.98264 -806.13562
-172.28102 215.3513 -806.21606
-172.26727 206.72073 -806.29907
-172.25395 198.09209 -806.37933
-172.2402 189.46423 -806.4624
-172.2269 180.83827 -806.54266
-172.21315 172.21317 -806.62567
-172.19984 163.58989 -806.70593
-172.1861 154.9675 -806.78888
-172.17279 146.34695 -806.86914
-172.15907 137.72728 -806.95203
-172.14577 129.10933 -807.03235
-172.13203 120.49242 -807.11517
-172.11874 111.87721 -807.19537
-172.10501 103.26299 -807.27826
-172.09129 94.650215 -807.36115
-172.07758 86.038834 -807.44397
-172.06384 77.428764 -807.52673
-172.05013 68.820099 -807.60962
-172.03639 60.212772 -807.69238
-172.02269 51.606815 -807.77521
-172.00897 43.002285 -807.85797
-171.99525 34.399067 -807.94073
-171.98154 25.797213 -808.02344
-171.96783 17.196819 -808.10626
-171.96077 8.5980406 -808.14893
-171.94307 2.6024454e-05 -808.25562
-171.9254 -8.5962353 -808.36237
-171.90771 -17.19075 -808.46906
-171.89005 -25.783484 -808.57568
-171.87239 -34.374466 -808.68231
-171.85472 -42.963692 -808.78894
-164.55968 303.13629 -800.54443
-164.54648 294.4516 -800.62842
-164.53368 285.76907 -800.70959
-164.52049 277.0871 -800.79346
-164.50771 268.40735 -800.87463
-164.49492 259.72888 -800.95587
-164.48174 251.05103 -801.03967
-164.46895 242.37532 -801.12091
-164.45575 233.70032 -801.20471
-164.44299 225.02728 -801.28583
-164.42979 216.35501 -801.36957
-164.41704 207.68469 -801.45074
-164.40384 199.01521 -801.53448
-164.39108 190.34756 -801.6156
-164.3779 181.68083 -801.69934
-164.36514 173.01593 -801.7804
-164.35196 164.35197 -801.86407
-164.3392 155.68976 -801.94513
-164.32602 147.02858 -802.02881
-164.31328 138.36905 -802.10986
-164.30009 129.71063 -802.19348
-164.28735 121.05386 -802.27448
-164.2742 112.39813 -802.35815
-164.26146 103.74405 -802.43915
-164.24872 95.091393 -802.52008
-164.23555 86.439758 -802.60364
-164.22282 77.789757 -802.68451
-164.20967 69.140961 -802.76819
-164.1965 60.493462 -802.85168
-164.18335 51.84737 -802.9353
-164.17062 43.202847 -803.01617
-164.15749 34.55949 -803.09973
-164.14433 25.917559 -803.18323
-164.13118 17.276966 -803.26672
-164.12653 8.6382627 -803.29633
-164.10956 2.081678e-05 -803.40405
-164.09262 -8.6364355 -803.51178
-164.07567 -17.27112 -803.61945
-164.05873 -25.903965 -803.72717
-164.04178 -34.535091 -803.83478
-164.02525 -43.164513 -803.9397
-157.11041 296.7641 -792.41803
-157.08788 287.99448 -792.56927
-157.06491 279.2265 -792.72327
-157.04239 270.46188 -792.87439
-157.01985 261.69983 -793.02551
-156.99731 252.94017 -793.17651
-156.97481 244.18304 -793.32758
-156.95189 235.42781 -793.48126
-156.92938 226.67577 -793.6322
-156.90688 217.92622 -793.78308
-156.88438 209.17918 -793.9339
-156.86191 200.43465 -794.08472
-156.83942 191.69267 -794.23541
-156.81654 182.95262 -794.38885
-156.79407 174.2157 -794.53955
-156.77161 165.48119 -794.69019
-156.74916 156.74918 -794.8407
-156.72672 148.0197 -794.99127
-156.70386 139.29236 -795.14453
-156.68144 130.5679 -795.29498
-156.659 121.84592 -795.44531
-156.63658 113.1264 -795.5957
-156.61417 104.40951 -795.74603
-156.59175 95.694969 -795.8963
-156.56895 86.982803 -796.04926
-156.54655 78.273277 -796.19946
-156.52417 69.566315 -796.34967
-156.50179 60.861813 -796.49969
-156.47942 52.159779 -796.64978
-156.45662 43.460175 -796.80249
-156.43427 34.763206 -796.95251
-156.4119 26.068666 -797.10242
-156.38956 17.37665 -797.25232
-156.21909 8.6788445 -798.39551
-156.20288 -7.0712194e-06 -798.50421
-156.18666 -8.677021 -798.61292
-156.17046 -17.352251 -798.72168
-156.15425 -26.025681 -798.83032
-156.13805 -34.69733 -798.9389
-156.12267 -43.367355 -799.04218
-151.70538 303.41083 -768.82031
-151.68272 294.44296 -768.98132
-151.65965 285.47705 -769.14508
-151.63702 276.51456 -769.30597
-151.61397 267.55405 -769.4696
-151.59132 258.59695 -769.63037
-151.56828 249.64188 -769.79395
-151.54607 240.69086 -769.95172
-151.52385 231.74239 -770.10944
-151.50163 222.79655 -770.26721
-151.47943 213.85332 -770.4248
-151.45682 204.91222 -770.58527
-151.43465 195.97426 -770.74286
-151.41246 187.03891 -770.90039
-151.39027 178.10625 -771.05786
-151.3681 169.1761 -771.21527
-151.34554 160.24826 -771.37555
-151.32338 151.32341 -771.53284
-151.30124 142.40123 -771.69012
-151.2791 133.48155 -771.84735
-151.25696 124.56458 -772.00452
-151.23482 115.65018 -772.16168
-151.2123 106.73817 -772.32166
-151.19019 97.828941 -772.47864
-151.16806 88.922371 -772.63568
-151.14597 80.018478 -772.79272
-151.12386 71.117126 -772.94958
-151.10136 62.218204 -773.10938
-151.07928 53.322105 -773.26611
-151.05721 44.428612 -773.42291
-151.03513 35.537659 -773.57959
-151.01306 26.649391 -773.73627
-150.99101 17.763639 -773.89294
-148.23659 8.7198 -793.45105
-148.22113 4.7565532e-05 -793.56085
-148.20567 -8.7179575 -793.67059
-148.19022 -17.434126 -793.78033
-148.17476 -26.148457 -793.89008
-148.15932 -34.861015 -793.99969
-148.14503 -43.572041 -794.10114
-146.03079 301.18851 -744.3067
-146.00807 292.01614 -744.47815
-145.98576 282.84744 -744.64642
-145.96306 273.68076 -744.81769
-145.94037 264.51691 -744.98889
-145.91808 255.35664 -745.15704
-145.8954 246.1985 -745.32819
-145.87312 237.04387 -745.49615
-145.85046 227.89136 -745.66718
-145.8282 218.74228 -745.83514
-145.80554 209.5955 -746.00604
-145.78329 200.4521 -746.17389
-145.76146 191.31192 -746.33868
-145.73923 182.17407 -746.50641
-145.71739 173.0394 -746.67108
-145.69557 163.90753 -746.83575
-145.67375 154.77838 -747.00037
-145.65195 145.65196 -747.16492
-145.63014 136.52829 -747.32941
-145.60794 127.40697 -747.49683
-145.58615 118.2888 -747.66119
-145.56438 109.17331 -747.82556
-145.54259 100.06055 -747.98987
-145.52083 90.950546 -748.15417
-145.49867 81.84304 -748.32135
-145.4769 72.738464 -748.48547
-145.45515 63.636627 -748.64954
-145.43341 54.537582 -748.8136
-145.41167 45.441162 -748.9776
-145.38994 36.347542 -749.1416
-145.36781 27.256504 -749.30847
-145.3461 18.168238 -749.47229
-140.17874 8.7611866 -788.45697
-140.16405 2.7477872e-06 -788.56781
-140.14937 -8.7593174 -788.67859
-140.13469 -17.5168 -788.78937
-140.12001 -26.272511 -788.90009
-140.10533 -35.026299 -789.01086
-140.09212 -43.778759 -789.11047
-140.09149 298.86188 -718.65466
-140.0692 289.47635 -718.83411
-140.0473 280.09457 -719.01025
-140.02502 270.71506 -719.18958
-140.00313 261.33923 -719.36578
-139.98085 251.96556 -719.54498
-139.95859 242.59496 -719.72412
-139.93674 233.22791 -719.90002
-139.91449 223.86317 -720.0791
-139.89264 214.50208 -720.25494
-139.87039 205.1433 -720.4339
-139.84856 195.78802 -720.60962
-139.82634 186.43512 -720.78851
-139.80412 177.08525 -720.96722
-139.7823 167.73883 -721.14282
-139.76012 158.39479 -721.32141
-139.73831 149.0542 -721.49695
-139.7169 139.71698 -721.66919
-139.6955 130.38252 -721.84137
-139.6741 121.0509 -722.01349
-139.65271 111.72218 -722.18567
-139.63135 102.39629 -722.35767
-139.60957 93.073059 -722.53284
-139.58821 83.752975 -722.70477
-139.56685 74.435684 -722.87665
-139.54549 65.121269 -723.04852
-139.52414 55.809708 -723.22034
-139.50241 46.500851 -723.3952
-139.48108 37.194996 -723.56689
-139.45975 27.891993 -723.73853
-139.43843 18.591835 -723.9101
-132.04373 8.8029404 -783.41809
-132.02983 1.8969731e-06 -783.52991
-132.01591 -8.8010159 -783.64178
-132.00203 -17.600254 -783.75366
-131.98813 -26.397608 -783.86542
-131.97424 -35.1931 -783.97717
-131.9621 -43.987324 -784.07507
-133.86903 296.42432 -691.77948
-133.84721 286.81546 -691.96759
-133.82581 277.2106 -692.15234
-133.80399 267.608 -692.34033
-133.78259 258.00928 -692.5249
-133.7608 248.41295 -692.71277
-133.7394 238.82042 -692.89728
-133.71762 229.23024 -693.08502
-133.69586 219.6432 -693.27271
-133.67448 210.05991 -693.45697
-133.65273 200.47913 -693.64453
-133.63136 190.90201 -693.82874
-133.60962 181.32738 -694.01611
-133.58827 171.75639 -694.2002
-133.56656 162.18797 -694.38757
-133.54521 152.62315 -694.57147
-133.52351 143.06094 -694.75867
-133.50182 133.5018 -694.94574
-133.4805 123.94619 -695.12958
-133.4588 114.39333 -695.31659
-133.4375 104.84377 -695.50024
-133.41621 95.297325 -695.6839
-133.39529 85.754158 -695.86414
-133.3744 76.213928 -696.04431
-133.35313 66.676575 -696.22784
-133.33223 57.142414 -696.4079
-133.31136 47.611183 -696.58789
-133.29048 38.082993 -696.76788
-133.26961 28.557787 -696.94788
-133.24875 19.03553 -697.12775
-123.83115 8.8451328 -778.32812
-123.81805 3.7177484e-05 -778.4411
-123.80495 -8.8432074 -778.55396
-123.79185 -17.684555 -778.66687
-123.77876 -26.523989 -778.77972
-123.76567 -35.361584 -778.89264
-123.75423 -44.197941 -778.99133
-127.36392 303.71399 -663.39423
-127.34266 293.86768 -663.59174
-127.32178 284.02554 -663.78564
-127.30053 274.18579 -663.98297
-127.27966 264.35007 -664.17676
-127.25842 254.51685 -664.37402
-127.23718 244.6869 -664.57111
-127.21634 234.86092 -664.76471
-127.19512 225.03758 -664.96173
-127.17428 215.21806 -665.15521
-127.15308 205.40115 -665.35205
-127.13226 195.58812 -665.54541
-127.11106 185.77773 -665.74213
-127.08988 175.97063 -665.93884
-127.06908 166.16734 -666.13202
-127.04792 156.36671 -666.32855
-127.02712 146.56978 -666.52155
-127.00597 136.77565 -666.71796
-126.9852 126.98519 -666.91089
-126.96406 117.19762 -667.10712
-126.94292 107.41328 -667.30347
-126.92217 97.632431 -667.49609
-126.90106 87.854584 -667.69214
-126.88031 78.080223 -667.88483
-126.85921 68.308807 -668.08075
-126.83848 58.540897 -668.27325
-126.81739 48.775917 -668.46912
-126.79705 39.014473 -668.65796
-126.77634 29.256138 -668.85022
-126.75601 19.500963 -669.039
-115.5392 8.8876591 -773.19202
-115.52692 1.3690953e-05 -773.30603
-115.51464 -8.8857164 -773.42004
-115.50237 -17.769585 -773.53406
-115.4901 -26.651537 -773.64801
-115.47782 -35.531624 -773.76196
-115.4677 -44.410641 -773.8559
-107.16738 8.9306574 -768.00336
-107.15593 2.7440983e-05 -768.11847
-107.14449 -8.9286871 -768.23358
-107.13305 -17.85548 -768.34875
-107.1216 -26.780359 -768.46381
-107.11017 -35.703388 -768.5788
-107.10074 -44.625286 -768.67377
-98.713921 8.9739981 -762.76715
-98.703323 1.9140298e-06 -762.88342
-98.692741 -8.9720726 -762.99969
-98.682144 -17.942181 -763.11591
-98.671555 -26.910398 -763.23212
-98.660973 -35.876701 -763.34827
-90.178185 9.0178108 -757.47693
-90.168457 4.6816953e-05 -757.59436
-90.158737 -9.0158663 -757.71173
-90.14901 -18.029774 -757.8291
-90.139297 -27.041773 -757.94641
-90.129578 -36.051823 -758.06366
-81.558449 9.0620632 -752.13776
-81.549614 -3.0459554e-05 -752.25629
-81.540771 -9.0600672 -752.37482
-81.531937 -18.118189 -752.49335
-81.523102 -27.17437 -752.61182
-81.514267 -36.22855 -752.73029
-72.853935 9.1067572 -746.74298
-72.846001 9.5903833e-06 -746.86267
-72.838066 -9.1047592 -746.98236
-72.830132 -18.207502 -747.10211
-72.822205 -27.308304 -747.22174
-72.814476 -36.407242 -747.33838
-64.062965 9.1518803 -741.29767
-64.055954 2.483036e-05 -741.41858
-64.048943 -9.1498051 -741.53949
-64.041931 -18.297661 -741.6604
-64.034927 -27.44355 -741.78119
-64.028442 -36.587654 -741.89294
-55.184616 9.1974325 -735.79517
-55.178551 3.0149704e-05 -735.9173
-55.172478 -9.1953793 -736.03937
-55.166409 -18.388788 -736.16144
-55.160347 -27.580168 -736.28351
-55.154736 -36.769806 -736.39636
-46.217258 9.2434788 -730.2406
-46.212147 3.159585e-05 -730.36395
-46.207039 -9.2413902 -730.4873
-46.201935 -18.48073 -730.6106
-46.196827 -27.718102 -730.73389
-46.19223 -36.953793 -730.84473
-37.159821 9.2900162 -724.62714
-37.155693 5.8417754e-06 -724.75171
-37.151566 -9.2878695 -724.87622
-37.147438 -18.573687 -725.00079
-37.143314 -27.857479 -725.12537
-37.139706 -37.13969 -725.23425
-28.010712 9.336894 -718.95996
-28.007584 2.9239347e-05 -719.08588
-28.004456 -9.3347902 -719.21167
-28.001329 -18.667494 -719.33746
-27.998203 -27.99818 -719.46326
-27.995546 -37.327415 -719.57007
-18.768709 9.3843546 -713.23206
-18.766603 2.7988634e-05 -713.35925
-18.764498 -9.3822536 -713.48633
-18.762392 -18.762369 -713.6134
-18.760286 -28.140373 -713.74048
-18.758551 -37.517078 -713.84528
-9.4322653 9.4322815 -707.44885
-9.431201 5.6209501e-07 -707.57733
-9.4301357 -9.4300938 -707.70575
-9.4290733 -18.858137 -707.83417
-9.42801 -28.284044 -707.96246
-9.4271593 -37.708626 -708.06512
-1.2406518e-22 9.4807358 -701.60315
2.3154595e-22 3.5046898e-05 -701.73291
2.9245914e-22 -9.4785366 -701.86261
1.8593681e-22 -18.954916 -701.99231
1.2373721e-22 -28.429153 -702.12201
1.0972411e-22 -37.902122 -702.22571
9.5295935 9.5296011 -695.70026
9.5285072 1.9948007e-05 -695.83136
9.527422 -9.5274315 -695.96246
9.5263357 -19.052639 -696.09344
9.5252504 -28.575735 -696.22449
9.524436 -38.097698 -696.32281
19.158058 9.5790415 -689.73291
19.155863 -9.920368e-07 -689.86536
19.153669 -9.5768242 -689.9978
19.151474 -19.151455 -690.13025
19.149281 -28.723928 -690.26257
19.147636 -38.295242 -690.36188
28.886856 9.6289206 -683.70667
28.883528 7.3091738e-05 -683.84052
28.880203 -9.6267557 -683.9743
28.876877 -19.251223 -684.10809
28.87372 -28.873728 -684.23511
28.871225 -38.494961 -684.33551
38.717705 9.6794643 -677.61389
38.713223 9.4057013e-06 -677.74908
38.70874 -9.6771421 -677.88434
38.704258 -19.352133 -678.01953
38.700008 -29.024992 -678.14795
38.696644 -38.696648 -678.24933
48.65202 9.7304106 -671.46021
48.646358 3.1038871e-05 -671.59692
48.640697 -9.7281036 -671.73364
48.63504 -19.453993 -671.8703
48.629948 -29.177975 -671.99316
48.625702 -38.900562 -672.09564
124.95352 291.55835 667.84674
124.94263 270.70908 667.62762
124.93251 249.86511 667.42419
124.92162 229.02307 667.20508
124.91074 208.18456 666.98602
124.90063 187.35103 666.78259
124.88975 166.51965 666.56366
124.87885 145.69205 666.34473
124.86875 124.86885 666.14154
124.85788 104.0483 665.92255
124.84778 83.231804 665.71942
124.8369 62.418465 665.50055
124.82681 41.60899 665.29749
58.6917 9.7820053 -665.2381
58.684834 1.5165111e-05 -665.37628
58.677967 -9.7796841 -665.51434
58.671108 -19.556995 -665.6524
58.664932 -29.332432 -665.77667
58.659786 -39.106564 -665.88013
146.54572 293.09146 681.06635
146.53287 272.13245 680.84491
146.52003 251.17722 680.62347
146.5081 230.22705 680.41797
146.49527 209.27901 680.19659
146.48335 188.33588 679.99109
146.47052 167.39484 679.76978
146.45769 146.45769 679.54858
146.44579 125.52498 679.34308
146.43295 104.59495 679.12207
146.42105 83.669266 678.91663
146.40822 62.746429 678.69543
146.39632 41.827518 678.4903
68.83812 9.8340445 -658.95306
68.830017 3.6689591e-05 -659.09277
68.821922 -9.8316545 -659.23236
68.813835 -19.661049 -659.37183
68.806953 -29.488649 -659.49054
68.80069 -39.314682 -659.59857
174.9836 284.34839 794.27466
174.93097 262.39655 793.48047
174.87721 240.45625 792.66956
174.82465 218.53081 791.87634
174.77097 196.6174 791.06641
174.71846 174.71855 790.27411
174.666 152.83282 789.48242
174.61241 130.95929 788.67389
174.56 109.09998 787.88306
174.50761 87.25383 787.09277
174.45642 65.421211 786.32019
174.40524 43.601368 785.54785
79.093353 9.8866663 -652.59735
79.084 5.8240559e-05 -652.73853
79.074654 -9.884305 -652.87964
79.065308 -19.766325 -653.02057
79.057365 -29.646519 -653.14044
79.050354 -39.525192 -653.24622
89.458733 9.9398794 -646.17676
89.448105 4.3308999e-05 -646.31934
89.437469 -9.9375162 -646.46198
89.426842 -19.872589 -646.60455
89.418068 -29.806019 -646.72217
89.410103 -39.737816 -646.82904
99.936546 9.9936543 -639.68304
99.924614 2.6274292e-05 -639.82727
99.912659 -9.9912262 -639.97137
99.900726 -19.980118 -640.11554
99.891174 -29.967369 -640.23077
99.882225 -39.952885 -640.33881
110.52806 10.048024 -633.12238
110.51478 1.6418753e-05 -633.26807
110.5015 -10.045546 -633.41382
110.48823 -20.088726 -633.55951
110.47794 -30.13032 -633.67236
110.46799 -40.170155 -633.78168
121.23578 10.103012 -626.48621
121.22112 3.5865218e-05 -626.63348
121.20648 -10.100495 -626.78088
121.19184 -20.198626 -626.9281
121.18086 -30.295187 -627.03864
121.16952 -40.389812 -627.15271
132.06091 10.158602 -619.78076
132.04486 8.441606e-06 -619.92975
132.02882 -10.156048 -620.07861
132.01318 -20.309723 -620.22382
132.00116 -30.461788 -620.33551
131.98914 -40.612022 -620.44714
143.00616 10.21473 -612.99738
142.98869 1.7212044e-05 -613.14795
142.97122 -10.212173 -613.29858
142.95421 -20.422022 -613.44543
142.94156 -30.630341 -613.5545
142.92802 -40.836567 -613.67114
154.07272 10.271556 -606.14233
154.05379 7.4693708e-05 -606.29468
154.03488 -10.268964 -606.4469
154.01738 -20.53562 -606.58777
154.00319 -30.800606 -606.70197
153.98901 -41.063725 -606.81604
165.26353 10.329013 -599.20685
165.2431 -6.4571559e-06 -599.36084
165.22272 -10.326399 -599.51483
165.20383 -20.650478 -599.65729
165.18852 -30.972851 -599.77271
165.17323 -41.293308 -599.88812
176.5797 10.387055 -592.19727
176.55775 -9.8324326e-06 -592.35297
176.53583 -10.384432 -592.50867
176.51665 -20.766661 -592.64496
176.5002 -31.147089 -592.76166
176.48376 -41.52557 -592.87836
188.0244 10.445824 -585.10437
188.0009 -2.8926261e-06 -585.2619
187.97742 -10.443151 -585.41937
187.95688 -20.884071 -585.55713
187.93927 -31.323162 -585.67523
187.92166 -41.760368 -585.79321
199.59869 10.505211 -577.93481
199.57362 -2.1252676e-05 -578.09412
199.54854 -10.50249 -578.25342
199.52786 -21.002924 -578.38483
199.50906 -31.501368 -578.50421
199.48965 -41.997799 -578.62756
211.30603 10.565298 -570.6792
211.27934 1.2134205e-06 -570.84033
211.25264 -10.562604 -571.00153
211.23062 -21.123034 -571.1344
211.21062 -31.68158 -571.25519
211.1906 -42.238091 -571.37585
223.14742 10.626079 -563.34424
223.11905 2.1315745e-05 -563.50714
223.0907 -10.623328 -563.67017
223.06874 -21.244635 -563.79645
223.04675 -31.863819 -563.92267
223.02551 -42.481045 -564.0448
235.12653 10.687597 -555.92017
235.09648 2.2619317e-05 -556.08502
235.06644 -10.684799 -556.24988
235.04315 -21.367514 -556.37762
235.02061 -32.048241 -556.50128
234.99811 -42.726894 -556.62482
247.24432 10.749799 -548.41388
247.21254 4.2154417e-05 -548.58075
247.18076 -10.746984 -548.74756
247.15694 -21.491894 -548.87256
247.13312 -32.234749 -548.99762
247.10928 -42.975498 -549.12262
259.50482 10.812757 -540.81555
259.47125 4.2760446e-05 -540.98431
259.43768 -10.809893 -541.15308
259.41339 -21.617769 -541.27539
259.38824 -32.423504 -541.40186
259.36224 -43.227032 -541.53259
271.90881 10.876373 -533.1319
271.87344 -4.1551702e-06 -533.30273
271.83987 -10.873579 -533.46497
271.81335 -21.74506 -533.59296
271.78687 -32.614376 -533.72095
271.76035 -43.481663 -533.84894
284.46069 10.940788 -525.35309
284.42349 -2.199805e-05 -525.52582
284.38812 -10.93801 -525.68994
284.36115 -21.873888 -525.81519
284.33325 -32.807697 -525.94476
297.16119 11.005987 -517.48578
297.1221 2.8602873e-05 -517.66064
297.08688 -11.003199 -517.81793
297.05759 -22.004238 -517.94904
297.02826 -33.003098 -518.08014
310.01498 11.071997 -509.51978
309.97394 -3.7456812e-07 -509.69675
309.93695 -11.069126 -509.85602
309.90723 -22.136227 -509.98425
309.87543 -33.200954 -510.12134
323.02271 11.138708 -501.46213
322.97968 1.6789165e-05 -501.64124
322.94312 -11.1359 -501.79349
322.91086 -22.269714 -501.92773
322.87863 -33.401226 -502.06198
336.18942 11.206365 -493.30222
336.14435 1.9867079e-05 -493.48358
336.10605 -11.2035 -493.63763
336.0723 -22.40476 -493.77356
336.03851 -33.603832 -493.90942
349.51569 11.274702 -485.04727
349.46854 1.2354672e-05 -485.23083
349.43088 -11.271982 -485.37759
349.39551 -22.541595 -485.5152
349.3602 -33.809036 -485.65271
363.00687 11.343964 -476.68634
362.95761 2.9395105e-05 -476.87216
362.91821 -11.341143 -477.02069
362.88132 -22.680065 -477.15997
362.84439 -34.016605 -477.29922
376.66354 11.414081 -468.22665
376.61212 -1.403465e-05 -468.41476
376.57355 -11.411336 -468.55582
376.535 -22.82029 -468.69684
376.49518 -34.226845 -468.84244
390.4913 11.48506 -459.6571
390.43768 3.1686897e-05 -459.8476
390.39746 -11.482283 -459.99036
390.35727 -22.962173 -460.13309
390.31705 -34.439693 -460.27585
404.49081 11.556888 -450.98511
404.43631 3.7443657e-05 -451.17313
404.39575 -11.554137 -451.31284
404.35245 -23.105848 -451.46228
404.31055 -34.655125 -451.60675
418.66797 11.629709 -442.19907
418.61121 3.2470725e-05 -442.38943
418.56897 -11.626868 -442.53094
418.52536 -23.25139 -442.67725
418.48169 -34.873463 -442.8237
433.02338 11.703369 -433.30652
432.96729 1.633674e-05 -433.4895
432.92337 -11.700656 -433.63275
432.8764 -23.398735 -433.78592
432.83099 -35.094379 -433.9342
447.56335 11.778006 -424.29562
447.50504 5.7607442e-05 -424.48093
447.45932 -11.775269 -424.62604
447.41205 -23.547943 -424.77621
447.36481 -35.318245 -424.9263
462.28836 11.85358 -415.17416
462.23102 -3.497873e-05 -415.35159
462.18188 -11.850835 -415.50372
462.13275 -23.699081 -415.65576
462.08365 -35.544872 -415.8078
477.20523 11.930161 -405.92966
477.14737 -9.7007251e-07 -406.10437
477.09631 -11.92739 -406.25845
477.04526 -23.852207 -406.41248
476.99252 -35.774441 -406.57162
492.31436 12.007713 -396.57025
492.25601 -6.0815937e-06 -396.74194
492.20303 -12.004933 -396.8981
492.14999 -24.007357 -397.05408
492.09702 -36.007076 -397.21008
507.62299 12.086312 -387.0831
507.5643 1.9469884e-05 -387.25177
507.50928 -12.083558 -387.40982
507.45242 -24.164387 -387.5733
507.39743 -36.242676 -387.73129
523.13147 12.165827 -377.47617
523.07245 -3.0396577e-06 -377.64175
523.01538 -12.163099 -377.80212
522.95831 -24.323641 -377.96222
522.90125 -36.481468 -378.12234
538.84747 12.246516 -367.73654
538.78827 2.3579463e-05 -367.89902
538.72711 -12.243788 -368.06677
538.66797 -24.48488 -368.22913
538.60876 -36.723324 -368.39136
554.7713 12.328329 -357.87244
554.71198 9.1631016e-05 -358.03152
554.65063 -12.325546 -358.19601
554.58936 -24.648352 -358.3605
554.526 -36.96841 -358.53036
633.07104 302.77316 -184.75363
633.04236 288.99768 -184.82883
633.00854 275.22116 -184.91763
632.97729 261.44717 -184.99966
632.94342 247.67355 -185.08853
632.91217 233.90236 -185.17053
632.88092 220.13251 -185.25252
632.84705 206.36319 -185.34128
632.81586 192.59618 -185.42339
632.78461 178.83051 -185.50533
632.75073 165.06546 -185.59413
632.71948 151.30255 -185.67606
632.68573 137.54037 -185.76477
632.65448 123.78032 -185.84679
632.62329 110.02147 -185.92874
632.58942 96.263687 -186.01744
632.55823 82.507599 -186.09935
632.52441 68.752716 -186.18813
632.49316 54.999462 -186.26997
632.46198 41.247566 -186.35184
632.42816 27.496857 -186.44055
570.91119 12.411154 -347.87015
570.84973 2.7092599e-05 -348.03137
570.78619 -12.408419 -348.19803
570.72266 -24.814018 -348.36478
570.65918 -37.216854 -348.53152
645.67493 302.23083 -187.72905
645.64307 288.47879 -187.81084
645.61127 274.72821 -187.89259
645.57941 260.97897 -187.9743
645.55029 247.23206 -188.04919
645.51843 233.48549 -188.13097
645.48395 219.73927 -188.21944
645.45221 205.99541 -188.30122
645.42035 192.2529 -188.38286
645.38593 178.51106 -188.47131
645.35413 164.77124 -188.55295
645.3197 151.0323 -188.64146
645.28784 137.29532 -188.72305
645.2561 123.5597 -188.80481
645.22168 109.825 -188.89322
645.18982 96.09214 -188.97479
645.15808 82.360641 -189.05652
645.12366 68.630188 -189.14485
645.09186 54.901516 -189.22653
645.06012 41.174057 -189.30811
645.02838 27.448023 -189.38968
587.27167 12.495172 -337.72684
587.20807 2.3889923e-05 -337.89029
587.14227 -12.492376 -338.0593
587.07428 -24.981821 -338.23386
587.00848 -37.468624 -338.40274
658.23102 301.68924 -190.70085
658.19861 287.96188 -190.7822
658.1662 274.23596 -190.86368
658.13654 260.51242 -190.93834
658.10419 246.78906 -191.01974
658.07178 233.06711 -191.10112
658.03943 219.34647 -191.18254
658.00977 205.62805 -191.25722
657.97742 191.91011 -191.33865
657.94501 178.19345 -191.41998
657.90991 164.47746 -191.50812
657.87756 150.76366 -191.58955
657.84528 137.05112 -191.67085
657.81018 123.33945 -191.75905
657.77783 109.62962 -191.84036
657.74548 95.921272 -191.92178
657.71045 82.213844 -192.00987
657.6781 68.508133 -192.09119
657.64575 54.803837 -192.17245
657.61615 41.101055 -192.24706
657.5838 27.399326 -192.32826
603.85297 12.580235 -327.45093
603.78717 3.3216991e-05 -327.61667
603.71893 -12.577405 -327.78799
603.65088 -25.152092 -327.95926
603.58276 -37.723885 -328.13043
670.74219 301.14957 -193.66185
670.70923 287.44684 -193.74295
670.67902 273.74658 -193.81738
670.64606 260.04651 -193.89854
670.61316 246.34766 -193.97966
670.5802 232.65031 -194.06087
670.54999 218.95511 -194.13518
670.51709 205.26033 -194.21629
670.48419 191.56696 -194.29736
670.45398 177.87555 -194.3717
670.42108 164.18483 -194.45284
670.38818 150.49532 -194.53391
670.35522 136.80722 -194.61494
670.32233 123.12041 -194.69603
670.28943 109.43502 -194.77707
670.25378 95.75058 -194.86496
670.22369 82.068245 -194.93922
670.19073 68.386833 -195.02017
670.16064 54.707027 -195.09457
670.12775 41.028275 -195.17558
670.09753 27.350956 -195.24977
620.66412 12.66664 -317.02835
620.59589 1.3653937e-05 -317.19623
620.52545 -12.663754 -317.37
620.45258 -25.324594 -317.54932
620.38208 -37.982498 -317.72299
