# .PCD v0.7 - Point Cloud Data file format
VERSION 0.7
FIELDS x y z
SIZE 4 4 4
TYPE F F F
COUNT 1 1 1
WIDTH 1509
HEIGHT 1
VIEWPOINT 0 0 0 1 0 0 0
POINTS 1509
DATA ascii
-232.41272 -210.27814 -510.08594
-382.54446 153.01788 462.83624
-369.95612 129.4847 386.85883
-358.19095 107.45736 315.84982
-347.15283 86.788231 249.22881
-336.77298 67.354675 186.58087
-326.99741 49.049652 127.58018
-317.77188 31.777189 71.89904
-309.05402 15.452765 19.282068
-300.80038 3.6238554e-05 -30.533033
-292.97739 -14.648889 -77.748894
-285.54977 -28.554914 -122.57849
-278.48947 -41.773407 -165.19124
-271.771 -54.354198 -205.74083
-265.36798 -66.341965 -244.38657
-259.26074 -77.778175 -281.24695
-253.42732 -88.699554 -316.45477
-247.85155 -99.140572 -350.10754
-242.51495 -109.13171 -382.31668
-237.40419 -118.7021 -413.16287
-232.50357 -127.87695 -442.74069
-227.80119 -136.68066 -471.12222
-223.28598 -145.13582 -498.37384
-218.94557 -153.26184 -524.5705
-216.27498 -162.20624 -540.6889
-217.19365 -173.75491 -535.14429
-218.14362 -185.42203 -529.41071
-219.11198 -197.20076 -523.5661
-220.07741 -209.0735 -517.73932
-373.83911 177.08173 529.04822
-361.15939 152.06711 448.49164
-349.36731 128.71432 373.57425
-338.32092 106.83825 303.39441
-327.95334 86.303604 237.52716
-318.20068 66.989662 175.5668
-309.01285 48.791531 117.19458
-300.33926 31.6147 62.089615
-292.14066 15.375881 10.002318
-284.3765 3.2430224e-05 -39.324917
-277.01434 -14.579648 -86.098259
-270.0249 -28.423672 -130.50346
-263.37839 -41.586006 -172.73
-257.05228 -54.116241 -212.92111
-251.02193 -66.058372 -251.233
-245.26897 -77.453323 -287.78262
-239.77292 -88.337372 -322.7002
-234.51863 -98.744667 -356.08176
-229.48885 -108.70524 -388.0368
-224.6703 -118.24753 -418.64999
-220.05069 -127.39776 -447.99921
-215.6165 -136.17883 -476.17047
-211.3582 -144.61354 -503.22433
-207.26414 -152.72095 -529.23462
-204.31232 -161.29918 -547.98828
-205.17595 -172.77972 -542.50146
-206.06296 -184.37209 -536.86621
-206.97586 -196.08237 -531.06628
-207.88261 -207.88261 -525.30542
-351.86124 175.93063 513.60974
-340.05765 151.13667 434.45316
-329.02203 127.95309 360.44699
-318.67853 106.22617 291.08176
-308.9671 85.824272 225.95558
-299.82861 66.628632 164.67136
-291.21658 48.536098 106.91771
-283.08411 31.453829 52.38015
-275.39349 15.299662 0.8059237
-268.11093 5.9331229e-05 -48.03215
-261.20245 -14.511214 -94.361465
-254.64214 -28.293499 -138.35594
-248.40225 -41.400352 -180.20139
-242.46184 -53.880398 -220.03865
-236.798 -65.777184 -258.02142
-231.3936 -77.131172 -294.26401
-226.22954 -87.978119 -328.89496
-221.29095 -98.35157 -362.01385
-216.56415 -108.28208 -393.71243
-212.0343 -117.79682 -424.0903
-207.6908 -126.92211 -453.2186
-203.52098 -135.68066 -481.18188
-199.51598 -144.09483 -508.04016
-195.6649 -152.18382 -533.86597
-192.48328 -160.40271 -555.20233
-193.29175 -171.81487 -549.78058
-194.11832 -183.33394 -544.23761
-194.97661 -194.97658 -538.48187
-195.82594 -206.70515 -532.78595
-342.05075 201.20638 582.75122
-330.22476 174.82497 498.77933
-319.21429 150.21854 420.59808
-308.91602 127.20074 347.47394
-299.25992 105.62115 278.90936
-290.19064 85.350212 214.51181
-281.65347 66.271431 153.89275
-273.60562 48.28339 96.747719
-266.00363 31.294592 42.76897
-258.81268 15.22429 -8.2913237
-252.00137 1.8156839e-05 -56.655807
-245.53835 -14.443449 -102.54737
-239.39955 -28.16464 -146.13672
-233.55925 -41.216301 -187.60652
-227.99805 -53.646564 -227.09454
-222.69466 -65.498367 -264.75211
-217.63235 -76.811424 -300.69748
-212.7959 -87.621819 -335.03946
-208.16896 -97.961807 -367.89359
-203.7397 -107.86216 -399.34427
-199.49428 -117.34962 -429.48923
-195.42284 -126.45002 -458.39902
-191.51363 -135.18602 -486.15686
-187.75838 -143.57991 -512.82153
-184.14696 -151.65044 -538.46484
-180.78445 -159.51569 -562.34076
-181.53957 -170.86076 -556.97894
-182.30687 -182.30682 -551.53064
-183.11194 -193.88318 -545.81421
-183.90569 -205.54163 -540.17798
-319.81915 199.88702 566.82544
-308.85858 173.73294 484.134
-298.62271 149.31143 406.91031
-289.04504 126.45724 334.65271
-280.06122 105.02302 266.87488
-271.62039 84.881424 203.19373
-263.67218 65.918076 143.22914
-256.1759 48.033001 86.67408
-249.09525 31.136997 33.254566
-242.39439 15.149714 -17.299568
-236.04564 2.5817722e-05 -65.197159
-230.01997 -14.376222 -110.65723
-224.29523 -28.03685 -153.84703
-218.84764 -41.033932 -194.94591
-213.65839 -53.414585 -234.09576
-208.71036 -65.221977 -271.42596
-203.98552 -76.494537 -307.07202
-199.47061 -87.268387 -341.13431
-195.15054 -97.575256 -373.72687
-191.0143 -107.44547 -404.93234
-187.0491 -116.90569 -434.84741
-183.2458 -125.98147 -463.54105
-179.59351 -134.6951 -491.09555
-176.08394 -143.06816 -517.57318
-172.70947 -151.12077 -543.03162
-169.46136 -158.87003 -567.53662
-169.91772 -169.91771 -564.09369
-170.62758 -181.29179 -558.73828
-171.37958 -192.80202 -553.06476
-172.11833 -204.39052 -547.49139
-308.79349 226.44858 638.9541
-297.90378 198.60263 551.32062
-287.75763 172.65462 469.67065
-278.27829 148.41507 393.38684
-269.40503 125.72239 321.98029
-261.0788 104.43159 254.97591
-253.25179 84.417236 191.98906
-245.88161 65.568451 132.67859
-238.92715 47.785511 76.713326
-232.35635 30.980837 23.835625
-226.13628 15.075763 -26.219761
-220.24149 -1.1220371e-05 -73.65728
-214.64529 -14.309653 -118.69198
-209.32733 -27.910322 -161.48766
-204.26567 -40.853065 -202.22083
-199.44301 -53.184803 -241.03043
-194.8436 -64.947876 -278.04376
-190.45081 -76.180298 -313.39426
-186.25241 -86.917747 -347.18033
-182.23447 -97.19175 -379.51419
-178.38686 -107.03207 -410.47748
-174.69772 -116.46513 -440.16519
-171.15811 -125.51592 -468.64984
-167.75964 -134.20769 -495.9986
-164.49297 -142.56056 -522.2868
-161.35159 -150.59477 -547.56659
-158.32745 -158.32744 -571.90289
-158.42297 -168.98447 -571.1344
-159.08012 -180.2908 -565.84589
-159.77737 -191.73282 -560.23499
-160.46227 -203.2522 -554.72333
-161.15254 -214.87001 -549.16852
-286.30026 224.9503 622.51178
-276.26825 197.33446 536.01379
-266.91702 171.5896 455.38574
-258.1767 147.52954 380.02484
-249.99062 124.99529 309.44293
-242.30896 103.84669 243.21025
-235.08412 83.958664 180.91632
-228.27878 65.222565 122.23928
-221.85529 47.540447 66.854889
-215.78441 30.826384 14.510631
-210.036 15.002644 -35.053463
-204.58678 1.5457772e-05 -82.037453
-199.41234 -14.243719 -126.6526
-194.49316 -27.784714 -169.06664
-189.81163 -40.673908 -209.43172
-185.34943 -52.956947 -247.90575
-181.09291 -64.676048 -284.60617
-177.02684 -75.868622 -319.66464
-173.13998 -86.569954 -353.17789
-169.41953 -96.811203 -385.25632
-165.85559 -106.62142 -415.98517
-162.43909 -116.02787 -445.44302
-159.15996 -125.05426 -473.71631
-156.01112 -133.72379 -500.86627
-152.98396 -142.05649 -526.96704
-150.07251 -150.07251 -552.07007
-147.26933 -157.78857 -576.2395
-147.05379 -168.06143 -578.09814
-147.6609 -179.30252 -572.8634
-148.30312 -190.6754 -567.32611
-148.93532 -202.12648 -561.87518
-149.57243 -213.67485 -556.38184
-273.98477 252.90901 698.04431
-264.10275 223.47153 606.28546
-254.90726 196.08261 520.90137
-246.33055 170.53665 441.26294
-238.31354 146.65443 366.82132
-230.80067 124.27726 297.0611
-223.74817 103.26839 231.57564
-217.11281 83.504936 169.96342
-210.86069 64.880249 111.90971
-204.9576 47.297913 57.096977
-199.37694 30.67338 5.2780757
-194.09126 14.930195 -43.801781
-189.07861 6.8510279e-05 -90.346466
-184.31914 -14.178372 -134.54025
-179.79265 -27.660389 -176.57069
-175.48384 -40.496227 -216.5798
-171.37607 -52.731056 -254.72226
-167.45685 -64.406464 -291.11395
-163.71227 -75.559532 -325.884
-160.13208 -86.224915 -359.12772
-156.70456 -96.433533 -390.95367
-153.4207 -106.21437 -421.44574
-150.27216 -115.59398 -450.6813
-147.24976 -124.59593 -478.74561
-144.347 -133.24339 -505.69885
-141.55603 -141.55598 -531.61432
-138.87138 -149.5538 -556.54248
-136.28624 -157.25334 -580.54669
-135.80855 -167.14894 -584.98224
-136.36575 -178.32442 -579.80829
-136.95474 -189.62962 -574.33936
-137.53534 -201.01318 -568.94824
-138.12044 -212.49297 -563.51532
-251.19606 251.19612 680.81335
-242.19368 222.01099 590.25635
-233.8156 194.84641 505.97928
-225.99648 169.49739 427.32526
-218.68463 145.78983 353.7735
-211.82994 123.56744 284.82071
-205.39297 102.69652 220.06975
-199.33469 83.056183 159.12807
-193.62448 64.541481 101.68789
-188.23143 47.057854 47.438042
-183.13066 30.521795 -3.8716671
-178.29985 14.858335 -52.465942
-173.7166 4.4690523e-08 -98.569908
-169.36377 -14.113585 -142.35593
-165.22308 -27.53713 -184.008
-161.28069 -40.320107 -223.66563
-157.52141 -52.507099 -261.48096
-153.93398 -64.139099 -297.56766
-150.50577 -75.252823 -332.05292
-147.2269 -85.882347 -365.03558
-144.08839 -96.058884 -396.60672
-141.08038 -105.81029 -426.86478
-138.19589 -115.16322 -455.88055
-135.42653 -124.14098 -483.73822
-132.76642 -132.7664 -510.49695
-130.20836 -141.05902 -536.22894
-127.74702 -149.03818 -560.9881
-125.3774 -156.72174 -584.82458
-124.68437 -166.2458 -591.79596
-125.19318 -177.35693 -586.67792
-125.73016 -188.5952 -581.27618
-126.26025 -199.91205 -575.94385
-126.79443 -211.32404 -570.57037
-228.71397 249.50621 663.81409
-220.57048 220.57059 574.44995
-212.98819 193.62572 491.24432
-205.90874 168.47089 413.55627
-199.28583 144.93518 340.87866
-193.07469 122.86572 272.71936
-187.23994 102.13091 208.6908
-181.74661 82.612106 148.40872
-176.56644 64.206017 91.563011
-171.67418 46.820255 37.87672
-167.04495 30.371847 -12.923124
-162.65955 14.787243 -61.047192
-158.49782 4.7207104e-05 -106.71674
-154.5444 -14.0495 -150.10037
-150.78278 -27.415051 -191.37927
-147.2005 -40.145535 -230.69005
-143.78394 -52.285 -268.1825
-140.52237 -63.873764 -303.97391
-137.40601 -74.94873 -338.17188
-134.42438 -85.542755 -370.89151
-131.56987 -95.687119 -402.21597
-128.83362 -105.40932 -432.24277
-126.20929 -114.73568 -461.04129
-123.68932 -123.6893 -488.69461
-121.26842 -132.29282 -515.2608
-118.94009 -140.56552 -540.81134
-116.69947 -148.5266 -565.39917
-114.54208 -156.1937 -589.07385
-113.67978 -165.35239 -598.53644
-114.14151 -176.4005 -593.46942
-114.62738 -187.57204 -588.1377
-115.10802 -198.82294 -582.86322
-115.59236 -210.16791 -577.54828
-214.38808 278.70465 741.86908
-206.5298 247.83577 647.01141
-199.22607 219.14874 558.84735
-192.42015 192.42017 476.69272
-186.06284 167.45663 399.95322
-180.11314 144.09056 328.134
-174.53125 122.17197 260.75461
-169.28494 101.57104 197.42598
-164.34563 82.172836 137.80328
-159.68562 63.874252 81.552032
-155.28329 46.585014 28.411434
-151.11653 30.223377 -21.886003
-147.16818 14.716833 -69.546761
-143.42029 3.137561e-05 -114.78792
-139.85913 -13.985922 -157.77484
-136.46999 -27.293945 -198.68555
-133.2412 -39.972363 -237.66035
-130.16219 -52.064793 -274.82751
-127.22176 -63.610886 -310.32147
-124.41171 -74.646957 -344.2417
-121.72269 -85.205894 -376.70108
-119.14786 -95.318253 -407.78204
-116.67931 -105.01138 -437.58011
-114.31136 -114.31133 -466.16376
-112.03722 -123.24094 -493.6149
-109.85182 -131.82216 -519.99524
-107.75038 -140.07549 -545.36169
-105.72751 -148.01848 -569.78003
-103.7795 -155.66922 -593.29449
-102.79314 -164.46901 -605.20099
-103.2081 -175.4538 -600.19196
-103.64441 -186.55992 -594.92523
-104.07665 -197.74561 -589.70758
-104.51219 -209.02434 -584.4502
-191.61763 276.78104 724.00867
-184.6407 246.18759 630.43213
-178.15401 217.74374 543.43054
-172.10661 191.22958 462.32129
-166.45447 166.45451 386.51306
-161.16261 143.25575 315.53717
-156.19606 121.48582 248.92436
-151.52649 101.01771 186.29436
-147.12871 81.738182 127.3101
-142.97832 63.545967 71.643845
-139.05632 46.352116 19.040825
-135.34312 30.076317 -30.76169
-131.82367 14.647151 -77.965797
-128.48204 5.6145691e-05 -122.78455
-125.30566 -13.922801 -165.38721
-122.28303 -27.174004 -205.92749
-119.40232 -39.800781 -244.56438
-116.65467 -51.846516 -281.41675
-114.03019 -63.350063 -316.61703
-111.52162 -74.347717 -350.26266
-109.12066 -84.871597 -382.46521
-106.82127 -94.952232 -413.30524
-104.61642 -104.61642 -442.87732
-102.50076 -113.88969 -471.25333
-100.4693 -122.79584 -498.49979
-98.516479 -131.35527 -524.69165
-96.638428 -139.58882 -549.88055
-94.830353 -147.5139 -574.13098
-93.088974 -155.14828 -597.48694
-92.021927 -163.59453 -611.79852
-92.391418 -174.51709 -606.84271
-92.779343 -185.55864 -601.63983
-93.164185 -196.67993 -596.47815
-93.551949 -207.8932 -591.27747
-169.15933 274.884 706.39313
-163.0408 244.56125 614.07196
-157.34946 216.35555 528.19604
-152.04118 190.05157 448.10046
-147.07938 165.46431 373.23254
-142.42967 142.42973 303.07394
-138.06566 120.80753 237.22609
-133.96046 100.47043 175.28329
-130.09296 81.308136 116.92734
-126.4419 63.220966 61.837158
-122.99077 46.121574 9.7633829
-119.72247 29.930647 -39.551384
-116.62338 14.577951 -86.313057
-113.68117 6.0820471e-06 -130.70755
-110.88329 -13.860415 -172.92416
-108.22028 -27.055004 -213.10609
-105.68176 -39.63065 -251.40945
-103.25999 -51.629967 -287.95108
-100.94635 -63.091419 -322.86118
-98.734482 -74.050865 -356.23569
-96.617111 -84.539955 -388.18427
-94.588654 -94.588669 -418.79129
-92.643936 -104.22446 -448.13477
-90.777267 -113.47153 -476.30069
-88.984642 -122.35382 -503.34949
-87.261147 -130.89171 -529.35492
-85.603424 -139.10558 -554.36798
-84.00724 -147.01268 -578.45245
-82.469765 -154.63077 -601.65137
-81.364647 -162.72929 -618.32623
-81.689865 -173.59097 -613.41907
-82.030266 -184.5681 -608.28278
-82.368706 -195.62566 -603.17615
-82.709679 -206.7742 -598.03119
-147.00679 273.0127 689.0174
-141.72443 242.95622 597.92645
-136.80772 214.98361 513.14087
-132.22147 188.88783 434.05383
-127.93274 164.48499 360.09729
-123.91218 141.61391 290.76501
-120.13662 120.13663 225.65784
-116.58376 99.92894 164.39096
-113.23555 80.882507 106.65318
-110.07377 62.899338 52.130165
-107.08424 45.893242 0.5778389
-104.25236 29.786423 -48.256393
-101.56639 14.509486 -94.574226
-99.01577 7.1490307e-05 -138.55818
-96.589714 -13.798488 -180.39397
-94.280083 -26.93714 -220.22203
-92.077972 -39.461918 -258.19623
-89.976723 -51.415245 -294.43094
-87.968903 -62.834923 -329.05457
-86.048737 -73.756004 -362.16666
-84.210915 -84.210831 -393.85886
-82.449654 -94.228165 -424.23053
-80.760841 -103.83537 -453.35306
-79.139557 -113.05651 -481.31107
-77.582344 -121.91511 -508.16434
-76.084984 -130.43137 -533.98541
-74.644562 -138.62561 -558.82452
-73.257439 -146.51486 -582.74463
-71.920929 -154.11627 -605.79187
-70.819717 -161.87364 -624.78156
-71.101082 -172.67403 -619.92969
-71.395355 -183.58804 -614.8551
-71.688339 -194.58263 -609.8028
-71.983521 -205.66721 -604.71259
-125.15305 271.16495 671.8609
-120.6853 241.37067 581.97687
-116.52555 213.63023 498.28918
-112.643 187.7383 420.17813
-109.01082 163.51625 347.10446
-105.60558 140.80753 278.59628
-102.40558 119.47321 214.21742
-99.393318 99.393349 153.6154
-96.553673 80.461411 96.486
-93.871338 62.580933 42.521603
-91.334007 45.667038 -8.5256367
-88.930626 29.643618 -56.877914
-86.650116 14.441725 -102.75824
-84.484001 4.5447967e-05 -146.33719
-82.423203 -13.737148 -187.79723
-80.460861 -26.820221 -227.27634
-78.589493 -39.29472 -264.92542
-76.803185 -51.202114 -300.86319
-75.096558 -62.580414 -335.19775
-73.463867 -73.463814 -368.04514
-71.900909 -83.884323 -399.48938
-70.402824 -93.870407 -429.62848
-68.966133 -103.44923 -458.53247
-67.586678 -112.64437 -486.28513
-66.261536 -121.47943 -512.94482
-64.987144 -129.97429 -538.5835
-63.76086 -138.1485 -563.25452
-62.580185 -146.02045 -587.00781
-61.442253 -153.60561 -609.90118
-60.384926 -161.02644 -631.1731
-60.623569 -171.76675 -626.37195
-60.872784 -182.61836 -621.35809
-61.121262 -193.55066 -616.35907
-61.371593 -204.57196 -611.32281
-61.624168 -215.68459 -606.24139
-103.59376 269.34384 654.95062
-99.919601 239.80713 566.2486
-96.497131 212.29367 483.62305
-93.301361 186.60274 406.47021
-90.310478 162.5589 334.26398
-87.505394 140.00871 266.54315
-84.869308 118.81708 202.90256
-82.386192 98.863495 142.95465
-80.044243 80.044266 86.414993
-77.832115 62.265736 33.009598
-75.73864 45.443241 -17.531527
-73.75515 29.502081 -65.417061
-71.872589 14.374504 -110.86607
-70.084038 3.2273867e-05 -154.04556
-68.382057 -13.676371 -195.13506
-66.761047 -26.704401 -234.26962
-65.214859 -39.128872 -271.59799
-63.73867 -50.990948 -307.23633
-62.32806 -62.328011 -341.29147
-60.978313 -73.17395 -373.87717
-59.686001 -83.56041 -405.07632
-58.447124 -93.515312 -434.9856
-57.258823 -103.0659 -463.67352
-56.117695 -112.23542 -491.22287
-55.02116 -121.04653 -517.69562
-53.966831 -129.52039 -543.14935
-52.951981 -137.67513 -567.65002
-51.974758 -145.52931 -591.24231
-51.032791 -153.09833 -613.98334
-50.124512 -160.39842 -635.91119
-50.255733 -170.86949 -632.74316
-50.460789 -181.65878 -627.79272
-50.66568 -192.52957 -622.84619
-50.872089 -203.48833 -617.8631
-51.080341 -214.53741 -612.83539
-82.322128 267.54703 638.26593
-79.421196 238.26366 550.72278
-76.717766 210.97385 469.1394
-74.192314 185.48087 392.92725
-71.827843 161.61273 321.57291
-69.609413 139.21892 254.6261
-67.523926 118.16692 191.69067
-65.559433 98.339149 132.40704
-63.705414 79.631805 76.456985
-61.953659 61.953712 23.593122
-60.295395 45.221558 -26.449457
-58.723843 29.361998 -73.875221
-57.231888 14.307988 -118.89893
-55.814098 5.7644725e-06 -161.68449
-54.464634 -13.616146 -202.40816
-53.178883 -26.589445 -241.20914
-51.952641 -38.964439 -278.21429
-50.781479 -50.781418 -313.55719
-49.662144 -62.077694 -347.33609
-48.590912 -72.886353 -379.66339
-47.56509 -83.238899 -410.62039
-46.581516 -93.163033 -440.30228
-45.637806 -102.68505 -468.78137
-44.731716 -111.82932 -496.12494
-43.86076 -120.61707 -522.40833
-43.023216 -129.06964 -547.68353
-42.216927 -137.205 -572.0155
-41.440426 -145.04146 -595.44843
-40.691853 -152.59445 -618.03864
-39.969963 -159.87985 -639.82361
-39.995541 -169.981 -639.05182
-40.157635 -180.70935 -634.16003
-40.319839 -191.51923 -629.26526
-40.483231 -202.41614 -624.33435
-40.648075 -213.4024 -619.35962
-61.332424 265.77383 621.80237
-59.184975 236.7399 535.39557
-57.182812 209.6703 454.83472
-55.31168 184.37225 379.5462
-53.55912 160.67747 309.02866
-51.914211 138.43794 242.84261
-50.367073 117.52321 180.59068
-48.909725 97.819519 121.95139
-47.534111 79.223595 66.601059
-46.233551 61.644821 14.270461
-45.00206 45.002117 -35.280865
-43.83466 29.223202 -82.253365
-42.72612 14.242065 -126.8576
-41.67226 6.1615719e-05 -169.26164
-40.669304 -13.556389 -209.61749
-39.713333 -26.475464 -248.08286
-38.801418 -38.801388 -284.77527
-37.930305 -50.573715 -319.82623
-37.097584 -61.829239 -353.33249
-36.300507 -72.600983 -385.40433
-35.537086 -82.91983 -416.12198
-34.804996 -92.813309 -445.57907
-34.102459 -102.30735 -473.84689
-33.427834 -111.42608 -500.99173
-32.779274 -120.19065 -527.08777
-32.155506 -128.62201 -552.18622
-31.554937 -136.73805 -576.35132
-30.976484 -144.5569 -599.62646
-30.418766 -152.09381 -622.06738
-29.880774 -159.36411 -643.71442
-29.841488 -169.10175 -645.29517
-29.961624 -179.76976 -640.46124
-30.082012 -190.51939 -635.61725
-30.203371 -201.35579 -630.73419
-30.325619 -212.2793 -625.81525
-40.619099 264.02414 605.55566
-39.205925 235.23553 520.26312
-37.887779 208.3828 440.70569
-36.65538 183.27701 366.32413
-35.500446 159.75204 296.61743
-34.416241 137.66498 231.18007
-33.396301 116.88706 169.62114
-32.43507 97.305305 111.60578
-31.527628 78.819099 56.836788
-30.669437 61.338921 5.0403481
-29.856462 44.784714 -44.027054
-29.085476 29.085505 -90.560173
-28.353422 14.176716 -134.74341
-27.657204 2.0928177e-05 -176.76402
-26.994465 -13.497152 -216.76393
-26.362638 -26.3626 -254.89792
-25.759813 -38.639713 -291.28165
-25.183847 -50.367653 -326.04437
-24.633163 -61.582893 -359.28094
-24.105961 -72.317894 -391.10043
-23.600851 -82.602974 -421.58652
-23.116556 -92.466179 -450.81635
-22.651659 -101.93245 -478.87531
-22.205168 -111.02579 -505.82349
-21.775866 -119.76726 -531.73419
-21.362917 -128.17751 -556.65778
-20.965275 -136.27428 -580.65771
-20.582228 -144.07561 -603.77667
-20.212864 -151.59648 -626.0697
-19.856525 -158.85219 -647.57666
-19.792006 -168.23203 -651.47076
-19.871096 -178.83981 -646.6972
-19.950523 -189.52997 -641.90332
-20.03059 -200.30585 -637.07092
-20.11124 -211.168 -632.20325
-20.176718 262.29742 589.52136
-19.479185 233.75031 505.32162
-18.828165 207.10991 426.73639
-18.219349 182.19351 353.24606
-17.648674 158.83815 284.35968
-17.112665 136.90135 219.6575
-16.608253 116.2578 158.76965
-16.132725 96.796379 101.36848
-15.683672 78.418388 47.162685
-15.258939 61.035789 -4.1069617
-14.856473 44.569439 -52.68898
-14.474628 28.949261 -98.781639
-14.11198 14.11202 -142.55717
-13.767003 2.0171365e-06 -184.19962
-13.438544 -13.438507 -223.84818
-13.125341 -26.250689 -261.65506
-12.826454 -38.479385 -297.73392
-12.540829 -50.16333 -332.21182
-12.267649 -61.338184 -365.18774
-12.006158 -72.036926 -396.75235
-11.755542 -82.288795 -427.00449
-11.515214 -92.121681 -456.01462
-11.284477 -101.56026 -483.86694
-11.062842 -110.6284 -510.6207
-10.84971 -119.34681 -536.34796
-10.64467 -127.73605 -561.09857
-10.447203 -135.81363 -584.935
-10.256928 -143.59698 -607.90308
-10.073492 -151.10237 -630.04596
-9.896471 -158.34352 -651.41418
-9.8453369 -167.37071 -657.58667
-9.8844194 -177.91956 -652.86896
-9.9237251 -188.5508 -648.12439
-9.9633436 -199.26688 -643.34192
-10.003251 -210.06828 -638.52472
-1.3236844e-22 260.59299 573.69543
1.86314e-22 232.28226 490.55435
1.1147925e-22 205.85347 412.9494
4.8212886e-22 181.12378 340.3338
2.8477417e-22 157.93457 272.24127
1.8835307e-22 136.14612 208.26201
1.7695689e-22 115.63531 148.03429
1.2959019e-23 96.292816 91.237488
-3.9544979e-23 78.021782 37.586544
-2.1524437e-22 60.735424 -13.172818
1.6987593e-22 44.356239 -61.268204
-1.557215e-22 28.814354 -106.92657
-4.6968147e-25 14.047884 -150.29996
-1.3824294e-22 3.1460178e-05 -191.56927
3.4495756e-22 -13.380362 -230.87103
2.2677176e-22 -26.13962 -268.35507
1.2609827e-22 -38.320168 -304.13879
5.5536641e-22 -49.960587 -338.32953
1.0401917e-22 -61.095737 -371.04236
2.6077136e-22 -71.758232 -402.3605
-2.3894938e-23 -81.976936 -432.38141
3.840236e-22 -91.779747 -461.17432
4.1841051e-22 -101.19078 -488.82233
4.1741849e-22 -110.23386 -515.38367
2.1215284e-23 -118.92927 -540.9295
-9.7434747e-23 -127.29716 -565.51294
1.8008228e-22 -135.35608 -589.18341
-3.0417366e-23 -143.12198 -611.99847
-1.1657188e-22 -150.61145 -633.9964
-1.4521463e-22 -157.8381 -655.22717
1.9656263e-22 -166.51819 -663.6402
2.5931542e-22 -177.00864 -658.97754
7.3169588e-23 -187.58159 -654.28156
3.083859e-22 -198.23857 -649.54816
2.9185072e-22 -208.97989 -644.78064
19.91608 258.90906 558.05969
19.236149 230.83383 475.98465
18.60111 204.61227 399.32864
18.006659 180.06665 327.57208
17.449026 157.04135 260.25995
16.924896 135.39915 196.99165
16.431334 115.01938 137.41339
15.96574 95.794533 81.211426
15.525807 77.629044 28.106863
15.109468 60.43792 -22.149744
14.71481 44.14447 -69.789055
14.340307 28.680668 -114.99573
13.984276 13.984299 -157.9726
13.645438 3.7676899e-05 -198.87369
13.322633 -13.322587 -237.83984
13.014799 -26.029577 -274.99872
12.72082 -38.162418 -310.48508
12.439877 -49.759506 -344.39801
12.171028 -60.855122 -376.85092
11.913597 -71.481552 -407.92538
11.666791 -81.667496 -437.71765
11.430042 -91.440353 -466.29584
11.202672 -100.82402 -493.74185
10.984172 -109.84171 -520.11713
10.774066 -118.51469 -545.47906
10.571815 -126.86177 -569.89301
10.377048 -134.90163 -593.40332
10.189299 -142.65015 -616.06683
10.008251 -150.12375 -637.9212
9.8334961 -157.33592 -659.01599
9.745575 -165.67477 -669.62897
9.7837238 -176.10701 -665.02393
9.8222322 -186.62238 -660.37567
9.861043 -197.22083 -655.69073
9.9001341 -207.9028 -650.97211
39.576656 257.24832 542.63873
38.233891 229.40334 461.59546
36.979248 203.38588 385.87109
35.804329 179.02177 314.95859
34.701775 156.15807 248.41341
33.665092 134.66043 185.84424
32.688557 114.40997 126.90494
31.767075 95.3013 71.288628
30.895979 77.239983 18.713415
30.071516 60.143051 -31.047325
29.289913 43.934883 -78.221222
28.547909 28.547903 -123.00514
27.842573 13.921316 -165.57608
27.170918 4.9647219e-06 -206.11409
26.530903 -13.265461 -244.74228
25.920446 -25.920389 -281.58661
25.337355 -38.005978 -316.77927
24.780012 -49.559986 -350.41791
24.246574 -60.616444 -382.61374
23.735701 -71.207085 -413.44763
23.245831 -81.36039 -443.01389
22.775774 -91.103104 -471.38431
22.324423 -100.45989 -498.6257
21.890543 -109.45268 -524.81268
21.473278 -118.103 -549.99701
21.071552 -126.42931 -574.24323
20.684647 -134.45018 -597.59497
20.311634 -142.18143 -620.1084
19.951893 -149.63918 -641.82068
19.604616 -156.8369 -662.78064
19.392868 -164.83939 -675.56079
19.468285 -175.21455 -671.00897
19.544519 -185.67293 -666.40784
19.621353 -196.21353 -661.77051
19.698736 -206.83672 -657.1001
58.986618 255.6087 527.41437
56.997631 227.99052 447.38358
55.138401 202.17412 372.57397
53.396633 177.98877 302.49066
51.761539 155.28471 236.69946
50.223602 133.92961 174.81786
48.774185 113.80652 116.49777
47.406307 94.812653 61.458527
46.113056 76.85511 9.4221859
44.888493 59.851322 -39.850414
43.727287 43.727322 -86.573753
42.624641 28.416403 -130.94077
41.576237 13.858782 -173.12532
40.578007 4.8419759e-05 -213.29103
39.626274 -13.208749 -251.5858
38.718311 -25.812151 -288.11945
37.850883 -37.850815 -323.02209
37.021603 -49.362167 -356.38962
36.227753 -60.379566 -388.3317
35.467236 -70.934456 -418.93259
34.73811 -81.055527 -448.27036
34.038242 -90.768623 -476.43076
33.366131 -100.09837 -503.47449
32.71994 -109.06644 -529.47516
32.098408 -117.69411 -554.48376
31.499949 -125.99978 -578.5639
30.923492 -134.00179 -601.75873
30.367662 -141.71573 -624.1236
29.831459 -149.15729 -645.69861
29.313951 -156.34105 -666.52161
28.943359 -164.01237 -681.43304
29.055183 -174.33112 -676.93365
29.168381 -184.73308 -672.37891
29.282465 -195.21642 -667.78851
29.397358 -205.78148 -663.16553
29.513245 -216.43042 -658.50262
78.150726 253.98991 512.38281
75.531662 226.59494 433.3457
73.082458 200.97684 359.43436
70.787094 176.96774 290.16565
68.631531 154.42105 225.11574
66.603035 133.20615 163.90039
64.691322 113.20987 106.20928
62.886284 94.329498 51.737514
61.179245 76.474098 0.22303747
59.562431 59.562489 -48.568588
58.028873 43.521687 -94.847694
56.572304 28.286139 -138.80365
55.187065 13.796791 -180.60699
53.868046 -1.1266148e-05 -220.41191
52.610188 -13.15251 -258.37112
51.409737 -25.704908 -294.59793
50.262653 -37.696941 -329.21417
49.165825 -49.16581 -362.31381
48.115669 -60.144581 -394.0051
47.10944 -70.664131 -424.37076
46.144592 -80.752945 -453.48764
45.218323 -90.436592 -481.44037
44.328651 -99.739487 -508.28851
43.473179 -108.68292 -534.1048
42.65023 -117.2881 -558.93945
41.857723 -125.57315 -582.85529
41.094139 -133.55592 -605.89862
40.358036 -141.2531 -628.11255
39.647717 -148.67894 -649.5481
38.96209 -155.84834 -670.23889
38.398609 -163.19408 -687.24341
38.545551 -173.45499 -682.80902
38.695301 -183.8027 -678.28979
38.845886 -194.2294 -673.74567
38.997528 -204.73698 -669.16937
39.150475 -215.32759 -664.55377
97.073616 252.39148 497.54053
93.840187 225.21655 419.47864
90.815224 199.79353 346.44934
87.978714 175.9575 277.97025
85.314476 153.56612 213.64967
82.806847 132.49097 153.11028
80.442429 112.61939 96.028122
78.209282 93.851151 42.115238
76.096779 76.096802 -8.8851433
74.09539 59.276348 -57.203011
72.196579 43.317966 -103.04427
70.392662 28.157129 -146.59477
68.676689 13.735352 -188.02203
67.042122 3.8336693e-05 -227.48399
65.483803 -13.09673 -265.1051
63.996044 -25.598431 -301.02277
62.57391 -37.544304 -335.35608
61.213612 -48.97086 -368.19656
59.911415 -59.911366 -399.63446
58.663261 -70.395943 -429.76755
57.466244 -80.452721 -458.66608
56.316914 -90.107002 -486.41333
55.212837 -99.383057 -513.06805
54.151047 -108.30207 -538.70203
53.129322 -116.88447 -563.36865
52.145603 -125.14941 -587.11774
51.197491 -133.11345 -610.0072
50.28339 -140.79349 -632.0755
49.401215 -148.20364 -653.37311
48.549603 -155.35872 -673.93286
47.759838 -162.38344 -692.99939
47.940598 -172.58612 -688.63556
48.126743 -182.88159 -684.1416
48.313084 -193.2523 -679.64282
48.500736 -203.70311 -675.11261
48.689987 -214.23589 -670.54364
115.75982 250.81303 482.88388
111.92667 223.85338 405.76663
108.33981 198.62303 333.60461
104.97571 174.95961 265.92422
101.81423 152.72145 202.32028
98.837616 131.78351 142.43533
96.030106 112.03516 85.952484
93.377686 93.377716 32.589901
90.867844 75.723228 -17.904024
88.489388 58.992992 -65.754784
86.232285 43.116173 -111.16444
84.087448 28.029213 -154.31511
82.046394 13.674463 -195.37808
80.102386 -3.6021447e-05 -234.48836
78.248375 -13.041334 -271.7883
76.478241 -25.492712 -307.40054
74.785866 -37.392902 -341.44855
73.166504 -48.777607 -374.0275
71.616043 -59.679989 -405.22043
70.129684 -70.129669 -435.1236
68.704002 -80.154625 -463.80615
67.334908 -89.779892 -491.35022
66.019531 -99.029312 -517.8136
64.754341 -107.92387 -543.26715
63.536739 -116.48402 -567.76343
62.364281 -124.72852 -591.3515
61.234119 -132.67392 -614.08862
60.144363 -140.33682 -636.01276
59.092552 -147.73134 -657.17358
58.077057 -154.87216 -677.60364
57.095718 -161.77115 -697.3468
57.242157 -171.72647 -694.4007
57.46413 -181.96976 -689.93488
57.685509 -192.28502 -685.48108
57.908436 -202.67955 -680.99615
58.133263 -213.15527 -676.47296
134.21298 249.25269 468.39603
129.79625 222.50786 392.23209
125.66093 197.46727 320.9212
121.78099 173.97285 254.01407
118.13347 151.88597 191.11476
114.69809 131.0836 131.87381
111.45687 111.45688 75.981003
108.3938 92.90905 23.160233
105.49459 75.35331 -26.834839
102.74643 58.71228 -74.225174
100.13738 42.916111 -119.21664
97.657967 27.902321 -161.9726
95.298363 13.614131 -202.66249
93.050102 7.2821291e-05 -241.43246
90.905472 -12.986434 -278.41528
88.857468 -25.387871 -313.73163
86.899719 -37.242653 -347.49194
85.025452 -48.585949 -379.81247
83.230614 -59.450397 -410.76334
81.509705 -69.865456 -440.43924
79.858803 -79.85878 -468.90826
78.27317 -89.455055 -496.25137
76.74929 -98.67765 -522.52985
75.283852 -107.54834 -547.80042
73.873085 -116.08624 -572.12811
72.514458 -124.31048 -595.55695
71.204674 -132.23724 -618.14319
69.941582 -139.88313 -639.92456
68.722321 -147.26207 -660.95001
67.544838 -154.38815 -681.255
66.407211 -161.27466 -700.87256
66.452072 -170.87679 -700.09894
66.708862 -181.06691 -695.67072
66.964577 -191.32739 -691.26111
67.222076 -201.6662 -686.8208
67.48175 -212.08545 -682.3429
152.43884 247.71313 454.10062
147.45229 221.1785 378.85928
142.78163 196.3248 308.38461
138.3978 172.99728 242.23744
134.27513 151.05951 180.0313
130.39098 130.39102 121.42387
126.72521 110.88456 66.111832
123.25993 92.444962 13.82477
119.97912 74.986954 -35.678814
116.86792 58.433983 -82.6231
113.91449 42.717949 -127.18707
111.10665 27.776691 -169.55409
108.43389 13.554274 -209.88286
105.88671 -4.9769305e-06 -248.31682
103.45645 -12.932052 -284.98663
101.13525 -25.28376 -320.01096
98.915909 -37.093445 -353.49808
96.791542 -48.395702 -385.55234
94.756165 -59.222565 -416.26382
92.804306 -69.603249 -445.71503
90.931236 -79.564789 -473.97754
89.132576 -89.132545 -501.11722
87.403404 -98.328819 -527.20837
85.740326 -107.17538 -552.30231
84.139091 -115.69123 -576.46313
82.596817 -123.89519 -599.73425
81.109818 -131.80344 -622.17126
79.675659 -139.43237 -643.8111
78.2911 -146.79579 -664.70245
76.953842 -153.90768 -684.88013
75.661705 -160.78111 -704.37695
75.572159 -170.03731 -705.72815
75.86232 -180.173 -701.34998
76.151672 -190.37918 -696.98383
76.443039 -200.66298 -692.58752
76.736862 -211.02632 -688.15411
176.36877 274.35153 519.48651
170.44093 246.1925 439.98059
164.89861 219.86478 365.64529
159.70538 195.19543 295.99216
154.82927 172.03253 230.59224
150.24208 150.24208 169.06773
145.9189 129.7057 111.08379
141.83755 110.31809 56.34354
137.97768 91.985115 4.573689
134.32291 74.623856 -44.445259
130.85675 58.158619 -90.93425
127.56499 42.521683 -135.08432
124.43478 27.652153 -177.06767
121.4545 13.494958 -217.04002
118.61364 3.9378865e-05 -255.14241
115.90265 -12.878092 -291.50311
113.31281 -25.180561 -326.23886
110.83617 -36.9454 -359.45621
108.4651 -48.206699 -391.25772
106.19334 -58.996326 -421.7272
104.01443 -69.342957 -450.95132
101.9228 -79.273293 -479.00491
99.913963 -88.812386 -505.94809
97.982468 -97.982468 -531.85394
96.124527 -106.80499 -556.77313
94.335457 -115.29885 -580.7688
92.612038 -123.48271 -603.88367
90.950188 -131.37248 -626.17291
89.346931 -138.98413 -647.67627
87.799477 -146.33243 -668.43127
86.304459 -153.43013 -688.48285
84.859741 -160.29062 -707.8598
84.60331 -169.20662 -711.29919
84.925827 -179.28787 -706.97345
85.248169 -189.44037 -702.65015
85.572723 -199.66963 -698.29718
85.899994 -209.97778 -693.90765
194.72833 272.61969 504.55487
188.22334 244.69046 426.03287
182.13892 218.56676 352.58737
176.43555 194.07909 283.74146
171.07849 171.07849 219.07625
166.03717 149.43352 158.22208
161.28369 129.02702 100.84238
156.79553 109.75686 46.665657
152.55042 91.530235 -4.5775433
148.5291 74.26458 -53.119144
144.71434 57.885742 -99.16732
141.09064 42.327217 -142.90935
137.64397 27.528839 -184.51422
134.36168 13.436212 -224.13495
131.2323 6.9408758e-05 -261.91003
128.24536 -12.824507 -297.96555
125.39137 -25.078236 -332.41626
122.66119 -36.798298 -365.37244
120.04779 -48.019119 -396.91882
117.54343 -58.771698 -427.14911
115.14104 -69.084572 -456.14871
112.83411 -78.983833 -483.99573
110.61818 -88.494514 -510.74435
108.48725 -97.638474 -536.46692
106.43722 -106.43719 -561.21307
104.46289 -114.90916 -585.04523
102.56049 -123.07255 -608.00946
100.72643 -130.94432 -630.1485
98.956512 -138.53909 -651.51324
97.248009 -145.87198 -672.1366
95.597229 -152.95558 -692.06323
94.001823 -159.80309 -711.32147
93.546379 -168.38348 -716.81921
93.900734 -178.41138 -712.54181
94.255386 -188.51073 -708.26074
94.612732 -198.68669 -703.94733
94.972519 -208.93951 -699.60425
212.85756 270.90961 489.81061
205.79008 243.20657 412.25433
199.17685 217.28394 339.68268
192.97543 192.97543 271.63007
187.14851 170.13501 207.68713
181.66226 148.63281 147.48277
176.48936 128.35597 90.716972
171.60291 109.20191 37.094494
166.97974 91.079849 -13.638673
162.59915 73.90876 -61.709972
158.44254 57.615528 -107.32355
154.49312 42.134499 -150.66313
150.73581 27.406519 -191.89458
147.15694 13.377903 -231.16824
143.74405 6.3111176e-05 -268.62018
140.48535 -12.771372 -304.38019
137.37163 -24.976648 -338.5491
134.39294 -36.652576 -371.23639
131.5407 -47.832973 -402.5361
128.80701 -58.548622 -432.53485
126.18461 -68.827942 -461.3121
123.66604 -78.696541 -488.95016
121.24604 -88.178925 -515.50647
118.91856 -97.297005 -541.04761
116.67875 -106.07156 -565.62671
114.5221 -114.52207 -589.29303
112.44339 -122.66551 -612.10406
110.43913 -130.51895 -634.09827
108.50475 -138.09694 -655.3255
106.63728 -145.41444 -675.81866
104.8327 -152.48387 -695.62158
103.08846 -159.31853 -714.76227
102.40286 -167.56831 -722.28583
102.78831 -177.54343 -718.05609
103.17464 -187.59026 -713.81671
103.56387 -197.71284 -709.54529
103.95576 -207.91153 -705.24481
104.35093 -218.18825 -700.90839
230.76077 269.22095 475.25024
223.14505 241.74054 398.64194
216.01593 216.01593 326.92856
209.32715 191.88327 259.64465
203.0412 169.20103 196.41281
197.12175 147.84138 136.86772
191.53767 127.69185 80.696304
186.26126 108.65237 27.619734
181.26776 90.633896 -22.611086
176.535 73.556236 -70.218849
172.04311 57.347755 -115.40393
167.77411 41.943558 -158.34654
163.71187 27.28533 -199.20967
159.84105 13.3201 -238.14728
156.14964 2.2087868e-05 -275.27997
152.62488 -12.718773 -310.73615
149.25575 -24.875959 -344.62701
146.03214 -36.507992 -377.05405
142.94484 -47.648232 -408.10992
139.98537 -58.327206 -437.87985
137.14597 -68.572929 -466.44208
134.41945 -78.411331 -493.86862
131.79794 -87.86528 -520.23907
129.27713 -96.957855 -545.59637
126.85056 -105.70879 -570.00592
124.51377 -114.13759 -593.51215
122.26115 -122.26113 -616.17175
120.08895 -130.09634 -638.0224
117.99223 -137.65756 -659.11365
115.96782 -144.95975 -679.47772
114.01138 -152.01514 -699.15802
112.11986 -158.83641 -718.1853
111.17433 -166.76146 -727.69659
111.58982 -176.68385 -723.51703
112.00719 -186.67862 -719.31854
112.4277 -196.74849 -715.08868
112.85104 -206.89357 -710.83008
113.27792 -217.116 -706.53607
248.44218 267.55319 460.87015
240.29071 240.29082 385.18024
232.6584 214.76172 314.31091
225.49602 190.80437 247.80499
218.76144 168.27809 185.27173
212.41748 147.0583 126.36507
206.43109 127.03458 70.778847
200.77286 108.10853 18.239695
195.41653 90.192299 -31.496012
190.33859 73.207191 -78.647003
185.51787 57.082451 -123.40961
180.9353 41.75436 -165.96077
176.57294 27.165054 -206.46704
172.41667 13.262882 -245.05986
168.45157 -2.337031e-05 -281.8775
164.66473 -12.666484 -317.03989
161.04443 -24.776062 -350.65607
157.57988 -36.364563 -382.82602
154.26126 -47.464985 -413.64084
151.07953 -58.107502 -443.18454
148.0264 -68.319839 -471.53415
145.09424 -78.12764 -498.76065
142.2755 -87.554131 -524.93378
139.56375 -96.621048 -550.11353
136.953 -105.34845 -574.35541
134.43857 -113.75569 -597.70312
132.01439 -121.85944 -620.21265
129.67647 -129.67645 -641.92126
127.41955 -137.22104 -662.87775
125.23985 -144.50748 -683.11731
123.1338 -151.54929 -702.67279
121.09708 -158.35767 -721.58459
119.8614 -165.96191 -733.05859
120.30654 -175.83263 -728.92517
120.75433 -185.77586 -724.76727
121.20547 -195.79344 -720.57825
121.65965 -205.88554 -716.36096
122.11759 -216.05417 -712.10876
265.90436 265.90433 446.65421
257.23337 238.85957 371.8913
249.11003 213.52293 301.85052
241.48405 189.73747 236.09787
234.31113 167.36511 174.25146
227.55203 146.28346 115.97319
221.17195 126.38397 60.962948
215.13988 107.56995 8.9532833
209.4281 89.754967 -40.294842
204.01176 72.861336 -86.995491
198.86768 56.819324 -131.34872
193.97743 41.566631 -173.5134
189.32191 27.046045 -213.65419
184.88464 13.206052 -251.91321
180.65059 7.3458097e-05 -288.42004
176.60612 -12.614655 -323.29218
172.7388 -24.67691 -356.63696
169.03722 -36.222263 -388.55267
165.49094 -47.283115 -419.1293
162.09041 -57.889439 -448.44934
158.82681 -68.068581 -476.58875
155.69151 -77.845711 -503.6218
152.67812 -87.244621 -529.60394
149.77914 -96.286575 -554.59943
146.98683 -104.99056 -578.67529
144.29716 -113.37633 -601.86609
141.70375 -121.46034 -624.22717
139.20189 -129.2589 -645.79858
136.78726 -136.7872 -666.6181
134.45457 -144.05847 -686.7309
132.20049 -151.08624 -706.16608
130.02037 -157.88185 -724.96338
128.46555 -165.16998 -738.36945
128.93965 -174.98953 -734.28162
129.41727 -184.88177 -730.16351
129.89844 -194.84767 -726.01477
130.38283 -204.8873 -721.83826
130.87122 -215.00269 -717.62726
283.15421 264.27722 432.62512
273.9754 237.44539 358.7597
265.37299 212.29848 289.53281
257.29431 188.68256 224.52086
249.69299 166.4621 163.35014
242.52794 145.51677 105.69021
235.7626 125.74009 51.24696
229.36446 107.03682 -0.24126144
223.30443 89.321823 -49.008644
217.55542 72.518547 -95.273109
212.0959 56.558899 -139.2079
206.90369 41.380817 -180.99165
201.95963 26.928003 -220.77852
197.24631 13.149759 -258.70822
192.74799 5.9550381e-05 -294.90802
188.45026 -12.563378 -329.49335
184.34001 -24.578697 -362.57013
180.40521 -36.081017 -394.23483
176.6349 -47.102554 -424.57605
173.01836 -57.672764 -453.67972
169.5475 -67.819008 -481.61093
166.21317 -77.566132 -508.4436
163.00746 -86.937279 -534.24127
159.92305 -95.953812 -559.06262
156.95271 -104.63514 -582.966
154.09024 -112.9995 -606.0014
151.32985 -121.06387 -628.21539
148.66661 -128.84436 -649.64746
146.09592 -136.3562 -670.33478
143.61221 -143.6122 -690.3222
141.21193 -150.62604 -709.63806
138.89018 -157.40889 -728.32202
136.98836 -164.38602 -743.62677
137.49037 -174.15446 -739.58691
137.99722 -183.99629 -735.50806
138.50783 -193.91095 -731.39911
139.02184 -203.89868 -727.26263
139.54005 -213.96138 -723.09229
300.19424 262.67001 418.76688
290.52032 236.04774 345.78268
281.45044 211.08792 277.35571
272.92972 187.63919 213.07188
264.90976 165.56865 152.56584
257.34769 144.75813 95.514359
250.20535 125.10271 41.629566
243.44765 106.50841 -9.3533115
237.04642 88.892479 -57.646767
230.97322 72.179169 -103.46568
225.20343 56.300896 -146.9953
219.71486 41.196533 -188.40323
214.48747 26.810946 -227.84087
209.50305 13.093929 -265.44547
204.74501 6.1050487e-06 -301.34204
200.1983 -12.51237 -335.64432
195.84915 -24.481131 -368.45627
191.68423 -35.940781 -399.87796
187.69345 -46.923306 -429.98618
183.86545 -57.457958 -458.86627
180.19046 -67.571404 -486.59183
176.6595 -77.28849 -513.2309
173.26427 -86.632126 -538.84595
169.99709 -95.623337 -563.49493
166.85085 -104.28172 -587.23163
163.81792 -112.62481 -610.11316
160.89331 -120.66994 -632.17773
158.07082 -128.4325 -653.47174
155.3461 -135.92783 -674.02814
152.71329 -143.16869 -693.89124
150.16864 -150.16862 -713.08899
147.70702 -156.93867 -731.66064
145.43024 -163.60905 -748.8374
145.95987 -173.32732 -744.84174
146.49538 -183.11925 -740.80164
147.03484 -192.98323 -736.73175
147.57787 -202.91957 -732.63495
148.12534 -212.93016 -728.50458
317.02829 261.08221 405.07599
306.87164 234.66652 332.95758
297.34561 209.89098 265.31665
288.39316 186.60741 201.74873
279.96405 164.68481 141.89671
272.01239 144.00664 85.434814
264.50116 124.4712 32.100437
257.39362 105.98567 -18.367611
250.65804 88.467583 -66.194298
244.26601 71.842941 -111.58179
238.19188 56.045147 -154.71202
232.41249 41.013985 -195.74918
226.90694 26.69495 -234.84221
221.65617 13.038636 -272.12589
216.64294 2.7941902e-05 -307.72311
211.85144 -12.461795 -341.74561
207.26656 -24.384254 -374.30118
202.87663 -35.801777 -405.47229
198.66884 -46.745564 -435.3504
194.63202 -57.244732 -464.01434
190.75598 -67.325676 -491.53656
187.03133 -77.012863 -517.98407
183.44933 -86.329094 -543.41846
180.00197 -95.295158 -567.89691
176.68176 -103.93044 -591.47241
173.48184 -112.25294 -614.19391
170.39473 -120.2786 -636.11432
167.41508 -128.02332 -657.27167
164.53835 -135.50215 -677.69843
161.75833 -142.72791 -697.43823
159.07114 -149.714 -716.51898
156.47133 -156.4713 -734.97925
153.95512 -163.01129 -752.84576
154.3493 -172.50804 -750.04694
154.9129 -182.25049 -746.04498
155.48064 -192.06427 -742.01373
156.05212 -201.94978 -737.95587
156.62825 -211.90881 -733.86505
333.65997 259.51337 391.54977
323.03275 233.30145 320.28171
313.06152 208.70778 253.41339
303.68747 185.58687 190.54953
294.85706 163.80945 131.33127
286.52698 143.26353 75.468681
278.65466 123.84657 22.675703
271.20337 105.468 -27.293818
264.14017 88.046761 -74.660583
257.43555 71.509918 -119.62275
251.06288 55.791805 -162.35899
244.99808 40.833069 -203.03036
239.21939 26.579948 -241.7831
233.707 12.983727 -278.74994
228.44209 -9.1590236e-06 -314.05731
223.40997 -12.411667 -347.80338
218.59479 -24.28828 -380.09476
213.98279 -35.66375 -411.02359
209.56139 -46.569202 -440.67416
205.31898 -57.032982 -469.1243
201.24493 -67.081627 -496.4454
197.32944 -76.739204 -522.70337
193.56339 -86.028145 -547.95905
189.93839 -94.9692 -572.2688
186.44611 -103.58114 -595.6886
183.08047 -111.8825 -618.25903
179.8342 -119.88947 -640.02899
176.70001 -127.61668 -661.04742
173.67319 -135.07913 -681.34576
170.74782 -142.28983 -700.96356
167.91939 -149.26167 -719.93152
165.18359 -156.0067 -738.2782
162.53506 -162.53505 -756.03961
162.66025 -171.69693 -755.20013
163.25093 -181.38992 -751.23883
163.84639 -191.15417 -747.24561
164.44576 -200.98921 -743.2262
165.04997 -210.89717 -739.17426
350.09308 257.96326 378.185
339.00687 231.95207 307.75229
328.59955 207.53662 241.63271
318.81381 184.57642 179.46194
309.59406 162.94421 120.88708
300.89258 142.52808 65.604729
292.66681 123.22821 13.345033
284.87885 104.95547 -36.133396
277.49463 87.629921 -83.046692
270.48355 71.179932 -127.58952
263.81802 55.540668 -169.93697
257.47311 40.653656 -210.24742
251.4252 26.465816 -248.67084
245.65587 12.929339 -285.32462
240.14537 -2.4986588e-05 -320.33386
234.87666 -12.361853 -353.80704
229.83418 -24.193041 -385.84293
225.00366 -35.526882 -416.5321
220.37201 -46.394058 -445.95792
215.9272 -56.822937 -474.19672
211.65814 -66.839371 -501.31879
207.55461 -76.467499 -527.38928
203.60716 -85.72934 -552.46814
199.80644 -94.645164 -576.61487
196.14565 -103.23454 -599.87268
192.61655 -111.51485 -622.2937
189.2122 -119.50244 -643.92206
185.92612 -127.21258 -664.79926
182.75066 -134.65839 -684.97369
179.68233 -141.85445 -704.46735
176.71486 -148.81247 -723.32031
173.84427 -155.54489 -741.55762
171.06499 -162.06157 -759.2149
170.89291 -170.89288 -760.30811
171.5106 -180.53745 -756.38385
172.13324 -190.25252 -752.42816
172.75993 -200.03781 -748.44666
173.39168 -209.89519 -744.43298
366.32895 256.43027 364.96686
354.79541 230.617 295.35577
343.96594 206.37956 229.99426
333.77802 183.57793 168.50449
324.17624 162.08815 110.55256
315.11139 141.80022 55.841564
306.53976 122.61591 4.1071253
298.42209 104.44777 -44.887375
290.72327 87.217026 -91.353821
283.41168 70.852943 -135.48311
276.45886 55.291798 -177.44713
269.83792 40.475719 -217.4081
263.52771 26.352829 -255.49347
257.50592 12.875363 -291.83835
251.75314 4.7960133e-05 -326.55927
246.25183 -12.312628 -359.76266
240.98578 -24.098576 -391.54605
235.94025 -35.391048 -421.99857
231.10165 -46.220341 -451.20203
226.45755 -56.61438 -479.23175
221.99638 -66.598862 -506.15714
217.70691 -76.197433 -532.04645
213.58075 -85.432259 -556.95013
209.60806 -94.323631 -580.92737
205.78047 -102.89021 -604.02893
202.09016 -111.14957 -626.30188
198.52986 -119.1179 -647.79016
195.09288 -126.81033 -668.53436
191.77229 -134.24055 -688.57581
188.56232 -141.42172 -707.94965
185.45753 -148.36601 -726.68872
182.45383 -155.08578 -744.81763
179.54538 -161.59087 -762.3717
179.04887 -170.09642 -765.36841
179.69299 -179.69296 -761.48077
180.34225 -189.35934 -757.56207
180.99576 -199.09531 -753.61786
181.6545 -208.90268 -749.64203
182.31804 -218.78165 -745.63715
382.37512 254.91675 351.91687
370.40521 229.29858 283.11234
359.16193 205.23543 218.4847
348.58118 182.59018 157.66493
338.60593 161.24095 100.3262
329.18573 141.07965 46.17765
320.27551 122.00974 -5.0394969
311.83493 103.94502 -53.557037
303.82782 86.807999 -99.583038
296.22034 70.528648 -143.31165
288.98572 55.044895 -184.89706
282.09607 40.299488 -224.49977
275.52728 26.240732 -262.25806
269.25742 12.821788 -298.29785
263.2666 6.6842831e-06 -332.73401
257.53656 -12.263607 -365.67105
252.0506 -24.004827 -397.20493
246.7935 -35.256195 -427.42334
241.75124 -46.047863 -456.40698
236.91086 -56.407337 -484.23007
232.25977 -66.359894 -510.96521
227.7885 -75.929466 -536.66656
223.48615 -85.137589 -561.39709
219.34329 -94.004227 -585.21075
215.35124 -102.54817 -608.15753
211.50191 -110.78671 -630.284
207.78777 -118.73585 -651.63336
204.20181 -126.41065 -672.24585
200.73755 -133.82503 -692.15894
197.38829 -140.99162 -711.41083
194.1479 -147.92224 -730.03699
191.01271 -154.62933 -748.05853
187.97664 -161.12283 -765.51019
187.12914 -169.30727 -770.38184
187.79919 -178.85635 -766.53021
188.47458 -188.47455 -762.64795
189.15434 -198.16167 -758.7406
189.83954 -207.91948 -754.80206
190.52969 -217.7482 -750.8349
211.01953 -251.21373 -633.05676
212.30115 -262.84903 -625.68982
213.59843 -274.6265 -618.23291
214.91101 -286.54797 -610.68799
216.24048 -298.61777 -603.04608
217.5865 -310.83789 -595.30896
398.23294 253.42099 339.02014
385.83749 227.99489 271.00815
374.1904 204.10391 207.10226
363.22586 181.61298 146.94147
352.88562 160.40257 90.206108
343.11777 140.36641 36.611496
333.8761 121.40955 -14.096104
325.11926 103.44708 -62.143642
316.80862 86.402428 -107.74284
308.91357 70.207657 -151.06178
301.40247 54.80051 -192.27414
294.24792 40.124786 -231.52997
287.4252 26.129574 -268.96527
280.91168 12.768748 -304.70398
274.68683 2.5500243e-05 -338.85883
268.73187 -12.215058 -371.53271
263.02966 -23.911747 -402.81989
257.56439 -35.122417 -432.80698
252.32076 -45.876522 -461.57806
247.28719 -56.201572 -489.19644
242.45053 -66.122887 -515.7345
237.79945 -75.663452 -541.25433
233.32346 -84.844879 -565.81342
229.01282 -93.687057 -589.46509
224.8586 -102.20844 -612.25873
220.8524 -110.42619 -634.24011
216.98645 -118.35622 -655.45203
213.25354 -126.01344 -675.93402
209.64627 -133.41129 -695.72644
206.15959 -140.56332 -714.85736
202.78645 -147.48103 -733.36536
199.52081 -154.17517 -751.28339
