# .PCD v0.7 - Point Cloud Data file format
VERSION 0.7
FIELDS x y z
SIZE 4 4 4
TYPE F F F
COUNT 1 1 1
WIDTH 1529
HEIGHT 1
VIEWPOINT 0 0 0 1 0 0 0
POINTS 1529
DATA ascii
-12.068852 -38.888531 -39.629913
-12.068852 -40.229507 -39.629921
-12.068852 -41.570492 -39.629917
-12.068852 -42.91148 -39.62991
-12.068896 -44.252625 -39.629322
-12.068896 -45.593613 -39.629318
-12.068896 -46.934605 -39.629318
-10.474451 26.186129 -43.453697
-10.496402 24.928949 -43.122482
-10.798083 24.295689 -38.570465
-10.7375 22.817188 -39.484589
-10.79315 21.586298 -38.64489
-10.833656 20.313105 -38.033707
-10.833656 18.9589 -38.03371
-10.833656 17.604691 -38.033707
-10.833656 16.250486 -38.03371
-10.833656 14.896276 -38.033707
-10.833656 13.542068 -38.033703
-10.833656 12.187858 -38.03371
-10.833656 10.833653 -38.03371
-10.833656 9.4794493 -38.033714
-10.833656 8.1252365 -38.033707
-10.833656 6.7710323 -38.033707
-10.833656 5.4168282 -38.03371
-10.833656 4.062624 -38.033714
-10.833656 2.7084117 -38.033703
-10.833656 1.3542075 -38.033707
-10.833656 3.2843516e-06 -38.03371
-10.833656 -1.35421 -38.033699
-10.833656 -2.7084208 -38.033707
-10.833656 -4.0626249 -38.03371
-10.833656 -5.4168291 -38.033714
-10.833656 -6.7710414 -38.033703
-10.833656 -8.1252451 -38.033707
-10.833656 -9.4794502 -38.03371
-10.833656 -10.833654 -38.03371
-10.833656 -12.187867 -38.033699
-10.833656 -13.542071 -38.033703
-10.833656 -14.896276 -38.033707
-10.833656 -16.250481 -38.03371
-10.833656 -17.604698 -38.033703
-10.833656 -18.958904 -38.033707
-10.833656 -20.313107 -38.03371
-10.833656 -21.667315 -38.033714
-10.833656 -23.021524 -38.033703
-10.833656 -24.375731 -38.033707
-10.833656 -25.729933 -38.033707
-10.833656 -27.084139 -38.03371
-10.833656 -28.438349 -38.033703
-10.833656 -29.792559 -38.033707
-10.833656 -31.146761 -38.03371
-10.833695 -32.501087 -38.033104
-10.833695 -33.855305 -38.033096
-10.737579 -34.897133 -39.483402
-10.782943 -36.392429 -38.798916
-10.780761 -37.732666 -38.831833
-10.780761 -39.080265 -38.831833
-10.780761 -40.42786 -38.831833
-10.780801 -41.775604 -38.831238
-10.780801 -43.123203 -38.831242
-10.780801 -44.470798 -38.831242
-10.780801 -45.818401 -38.831245
-10.78084 -47.16618 -38.830639
-9.2105827 26.315948 -42.670143
-9.2242022 25.037119 -42.43528
-9.4952126 24.416262 -37.761879
-9.4417458 22.929955 -38.683868
-9.4555006 21.612577 -38.446682
-9.4555006 20.261786 -38.446678
-9.4555006 18.910997 -38.446682
-9.4555006 17.560215 -38.446678
-9.4555006 16.209427 -38.446682
-9.4555006 14.858644 -38.446678
-9.4555006 13.507855 -38.446682
-9.4555006 12.157071 -38.446678
-9.4555006 10.80628 -38.446678
-9.4555006 9.4555025 -38.446682
-9.4555006 8.1047115 -38.446682
-9.4555006 6.7539277 -38.446678
-9.4555006 5.4031363 -38.446674
-9.4555006 4.052361 -38.446686
-9.4555006 2.7015698 -38.446682
-9.4555006 1.3507838 -38.446674
-9.4555006 -5.1831175e-06 -38.446674
-9.4555006 -1.3507832 -38.446682
-9.4555006 -2.7015731 -38.446682
-9.4555006 -4.0523582 -38.446674
-9.4555006 -5.4031482 -38.446674
-9.4555006 -6.7539263 -38.446682
-9.4555006 -8.1047163 -38.446678
-9.4555006 -9.4555082 -38.446678
-9.4555006 -10.806292 -38.446674
-9.4555006 -12.157075 -38.446686
-9.4555006 -13.507859 -38.446678
-9.4555006 -14.858649 -38.446678
-9.4555006 -16.209435 -38.446674
-9.4555006 -17.560219 -38.446686
-9.4555006 -18.911005 -38.446678
-9.4555006 -20.261795 -38.446678
-9.4555006 -21.61257 -38.446686
-9.4555006 -22.963362 -38.446686
-9.4555006 -24.31415 -38.446678
-9.4555006 -25.664938 -38.446678
-9.4555006 -27.015717 -38.446686
-9.4555006 -28.366505 -38.446682
-9.4555006 -29.717293 -38.446682
-9.4555006 -31.068083 -38.446678
-9.4555006 -32.418858 -38.446686
-9.4555006 -33.769646 -38.446682
-9.4418507 -35.069736 -38.682064
-9.4586411 -36.48333 -38.392544
-9.4799395 -37.919758 -38.025249
-9.4799395 -39.274036 -38.025246
-9.4799395 -40.628319 -38.025242
-9.4799395 -41.98259 -38.025249
-9.4799747 -43.337032 -38.024639
-9.4799747 -44.691319 -38.024639
-9.4799747 -46.045589 -38.024647
-9.4799747 -47.399876 -38.024647
-7.9340916 26.44697 -41.87936
-7.9399686 25.143232 -41.761135
-8.1793766 24.538124 -36.944611
-8.1331215 23.04384 -37.875202
-8.1332111 21.688559 -37.873386
-8.1332111 20.333029 -37.873379
-8.1332111 18.977495 -37.873383
-8.1332111 17.621958 -37.873383
-8.1332111 16.266422 -37.873383
-8.1332111 14.910886 -37.873379
-8.1332111 13.555352 -37.873383
-8.1332111 12.199813 -37.873379
-8.1332111 10.844284 -37.873386
-8.1332111 9.4887466 -37.873386
-8.1332111 8.1332092 -37.873383
-8.1332111 6.7776699 -37.873379
-8.1332111 5.4221406 -37.873386
-8.1332111 4.0666032 -37.873386
-8.1332111 2.7110636 -37.873379
-8.1332111 1.3555343 -37.87339
-8.1332111 -3.0404169e-06 -37.873386
-8.1332111 -1.3555398 -37.873383
-8.1332111 -2.7110782 -37.873379
-8.1332111 -4.0666075 -37.873386
-8.1332111 -5.4221458 -37.873383
-8.1332111 -6.7776833 -37.873383
-8.1332111 -8.1332073 -37.873386
-8.1332111 -9.4887447 -37.873383
-8.1331806 -10.844249 -37.873985
-8.1331806 -12.199772 -37.873993
-8.1331806 -13.555304 -37.873985
-8.1331806 -14.910832 -37.873993
-8.1331806 -16.266365 -37.873985
-8.1331806 -17.621895 -37.873997
-8.1331806 -18.977427 -37.873989
-8.1331806 -20.332949 -37.873993
-8.1331806 -21.688488 -37.873989
-8.1331806 -23.04402 -37.873981
-8.1331806 -24.399542 -37.873989
-8.1331806 -25.755077 -37.873981
-8.1331806 -27.110603 -37.873989
-8.1331511 -28.466026 -37.874599
-8.1331511 -29.82156 -37.874592
-8.1331511 -31.177078 -37.874596
-8.1331511 -32.532612 -37.874588
-8.1331511 -33.888134 -37.874596
-8.1331511 -35.243652 -37.874599
-8.1593628 -36.717129 -37.347256
-8.1486826 -38.027187 -37.562122
-8.1486826 -39.385303 -37.562122
-8.1486826 -40.743416 -37.562122
-8.1486826 -42.101532 -37.562122
-8.1486826 -43.459641 -37.562122
-8.1486826 -44.817757 -37.562122
-8.1486826 -46.175869 -37.562122
-6.6466107 26.586439 -41.037579
-6.6448741 25.250519 -41.079502
-6.8379078 24.616467 -36.419266
-6.8437085 23.268608 -36.279224
-6.8437085 21.89986 -36.279224
-6.8492112 20.54763 -36.146366
-6.8437085 19.162384 -36.279224
-6.8512611 17.813276 -36.096878
-6.8512611 16.443027 -36.096882
-6.8512611 15.072769 -36.096874
-6.8512611 13.702518 -36.096874
-6.8513641 12.332455 -36.094402
-7.767621 12.428195 -13.973991
-8.9802799 12.572387 15.30219
-6.842813 4.1056833 -36.300835
-6.8427877 2.7371101 -36.301445
-6.8427877 1.3685542 -36.301456
-6.8427877 -2.5888253e-06 -36.301449
-6.8427877 -1.3685595 -36.301456
-6.8427877 -2.737118 -36.301449
-6.8427877 -4.1056733 -36.30146
-6.8427877 -5.4742317 -36.301453
-6.8427877 -6.8427882 -36.301445
-6.8427877 -8.2113457 -36.301453
-6.8427877 -9.5799036 -36.301449
-6.8427877 -10.948459 -36.301456
-6.8427877 -12.317018 -36.301449
-6.842813 -13.685629 -36.300831
-6.842813 -15.054186 -36.300838
-6.8427877 -16.422695 -36.301449
-6.8427877 -17.791246 -36.301456
-6.8427877 -19.159807 -36.301449
-6.8427877 -20.528366 -36.301441
-6.8427877 -21.896923 -36.301453
-6.8427877 -23.265482 -36.301445
-6.8427877 -24.634039 -36.301456
-6.8427877 -26.002598 -36.301449
-6.8427877 -27.371147 -36.301456
-6.8427877 -28.739708 -36.301453
-6.8427877 -30.108271 -36.301445
-6.8427877 -31.476824 -36.301453
-6.8427877 -32.845387 -36.301449
-6.8427877 -34.213936 -36.301456
-6.8427877 -35.582497 -36.301449
-6.809886 -36.773392 -37.095757
-6.809886 -38.135368 -37.09576
-6.809886 -39.497337 -37.095764
-6.809886 -40.859318 -37.095753
-6.809886 -42.221294 -37.09576
-6.809886 -43.583271 -37.095764
-6.809886 -44.945255 -37.095757
-6.809886 -46.307228 -37.09576
-5.3515511 26.757753 -40.003609
-5.3426323 25.377501 -40.272758
-5.4757848 24.641031 -36.254524
-5.4764605 23.274958 -36.234138
-5.4764605 21.905842 -36.234142
-5.476481 20.536806 -36.233524
-5.476481 19.167681 -36.233524
-5.476481 17.798563 -36.233521
-5.476481 16.429436 -36.233521
-5.476481 15.060321 -36.233521
-5.476481 13.691207 -36.233524
-5.5085835 12.394316 -35.264744
-6.2145452 12.429085 -13.960462
-7.18507 12.573874 15.327703
-4.0272417 25.505861 -39.457268
-4.1438398 24.863041 -34.765701
-4.1280541 23.392307 -35.40089
-4.1278057 22.014961 -35.410877
-4.1278057 20.639029 -35.410873
-4.1278057 19.263092 -35.410877
-4.1278057 17.88715 -35.41087
-4.1278057 16.511223 -35.410877
-4.1278057 15.135281 -35.41087
-4.1280384 13.760126 -35.40152
-4.1522493 12.456745 -34.427345
-4.6612449 12.429988 -13.946941
-5.3894105 12.575294 15.35216
-2.6984766 25.635527 -38.633488
-2.7701969 24.931772 -34.304771
-2.7660234 23.5112 -34.556675
-2.7658563 22.12685 -34.566757
-2.7909584 20.93218 -33.051727
-2.7909584 19.536709 -33.051731
-2.7909584 18.141224 -33.051727
-2.7909584 16.745747 -33.051723
-2.7658248 15.212032 -34.568653
-2.7660234 13.830115 -34.556679
-2.782181 12.519814 -33.581467
-3.1077206 12.430877 -13.933412
-3.5933633 12.576765 15.377701
-1.3561275 25.766422 -37.801895
-1.3850985 24.931772 -34.304771
-1.3900927 23.631573 -33.701923
-1.3899925 22.239878 -33.714027
-1.4026082 21.039122 -32.191177
-1.4026082 19.636515 -32.191185
-1.4026082 18.233906 -32.191185
-1.4026082 16.831289 -32.191181
-1.389966 15.289622 -33.717213
-1.3900769 13.900768 -33.703842
-1.3981746 12.583568 -32.726341
-1.5539725 12.431781 -13.91989
-1.7968843 12.578191 15.402162
8.2269105e-24 25.898758 -36.961151
1.3238676e-23 24.931675 -34.305405
8.4660237e-24 23.753374 -32.837093
2.8918568e-23 22.354155 -32.851891
3.8864028e-23 21.147148 -31.321795
4.845532e-23 19.63726 -32.1847
5.4150581e-23 18.234673 -32.184048
6.5885884e-23 16.917721 -31.321795
-5.9254056e-24 15.371824 -32.815216
5.2962853e-23 13.972139 -32.842239
2.1595276e-23 12.647937 -31.863117
-8.841512e-24 12.432732 -13.905564
6.2605863e-23 12.579608 15.426654
1.3701241 26.032354 -36.112347
1.3850933 24.931675 -34.305405
1.4109344 23.98588 -31.18609
1.4043452 22.469526 -31.981499
1.4170868 21.256302 -30.443449
1.4064322 19.690046 -31.729574
1.410766 18.339951 -31.206429
1.4113368 16.936047 -31.137531
1.4056387 15.462019 -31.825348
1.4044313 14.044314 -31.971102
1.4125561 12.713005 -30.990356
1.5542032 12.433627 -13.892031
1.7972987 12.581085 15.452198
2.7544677 26.167442 -35.254112
2.7701867 24.931675 -34.305405
2.8317413 24.069801 -30.590242
2.823272 22.586174 -31.101418
2.8488779 21.366575 -29.555969
2.8275986 19.793182 -30.840281
2.8362916 18.435898 -30.315617
2.828352 16.970106 -30.794811
2.8488779 15.668822 -29.555967
2.8234351 14.117178 -31.091564
2.8397112 12.7787 -30.10923
3.1086307 12.434523 -13.878497
3.5950034 12.582516 15.47668
4.1532536 26.303936 -34.386929
4.161654 24.969927 -34.048935
4.2627559 24.155609 -29.980892
4.2569923 22.703949 -30.212809
4.2956033 21.478014 -28.659241
4.2956033 20.04615 -28.659248
4.2633514 18.47452 -29.956928
4.2633348 17.053331 -29.957598
4.2956033 15.750546 -28.659248
4.2572393 14.190804 -30.202864
4.2816925 12.84508 -29.218948
4.6632824 12.435425 -13.86496
5.3931403 12.583992 15.502243
5.8898597 11.779725 35.488701
5.8898597 9.816433 35.488693
5.8898597 7.8531475 35.488693
5.8898597 5.8898611 35.488697
5.8898597 3.9265754 35.488693
5.8898597 1.9632808 35.488708
5.8898597 -6.2977847e-06 35.488708
5.8898597 -1.9632918 35.488708
5.8898597 -3.9265776 35.488708
5.8898597 -5.889863 35.488705
5.8898597 -7.8531494 35.488708
5.8898597 -9.8164358 35.488708
5.8898597 -11.77972 35.488708
5.8897967 -13.742855 35.48616
5.8897967 -15.706128 35.486168
5.8897967 -17.669392 35.486164
5.8897967 -19.632656 35.48616
5.8897967 -21.595922 35.486156
5.8897967 -23.559187 35.486164
5.8897967 -25.522451 35.48616
5.8897967 -27.485716 35.486156
5.8897967 -29.448988 35.486164
5.8897967 -31.412245 35.48616
5.8897967 -33.375511 35.486156
5.8897967 -35.338783 35.486168
5.8898597 -37.302444 35.488705
5.8898597 -39.265732 35.488705
5.8898597 -41.229019 35.488701
5.8898597 -43.192303 35.488705
5.8898597 -45.15559 35.488705
5.8898597 -47.118874 35.488701
5.566709 26.441868 -33.510647
5.5745673 25.085554 -33.273502
5.8742633 24.965622 -24.229378
5.7057662 22.823061 -29.314217
5.7398796 21.524551 -28.284769
5.7574968 20.151237 -27.753113
5.7574968 18.711863 -27.753111
5.7574968 17.27249 -27.753113
5.7574968 15.833115 -27.753109
5.7060776 14.265194 -29.30484
5.7387557 12.912196 -28.318686
6.2181587 12.436312 -13.851411
7.1916652 12.585416 15.526738
7.7538919 11.630842 32.493435
7.7538919 9.6923618 32.493439
7.7538919 7.7538939 32.493431
7.7538919 5.8154125 32.493439
7.7538919 3.8769464 32.493435
7.7538919 1.9384708 32.493443
7.7538919 -1.6532497e-06 32.493431
7.7538919 -1.9384685 32.493427
7.7538919 -3.8769443 32.493439
7.7538919 -5.8154178 32.493427
7.7538919 -7.7538924 32.493435
7.7538919 -9.692359 32.493431
7.7538099 -11.630716 32.490963
7.7535639 -13.568739 32.483532
7.7535639 -15.507129 32.483521
7.7535639 -17.445518 32.483528
7.7535639 -19.383913 32.483528
7.7535639 -21.322304 32.483532
7.7535639 -23.260687 32.483528
7.7535639 -25.199083 32.483528
7.7535639 -27.137474 32.483536
7.7535639 -29.075861 32.483521
7.7535639 -31.014252 32.483528
7.7535639 -32.952648 32.483528
7.7537689 -34.891964 32.489723
7.7538509 -36.830795 32.492203
7.7538509 -38.769257 32.492203
7.7538509 -40.707722 32.492199
7.7538509 -42.646179 32.492199
7.7538509 -44.584641 32.492195
7.7538509 -46.523102 32.492195
6.995039 26.581146 -32.625774
6.9995842 25.198498 -32.516045
7.1975784 24.471766 -27.736048
7.1698213 22.943428 -28.406155
7.1796312 21.538897 -28.169325
7.2347999 20.257433 -26.837431
7.2347999 18.810484 -26.837437
7.2347999 17.363522 -26.837437
7.2347999 15.916558 -26.837437
7.1702142 14.34042 -28.396666
7.2111826 12.980129 -27.407612
7.7732592 12.437214 -13.837873
8.9906416 12.586896 15.552322
9.571394 11.485669 29.572935
9.571394 9.5713949 29.572927
9.571394 7.6571178 29.572933
9.571394 5.7428355 29.572937
9.571394 3.8285599 29.572927
9.571394 1.914276 29.572931
9.571394 2.8552427e-07 29.572939
9.571394 -1.9142755 29.572929
9.571394 -3.8285587 29.572933
9.571394 -5.7428417 29.572935
9.571394 -7.6571102 29.572931
9.571394 -9.571394 29.572933
9.571044 -11.485253 29.564484
9.570694 -13.398971 29.556028
9.570694 -15.313112 29.556026
9.570694 -17.227249 29.55603
9.570694 -19.14139 29.556028
9.570694 -21.055525 29.556032
9.570694 -22.969667 29.556028
9.570694 -24.88381 29.55603
9.570694 -26.797943 29.55603
9.570694 -28.712084 29.556028
9.570694 -30.626221 29.556032
9.570694 -32.540363 29.55603
9.5709944 -34.455574 29.563272
9.5712938 -36.370918 29.57052
9.5712938 -38.285175 29.570522
9.5712938 -40.199436 29.57052
9.5712938 -42.113697 29.57052
9.5712938 -44.027954 29.570522
9.5712938 -45.942215 29.57052
8.4500141 26.758379 -31.499786
8.4385281 25.31558 -31.730881
8.6828575 24.601431 -26.81535
8.6493998 23.065065 -27.488464
8.6550207 21.637554 -27.375381
8.7277565 20.364763 -25.912052
8.7277565 18.910141 -25.912058
8.7277565 17.455511 -25.91205
8.7277565 16.000889 -25.912058
8.6498432 14.416406 -27.479563
8.6992531 13.048871 -26.485495
9.3286238 12.438164 -13.82353
10.789988 12.588318 15.576836
11.344028 11.344028 26.723251
11.344028 9.4533577 26.723263
11.344028 7.5626888 26.723255
11.344028 5.6720109 26.723261
11.344028 3.781347 26.723257
11.344028 1.8906702 26.723261
11.344028 1.3943367e-06 26.723253
11.344028 -1.8906707 26.723265
11.344028 -3.7813394 26.723255
11.344028 -5.6720181 26.723263
11.344028 -7.5626807 26.723259
11.34391 -9.4532585 26.720907
11.343326 -11.343325 26.709122
11.342915 -13.233399 26.700876
11.342915 -15.123886 26.700872
11.342915 -17.014374 26.700884
11.342915 -18.90486 26.700878
11.342915 -20.795345 26.700872
11.342915 -22.685835 26.700886
11.342915 -24.576321 26.700878
11.342915 -26.466801 26.70088
11.342915 -28.357286 26.700872
11.342915 -30.247782 26.700882
11.343794 -32.140747 26.718544
11.343383 -34.030155 26.710308
11.342974 -35.919418 26.702047
11.34391 -37.813038 26.7209
11.34391 -39.703686 26.720903
11.34391 -41.594341 26.720903
11.34391 -43.484989 26.720907
11.34391 -45.375645 26.720907
9.897397 25.450455 -30.826452
10.18396 24.73247 -25.884848
10.144912 23.188368 -26.558218
10.144029 21.737206 -26.573441
10.236617 20.473234 -24.97681
10.236617 19.010862 -24.976807
10.236617 17.548481 -24.976807
10.236617 16.086115 -24.976816
10.145233 14.49319 -26.552681
10.191166 13.102925 -25.760592
10.884179 12.439066 -13.809992
12.589802 12.589799 15.602419
13.07354 11.205889 23.944164
13.07354 9.3382397 23.944164
13.07354 7.4705887 23.944166
13.07354 5.6029401 23.944166
13.07354 3.7352891 23.944168
13.07354 1.8676538 23.94416
13.07354 4.8358888e-06 23.944162
13.07354 -1.867646 23.944164
13.07354 -3.7352958 23.944164
13.07354 -5.6029453 23.944166
13.07354 -7.4705954 23.944168
13.073007 -9.3378668 23.934967
13.072407 -11.204923 23.924627
13.071806 -13.071809 23.91428
13.071806 -14.939204 23.914272
13.071806 -16.806606 23.914278
13.071806 -18.674011 23.914284
13.071806 -20.541407 23.914276
13.071806 -22.408815 23.914278
13.071806 -24.276213 23.914272
13.071806 -26.143616 23.914278
13.071806 -28.011017 23.914282
13.071806 -29.878414 23.914276
13.073007 -31.748734 23.934971
13.072473 -33.614933 23.925766
13.072006 -35.481159 23.917728
13.073406 -37.352592 23.94187
13.073339 -39.22002 23.940718
13.073339 -41.087643 23.940718
13.073339 -42.955265 23.94072
13.073339 -44.822884 23.940718
13.073339 -46.690498 23.940723
11.371894 25.586758 -29.912327
11.70114 24.864923 -24.944387
11.656546 23.313089 -25.617271
11.655247 21.853582 -25.63686
11.761637 20.582865 -24.031551
11.761637 19.112654 -24.031549
11.761637 17.642452 -24.031548
11.761637 16.172251 -24.031561
11.656638 14.570798 -25.61587
11.69703 13.159156 -25.006407
12.43996 12.43996 -13.796441
14.389971 12.591228 15.626937
14.761437 11.071079 21.231941
14.761437 9.2258921 21.231941
14.761437 7.3807197 21.23193
14.761437 5.5355411 21.231934
14.761437 3.6903613 21.231937
14.761437 1.845181 21.231941
14.761437 -5.672799e-06 21.231941
14.761437 -1.8451768 21.23193
14.761437 -3.690357 21.231934
14.761437 -5.5355368 21.231937
14.761141 -7.3805723 21.227449
14.76047 -9.2253008 21.217356
14.759801 -11.069852 21.20726
14.759132 -12.91424 21.197153
14.759058 -14.759057 21.196032
14.759058 -16.603941 21.196035
14.759058 -18.448824 21.196037
14.759058 -20.293707 21.196037
14.759058 -22.138592 21.196041
14.759058 -23.983475 21.196041
14.759058 -25.82835 21.19603
14.759058 -27.673233 21.196033
14.760991 -29.52198 21.225203
14.76047 -31.365999 21.217354
14.759951 -33.209888 21.209499
14.75943 -35.053646 21.201647
14.761214 -36.903038 21.228571
14.761214 -38.748188 21.228573
14.761141 -40.593132 21.227448
14.761141 -42.438278 21.227453
14.761141 -44.283421 21.227442
14.761141 -46.128567 21.227451
12.86222 25.724432 -28.989037
13.216987 24.965418 -24.230795
13.184527 23.439159 -24.666153
13.182788 21.971313 -24.689487
13.303132 20.69376 -23.075405
13.303132 19.215637 -23.075401
13.303132 17.737509 -23.075405
13.303132 16.259386 -23.075401
13.184106 14.649007 -24.671801
13.215344 13.215342 -24.252821
13.995966 12.440853 -13.782889
16.190626 12.592706 15.652537
16.409124 10.93942 18.583099
16.409124 9.1161804 18.583092
16.409124 7.2929425 18.583101
16.409124 5.4697046 18.583094
16.409124 3.6464741 18.583092
16.409124 1.8232344 18.583103
16.409124 -3.3085666e-06 18.583096
16.409124 -1.8232342 18.583094
16.409124 -3.6464732 18.583103
16.409124 -5.4697108 18.583096
16.40839 -7.2926164 18.573231
16.407654 -9.1153612 18.563374
16.406919 -10.93795 18.553518
16.406183 -12.760364 18.543663
16.406101 -14.583207 18.54257
16.406101 -16.406105 18.542568
16.406101 -18.229006 18.542568
16.406101 -20.051905 18.542566
16.406101 -21.874804 18.542564
16.406101 -23.697704 18.542564
16.406101 -25.520603 18.542562
16.406101 -27.343504 18.542562
16.40839 -29.170475 18.573244
16.407736 -30.992386 18.564474
16.407164 -32.814327 18.55681
16.406591 -34.636139 18.549137
16.408878 -36.464172 18.579807
16.408878 -38.287384 18.579817
16.408878 -40.110596 18.579809
16.408878 -41.933804 18.579819
16.408878 -43.757015 18.579811
16.408878 -45.580215 18.579803
14.368727 25.863701 -28.055077
14.685482 24.965319 -24.231503
14.729066 23.566504 -23.7054
14.726875 22.090307 -23.731848
14.861266 20.805769 -22.109615
14.861266 19.319641 -22.109613
14.861266 17.833513 -22.10961
14.861266 16.347385 -22.109608
14.72806 14.728064 -23.717554
14.745433 13.270885 -23.507832
15.552196 12.441755 -13.769351
17.991615 12.594127 15.677069
18.018169 10.8109 15.997591
18.018169 9.0090885 15.997587
18.018169 7.2072616 15.997592
18.018169 5.4054508 15.997588
18.018169 3.6036391 15.997584
18.018169 1.8018124 15.997589
18.018169 1.5114455e-06 15.997585
18.018169 -1.8018183 15.997595
18.018169 -3.6036365 15.997587
18.017727 -5.4053183 15.992234
18.01693 -7.2067695 15.982611
18.01613 -9.0080738 15.972988
18.015333 -10.8092 15.963361
18.014536 -12.61018 15.953734
18.014359 -14.411487 15.951586
18.014359 -16.212925 15.951591
18.014359 -18.014357 15.951584
18.014359 -19.815794 15.951588
18.014359 -21.617231 15.951592
18.014359 -23.418663 15.951585
18.014359 -25.220102 15.951591
18.01755 -27.026331 15.990105
18.01693 -28.827085 15.982612
18.01631 -30.627722 15.975117
18.015688 -32.428246 15.967636
18.015068 -34.228634 15.960147
18.014448 -36.028896 15.952662
18.017815 -37.837414 15.993309
18.017815 -39.639187 15.99331
18.017815 -41.440971 15.993302
18.017815 -43.242756 15.993316
18.017815 -45.04454 15.993312
18.017815 -46.846317 15.993312
15.891636 26.004492 -27.110956
16.15403 24.965319 -24.231503
16.290546 23.695333 -22.733423
16.287714 22.210512 -22.764502
16.436359 20.919004 -21.133322
16.436359 19.424786 -21.133314
16.436359 17.930576 -21.133322
16.436359 16.436359 -21.133314
16.288834 14.808029 -22.752218
16.290874 13.328895 -22.729816
17.10865 12.442657 -13.755796
19.589848 12.466274 13.47212
19.589848 10.685366 13.472129
19.589848 8.9044733 13.472128
19.589848 7.123579 13.472127
19.589848 5.3426867 13.472126
19.589848 3.5617933 13.472126
19.589848 1.7808943 13.47212
19.589848 1.1416574e-06 13.472119
19.589848 -1.7808919 13.472118
19.589848 -3.5617931 13.472131
19.588896 -5.3424273 13.461673
19.588039 -7.1229234 13.452261
19.587181 -8.9032726 13.442865
19.586325 -10.683452 13.433464
19.585373 -12.463424 13.42301
19.585087 -14.243702 13.419879
19.585087 -16.024158 13.419872
19.585087 -17.804628 13.419874
19.585087 -19.585093 13.419881
19.585087 -21.365545 13.419873
19.585087 -23.146015 13.419875
19.585754 -24.927322 13.427189
19.5888 -26.712008 13.46063
19.588133 -28.491831 13.453314
19.587372 -30.271399 13.444955
19.586706 -32.050976 13.437642
19.586039 -33.830437 13.430329
19.585373 -35.609764 13.423003
19.589373 -37.397896 13.466908
19.589373 -39.178745 13.466895
19.589373 -40.959595 13.466904
19.589373 -42.740456 13.466904
19.589373 -44.521297 13.466899
19.589373 -46.302155 13.4669
17.431145 26.146713 -26.157185
17.622509 24.965214 -24.232212
17.86919 23.825583 -21.750769
17.865705 22.33213 -21.785851
18.02869 21.033474 -20.14633
18.02869 19.531082 -20.146332
18.02869 18.02869 -20.146336
18.02869 16.5263 -20.146339
17.866575 14.888811 -21.777073
17.869118 13.401837 -21.751501
18.665331 12.443558 -13.742241
21.125448 12.323175 11.004639
21.125448 10.562722 11.00464
21.125448 8.8022671 11.004642
21.125448 7.0418139 11.004642
21.125448 5.2813678 11.004631
21.125448 3.5209074 11.004628
21.125448 1.7604526 11.00463
21.125448 -9.5180809e-07 11.00463
21.125448 -1.760455 11.004632
21.124737 -3.5207939 10.997485
21.123823 -5.2809544 10.988288
21.12291 -7.0409751 10.979103
21.121996 -8.8008327 10.969909
21.121082 -10.560535 10.960717
21.120169 -12.320098 10.951538
21.119762 -14.079845 10.947453
21.119762 -15.839827 10.947452
21.119762 -17.599802 10.947454
21.119762 -19.359783 10.947452
21.119762 -21.119764 10.94745
21.119762 -22.879745 10.947449
21.124533 -24.645296 10.995446
21.123823 -26.404781 10.988292
21.123112 -28.164154 10.981151
21.1224 -29.923405 10.973993
21.121691 -31.682537 10.966852
21.120981 -33.441559 10.959707
21.12027 -35.200447 10.952551
21.124838 -36.968468 10.998507
21.124838 -38.728874 10.998502
21.124838 -40.489269 10.998501
21.124838 -42.249683 10.998509
21.124838 -44.010082 10.99851
21.124838 -45.770485 10.998507
18.987661 26.290613 -25.192221
19.091051 24.965214 -24.232212
19.548243 24.059372 -19.986996
19.460993 22.454988 -20.797146
19.638544 21.149208 -19.148493
19.638544 19.638544 -19.148493
19.638544 18.127886 -19.148491
19.638544 16.617229 -19.148489
19.461628 14.970484 -20.791239
19.464731 13.475579 -20.762426
20.222319 12.444498 -13.727883
22.626087 12.18328 8.5921478
22.626087 10.442807 8.592145
22.626087 8.7023411 8.5921469
22.626087 6.961874 8.5921488
22.626087 5.2214007 8.5921459
22.626087 3.4809349 8.5921478
22.626087 1.7404681 8.5921497
22.626087 1.801259e-06 8.5921507
22.626087 -1.7404712 8.5921488
22.624905 -3.4807515 8.5811682
22.623938 -5.2209082 8.5721836
22.622969 -6.9609175 8.563199
22.622004 -8.7007713 8.5542183
22.621035 -10.440477 8.5452366
22.620068 -12.180035 8.536253
22.619532 -13.919712 8.5312586
22.619532 -15.659671 8.5312605
22.619532 -17.399645 8.5312719
22.619532 -19.13961 8.5312681
22.619532 -20.879568 8.53127
22.623507 -22.623512 8.5681934
22.624798 -24.365164 8.5801649
22.624044 -26.10466 8.5731773
22.623293 -27.844053 8.5661983
22.622433 -29.583178 8.5582027
22.621679 -31.32233 8.5512247
22.620928 -33.061356 8.5442324
22.620174 -34.80027 8.5372553
22.625549 -36.548965 8.5871582
22.625443 -38.289207 8.5861521
22.625443 -40.029633 8.5861607
22.625443 -41.77005 8.5861568
22.625443 -43.510468 8.5861521
22.625443 -45.250889 8.5861616
22.625443 -46.991306 8.5861597
20.561407 26.436094 -24.216581
20.601307 25.015871 -23.872549
21.127853 24.146116 -19.332567
21.074362 22.579674 -19.793776
21.266212 21.266211 -18.139605
21.266212 19.747194 -18.139599
21.266212 18.228188 -18.139605
21.266212 16.709166 -18.139603
21.074362 15.053111 -19.793774
21.078089 13.5502 -19.761656
21.779455 12.445399 -13.714329
24.093151 12.046573 6.2348046
24.093151 10.325635 6.2348003
24.093151 8.6046982 6.234796
24.093151 6.8837538 6.2348056
24.093151 5.162817 6.2348018
24.093151 3.4418805 6.2347975
24.093151 1.7209438 6.2347937
24.093151 -1.0616325e-06 6.2348027
24.092358 -1.7208791 6.2279663
24.091341 -3.4416232 6.2191811
24.090321 -5.1622128 6.2103992
24.089188 -6.8826227 6.2006392
24.088171 -8.6029158 6.1918559
24.087152 -10.323069 6.1830854
24.086134 -12.043066 6.1743007
24.085567 -13.763189 6.169426
24.085567 -15.483583 6.1694241
24.085567 -17.203978 6.1694231
24.085567 -18.924377 6.1694183
24.085567 -20.644772 6.1694179
24.092018 -22.371161 6.2250371
24.091227 -24.091227 6.2182035
24.090433 -25.811182 6.2113829
24.089642 -27.531017 6.2045465
24.088848 -29.250746 6.1977177
24.088058 -30.970362 6.1908846
24.087265 -32.689857 6.1840539
24.086473 -34.409248 6.1772318
24.085682 -36.128525 6.1704044
24.092472 -37.859604 6.2289457
24.092358 -39.580303 6.2279615
24.092358 -41.301189 6.2279682
24.092358 -43.022072 6.2279634
24.092358 -44.742958 6.2279701
24.092358 -46.463833 6.2279682
22.152575 26.583086 -23.230797
22.181284 25.13879 -22.999762
22.721054 24.235788 -18.656019
22.705843 22.705843 -18.778448
22.911991 21.384527 -17.119492
22.911991 19.857056 -17.119484
22.911991 18.329592 -17.119492
22.911991 16.80212 -17.119486
22.704905 15.1366 -18.785992
22.709316 13.62559 -18.750494
23.336817 12.446307 -13.700769
25.527658 11.912906 3.9297681
25.527658 10.211061 3.9297645
25.527658 8.5092163 3.9297609
25.527658 6.8073778 3.9297616
25.527658 5.1055331 3.9297581
25.527658 3.4036801 3.9297678
25.527658 1.701842 3.9297686
25.527658 -2.6299383e-06 3.9297652
25.526115 -1.7017449 3.9173615
25.525049 -3.4033365 3.9087622
25.523981 -5.104795 3.9001715
25.522913 -6.8061132 3.8915932
25.521847 -8.5072823 3.8829973
25.520779 -10.208311 3.874414
25.519712 -11.909198 3.8658249
25.519001 -13.610132 3.8601055
25.519001 -15.311399 3.8601091
25.519001 -17.012672 3.8601077
25.519001 -18.71394 3.8601103
25.526827 -20.421463 3.9230876
25.525997 -22.12253 3.9164011
25.525166 -23.82349 3.909724
25.524336 -25.524338 3.9030445
25.523506 -27.225073 3.8963594
25.522556 -28.925568 3.8887343
25.521729 -30.62607 3.8820455
25.520899 -32.326466 3.8753662
25.520067 -34.026764 3.8686914
25.519239 -35.726933 3.8620059
25.526827 -37.43935 3.9230864
25.526827 -39.14114 3.9230809
25.526707 -40.842735 3.9221225
25.526707 -42.54451 3.9221241
25.526707 -44.246292 3.9221239
25.526707 -45.948074 3.9221215
23.785746 26.758963 -22.051361
23.774553 25.260464 -22.135817
24.449654 24.449652 -17.042566
24.355659 22.833429 -17.751701
24.576183 21.504158 -16.087967
24.39703 19.822584 -17.439583
24.39703 18.297773 -17.439592
24.576183 16.89612 -16.087961
24.353735 15.221087 -17.766216
24.358797 13.701823 -17.728029
24.8944 12.447199 -13.6872
26.930555 11.782118 1.6743888
26.930555 10.098955 1.674391
26.930555 8.415801 1.6743804
26.930555 6.7326384 1.6743829
26.930555 5.0494761 1.6743853
26.930555 3.3663137 1.6743879
26.930555 1.6831579 1.6743945
26.929564 -3.6912195e-07 1.6669215
26.92845 -1.6830252 1.6585155
26.927338 -3.3659167 1.6501179
26.926224 -5.048667 1.6417152
26.92511 -6.7312756 1.6333081
26.923998 -8.4137506 1.6249088
26.922884 -10.096078 1.616509
26.921648 -11.778223 1.607188
26.920782 -13.460395 1.6006576
26.920782 -15.142943 1.6006515
26.920782 -16.825483 1.6006507
26.920782 -18.508039 1.6006584
26.929192 -20.196896 1.6641128
26.928328 -21.879272 1.6575844
26.927462 -23.561535 1.6510526
26.926596 -25.243685 1.6445172
26.92573 -26.925728 1.6379735
26.924864 -28.607666 1.6314385
26.923998 -30.289499 1.6249144
26.923132 -31.97122 1.6183853
26.922266 -33.652832 1.6118478
26.9214 -35.334343 1.6053215
26.929688 -37.028324 1.6678582
26.929688 -38.711422 1.6678449
26.929688 -40.394531 1.6678461
26.929564 -42.077446 1.6669123
26.929564 -43.760548 1.666916
26.929564 -45.443642 1.6669216
26.929564 -47.126736 1.6669123
25.388802 25.388796 -21.22451
26.123919 24.587212 -16.004725
26.02401 22.96236 -16.714134
26.224817 21.596903 -15.288281
26.065956 19.932787 -16.416302
26.138065 18.450397 -15.904278
26.259102 16.991182 -15.044828
26.020966 15.306452 -16.73576
26.02684 13.778914 -16.694046
26.452211 12.4481 -13.673645
28.30311 11.654221 -0.53108525
28.30311 9.9893322 -0.53108901
28.30311 8.3244448 -0.53109229
28.30311 6.6595564 -0.5310958
28.30311 4.9946604 -0.53108609
28.30311 3.3297722 -0.5310896
28.30311 1.6648844 -0.53109318
28.301437 1.6753025e-06 -0.54296613
28.300282 -1.6647162 -0.55119205
28.298994 -3.3292887 -0.56032515
28.297836 -4.9937401 -0.56853402
28.296679 -6.6580415 -0.57676119
28.295523 -8.3222103 -0.58498001
28.294363 -9.9862452 -0.59319043
28.293207 -11.650146 -0.60140926
28.292179 -13.313966 -0.60871136
28.292179 -14.978213 -0.60870647
28.292179 -16.64246 -0.60871917
28.302082 -18.313118 -0.53839391
28.30118 -19.977301 -0.54479438
28.300282 -21.641388 -0.55118948
28.299379 -23.305374 -0.55757904
28.298479 -24.969248 -0.56397295
28.297451 -26.632895 -0.57127726
28.296551 -28.296556 -0.5776692
28.29565 -29.9601 -0.58406162
28.29475 -31.623552 -0.59045261
28.293852 -33.286884 -0.59684217
28.29295 -34.950115 -0.60322887
28.302082 -36.626225 -0.53839499
28.302082 -38.291058 -0.53840065
28.302082 -39.955879 -0.5384019
28.302082 -41.620708 -0.53840351
28.302082 -43.285538 -0.53839022
28.301952 -44.950161 -0.53931886
28.301952 -46.614979 -0.53931612
27.034388 25.532476 -20.204342
27.817131 24.726336 -14.955151
27.71143 23.092852 -15.663989
27.766283 21.596003 -15.296132
27.961063 20.194099 -13.989891
27.821238 18.547495 -14.927598
27.796019 16.986454 -15.096719
27.707005 15.392776 -15.693669
27.713408 13.856708 -15.650712
28.010246 12.448998 -13.660071
29.646189 11.529071 -2.6891985
29.646189 9.8820696 -2.689208
29.646189 8.2350531 -2.689208
29.646189 6.5880432 -2.689204
29.646189 4.9410267 -2.689204
29.646189 3.2940168 -2.6891999
29.644855 1.6469321 -2.6981423
29.643656 8.2371692e-08 -2.7061961
29.642456 -1.646807 -2.7142282
29.641256 -3.2934711 -2.7222826
29.640057 -4.9400096 -2.730315
29.638859 -6.5864143 -2.7383568
29.637659 -8.2326841 -2.7464075
29.636459 -9.8788195 -2.7544491
29.63526 -11.524822 -2.7624826
29.634062 -13.170697 -2.7705297
29.634062 -14.81703 -2.7705317
29.634062 -16.463369 -2.7705197
29.644457 -18.116056 -2.7008307
29.643522 -19.762346 -2.7070844
29.64259 -21.408539 -2.7133331
29.641657 -23.054625 -2.7195902
29.640724 -24.700603 -2.7258546
29.639791 -26.346478 -2.7321098
29.638859 -27.992252 -2.7383604
29.637926 -29.637924 -2.7446184
29.636992 -31.283495 -2.7508712
29.636059 -32.928951 -2.757127
29.635128 -34.574318 -2.7633827
29.634062 -36.219414 -2.7705235
29.644989 -37.879707 -2.6972461
29.644989 -39.526646 -2.6972535
29.644989 -41.173595 -2.6972477
29.644989 -42.820541 -2.6972423
29.644989 -44.467484 -2.6972518
29.644855 -46.114216 -2.6981466
28.698584 25.677677 -19.173302
29.529612 24.867035 -13.893619
29.418011 23.224743 -14.602635
29.435307 21.689169 -14.49275
29.682394 20.309004 -12.922955
29.682394 18.746777 -12.922954
29.682394 17.184542 -12.922957
29.422863 15.485714 -14.571825
29.41913 13.935379 -14.595534
29.589252 12.45863 -13.514711
30.960728 11.406586 -4.8014612
30.960728 9.7770739 -4.8014627
30.960728 8.147563 -4.8014636
30.960728 6.518044 -4.8014522
30.960728 4.8885322 -4.8014536
30.960728 3.2590213 -4.801455
30.95866 1.6294025 -4.8145776
30.957422 -5.0627273e-06 -4.8224549
30.956182 -1.6292714 -4.8303366
30.954945 -3.2584193 -4.838201
30.953703 -4.8874321 -4.8460746
30.952465 -6.5163102 -4.8539567
30.951088 -8.1450262 -4.862699
30.94985 -9.7736378 -4.8705645
30.94861 -11.402122 -4.8784432
30.947372 -13.030472 -4.886313
30.947372 -14.659286 -4.8863082
30.959351 -16.294397 -4.8102069
30.958385 -17.923279 -4.8163371
30.957422 -19.552053 -4.8224573
30.956459 -21.180738 -4.8285766
30.955494 -22.809317 -4.8347039
30.954531 -24.43779 -4.8408227
30.953428 -26.066048 -4.8478231
30.952465 -27.694307 -4.8539572
30.9515 -29.322479 -4.8600726
30.950539 -30.950542 -4.8661957
30.949575 -32.578499 -4.8723092
30.94861 -34.20636 -4.8784356
30.947647 -35.834118 -4.8845558
30.959351 -37.477116 -4.8102069
30.959351 -39.106544 -4.8102155
30.959351 -40.735989 -4.8102093
30.959351 -42.365429 -4.8102059
30.959351 -43.994869 -4.8101997
30.959351 -45.624306 -4.8102098
30.959351 -47.25375 -4.8102069
30.381943 25.824648 -18.129717
31.254091 25.003273 -12.865827
31.144329 23.358252 -13.528302
31.137445 21.796207 -13.569844
31.423426 20.425228 -11.84381
31.423426 18.854052 -11.843802
31.423426 17.282881 -11.843808
31.168978 15.584493 -13.37953
31.144197 14.014889 -13.529091
31.324257 12.529699 -12.442333
32.247486 11.286619 -6.8701606
32.247486 9.6742449 -6.8701506
32.247486 8.0618725 -6.8701582
32.247486 6.449492 -6.870153
32.247486 4.8371196 -6.8701606
32.246067 3.2246094 -6.8787284
32.244789 1.61224 -6.8864341
32.24337 -2.0664013e-06 -6.8950028
32.242092 -1.6121036 -6.902709
32.240814 -3.2240851 -6.9104147
32.239536 -4.8359318 -6.9181294
32.238262 -6.4476519 -6.9258404
32.236984 -8.0592451 -6.9335461
32.235706 -9.6707125 -6.9412484
32.234432 -11.282052 -6.948945
32.233154 -12.893265 -6.956656
32.232868 -14.504791 -6.9583755
32.245499 -16.122755 -6.8821459
32.244503 -17.73448 -6.8881426
32.243511 -19.346107 -6.8941526
32.242519 -20.957638 -6.9001393
32.241524 -22.569067 -6.906137
32.240532 -24.180401 -6.9121313
32.239536 -25.791634 -6.9181194
32.238544 -27.402767 -6.924119
32.237553 -29.013803 -6.9301147
32.236561 -30.624731 -6.9361172
32.235565 -32.235569 -6.942101
32.234573 -33.846302 -6.9480934
32.233437 -35.456783 -6.9549451
32.246208 -37.083141 -6.8778667
32.246067 -38.695282 -6.8787284
32.246067 -40.307583 -6.8787293
32.246067 -41.919888 -6.8787317
32.246067 -43.532196 -6.8787169
32.246067 -45.144497 -6.8787184
32.246067 -46.756802 -6.8787203
32.084682 25.973316 -17.074116
32.816654 25.003162 -12.866634
32.89061 23.493296 -12.441532
32.883156 21.922102 -12.484372
32.883156 20.356236 -12.484368
32.883156 18.790375 -12.484362
32.883156 17.224516 -12.484372
32.883156 15.658648 -12.484367
32.889065 14.095307 -12.450418
33.079597 12.601751 -11.355204
33.507607 11.169203 -8.8949623
33.507607 9.5736017 -8.8949633
33.507607 7.9780006 -8.8949642
33.507607 6.3824058 -8.8949614
33.507607 4.7868047 -8.8949633
33.505272 3.1909742 -8.9083815
33.50396 1.5954268 -8.9159384
33.502644 -2.5802792e-06 -8.9234781
33.501331 -1.595304 -8.9310303
33.500015 -3.1904786 -8.9385786
33.498707 -4.7855334 -8.9461269
33.497391 -6.3804536 -8.9536839
33.496078 -7.975255 -8.9612217
33.494766 -9.5699291 -8.9687748
33.493305 -11.164436 -8.9771471
33.491993 -12.758857 -8.9846907
33.506001 -14.359715 -8.9041862
33.504982 -15.954751 -8.9100609
33.50396 -17.549696 -8.9159346
33.502934 -19.144543 -8.9218025
33.501915 -20.739283 -8.9276781
33.500893 -22.333931 -8.9335527
33.49987 -23.92848 -8.9394226
33.498707 -25.522823 -8.9461231
33.497684 -27.117176 -8.9520006
33.496662 -28.71143 -8.9578714
33.495644 -30.305584 -8.9637375
33.494621 -31.899633 -8.9696102
33.493599 -33.493607 -8.9754744
33.49258 -35.087463 -8.9813414
33.506145 -36.697208 -8.9033556
33.506145 -38.29274 -8.9033499
33.506001 -39.888103 -8.9041824
33.506001 -41.48362 -8.9041882
33.506001 -43.079151 -8.9041815
33.506001 -44.674671 -8.9041891
33.506001 -46.270195 -8.9041805
33.806999 26.123589 -16.007055
34.379353 25.003162 -12.866634
34.847858 23.759899 -10.296037
34.847858 22.175905 -10.296028
34.847858 20.591915 -10.296037
34.847858 19.007921 -10.296028
34.847858 17.423929 -10.296038
34.847858 15.83993 -10.296032
34.848007 14.256003 -10.295208
34.848309 12.672109 -10.29355
34.848763 11.088238 -10.291064
34.849064 9.5042868 -10.289423
34.849514 7.9203386 -10.286931
34.849812 6.3363318 -10.285288
34.850269 4.7523122 -10.282802
34.812325 3.1647558 -10.490986
34.812325 1.5823793 -10.490994
34.812325 7.9792102e-07 -10.490984
34.812325 -1.5823758 -10.490993
34.812325 -3.1647604 -10.490986
34.812325 -4.7471309 -10.49099
34.812325 -6.3295155 -10.490984
34.812325 -7.9118924 -10.490992
34.812473 -9.4943161 -10.490161
34.812473 -11.076701 -10.490155
34.812473 -12.659079 -10.490164
34.812325 -14.241402 -10.490988
34.812325 -15.823787 -10.490982
34.812325 -17.406164 -10.49099
34.812325 -18.988543 -10.49098
34.812325 -20.570919 -10.490988
34.812325 -22.153303 -10.490982
34.812325 -23.735674 -10.490986
34.812325 -25.318058 -10.49098
34.812325 -26.900434 -10.490988
34.812325 -28.482805 -10.490992
34.812325 -30.065189 -10.490986
34.812325 -31.647568 -10.490994
34.812325 -33.229946 -10.490985
34.812325 -34.812321 -10.490993
34.85268 -36.436897 -10.269563
34.722912 -37.879543 -10.981563
34.722912 -39.457855 -10.981571
34.722912 -41.036171 -10.981562
34.722763 -42.614307 -10.982382
34.722763 -44.192616 -10.982386
34.722763 -45.77092 -10.982388
34.722763 -47.349224 -10.982391
35.549511 26.275726 -14.926805
35.942051 25.003162 -12.866634
36.43705 23.763292 -10.268738
36.443356 22.182909 -10.235641
36.443356 20.598417 -10.235646
36.443356 19.013924 -10.235651
36.443356 17.429432 -10.235657
36.443356 15.844937 -10.235643
36.443356 14.260444 -10.235648
36.443356 12.675951 -10.235652
36.443356 11.09145 -10.235643
36.443356 9.5069571 -10.235648
36.443356 7.9224706 -10.235648
36.443356 6.3379779 -10.235653
36.437363 4.7527013 -10.267089
36.438942 3.1686049 -10.258817
36.443356 1.5844914 -10.235654
36.443356 5.1481493e-06 -10.235654
36.443356 -1.584496 -10.235645
36.443356 -3.1689889 -10.23565
36.443195 -4.7534642 -10.236475
36.443195 -6.3379498 -10.236475
36.443195 -7.9224362 -10.236476
36.443195 -9.5069227 -10.236476
36.443195 -11.091409 -10.236477
36.443195 -12.675895 -10.236477
36.443195 -14.260382 -10.236478
36.52853 -15.88197 -9.78862
36.443512 -17.42951 -10.234821
36.443512 -19.014002 -10.234826
36.443512 -20.598511 -10.234821
36.443512 -22.183002 -10.234826
36.443512 -23.767511 -10.234821
36.443356 -25.3519 -10.235649
36.443356 -26.936394 -10.235653
36.443356 -28.520889 -10.235641
36.443356 -30.105381 -10.235645
36.443356 -31.689873 -10.235649
36.443356 -33.274368 -10.235655
36.438625 -34.854336 -10.260468
46.408382 -46.408382 42.063698
36.577065 -38.167374 -9.5338907
36.577065 -39.757683 -9.5338907
36.577065 -41.347996 -9.5338907
36.577065 -42.938301 -9.5338879
36.577065 -44.528599 -9.5338984
36.577065 -46.118912 -9.5338984
37.312435 26.42964 -13.833893
37.504589 25.003057 -12.867436
38.243095 23.901928 -9.1530476
38.248749 22.311768 -9.1245947
38.586906 20.901239 -7.4237962
38.586906 19.293451 -7.4237962
38.586906 17.685663 -7.4237962
38.586906 16.077875 -7.4237962
38.586906 14.470086 -7.4237962
38.586906 12.862297 -7.4237962
38.586906 11.254509 -7.4237962
38.586906 9.6467266 -7.4237919
38.586906 8.0389385 -7.4237919
38.250084 6.3750091 -9.1178951
38.244259 4.7805324 -9.1471872
38.245422 3.1871181 -9.1413307
38.587074 1.6077992 -7.4229512
38.587074 -4.4374833e-06 -7.4229417
38.587074 -1.6078002 -7.4229455
38.587074 -3.2155888 -7.4229455
38.587074 -4.8233843 -7.4229498
38.587074 -6.431179 -7.4229536
38.586906 -8.0389338 -7.4238005
38.586906 -9.6467228 -7.4238005
38.586906 -11.254511 -7.4238005
38.586906 -12.8623 -7.4238005
38.247417 -14.342785 -9.1312876
38.283234 -15.951348 -8.9511642
38.248421 -17.530525 -9.1262693
38.587074 -19.293539 -7.4229474
38.587074 -20.901335 -7.4229512
38.587074 -22.50913 -7.4229374
38.587074 -24.116926 -7.4229422
38.587074 -25.724722 -7.422946
38.586906 -27.332392 -7.4237957
38.586906 -28.940182 -7.4237957
38.586906 -30.54797 -7.4237952
38.586906 -32.155758 -7.4237952
38.252415 -33.47086 -9.1061773
38.244755 -35.057693 -9.1446877
38.391415 -36.791775 -8.4070511
38.391415 -38.391415 -8.4070587
38.391415 -39.991051 -8.4070587
38.391415 -41.590702 -8.4070511
38.391415 -43.190338 -8.4070559
38.391415 -44.789982 -8.4070616
38.391415 -46.389629 -8.407053
39.096138 26.585369 -12.728099
39.168385 25.067766 -12.379256
40.201756 24.121052 -7.3897166
40.076122 22.442625 -7.9963193
40.431816 21.024548 -6.2788801
40.431816 19.407272 -6.278872
40.431816 17.790005 -6.2788768
40.431816 16.172722 -6.278873
40.431816 14.555455 -6.2788773
40.431816 12.93818 -6.2788682
40.431816 11.320906 -6.2788773
40.431816 9.7036304 -6.2788692
40.431816 8.0863628 -6.2788739
40.078053 6.4124918 -7.9870052
40.072437 4.8086915 -8.0141029
40.072964 3.2058372 -8.01157
40.431816 1.6172709 -6.2788701
40.431816 3.7127156e-06 -6.2788749
40.431816 -1.6172782 -6.2788706
40.431816 -3.2345457 -6.2788754
40.431816 -4.8518209 -6.2788668
40.431816 -6.4690948 -6.2788754
40.431816 -8.0863628 -6.2788801
40.431816 -9.7036381 -6.278872
40.431816 -11.320906 -6.2788768
40.431816 -12.938188 -6.278872
40.075245 -14.427091 -8.0005541
40.071033 -16.028418 -8.0208788
40.076645 -17.633728 -7.9937735
40.431816 -19.40727 -6.278882
40.431816 -21.024548 -6.2788734
40.431816 -22.641815 -6.2788782
40.431816 -24.259096 -6.2788739
40.431816 -25.876364 -6.2788782
40.431816 -27.493639 -6.2788692
40.431816 -29.110905 -6.2788744
40.431816 -30.728188 -6.2788692
40.431816 -32.345455 -6.2788744
40.078053 -33.665565 -7.9870081
40.072086 -35.263435 -8.0157938
40.227188 -37.00901 -7.2669091
40.227188 -38.618095 -7.2669172
40.227188 -40.227192 -7.266911
40.227188 -41.836269 -7.2669153
40.227188 -43.445366 -7.2669096
40.227188 -45.054451 -7.2669172
40.227188 -46.663544 -7.2669086
40.925945 26.759266 -11.493312
40.948296 25.198954 -11.389558
42.160976 24.323643 -5.7594104
41.925053 22.575027 -6.8547378
42.298435 21.149216 -5.1212325
42.298435 19.522358 -5.1212373
42.298435 17.895491 -5.1212301
42.298435 16.268631 -5.1212358
42.298435 14.641765 -5.1212282
42.298435 13.014905 -5.1212339
42.298435 11.388046 -5.1212392
42.298435 9.761179 -5.121232
42.298435 8.1343136 -5.1212416
41.927635 6.4504056 -6.842741
41.922283 4.837184 -6.8675904
41.922283 3.2247901 -6.8675933
42.298622 1.6268669 -5.1203661
42.298622 -4.4006305e-07 -5.120358
42.298622 -1.626866 -5.120368
42.298622 -3.2537398 -5.1203647
42.298622 -4.8806138 -5.1203609
42.298435 -6.5074506 -5.1212392
42.298435 -8.1343174 -5.1212316
42.298435 -9.7611771 -5.1212373
42.298435 -11.388044 -5.1212296
42.298435 -13.014903 -5.1212354
41.924683 -14.512396 -6.8564425
41.920807 -16.123394 -6.874434
41.926529 -17.738146 -6.8478837
42.298622 -19.522442 -5.1203613
42.298622 -21.149315 -5.1203575
42.298622 -22.77618 -5.1203671
42.298622 -24.403055 -5.1203637
42.298622 -26.029928 -5.1203604
42.298435 -27.656668 -5.121233
42.298435 -29.283525 -5.1212387
42.298435 -30.9104 -5.1212354
42.298435 -32.537258 -5.1212406
41.927269 -33.864338 -6.8444452
41.920994 -35.471615 -6.8735809
42.084957 -37.228996 -6.1123638
42.084957 -38.847652 -6.1123586
42.084957 -40.466309 -6.1123548
42.084957 -42.084953 -6.112361
42.084957 -43.703613 -6.1123571
42.084957 -45.322254 -6.1123633
42.084957 -46.940914 -6.112361
42.74527 25.330528 -10.396868
44.043068 24.468367 -4.5947027
43.795738 22.7089 -5.7004671
44.187519 21.275475 -3.9489005
44.187519 19.638895 -3.948894
44.187519 18.002325 -3.9489012
44.187519 16.365747 -3.9488947
44.187519 14.729176 -3.9489012
44.187519 13.092597 -3.9488947
44.187519 11.456026 -3.9489019
44.187519 9.8194475 -3.9488952
44.187519 8.1828766 -3.9489017
43.806019 6.4897771 -5.6544971
43.794186 4.8660235 -5.7074041
43.793411 3.2439556 -5.7108746
44.187519 1.6365778 -3.9489024
44.187519 -9.0308686e-07 -3.9488957
44.187519 -1.6365715 -3.9489026
44.187519 -3.2731504 -3.9488959
44.187519 -4.9097209 -3.9489028
44.187519 -6.5462999 -3.9488964
44.187519 -8.1828699 -3.9489028
44.187519 -9.8194494 -3.9488964
44.187519 -11.456019 -3.9489033
44.187519 -13.092599 -3.9488966
43.796124 -14.59871 -5.6987367
43.792442 -16.219423 -5.7151999
43.798454 -17.843811 -5.6883264
44.187519 -19.638897 -3.9488974
44.187519 -21.275469 -3.9489048
44.187519 -22.912048 -3.9488974
44.187519 -24.548618 -3.9489052
44.187519 -26.185196 -3.9488981
44.187519 -27.821768 -3.948905
44.187519 -29.458347 -3.9488981
44.187519 -31.094917 -3.9489057
44.187519 -32.731495 -3.9488988
43.798454 -34.065464 -5.6883264
43.928223 -35.793373 -5.1081448
43.964745 -37.45145 -4.9448686
43.964745 -39.079777 -4.9448752
43.964745 -40.708096 -4.9448791
43.964745 -42.336426 -4.94487
43.964745 -43.964748 -4.9448776
43.964745 -45.593067 -4.9448795
43.964745 -47.221394 -4.94487
44.575439 25.471685 -9.3319693
45.947693 24.614834 -3.4160671
45.688942 22.844475 -4.5315547
46.099087 21.403147 -2.7633798
46.099087 19.75675 -2.7633841
46.099087 18.110363 -2.7633836
46.099087 16.463959 -2.7633741
46.099087 14.817563 -2.7633784
46.099087 13.171167 -2.7633824
46.099087 11.524772 -2.7633867
46.099087 9.8783751 -2.7633736
46.099087 8.2319803 -2.7633774
45.712162 6.5303059 -4.4314523
45.688538 4.8952026 -4.5333071
45.687111 3.2633598 -4.5394397
46.099297 1.6464007 -2.7624872
46.099297 5.2547725e-06 -2.7624912
46.099297 -1.6464052 -2.7624862
46.099297 -3.2928073 -2.7624943
46.099297 -4.9392109 -2.762485
46.099087 -6.5855823 -2.7633791
46.099087 -8.2319784 -2.7633834
46.099087 -9.8783817 -2.7633736
46.099087 -11.524776 -2.7633779
46.099087 -13.171165 -2.7633777
45.690163 -14.686129 -4.5262771
45.686703 -16.316685 -4.5411978
45.693016 -17.950829 -4.5140018
46.099297 -19.756836 -2.7624891
46.099297 -21.403246 -2.7624831
46.099297 -23.049648 -2.7624917
46.099297 -24.696054 -2.7624826
46.099087 -26.34234 -2.7633801
46.099087 -27.988735 -2.7633839
46.099087 -29.635122 -2.7633834
46.099087 -31.281527 -2.7633743
46.099087 -32.927921 -2.7633781
45.691998 -34.268997 -4.5183883
45.694645 -35.902939 -4.5069661
45.867134 -37.676582 -3.7633502
45.867134 -39.31469 -3.7633474
45.867134 -40.952805 -3.7633507
45.867134 -42.590916 -3.7633464
45.867134 -44.229031 -3.7633495
45.867134 -45.867138 -3.7633452
46.445816 25.625278 -8.173172
47.876335 24.763622 -2.2187324
47.604893 22.981672 -3.3485847
48.033951 21.532465 -1.5626422
48.033951 19.876123 -1.5626435
48.033951 18.219769 -1.5626363
48.033951 16.563429 -1.5626378
48.033951 14.907089 -1.562639
48.033951 13.250749 -1.562641
48.033951 11.594401 -1.5626467
48.033951 9.9380531 -1.5626347
48.033951 8.2817135 -1.5626364
47.642258 6.5713458 -3.1930428
47.605743 4.9247327 -3.3450339
47.603825 3.2830224 -3.3530364
48.033951 1.6563376 -1.5626333
48.033951 -2.5080183e-06 -1.5626348
48.033951 -1.6563426 -1.5626364
48.033951 -3.3126895 -1.5626421
48.033951 -4.9690299 -1.5626435
48.033951 -6.62537 -1.5626451
48.033951 -8.2817183 -1.562633
48.033951 -9.9380646 -1.5626388
