# .PCD v0.7 - Point Cloud Data file format
VERSION 0.7
FIELDS x y z
SIZE 4 4 4
TYPE F F F
COUNT 1 1 1
WIDTH 1274
HEIGHT 1
VIEWPOINT 0 0 0 1 0 0 0
POINTS 1274
DATA ascii
-683.05792 286.88437 -196.97615
-683.09418 273.2377 -196.88864
-683.12769 259.5885 -196.80772
-683.16119 245.93805 -196.72693
-683.1947 232.28629 -196.64606
-683.22821 218.63304 -196.56514
-683.25891 204.97771 -196.49104
-683.29236 191.32195 -196.41014
-683.32593 177.66479 -196.32928
-683.35944 164.00633 -196.24835
-683.3902 150.34583 -196.1741
-683.42365 136.6848 -196.09326
-683.45721 123.02235 -196.01228
-683.49072 109.35854 -195.93129
-683.52148 95.693024 -195.8571
-683.55499 82.026634 -195.77618
-683.5885 68.35891 -195.69527
-683.61926 54.68959 -195.62106
-683.65002 41.019051 -195.54677
-683.68353 27.347376 -195.46576
-683.71429 13.674265 -195.39154
-633.33069 3.3012611e-06 -317.02835
-633.40271 -12.668051 -316.85458
-633.47467 -25.338963 -316.68073
-633.54669 -38.01276 -316.50696
-633.61633 -50.689339 -316.33878
-670.59125 287.39633 -194.03381
-670.62683 273.72525 -193.94586
-670.65979 260.05182 -193.86476
-670.69275 246.37694 -193.78355
-670.72845 232.70174 -193.69562
-670.76135 219.0242 -193.6145
-670.79706 205.34605 -193.52657
-670.83002 191.6658 -193.44543
-670.86298 177.98413 -193.3642
-670.896 164.30104 -193.28299
-670.92896 150.61674 -193.20186
-670.96185 136.93102 -193.12061
-670.99213 123.24352 -193.04617
-671.02509 109.55515 -192.96484
-671.05804 95.865494 -192.88365
-671.091 82.174492 -192.80244
-671.12128 68.481766 -192.72787
-671.15424 54.788113 -192.64662
-671.18451 41.092957 -192.5722
-671.21747 27.396664 -192.49089
-671.24774 13.698923 -192.41638
-616.43561 3.1032327e-05 -327.44522
-616.50513 -12.581654 -327.27386
-616.57471 -25.166327 -327.10236
-616.64435 -37.75375 -326.93085
-616.71393 -50.343945 -326.75937
-658.0799 287.91 -191.08081
-658.1123 274.2135 -190.99947
-658.14734 260.51672 -190.91121
-658.17975 246.81744 -190.82971
-658.21484 233.11783 -190.74155
-658.24725 219.41579 -190.66008
-658.27954 205.71239 -190.5786
-658.3147 192.00853 -190.49036
-658.34711 178.30237 -190.40891
-658.37952 164.59491 -190.32742
-658.41461 150.88672 -190.23914
-658.44702 137.17648 -190.15752
-658.48212 123.46546 -190.06929
-658.51453 109.7524 -189.98773
-658.54694 96.038132 -189.90625
-658.57935 82.322418 -189.82462
-658.61176 68.605446 -189.74313
-658.64154 54.886818 -189.66838
-658.67395 41.167191 -189.58682
-658.70642 27.446142 -189.50529
-658.73608 13.72364 -189.43042
-599.7691 4.2219723e-05 -337.72119
-599.8363 -12.496579 -337.55206
-599.90356 -24.995949 -337.38297
-599.97083 -37.498184 -337.21375
-600.03815 -50.003178 -337.04456
-645.52374 288.42557 -188.11736
-645.5556 274.70459 -188.03566
-645.59003 260.98322 -187.94707
-645.62189 247.25946 -187.86537
-645.65369 233.53435 -187.78366
-645.68817 219.80873 -187.69502
-645.72003 206.08092 -187.61331
-645.75183 192.35161 -187.53151
-645.78638 178.62175 -187.44296
-645.81818 164.88974 -187.36113
-645.85266 151.15704 -187.27249
-645.88452 137.42226 -187.19069
-645.91632 123.68613 -187.10889
-645.95093 109.94913 -187.02037
-645.98273 96.210213 -186.93845
-646.01459 82.469955 -186.85664
-646.04913 68.728622 -186.76794
-646.08099 54.985668 -186.68616
-646.11554 41.241451 -186.59755
-646.1474 27.495647 -186.51566
-646.17932 13.748489 -186.43375
-583.3266 4.011592e-06 -347.85895
-583.3916 -12.41257 -347.69214
-583.45654 -24.827961 -347.52524
-583.52155 -37.246078 -347.35834
-583.58655 -49.66695 -347.19147
-567.10376 8.1209173e-06 -357.86145
-567.16644 -12.329666 -357.69684
-567.22919 -24.662119 -357.53217
-567.29199 -36.997288 -357.36743
-567.35474 -49.33522 -357.20273
-551.09802 -2.1121241e-05 -367.72574
-551.15656 -12.247859 -367.56876
-551.2171 -24.498537 -367.40625
-551.27771 -36.75185 -367.24371
-551.33832 -49.007801 -367.0813
-535.30121 7.0565875e-05 -377.46555
-535.35767 -12.167248 -377.31052
-535.41614 -24.337088 -377.15018
-535.47455 -36.509659 -376.98981
-535.53302 -48.68478 -376.82956
-519.71301 3.038638e-05 -387.07257
-519.76752 -12.087574 -386.91956
-519.82385 -24.177782 -386.76138
-519.87836 -36.270527 -386.60837
-519.93475 -48.365952 -386.45007
-504.32562 6.3220241e-06 -396.55988
-504.37817 -12.00898 -396.40887
-504.43253 -24.020571 -396.25269
-504.48688 -36.034794 -396.09647
-504.54126 -48.051525 -395.94028
-489.13885 -5.923539e-08 -405.91943
-489.18774 -11.931398 -405.77557
-489.24011 -23.865402 -405.62134
-489.29248 -35.80191 -405.46716
-489.34488 -47.741001 -405.3129
-474.14694 -2.0966734e-05 -415.15891
-474.19232 -11.854809 -415.02197
-474.24277 -23.712126 -414.86978
-474.29321 -35.571949 -414.71759
-474.34366 -47.434315 -414.56531
-459.34454 2.3527738e-05 -424.28558
-459.38824 -11.779122 -424.15048
-459.4368 -23.560881 -424.00009
-459.48535 -35.344982 -423.84985
-459.53391 -47.13168 -423.69952
-444.73138 1.0598044e-05 -433.29172
-444.77185 -11.704552 -433.16312
-444.81854 -23.411488 -433.01474
-444.86523 -35.120926 -432.86639
-444.91199 -46.832848 -432.7179
-430.30212 3.3875644e-05 -442.18442
-430.34106 -11.630797 -442.05743
-430.38443 -23.264032 -441.91577
-430.42935 -34.899632 -441.76935
-430.4743 -46.537685 -441.62274
-416.052 -6.2598228e-06 -450.97067
-416.08939 -11.558009 -450.84531
-416.13251 -23.118437 -450.70062
-416.17426 -34.681133 -450.56073
-416.21741 -46.246391 -450.41599
-401.9805 2.8580977e-05 -459.64285
-402.01501 -11.486133 -459.5238
-402.05646 -22.974665 -459.38089
-402.09787 -34.465542 -459.23798
-402.13931 -45.958809 -459.09503
-388.08286 9.7537377e-06 -468.20789
-388.11465 -11.415079 -468.095
-388.15442 -22.832592 -467.95389
-388.19418 -34.252434 -467.81277
-388.23395 -45.674576 -467.67154
-374.35464 3.3783326e-05 -476.67236
-374.38635 -11.345049 -476.55624
-374.42322 -22.692303 -476.42154
-374.46133 -34.041927 -476.2821
-374.49945 -45.393852 -476.14267
-360.79523 -8.2824072e-06 -485.02896
-360.82446 -11.275736 -484.91879
-360.85974 -22.553726 -484.78571
-360.89624 -33.834003 -484.64801
-360.93277 -45.116558 -484.51019
-347.40036 6.4812441e-05 -493.28409
-347.42828 -11.207326 -493.17529
-347.46091 -22.416834 -493.04834
-347.49585 -33.628613 -492.91229
-347.53079 -44.842628 -492.77625
-334.16589 5.2501695e-05 -501.44421
-334.19373 -11.139765 -501.33224
-334.22375 -22.281559 -501.2113
-334.25717 -33.425716 -501.07687
-334.29059 -44.572086 -500.94241
-321.09119 3.9808383e-05 -509.50204
-321.1167 -11.072976 -509.39584
-321.14542 -22.147957 -509.27637
-321.17731 -33.225239 -509.14352
-321.20923 -44.304699 -509.01068
-308.17224 -5.0949457e-06 -517.46393
-308.19656 -11.006997 -517.35895
-308.22397 -22.015999 -517.24084
-308.25446 -33.02726 -517.10962
-308.28384 -44.040493 -516.98273
-295.40536 4.9534283e-06 -525.33569
-295.4295 -10.941798 -525.22772
-295.45465 -21.885517 -525.11536
-295.48364 -32.831509 -524.98572
-295.51266 -43.779644 -524.85596
-282.78979 3.2923224e-05 -533.1106
-282.81186 -10.877333 -533.00812
-282.83578 -21.756613 -532.89703
-282.86337 -32.638039 -532.76886
-282.89099 -43.521656 -532.64069
-270.3219 2.0133104e-05 -540.79443
-270.34286 -10.813708 -540.69318
-270.36472 -21.629143 -540.58759
-270.39093 -32.446915 -540.46094
-270.41718 -43.266731 -540.33429
-257.99823 1.1740944e-05 -548.39307
-258.01895 -10.750753 -548.2887
-258.03888 -21.503206 -548.18866
-258.06378 -32.257992 -548.06342
-258.08865 -43.014782 -547.93817
-258.11356 -53.773651 -547.81299
-245.81802 4.6375499e-07 -555.89954
-245.83688 -10.688549 -555.8006
-245.85654 -21.378828 -555.69745
-245.87932 -32.071198 -555.57788
-245.90291 -42.765709 -555.4541
-245.9265 -53.462265 -555.33032
-233.77794 -2.6588468e-05 -563.3197
-233.79575 -10.627064 -563.22192
-233.81435 -21.255846 -563.12
-233.83514 -31.886597 -563.00586
-233.85744 -42.519485 -562.88342
-233.87976 -53.154484 -562.76105
-221.87483 9.2769315e-06 -570.65912
-221.89236 -10.566252 -570.55835
-221.90919 -21.134134 -570.46161
-221.92882 -31.704103 -570.34869
-221.94987 -42.27615 -570.22778
-221.97092 -52.850185 -570.10681
-210.10785 3.8941595e-05 -577.91089
-210.12369 -10.50615 -577.81525
-210.1402 -21.01404 -577.71564
-210.15868 -31.523762 -577.60406
-210.1785 -42.035641 -577.4845
-210.19765 -52.549374 -577.36884
-198.47392 4.7174726e-05 -585.08069
-198.4888 -10.446771 -584.98621
-198.5043 -20.895144 -584.8877
-198.52104 -31.345432 -584.78131
-198.53966 -41.797802 -584.66309
-198.55826 -52.252151 -584.5448
-186.97021 2.0192241e-05 -592.17383
-186.98474 -10.388051 -592.07648
-186.99869 -20.777594 -591.98297
-187.01437 -31.169071 -591.87775
-187.03178 -41.562618 -591.76086
-187.04924 -51.958122 -591.64398
-175.59575 1.3440602e-05 -599.18372
-175.60876 -10.329867 -599.09131
-175.62234 -20.661411 -598.995
-175.63644 -30.994633 -598.89484
-175.65273 -41.330067 -598.77924
-175.66901 -51.66732 -598.66357
-164.34778 -9.0365957e-06 -606.11566
-164.35988 -10.272514 -606.02429
-164.37253 -20.546562 -605.92902
-164.38515 -30.82218 -605.83386
-164.40028 -41.100018 -605.71948
-164.41545 -51.379845 -605.6051
-153.22371 2.0643458e-05 -612.97473
-153.23541 -10.215714 -612.88062
-153.24664 -20.432831 -612.79016
-153.25835 -30.651611 -612.69598
-153.27238 -40.872601 -612.58295
-153.28644 -51.095455 -612.46985
-142.22246 2.1684082e-06 -619.75464
-142.23283 -10.159444 -619.66528
-142.24364 -20.320475 -619.57208
-142.25444 -30.483067 -619.47888
-142.26698 -40.647709 -619.37085
-142.27995 -50.81424 -619.25903
-131.34154 -6.4946998e-06 -626.46039
-131.35106 -10.103908 -626.37189
-131.36099 -20.209368 -626.27979
-131.37051 -30.316252 -626.19135
-131.38243 -40.425312 -626.08075
-131.39394 -50.536114 -625.97382
-120.57861 2.955478e-05 -633.0968
-120.58767 -10.048968 -633.00568
-120.59636 -20.099388 -632.91821
-120.60542 -30.151323 -632.82703
-120.61594 -40.20528 -632.72125
-120.62682 -50.261147 -632.61188
-109.93251 1.7026852e-05 -639.65784
-109.94039 -9.9945793 -639.57129
-109.94861 -19.990646 -639.48114
-109.95649 -29.988091 -639.39459
-109.96603 -39.987602 -639.28998
-109.97589 -49.989025 -639.18176
-99.400665 5.746942e-05 -646.15173
-99.408051 -9.9408331 -646.06262
-99.415146 -19.883022 -645.97699
-99.422531 -29.826748 -645.88776
-99.430817 -39.772308 -645.78784
-99.439682 -49.71983 -645.68079
-195.35895 303.89185 774.18854
-195.4173 282.26956 774.97113
-195.47569 260.63437 775.75421
-195.5341 238.98615 776.53784
-195.59256 217.32509 777.32178
-195.65106 195.65108 778.10626
-195.70956 173.96414 778.89117
-195.76814 152.26422 779.67657
-195.82674 130.55121 780.46252
-195.88536 108.82532 781.24884
-195.94275 87.085701 782.01862
-196.00017 65.333427 782.78864
-196.05763 43.568401 783.55939
-196.11511 21.790642 784.33032
-88.981873 -1.4158641e-05 -652.57263
-88.988449 -9.8876247 -652.48444
-88.994759 -19.776625 -652.39966
-89.001335 -29.667055 -652.31152
-89.008446 -39.55928 -652.21619
-89.016342 -49.453506 -652.11023
-167.09689 292.41959 675.27362
-167.11151 271.55624 675.49408
-167.12613 250.68932 675.7146
-167.13971 229.81712 675.91937
-167.15431 208.94301 676.14008
-167.16895 188.06505 676.36072
-167.18253 167.18253 676.56555
-167.19716 146.29761 676.78625
-167.21179 125.40897 677.00708
-167.22537 104.51585 677.2121
-167.24001 83.620056 677.43298
-167.25465 62.720589 677.65381
-167.26823 41.817139 677.85889
-167.28288 20.910343 678.0799
-78.673988 -1.0695931e-06 -658.92523
-78.679535 -9.8349237 -658.84137
-78.685326 -19.671286 -658.75409
-78.69088 -29.509087 -658.67023
-78.697128 -39.348537 -658.57605
-78.704071 -49.190022 -658.47119
-145.44669 290.89334 662.11432
-145.45844 270.13715 662.31696
-145.47108 249.37903 662.5351
-145.48373 228.61736 662.75348
-145.4964 207.85207 662.97174
-145.50816 187.08202 663.17444
-145.52083 166.3096 663.39288
-145.53349 145.53352 663.61127
-145.54616 124.75385 663.82977
-145.55792 103.96997 664.03265
-145.57059 83.183205 664.25116
-145.58327 62.392891 664.4696
-145.59505 41.598595 664.67273
-145.60771 20.801144 664.8913
-68.475052 -1.6546634e-05 -665.21393
-68.480064 -9.782877 -665.12756
-68.484871 -19.567043 -665.04468
-68.489876 -29.352816 -664.95825
-68.495087 -39.140045 -664.86841
-68.501106 -48.929348 -664.76471
-126.93129 21.155228 707.63641
-58.383781 -1.1824188e-05 -671.43292
-58.388031 -9.7313251 -671.34741
-58.392109 -19.464022 -671.26544
-58.396355 -29.198156 -671.17999
-58.400604 -38.933689 -671.09448
-58.405704 -48.671398 -670.99188
-104.37363 20.874714 673.77844
-48.398251 9.7820357e-06 -677.58679
-48.401611 -9.6803179 -677.50568
-48.405117 -19.362059 -677.42102
-48.408478 -29.045076 -677.33984
-48.412125 -38.729691 -677.25189
-48.416328 -48.416298 -677.15039
-82.406319 20.601572 640.80658
-38.516693 -2.5348105e-05 -683.67987
-38.519466 -9.6298561 -683.59613
-38.522129 -19.261057 -683.51581
-38.524902 -28.893709 -683.43213
-38.527676 -38.527649 -683.34839
-38.531006 -48.163731 -683.24799
-61.006454 20.335466 608.68634
-28.737745 5.3775006e-05 -689.70642
-28.739801 -9.5798998 -689.6236
-28.741779 -19.161171 -689.54407
-28.743837 -28.743814 -689.46118
-28.745813 -38.327717 -689.38165
-28.748285 -47.913769 -689.28229
-40.152599 20.076361 577.3999
-19.059675 6.3563733e-05 -695.67078
-19.060978 -9.5304623 -695.59204
-19.062336 -19.062323 -695.51007
-19.063641 -28.595449 -695.4314
-19.064999 -38.129971 -695.34943
-19.066576 -47.666447 -695.25421
-19.823521 19.823587 546.88666
-9.4809074 2.1980606e-05 -701.57715
-9.4815798 -9.4815798 -701.49603
-9.4822254 -18.964426 -701.41815
-9.4828978 -28.448687 -701.33698
-9.4835424 -37.934135 -701.25916
-9.4843225 -47.421604 -701.16492
7.0743531e-23 19.577024 517.13239
1.5322965e-22 3.4392375e-05 -707.41998
-4.884031e-23 -9.4331188 -707.33972
2.6073294e-22 -18.867601 -707.26263
2.2557979e-22 -28.303421 -707.18225
1.9405756e-22 -37.740425 -707.10516
6.0807024e-22 -47.17931 -707.01514
19.336588 19.336643 488.10886
9.3845921 1.4922343e-05 -713.20349
9.3852243 -9.3852367 -713.12714
9.3858824 -18.771721 -713.04773
9.3865147 -28.159548 -712.97131
9.3871737 -37.548672 -712.89185
9.3878851 -46.939415 -712.80597
38.203972 19.102034 459.7897
18.674276 1.5067821e-05 -718.93158
18.675579 -9.3377495 -718.85297
18.676832 -18.676804 -718.7774
18.678135 -28.017183 -718.69873
18.679388 -37.358761 -718.62311
18.680796 -46.701981 -718.53815
56.619335 18.873129 432.16226
27.870564 -2.9266515e-05 -724.599
27.872499 -9.2908077 -724.52118
27.874357 -18.58287 -724.44641
27.876293 -27.876314 -724.36847
27.878153 -37.170872 -724.29364
27.880245 -46.467072 -724.20947
74.598213 18.649572 405.17639
36.974831 -8.5354786e-06 -730.20972
36.97728 -9.2443142 -730.13574
36.979839 -18.489885 -730.05865
36.982292 -27.736689 -729.98456
36.984848 -36.984875 -729.90741
36.987507 -46.234367 -729.82721
92.156158 18.43129 378.82248
45.988319 1.8790744e-05 -735.76764
45.991482 -9.198288 -735.69135
45.994518 -18.397806 -735.61798
45.997684 -27.598612 -735.54163
46.000721 -36.800537 -735.46832
46.004009 -46.004005 -735.38885
109.30776 18.217985 353.07837
54.912613 1.4576637e-05 -741.26746
54.91637 -9.1527033 -741.19183
54.919975 -18.30666 -741.11926
54.923737 -27.461849 -741.04364
54.927345 -36.61821 -740.97107
54.931107 -45.775898 -740.89545
126.06766 18.009695 327.93503
63.748928 -1.7685761e-06 -746.71301
63.753098 -9.1075726 -746.64117
63.757435 -18.216404 -746.56628
63.761604 -27.326387 -746.49445
63.765945 -36.437691 -746.41949
63.770119 -45.550087 -746.34766
63.77533 -54.664547 -746.25775
142.44788 17.806028 303.34866
72.49836 3.4955661e-05 -752.10809
72.503273 -9.0629025 -752.034
72.507996 -18.126974 -751.96283
72.512901 -27.192299 -751.88867
72.517624 -36.258808 -751.8175
72.522537 -45.32658 -751.74335
72.528236 -54.396179 -751.65735
158.46175 17.60688 279.31216
81.16256 2.0990972e-05 -757.44757
81.168022 -9.0186472 -757.37421
81.173279 -18.038475 -757.30371
81.178757 -27.059584 -757.23035
81.184006 -36.081772 -757.15985
81.18927 -45.105141 -757.08936
81.195625 -54.130379 -757.00415
174.1214 17.412216 255.8073
89.742577 4.1369443e-05 -762.73523
89.74836 -8.9748383 -762.66541
89.754379 -17.950848 -762.59271
89.760162 -26.92803 -762.52289
89.76619 -35.906487 -762.4502
89.771965 -44.885998 -762.38037
89.778961 -53.867363 -762.29602
189.43944 17.221857 232.82739
98.239395 1.3107781e-05 -767.97455
98.245941 -8.9314299 -767.90259
98.252243 -17.864008 -767.8335
98.258804 -26.797838 -767.76147
98.265106 -35.73278 -767.69232
98.271667 -44.668941 -767.6203
98.279022 -53.606701 -767.53967
116.42777 291.0694 -674.85101
116.44702 281.41367 -674.65729
116.46595 271.75391 -674.46698
116.48489 262.09097 -674.27649
116.50417 252.42569 -674.08258
116.5231 242.75647 -673.89209
116.54239 233.08484 -673.698
116.56135 223.40927 -673.50732
116.58065 213.73123 -673.31311
116.59962 204.04936 -673.12231
116.61859 194.36438 -672.93146
116.63792 184.6767 -672.73706
116.65691 174.9854 -672.54614
116.67624 165.29134 -672.35156
116.69524 155.59367 -672.16052
116.71425 145.89281 -671.96924
116.7336 136.18919 -671.7746
116.75262 126.48202 -671.58331
116.77198 116.77202 -671.38843
116.79102 107.0584 -671.19702
116.81006 97.341736 -671.00555
116.82944 87.622093 -670.81061
116.84849 77.899025 -670.61896
116.86789 68.172928 -670.42383
116.88695 58.443512 -670.23206
116.90601 48.710888 -670.04022
116.92543 38.975182 -669.84497
116.94417 29.236061 -669.65643
116.96292 19.493858 -669.46783
116.98167 9.7484999 -669.27911
106.65469 3.2551066e-05 -773.16064
106.66149 -8.8884497 -773.09216
106.66858 -17.778088 -773.02087
106.67538 -26.668848 -772.95239
106.68247 -35.560848 -772.88104
106.68929 -44.453876 -772.81262
106.69723 -53.348598 -772.73273
123.11777 293.5885 -702.82172
123.13763 284.16382 -702.63721
123.15717 274.73526 -702.45575
123.17706 265.30444 -702.27112
123.19662 255.86993 -702.08966
123.21617 246.43234 -701.90808
123.23608 236.99251 -701.72314
123.25565 227.54889 -701.5415
123.27556 218.10292 -701.35651
123.29514 208.65337 -701.17462
123.31508 199.20131 -700.98956
123.33467 189.74568 -700.80762
123.35426 180.28702 -700.62567
123.37423 170.8259 -700.44037
123.39383 161.36118 -700.2583
123.4138 151.89394 -700.07294
123.43342 142.4232 -699.89069
123.45305 132.94945 -699.70844
123.47304 123.47305 -699.52289
123.49268 113.9933 -699.34045
123.51268 104.51074 -699.15472
123.53233 95.024849 -698.97223
123.55164 85.535736 -698.79297
123.57096 76.043709 -698.61359
123.59029 66.548615 -698.4342
123.6096 57.05061 -698.25476
123.62894 47.549641 -698.07526
123.64828 38.045643 -697.89557
123.66727 28.538628 -697.71924
123.68663 19.028711 -697.53961
123.70599 9.5158463 -697.3598
114.9894 1.0587733e-05 -778.29706
114.99671 -8.8459034 -778.22925
115.00431 -17.692942 -778.15869
115.01162 -26.541107 -778.09082
115.01923 -35.390541 -778.0202
115.02653 -44.240978 -777.95239
115.03475 -53.092976 -777.87604
129.51608 286.78558 -729.31146
129.53615 277.57755 -729.13849
129.55658 268.36722 -728.96228
129.57666 259.15332 -728.78918
129.59711 249.93732 -728.61285
129.6172 240.71765 -728.4397
129.6373 231.49521 -728.26636
129.65776 222.27048 -728.08984
129.67787 213.04222 -727.9165
129.69835 203.81169 -727.73993
129.71848 194.57777 -727.56647
129.73897 185.34137 -727.38977
129.75909 176.10167 -727.21619
129.77925 166.85909 -727.04242
129.79976 157.614 -726.8656
129.81992 148.36565 -726.69183
129.83971 139.11398 -726.52112
129.85953 129.85953 -726.35028
129.87933 120.60224 -726.1795
129.89915 111.34218 -726.00861
129.91899 102.07924 -725.83765
129.93881 92.813438 -725.66663
129.95865 83.544899 -725.49554
129.97813 74.273239 -725.32764
129.99799 64.999046 -725.15643
130.01784 55.72197 -724.98529
130.0377 46.442032 -724.81396
130.05757 37.159298 -724.64264
130.07744 27.873734 -724.47125
130.09732 18.585327 -724.29993
130.11722 9.2941065 -724.12842
123.24438 -5.9664872e-06 -783.38727
123.25249 -8.803771 -783.31732
123.26028 -17.608593 -783.25024
123.26839 -26.414637 -783.18024
123.27618 -35.221733 -783.11316
123.2843 -44.030079 -783.04315
123.29274 -52.839752 -782.97028
135.6037 289.28793 -754.76965
135.6246 280.29089 -754.6015
135.64514 271.29031 -754.43622
135.66568 262.28702 -754.27087
135.6866 253.28169 -754.10254
135.70715 244.2729 -753.93707
135.72809 235.26204 -753.76868
135.74866 226.2478 -753.60309
135.76924 217.23079 -753.43756
135.79018 208.21164 -753.26898
135.81078 199.18916 -753.10327
135.83099 190.16339 -752.94049
135.85123 181.13504 -752.77771
135.87146 172.10391 -752.61487
135.89171 163.07004 -752.4519
135.91196 154.03354 -752.28894
135.93222 144.9944 -752.12585
135.95248 135.9525 -751.96283
135.97238 126.90762 -751.80267
135.99266 117.86033 -751.63959
136.01294 108.81036 -751.47638
136.03322 99.757729 -751.31305
136.05351 90.702393 -751.14972
136.07382 81.644348 -750.98645
136.09413 72.58358 -750.823
136.11444 63.520073 -750.65961
136.13475 54.453922 -750.49609
136.15508 45.385029 -750.33252
136.1754 36.313496 -750.16888
136.19574 27.239143 -750.00525
136.21608 18.162176 -749.84155
136.23642 9.0824671 -749.6778
131.42136 7.4823438e-06 -788.42651
131.42963 -8.7619867 -788.35992
131.43823 -17.525099 -788.29065
131.4465 -26.289307 -788.22418
131.45511 -35.054672 -788.15491
131.46338 -43.821072 -788.08838
131.47234 -52.588936 -788.01624
141.41994 291.67871 -779.0929
141.44125 282.88251 -778.93207
141.46219 274.08301 -778.77411
141.48352 265.28159 -778.61328
141.50447 256.47687 -778.45514
141.52542 247.66953 -778.297
141.54602 238.85895 -778.14172
141.56662 230.04582 -777.98633
141.58722 221.23007 -777.83087
141.60783 212.41176 -777.67542
141.62845 203.59091 -777.51984
141.64908 194.76752 -777.3642
141.66969 185.9415 -777.20862
141.69032 177.11293 -777.05298
141.71059 168.28136 -776.90009
141.73125 159.44765 -776.74432
141.75189 150.61142 -776.5885
141.77255 141.77257 -776.43262
141.79321 132.93115 -776.27679
141.81389 124.08716 -776.12079
141.83456 115.24061 -775.96484
141.85524 106.39148 -775.80878
141.87593 97.539688 -775.65271
141.89662 88.685402 -775.49658
141.91733 79.828506 -775.34039
141.93803 70.969002 -775.1842
141.95874 62.106941 -775.02795
141.97946 53.242302 -774.87158
142.00018 44.375088 -774.71527
142.02092 35.50526 -774.55884
142.04166 26.632826 -774.4024
142.06239 17.757843 -774.24597
142.08315 8.8802195 -774.08942
139.52116 3.35738e-05 -793.41815
139.52989 -8.7205963 -793.35229
139.53899 -17.44235 -793.28363
139.54771 -26.165174 -793.21777
139.55681 -34.889179 -793.14911
139.56555 -43.614227 -793.08313
139.57466 -52.340477 -793.01447
147.13814 294.27631 -801.25067
147.14996 285.64404 -801.16687
147.16139 277.00967 -801.08569
147.17319 268.37466 -801.00183
147.18463 259.73758 -800.92072
147.19644 251.09982 -800.83673
147.20787 242.46001 -800.75555
147.2193 233.81892 -800.67438
147.23112 225.17705 -800.59052
147.24257 216.53323 -800.50928
147.25438 207.88853 -800.42523
147.26584 199.24203 -800.34406
147.27728 190.59412 -800.26276
147.28911 181.94542 -800.17877
147.30055 173.29478 -800.09747
147.31239 164.64334 -800.01343
147.32384 155.98999 -799.93213
147.33835 147.33833 -799.82904
147.35936 138.69116 -799.67993
147.38037 130.04149 -799.53076
147.4014 121.38937 -799.38147
147.42241 112.73483 -799.23224
147.44344 104.07777 -799.08295
147.46448 95.418205 -798.93353
147.48552 86.75618 -798.78412
147.50656 78.091705 -798.6347
147.52762 69.424789 -798.48517
147.54868 60.755375 -798.33563
147.56975 52.083412 -798.1861
147.59082 43.409061 -798.0365
147.61189 34.732208 -797.88678
147.63297 26.052914 -797.73712
147.65407 17.371096 -797.5874
147.67516 8.6867762 -797.43756
147.54446 -9.2287082e-06 -798.36554
147.55405 -8.679636 -798.29761
147.56323 -17.360331 -798.23236
147.57281 -26.042234 -798.16437
147.582 -34.725155 -798.09906
147.59158 -43.409283 -798.03101
147.60077 -52.094364 -797.96576
155.0681 292.9064 -806.1142
155.08049 284.31421 -806.03113
155.09247 275.72003 -805.95081
155.10445 267.12439 -805.87036
155.11685 258.52811 -805.78723
155.12885 249.92982 -805.70685
155.14124 241.33084 -805.62372
155.15323 232.72986 -805.54333
155.16524 224.12759 -805.46277
155.17763 215.52449 -805.37964
155.18964 206.91954 -805.29913
155.20204 198.31375 -805.216
155.21405 189.70609 -805.1355
155.22646 181.09755 -805.05225
155.23846 172.48718 -804.97168
155.25047 163.87555 -804.89111
155.26288 155.26295 -804.80792
155.27492 146.64854 -804.72742
155.28732 138.03317 -804.64404
155.29935 129.41615 -804.56348
155.31136 120.79771 -804.48279
155.32378 112.17831 -804.39948
155.3358 103.55721 -804.31891
155.34824 94.935089 -804.23553
155.36026 86.311241 -804.15491
155.3723 77.686134 -804.07416
155.38472 69.059875 -803.99078
155.39677 60.43211 -803.91016
155.40919 51.803108 -803.82672
155.42163 43.172676 -803.74329
155.43408 34.540936 -803.65985
155.44652 25.907736 -803.57642
155.45898 17.273249 -803.49292
155.47142 8.6373386 -803.40948
155.4931 -6.7000656e-08 -803.26398
155.50275 -8.6390066 -803.1994
155.51279 -17.279196 -803.13202
155.52243 -25.920376 -803.06732
155.53247 -34.562729 -803
155.54211 -43.206135 -802.93524
155.55217 -51.850704 -802.86792
162.92455 291.54922 -810.93268
162.9371 282.99603 -810.85309
162.95004 274.44223 -810.77081
162.96259 265.88632 -810.69104
162.97511 257.32916 -810.61145
162.98808 248.7713 -810.52911
163.00063 240.21143 -810.4494
163.0136 231.65091 -810.36707
163.02614 223.08841 -810.28735
163.03868 214.5246 -810.20764
163.05167 205.96001 -810.12518
163.06421 197.39355 -810.04541
163.07719 188.82623 -809.96301
163.08974 180.25713 -809.88318
163.10272 171.68706 -809.80078
163.11528 163.11533 -809.72095
163.12785 154.54218 -809.64111
163.14082 145.96815 -809.55865
163.1534 137.39238 -809.47882
163.1664 128.81558 -809.3963
163.17896 120.23716 -809.31641
163.19153 111.65737 -809.23645
163.20453 103.07658 -809.15399
163.21751 94.494377 -809.07141
163.23051 85.910805 -808.98877
163.24353 77.325928 -808.90625
163.25653 68.739586 -808.82361
163.26955 60.151985 -808.74103
163.28253 51.562931 -808.65839
163.29555 42.9725 -808.57568
163.30856 34.380764 -808.49304
163.32158 25.787645 -808.41034
163.33417 17.193073 -808.33038
163.34718 8.5972147 -808.24762
163.36775 4.3698496e-05 -808.11694
163.37785 -8.5987949 -808.05286
163.38835 -17.198746 -807.98615
163.39844 -25.799719 -807.92206
163.40894 -34.401871 -807.85529
163.41902 -43.005009 -807.7912
163.42953 -51.609322 -807.72449
170.70811 290.2038 -815.70929
170.72162 281.6907 -815.62781
170.7347 273.17551 -815.54889
170.7482 264.6597 -815.46735
170.76129 256.14197 -815.38837
170.77437 247.62286 -815.30945
170.78789 239.10307 -815.22784
170.80098 230.58133 -815.14886
170.8145 222.05884 -815.06726
170.82758 213.5345 -814.98828
170.84111 205.00935 -814.90662
170.8542 196.48236 -814.82764
170.86731 187.95404 -814.7486
170.88083 179.4249 -814.66687
170.89392 170.89394 -814.58783
170.90746 162.36215 -814.50616
170.92101 153.82893 -814.42444
170.93454 145.2944 -814.34271
170.94809 136.75848 -814.26093
170.9612 128.22089 -814.18182
170.97475 119.68233 -814.09998
170.9883 111.1424 -814.01831
171.00186 102.60113 -813.93652
171.01541 94.058487 -813.85461
171.02896 85.514481 -813.77283
171.04253 76.969124 -813.69098
171.05608 68.422462 -813.60913
171.06966 59.874363 -813.52728
171.08321 51.325012 -813.44543
171.09677 42.774197 -813.36346
171.10991 34.221977 -813.28424
171.12349 25.66857 -813.20239
171.13705 17.113726 -813.12042
171.15062 8.5575352 -813.03845
171.16904 -9.9417157e-06 -812.92743
171.17999 -8.5589581 -812.86139
171.19049 -17.119045 -812.79785
171.20145 -25.680187 -812.73181
171.21198 -34.242359 -812.66827
171.22292 -42.805725 -812.60217
171.23344 -51.370037 -812.53864
178.42061 288.87146 -820.43951
178.43422 280.39667 -820.36133
178.44827 271.9212 -820.28058
178.46187 263.4437 -820.20233
178.47592 254.96559 -820.12152
178.48953 246.48553 -820.04327
178.5036 238.00485 -819.96246
178.51721 229.52214 -819.88416
178.53084 221.03824 -819.80597
178.54491 212.55348 -819.72498
178.55898 204.06744 -819.64417
178.57304 195.58003 -819.56329
178.58713 187.09129 -819.4823
178.60121 178.60124 -819.40137
178.61528 170.10983 -819.32043
178.62938 161.61708 -819.2395
178.64346 153.12297 -819.15857
178.6571 144.6272 -819.08014
178.6712 136.13046 -818.99915
178.68529 127.63235 -818.91815
178.69937 119.13295 -818.8371
178.71347 110.63216 -818.7561
178.72757 102.13007 -818.67505
178.74168 93.62661 -818.59399
178.75577 85.12178 -818.51288
178.76988 76.615715 -818.43182
178.78398 68.108223 -818.35071
178.79811 59.599388 -818.26959
178.81177 51.089092 -818.1911
178.82588 42.577621 -818.10999
178.84 34.064774 -818.02875
178.85411 25.550596 -817.94763
178.86824 17.035097 -817.86652
178.88237 8.5182199 -817.78528
178.89877 4.2151769e-06 -817.69098
178.9097 -8.5195208 -817.62811
178.92111 -17.040079 -817.56256
178.93204 -25.561714 -817.49969
178.94344 -34.084435 -817.4342
178.95439 -42.60815 -817.37134
178.96579 -51.133072 -817.30573
186.06262 287.55133 -825.12646
186.07674 279.11517 -825.04901
186.09132 270.67831 -824.96887
186.10593 262.24014 -824.88885
186.12004 253.80009 -824.8114
186.13464 245.35934 -824.73126
186.14925 236.91725 -824.65112
186.16383 228.4738 -824.57098
186.17845 220.0291 -824.49091
186.19305 211.58304 -824.41077
186.20767 203.1357 -824.33063
186.22227 194.687 -824.25043
186.23689 186.23692 -824.17029
186.2515 177.78549 -824.09003
186.26613 169.33286 -824.00989
186.28027 160.87843 -823.93219
186.29489 152.42311 -823.85199
186.30952 143.96646 -823.77173
186.32416 135.50851 -823.69147
186.33878 127.04919 -823.61121
186.35341 118.58855 -823.53094
186.36804 110.1266 -823.45062
186.38268 101.6633 -823.37024
186.39732 93.1987 -823.29004
186.41196 84.732765 -823.20966
186.42661 76.265411 -823.12933
186.44078 67.796669 -823.05151
186.45543 59.326733 -822.97113
186.47008 50.855484 -822.89075
186.48474 42.382919 -822.81042
186.49937 33.908981 -822.72998
186.51404 25.433784 -822.6496
186.5287 16.957151 -822.56909
186.54335 8.4792385 -822.48865
186.55756 1.8335839e-05 -822.41077
186.56889 -8.4803991 -822.34851
186.58073 -16.961872 -822.28363
186.5921 -25.444347 -822.22131
186.60393 -33.927994 -822.15631
186.6153 -42.412544 -822.09406
186.62712 -50.898273 -822.02911
350.14554 15.223694 -8.358283
196.20114 1.5833604e-05 -816.30334
196.21365 -8.5310297 -816.23761
196.22568 -17.063118 -816.17456
196.2382 -25.596241 -816.10889
196.25021 -34.130444 -816.04584
196.26274 -42.66576 -815.98016
196.27475 -51.202106 -815.91705
361.87024 15.077979 -25.957249
208.82053 2.9365747e-05 -795.73779
208.83356 -8.7013865 -795.67224
208.84715 -17.403902 -795.60394
208.8602 -26.107517 -795.53827
208.87378 -34.812252 -795.46997
208.88684 -43.518059 -795.40436
208.90042 -52.225071 -795.336
373.37247 14.93493 -43.222279
221.95363 9.0970298e-06 -774.33698
221.96837 -8.8787031 -774.26587
221.98251 -17.758595 -774.19757
221.99725 -26.639673 -774.12634
222.0114 -35.521809 -774.05804
222.02612 -44.405186 -773.98694
222.04028 -53.289658 -773.91858
384.65851 14.794621 -60.162769
235.63373 5.1839441e-05 -752.04291
235.6497 -9.063468 -751.96875
235.66502 -18.128057 -751.89764
235.681 -27.193932 -751.82349
235.69632 -36.260967 -751.75226
235.7123 -45.329285 -751.67804
395.73618 14.656923 -76.780144
249.89508 1.566285e-05 -728.80151
249.91168 -9.2559862 -728.72729
249.92899 -18.513222 -728.65002
249.94557 -27.771721 -728.57574
249.96288 -37.031532 -728.49847
249.97949 -46.292469 -728.42419
406.60782 14.521777 -93.098724
264.77554 2.844293e-05 -704.55127
264.79352 -9.4568577 -704.47375
264.81149 -18.915089 -704.39624
264.8302 -28.374643 -704.31555
264.84818 -37.835445 -704.2381
264.86691 -47.297638 -704.15735
417.28073 14.389045 -109.1191
280.31714 1.2326758e-05 -679.22144
280.33496 -9.6666727 -679.14722
280.35522 -19.334789 -679.06293
280.37469 -29.00425 -678.98193
280.39496 -38.675171 -678.89752
280.4144 -48.347286 -678.81665
427.76038 14.258726 -124.8492
296.56415 1.4920328e-05 -652.74194
296.58255 -9.8861008 -652.66791
296.60361 -19.773529 -652.58325
296.62552 -29.662569 -652.495
296.64658 -39.552849 -652.41034
296.66852 -49.44471 -652.32208
438.05371 14.130754 -140.2897
313.5657 2.4496721e-05 -625.03284
313.58368 -10.115575 -624.96259
313.60742 -20.232758 -624.8703
313.63019 -30.351286 -624.78156
313.6539 -40.471443 -624.68927
313.6767 -50.593018 -624.60046
448.16214 14.00508 -155.46278
331.37558 -5.7019388e-06 -596.0061
331.39404 -10.356051 -595.9364
331.41971 -20.713715 -595.83966
331.44434 -31.072924 -595.7467
331.46896 -41.433628 -595.65375
458.09232 13.881608 -170.3683
350.05289 1.5785074e-05 -565.56573
350.07178 -10.608193 -565.49664
350.09842 -21.218117 -565.39917
350.12619 -31.829632 -565.29755
350.15283 -42.442764 -565.20001
467.84894 13.760282 -185.01335
369.66254 -1.6288421e-05 -533.60577
369.68057 -10.87294 -533.54181
369.71063 -21.747686 -533.43506
369.7395 -32.624043 -533.33258
369.76956 -43.502312 -533.22589
477.43643 13.641047 -199.40457
390.27621 3.18655e-05 -500.00952
390.2944 -11.151277 -499.94672
390.32565 -22.304306 -499.83899
390.35818 -33.459213 -499.72672
390.38947 -44.615891 -499.61893
486.86127 13.523986 -213.54192
411.97293 5.7856005e-06 -464.64807
411.98984 -11.44413 -464.59131
412.02509 -22.890297 -464.47314
412.05893 -34.338215 -464.35968
412.09421 -45.788242 -464.24139
496.1236 13.408783 -227.4451
434.84039 9.0226176e-06 -427.37848
434.85876 -11.752886 -427.31873
434.89389 -23.507736 -427.20398
434.9321 -35.264744 -427.07932
434.96881 -47.023655 -426.9595
637.61487 302.02814 179.4214
637.6532 285.26596 179.54327
637.69165 268.5018 179.66528
637.73322 251.73683 179.79739
637.77161 234.96852 179.91936
637.81006 218.19826 180.04147
637.84845 201.42587 180.16345
637.89008 184.65237 180.2957
637.92847 167.87595 180.41771
637.96692 151.0975 180.53981
638.00537 134.31693 180.66196
638.04382 117.53442 180.78409
638.08545 100.75037 180.91638
638.1239 83.963753 181.0385
638.16241 67.175003 181.16064
638.20404 50.384563 181.29305
638.24249 33.591747 181.41521
505.22952 13.295535 -241.11343
458.97604 9.7343946e-07 -388.04211
458.99594 -12.078793 -387.97891
459.03241 -24.159586 -387.86301
459.0722 -36.242531 -387.7366
459.11368 -48.327759 -387.60489
651.61505 300.74551 170.8195
651.65411 284.05438 170.94044
651.69318 267.36133 171.0614
651.73553 250.66748 171.19246
651.77466 233.97041 171.31343
651.81372 217.27136 171.43437
651.85278 200.57024 171.55537
651.8952 183.86794 171.68645
651.93427 167.16266 171.80759
651.97333 150.45547 171.92856
652.01569 133.74686 172.05975
652.05487 117.03549 172.18083
652.09399 100.32217 172.3019
652.13641 83.607246 172.43309
652.17548 66.889885 172.55417
652.2179 50.1707 172.68542
652.25708 33.449139 172.80661
514.18292 13.184172 -254.55283
484.48834 3.8766102e-06 -346.46201
484.50992 -12.423244 -346.39523
484.5477 -24.848585 -346.27814
484.59094 -37.276196 -346.14441
665.49689 299.47363 162.29053
665.53662 282.85309 162.41042
665.57965 266.2319 162.54036
665.61932 249.60732 162.66029
665.65912 232.98073 162.78015
665.70215 216.3533 162.91011
665.74194 199.72256 163.03012
665.78503 183.09088 163.16016
665.82477 166.45624 163.28009
665.86456 149.81958 163.40015
665.90765 133.18158 163.53015
665.94745 116.54087 163.65024
665.98724 99.898102 163.77037
666.03033 83.253845 163.90041
666.07013 66.60701 164.02057
666.11328 49.9585 164.15067
666.15308 33.307747 164.27075
522.98969 13.074729 -267.76294
511.4985 3.9570674e-05 -302.4407
511.52194 -12.787985 -302.3699
511.55911 -25.57794 -302.25766
511.60803 -38.370564 -302.11014
681.96124 299.39774 161.78101
682.00189 282.78125 161.90088
682.04608 266.16434 162.03076
682.08673 249.54398 162.1506
682.12744 232.92157 162.27054
682.17163 216.29839 162.40042
682.21234 199.67194 162.52037
682.25647 183.04439 162.65027
682.29718 166.41399 162.77014
682.33801 149.7816 162.89012
682.38208 133.14772 163.02016
682.42291 116.51126 163.14017
682.46362 99.872818 163.26012
682.50781 83.232689 163.39015
682.54858 66.590118 163.51025
682.59277 49.945866 163.64029
682.63348 33.299225 163.76041
540.11688 13.173611 -255.83186
540.1424 -1.4309145e-05 -255.75662
540.16797 -13.174813 -255.68141
540.20624 -26.351511 -255.5686
540.25739 -39.53101 -255.41826
700.08484 300.03641 166.06439
700.12671 283.38467 166.18489
700.17206 266.73221 166.31525
700.21393 250.07646 166.43562
700.2558 233.41873 166.55597
700.30121 216.75996 166.68646
700.34314 200.09807 166.80693
700.38501 183.43422 166.92737
700.43042 166.7692 167.05788
700.47235 150.10127 167.17833
700.51776 133.43199 167.3089
700.55969 116.75996 167.42934
700.60168 100.08598 167.54991
700.64703 83.410385 167.68047
700.68903 66.732277 167.80104
700.73096 50.05225 167.92159
700.77643 33.370335 168.05228
570.54523 13.584396 -206.2406
570.573 8.598945e-05 -206.16072
570.60083 -13.585712 -206.08076
570.63794 -27.173199 -205.97418
570.69592 -40.763912 -205.80757
718.28589 300.67789 170.36618
718.33246 283.99203 170.49713
718.37561 267.30261 170.61797
718.4187 250.61116 170.73888
718.46167 233.91782 170.8598
718.50482 217.22243 170.9808
718.55145 200.52606 171.11183
718.59454 183.82648 171.23277
718.64124 167.12593 171.36374
718.68433 150.42235 171.48476
718.72742 133.71675 171.60587
718.77417 117.00976 171.73689
718.81726 100.30006 171.85799
718.86395 83.588875 171.98914
718.9071 66.875107 172.11024
718.9502 50.159355 172.23132
718.99695 33.441795 172.3624
602.9325 14.021688 -153.45677
602.96283 -1.4777653e-05 -153.37158
602.99316 -14.023084 -153.28638
603.03107 -28.047922 -153.18002
603.09174 -42.076168 -153.00952
736.5686 301.32355 174.69637
736.61285 284.60043 174.81778
736.6571 267.87534 174.93932
736.70135 251.14824 175.06061
736.74567 234.4191 175.18217
736.79358 217.6891 175.31366
736.83789 200.95576 175.43515
736.88214 184.2206 175.5567
736.92645 167.48329 175.6781
736.97443 150.74483 175.80975
737.01874 134.0034 175.9313
737.06671 117.2606 176.06297
737.11102 100.51511 176.18454
737.15533 83.7677 176.30611
737.20337 67.018463 176.43784
737.24768 50.26693 176.55937
737.29199 33.513321 176.681
637.47412 14.48812 -97.161774
637.50732 -6.7392871e-06 -97.070824
637.54041 -14.489546 -96.979904
637.57635 -28.980675 -96.881371
637.64539 -43.475758 -96.691887
754.92621 301.97061 179.03519
754.97168 285.21158 179.15714
755.01715 268.45053 179.27905
755.06262 251.68762 179.40099
755.11188 234.92368 179.53307
755.15735 218.15665 179.65515
755.20276 201.38748 179.77708
755.24829 184.61627 179.89911
755.29376 167.84305 180.02109
755.34302 151.06866 180.15329
755.38855 134.29132 180.27541
755.43408 117.51198 180.39746
755.4834 100.73114 180.52972
755.52893 83.947685 180.65176
755.57825 67.162529 180.78406
755.62378 50.374939 180.90625
755.66931 33.585293 181.02835
674.39258 14.986542 -36.993076
674.42889 7.669234e-05 -36.89587
674.46515 -14.988073 -36.798527
674.50146 -29.977839 -36.701168
773.36292 302.62033 183.39265
773.40961 285.82532 183.51497
773.45618 269.02829 183.63756
773.50677 252.23048 183.77013
773.55341 235.42928 183.89267
773.6001 218.62619 184.01523
773.64685 201.821 184.13766
773.69354 185.01373 184.26018
773.74408 168.20537 184.39294
773.79083 151.39391 184.51556
773.83752 134.58044 184.63812
773.88428 117.76508 184.76067
773.93488 100.94806 184.89349
773.98157 84.128487 185.01616
774.02832 67.306793 185.13884
774.07898 50.483463 185.27165
774.12573 33.6577 185.39435
713.94183 15.520463 27.463184
713.98163 3.1607833e-05 27.567556
714.02136 -15.522132 27.671869
714.06116 -31.046104 27.776245
791.87903 303.2728 187.76884
791.92694 286.44168 187.89178
791.97882 269.60986 188.02507
792.02667 252.77449 188.14807
792.07458 235.9371 188.27103
792.1225 219.09779 188.39412
792.17438 202.25743 188.52736
792.22229 185.41373 188.65044
792.27026 168.56816 188.77354
792.31818 151.72054 188.89658
792.36615 134.87086 189.01967
792.41803 118.01971 189.15315
792.46594 101.16592 189.27623
792.51392 84.310036 189.39937
792.56189 67.452103 189.5226
792.61389 50.592396 189.65602
792.66187 33.730343 189.77922
756.41357 16.093903 96.682373
756.45728 4.3067081e-05 96.794479
756.50092 -16.095699 96.906769
756.54468 -32.193371 97.019043
810.47528 303.92825 192.16393
810.5285 287.06219 192.29781
810.57764 270.19266 192.42126
810.62671 253.32085 192.54485
810.67584 236.44722 192.66832
810.72906 219.57254 192.80226
810.7782 202.69455 192.92574
810.82733 185.81461 193.04935
810.87646 168.9326 193.17303
810.92566 152.04855 193.29665
810.97894 135.16318 193.43054
811.02808 118.27493 193.55426
811.07727 101.38469 193.6779
811.12646 84.492332 193.80159
811.17566 67.598022 193.92526
811.22888 50.701889 194.05927
811.27814 33.803337 194.18301
802.14404 16.711403 171.21252
802.19214 2.263444e-05 171.3336
802.2403 -16.713272 171.4545
802.28839 -33.428711 171.57561
