# .PCD v0.7 - Point Cloud Data file format
VERSION 0.7
FIELDS x y z
SIZE 4 4 4
TYPE F F F
COUNT 1 1 1
WIDTH 1504
HEIGHT 1
VIEWPOINT 0 0 0 1 0 0 0
POINTS 1504
DATA ascii
-57.204033 -23.554604 1.5913208
-57.212181 -25.240671 1.6202524
-55.895668 47.42662 2.9597719
-55.895668 45.732815 2.9597695
-55.895668 44.039013 2.9597692
-55.895668 42.345207 2.9597683
-55.895668 40.651394 2.959779
-55.895668 38.957588 2.9597781
-55.895668 37.263783 2.9597757
-55.895927 35.570133 2.9607203
-55.895927 33.876316 2.9607105
-55.895927 32.182503 2.9607227
-55.895927 30.488684 2.9607124
-55.895927 28.794872 2.9607255
-55.895927 27.101053 2.9607151
-55.895927 25.407234 2.9607224
-55.895927 23.713421 2.960717
-55.895927 22.019611 2.9607122
-55.895668 20.325693 2.9597728
-55.895668 18.631889 2.9597719
-55.895668 16.938084 2.95977
-55.895668 15.244279 2.9597688
-55.895668 13.550459 2.9597762
-55.895668 11.856654 2.959775
-55.895668 10.162849 2.9597735
-55.895668 8.4690447 2.9597723
-55.895668 6.7752333 2.9597664
-55.895668 5.0814204 2.9597785
-55.895668 3.3876159 2.9597771
-55.895668 1.6938043 2.9597714
-55.895668 -3.1156009e-07 2.95977
-55.895668 -1.6938051 2.9597685
-55.895668 -3.3876183 2.9597807
-55.895668 -5.0814295 2.959775
-55.895668 -6.7752342 2.9597738
-55.895668 -8.469039 2.9597721
-55.895668 -10.162844 2.9597707
-55.895668 -11.856663 2.9597783
-55.895668 -13.550467 2.9597771
-55.895668 -15.244272 2.9597759
-55.895668 -16.938084 2.9597704
-55.895927 -18.631973 2.9607136
-55.895927 -20.325794 2.960721
-55.895927 -22.019606 2.9607153
-55.238628 -23.43457 0.55639726
-55.113194 -25.051456 0.097563252
-53.870762 48.82037 1.7108102
-53.870762 47.136925 1.7108035
-53.870762 45.453461 1.7108049
-53.870762 43.769993 1.7108047
-53.870762 42.086529 1.7108046
-53.870762 40.403076 1.7108123
-53.870762 38.719612 1.7108122
-53.87101 37.036324 1.7117529
-53.87101 35.352844 1.7117437
-53.87101 33.669376 1.7117435
-53.87101 31.985912 1.7117434
-53.87101 30.302446 1.7117431
-53.87101 28.618975 1.7117389
-53.87101 26.935511 1.7117388
-53.87101 25.252039 1.7117345
-53.87101 23.568565 1.7117482
-53.87101 21.885094 1.711744
-53.87101 20.201628 1.7117438
-53.87101 18.51816 1.7117426
-53.870762 16.834612 1.7108048
-53.870762 15.151153 1.710809
-53.870762 13.467687 1.7108089
-53.870762 11.784228 1.7108127
-53.870762 10.100763 1.7108127
-53.870762 8.4173126 1.7108033
-53.870762 6.7338471 1.7108034
-53.870762 5.0503817 1.7108033
-53.870762 3.3669229 1.7108072
-53.870762 1.6834574 1.7108071
-53.870762 -1.2984868e-06 1.7108111
-53.870762 -1.6834667 1.710811
-53.870762 -3.3669255 1.7108151
-53.870762 -5.0503826 1.7108016
-53.870762 -6.7338414 1.7108055
-53.870762 -8.4173069 1.7108054
-53.870762 -10.100765 1.7108096
-53.870762 -11.784231 1.7108095
-53.870762 -13.467696 1.7108092
-53.87101 -15.151225 1.7117485
-53.87101 -16.834698 1.7117437
-53.87101 -18.518164 1.7117444
-53.87101 -20.201628 1.7117442
-53.87101 -21.885099 1.71174
-53.529503 -23.419159 0.42350441
-53.11227 -24.896378 -1.1503854
-51.870686 48.524189 0.47792342
-51.870686 46.850948 0.47792888
-51.870686 45.177696 0.4779247
-51.870686 43.504444 0.47792211
-51.870686 41.831207 0.47792757
-51.870686 40.157951 0.477925
-51.870686 38.484692 0.4779354
-51.870686 36.811451 0.47793823
-51.870686 35.138199 0.47793567
-51.870686 33.464958 0.47794113
-51.870686 31.791706 0.47793853
-51.870686 30.118454 0.47793517
-51.870686 28.44521 0.47793579
-51.870686 26.771963 0.47793722
-51.870686 25.098717 0.47793785
-51.870686 23.425465 0.47793528
-51.870686 21.752218 0.47793591
-51.870686 20.078972 0.47793734
-51.870686 18.405725 0.47793749
-51.870686 16.732473 0.4779349
-51.870686 15.059228 0.47793555
-51.870445 13.385918 0.47701049
-51.870445 11.712678 0.47701555
-51.870445 10.03944 0.47700319
-51.870445 8.3662004 0.47700825
-51.870445 6.6929612 0.47701329
-51.870445 5.0197153 0.47701433
-51.870445 3.3464844 0.4770062
-51.870445 1.6732384 0.47700715
-51.870445 -9.0933042e-07 0.47701225
-51.870445 -1.673247 0.47701326
-51.870445 -3.346478 0.47700489
-51.870445 -5.0197239 0.47700605
-51.870445 -6.6929631 0.47701108
-51.870445 -8.3662024 0.47701612
-51.870445 -10.03944 0.47700402
-51.870445 -11.712679 0.47700906
-51.870686 -13.385987 0.47793207
-51.870686 -15.059233 0.47793308
-51.870686 -16.732479 0.47793323
-51.870686 -18.405725 0.47793466
-51.870686 -20.078978 0.47793129
-51.870686 -21.752224 0.47793272
-51.855762 -23.418734 0.41981632
-51.140347 -24.745329 -2.365927
-49.894501 48.231354 -0.74098599
-49.894501 46.568199 -0.74098915
-49.894501 44.905045 -0.7409907
-49.894501 43.241909 -0.7409839
-49.894501 41.578754 -0.74098706
-49.894501 39.9156 -0.74098861
-49.894501 38.252449 -0.74099177
-49.894501 36.58931 -0.74098593
-49.894501 34.926155 -0.74098748
-49.894501 33.263 -0.7409907
-49.894501 31.59985 -0.74099284
-49.894501 29.936703 -0.7409904
-49.894501 28.27355 -0.74099261
-49.894501 26.610403 -0.74099094
-49.894501 24.94725 -0.74099416
-49.894501 23.284103 -0.74099147
-49.894501 21.620951 -0.74099386
-49.894501 19.957806 -0.74099201
-49.894501 18.294651 -0.74099439
-49.894501 16.631504 -0.74099225
-49.894501 14.968352 -0.74099493
-49.894501 13.305198 -0.74097937
-49.894501 11.642044 -0.74098217
-49.894272 9.9788532 -0.74189353
-49.894272 8.3157148 -0.74190545
-49.894272 6.6525683 -0.74190372
-49.894272 4.9894285 -0.74189746
-49.894272 3.3262823 -0.74189568
-49.894272 1.6631359 -0.74189383
-49.894272 4.3312293e-06 -0.74190122
-49.894272 -1.6631421 -0.74189937
-49.894272 -3.3262887 -0.74189752
-49.894272 -4.989428 -0.74189144
-49.894272 -6.6525664 -0.74190313
-49.894272 -8.3157129 -0.74190122
-49.894272 -9.9788589 -0.74189919
-49.894501 -11.642053 -0.7409845
-49.894501 -13.305199 -0.74098277
-49.894501 -14.968352 -0.74098551
-49.894501 -16.631506 -0.74098736
-49.894501 -18.294651 -0.74098521
-49.894501 -19.957806 -0.74098843
-49.894501 -21.620951 -0.74098575
-50.181847 -23.418192 0.41520265
-49.1922 -24.596104 -3.5668254
-47.942028 47.942028 -1.9452832
-47.942028 46.288857 -1.945282
-47.942028 44.635677 -1.9452868
-47.942028 42.982513 -1.9452835
-47.942028 41.32933 -1.9452903
-47.942028 39.676167 -1.9452887
-47.942028 38.022976 -1.9452798
-47.942028 36.369812 -1.9452783
-47.942028 34.716644 -1.945276
-47.942028 33.063461 -1.9452817
-47.942028 31.41029 -1.9452826
-47.942028 29.757122 -1.9452803
-47.942028 28.103949 -1.9452821
-47.942028 26.450777 -1.9452837
-47.942028 24.797602 -1.9452854
-47.942028 23.144428 -1.9452872
-47.942028 21.491255 -1.9452879
-47.942028 19.838074 -1.9452767
-47.942028 18.1849 -1.945278
-47.942028 16.531734 -1.945276
-47.942028 14.87856 -1.9452778
-47.942028 13.225387 -1.9452791
-47.942028 11.572214 -1.9452808
-47.942028 9.9190397 -1.9452826
-47.941807 8.2658272 -1.9461764
-47.941807 6.6126685 -1.9461873
-47.941807 4.9595017 -1.9461849
-47.941807 3.306335 -1.9461821
-47.941807 1.6531616 -1.9461838
-47.941807 -5.1442512e-06 -1.9461814
-47.941807 -1.653172 -1.9461789
-47.941807 -3.3063304 -1.9461898
-47.941807 -4.9594975 -1.9461874
-47.941807 -6.6126637 -1.9461848
-47.941807 -8.265831 -1.9461826
-47.942028 -9.9190426 -1.9452848
-47.942028 -11.572209 -1.9452821
-47.942028 -13.225383 -1.9452838
-47.942028 -14.878557 -1.9452856
-47.942028 -16.531731 -1.9452872
-47.942028 -18.184912 -1.9452751
-47.942028 -19.838085 -1.9452772
-47.942028 -21.491259 -1.945279
-47.942028 -23.144432 -1.9452798
-47.267414 -24.448664 -4.7533178
-46.012836 47.656155 -3.1352196
-46.012836 46.012825 -3.1352131
-46.012836 44.369522 -3.1352081
-46.012836 42.7262 -3.1352146
-46.012836 41.08289 -3.1352131
-46.012836 39.439571 -3.1352162
-46.012836 37.796265 -3.1352148
-46.012836 36.152946 -3.1352203
-46.012836 34.509636 -3.1352162
-46.012836 32.86631 -3.1352088
-46.012836 31.222994 -3.13521
-46.012836 29.579681 -3.1352115
-46.012836 27.936361 -3.1352155
-46.012836 26.293049 -3.1352172
-46.012836 24.649734 -3.1352196
-46.012836 23.00642 -3.1352205
-46.012836 21.3631 -3.1352081
-46.012836 19.719786 -3.1352096
-46.012836 18.076471 -3.1352103
-46.012836 16.433159 -3.1352124
-46.012836 14.789838 -3.1352172
-46.012836 13.146524 -3.1352184
-46.012836 11.503211 -3.1352191
-46.012836 9.859889 -3.1352072
-46.012836 8.2165756 -3.1352086
-46.012836 6.5732613 -3.1352098
-46.01263 4.9299302 -3.1361084
-46.01263 3.2866166 -3.1361098
-46.01263 1.6433096 -3.136107
-46.01263 2.635252e-06 -3.1361041
-46.01263 -1.643311 -3.1361053
-46.01263 -3.2866178 -3.1361022
-46.01263 -4.929925 -3.1360993
-46.01263 -6.5732384 -3.1361008
-46.012836 -8.2165756 -3.1352119
-46.012836 -9.8598967 -3.1352174
-46.012836 -11.50321 -3.1352184
-46.012836 -13.146523 -3.1352198
-46.012836 -14.789845 -3.1352077
-46.012836 -16.433159 -3.1352093
-46.012836 -18.076473 -3.13521
-46.012836 -19.719786 -3.1352112
-46.012836 -21.363108 -3.1352174
-46.012836 -23.00642 -3.1352181
-45.365566 -24.302984 -5.9256654
-44.106518 47.373672 -4.3110423
-44.106518 45.740101 -4.3110418
-44.106518 44.106525 -4.3110433
-44.106518 42.472942 -4.3110313
-44.106518 40.839371 -4.3110309
-44.106518 39.205795 -4.3110323
-44.106518 37.572224 -4.3110342
-44.106518 35.938648 -4.3110356
-44.106518 34.305065 -4.3110442
-44.106518 32.671497 -4.3110404
-44.106518 31.037922 -4.3110437
-44.106518 29.404348 -4.3110437
-44.106518 27.770775 -4.3110442
-44.106518 26.137192 -4.3110328
-44.106518 24.503618 -4.3110332
-44.106518 22.870047 -4.3110342
-44.106518 21.236471 -4.3110352
-44.106518 19.602898 -4.3110371
-44.106518 17.969324 -4.3110375
-44.106518 16.335745 -4.3110428
-44.106518 14.70217 -4.3110437
-44.106518 13.068597 -4.3110456
-44.106518 11.435023 -4.3110461
-44.106518 9.8014498 -4.3110476
-44.106518 8.1678677 -4.3110347
-44.106518 6.5342937 -4.3110361
-44.106518 4.9007201 -4.3110371
-44.106518 3.2671463 -4.311038
-44.106323 1.6335601 -4.3119149
-44.106323 1.3118271e-06 -4.3119254
-44.106323 -1.6335658 -4.3119226
-44.106323 -3.267133 -4.3119192
-44.106518 -4.900722 -4.3110437
-44.106518 -6.5342956 -4.3110447
-44.106518 -8.1678782 -4.3110323
-44.106518 -9.8014507 -4.3110332
-44.106518 -11.435025 -4.3110342
-44.106518 -13.068599 -4.3110356
-44.106518 -14.702172 -4.3110366
-44.106518 -16.335747 -4.3110375
-44.106518 -17.969318 -4.3110385
-44.106518 -19.602894 -4.3110404
-44.106518 -21.236473 -4.3110452
-44.106518 -22.870047 -4.3110461
-43.486248 -24.159029 -7.0841227
-42.222668 48.718464 -5.4730129
-42.222668 47.094509 -5.4730153
-42.222668 45.47057 -5.4730077
-42.222668 43.846615 -5.4730105
-42.222668 42.22266 -5.4730091
-42.222668 40.598721 -5.4730024
-42.222668 38.974766 -5.4730039
-42.222668 37.350811 -5.4730053
-42.222668 35.726871 -5.4729986
-42.222668 34.102928 -5.473012
-42.222668 32.478973 -5.4730134
-42.222668 30.855026 -5.473011
-42.222668 29.231079 -5.4730082
-42.222668 27.607126 -5.4730096
-42.222668 25.983179 -5.4730058
-42.222668 24.359224 -5.4730072
-42.222668 22.735279 -5.4730034
-42.222668 21.111332 -5.4730015
-42.222851 19.487469 -5.4721332
-42.222668 17.86344 -5.4730124
-42.222668 16.239485 -5.4730139
-42.222668 14.615539 -5.4730101
-42.222668 12.991591 -5.4730077
-42.222668 11.367638 -5.4730091
-42.222668 9.7436914 -5.4730062
-42.222668 8.1197443 -5.4730024
-42.222668 6.4957905 -5.4730039
-42.222668 4.8718433 -5.473001
-42.222668 3.2478979 -5.4730153
-42.222668 1.6239512 -5.4730124
-42.222668 3.9878723e-06 -5.4730096
-42.222668 -1.6239495 -5.4730105
-42.222668 -3.2478964 -5.4730077
-42.222668 -4.87185 -5.4730086
-42.222668 -6.4957976 -5.4730058
-42.222668 -8.1197443 -5.4730024
-42.222668 -9.7436981 -5.4730039
-42.222668 -11.367645 -5.473001
-42.222668 -12.99159 -5.4730148
-42.222668 -14.615537 -5.473012
-42.222668 -16.239485 -5.4730091
-42.222668 -17.863438 -5.4730105
-42.222668 -19.487385 -5.4730077
-42.222668 -21.111332 -5.4730039
-42.222851 -22.735384 -5.4721437
-41.629063 -24.016764 -8.2289448
-40.360886 48.433052 -6.6213613
-40.360886 46.818626 -6.6213646
-40.360886 45.204205 -6.6213636
-40.360886 43.589756 -6.6213617
-40.360886 41.97533 -6.6213646
-40.360886 40.360882 -6.6213613
-40.360886 38.746456 -6.6213641
-40.360886 37.132011 -6.6213622
-40.360886 35.517586 -6.6213651
-40.360886 33.903137 -6.6213617
-40.360886 32.288708 -6.6213689
-40.360886 30.674267 -6.6213603
-40.360886 29.059841 -6.6213632
-40.360886 27.445402 -6.621357
-40.360886 25.830971 -6.6213641
-40.360886 24.21653 -6.6213565
-40.360886 22.602098 -6.6213632
-40.360886 20.987659 -6.6213565
-40.361061 19.37331 -6.6204977
-40.361061 17.758873 -6.6205087
-40.361061 16.144424 -6.6205063
-40.360886 14.529922 -6.6213689
-40.360886 12.915483 -6.6213617
-40.360886 11.30105 -6.6213689
-40.360886 9.6866102 -6.6213617
-40.360886 8.0721779 -6.6213684
-40.360886 6.4577384 -6.6213613
-40.360886 4.8433061 -6.6213675
-40.360886 3.2288661 -6.6213608
-40.360886 1.6144342 -6.6213675
-40.360886 -5.7786087e-06 -6.6213608
-40.360886 -1.6144376 -6.6213675
-40.360886 -3.2288711 -6.621356
-40.360886 -4.8433027 -6.6213627
-40.360886 -6.4577427 -6.621356
-40.360886 -8.072175 -6.6213627
-40.360886 -9.686615 -6.621356
-40.360886 -11.301046 -6.6213622
-40.360886 -12.915487 -6.6213555
-40.360886 -14.529919 -6.6213617
-40.360886 -16.14436 -6.6213551
-40.360886 -17.758791 -6.6213617
-40.360886 -19.373222 -6.6213684
-40.361061 -20.987755 -6.6204948
-40.361061 -22.602194 -6.6205058
-39.793621 -23.876173 -9.3603621
-38.520794 48.150993 -7.7563362
-38.520794 46.545948 -7.7563376
-38.520794 44.940926 -7.7563457
-38.520794 43.335896 -7.756341
-38.520794 41.730862 -7.7563357
-38.520794 40.125816 -7.7563391
-38.520794 38.520794 -7.7563481
-38.520794 36.91576 -7.7563419
-38.520794 35.31073 -7.7563372
-38.520794 33.705685 -7.7563386
-38.520794 32.100662 -7.7563467
-38.520794 30.495625 -7.7563472
-38.520794 28.890593 -7.7563405
-38.520794 27.285555 -7.75634
-38.520794 25.680523 -7.7563334
-38.520794 24.075493 -7.7563457
-38.520794 22.470461 -7.7563415
-38.520962 20.865515 -7.7554884
-38.520962 19.260479 -7.7554874
-38.520962 17.655439 -7.7554865
-38.520962 16.050394 -7.7554893
-38.520962 14.445356 -7.7554879
-38.520962 12.840318 -7.7554865
-38.520794 11.23523 -7.7563472
-38.520794 9.6301994 -7.7563415
-38.520794 8.0251608 -7.7563405
-38.520794 6.4201293 -7.7563348
-38.520794 4.8150997 -7.7563472
-38.520794 3.2100682 -7.7563419
-38.520794 1.6050301 -7.7563405
-38.520794 -1.750381e-06 -7.7563353
-38.520794 -1.6050317 -7.7563472
-38.520794 -3.210063 -7.7563419
-38.520794 -4.8151016 -7.756341
-38.520794 -6.4201331 -7.7563353
-38.520794 -8.0251703 -7.7563338
-38.520794 -9.6301947 -7.7563424
-38.520794 -11.235232 -7.756341
-38.520794 -12.840263 -7.7563353
-38.520794 -14.445302 -7.7563343
-38.520794 -16.050325 -7.7563424
-38.520794 -17.655363 -7.7563405
-38.520962 -19.260487 -7.755487
-38.520962 -20.865524 -7.7554855
-38.520962 -22.470562 -7.7554841
-37.985615 -23.741011 -10.448069
-38.057812 -25.37188 -10.084936
-36.702003 47.872185 -8.8781681
-36.702003 46.276451 -8.8781776
-36.702003 44.68071 -8.8781748
-36.702003 43.084965 -8.87817
-36.702003 41.489231 -8.8781796
-36.702003 39.89349 -8.8781767
-36.702003 38.297745 -8.8781719
-36.702003 36.702003 -8.8781691
-36.702003 35.106266 -8.8781796
-36.702003 33.510525 -8.8781767
-36.702003 31.914782 -8.8781719
-36.702003 30.319048 -8.8781815
-36.702003 28.72331 -8.8781748
-36.702003 27.127567 -8.87817
-36.702003 25.531834 -8.8781805
-36.702003 23.93609 -8.8781767
-36.702168 22.34045 -8.8773355
-36.702168 20.744699 -8.8773355
-36.702168 19.148956 -8.8773327
-36.702168 17.553207 -8.8773317
-36.702168 15.957458 -8.8773327
-36.702168 14.361714 -8.8773289
-36.702168 12.765965 -8.8773298
-36.702168 11.170224 -8.8773432
-36.702168 9.574481 -8.8773403
-36.702003 7.9786944 -8.8781767
-36.702003 6.3829517 -8.8781729
-36.702003 4.7872171 -8.8781824
-36.702003 3.1914811 -8.8781748
-36.702003 1.5957381 -8.878171
-36.702003 3.6015422e-06 -8.8781805
-36.702003 -1.5957394 -8.8781767
-36.702003 -3.1914821 -8.8781738
-36.702003 -4.7872248 -8.87817
-36.702003 -6.3829594 -8.8781796
-36.702003 -7.9786954 -8.8781719
-36.702003 -9.5744381 -8.8781681
-36.702003 -11.170173 -8.8781776
-36.702003 -12.765916 -8.8781748
-36.702003 -14.361659 -8.878171
-36.702003 -15.957394 -8.8781805
-36.702168 -17.553211 -8.8773375
-36.702168 -19.148954 -8.8773336
-36.702168 -20.744703 -8.8773336
-36.702168 -22.340452 -8.8773336
-36.224739 -23.624836 -11.383009
-36.212589 -25.191374 -11.446754
-35.257576 48.078506 -8.0479679
-35.257576 46.475899 -8.0479631
-35.257576 44.873272 -8.047966
-35.257576 43.270657 -8.0479622
-35.257576 41.668037 -8.0479794
-35.257576 40.065426 -8.0479736
-35.257576 38.462814 -8.0479689
-35.257576 36.860191 -8.0479736
-35.257729 35.257725 -8.0471191
-35.257729 33.655102 -8.047121
-35.257729 32.052483 -8.047122
-35.257729 30.449856 -8.0471239
-35.257729 28.847237 -8.0471239
-35.257729 27.244612 -8.0471277
-35.257729 25.641985 -8.0471306
-35.257729 24.039358 -8.0471153
-35.257729 22.436731 -8.0471201
-35.257729 20.834114 -8.0471191
-35.257729 19.231487 -8.047122
-35.257729 17.628862 -8.0471258
-35.257729 16.026243 -8.0471249
-35.257729 14.423616 -8.0471287
-35.257729 12.820997 -8.0471277
-35.257729 11.218364 -8.0471182
-35.257729 9.6157379 -8.047121
-35.257729 8.0131187 -8.0471201
-35.257729 6.4104934 -8.0471239
-35.257729 4.8078747 -8.047123
-35.257729 3.2052486 -8.0471268
-35.257729 1.6026298 -8.0471258
-35.257729 -4.5033012e-06 -8.0471163
-35.257576 -1.6026241 -8.047965
-35.257881 -3.2052615 -8.046277
-35.257881 -4.8078876 -8.0462809
-35.257881 -6.4105277 -8.0462742
-35.257881 -8.0131531 -8.046278
-35.257881 -9.6157942 -8.0462723
-34.906281 -11.106544 -9.9754734
-34.906281 -12.693194 -9.975482
-34.906281 -14.279846 -9.9754734
-34.906281 -15.866489 -9.9754772
-34.906281 -17.453135 -9.9754829
-34.906281 -19.039793 -9.9754772
-34.906281 -20.626436 -9.975482
-34.906281 -22.213089 -9.9754744
-34.484406 -23.512098 -12.290217
-34.41415 -25.028481 -12.675692
-34.008377 48.583393 -6.0164604
-34.008377 46.963947 -6.0164638
-34.008377 45.344498 -6.0164695
-34.008377 43.725052 -6.0164728
-34.008377 42.105621 -6.0164666
-34.008377 40.486164 -6.0164571
-34.008377 38.866718 -6.0164623
-34.008377 37.247272 -6.0164652
-34.008377 35.627823 -6.0164685
-34.008377 34.008377 -6.0164571
-34.008377 32.388931 -6.0164595
-34.008377 30.769482 -6.0164633
-34.008377 29.150038 -6.0164676
-34.008377 27.530596 -6.0164671
-34.008377 25.911142 -6.0164566
-34.008377 24.291695 -6.0164604
-34.008377 22.672247 -6.0164657
-34.008377 21.052809 -6.0164642
-34.008377 19.433361 -6.016468
-34.008526 17.813992 -6.015594
-34.008526 16.194538 -6.0156021
-34.008526 14.575082 -6.0155926
-34.008526 12.955629 -6.0156007
-34.008377 11.336127 -6.01647
-34.008377 9.7166719 -6.0164604
-34.008377 8.0972319 -6.0164599
-34.008377 6.4777851 -6.0164633
-34.008377 4.8583384 -6.0164676
-34.008377 3.2388985 -6.0164671
-34.008377 1.6194437 -6.0164576
-34.008377 -3.096199e-06 -6.0164614
-34.008377 -1.6194496 -6.0164652
-34.008976 -3.2389472 -6.0130105
-34.008976 -4.8584304 -6.013
-34.008976 -6.4779053 -6.0130029
-34.008976 -8.0973797 -6.0130057
-34.008976 -9.716855 -6.0130086
-33.129181 -11.04306 -11.0702
-33.129322 -12.620704 -11.069368
-33.129322 -14.198285 -11.069367
-33.129322 -15.775873 -11.06937
-33.129322 -17.353462 -11.069372
-33.129181 -18.930962 -11.070189
-33.129181 -20.508543 -11.070188
-33.129181 -22.086124 -11.070186
-32.85408 -23.467201 -12.651499
-32.661968 -24.885309 -13.75579
-32.732521 47.462151 -3.9427204
-32.732521 45.825531 -3.9427223
-32.732521 44.188896 -3.9427304
-32.732521 42.552269 -3.9427178
-32.732521 40.915649 -3.942718
-32.732521 39.27903 -3.9427183
-32.732521 37.642395 -3.942729
-32.732521 36.005772 -3.9427292
-32.732521 34.369144 -3.9427166
-32.732521 32.732517 -3.9427209
-32.732521 31.095896 -3.9427211
-32.732521 29.45927 -3.9427269
-32.732521 27.822641 -3.9427142
-32.732521 26.186012 -3.9427195
-32.732521 24.549385 -3.9427238
-32.732666 22.912861 -3.9418349
-32.732666 21.276234 -3.9418399
-32.732666 19.639593 -3.9418352
-32.732666 18.002964 -3.9418399
-32.732666 16.366339 -3.9418449
-32.732666 14.729695 -3.9418406
-32.732666 13.093068 -3.9418449
-32.732666 11.456433 -3.9418366
-32.732666 9.8197994 -3.9418459
-32.732666 8.1831636 -3.9418373
-32.732521 6.546504 -3.9427302
-32.732521 4.9098749 -3.9427176
-32.732521 3.2732477 -3.9427223
-32.732521 1.6366272 -3.942723
-32.732521 6.663052e-08 -3.9427278
-32.732521 -1.6366287 -3.9427154
-32.733395 -3.2733457 -3.9374211
-32.733395 -4.910008 -3.9374292
-32.733395 -6.5466785 -3.9374237
-32.733395 -8.1833553 -3.9374225
-32.733395 -9.8200178 -3.9374309
-31.372419 -10.980351 -12.151649
-31.372419 -12.548969 -12.151648
-31.372419 -14.117594 -12.151649
-31.372555 -15.686276 -12.150838
-31.372555 -17.25491 -12.150845
-31.372419 -18.823454 -12.151647
-31.372419 -20.392078 -12.151649
-31.372419 -21.960703 -12.15165
-31.288935 -23.466703 -12.65553
-30.929716 -24.743773 -14.823603
-31.429304 47.971039 -1.824504
-31.429304 46.316864 -1.8245164
-31.429304 44.662697 -1.824504
-31.429304 43.008522 -1.8245147
-31.429304 41.35434 -1.8245125
-31.429304 39.70018 -1.8245147
-31.429871 38.046688 -1.8209105
-31.429304 36.391815 -1.8245102
-31.429304 34.737652 -1.8245119
-31.429304 33.083473 -1.8245102
-31.429304 31.429304 -1.8245169
-31.429445 29.775267 -1.8236123
-31.429445 28.121082 -1.8236101
-31.429445 26.466902 -1.8236067
-31.429445 24.812717 -1.8236045
-31.429445 23.158537 -1.823602
-31.429445 21.504362 -1.8236127
-31.429445 19.85018 -1.8236102
-31.429445 18.195992 -1.823612
-31.429445 16.541809 -1.8236091
-31.429445 14.887626 -1.8236064
-31.429445 13.233443 -1.8236043
-31.429445 11.579269 -1.823615
-31.429445 9.925087 -1.8236119
-31.429445 8.2709045 -1.8236095
-31.429445 6.6167226 -1.8236067
-31.429445 4.9625401 -1.8236043
-31.429304 3.3083484 -1.8245124
-31.429304 1.6541725 -1.8245056
-31.429304 -1.5039307e-06 -1.8245164
-31.429304 -1.6541771 -1.8245096
-31.43058 -3.3084853 -1.8163865
-31.43058 -4.9627228 -1.8163995
-31.43058 -6.616962 -1.8163949
-31.43058 -8.2712069 -1.8163947
-31.43058 -9.9254465 -1.81639
-29.635498 -10.918342 -13.220901
-29.635498 -12.4781 -13.220907
-29.635498 -14.037867 -13.2209
-29.635498 -15.597632 -13.220893
-29.635624 -17.157471 -13.220098
-29.635498 -18.717165 -13.220897
-29.635498 -20.276922 -13.220903
-29.635498 -21.836691 -13.220898
-29.635498 -23.396448 -13.220903
-29.217056 -24.603842 -15.879335
-30.097975 48.491184 0.34053576
-30.097975 46.819077 0.34053513
-30.097975 45.146965 0.34053615
-30.097975 43.474854 0.34053713
-30.097975 41.802746 0.34054014
-30.097975 40.130634 0.34054112
-30.098524 38.459221 0.34422275
-30.097975 36.786411 0.34054148
-30.097975 35.114304 0.34054348
-30.097975 33.4422 0.3405315
-30.097975 31.77009 0.34053189
-30.097975 30.097979 0.34053367
-30.097975 28.425867 0.34053385
-30.097975 26.753757 0.34053585
-30.097975 25.081646 0.34053686
-30.097975 23.409536 0.34053802
-30.097975 21.737425 0.34053904
-30.097975 20.065315 0.3405402
-30.097975 18.393206 0.34054121
-30.097975 16.721094 0.3405427
-30.097975 15.048984 0.34054378
-30.097975 13.376882 0.34053099
-30.097975 11.704771 0.34053209
-30.097975 10.03266 0.34053317
-30.097975 8.3605499 0.34053466
-30.097975 6.6884394 0.34053552
-30.097975 5.0163288 0.3405368
-30.097975 3.3442187 0.34053788
-30.097975 1.6721081 0.34053901
-30.097975 -2.4150675e-06 0.34054008
-30.097837 -1.6721076 0.33962131
-30.099348 -3.3443768 0.3497535
-30.099348 -5.0165572 0.34974834
-30.099348 -6.688746 0.34975651
-30.099348 -8.3609266 0.34975147
-30.099485 -10.033162 0.35067248
-27.951107 -10.86988 -14.056677
-27.917965 -12.40799 -14.27893
-27.918083 -13.959045 -14.278136
-27.918083 -15.510045 -14.27814
-27.918083 -17.06105 -14.278148
-27.918083 -18.612059 -14.278137
-27.917965 -20.162971 -14.278936
-27.917965 -21.713972 -14.27894
-27.918083 -23.26507 -14.278137
-27.523659 -24.465475 -16.923203
-28.737326 47.332062 2.5521131
-28.737326 45.641636 2.5521138
-28.737326 43.95121 2.5521111
-28.737326 42.260769 2.5521038
-28.737326 40.570343 2.5521047
-28.737856 38.880634 2.5558717
-28.737326 37.18948 2.5521173
-28.737326 35.499043 2.5521092
-28.737326 33.808617 2.5521092
-28.737326 32.118187 2.552109
-28.737326 30.427761 2.552108
-28.737326 28.737329 2.5521047
-28.737326 27.046896 2.5521007
-28.737326 25.356461 2.5521135
-28.737326 23.666029 2.5521095
-28.737326 21.975601 2.5521092
-28.737326 20.285173 2.552109
-28.737326 18.594742 2.5521054
-28.737457 16.904385 2.5530529
-28.737457 15.213951 2.5530484
-28.737457 13.523502 2.5530536
-28.737326 11.833014 2.55211
-28.737326 10.142587 2.5521095
-28.737326 8.4521532 2.5521054
-28.737326 6.7617269 2.5521052
-28.737326 5.0712934 2.5521009
-28.737326 3.3808589 2.5521145
-28.737326 1.6904255 2.5521102
-28.737326 -9.2731727e-07 2.55211
-28.737326 -1.6904342 2.5521059
-28.73905 -3.3810623 2.5643525
-28.73905 -5.0716019 2.5643563
-28.73905 -6.7621269 2.5643508
-28.73905 -8.4526663 2.5643547
-28.73905 -10.143191 2.5643492
-26.400169 -10.870661 -14.043163
-26.219738 -12.338705 -15.324352
-26.219738 -13.881036 -15.324352
-26.219847 -15.423446 -15.323571
-26.219847 -16.965784 -15.323576
-26.219738 -18.508053 -15.32435
-26.219738 -20.05039 -15.324356
-26.219738 -21.592722 -15.324357
-26.219738 -23.135059 -15.324362
-25.849203 -24.328661 -17.955381
-27.346529 47.85643 4.812675
-27.346529 46.147266 4.8126721
-27.346529 44.438114 4.8126745
-27.346529 42.728962 4.8126793
-27.346657 41.019989 4.8136439
-27.347168 39.31155 4.8174849
-27.346529 37.601479 4.8126745
-27.346529 35.892326 4.8126793
-27.346529 34.183159 4.8126755
-27.346529 32.474007 4.8126793
-27.346529 30.764843 4.812675
-27.346529 29.055691 4.8126788
-27.346529 27.346533 4.8126788
-27.346529 25.637373 4.8126793
-27.346529 23.928213 4.8126788
-27.346657 22.219158 4.8136473
-27.346657 20.509993 4.8136435
-27.346657 18.800827 4.8136392
-27.346657 17.091661 4.8136353
-27.346657 15.382495 4.8136482
-27.346657 13.673329 4.8136444
-27.346657 11.964164 4.8136401
-27.346657 10.254997 4.8136358
-27.346529 8.5457907 4.8126826
-27.346529 6.8366318 4.8126826
-27.346529 5.1274734 4.8126826
-27.346529 3.4183145 4.8126826
-27.346529 1.7091556 4.8126826
-27.346529 -2.9997341e-06 4.8126826
-27.346529 -1.7091621 4.8126826
-27.348572 -3.4185746 4.8280911
-27.348572 -5.1278601 4.8280873
-27.348572 -6.8371453 4.8280826
-27.348572 -8.5464249 4.8280821
-27.348572 -10.255718 4.8280916
-24.84901 -10.871441 -14.02965
-24.540367 -12.270185 -16.358171
-24.540367 -13.803962 -16.358168
-24.540367 -15.337729 -16.358175
-24.540367 -16.871508 -16.35817
-24.540367 -18.405283 -16.358164
-24.540367 -19.939053 -16.358171
-24.540367 -21.47283 -16.358168
-24.540367 -23.006598 -16.358175
-24.193369 -24.193369 -18.976091
-25.924696 48.392765 7.1248913
-25.924696 46.664452 7.1248899
-25.924696 44.936138 7.1248865
-25.924696 43.207821 7.1248827
-25.924696 41.479507 7.1248813
-25.925184 39.751953 7.128818
-25.924696 38.022892 7.1248832
-25.924696 36.294579 7.1248808
-25.924696 34.566257 7.1248918
-25.924696 32.837944 7.1248884
-25.924696 31.109631 7.1248856
-25.924696 29.381317 7.1248832
-25.924696 27.653002 7.1248798
-25.924696 25.924694 7.1248808
-25.924696 24.196388 7.1248827
-25.924696 22.468073 7.1248798
-25.924696 20.73975 7.1248899
-25.924696 19.011438 7.1248875
-25.924696 17.283129 7.1248884
-25.924696 15.554816 7.1248865
-25.924696 13.826502 7.1248832
-25.924696 12.098195 7.1248846
-25.924696 10.36988 7.1248813
-25.924696 8.6415663 7.1248789
-25.924696 6.9132524 7.124876
-25.924696 5.184937 7.1248908
-25.924574 3.4566057 7.123899
-25.924574 1.7283052 7.1239047
-25.924574 -2.0416567e-06 7.1239057
-25.924574 -1.7283094 7.1239071
-25.926775 -3.4569023 7.1416235
-25.926775 -5.1853576 7.1416254
-25.926775 -6.9138055 7.1416144
-25.926775 -8.6422539 7.1416202
-25.926775 -10.370709 7.1416225
-23.297626 -10.87223 -14.016141
-22.879454 -12.202378 -17.381336
-22.879549 -13.727734 -17.380556
-22.879549 -15.253039 -17.38056
-22.879549 -16.778339 -17.38056
-22.879549 -18.303642 -17.380562
-22.879454 -19.828867 -17.381327
-22.879454 -21.354156 -17.381338
-22.879454 -22.87945 -17.381334
-22.555847 -24.059574 -19.985504
-24.470514 48.941029 9.4884996
-24.470514 47.193142 9.4884958
-24.470514 45.445236 9.4884958
-24.470514 43.69735 9.488492
-24.470631 41.949646 9.4895048
-24.471096 40.202518 9.4935331
-24.471563 38.455318 9.4975529
-24.470514 36.705776 9.488492
-24.470514 34.957867 9.488493
-24.470514 33.209984 9.4884901
-24.470514 31.462091 9.4884977
-24.470514 29.714205 9.4884939
-24.470514 27.966297 9.4884939
-24.470514 26.218412 9.4884892
-24.470514 24.47051 9.4884949
-24.470514 22.722618 9.4885044
-24.470514 20.974726 9.4884949
-24.470514 19.226826 9.4884996
-24.470514 17.478939 9.4884949
-24.470514 15.73104 9.4885006
-24.470514 13.983154 9.4884958
-24.470514 12.235253 9.4885006
-24.470514 10.487362 9.488493
-24.470514 8.7394676 9.4885015
-24.470514 6.9915757 9.488493
-24.470514 5.2436752 9.4884977
-24.470514 3.49579 9.488493
-24.470514 1.7478895 9.4884987
-24.470398 -4.5288321e-06 9.4874916
-24.470398 -1.7478833 9.4874916
-24.472851 -3.4961166 9.5086346
-24.472851 -5.2441788 9.5086327
-24.472851 -6.9922404 9.5086298
-24.472851 -8.7403107 9.5086412
-24.472851 -10.488366 9.5086422
-21.746017 -10.873011 -14.002627
-21.236881 -12.135366 -18.392488
-21.236881 -13.652278 -18.392494
-21.236881 -15.169206 -18.392488
-21.236971 -16.686193 -18.391729
-21.236881 -18.203045 -18.392488
-21.236881 -19.719957 -18.392494
-21.236881 -21.236887 -18.392488
-21.236881 -22.753799 -18.392494
-20.93634 -23.927256 -20.983809
-22.983004 47.733932 11.906279
-22.983004 45.966011 11.906281
-22.983004 44.19809 11.906282
-22.983116 42.430363 11.90731
-22.983559 40.663219 11.91143
-22.984003 38.896004 11.915543
-22.983004 37.126385 11.906281
-22.983004 35.358459 11.906281
-22.983004 33.590538 11.906282
-22.983004 31.822624 11.906271
-22.983004 30.054701 11.906272
-22.983004 28.286776 11.906273
-22.983004 26.518854 11.906275
-22.983004 24.750931 11.906276
-22.983004 22.983007 11.906278
-22.983004 21.215084 11.906279
-22.983004 19.447155 11.906276
-22.983004 17.679232 11.906278
-22.983116 15.911385 11.907305
-22.983116 14.143456 11.907303
-22.983004 12.375463 11.906281
-22.983004 10.607539 11.906283
-22.983004 8.8396168 11.906284
-22.983004 7.0716863 11.906281
-22.983004 5.3037634 11.906282
-22.983004 3.5358486 11.906271
-22.983004 1.7679255 11.906273
-22.983004 2.7064821e-06 11.906274
-22.983004 -1.7679205 11.906275
-22.985556 -3.5362456 11.929976
-22.985556 -5.3043585 11.929972
-22.985556 -7.0724797 11.92998
-22.985556 -8.8405991 11.929971
-22.985556 -10.608721 11.929979
-20.194189 -10.873794 -13.989096
-19.612255 -12.069079 -19.392607
-19.612255 -13.577721 -19.392595
-19.612255 -15.086354 -19.392599
-19.612255 -16.594988 -19.392601
-19.612255 -18.103619 -19.392603
-19.612255 -19.612253 -19.392605
-19.612255 -21.120893 -19.392593
-19.612255 -22.629528 -19.392595
-19.336121 -23.798306 -21.956627
-19.359392 -25.316132 -21.740534
-21.461008 48.287266 14.380114
-21.461008 46.498844 14.380115
-21.461008 44.71043 14.380116
-21.461218 42.92244 14.382229
-21.461637 41.1348 14.386441
-21.462055 39.347103 14.390655
-21.461008 37.556763 14.380107
-21.461008 35.768345 14.38011
-21.461008 33.979927 14.38011
-21.461008 32.191505 14.380111
-21.461008 30.40309 14.380113
-21.461008 28.61467 14.380114
-21.461008 26.82625 14.380115
-21.461008 25.037832 14.380116
-21.461113 23.249538 14.381172
-21.461113 21.461113 14.381168
-21.461113 19.672688 14.381166
-21.461113 17.884262 14.381163
-21.461113 16.095829 14.381173
-21.461113 14.307403 14.38117
-21.461113 12.518985 14.381171
-21.461113 10.73056 14.381169
-21.461008 8.9420815 14.380117
-21.461008 7.1536627 14.380118
-21.461008 5.3652501 14.380123
-21.461008 3.5768404 14.380112
-21.461008 1.7884215 14.380113
-21.461008 3.4514833e-06 14.380114
-21.461008 -1.7884151 14.380115
-21.463629 -3.5772707 14.406471
-21.463629 -5.3659072 14.406467
-21.463629 -7.1545372 14.406467
-21.463629 -8.943182 14.406476
-21.463629 -10.731818 14.406471
-18.642134 -10.874575 -13.975583
-18.005203 -12.003476 -20.382586
-18.005203 -13.503899 -20.382591
-18.00528 -15.004397 -20.381849
-18.00528 -16.504841 -20.381849
-18.00528 -18.00528 -20.381847
-18.005203 -19.505636 -20.382587
-18.005203 -21.006073 -20.382584
-18.005203 -22.506504 -20.382593
-17.765686 -23.687576 -22.791958
-17.751551 -25.148035 -22.934147
-19.90341 48.853828 16.913052
-19.90341 47.044426 16.913065
-19.90341 45.23502 16.913057
-19.903507 43.425835 16.914127
-19.903902 41.617256 16.918453
-19.904295 39.808594 16.922764
-19.90341 37.997425 16.913063
-19.90341 36.188015 16.913054
-19.90341 34.378624 16.913054
-19.90341 32.56921 16.913059
-19.90341 30.759815 16.913059
-19.90341 28.950409 16.913052
-19.90341 27.141014 16.913052
-19.90341 25.331614 16.913065
-19.90341 23.522207 16.913057
-19.90341 21.712814 16.913057
-19.90341 19.903412 16.913052
-19.90341 18.094004 16.913061
-19.90341 16.284605 16.913057
-19.90341 14.475211 16.913057
-19.90341 12.665811 16.913054
-19.90341 10.856402 16.913063
-19.90341 9.0470028 16.913059
-19.90341 7.2376022 16.913055
-19.903311 5.4281707 16.91198
-19.903311 3.6187844 16.911983
-19.903311 1.809391 16.911983
-19.903311 -1.9092863e-06 16.911983
-19.903311 -1.8093961 16.911983
-19.906065 -3.6192846 16.942198
-19.906065 -5.4289255 16.942194
-19.906065 -7.2385654 16.94219
-19.906065 -9.048213 16.942198
-19.711763 -10.751879 14.810006
-17.089853 -10.875364 -13.962057
-16.415598 -11.938621 -21.361134
-16.415598 -13.430946 -21.361139
-16.415598 -14.923276 -21.361128
-16.415665 -16.415667 -21.360399
-16.415665 -17.907993 -21.360405
-16.415598 -19.400255 -21.361128
-16.415598 -20.892584 -21.361134
-16.415598 -22.384909 -21.361139
-16.211557 -23.58045 -23.600229
-16.183035 -25.010143 -23.913219
-18.308735 47.602718 19.505037
-18.308735 45.771835 19.505032
-18.30892 43.94141 19.507248
-18.309284 42.111355 19.511669
-18.30965 40.281227 19.516083
-18.309925 38.450844 19.519396
-18.308735 36.617477 19.505041
-18.308735 34.786594 19.505035
-18.308735 32.955723 19.505037
-18.308735 31.124855 19.505041
-18.308735 29.29397 19.505035
-18.308735 27.4631 19.505039
-18.308735 25.632231 19.505041
-18.308735 23.801361 19.505045
-18.308735 21.970478 19.505039
-18.308735 20.139608 19.505041
-18.308735 18.308739 19.505045
-18.308735 16.477856 19.505039
-18.308735 14.646987 19.505043
-18.308735 12.81611 19.505041
-18.308735 10.985241 19.505045
-18.308735 9.1543636 19.505045
-18.308735 7.3234882 19.505043
-18.308735 5.4926186 19.505045
-18.308735 3.6617508 19.505032
-18.308735 1.8308741 19.505032
-18.308645 -2.234224e-06 19.503941
-18.308645 -1.8308638 19.503929
-18.31139 -3.6622825 19.537086
-18.31139 -5.493412 19.537077
-18.31139 -7.3245568 19.537077
-18.31139 -9.155694 19.537081
-17.922943 -10.75377 14.848111
-15.537352 -10.876153 -13.948529
-14.843077 -11.874465 -22.329166
-14.843077 -13.358774 -22.329166
-14.843077 -14.843082 -22.329165
-14.843077 -16.327391 -22.329163
-14.843077 -17.811697 -22.329161
-14.843077 -19.296 -22.329174
-14.843077 -20.780306 -22.329172
-14.843077 -22.264614 -22.32917
-14.693317 -23.50931 -24.136917
-14.632678 -24.875551 -24.868906
-16.675758 48.174412 22.159283
-16.675758 46.321548 22.159283
-16.675926 44.469147 22.161543
-16.676264 42.617123 22.166069
-16.676603 40.765034 22.170591
-16.676941 38.912865 22.175119
-16.675758 37.057243 22.159271
-16.675758 35.204384 22.159275
-16.675758 33.351524 22.159275
-16.675758 31.49865 22.159269
-16.675758 29.645792 22.159273
-16.675758 27.792931 22.159273
-16.675758 25.940071 22.159277
-16.675758 24.08721 22.159279
-16.675758 22.23435 22.159281
-16.675758 20.381477 22.159275
-16.675758 18.528616 22.159275
-16.675758 16.675756 22.159277
-16.676941 14.823943 22.175123
-16.675758 12.970037 22.159283
-16.675758 11.117169 22.159281
-16.675758 9.264308 22.159281
-16.675758 7.4114485 22.159283
-16.675758 5.5585818 22.159283
-16.675758 3.7057209 22.159283
-16.675758 1.8528612 22.159285
-16.675758 -6.0122088e-06 22.159283
-16.675758 -1.8528578 22.159273
-16.678457 -3.7063243 22.195494
-16.678457 -5.5594883 22.195496
-16.678457 -7.4126511 22.195494
-16.678457 -9.2658148 22.195494
-16.133492 -10.755663 14.886234
-13.984625 -10.876928 -13.935013
-13.287312 -11.810947 -23.287567
-13.287312 -13.287313 -23.287569
-13.287366 -14.763739 -23.28685
-13.287366 -16.24011 -23.286856
-13.287366 -17.716492 -23.286848
-13.287312 -19.192787 -23.287563
-13.287312 -20.669155 -23.287565
-13.287312 -22.145521 -23.287567
-13.223774 -23.508934 -24.139767
-13.098918 -24.742403 -25.814369
-15.003158 48.760262 24.879202
-15.003158 46.884872 24.879204
-15.00331 45.009933 24.881531
-15.003618 43.135399 24.886158
-15.003849 41.260578 24.889631
-15.004156 39.38591 24.894268
-15.003158 37.507889 24.879202
-15.003158 35.632507 24.879206
-15.003158 33.757107 24.879198
-15.003158 31.88171 24.879213
-15.003158 30.00631 24.879208
-15.003158 28.130922 24.87921
-15.003158 26.255522 24.879204
-15.003158 24.380135 24.879206
-15.003158 22.504734 24.879198
-15.003158 20.629347 24.8792
-15.003158 18.753939 24.879208
-15.003158 16.878551 24.87921
-15.003158 15.003151 24.879202
-15.003158 13.127764 24.879206
-15.003158 11.25237 24.879202
-15.00308 9.3769264 24.878044
-15.00308 7.5015397 24.878044
-15.00308 5.6261525 24.878046
-15.00308 3.7507656 24.878048
-15.00308 1.8753784 24.878052
-15.00308 1.3694785e-07 24.87804
-15.00308 -1.875387 24.878042
-15.00577 -3.7514412 24.918621
-15.00577 -5.6271596 24.918621
-15.00577 -7.5028849 24.918617
-15.00577 -9.3786039 24.918619
-14.343409 -10.757555 14.924356
-12.431674 -10.87771 -13.921481
-11.74815 -11.748152 -24.235058
-11.74815 -13.216669 -24.235064
-11.74815 -14.685192 -24.235058
-11.74815 -16.153709 -24.235064
-11.748197 -17.622295 -24.234358
-11.74815 -19.090742 -24.23506
-11.74815 -20.559259 -24.235065
-11.74815 -22.027782 -24.235058
-11.74815 -23.496298 -24.235064
-11.581491 -24.610672 -26.74976
-13.289306 47.461807 27.664906
-13.289443 45.563808 27.66729
-13.289719 43.666229 27.672041
-13.289994 41.768555 27.67679
-13.29027 39.870804 27.681545
-13.289306 37.969456 27.664911
-13.289306 36.070972 27.664911
-13.289306 34.172497 27.664919
-13.289306 32.274033 27.664913
-13.289306 30.375553 27.664915
-13.289306 28.477089 27.664907
-13.289306 26.578617 27.664915
-13.289306 24.68013 27.664915
-13.289306 22.78167 27.664911
-13.289306 20.883198 27.664919
-13.289306 18.98472 27.664906
-13.289306 17.08625 27.664913
-13.289306 15.187778 27.664921
-13.289306 13.289303 27.664907
-13.289306 11.39083 27.664917
-13.289306 9.492362 27.664906
-13.289306 7.5938892 27.664915
-13.289306 5.6954122 27.664919
-13.289237 3.7969286 27.663719
-13.289237 1.8984579 27.663727
-13.289237 1.530804e-06 27.663727
-13.289237 -1.8984611 27.663721
-13.291785 -3.7976592 27.707687
-13.291785 -5.6964812 27.707682
-13.291785 -7.5953126 27.707689
-13.291785 -9.4941359 27.707682
-12.552694 -10.759452 14.962514
-10.8785 -10.8785 -13.907955
-10.225267 -11.68602 -25.172527
-10.225267 -13.146771 -25.172535
-10.225267 -14.60753 -25.172529
-10.225267 -16.068275 -25.172533
-10.225267 -17.529034 -25.172527
-10.225267 -18.989784 -25.172535
-10.225267 -20.450537 -25.172525
-10.225267 -21.911287 -25.172533
-10.225267 -23.372046 -25.172527
-10.080135 -24.480326 -27.675241
-11.532749 48.053112 30.520033
-11.53293 46.131721 30.523695
-11.533172 44.210487 30.528561
-11.533354 42.28896 30.532209
-11.533596 40.367592 30.537086
-11.533838 38.446121 30.541954
-11.532749 36.520382 30.520031
-11.532749 34.598236 30.520033
-11.532749 32.676121 30.520033
-11.532749 30.754002 30.520031
-11.532749 28.831875 30.520044
-11.532749 26.909742 30.520033
-11.532749 24.987623 30.520031
-11.532749 23.065506 30.520031
-11.532749 21.143366 30.520035
-11.532749 19.221249 30.520035
-11.532749 17.299129 30.520033
-11.532749 15.376987 30.520037
-11.532749 13.454869 30.520035
-11.532749 11.53275 30.520033
-11.532749 9.6106253 30.520029
-11.532749 7.688499 30.520041
-11.532749 5.7663736 30.520035
-11.532749 3.8442485 30.520029
-11.532749 1.9221286 30.520029
-11.532688 -7.1024726e-07 30.51882
-11.532688 -1.9221191 30.51882
-11.53511 -3.8450394 30.56753
-11.53511 -5.7675533 30.567524
-11.53511 -7.6900749 30.567533
-11.53511 -9.612587 30.567528
-10.761349 -10.761348 15.000671
-9.3250608 -10.87924 -13.89521
-8.7183723 -11.624504 -26.10083
-8.7183723 -13.077568 -26.100832
-8.7183723 -14.530624 -26.10083
-8.7184076 -15.983751 -26.100132
-8.7184076 -17.436815 -26.100136
-8.7184076 -18.889885 -26.100142
-8.7183723 -20.342873 -26.100836
-8.7183723 -21.795937 -26.100838
-8.7183723 -23.248993 -26.100836
-8.5945988 -24.351362 -28.590977
-9.7318716 48.659351 33.447189
-9.7320261 46.713722 33.450935
-9.732233 44.768272 33.45594
-9.73244 42.822742 33.46093
-9.7326469 40.877117 33.465919
-9.7328539 38.931412 33.470913
-9.7318716 36.981113 33.447201
-9.7318716 35.034733 33.447197
-9.7318716 33.088356 33.447197
-9.7318716 31.141985 33.447201
-9.7318716 29.195608 33.447197
-9.7318716 27.249239 33.447205
-9.7318716 25.302868 33.447189
-9.7318716 23.356501 33.447193
-9.7318716 21.41012 33.447193
-9.7318716 19.463739 33.447189
-9.7318716 17.517374 33.447193
-9.7319221 15.571071 33.448441
-9.7318716 13.624627 33.447197
-9.7318716 11.678247 33.447193
-9.7318716 9.7318659 33.447193
-9.7318716 7.7854996 33.447197
-9.7318716 5.839119 33.447197
-9.7318716 3.8927455 33.447197
-9.7318716 1.9463723 33.447197
-9.7318716 -2.0411317e-06 33.447201
-9.7318716 -1.9463753 33.447201
-9.7340441 -3.8936119 33.499641
-9.7340441 -5.8404303 33.499645
-9.7340441 -7.7872334 33.499641
-9.7340441 -9.734045 33.499649
-8.9693718 -10.763246 15.038847
-7.7714453 -10.880024 -13.88168
-7.2272902 -11.563663 -27.01873
-7.2272902 -13.009125 -27.018724
-7.2272902 -14.454578 -27.018732
-7.2272902 -15.90004 -27.018726
-7.2272902 -17.345501 -27.018719
-7.2272902 -18.790955 -27.018726
-7.2272902 -20.236416 -27.018721
-7.2272902 -21.68187 -27.018728
-7.2272902 -23.127331 -27.018723
-7.1246328 -24.223755 -29.497101
-7.8851428 47.31086 36.454285
-7.8852701 45.340302 36.458115
-7.8854399 43.369923 36.463242
-7.8856096 41.399456 36.468369
-7.8857794 39.42889 36.473492
-7.8850155 37.453827 36.450443
-7.8850155 35.482578 36.450432
-7.8850155 33.511322 36.450436
-7.8850155 31.540068 36.450443
-7.8850155 29.568811 36.450447
-7.8850155 27.597561 36.450436
-7.8850155 25.626305 36.450439
-7.8850155 23.655052 36.450447
-7.8850155 21.683802 36.450436
-7.8850155 19.712545 36.450439
-7.8850155 17.741276 36.450436
-7.8850155 15.770022 36.450439
-7.8850155 13.798773 36.450432
-7.8850155 11.827517 36.450436
-7.884973 9.8562202 36.449158
-7.884973 7.8849735 36.44915
-7.884973 5.9137244 36.449162
-7.884973 3.9424896 36.449158
-7.884973 1.971249 36.449154
-7.884973 2.2432391e-07 36.449162
-7.884973 -1.9712422 36.449154
-7.8868408 -3.9434185 36.505516
-7.8868408 -5.915132 36.505516
-7.8868408 -7.8868403 36.50552
-7.8868408 -9.8585482 36.505524
-7.1767983 -10.765198 15.078096
-6.2176046 -10.880816 -13.868136
-5.7517328 -11.503469 -27.927059
-5.7517328 -12.941405 -27.927053
-5.7517328 -14.379333 -27.927063
-5.7517328 -15.817267 -27.927059
-5.7517328 -17.255205 -27.927057
-5.7517328 -18.693132 -27.927065
-5.7517328 -20.131067 -27.927061
-5.7517328 -21.569004 -27.927057
-5.7517328 -23.006931 -27.927065
-5.6699929 -24.097466 -30.393791
-5.3835483 -10.767097 15.116287
-4.6635394 -10.881598 -13.854605
-4.2914424 -11.44385 -28.826658
-4.2914424 -12.87433 -28.826662
-4.2914424 -14.304803 -28.826662
-4.2914591 -15.735352 -28.825989
-4.2914591 -17.16584 -28.825979
-4.2914591 -18.596319 -28.825983
-4.2914424 -20.026726 -28.826662
-4.2914424 -21.457216 -28.826653
-4.2914424 -22.887697 -28.826658
-4.2304401 -23.972496 -31.281179
-4.2387309 -25.432388 -30.947596
-3.5896652 -10.769 15.154516
-3.1092508 -10.882382 -13.841057
-2.8462212 -11.384886 -29.716322
-2.8462212 -12.807996 -29.716314
-2.8462212 -14.231105 -29.716326
-2.8462212 -15.654217 -29.716318
-2.8462212 -17.077328 -29.716309
-2.8462212 -18.500439 -29.716318
-2.8462212 -19.923548 -29.716311
-2.8462212 -21.346659 -29.71632
-2.8462212 -22.76977 -29.716312
-2.8057857 -23.849178 -32.156811
-2.8075385 -25.267851 -32.05101
-1.7951493 -10.770902 15.192743
-1.5547376 -10.883164 -13.827525
-1.4158159 -11.326526 -30.596853
-1.4158159 -12.742352 -30.596848
-1.4158159 -14.158162 -30.596851
-1.4158159 -15.573974 -30.596855
-1.4158159 -16.989799 -30.596851
-1.4158159 -18.405609 -30.596853
-1.4158159 -19.821421 -30.596859
-1.4158159 -21.237246 -30.596851
-1.4158159 -22.653055 -30.596855
-1.396735 -23.744501 -32.900124
-1.3956705 -25.12207 -33.028622
-2.1867969e-23 -10.772798 15.230974
3.2808072e-23 -10.883949 -13.813978
-5.265697e-24 -11.268721 -31.469063
2.6434887e-23 -12.677318 -31.469059
-1.9921202e-23 -14.085905 -31.469069
1.1779381e-23 -15.494494 -31.469059
9.4039604e-24 -16.903149 -31.468407
3.4487099e-23 -18.311747 -31.468401
2.2207015e-23 -19.720268 -31.469053
-9.593937e-24 -21.128857 -31.469063
7.5046206e-23 -22.537453 -31.469057
1.5656693e-23 -23.641003 -33.635029
1.4401292e-23 -24.993776 -33.888954
1.795783 -10.774703 15.269238
1.554962 -10.884733 -13.800429
1.4014435 -11.211545 -32.331768
1.4014435 -12.612998 -32.33176
1.4014435 -14.014436 -32.33176
1.4014435 -15.415878 -32.331768
1.4014435 -16.817324 -32.331757
1.4014435 -18.218765 -32.331764
1.4014435 -19.620203 -32.331764
1.4014435 -21.021656 -32.33176
1.4014435 -22.4231 -32.331764
1.3850985 -23.54668 -34.304768
1.3814884 -24.866796 -34.740555
3.5922003 -10.776602 15.307505
3.1101487 -10.885517 -13.78688
2.7887375 -11.154952 -33.185764
2.7887375 -12.549323 -33.185757
2.7887375 -13.943686 -33.185764
2.7887375 -15.338057 -33.185757
2.7887375 -16.732426 -33.185768
2.7887375 -18.126797 -33.18576
2.7887375 -19.521168 -33.185753
2.7887375 -20.915531 -33.185757
2.7887375 -22.30991 -33.185753
2.770155 -23.546324 -34.307301
2.7490098 -24.741096 -35.583527
5.3892512 -10.778502 15.345788
4.6655593 -10.886302 -13.773333
4.1620951 -11.09892 -34.031174
4.1620951 -12.486287 -34.031174
4.1620951 -13.873653 -34.031178
4.1620951 -15.261013 -34.031178
4.1620951 -16.64838 -34.031181
4.1620951 -18.035748 -34.031166
4.1620951 -19.423117 -34.03117
4.1620951 -20.810482 -34.03117
4.1620951 -22.197844 -34.03117
4.15517 -23.545963 -34.30983
4.1027751 -24.616648 -36.418037
5.5205398 48.304726 -34.903927
5.5205398 46.924587 -34.903931
5.5205398 45.544453 -34.903923
5.5205398 44.164314 -34.903927
5.5205398 42.784184 -34.903927
5.5205398 41.404049 -34.903931
5.5205398 40.023918 -34.903931
5.5205398 38.643776 -34.903927
5.5205398 37.263645 -34.903923
5.5205398 35.883507 -34.903927
5.5205398 34.503376 -34.903927
5.5205398 33.123238 -34.903931
5.5205398 31.743103 -34.903923
5.5205398 30.362967 -34.903927
5.5205398 28.982836 -34.903927
5.5205398 27.602697 -34.903931
5.5205607 26.22266 -34.903301
5.5205607 24.842522 -34.903305
5.5205607 23.462381 -34.903301
5.5205607 22.082243 -34.903305
5.5205607 20.702101 -34.903301
5.5205607 19.32196 -34.903301
5.5205607 17.941822 -34.903301
5.5205607 16.561686 -34.903305
5.5205607 15.181538 -34.903294
5.5205607 13.8014 -34.903297
5.5205607 12.421263 -34.903301
5.5205607 11.041124 -34.903305
5.5205607 9.6609793 -34.903294
5.5205607 8.2808352 -34.903301
5.5205607 6.9006977 -34.903305
5.5205607 5.5205517 -34.903294
5.5205607 4.1404152 -34.903301
5.5205607 2.7602777 -34.903305
5.5205607 1.3801402 -34.903309
5.5205607 -6.4565479e-06 -34.903297
5.5205607 -1.380144 -34.903297
5.5205607 -2.7602806 -34.903305
5.5205607 -4.1404181 -34.903309
5.5205607 -5.520565 -34.903297
5.5205607 -6.9007025 -34.903301
5.5205607 -8.2808399 -34.903305
5.5205607 -9.6609859 -34.903294
5.5205607 -11.041121 -34.903297
5.5205607 -12.421259 -34.903301
5.5205607 -13.801396 -34.903301
5.5205607 -15.18155 -34.903297
5.5205607 -16.561686 -34.903301
5.5205607 -17.941826 -34.903305
5.5205607 -19.321962 -34.903309
5.5205607 -20.702108 -34.903297
5.5205607 -22.082245 -34.903301
5.5217047 -23.467247 -34.868771
5.4429903 -24.493456 -37.24419
6.8663144 48.064201 -35.733463
6.8663144 46.690941 -35.733463
6.8663144 45.317677 -35.733456
6.8663144 43.944412 -35.733456
6.8663144 42.571152 -35.733456
6.8663144 41.197884 -35.733463
6.8663144 39.824623 -35.733463
