# .PCD v0.7 - Point Cloud Data file format
VERSION 0.7
FIELDS x y z
SIZE 4 4 4
TYPE F F F
COUNT 1 1 1
WIDTH 1512
HEIGHT 1
VIEWPOINT 0 0 0 1 0 0 0
POINTS 1512
DATA ascii
-13.959122 15.122384 19.6036
-13.804415 13.804418 18.04738
-13.651972 12.514309 16.513918
-13.499271 11.249393 14.977868
-13.350961 10.013222 13.485975
-13.205938 8.803957 12.027171
-13.064034 7.6206899 10.599718
-12.92521 6.462604 9.2032547
-12.789244 5.3288503 7.8355374
-12.656168 4.2187204 6.4969044
-12.525774 3.1314471 5.1852379
-12.39804 2.0663397 3.9003351
-12.272942 1.0227488 2.6419373
-12.150287 -1.3039388e-06 1.4081292
-12.030113 -1.0025073 0.19927458
-11.912241 -1.9853737 -0.98643208
-11.796655 -2.9491646 -2.1491284
-11.683291 -3.8944309 -3.2894769
-11.572036 -4.8216786 -4.4086337
-11.462878 -5.7314396 -5.5066724
-11.35576 -6.6241941 -6.5841894
-11.250674 -7.5004473 -7.6412745
-11.147469 -8.3606005 -8.6794415
-11.046139 -9.2051163 -9.6987438
-10.946635 -10.034416 -10.699673
-10.848952 -10.848951 -11.682288
-10.786055 -11.684891 -12.314988
-10.765836 -12.560142 -12.518373
-13.366375 21.872252 25.864243
-13.205947 20.409187 24.103752
-13.04862 18.979811 22.377291
-12.895753 17.585119 20.69978
-12.750319 16.227674 19.103834
-12.609179 14.901761 17.555002
-12.471515 13.605286 16.044319
-12.332553 12.332557 14.519388
-12.197083 11.088255 13.032771
-12.065097 9.8714457 11.58441
-11.935878 8.6806402 10.166405
-11.809456 7.5151076 8.7790909
-11.685628 6.37398 7.4202342
-11.564369 5.2565298 6.0895739
-11.445655 4.1620574 4.7868438
-11.329301 3.0898137 3.5100052
-11.215341 2.0391536 2.2594364
-11.103599 1.009419 1.0332208
-10.994061 1.7448521e-06 -0.16880645
-10.886714 -0.98970234 -1.3468077
-10.781345 -1.9602443 -2.5030882
-10.678045 -2.9121912 -3.6366775
-10.576659 -3.8460555 -4.749258
-10.47718 -4.7623529 -5.8409142
-10.379554 -5.6615772 -6.9122186
-10.283776 -6.5442209 -7.9632645
-10.189706 -7.4106941 -8.9955702
-10.097341 -8.2614574 -10.009154
-10.006635 -9.0969419 -11.004529
-9.9175854 -9.9175873 -11.98173
-9.8300667 -10.723705 -12.942139
-9.7696304 -11.545925 -13.60535
-9.7503166 -12.409494 -13.817287
-11.988539 21.579372 23.900145
-11.82098 20.095671 21.877542
-11.682353 18.691763 20.20417
-11.550454 17.325682 18.612
-11.422448 15.991432 17.066826
-11.298118 14.687555 15.56602
-11.173685 13.40842 14.06399
-11.05102 12.156121 12.583295
-10.931833 10.931834 11.144586
-10.815137 9.7336226 9.7359438
-10.700906 8.5607262 8.3570528
-10.589114 7.4123826 7.0075989
-10.479584 6.2877512 5.6854529
-10.372344 5.1861725 4.3909616
-10.26723 4.106895 3.1221178
-10.164225 3.0492651 1.8787397
-10.063313 2.0126629 0.66061044
-9.9643383 0.99643099 -0.53410774
-9.8672924 -2.4276112e-06 -1.7055577
-9.7721186 -0.9772085 -2.854414
-9.6787205 -1.93574 -3.9818285
-9.5870905 -2.8761275 -5.0878963
-9.497179 -3.798872 -6.1732154
-9.4089794 -4.7044897 -7.2378826
-9.3223639 -5.5934196 -8.2834358
-9.2373276 -6.4661283 -9.3099165
-9.1538286 -7.3230615 -10.317836
-9.0718632 -8.1646767 -11.307243
-8.9913158 -8.9913149 -12.279535
-8.9121866 -9.8034067 -13.234713
-8.8345795 -10.601496 -14.171515
-8.7779379 -11.411317 -14.855243
-8.759985 -12.263981 -15.071949
-10.647115 21.294233 21.987957
-10.477978 19.791735 19.71944
-10.359049 18.416094 18.124336
-10.244326 17.073875 16.585627
-10.132945 15.762362 15.091755
-10.022591 14.477077 13.61165
-9.9128275 13.217106 12.139488
-9.8060265 11.985147 10.707036
-9.7017393 10.779708 9.3083
-9.5996008 9.5995998 7.9383826
-9.499589 8.4440813 6.5970025
-9.4016857 7.3124242 5.2838888
-9.3057356 6.203824 3.996978
-9.2117672 5.1176491 2.7366462
-9.1196356 4.0531716 1.500945
-9.0293283 3.0097785 0.28971782
-8.9408321 1.9868495 -0.89720815
-8.8539753 0.98377663 -2.0621622
-8.7688284 1.7869332e-06 -3.204179
-8.6852655 -0.9650256 -4.3249536
-8.6032801 -1.9118415 -5.4245615
-8.5228281 -2.8409424 -6.5036092
-8.443903 -3.7528467 -7.5621729
-8.3663902 -4.6479969 -8.6017914
-8.2902889 -5.5268602 -9.6224985
-8.215559 -6.3898787 -10.6248
-8.1421976 -7.2375069 -11.608744
-8.0701017 -8.0701008 -12.575717
-7.9992714 -8.8880787 -13.525708
-7.9297051 -9.6918612 -14.458748
-7.8615885 -10.482118 -15.372351
-7.8092241 -11.27999 -16.074677
-7.7925782 -12.121787 -16.297941
-9.3406792 21.016529 20.125637
-9.1759014 19.498787 17.639351
-9.0746326 18.149265 16.111311
-8.9758482 16.829718 14.620776
-8.8791914 15.538586 13.16233
-8.7822723 14.271195 11.699944
-8.6877041 13.031552 10.27301
-8.5955696 11.818909 8.8828182
-8.5054102 10.631763 7.5224123
-8.4170818 9.4692173 6.1896429
-8.3306093 8.3306065 4.884872
-8.2458563 7.2151251 3.606051
-8.1628103 6.1221094 2.3529897
-8.0814581 5.0509081 1.1254748
-8.0016747 4.0008416 -0.078367174
-7.9234519 2.9712949 -1.2586617
-7.8467078 1.9616787 -2.4166384
-7.7714705 0.97143388 -3.551877
-7.6976295 6.0256133e-07 -4.6660666
-7.6251779 -0.95314509 -5.7592759
-7.5540767 -1.8885177 -6.8320994
-7.4843216 -2.8066227 -7.8846173
-7.415812 -3.7079079 -8.9183493
-7.3485451 -4.5928416 -9.9333305
-7.2825179 -5.4618883 -10.929612
-7.2176371 -6.3154325 -11.908589
-7.1539016 -7.1538997 -12.870278
-7.0913105 -7.9777212 -13.814704
-7.0297775 -8.7872248 -14.743165
-6.9694133 -9.5829411 -15.653994
-6.9102669 -10.365402 -16.54644
-6.8625817 -11.151699 -17.265953
-6.8478532 -11.983742 -17.488195
-8.067709 20.745544 18.308357
-7.9130273 19.217352 15.640951
-7.8269024 17.890066 14.155788
-7.7433324 16.592852 12.71467
-7.6591673 15.318335 11.263297
-7.5767374 14.071083 9.8418484
-7.4966469 12.851393 8.4607315
-7.4182673 11.657276 7.1091261
-7.341475 10.48782 5.7848816
-7.2662559 9.3423271 4.4877787
-7.1925964 8.2201109 3.2175581
-7.1203818 7.1203866 1.972271
-7.0496354 6.0425444 0.75229478
-6.9802499 4.9858913 -0.44421992
-6.9121857 3.9498215 -1.6179465
-6.8454661 2.9337726 -2.7684779
-6.7799926 1.9371408 -3.8975308
-6.7157598 0.95939529 -5.0051885
-6.6527324 -3.6959216e-06 -6.092051
-6.5909057 -0.94155926 -7.1582189
-6.5301895 -1.8657695 -8.2052317
-6.4705815 -2.7731042 -9.2331352
-6.4120522 -3.6640267 -10.242438
-6.3545985 -4.5389986 -11.233193
-6.2981391 -5.3984036 -12.206791
-6.2426748 -6.2426763 -13.163244
-6.1882033 -7.0722356 -14.102571
-6.1346498 -7.8874092 -15.026067
-6.0820155 -8.6885929 -15.933715
-6.0305123 -9.4765167 -16.821857
-5.9798975 -10.25125 -17.694679
-5.9372764 -11.026368 -18.429657
-5.9248815 -11.849763 -18.643391
-6.8171086 20.451328 16.33532
-6.6860557 18.943827 13.698748
-6.6145086 17.638691 12.259328
-6.5434389 16.358597 10.829514
-6.4732461 15.10424 9.4173374
-6.4048538 13.877182 8.0413885
-6.3380733 12.67615 6.6978731
-6.2727017 11.499954 5.3826933
-6.2086349 10.347726 4.0937696
-6.1458926 9.2188406 2.8314922
-6.0843773 8.112504 1.5939051
-6.0240812 7.0280948 0.38084677
-5.9649692 5.9649696 -0.80840212
-5.9069791 4.9224811 -1.9750746
-5.8501315 3.9000916 -3.1187587
-5.7943425 2.8971694 -4.2411442
-5.7396073 1.9132024 -5.3423362
-5.6858969 0.9476496 -6.4229136
-5.6332059 1.5947999e-06 -7.4829683
-5.5814586 -0.93024343 -8.5240326
-5.5306544 -1.8435477 -9.5461473
-5.4807892 -2.7403958 -10.549356
-5.4317923 -3.6211956 -11.5351
-5.3836637 -4.4863887 -12.503363
-5.3364019 -5.3364043 -13.454188
-5.2899423 -6.1715989 -14.388893
-5.2442842 -6.9923797 -15.307466
-5.1994286 -7.7991424 -16.209904
-5.1554132 -8.5923567 -17.095411
-5.1122365 -9.3724346 -17.964067
-5.0697966 -10.139591 -18.8179
-5.0352802 -10.909774 -19.512302
-5.0250707 -11.725163 -19.717701
-5.601512 20.165451 14.418148
-5.4935222 18.67798 11.811048
-5.4350162 17.392054 10.398572
-5.3769021 16.130707 8.9955835
-5.3201208 14.896338 7.6247492
-5.2648277 13.688555 6.2898698
-5.2106729 12.505613 4.9824524
-5.1576447 11.346822 3.7022357
-5.1056614 10.211323 2.4472473
-5.054738 9.0985279 1.2178664
-5.0047984 8.0076761 0.012213756
-4.9558139 6.9381394 -1.1703871
-4.9077783 5.8893309 -2.3300664
-4.8606868 4.8606868 -3.4669616
-4.8144689 3.8515739 -4.5827513
-4.7691221 2.8614743 -5.6775222
-4.7246418 1.8898592 -6.7513795
-4.6809635 0.93619365 -7.8058643
-4.6380854 3.3433794e-06 -8.8410349
-4.596005 -0.91920239 -9.8569412
-4.5546622 -1.821865 -10.855042
-4.5140567 -2.7084327 -11.835351
-4.4741869 -3.5793493 -12.797882
-4.4349976 -4.4349995 -13.743999
-4.3964891 -5.2757845 -14.673692
-4.3586602 -6.1021228 -15.586952
-4.3214602 -6.9143348 -16.485044
-4.2848897 -7.7128038 -17.367929
-4.2491131 -8.4982281 -18.231653
-4.2139292 -9.2706451 -19.081066
-4.1793075 -10.030339 -19.916912
-4.1521769 -10.795662 -20.571907
-4.1447659 -11.605346 -20.750818
-4.4194098 19.887348 12.553172
-4.3338261 18.41876 9.9704514
-4.2876358 17.150547 8.5765476
-4.2424202 15.909082 7.2120395
-4.1984286 14.694501 5.8844676
-4.1553788 13.504983 4.5853386
-4.1132221 12.339668 3.3131547
-4.0718937 11.19771 2.0659499
-4.0313878 10.078471 0.84356397
-3.9916794 8.9812813 -0.35474074
-3.9527278 7.9054585 -1.5302055
-3.9145467 6.8504572 -2.6824243
-3.8770788 5.8156195 -3.8131137
-3.8403215 4.8004055 -4.9223633
-3.8042548 3.8042555 -6.0107741
-3.7688751 2.8266568 -7.0784516
-3.7341316 1.8670648 -8.1269207
-3.7000232 0.92500526 -9.1562405
-3.6665471 1.2900039e-06 -10.166473
-3.6336563 -0.90841275 -11.15904
-3.6013508 -1.8006729 -12.133953
-3.5696287 -2.6772211 -13.091242
-3.5384462 -3.53845 -14.032249
-3.5078044 -4.3847537 -14.956961
-3.4777021 -5.2165537 -15.865374
-3.4480984 -6.0341725 -16.758739
-3.4189947 -6.8379869 -17.637026
-3.3904564 -7.6285291 -18.49824
-3.3624547 -8.4061375 -19.343269
-3.3349121 -9.1710091 -20.174448
-3.3078043 -9.9234133 -20.992491
-3.2878835 -10.685623 -21.593653
-3.2822711 -11.487947 -21.763033
-3.2685299 19.611183 10.701171
-3.2053797 18.163818 8.1602011
-3.1716847 16.915648 6.8044229
-3.1388102 15.694051 5.4816499
-3.1067269 14.498062 4.1907191
-3.0752928 13.326273 2.9259102
-3.0445027 12.178013 1.6870083
-3.0143089 11.052469 0.47211304
-2.984695 9.9489832 -0.7194612
-2.9556572 8.8669682 -1.8878533
-2.9271917 7.8058467 -3.0332115
-2.8992569 6.7649331 -4.1572227
-2.8718503 5.7437 -5.2599926
-2.8449688 4.7416124 -6.3416066
-2.8185744 3.7581003 -7.4036489
-2.7926648 2.7926636 -8.4461632
-2.7672389 1.8448256 -9.4692221
-2.7422605 0.91408479 -10.474277
-2.7177291 3.7822292e-06 -11.461355
-2.6936436 -0.89788294 -12.430477
-2.66997 -1.7799809 -13.383017
-2.6467094 -2.6467068 -14.318953
-2.6238611 -3.4984841 -15.238301
-2.6013932 -4.3356557 -16.14233
-2.5793071 -5.1586161 -17.031008
-2.5576029 -5.9677415 -17.904316
-2.5362513 -6.7633371 -18.763451
-2.5153582 -7.5460782 -19.604116
-2.4948068 -8.3160219 -20.431047
-2.4745884 -9.0734882 -21.244574
-2.4546402 -9.8185625 -22.047222
-2.4411852 -10.578473 -22.588602
-2.4370508 -11.372902 -22.754969
-2.1429937 19.286942 8.5267906
-2.1077456 17.915842 6.399395
-2.0858982 16.687189 5.0807843
-2.0646541 15.48491 3.7985749
-2.0438285 14.306801 2.5416579
-2.0234284 13.152286 1.3103889
-2.0034132 12.020484 0.10236895
-1.9837902 10.910844 -1.0819865
-1.9645478 9.8227377 -2.2433677
-1.9456836 8.7555799 -3.3819227
-1.9271699 7.7086821 -4.4993219
-1.9090053 6.6815181 -5.5956569
-1.8911879 5.6735644 -6.6710296
-1.8736922 4.6842265 -7.726995
-1.856517 3.7130337 -8.7635984
-1.8396616 2.7594926 -9.7809134
-1.823102 1.8231063 -10.780379
-1.8068378 0.90342093 -11.762009
-1.7908685 3.7530529e-06 -12.725838
-1.775172 -0.8875885 -13.673203
-1.7597482 -1.7597488 -14.604118
-1.744597 -2.6168978 -15.518574
-1.7296976 -3.4593971 -16.417828
-1.7150507 -4.2876258 -17.301857
-1.7006562 -5.1019678 -18.170633
-1.6864951 -5.9027319 -19.025347
-1.6726121 -6.6904478 -19.863251
-1.6589745 -7.4653897 -20.686344
-1.6455637 -8.2278175 -21.495754
-1.6323681 -8.9780254 -22.292185
-1.6192693 -9.7156143 -23.082771
-1.6114055 -10.474133 -23.5574
-1.6085973 -11.260185 -23.726879
-1.0539889 18.971804 6.4133964
-1.0396788 17.67454 4.6860094
-1.0290987 16.465584 3.408886
-1.0187508 15.281265 2.1597738
-1.0086088 14.120524 0.93553412
-0.99866217 12.982607 -0.26512244
-0.98890996 11.86692 -1.442327
-0.97935063 10.772854 -2.5962372
-0.96997005 9.6997042 -3.7285731
-0.96076757 8.6469088 -4.8394179
-0.95174205 7.6139369 -5.9288874
-0.94288057 6.6001658 -6.9985652
-0.93418258 5.6050954 -8.0485058
-0.9256475 4.6282411 -9.0787859
-0.91726315 3.6690521 -10.090869
-0.90902925 2.7270858 -11.084782
-0.9009456 1.8018922 -12.06057
-0.89300078 0.89299983 -13.01958
-0.88519496 5.470896e-07 -13.961843
-0.87752783 -0.87752831 -14.88734
-0.86998898 -1.7399782 -15.797358
-0.86257857 -2.5877368 -16.691881
-0.85529661 -3.4211829 -17.570889
-0.84813327 -4.2406673 -18.435574
-0.84108901 -5.0465331 -19.285892
-0.83416706 -5.8391681 -20.121443
-0.8273862 -6.6190886 -20.939978
-0.82071149 -7.3864021 -21.74567
-0.81414676 -8.141468 -22.538113
-0.80764765 -8.8841228 -23.322628
-0.80123389 -9.6148071 -24.096827
-0.79783374 -10.37184 -24.507261
-0.79640222 -11.149631 -24.680067
-1.0433847e-23 18.673122 4.4104309
-2.0622949e-23 17.44006 3.0210488
-1.5239527e-23 16.249706 1.7802503
1.2533417e-23 15.082833 0.56296355
-1.8781574e-23 13.938911 -0.63039351
-2.9816055e-24 12.81731 -1.7999772
-1.5627499e-23 11.717283 -2.9475377
-4.7964273e-24 10.638266 -4.0731788
-1.9098857e-23 9.5797081 -5.1770287
1.0001783e-23 8.5409384 -6.2606812
1.4686607e-23 7.5214634 -7.3242178
7.1737717e-24 6.5207667 -8.367713
1.0312905e-24 5.538281 -9.392662
-1.4699946e-23 4.5735459 -10.399093
-3.4422867e-23 3.6260855 -11.38751
-8.8713436e-24 2.6954491 -12.35794
-1.3596791e-24 1.7811611 -13.311738
-7.607407e-24 0.88281447 -14.248914
-1.0099172e-23 -6.5818995e-09 -15.169477
-3.4234828e-24 -0.86769247 -16.074677
-1.4414832e-23 -1.7206398 -16.964495
1.6127176e-23 -2.5592306 -17.838923
-3.4130212e-23 -3.3837974 -18.699146
-2.7946133e-23 -4.1947064 -19.545113
-1.4049187e-24 -4.992311 -20.376797
-2.0776435e-24 -5.7770491 -21.192692
-3.7812019e-23 -6.5492325 -21.993971
3.6632429e-24 -7.3091025 -22.782455
-2.0362661e-24 -8.0567341 -23.560957
-2.6979295e-24 -8.7921638 -24.331739
-2.3783402e-23 -9.5160332 -25.090406
-2.3145444e-23 -10.271517 -25.438763
-9.2096671e-24 -11.041231 -25.614714
1.0227023 18.408646 2.6367753
1.0124773 17.212114 1.4025015
1.0024546 16.039274 0.19266959
0.99262857 14.889424 -0.99345046
0.9829976 13.761965 -2.1560123
0.97354734 12.656116 -3.2967589
0.96427709 11.571324 -4.4157696
0.95518595 10.507049 -5.5131764
0.94626045 9.4626017 -6.5905704
0.9375003 8.4375067 -7.6480227
0.92890471 7.4312363 -8.6855965
0.92046148 6.4432278 -9.7047787
0.91217035 5.4730234 -10.705611
0.90403104 4.520155 -11.688115
0.89603204 3.5841284 -12.653684
0.88817328 2.6645205 -13.602324
0.88045466 1.7609078 -14.534031
0.87286568 0.8728683 -15.450109
0.86540633 1.7091734e-06 -16.350527
0.85807687 -0.85807842 -17.235281
0.85086709 -1.7017362 -18.105572
0.84377748 -2.5313315 -18.961367
0.83680826 -3.3472311 -19.802626
0.82995009 -4.1497507 -20.630478
0.82320952 -4.9392562 -21.444138
0.81660485 -5.7162333 -22.241386
0.81010538 -6.4808431 -23.025953
0.80370551 -7.2333517 -23.798477
0.79735118 -7.9735131 -24.565514
0.79109931 -8.7020912 -25.320177
0.78494197 -9.4193048 -26.063438
0.78254533 -10.173086 -26.352743
0.78106827 -10.934956 -26.531036
2.0187249 18.168526 1.0265181
1.9988114 16.989897 -0.17537948
1.9792868 15.834297 -1.3537906
1.9601313 14.700988 -2.5099332
1.9413428 13.589399 -3.6439054
1.9229198 12.49898 -4.7558498
1.9048347 11.429007 -5.8473773
1.8870866 10.378976 -6.9185653
1.8696741 9.3483725 -7.9695015
1.8525723 8.3365784 -9.0016851
1.8357806 7.3431211 -10.015159
1.8192979 6.3675461 -11.009975
1.8031013 5.4093046 -11.987531
1.7871904 4.467979 -12.947829
1.7715652 3.5431337 -13.890904
1.7562037 2.6343021 -14.818047
1.7411064 1.7411048 -15.729253
1.7262731 0.86313593 -16.624523
1.7116838 -2.2766835e-07 -17.505066
1.6973391 -0.84866732 -18.37085
1.6832391 -1.6832404 -19.221851
1.6693652 -2.5040474 -20.059217
1.6557181 -3.3114347 -20.882887
1.6422986 -4.1057463 -21.692835
1.6291308 -4.8873892 -22.487574
1.6161964 -5.6566892 -23.268234
1.6034657 -6.4138618 -24.036604
1.5908536 -7.1588373 -24.797817
1.5784043 -7.8920217 -25.549196
1.5661483 -8.6138172 -26.2889
1.5540867 -9.3245173 -27.016886
1.5502402 -10.076564 -27.249044
1.5472386 -10.830669 -27.43021
3.046272 19.293058 1.7582005
2.9890852 17.934511 -0.54281604
2.9600153 16.77342 -1.712499
2.9314535 15.634416 -2.8617406
2.9034374 14.517187 -3.9890211
2.8759644 13.421169 -5.0944476
2.848994 12.345639 -6.1796422
2.8225248 11.290099 -7.2446799
2.796555 10.254037 -8.2896318
2.7710471 9.2368269 -9.3159971
2.7460001 8.2379999 -10.323808
2.7214131 7.2571034 -11.313112
2.6972516 6.2935872 -12.285294
2.6735151 5.3470306 -13.240379
2.6502037 4.4170079 -14.178364
2.6272845 3.5030451 -15.100552
2.6047585 2.6047573 -16.006926
2.5826254 1.7217515 -16.897493
2.5608556 0.85361928 -17.773445
2.5394497 -8.1793553e-07 -18.634752
2.5184081 -0.83946824 -19.4814
2.4977031 -1.6651373 -20.314501
2.4773357 -2.4773362 -21.134029
2.4573069 -3.2764108 -21.939917
2.4376173 -4.062695 -22.732162
2.4183118 -4.8366251 -23.50897
2.3993008 -5.5983696 -24.273909
2.3805263 -6.3480701 -25.029337
2.3619421 -7.0858259 -25.777107
2.3436539 -7.8121805 -26.51297
2.3256385 -8.5273447 -27.237841
2.3080757 -9.2323065 -27.944519
2.3035998 -9.9822626 -28.12462
2.2991412 -10.729325 -28.30402
3.9907928 18.956266 -0.38148481
3.9347661 17.706446 -2.0722463
3.8969812 16.56217 -3.2125037
3.8598981 15.439594 -4.3315907
3.8234642 14.337992 -5.431078
3.7877121 13.25699 -6.5099983
3.7526381 12.196074 -7.5684476
3.7181919 11.154574 -8.6079483
3.6843724 10.132024 -9.6285458
3.6511779 9.127944 -10.630281
3.618561 8.1417665 -11.61458
3.5865221 7.1730442 -12.581444
3.5550597 6.2213554 -13.53091
3.5241301 5.2861943 -14.46428
3.4937346 4.3671665 -15.381551
3.4638722 3.4638743 -16.282726
3.4345028 2.5758767 -17.169035
3.405627 1.7028133 -18.040428
3.3772457 0.84431142 -18.896908
3.3493209 -9.3535084e-07 -19.739622
3.3218541 -0.83046269 -20.568506
3.2948465 -1.6474261 -21.38353
3.2682624 -2.4511948 -22.185783
3.2421036 -3.2421021 -22.975191
3.216466 -4.0205865 -23.748865
3.1912541 -4.7868814 -24.509712
3.1664 -5.5412002 -25.259748
3.1417506 -6.2835026 -26.003603
3.1174712 -7.0143094 -26.7363
3.0935638 -7.7339101 -27.457766
3.0700316 -8.4425898 -28.167919
3.0508235 -9.1524706 -28.747581
3.0449579 -9.8961153 -28.924582
3.0446317 -10.65621 -28.934431
4.9036679 18.63394 -2.4292965
4.8567195 17.484194 -3.5627472
4.8106399 16.356173 -4.6751986
4.7654471 15.249431 -5.7662535
4.721035 14.163105 -6.8384523
4.6774426 13.096841 -7.8908615
4.6346288 12.050033 -8.9244757
4.5925918 11.022222 -9.9393454
4.5513287 10.012925 -10.935514
4.5107827 9.0215664 -11.914392
4.4709525 8.0477171 -12.875978
4.4318376 7.0909395 -13.820299
4.393383 6.1507363 -14.748671
4.3555903 5.2267079 -15.661065
4.3184595 4.318459 -16.557489
4.2819395 3.4255533 -17.439159
4.2460318 2.5476196 -18.306042
4.2107377 1.6842948 -19.158119
4.1760097 0.83520252 -19.996529
4.1418495 -3.606835e-06 -20.82122
4.1082592 -0.82165617 -21.63216
4.0751944 -1.6300792 -22.430418
4.0426574 -2.4255939 -23.215929
4.0106945 -3.2085552 -23.987585
3.9793334 -3.9793324 -24.744709
3.9484594 -4.7381511 -25.49008
3.9178374 -5.4849744 -26.229357
3.8876317 -6.2202129 -26.958578
3.8579018 -6.9442244 -27.676323
3.8286099 -7.6572223 -28.383495
3.7999694 -8.35993 -29.074944
3.7808354 -9.0740032 -29.536875
3.7736161 -9.8114014 -29.711166
5.8107576 18.400736 -3.9109046
5.7557888 17.267368 -5.0167942
5.7018743 16.155315 -6.1014647
5.6489367 15.063832 -7.1664853
5.5969968 13.992496 -8.211442
5.5459099 12.940454 -9.2392216
5.4957705 11.907503 -10.247956
5.4465065 10.893016 -11.239065
5.3981185 9.8965502 -12.212564
5.3506041 8.917675 -13.168476
5.3038979 7.9558434 -14.10814
5.2579989 7.0106649 -15.031541
5.2129092 6.0817285 -15.938688
5.1685653 5.1685634 -16.830803
5.12497 4.2708097 -17.70788
5.0821238 3.3880825 -18.569887
5.039968 2.5199854 -19.417988
4.9985065 1.6661685 -20.252138
4.9577398 0.82628727 -21.072292
4.9176145 -3.3903989e-06 -21.879551
4.8781333 -0.81302309 -22.673849
4.8392992 -1.6130986 -23.455139
4.8010607 -2.4005339 -24.224432
4.7635765 -3.1757135 -24.978561
4.726707 -3.9389243 -25.720318
4.690237 -4.6902375 -26.454037
4.6541781 -5.4298759 -27.179485
4.6186533 -6.1582036 -27.894192
4.5836668 -6.8754988 -28.59807
4.5494566 -7.582427 -29.286324
4.515769 -8.2789116 -29.964056
4.4984221 -8.9968443 -30.313055
4.4899206 -9.7281609 -30.484089
6.8265443 19.504412 -3.0947773
6.6953936 18.17321 -5.3563828
6.6328325 17.055855 -6.4352193
6.5714564 15.959253 -7.4936023
6.5112071 14.88276 -8.5325766
6.4520249 13.825765 -9.5531311
6.3939085 12.787818 -10.555308
6.3367524 11.768253 -11.540941
6.2806339 10.766804 -12.508665
6.2254758 9.7828922 -13.459831
6.1712785 8.8161154 -14.394439
6.1180401 7.8660531 -15.312488
6.0656891 6.9322143 -16.21525
6.0142264 6.0142293 -17.102699
5.9636526 5.1117029 -17.974812
5.9138994 4.2242141 -18.832767
5.8649697 3.3514104 -19.676531
5.8168654 2.492943 -20.506075
5.7695217 1.648434 -21.322485
5.7229419 0.81756639 -22.125715
5.6771302 -3.5960625e-07 -22.915716
5.6320243 -0.80457336 -23.693527
5.5876303 -1.596467 -24.459072
5.5440307 -2.3760159 -25.21093
5.501204 -3.1435442 -25.949453
5.4589949 -3.8992822 -26.677313
5.4171052 -4.6432328 -27.399677
5.3758535 -5.3758521 -28.111044
5.3352437 -6.0974231 -28.811327
5.2954798 -6.8084707 -29.497042
5.2563572 -7.5090799 -30.171677
5.218039 -8.1997757 -30.832458
5.2039251 -8.9210138 -31.07584
5.194191 -9.6463575 -31.243704
7.6653666 19.16342 -5.1528726
7.5584207 17.951254 -6.7665563
7.4886818 16.849531 -7.8188362
7.420186 15.767895 -8.852354
7.352963 14.705925 -9.8666706
7.2869468 13.663026 -10.862776
7.2220759 12.638633 -11.841602
7.1583209 11.632271 -12.803595
7.0956244 10.643439 -13.749611
7.0340171 9.6717758 -14.679203
6.9734974 8.7168722 -15.592364
6.9139829 7.778234 -16.490368
6.8554764 6.855474 -17.373163
6.7979779 5.9482298 -18.240755
6.7414093 5.056057 -19.094303
6.6857748 4.1786098 -19.933769
6.6310763 3.3155353 -20.7591
6.5772405 2.466465 -21.571415
6.524272 1.6310694 -22.370649
6.4721742 0.80902296 -23.156752
6.4208775 -2.7670101e-06 -23.930754
6.370388 -0.79630125 -24.692583
6.3207092 -1.5801729 -25.442186
6.2719998 -2.3519988 -26.177149
6.2240577 -3.1120317 -26.900539
6.1764526 -3.860285 -27.618835
6.1295495 -4.5971613 -28.326561
6.0833325 -5.3229141 -29.023926
6.0380759 -6.0380764 -29.706789
5.9935889 -6.7427845 -30.37804
5.9497337 -7.4371681 -31.03977
5.9086161 -8.1243477 -31.660187
5.8976154 -8.8464231 -31.826174
5.8866944 -9.5658789 -31.990952
8.4786263 18.841393 -7.0964599
8.4005136 17.734423 -8.1441259
8.3240023 16.648005 -9.1703205
8.2488375 15.58114 -10.178451
8.1749506 14.533248 -11.169439
8.1024094 13.504014 -12.14239
8.0311108 12.492838 -13.098666
7.9610887 11.499352 -14.037827
7.8921824 10.522911 -14.962023
7.8244276 9.5631876 -15.870762
7.7578268 8.6198072 -16.764038
7.69238 7.6923785 -17.641829
7.6279984 6.7804456 -18.505337
7.5646858 5.8836422 -19.3545
7.5024438 5.0016284 -20.189304
7.4411898 4.1339955 -21.01086
7.380928 3.2804127 -21.819117
7.3216619 2.4405575 -22.614017
7.2633123 1.6140684 -23.396605
7.2058859 0.80065334 -24.166826
7.1493869 -2.4656333e-06 -24.924612
7.0937409 -0.78819251 -25.670956
7.0390797 -1.5642413 -26.404087
6.9854021 -2.3284681 -27.124022
6.9322701 -3.0810101 -27.836645
6.8797255 -3.8220687 -28.541395
6.827971 -4.5519805 -29.235537
6.7772679 -5.2712088 -29.915585
6.7274494 -5.9799547 -30.583771
6.6783352 -6.6783347 -31.242498
6.6299553 -7.3666167 -31.89139
6.5919943 -8.0568829 -32.400528
6.5798225 -8.7730989 -32.56377
6.5676966 -9.4866743 -32.726414
9.3072691 18.614538 -8.465641
9.2225065 17.52276 -9.4888105
9.1395397 16.451174 -10.490314
9.0580149 15.398627 -11.474401
8.9778957 14.364634 -12.441526
8.8991089 13.348664 -13.392571
8.8217287 12.350421 -14.326637
8.7456474 11.369339 -15.245012
8.670867 10.405042 -16.147688
8.5972538 9.4569826 -17.036276
8.5249138 8.5249147 -17.909506
8.4537487 7.6083746 -18.768549
8.3837605 6.7070084 -19.613373
8.3149538 5.8204665 -20.443941
8.2472372 4.9483399 -21.26136
8.1806135 4.0903053 -22.065573
8.1150885 3.2460322 -22.856531
8.0505743 2.4151707 -23.635284
7.9870787 1.5974156 -24.401752
7.9246054 0.79246098 -25.15587
7.8630733 -3.1382165e-06 -25.898628
7.8024893 -0.7802518 -26.629938
7.7431312 -1.5486281 -27.346455
7.684536 -2.3053625 -28.053766
7.6264238 -3.0505712 -28.755232
7.5692105 -3.7846065 -29.445864
7.5130796 -4.5078492 -30.123419
7.4579778 -5.220582 -30.788565
7.4036779 -5.9229441 -31.444021
7.3501387 -6.6151242 -32.090298
7.2974162 -7.2974181 -32.726707
7.264092 -7.9905009 -33.128967
7.2508383 -8.7010059 -33.28896
7.2365379 -9.4075022 -33.461575
10.251647 19.571327 -8.3158236
10.116238 18.393158 -9.8017921
10.025193 17.316244 -10.800873
9.9359779 16.258875 -11.779903
9.8483753 15.22022 -12.74122
9.7623444 14.199773 -13.685299
9.6777248 13.196898 -14.613881
9.5944853 12.211166 -15.527337
9.512702 11.242283 -16.424801
9.4322643 10.289745 -17.307499
9.3531399 9.3531418 -18.175787
9.27526 8.4320564 -19.030413
9.1987028 7.5262094 -19.870537
9.1233625 6.6351738 -20.697289
9.0492477 5.7586112 -21.510601
8.9763603 4.8961973 -22.31044
8.9046059 4.0475483 -23.097866
8.8339882 3.2123563 -23.872791
8.764514 2.3903253 -24.635187
8.6960926 1.5811061 -25.386013
8.6287317 0.78442949 -26.125214
8.5624371 1.4471315e-06 -26.852726
8.4972715 -0.77247882 -27.567829
8.4332666 -1.533317 -28.270197
8.3696985 -2.2826469 -28.96777
8.307025 -3.0207367 -29.65554
8.2455349 -3.7479718 -30.330309
8.1851978 -4.4646549 -30.99243
8.1257372 -5.1709223 -31.644934
8.0671072 -5.8669868 -32.288319
8.0093441 -6.553102 -32.922195
7.9529767 -7.2299819 -33.540752
7.9252319 -7.9252348 -33.845215
7.9109154 -8.6300898 -34.002323
11.004956 19.258675 -10.113008
10.90619 18.176985 -11.106525
10.809179 17.114534 -12.082371
10.71401 16.07102 -13.039697
10.62063 15.045894 -13.979023
10.528907 14.038542 -14.90169
10.438754 13.048445 -15.808569
10.35005 12.075058 -16.700855
10.262762 11.11799 -17.578907
10.176971 10.176972 -18.441877
10.092567 9.2515182 -19.290934
10.009475 8.3412294 -20.126787
9.927701 7.4457755 -20.949356
9.8472538 6.5648365 -21.758604
9.7681351 5.6980791 -22.554466
9.6902428 4.8451209 -23.338009
9.6135826 4.0056572 -24.109148
9.5381594 3.1793876 -24.867836
9.4638777 2.3659673 -25.615053
9.3907442 1.5651227 -26.350725
9.3187647 0.77656549 -27.074787
9.24788 -1.6249002e-06 -27.78783
9.1783848 -0.76486546 -28.486898
9.1095181 -1.518255 -29.179646
9.04146 -2.2603631 -29.864256
8.9746857 -2.9915597 -30.535952
8.9091311 -3.7121384 -31.195377
8.8445568 -4.4222794 -31.844948
8.7809124 -5.1221986 -32.485165
8.7181473 -5.812099 -33.116528
8.6563025 -6.4922266 -33.73864
8.5965033 -7.1637526 -34.340172
8.5756588 -7.8610206 -34.549854
8.5602922 -8.5602913 -34.70443
12.028562 20.35603 -9.1238699
11.782254 19.032877 -11.410935
11.677741 17.965755 -12.381387
11.575065 16.917402 -13.334788
11.47427 15.88745 -14.270705
11.375443 14.875578 -15.188366
11.278258 13.880935 -16.090771
11.182763 12.903192 -16.977482
11.088828 11.941815 -17.849693
10.996417 10.996419 -18.707779
10.905492 10.066608 -19.552057
10.816059 9.15205 -20.382494
10.727999 8.2523098 -21.200165
10.641322 7.3670664 -22.00499
10.555996 6.4959984 -22.797281
10.472028 5.6387839 -23.576971
10.389421 4.7951179 -24.344004
10.308072 3.9646394 -25.099367
10.227986 3.1470728 -25.842999
10.149171 2.3421178 -26.574831
10.071526 1.5494668 -27.295799
9.99506 0.76885229 -28.005821
9.9199867 2.9226891e-07 -28.702909
9.845932 -0.75737977 -29.390543
9.7725401 -1.5034678 -30.072018
9.7004976 -2.2385755 -30.740963
9.6298008 -2.9630158 -31.397411
9.5601587 -3.6769826 -32.044064
9.491518 -4.380703 -32.681427
9.4238243 -5.0743651 -33.309998
9.3571186 -5.7582288 -33.929379
9.2913523 -6.4324732 -34.540054
9.2321281 -7.1016378 -35.089973
9.2156591 -7.7978654 -35.242893
9.1992788 -8.491642 -35.394993
12.702179 19.960567 -11.293709
12.541589 18.812387 -12.678335
12.431617 17.759453 -13.626534
12.323556 16.724827 -14.558256
12.217359 15.708035 -15.473918
12.113309 14.709017 -16.371058
12.010969 13.726823 -17.25345
11.91039 12.761133 -18.120659
11.811437 11.811439 -18.973854
11.714158 10.877433 -19.812611
11.618382 9.9586115 -20.638412
11.524116 9.0546618 -21.451193
11.431366 8.1652641 -22.250895
11.339973 7.2899814 -23.038898
11.25003 6.4285874 -23.814411
11.161461 5.580729 -24.578064
11.074277 4.7461195 -25.329786
10.988483 3.924459 -26.069517
10.90397 3.1154199 -26.798206
10.820746 2.3187327 -27.515776
10.738821 1.5341159 -28.222151
10.658127 0.76129413 -28.917908
10.578963 -1.1670691e-06 -29.600473
10.500323 -0.75002199 -30.278521
10.42302 -1.489005 -30.945045
10.347263 -2.2172685 -31.598234
10.272566 -2.9350181 -32.24229
10.198973 -3.6424894 -32.876823
10.126427 -4.3398981 -33.502331
10.054873 -5.0274353 -34.119286
9.984355 -5.7053456 -34.727299
9.9151707 -6.3740368 -35.323826
9.8628817 -7.0449166 -35.774662
9.845459 -7.7357178 -35.924885
9.8282547 -8.4242201 -36.073223
13.400828 19.654549 -12.972785
13.283531 18.596949 -13.916709
13.168376 17.557838 -14.84341
13.0552 16.536585 -15.754182
12.943901 15.532682 -16.649847
12.834834 14.546148 -17.527552
12.727589 13.576093 -18.390587
12.62217 12.622171 -19.238935
12.518482 11.683917 -20.073351
12.416439 10.760914 -20.894531
12.316091 9.8528728 -21.702076
12.21726 8.9593248 -22.497396
12.11996 8.0799732 -23.280407
12.024154 7.2144938 -24.051401
11.929764 6.3625383 -24.810993
11.836802 5.523839 -25.559095
11.745318 4.6981292 -26.295292
11.655198 3.8850644 -27.020529
11.56645 3.0843847 -27.73472
11.479083 2.2958179 -28.437792
11.392987 1.5190654 -29.130646
11.308443 0.75389671 -29.810993
11.224764 2.2404049e-06 -30.484396
11.142276 -0.74281812 -31.148209
11.061474 -1.4748654 -31.798454
10.981797 -2.1963599 -32.439636
10.903297 -2.907546 -33.071354
10.825912 -3.60864 -33.694107
10.749581 -4.2998309 -34.308365
10.674355 -4.9813671 -34.913738
10.600174 -5.6534271 -35.5107
10.528058 -6.3168344 -36.091053
10.483639 -6.9890919 -36.448509
10.465266 -7.6745291 -36.596359
10.456948 -8.3655596 -36.663296
14.397394 20.696257 -12.194366
14.131129 19.430302 -14.203172
14.008673 18.386387 -15.127039
13.88854 17.360674 -16.033377
13.770503 16.352468 -16.923895
13.654456 15.36126 -17.799406
13.540555 14.386843 -18.658712
13.428694 13.428692 -19.502644
13.318615 12.486203 -20.333126
13.210376 11.559082 -21.149727
13.103833 10.646866 -21.953533
12.999043 9.7492819 -22.74411
12.895868 8.8659096 -23.522501
12.794318 7.9964509 -24.288637
12.694264 7.1405239 -25.043489
12.595718 6.2978606 -25.786966
12.498556 5.4681187 -26.519995
12.402882 4.6510816 -27.241795
12.308705 3.8464706 -27.952309
12.215904 3.0539746 -28.652437
12.124493 2.2733417 -29.342083
12.034563 1.5043207 -30.020552
11.945916 0.74661851 -30.689339
11.858288 5.980562e-07 -31.350454
11.772484 -0.73578209 -31.99778
11.687915 -1.460988 -32.635811
11.604513 -2.175843 -33.265026
11.522331 -2.8805811 -33.88504
11.441305 -3.5754068 -34.496338
11.361374 -4.2605157 -35.099373
11.282588 -4.93613 -35.693768
11.204886 -5.6024446 -36.279972
11.130077 -6.2606688 -36.844368
11.099356 -6.9370971 -37.076149
11.078306 -7.6163368 -37.234951
14.974138 20.25913 -14.488538
14.845015 19.211195 -15.405387
14.717752 18.180754 -16.30904
14.592766 17.167957 -17.196512
14.47011 16.172478 -18.067453
14.349498 15.193584 -18.923876
14.230988 14.230988 -19.765371
14.114685 13.284412 -20.591188
14.000216 12.353132 -21.403988
13.887641 11.436882 -22.20335
13.77681 10.535206 -22.990313
13.667785 9.6478472 -23.764463
13.560471 8.7744207 -24.526461
13.454781 7.9145784 -25.276926
13.350726 7.0680318 -26.015781
13.248174 6.2344322 -26.743961
13.147047 5.4134893 -27.462027
13.047452 4.6049829 -28.16921
12.949309 3.8086207 -28.866079
12.852633 3.0241468 -29.552546
12.757434 2.2513103 -30.228525
12.663847 1.4898628 -30.893045
12.571075 0.73947376 -31.551785
12.480319 -1.7632851e-06 -32.196217
12.390862 -0.72887236 -32.831406
12.30264 -1.4473702 -33.457844
12.215705 -2.1557126 -34.075142
12.129989 -2.8541131 -34.683777
12.045429 -3.5427709 -35.284206
11.962079 -4.2219119 -35.876045
11.879873 -4.8917112 -36.459755
11.798753 -5.5523539 -37.035759
11.754434 -6.2229376 -37.350452
11.72211 -6.8953586 -37.579975
11.693433 -7.566339 -37.783596
16.005716 21.340954 -13.477611
15.676962 20.031673 -15.682279
15.542916 18.996901 -16.581205
15.411204 17.97974 -17.464485
15.281647 16.97961 -18.333319
15.154424 15.996337 -19.186499
15.029472 15.029469 -20.024441
14.90662 14.078474 -20.848307
14.786091 13.143191 -21.656588
14.667441 12.222871 -22.452272
14.550735 11.317239 -23.234926
14.43587 10.425906 -24.005222
14.322753 9.5485048 -24.763805
14.211447 8.6847715 -25.510248
14.101805 7.8343363 -26.245514
13.993893 6.9969482 -26.969189
13.887571 6.172255 -27.682201
13.782757 5.3599577 -28.385101
13.679323 4.5597734 -29.078739
13.577477 3.7715228 -29.761734
13.477091 2.9949076 -30.434938
13.378314 2.2297199 -31.097353
13.280707 1.4756358 -31.751917
13.184998 0.73249978 -32.393764
13.090699 1.4638383e-06 -33.026138
12.997741 -0.72209924 -33.649529
12.906053 -1.4340045 -34.264412
12.815689 -2.1359487 -34.870403
12.726583 -2.8281314 -35.467964
12.643302 -3.5120289 -36.026447
12.577332 -4.1924443 -36.468861
12.511415 -4.8655524 -36.910912
12.446184 -5.5316386 -37.348358
12.392704 -6.1963525 -37.707001
12.350103 -6.8611693 -37.992683
14.653341 -8.9548178 -22.546835
14.817606 -9.8784027 -21.445253
16.564613 20.923723 -15.576119
16.363859 19.808886 -16.851553
16.225483 18.787403 -17.730679
16.08943 17.783054 -18.595058
15.955637 16.795406 -19.445063
15.824112 15.824113 -20.280666
15.694974 14.868923 -21.101112
15.567983 13.929249 -21.907907
15.443374 13.004948 -22.699577
15.320799 12.095369 -23.478315
15.200099 11.200072 -24.245144
15.081342 10.318812 -24.999638
14.964372 9.4511814 -25.742773
14.849254 8.5969353 -26.474134
14.735842 7.7557077 -27.194658
14.624202 6.9272532 -27.903938
14.514189 6.1112366 -28.602867
14.405868 5.3074245 -29.29105
14.298958 4.5154605 -29.970272
14.193478 3.7351229 -30.640408
14.089542 2.9662173 -31.300728
13.987118 2.2084925 -31.951448
13.88654 1.4617416 -32.590439
13.787445 0.72565806 -33.220009
13.689754 -6.2280083e-07 -33.840664
13.593393 -0.71544224 -34.452858
13.508406 -1.4219366 -34.992798
13.437152 -2.1216564 -35.445488
13.36652 -2.8140037 -35.89423
13.295992 -3.4989452 -36.342316
13.226203 -4.1766939 -36.785694
13.157144 -4.8473706 -37.224442
13.0888 -5.5110731 -37.65863
13.039025 -6.1763806 -37.974869
15.484993 -8.1499968 -22.435158
15.512903 -8.9811563 -22.257839
15.597822 -9.8512573 -21.718334
17.180151 20.616184 -17.122931
17.03558 19.590916 -17.995501
16.893097 18.582407 -18.855465
16.75304 17.590693 -19.700777
16.615225 16.615223 -20.532568
16.479658 15.655675 -21.350784
16.346407 14.711767 -22.155024
16.215532 13.783202 -22.94492
16.086971 12.869575 -23.72085
15.960608 11.970457 -24.483524
15.836156 11.085312 -25.234661
15.713686 10.213899 -25.973829
15.593041 9.3558235 -26.701986
15.474289 8.5108614 -27.418722
15.357332 7.6786623 -28.124619
15.242077 6.8589358 -28.820246
15.128591 6.0514379 -29.505196
15.01673 5.2558541 -30.18033
14.906563 4.4719667 -30.845251
14.79775 3.699435 -31.501986
14.690419 2.9380836 -32.149792
14.585019 2.1877527 -32.785946
14.48112 1.4481089 -33.413025
14.394862 0.71974152 -33.933636
14.318002 4.6588741e-07 -34.397537
14.241957 -0.71209681 -34.856503
14.166534 -1.4166539 -35.311722
14.091273 -2.1136916 -35.765957
14.016809 -2.8033652 -36.215389
13.943129 -3.4857817 -36.660099
13.886708 -4.1660109 -37.000618
16.41007 -5.7435255 -21.770781
16.410744 -6.5642982 -21.76672
16.411478 -7.3851662 -21.762287
16.411844 -8.2059221 -21.760073
16.411966 -9.0265808 -21.759338
16.450781 -9.8704691 -21.525068
16.558365 -10.762935 -20.875746
18.134186 21.588316 -16.57671
17.841524 20.39031 -18.258968
17.692745 19.377771 -19.114161
17.546362 18.381905 -19.955589
17.402382 17.402384 -20.783205
17.260744 16.438803 -21.597357
17.121458 15.490844 -22.397995
16.984339 14.558003 -23.186172
16.849583 13.640139 -23.96077
16.71731 12.736999 -24.721085
16.587337 11.848097 -25.468189
16.459311 10.972873 -26.204102
16.333303 10.111094 -26.928411
16.209209 9.2624035 -27.64171
16.086931 8.426487 -28.344582
15.96654 7.6031179 -29.036604
15.847884 6.7919507 -29.71866
15.73103 5.9927745 -30.390345
15.615836 5.2052774 -31.052505
15.502367 4.4292493 -31.704733
15.390485 3.6643991 -32.347847
15.303522 2.9149578 -32.847713
15.220795 2.1743987 -33.323246
15.138955 1.4418038 -33.793667
15.057992 0.71704644 -34.259056
14.9776 -1.2743767e-06 -34.721169
14.897484 -0.70940393 -35.181679
14.818221 -1.4112614 -35.637295
14.766019 -2.109431 -35.937359
17.346035 -3.3040078 -21.1071
17.347012 -4.13024 -21.101488
17.348053 -4.9565878 -21.095501
17.34903 -5.7830119 -21.089884
17.350006 -6.6095295 -21.08427
17.350721 -7.4360266 -21.080153
17.351503 -8.262619 -21.075663
17.351633 -9.088953 -21.074917
17.355803 -9.9176025 -21.050953
17.409197 -10.777122 -20.744036
17.560492 -11.706997 -19.874369
18.642126 21.184235 -18.527779
18.488277 20.169027 -19.371929
18.335697 19.169138 -20.20912
18.185614 18.185616 -21.032597
18.038034 17.218122 -21.84234
17.892767 16.266153 -22.639406
17.749819 15.32939 -23.42374
17.609201 14.407531 -24.195288
17.470732 13.500113 -24.955055
17.334856 12.607165 -25.700579
17.201384 11.728215 -26.432924
17.070011 10.862732 -27.153746
16.940571 10.010337 -27.863968
16.813137 9.1708021 -28.563175
16.687548 8.3437738 -29.25226
16.563879 7.5290337 -29.930815
16.459965 6.733623 -30.500975
16.358011 5.9483676 -31.060387
16.25742 5.1728177 -31.61231
16.158058 4.4067445 -32.157486
16.059906 3.6499765 -32.696041
15.971413 2.9038947 -33.181591
15.885399 2.1661901 -33.653534
15.799946 1.4363598 -34.122398
15.714848 0.71431005 -34.589317
15.677005 -6.2381639e-07 -34.796963
18.294628 -0.83157396 -20.434462
18.295664 -1.6632448 -20.42877
18.29677 -2.4950118 -20.422707
18.297806 -3.326874 -20.417019
18.298912 -4.1588454 -20.410948
18.29995 -4.9908981 -20.405258
18.300987 -5.8230391 -20.399569
18.302094 -6.6553035 -20.393499
18.302992 -7.4875889 -20.388563
18.303822 -8.3199196 -20.38401
18.304375 -9.1521854 -20.380974
18.304514 -9.9842777 -20.380213
18.319675 -10.825265 -20.297014
18.392374 -11.704239 -19.898134
18.586185 -12.672401 -18.834726
19.677019 22.243587 -17.543604
19.279566 20.956053 -19.629555
19.121073 19.952425 -20.461376
18.965021 18.965023 -21.280378
18.811428 17.993538 -22.086483
18.660301 17.037668 -22.879642
18.511652 16.09709 -23.659798
18.365284 15.171322 -24.427975
18.221212 14.26008 -25.184097
18.079386 13.363026 -25.928453
17.939875 12.479913 -26.660643
17.804131 11.611391 -27.373074
17.690117 10.767898 -27.971451
17.577553 9.9351368 -28.562214
17.466352 9.1128826 -29.145823
17.356611 8.3009872 -29.721781
17.24824 7.4992342 -30.29055
17.141329 6.7074747 -30.851648
17.035679 5.9254527 -31.406137
16.931322 5.1530089 -31.953827
16.828236 4.3899741 -32.49485
16.726398 3.6361723 -33.029327
16.672094 2.8994923 -33.31432
19.255007 2.5115218 -19.75845
19.256105 1.6744483 -19.752689
19.257277 0.83727092 -19.746536
19.258375 1.9648044e-06 -19.740774
19.259474 -0.83736521 -19.735006
19.260572 -1.6748344 -19.729235
19.261745 -2.5124054 -19.723083
19.262844 -3.3500605 -19.717316
19.264017 -4.1878304 -19.711164
19.265116 -5.025681 -19.705395
19.266214 -5.8636336 -19.699623
19.267387 -6.7017021 -19.693466
19.268488 -7.539845 -19.687691
19.269442 -8.3780193 -19.682688
19.270323 -9.2162409 -19.67807
19.270615 -10.054236 -19.676531
19.270761 -10.892169 -19.675762
19.298304 -11.746794 -19.531214
19.392389 -12.647209 -19.037426
20.183052 21.864973 -19.301405
19.927816 20.758144 -20.585138
19.773664 19.773664 -21.360464
19.621954 18.804373 -22.123514
19.472551 17.849838 -22.874949
19.325407 16.909731 -23.615026
19.18054 15.983787 -24.343651
19.03776 15.071561 -25.061779
18.897091 14.172818 -25.769291
18.758484 13.287259 -26.466431
18.623013 12.415343 -27.147804
18.503468 11.564668 -27.749063
18.38545 10.724843 -28.342648
18.268927 9.8956709 -28.928711
18.153934 9.0769653 -29.50708
18.04038 8.268507 -30.078211
17.928238 7.470099 -30.642244
17.814417 6.680407 -31.214718
17.725491 5.9084969 -31.661985
20.228411 5.8999534 -19.073275
20.229572 5.0573902 -19.067432
20.230732 4.2147384 -19.061588
20.231972 3.3719969 -19.055359
20.233133 2.5291412 -19.049509
20.234297 1.6861923 -19.043661
20.235537 0.84314859 -19.037428
20.2367 1.0399473e-06 -19.03158
20.237862 -0.8432405 -19.025736
20.239103 -1.6865941 -19.019495
20.240263 -2.53003 -19.013649
20.241428 -3.3735681 -19.007799
20.242668 -4.2172232 -19.001554
20.243834 -5.0609565 -18.995705
20.244997 -5.9047918 -18.989849
20.246239 -6.7487426 -18.98361
20.247402 -7.5927725 -18.977755
20.248644 -8.4369326 -18.971512
20.249573 -9.2810516 -18.966831
20.250349 -10.125178 -18.962921
20.250505 -10.969023 -18.962145
20.250662 -11.812884 -18.961369
20.291567 -12.68223 -18.755617
20.411581 -13.607718 -18.151997
20.853703 21.687851 -20.123735
20.667566 20.667568 -21.02248
20.508383 19.688047 -21.791079
20.351635 18.723503 -22.547926
20.197266 17.773594 -23.293295
20.045219 16.837986 -24.027437
19.895445 15.916358 -24.75061
19.747892 15.008402 -25.463058
19.602512 14.113811 -26.165012
19.459257 13.232292 -26.85671
19.320793 12.365306 -27.525274
19.197268 11.518361 -28.121712
19.092781 10.691958 -28.626219
21.215837 8.486331 -18.375187
21.217228 7.6382012 -18.368481
21.218618 6.7899594 -18.361765
21.220009 5.9416037 -18.355051
21.221319 5.0931177 -18.34873
21.222626 4.2445259 -18.342407
21.223856 3.395817 -18.336481
21.225084 2.5470061 -18.330549
21.226311 1.6981064 -18.324627
21.227621 0.84910709 -18.3183
21.228848 -8.7733855e-07 -18.312365
21.230078 -0.84920108 -18.30644
21.231388 -1.6985105 -18.300106
21.232616 -2.547915 -18.294174
21.233845 -3.3974133 -18.288246
21.235155 -4.2470317 -18.281916
21.236385 -5.0967336 -18.275978
21.237614 -5.9465327 -18.270046
21.238924 -6.7964563 -18.263716
21.240154 -7.6464596 -18.257776
21.241467 -8.4965858 -18.251448
21.242697 -9.3467855 -18.245508
21.243681 -10.196964 -18.240757
21.244171 -11.046968 -18.23838
21.244337 -11.896829 -18.237593
21.244499 -12.746698 -18.236799
21.299829 -13.631894 -17.969635
21.460787 -14.593335 -17.192472
22.222775 7.6925011 -17.640232
22.224243 6.8382316 -17.633425
22.225708 5.9838462 -17.626608
22.227089 5.1293283 -17.620197
22.228558 4.2747231 -17.613384
22.229853 3.4199734 -17.607372
22.231146 2.5651312 -17.60136
22.232529 1.7101928 -17.594942
22.233826 0.855147 -17.588936
22.235119 -1.0063889e-06 -17.582914
22.236414 -0.85524583 -17.576906
22.237799 -1.7106009 -17.57048
22.239094 -2.5660493 -17.564466
22.240389 -3.4216008 -17.558451
22.241772 -4.2772603 -17.552034
22.243069 -5.1330185 -17.546013
22.244452 -5.9888897 -17.539595
22.24575 -6.8448443 -17.533571
22.247046 -7.7009048 -17.527546
22.248428 -8.5570898 -17.521122
22.249727 -9.4133453 -17.515108
22.251022 -10.269701 -17.509079
22.251976 -11.12599 -17.50466
22.252235 -11.981972 -17.50346
22.252409 -12.837925 -17.502653
22.260542 -13.698794 -17.464884
22.340473 -14.607233 -17.093792
22.55607 -15.61574 -16.092831
23.244175 6.8871636 -16.895052
23.24572 6.0266652 -16.888142
23.247267 5.1660566 -16.881233
23.248812 4.3053374 -16.874325
23.250267 3.4444869 -16.867823
23.251631 2.583518 -16.861723
23.253086 1.7224495 -16.855209
23.254452 0.86127865 -16.849113
23.255816 -3.0844308e-06 -16.843008
23.257179 -0.86137837 -16.836906
23.258636 -1.7228626 -16.830395
23.260002 -2.5844448 -16.824299
23.261368 -3.44613 -16.818188
23.262823 -4.3079276 -16.81168
23.264191 -5.1698194 -16.805576
23.265646 -6.0318336 -16.799059
23.267014 -6.8939257 -16.792955
23.268377 -7.7561283 -16.786842
23.269836 -8.6184568 -16.780331
23.271202 -9.4808626 -16.774221
23.272661 -10.343402 -16.767708
23.273935 -11.205971 -16.761999
23.274666 -12.068343 -16.758743
23.274847 -12.930473 -16.757925
23.275028 -13.792609 -16.757109
23.297836 -14.669006 -16.655151
23.403048 -15.602032 -16.184782
23.67466 -16.659946 -14.970448
24.475077 6.9928784 -15.299927
24.280531 6.0701313 -16.138618
24.282158 5.2033205 -16.131615
24.283785 4.3363895 -16.124596
24.285316 3.4693315 -16.117998
24.286846 2.6021633 -16.111403
24.288378 1.7348841 -16.104799
24.289812 0.86748993 -16.09861
24.291248 2.5142278e-06 -16.092422
24.29278 -0.86759871 -16.085817
24.294216 -1.7352983 -16.079628
24.295652 -2.6031041 -16.073439
24.297184 -3.4710233 -16.06683
24.298622 -4.3390374 -16.060635
24.300058 -5.2071571 -16.05444
24.30159 -6.0753999 -16.047831
24.303028 -6.9437227 -16.041639
24.304466 -7.8121471 -16.035442
24.306 -8.6807117 -16.028833
24.307438 -9.5493488 -16.022636
24.308969 -10.418128 -16.016027
24.31041 -11.286975 -16.009825
24.311655 -12.155826 -16.004448
24.312134 -13.024358 -16.002378
24.312325 -13.892761 -16.001553
24.312517 -14.761172 -16.000732
24.351511 -15.654541 -15.832625
24.484409 -16.614418 -15.259693
25.511864 6.1580353 -14.622794
25.332087 5.2411237 -15.371098
25.333796 4.3678975 -15.363985
25.335403 3.494539 -15.357286
25.337114 2.6210797 -15.350173
25.338722 1.7475008 -15.343478
25.340231 0.87380326 -15.3372
25.341742 3.0275878e-06 -15.330918
25.343351 -0.87390703 -15.324217
25.344858 -1.7479225 -15.317936
25.346367 -2.6220405 -15.311651
25.347979 -3.496273 -15.304949
25.349487 -4.3705983 -15.298671
25.350998 -5.2450352 -15.292383
25.352608 -6.1195979 -15.285674
25.354118 -6.9942417 -15.279392
25.35573 -7.8690214 -15.272684
25.357241 -8.7438774 -15.2664
25.358751 -9.6188335 -15.260114
25.360361 -10.493946 -15.2534
25.361874 -11.369116 -15.24711
25.363384 -12.244391 -15.24082
25.364594 -13.119617 -15.235786
25.364796 -13.994373 -15.234945
25.364998 -14.869136 -15.23411
25.365198 -15.743917 -15.233274
25.42186 -16.655699 -14.997424
25.585064 -17.644871 -14.318101
25.858948 -18.725445 -13.178071
26.562042 5.3124065 -13.93691
26.399073 4.3998466 -14.592657
26.400866 3.5201156 -14.585436
26.40266 2.6402669 -14.57822
26.40435 1.7602904 -14.571427
26.406036 0.88020313 -14.564625
26.407621 -2.2334468e-06 -14.558251
26.409311 -0.88030928 -14.551454
26.410894 -1.7607268 -14.545077
26.412479 -2.6412461 -14.53871
26.414169 -3.5218885 -14.531906
26.415754 -4.4026279 -14.52553
26.417339 -5.2834706 -14.51915
26.419029 -6.1644387 -14.512349
26.420614 -7.0454979 -14.50597
26.422306 -7.9266911 -14.499165
26.423891 -8.8079662 -14.492785
26.425476 -9.6893415 -14.486403
26.42717 -10.570867 -14.479601
26.428755 -11.452459 -14.473219
26.430449 -12.334209 -14.466413
26.432034 -13.216017 -14.46002
26.432775 -14.097481 -14.457043
26.432987 -14.978689 -14.456195
26.433197 -15.85992 -14.455338
26.433411 -16.741161 -14.454489
26.514164 -17.676109 -14.129559
26.577219 -18.604053 -13.875839
27.628225 4.4561625 -13.232969
27.482038 3.5460696 -13.802209
27.483919 2.6597373 -13.794883
27.485689 1.7732698 -13.787984
27.487572 0.88669509 -13.780652
27.489344 2.7014482e-06 -13.773759
27.491005 -0.88680321 -13.767292
27.492664 -1.7737199 -13.760826
27.494326 -2.660738 -13.754356
27.496099 -3.5478837 -13.747456
27.497761 -4.435123 -13.740979
27.499422 -5.3224688 -13.734511
27.501198 -6.2099495 -13.727607
27.502859 -7.0975151 -13.721131
27.504631 -7.9852133 -13.714228
27.506296 -8.8729992 -13.707755
27.507957 -9.7608862 -13.70128
27.509731 -10.648929 -13.694366
27.511396 -11.537038 -13.687894
27.513168 -12.425303 -13.680985
27.514833 -13.313627 -13.674502
27.516497 -14.202065 -13.668021
27.51683 -15.089875 -13.666725
27.517052 -15.977646 -13.66586
27.517273 -16.865427 -13.665001
27.425714 -17.69401 -14.021521
28.710533 3.5888193 -12.512193
28.581125 2.679482 -13.000342
28.583099 1.786446 -12.992909
28.58507 0.89328146 -12.985465
28.586926 1.2252274e-06 -12.978471
28.588783 -0.89339942 -12.971462
28.590523 -1.7869081 -12.964898
28.592262 -2.6805272 -12.958334
28.59412 -3.5742621 -12.951333
28.595861 -4.4681025 -12.944761
28.597717 -5.3620706 -12.93776
28.599459 -6.2561312 -12.931192
28.6012 -7.1503024 -12.924615
28.603058 -8.0446091 -12.917611
28.604799 -8.9390011 -12.911038
28.606543 -9.8335028 -12.904466
28.608402 -10.728154 -12.897452
28.610144 -11.622872 -12.890881
28.612003 -12.517753 -12.883864
28.613745 -13.41269 -12.877295
28.61549 -14.307744 -12.87072
29.807444 2.7097676 -11.781693
29.696934 1.7998165 -12.185927
