# .PCD v0.7 - Point Cloud Data file format
VERSION 0.7
FIELDS x y z
SIZE 4 4 4
TYPE F F F
COUNT 1 1 1
WIDTH 1498
HEIGHT 1
VIEWPOINT 0 0 0 1 0 0 0
POINTS 1498
DATA ascii
-39.64846 12.744145 -80.849747
-39.64846 11.328136 -80.849754
-39.689266 9.9223175 -80.673859
-38.261711 14.171008 -80.718918
-38.232445 12.744145 -80.849747
-38.232445 11.328136 -80.849754
-38.27179 9.9223175 -80.673859
-38.639362 8.5865297 -79.030525
-38.641903 7.1559038 -79.019165
-38.644321 5.7250843 -79.008354
-38.646862 4.2940965 -78.997002
-38.649399 2.8629255 -78.985641
-38.651821 1.4315505 -78.974823
-38.654362 -4.3911109e-07 -78.963463
-38.656906 -1.4317366 -78.952103
-38.659325 -2.8636565 -78.941277
-38.661865 -4.2957673 -78.929901
-38.66441 -5.728054 -78.918549
-38.666828 -7.1605177 -78.907722
-38.669376 -8.5931931 -78.896355
-38.671917 -10.026053 -78.884979
-38.674339 -11.459059 -78.874153
-38.676884 -12.892293 -78.86277
-38.679428 -14.325714 -78.851395
-38.68185 -15.75927 -78.840561
-38.684395 -17.193064 -78.829185
-38.686821 -18.626984 -78.818352
-38.689365 -20.061153 -78.806961
-38.691914 -21.495508 -78.795578
-38.694336 -22.929976 -78.784737
-38.696884 -24.364704 -78.773354
-38.699432 -25.79962 -78.761963
-38.701859 -27.23464 -78.751114
-38.704403 -28.66993 -78.739731
-38.706955 -30.105406 -78.72834
-38.709381 -31.540977 -78.717484
-38.711929 -32.976826 -78.706085
-38.714478 -34.412868 -78.694702
-38.716908 -35.848991 -78.683838
-38.719456 -37.285393 -78.672447
-38.722004 -38.722004 -78.661041
-38.724434 -40.158669 -78.650185
-38.726986 -41.59565 -78.638786
-38.729538 -43.032814 -78.62738
-38.731964 -44.470032 -78.616516
-38.734516 -45.907581 -78.605103
-38.737068 -47.345303 -78.593697
-38.739502 -48.783077 -78.582832
-38.742054 -50.221184 -78.571411
-38.744606 -51.65947 -78.560005
-38.74704 -53.097794 -78.549133
-38.749592 -54.536457 -78.537712
-38.752144 -55.975315 -78.526299
-38.754581 -57.414192 -78.515419
-38.757133 -58.85342 -78.503998
-38.759689 -60.292854 -78.492569
-38.762123 -61.732262 -78.481697
-38.764675 -63.17207 -78.470268
-38.767235 -64.612061 -78.458839
-38.769669 -66.052032 -78.447952
-38.772224 -67.492393 -78.436531
-38.77478 -68.932953 -78.425087
-38.777218 -70.373466 -78.414207
-36.844608 14.171008 -80.718918
-36.816429 12.744145 -80.849747
-36.816429 11.328136 -80.849754
-36.854317 9.9223175 -80.673859
-37.208275 8.5865297 -79.030525
-37.21072 7.1559038 -79.019165
-37.213047 5.7250843 -79.008354
-37.215496 4.2940965 -78.997002
-37.217941 2.8629255 -78.985641
-37.220272 1.4315505 -78.974823
-37.222717 -4.3911109e-07 -78.963463
-37.225166 -1.4317366 -78.952103
-37.227497 -2.8636565 -78.941277
-37.229946 -4.2957673 -78.929901
-37.232395 -5.728054 -78.918549
-37.234726 -7.1605177 -78.907722
-37.237175 -8.5931931 -78.896355
-37.239624 -10.026053 -78.884979
-37.241959 -11.459059 -78.874153
-37.244408 -12.892293 -78.86277
-37.246857 -14.325714 -78.851395
-37.249191 -15.75927 -78.840561
-37.25164 -17.193064 -78.829185
-37.253975 -18.626984 -78.818352
-37.256428 -20.061153 -78.806961
-37.258881 -21.495508 -78.795578
-37.261215 -22.929976 -78.784737
-37.263668 -24.364704 -78.773354
-37.266117 -25.79962 -78.761963
-37.268456 -27.23464 -78.751114
-37.270908 -28.66993 -78.739731
-37.273361 -30.105406 -78.72834
-37.2757 -31.540977 -78.717484
-37.278156 -32.976826 -78.706085
-37.280609 -34.412868 -78.694702
-37.282948 -35.848991 -78.683838
-37.2854 -37.285393 -78.672447
-37.287857 -38.722004 -78.661041
-37.290195 -40.158669 -78.650185
-37.292652 -41.59565 -78.638786
-37.295109 -43.032814 -78.62738
-37.297451 -44.470032 -78.616516
-37.299904 -45.907581 -78.605103
-37.302364 -47.345303 -78.593697
-37.304707 -48.783077 -78.582832
-37.307163 -50.221184 -78.571411
-37.30962 -51.65947 -78.560005
-37.311962 -53.097794 -78.549133
-37.314423 -54.536457 -78.537712
-37.316883 -55.975315 -78.526299
-37.319221 -57.414192 -78.515419
-37.321682 -58.85342 -78.503998
-37.324146 -60.292854 -78.492569
-37.326488 -61.732262 -78.481697
-37.328949 -63.17207 -78.470268
-37.331409 -64.612061 -78.458839
-37.333755 -66.052032 -78.447952
-37.336216 -67.492393 -78.436531
-37.33868 -68.932953 -78.425087
-37.341022 -70.373466 -78.414207
-35.427509 14.171008 -80.718918
-35.40041 12.744145 -80.849747
-35.40041 11.328136 -80.849754
-35.436844 9.9223175 -80.673859
-35.777187 8.5865297 -79.030525
-35.779541 7.1559038 -79.019165
-35.781776 5.7250843 -79.008354
-35.78413 4.2940965 -78.997002
-35.78648 2.8629255 -78.985641
-35.788723 1.4315505 -78.974823
-35.791077 -4.3911109e-07 -78.963463
-35.79343 -1.4317366 -78.952103
-35.79567 -2.8636565 -78.941277
-35.798027 -4.2957673 -78.929901
-35.800377 -5.728054 -78.918549
-35.80262 -7.1605177 -78.907722
-35.804974 -8.5931931 -78.896355
-35.807331 -10.026053 -78.884979
-35.809574 -11.459059 -78.874153
-35.811928 -12.892293 -78.86277
-35.814285 -14.325714 -78.851395
-35.816528 -15.75927 -78.840561
-35.818886 -17.193064 -78.829185
-35.821129 -18.626984 -78.818352
-35.823486 -20.061153 -78.806961
-35.825848 -21.495508 -78.795578
-35.828091 -22.929976 -78.784737
-35.830448 -24.364704 -78.773354
-35.832809 -25.79962 -78.761963
-35.835052 -27.23464 -78.751114
-35.83741 -28.66993 -78.739731
-35.839771 -30.105406 -78.72834
-35.842018 -31.540977 -78.717484
-35.844379 -32.976826 -78.706085
-35.846741 -34.412868 -78.694702
-35.848988 -35.848991 -78.683838
-35.851349 -37.285393 -78.672447
-35.85371 -38.722004 -78.661041
-35.855957 -40.158669 -78.650185
-35.858318 -41.59565 -78.638786
-35.860683 -43.032814 -78.62738
-35.86293 -44.470032 -78.616516
-35.865295 -45.907581 -78.605103
-35.867657 -47.345303 -78.593697
-35.869907 -48.783077 -78.582832
-35.872272 -50.221184 -78.571411
-35.874638 -51.65947 -78.560005
-35.876884 -53.097794 -78.549133
-35.879253 -54.536457 -78.537712
-35.881618 -55.975315 -78.526299
-35.883869 -57.414192 -78.515419
-35.886234 -58.85342 -78.503998
-35.888599 -60.292854 -78.492569
-35.890854 -61.732262 -78.481697
-35.893219 -63.17207 -78.470268
-35.895584 -64.612061 -78.458839
-35.897842 -66.052032 -78.447952
-35.900208 -67.492393 -78.436531
-35.902576 -68.932953 -78.425087
-35.904831 -70.373466 -78.414207
-34.010406 14.171008 -80.718918
-33.984394 12.744145 -80.849747
-33.984394 11.328136 -80.849754
-34.019371 9.9223175 -80.673859
-34.3461 8.5865297 -79.030525
-34.348358 7.1559038 -79.019165
-34.350506 5.7250843 -79.008354
-34.352764 4.2940965 -78.997002
-34.355022 2.8629255 -78.985641
-34.357174 1.4315505 -78.974823
-34.359432 -4.3911109e-07 -78.963463
-34.361694 -1.4317366 -78.952103
-34.363846 -2.8636565 -78.941277
-34.366104 -4.2957673 -78.929901
-34.368362 -5.728054 -78.918549
-34.370514 -7.1605177 -78.907722
-34.372776 -8.5931931 -78.896355
-34.375038 -10.026053 -78.884979
-34.37719 -11.459059 -78.874153
-34.379452 -12.892293 -78.86277
-34.381714 -14.325714 -78.851395
-34.383869 -15.75927 -78.840561
-34.386131 -17.193064 -78.829185
-34.388287 -18.626984 -78.818352
-34.390549 -20.061153 -78.806961
-34.392811 -21.495508 -78.795578
-34.394966 -22.929976 -78.784737
-34.397232 -24.364704 -78.773354
-34.399494 -25.79962 -78.761963
-34.401653 -27.23464 -78.751114
-34.403915 -28.66993 -78.739731
-34.406181 -30.105406 -78.72834
-34.408337 -31.540977 -78.717484
-34.410606 -32.976826 -78.706085
-34.412868 -34.412868 -78.694702
-34.415028 -35.848991 -78.683838
-34.417294 -37.285393 -78.672447
-34.419559 -38.722004 -78.661041
-34.421719 -40.158669 -78.650185
-34.423988 -41.59565 -78.638786
-34.426254 -43.032814 -78.62738
-34.428413 -44.470032 -78.616516
-34.430683 -45.907581 -78.605103
-34.432953 -47.345303 -78.593697
-34.435112 -48.783077 -78.582832
-34.437382 -50.221184 -78.571411
-34.439651 -51.65947 -78.560005
-34.441811 -53.097794 -78.549133
-34.44408 -54.536457 -78.537712
-34.44635 -55.975315 -78.526299
-34.448513 -57.414192 -78.515419
-34.450787 -58.85342 -78.503998
-34.453056 -60.292854 -78.492569
-34.455219 -61.732262 -78.481697
-34.457489 -63.17207 -78.470268
-34.459763 -64.612061 -78.458839
-34.461926 -66.052032 -78.447952
-34.464199 -67.492393 -78.436531
-34.466473 -68.932953 -78.425087
-34.468636 -70.373466 -78.414207
-32.593307 14.171008 -80.718918
-32.568378 12.744145 -80.849747
-32.568378 11.328136 -80.849754
-32.601894 9.9223175 -80.673859
-32.953892 8.5966711 -78.826477
-32.953892 7.1638942 -78.826477
-32.953892 5.7311063 -78.826477
-32.953892 4.2983322 -78.826469
-32.953892 2.8655553 -78.826477
-32.953892 1.4327812 -78.826469
-32.953892 4.5437046e-06 -78.826477
-32.953892 -1.4327801 -78.826469
-32.953892 -2.8655503 -78.826469
-32.953892 -4.2983341 -78.826477
-32.953892 -5.731111 -78.826477
-32.953892 -7.163887 -78.826469
-32.953892 -8.5966635 -78.826477
-33.20451 -10.105719 -77.511162
-33.216782 -11.55366 -77.446762
-33.229057 -13.002672 -77.382324
-33.241344 -14.452757 -77.317841
-33.253643 -15.903917 -77.253296
-33.265945 -17.356148 -77.188721
-33.278259 -18.80945 -77.124084
-33.290585 -20.263832 -77.059402
-33.302917 -21.71929 -76.994682
-33.315258 -23.175829 -76.929909
-33.32761 -24.633451 -76.865089
-33.339867 -26.09207 -76.800766
-33.352234 -27.551849 -76.735847
-33.364613 -29.012703 -76.670883
-33.376999 -30.474649 -76.605873
-33.3894 -31.937685 -76.54081
-33.401802 -33.401798 -76.4757
-33.414219 -34.867008 -76.410538
-33.426643 -36.333309 -76.345322
-33.439079 -37.800694 -76.280075
-33.451523 -39.269176 -76.214775
-33.463974 -40.738743 -76.149422
-33.476437 -42.209419 -76.084007
-33.488907 -43.68119 -76.018562
-33.501385 -45.154041 -75.953064
-33.513874 -46.627998 -75.887512
-33.526375 -48.103065 -75.821915
-33.53685 -49.576214 -75.76693
-33.547333 -51.050293 -75.711922
-33.557716 -52.52512 -75.657425
-33.568211 -54.001034 -75.602348
-33.578712 -55.477875 -75.547226
-33.589222 -56.955635 -75.492073
-33.599739 -58.434334 -75.436874
-33.61026 -59.913948 -75.381645
-33.620682 -61.394291 -75.326958
-33.631218 -62.875751 -75.271675
-33.641758 -64.358147 -75.216339
-33.652309 -65.841469 -75.16098
-33.662861 -67.325729 -75.105576
-33.673424 -68.810905 -75.050148
-33.683887 -70.296806 -74.995247
-33.694462 -71.783852 -74.939751
-31.176208 14.171008 -80.718918
-31.152365 12.744145 -80.849747
-31.152365 11.328136 -80.849754
-31.184422 9.9223175 -80.673859
-31.521112 8.5966711 -78.826477
-31.521112 7.1638942 -78.826477
-31.521112 5.7311063 -78.826477
-31.521112 4.2983322 -78.826469
-31.521112 2.8655553 -78.826477
-31.521112 1.4327812 -78.826469
-31.521112 4.5437046e-06 -78.826477
-31.521112 -1.4327801 -78.826469
-31.521112 -2.8655503 -78.826469
-31.521112 -4.2983341 -78.826477
-31.521112 -5.731111 -78.826477
-31.521112 -7.163887 -78.826469
-31.521112 -8.5966635 -78.826477
-29.759108 14.171008 -80.718918
-29.736345 12.744145 -80.849747
-29.736345 11.328136 -80.849754
-29.766949 9.9223175 -80.673859
-30.088335 8.5966711 -78.826477
-30.088335 7.1638942 -78.826477
-30.088335 5.7311063 -78.826477
-30.088335 4.2983322 -78.826469
-30.088335 2.8655553 -78.826477
-30.088335 1.4327812 -78.826469
-30.088335 4.5437046e-06 -78.826477
-30.088335 -1.4327801 -78.826469
-30.088335 -2.8655503 -78.826469
-30.088335 -4.2983341 -78.826477
-30.088335 -5.731111 -78.826477
-30.088335 -7.163887 -78.826469
-30.088335 -8.5966635 -78.826477
-28.342007 14.171008 -80.718918
-28.32033 12.744145 -80.849747
-28.32033 11.328136 -80.849754
-28.349474 9.9223175 -80.673859
-28.65556 8.5966711 -78.826477
-28.65556 7.1638942 -78.826477
-28.65556 5.7311063 -78.826477
-28.65556 4.2983322 -78.826469
-28.65556 2.8655553 -78.826477
-28.65556 1.4327812 -78.826469
-28.65556 4.5437046e-06 -78.826477
-28.65556 -1.4327801 -78.826469
-28.65556 -2.8655503 -78.826469
-28.65556 -4.2983341 -78.826477
-28.65556 -5.731111 -78.826477
-28.65556 -7.163887 -78.826469
-28.65556 -8.5966635 -78.826477
-26.924906 14.171008 -80.718918
-26.904314 12.744145 -80.849747
-26.904314 11.328136 -80.849754
-26.932001 9.9223175 -80.673859
-27.22278 8.5966711 -78.826477
-27.22278 7.1638942 -78.826477
-27.22278 5.7311063 -78.826477
-27.22278 4.2983322 -78.826469
-27.22278 2.8655553 -78.826477
-27.22278 1.4327812 -78.826469
-27.22278 4.5437046e-06 -78.826477
-27.22278 -1.4327801 -78.826469
-27.22278 -2.8655503 -78.826469
-27.22278 -4.2983341 -78.826477
-27.22278 -5.731111 -78.826477
-27.22278 -7.163887 -78.826469
-27.22278 -8.5966635 -78.826477
-25.507807 14.171008 -80.718918
-25.488297 12.744145 -80.849747
-25.488297 11.328136 -80.849754
-25.514526 9.9223175 -80.673859
-25.790003 8.5966711 -78.826477
-25.790003 7.1638942 -78.826477
-25.790003 5.7311063 -78.826477
-25.790003 4.2983322 -78.826469
-25.790003 2.8655553 -78.826477
-25.790003 1.4327812 -78.826469
-25.790003 4.5437046e-06 -78.826477
-25.790003 -1.4327801 -78.826469
-25.790003 -2.8655503 -78.826469
-25.790003 -4.2983341 -78.826477
-25.790003 -5.731111 -78.826477
-25.790003 -7.163887 -78.826469
-25.790003 -8.5966635 -78.826477
-24.090704 14.171008 -80.718918
-24.072281 12.744145 -80.849747
-24.072281 11.328136 -80.849754
-24.097054 9.9223175 -80.673859
-24.357224 8.5966711 -78.826477
-24.357224 7.1638942 -78.826477
-24.357224 5.7311063 -78.826477
-24.357224 4.2983322 -78.826469
-24.357224 2.8655553 -78.826477
-24.357224 1.4327812 -78.826469
-24.357224 4.5437046e-06 -78.826477
-24.357224 -1.4327801 -78.826469
-24.357224 -2.8655503 -78.826469
-24.357224 -4.2983341 -78.826477
-24.357224 -5.731111 -78.826477
-24.357224 -7.163887 -78.826469
-24.357224 -8.5966635 -78.826477
-22.673605 14.171008 -80.718918
-22.656265 12.744145 -80.849747
-22.656265 11.328136 -80.849754
-22.679579 9.9223175 -80.673859
-22.924446 8.5966711 -78.826477
-22.924446 7.1638942 -78.826477
-22.924446 5.7311063 -78.826477
-22.924446 4.2983322 -78.826469
-22.924446 2.8655553 -78.826477
-22.924446 1.4327812 -78.826469
-22.924446 4.5437046e-06 -78.826477
-22.924446 -1.4327801 -78.826469
-22.924446 -2.8655503 -78.826469
-22.924446 -4.2983341 -78.826477
-22.924446 -5.731111 -78.826477
-22.924446 -7.163887 -78.826469
-22.924446 -8.5966635 -78.826477
-21.256506 14.171008 -80.718918
-21.240246 12.744145 -80.849747
-21.240246 11.328136 -80.849754
-21.262106 9.9223175 -80.673859
-21.491667 8.5966711 -78.826477
-21.491667 7.1638942 -78.826477
-21.491667 5.7311063 -78.826477
-21.491667 4.2983322 -78.826469
-21.491667 2.8655553 -78.826477
-21.491667 1.4327812 -78.826469
-21.491667 4.5437046e-06 -78.826477
-21.491667 -1.4327801 -78.826469
-21.491667 -2.8655503 -78.826469
-21.491667 -4.2983341 -78.826477
-21.491667 -5.731111 -78.826477
-21.491667 -7.163887 -78.826469
-21.491667 -8.5966635 -78.826477
-19.839405 14.171008 -80.718918
-19.82423 12.744145 -80.849747
-19.82423 11.328136 -80.849754
-19.844633 9.9223175 -80.673859
-20.058889 8.5966711 -78.826477
-20.058889 7.1638942 -78.826477
-20.058889 5.7311063 -78.826477
-20.058889 4.2983322 -78.826469
-20.058889 2.8655553 -78.826477
-20.058889 1.4327812 -78.826469
-20.058889 4.5437046e-06 -78.826477
-20.058889 -1.4327801 -78.826469
-20.058889 -2.8655503 -78.826469
-20.058889 -4.2983341 -78.826477
-20.058889 -5.731111 -78.826477
-20.058889 -7.163887 -78.826469
-20.058889 -8.5966635 -78.826477
-37.92918 -18.96459 75.254585
-37.931652 -21.675226 75.275902
-37.934124 -24.386225 75.297218
-37.936596 -27.097569 75.318542
-37.939068 -29.809271 75.339859
-37.941544 -32.521317 75.361176
-37.944016 -35.233727 75.382507
-37.946487 -37.946487 75.403847
-37.948967 -40.659599 75.425171
-37.951439 -43.373074 75.446503
-37.95369 -46.08662 75.465904
-37.956165 -48.800785 75.487259
-37.958637 -51.515297 75.508591
-37.961113 -54.230167 75.529945
-37.963593 -56.945385 75.551285
-37.966068 -59.660957 75.572639
-37.968544 -62.376892 75.593994
-37.971024 -65.093178 75.615349
-37.973499 -67.809814 75.636711
-37.975975 -70.526817 75.658081
-37.978455 -73.244156 75.679443
-37.980934 -75.961861 75.700821
-37.983414 -78.679916 75.722176
-37.985889 -81.398331 75.743553
-37.988373 -84.117104 75.764938
-37.990849 -86.836227 75.786324
-18.422304 14.171008 -80.718918
-18.408215 12.744145 -80.849747
-18.408215 11.328136 -80.849754
-18.427158 9.9223175 -80.673859
-18.626112 8.5966711 -78.826477
-18.626112 7.1638942 -78.826477
-18.626112 5.7311063 -78.826477
-18.626112 4.2983322 -78.826469
-18.626112 2.8655553 -78.826477
-18.626112 1.4327812 -78.826469
-18.626112 4.5437046e-06 -78.826477
-18.626112 -1.4327801 -78.826469
-18.626112 -2.8655503 -78.826469
-18.626112 -4.2983341 -78.826477
-18.626112 -5.731111 -78.826477
-18.626112 -7.163887 -78.826469
-18.626112 -8.5966635 -78.826477
-35.219952 -18.96459 75.254585
-35.222248 -21.675226 75.275902
-35.224545 -24.386225 75.297218
-35.226837 -27.097569 75.318542
-35.229137 -29.809271 75.339859
-35.231434 -32.521317 75.361176
-35.23373 -35.233727 75.382507
-35.236027 -37.946487 75.403847
-35.238323 -40.659599 75.425171
-35.240623 -43.373074 75.446503
-35.24271 -46.08662 75.465904
-35.245007 -48.800785 75.487259
-35.247307 -51.515297 75.508591
-35.249607 -54.230167 75.529945
-35.251907 -56.945385 75.551285
-35.254208 -59.660957 75.572639
-35.256504 -62.376892 75.593994
-35.258804 -65.093178 75.615349
-35.261108 -67.809814 75.636711
-35.263405 -70.526817 75.658081
-35.265709 -73.244156 75.679443
-35.268009 -75.961861 75.700821
-35.270313 -78.679916 75.722176
-35.272614 -81.398331 75.743553
-35.274914 -84.117104 75.764938
-35.277218 -86.836227 75.786324
-17.005203 14.171008 -80.718918
-16.992197 12.744145 -80.849747
-16.992197 11.328136 -80.849754
-17.009686 9.9223175 -80.673859
-17.193335 8.5966711 -78.826477
-17.193335 7.1638942 -78.826477
-17.193335 5.7311063 -78.826477
-17.193335 4.2983322 -78.826469
-17.193335 2.8655553 -78.826477
-17.193335 1.4327812 -78.826469
-17.193335 4.5437046e-06 -78.826477
-17.193335 -1.4327801 -78.826469
-17.193335 -2.8655503 -78.826469
-17.193335 -4.2983341 -78.826477
-17.193335 -5.731111 -78.826477
-17.193335 -7.163887 -78.826469
-17.193335 -8.5966635 -78.826477
-15.588104 14.171008 -80.718918
-15.576182 12.744145 -80.849747
-15.576182 11.328136 -80.849754
-15.592211 9.9223175 -80.673859
-15.760556 8.5966711 -78.826477
-15.760556 7.1638942 -78.826477
-15.760556 5.7311063 -78.826477
-15.760556 4.2983322 -78.826469
-15.760556 2.8655553 -78.826477
-15.760556 1.4327812 -78.826469
-15.760556 4.5437046e-06 -78.826477
-15.760556 -1.4327801 -78.826469
-15.760556 -2.8655503 -78.826469
-15.760556 -4.2983341 -78.826477
-15.760556 -5.731111 -78.826477
-15.760556 -7.163887 -78.826469
-15.760556 -8.5966635 -78.826477
-14.171003 14.171008 -80.718918
-14.160165 12.744145 -80.849747
-14.160165 11.328136 -80.849754
-14.174737 9.9223175 -80.673859
-14.32778 8.5966711 -78.826477
-14.32778 7.1638942 -78.826477
-14.32778 5.7311063 -78.826477
-14.32778 4.2983322 -78.826469
-14.32778 2.8655553 -78.826477
-14.32778 1.4327812 -78.826469
-14.32778 4.5437046e-06 -78.826477
-14.32778 -1.4327801 -78.826469
-14.32778 -2.8655503 -78.826469
-14.32778 -4.2983341 -78.826477
-14.32778 -5.731111 -78.826477
-14.32778 -7.163887 -78.826469
-14.32778 -8.5966635 -78.826477
-12.753903 14.171008 -80.718918
-12.744148 12.744145 -80.849747
-12.744148 11.328136 -80.849754
-12.757263 9.9223175 -80.673859
-12.895001 8.5966711 -78.826477
-12.895001 7.1638942 -78.826477
-12.895001 5.7311063 -78.826477
-12.895001 4.2983322 -78.826469
-12.895001 2.8655553 -78.826477
-12.895001 1.4327812 -78.826469
-12.895001 4.5437046e-06 -78.826477
-12.895001 -1.4327801 -78.826469
-12.895001 -2.8655503 -78.826469
-12.895001 -4.2983341 -78.826477
-12.895001 -5.731111 -78.826477
-12.895001 -7.163887 -78.826469
-12.895001 -8.5966635 -78.826477
-11.336802 14.171008 -80.718918
-11.328133 12.744145 -80.849747
-11.328133 11.328136 -80.849754
-11.339789 9.9223175 -80.673859
-11.462223 8.5966711 -78.826477
-11.462223 7.1638942 -78.826477
-11.462223 5.7311063 -78.826477
-11.462223 4.2983322 -78.826469
-11.462223 2.8655553 -78.826477
-11.462223 1.4327812 -78.826469
-11.462223 4.5437046e-06 -78.826477
-11.462223 -1.4327801 -78.826469
-11.462223 -2.8655503 -78.826469
-11.462223 -4.2983341 -78.826477
-11.462223 -5.731111 -78.826477
-11.462223 -7.163887 -78.826469
-11.462223 -8.5966635 -78.826477
-9.9197025 14.171008 -80.718918
-9.9121151 12.744145 -80.849747
-9.9121151 11.328136 -80.849754
-9.9223166 9.9223175 -80.673859
-10.029445 8.5966711 -78.826477
-10.029445 7.1638942 -78.826477
-10.029445 5.7311063 -78.826477
-10.029445 4.2983322 -78.826469
-10.029445 2.8655553 -78.826477
-10.029445 1.4327812 -78.826469
-10.029445 4.5437046e-06 -78.826477
-10.029445 -1.4327801 -78.826469
-10.029445 -2.8655503 -78.826469
-10.029445 -4.2983341 -78.826477
-10.029445 -5.731111 -78.826477
-10.029445 -7.163887 -78.826469
-10.029445 -8.5966635 -78.826477
-8.5026016 14.171008 -80.718918
-8.4960985 12.744145 -80.849747
-8.4960985 11.328136 -80.849754
-8.5048428 9.9223175 -80.673859
-8.5966673 8.5966711 -78.826477
-8.5966673 7.1638942 -78.826477
-8.5966673 5.7311063 -78.826477
-8.5966673 4.2983322 -78.826469
-8.5966673 2.8655553 -78.826477
-8.5966673 1.4327812 -78.826469
-8.5966673 4.5437046e-06 -78.826477
-8.5966673 -1.4327801 -78.826469
-8.5966673 -2.8655503 -78.826469
-8.5966673 -4.2983341 -78.826477
-8.5966673 -5.731111 -78.826477
-8.5966673 -7.163887 -78.826469
-8.5966673 -8.5966635 -78.826477
-7.0855017 14.171008 -80.718918
-7.0800824 12.744145 -80.849747
-7.0800824 11.328136 -80.849754
-7.0873685 9.9223175 -80.673859
-7.1638899 8.5966711 -78.826477
-7.1638899 7.1638942 -78.826477
-7.1638899 5.7311063 -78.826477
-7.1638899 4.2983322 -78.826469
-7.1638899 2.8655553 -78.826477
-7.1638899 1.4327812 -78.826469
-7.1638899 4.5437046e-06 -78.826477
-7.1638899 -1.4327801 -78.826469
-7.1638899 -2.8655503 -78.826469
-7.1638899 -4.2983341 -78.826477
-7.1638899 -5.731111 -78.826477
-7.1638899 -7.163887 -78.826469
-7.1638899 -8.5966635 -78.826477
-5.6684012 14.171008 -80.718918
-5.6640663 12.744145 -80.849747
-5.6640663 11.328136 -80.849754
-5.6698947 9.9223175 -80.673859
-5.7311115 8.5966711 -78.826477
-5.7311115 7.1638942 -78.826477
-5.7311115 5.7311063 -78.826477
-5.7311115 4.2983322 -78.826469
-5.7311115 2.8655553 -78.826477
-5.7311115 1.4327812 -78.826469
-5.7311115 4.5437046e-06 -78.826477
-5.7311115 -1.4327801 -78.826469
-5.7311115 -2.8655503 -78.826469
-5.7311115 -4.2983341 -78.826477
-5.7311115 -5.731111 -78.826477
-5.7311115 -7.163887 -78.826469
-5.7311115 -8.5966635 -78.826477
-4.2513008 14.171008 -80.718918
-4.2480493 12.744145 -80.849747
-4.2480493 11.328136 -80.849754
-4.2524214 9.9223175 -80.673859
-4.2983336 8.5966711 -78.826477
-4.2983336 7.1638942 -78.826477
-4.2983336 5.7311063 -78.826477
-4.2983336 4.2983322 -78.826469
-4.2983336 2.8655553 -78.826477
-4.2983336 1.4327812 -78.826469
-4.2983336 4.5437046e-06 -78.826477
-4.2983336 -1.4327801 -78.826469
-4.2983336 -2.8655503 -78.826469
-4.2983336 -4.2983341 -78.826477
-4.2983336 -5.731111 -78.826477
-4.2983336 -7.163887 -78.826469
-4.2983336 -8.5966635 -78.826477
-2.8342006 14.171008 -80.718918
-2.8320332 12.744145 -80.849747
-2.8320332 11.328136 -80.849754
-2.8349473 9.9223175 -80.673859
-2.8655558 8.5966711 -78.826477
-2.8655558 7.1638942 -78.826477
-2.8655558 5.7311063 -78.826477
-2.8655558 4.2983322 -78.826469
-2.8655558 2.8655553 -78.826477
-2.8655558 1.4327812 -78.826469
-2.8655558 4.5437046e-06 -78.826477
-2.8655558 -1.4327801 -78.826469
-2.8655558 -2.8655503 -78.826469
-2.8655558 -4.2983341 -78.826477
-2.8655558 -5.731111 -78.826477
-2.8655558 -7.163887 -78.826469
-2.8655558 -8.5966635 -78.826477
-1.4171003 14.171008 -80.718918
-1.4160166 12.744145 -80.849747
-1.4160166 11.328136 -80.849754
-1.4174737 9.9223175 -80.673859
-1.4327779 8.5966711 -78.826477
-1.4327779 7.1638942 -78.826477
-1.4327779 5.7311063 -78.826477
-1.4327779 4.2983322 -78.826469
-1.4327779 2.8655553 -78.826477
-1.4327779 1.4327812 -78.826469
-1.4327779 4.5437046e-06 -78.826477
-1.4327779 -1.4327801 -78.826469
-1.4327779 -2.8655503 -78.826469
-1.4327779 -4.2983341 -78.826477
-1.4327779 -5.731111 -78.826477
-1.4327779 -7.163887 -78.826469
-1.4327779 -8.5966635 -78.826477
-2.50286e-23 14.171008 -80.718918
6.1402156e-24 12.744145 -80.849747
-1.5094797e-23 11.328136 -80.849754
-1.6849539e-23 9.9223175 -80.673859
-7.8566886e-24 8.5966711 -78.826477
-4.4069292e-23 7.1638942 -78.826477
9.6894207e-24 5.7311063 -78.826477
5.2275856e-24 4.2983322 -78.826469
-3.0985017e-23 2.8655553 -78.826477
-3.5446853e-23 1.4327812 -78.826469
-7.1659456e-23 4.5437046e-06 -78.826477
-1.7900743e-23 -1.4327801 -78.826469
-5.4113346e-23 -2.8655503 -78.826469
-5.8575182e-23 -4.2983341 -78.826477
-9.4787785e-23 -5.731111 -78.826477
-3.964897e-24 -7.163887 -78.826469
-4.01775e-23 -8.5966635 -78.826477
1.4171003 14.171008 -80.718918
1.4160166 12.744145 -80.849747
1.4160166 11.328136 -80.849754
1.4174737 9.9223175 -80.673859
1.4327779 8.5966711 -78.826477
1.4327779 7.1638942 -78.826477
1.4327779 5.7311063 -78.826477
1.4327779 4.2983322 -78.826469
1.4327779 2.8655553 -78.826477
1.4327779 1.4327812 -78.826469
1.4327779 4.543705e-06 -78.826477
1.4327779 -1.4327801 -78.826469
1.4327779 -2.8655503 -78.826469
1.4327779 -4.2983341 -78.826477
1.4327779 -5.731111 -78.826477
1.4327779 -7.163887 -78.826469
1.4327779 -8.5966635 -78.826477
2.8342006 14.171008 -80.718918
2.8320332 12.744145 -80.849747
2.8320332 11.328136 -80.849754
2.8349473 9.9223175 -80.673859
2.8655558 8.5966711 -78.826477
2.8655558 7.1638942 -78.826477
2.8655558 5.7311063 -78.826477
2.8655558 4.2983322 -78.826469
2.8655558 2.8655553 -78.826477
2.8655558 1.4327812 -78.826469
2.8655558 4.543705e-06 -78.826477
2.8655558 -1.4327801 -78.826469
2.8655558 -2.8655503 -78.826469
2.8655558 -4.2983341 -78.826477
2.8655558 -5.731111 -78.826477
2.8655558 -7.163887 -78.826469
2.8655558 -8.5966635 -78.826477
4.2513008 14.171008 -80.718918
4.2480493 12.744145 -80.849747
4.2480493 11.328136 -80.849754
4.2524214 9.9223175 -80.673859
4.2983336 8.5966711 -78.826477
4.2983336 7.1638942 -78.826477
4.2983336 5.7311063 -78.826477
4.2983336 4.2983322 -78.826469
4.2983336 2.8655553 -78.826477
4.2983336 1.4327812 -78.826469
4.2983336 4.543705e-06 -78.826477
4.2983336 -1.4327801 -78.826469
4.2983336 -2.8655503 -78.826469
4.2983336 -4.2983341 -78.826477
4.2983336 -5.731111 -78.826477
4.2983336 -7.163887 -78.826469
4.2983336 -8.5966635 -78.826477
5.6684012 14.171008 -80.718918
5.6640663 12.744145 -80.849747
5.6640663 11.328136 -80.849754
5.6698947 9.9223175 -80.673859
5.7311115 8.5966711 -78.826477
5.7311115 7.1638942 -78.826477
5.7311115 5.7311063 -78.826477
5.7311115 4.2983322 -78.826469
5.7311115 2.8655553 -78.826477
5.7311115 1.4327812 -78.826469
5.7311115 4.543705e-06 -78.826477
5.7311115 -1.4327801 -78.826469
5.7311115 -2.8655503 -78.826469
5.7311115 -4.2983341 -78.826477
5.7311115 -5.731111 -78.826477
5.7311115 -7.163887 -78.826469
5.7311115 -8.5966635 -78.826477
7.0855017 14.171008 -80.718918
7.0800824 12.744145 -80.849747
7.0800824 11.328136 -80.849754
7.0873685 9.9223175 -80.673859
7.1638899 8.5966711 -78.826477
7.1638899 7.1638942 -78.826477
7.1638899 5.7311063 -78.826477
7.1638899 4.2983322 -78.826469
7.1638899 2.8655553 -78.826477
7.1638899 1.4327812 -78.826469
7.1638899 4.543705e-06 -78.826477
7.1638899 -1.4327801 -78.826469
7.1638899 -2.8655503 -78.826469
7.1638899 -4.2983341 -78.826477
7.1638899 -5.731111 -78.826477
7.1638899 -7.163887 -78.826469
7.1638899 -8.5966635 -78.826477
8.5026016 14.171008 -80.718918
8.4960985 12.744145 -80.849747
8.4960985 11.328136 -80.849754
8.5048428 9.9223175 -80.673859
8.5966673 8.5966711 -78.826477
8.5966673 7.1638942 -78.826477
8.5966673 5.7311063 -78.826477
8.5966673 4.2983322 -78.826469
8.5966673 2.8655553 -78.826477
8.5966673 1.4327812 -78.826469
8.5966673 4.543705e-06 -78.826477
8.5966673 -1.4327801 -78.826469
8.5966673 -2.8655503 -78.826469
8.5966673 -4.2983341 -78.826477
8.5966673 -5.731111 -78.826477
8.5966673 -7.163887 -78.826469
8.5966673 -8.5966635 -78.826477
9.9197025 14.171008 -80.718918
9.9121151 12.744145 -80.849747
9.9121151 11.328136 -80.849754
9.9223166 9.9223175 -80.673859
10.029445 8.5966711 -78.826477
10.029445 7.1638942 -78.826477
10.029445 5.7311063 -78.826477
10.029445 4.2983322 -78.826469
10.029445 2.8655553 -78.826477
10.029445 1.4327812 -78.826469
10.029445 4.543705e-06 -78.826477
10.029445 -1.4327801 -78.826469
10.029445 -2.8655503 -78.826469
10.029445 -4.2983341 -78.826477
10.029445 -5.731111 -78.826477
10.029445 -7.163887 -78.826469
10.029445 -8.5966635 -78.826477
11.336802 14.171008 -80.718918
11.328133 12.744145 -80.849747
11.328133 11.328136 -80.849754
11.339789 9.9223175 -80.673859
11.462223 8.5966711 -78.826477
11.462223 7.1638942 -78.826477
11.462223 5.7311063 -78.826477
11.462223 4.2983322 -78.826469
11.462223 2.8655553 -78.826477
11.462223 1.4327812 -78.826469
11.462223 4.543705e-06 -78.826477
11.462223 -1.4327801 -78.826469
11.462223 -2.8655503 -78.826469
11.462223 -4.2983341 -78.826477
11.462223 -5.731111 -78.826477
11.462223 -7.163887 -78.826469
11.462223 -8.5966635 -78.826477
12.753903 14.171008 -80.718918
12.744148 12.744145 -80.849747
12.744148 11.328136 -80.849754
12.757263 9.9223175 -80.673859
12.895001 8.5966711 -78.826477
12.895001 7.1638942 -78.826477
12.895001 5.7311063 -78.826477
12.895001 4.2983322 -78.826469
12.895001 2.8655553 -78.826477
12.895001 1.4327812 -78.826469
12.895001 4.543705e-06 -78.826477
12.895001 -1.4327801 -78.826469
12.895001 -2.8655503 -78.826469
12.895001 -4.2983341 -78.826477
12.895001 -5.731111 -78.826477
12.895001 -7.163887 -78.826469
12.895001 -8.5966635 -78.826477
14.171003 14.171008 -80.718918
14.160165 12.744145 -80.849747
14.160165 11.328136 -80.849754
14.174737 9.9223175 -80.673859
14.32778 8.5966711 -78.826477
14.32778 7.1638942 -78.826477
14.32778 5.7311063 -78.826477
14.32778 4.2983322 -78.826469
14.32778 2.8655553 -78.826477
14.32778 1.4327812 -78.826469
14.32778 4.543705e-06 -78.826477
14.32778 -1.4327801 -78.826469
14.32778 -2.8655503 -78.826469
14.32778 -4.2983341 -78.826477
14.32778 -5.731111 -78.826477
14.32778 -7.163887 -78.826469
14.32778 -8.5966635 -78.826477
15.588104 14.171008 -80.718918
15.576182 12.744145 -80.849747
15.576182 11.328136 -80.849754
15.592211 9.9223175 -80.673859
15.760556 8.5966711 -78.826477
15.760556 7.1638942 -78.826477
15.760556 5.7311063 -78.826477
15.760556 4.2983322 -78.826469
15.760556 2.8655553 -78.826477
15.760556 1.4327812 -78.826469
15.760556 4.543705e-06 -78.826477
15.760556 -1.4327801 -78.826469
15.760556 -2.8655503 -78.826469
15.760556 -4.2983341 -78.826477
15.760556 -5.731111 -78.826477
15.760556 -7.163887 -78.826469
15.760556 -8.5966635 -78.826477
17.005203 14.171008 -80.718918
16.992197 12.744145 -80.849747
16.992197 11.328136 -80.849754
17.009686 9.9223175 -80.673859
17.193335 8.5966711 -78.826477
17.193335 7.1638942 -78.826477
17.193335 5.7311063 -78.826477
17.193335 4.2983322 -78.826469
17.193335 2.8655553 -78.826477
17.193335 1.4327812 -78.826469
17.193335 4.543705e-06 -78.826477
17.193335 -1.4327801 -78.826469
17.193335 -2.8655503 -78.826469
17.193335 -4.2983341 -78.826477
17.193335 -5.731111 -78.826477
17.193335 -7.163887 -78.826469
17.193335 -8.5966635 -78.826477
32.510727 -18.96459 75.254585
32.512844 -21.675226 75.275902
32.514965 -24.386225 75.297218
32.517082 -27.097569 75.318542
32.519203 -29.809271 75.339859
32.521324 -32.521317 75.361176
32.523445 -35.233727 75.382507
32.525562 -37.946487 75.403847
32.527683 -40.659599 75.425171
32.529804 -43.373074 75.446503
32.531734 -46.08662 75.465904
32.533855 -48.800785 75.487259
32.535976 -51.515297 75.508591
32.538097 -54.230167 75.529945
32.541573 -56.947742 75.564873
32.544083 -59.664143 75.590103
32.546394 -62.380589 75.613411
32.554314 -65.108612 75.693039
32.557018 -67.82711 75.720245
32.559914 -70.546478 75.74939
32.562618 -73.265892 75.776604
32.565517 -75.986206 75.805771
32.568222 -78.706543 75.832985
32.571121 -81.427803 75.862137
32.57383 -84.149055 75.889359
32.576733 -86.871277 75.918549
18.422304 14.171008 -80.718918
18.408215 12.744145 -80.849747
18.408215 11.328136 -80.849754
18.427158 9.9223175 -80.673859
18.626112 8.5966711 -78.826477
18.626112 7.1638942 -78.826477
18.626112 5.7311063 -78.826477
18.626112 4.2983322 -78.826469
18.626112 2.8655553 -78.826477
18.626112 1.4327812 -78.826469
18.626112 4.543705e-06 -78.826477
18.626112 -1.4327801 -78.826469
18.626112 -2.8655503 -78.826469
18.626112 -4.2983341 -78.826477
18.626112 -5.731111 -78.826477
18.626112 -7.163887 -78.826469
18.626112 -8.5966635 -78.826477
35.219952 -18.96459 75.254585
35.222248 -21.675226 75.275902
35.224545 -24.386225 75.297218
35.226837 -27.097569 75.318542
35.229137 -29.809271 75.339859
35.231434 -32.521317 75.361176
35.23373 -35.233727 75.382507
35.236027 -37.946487 75.403847
35.238323 -40.659599 75.425171
35.240623 -43.373074 75.446503
35.24271 -46.08662 75.465904
35.245007 -48.800785 75.487259
35.247307 -51.515297 75.508591
35.249607 -54.230167 75.529945
35.251907 -56.945385 75.551285
35.254208 -59.660957 75.572639
35.256504 -62.376892 75.593994
35.258804 -65.093178 75.615349
35.261108 -67.809814 75.636711
35.263405 -70.526817 75.658081
35.265709 -73.244156 75.679443
35.268009 -75.961861 75.700821
35.270313 -78.679916 75.722176
35.272614 -81.398331 75.743553
35.274914 -84.117104 75.764938
35.277218 -86.836227 75.786324
19.839405 14.171008 -80.718918
19.82423 12.744145 -80.849747
19.82423 11.328136 -80.849754
19.844633 9.9223175 -80.673859
20.058889 8.5966711 -78.826477
20.058889 7.1638942 -78.826477
20.058889 5.7311063 -78.826477
20.058889 4.2983322 -78.826469
20.058889 2.8655553 -78.826477
20.058889 1.4327812 -78.826469
20.058889 4.543705e-06 -78.826477
20.058889 -1.4327801 -78.826469
20.058889 -2.8655503 -78.826469
20.058889 -4.2983341 -78.826477
20.058889 -5.731111 -78.826477
20.058889 -7.163887 -78.826469
20.058889 -8.5966635 -78.826477
37.92918 -18.96459 75.254585
37.931652 -21.675226 75.275902
37.934124 -24.386225 75.297218
37.936596 -27.097569 75.318542
37.939068 -29.809271 75.339859
37.941544 -32.521317 75.361176
37.944016 -35.233727 75.382507
37.946487 -37.946487 75.403847
37.948967 -40.659599 75.425171
37.951439 -43.373074 75.446503
37.95369 -46.08662 75.465904
37.956165 -48.800785 75.487259
37.958637 -51.515297 75.508591
37.961113 -54.230167 75.529945
37.963593 -56.945385 75.551285
37.966068 -59.660957 75.572639
37.968544 -62.376892 75.593994
37.971024 -65.093178 75.615349
37.981834 -67.824707 75.708588
37.985664 -70.544807 75.741615
37.989048 -73.264587 75.770767
37.992428 -75.984848 75.799919
37.995811 -78.705605 75.829094
37.999195 -81.426842 75.858253
38.002579 -84.148567 75.887428
38.006184 -86.871277 75.918549
21.256506 14.171008 -80.718918
21.240246 12.744145 -80.849747
21.240246 11.328136 -80.849754
21.262106 9.9223175 -80.673859
21.491667 8.5966711 -78.826477
21.491667 7.1638942 -78.826477
21.491667 5.7311063 -78.826477
21.491667 4.2983322 -78.826469
21.491667 2.8655553 -78.826477
21.491667 1.4327812 -78.826469
21.491667 4.543705e-06 -78.826477
21.491667 -1.4327801 -78.826469
21.491667 -2.8655503 -78.826469
21.491667 -4.2983341 -78.826477
21.491667 -5.731111 -78.826477
21.491667 -7.163887 -78.826469
21.491667 -8.5966635 -78.826477
22.673605 14.171008 -80.718918
22.656265 12.744145 -80.849747
22.656265 11.328136 -80.849754
22.679579 9.9223175 -80.673859
22.924446 8.5966711 -78.826477
22.924446 7.1638942 -78.826477
22.924446 5.7311063 -78.826477
22.924446 4.2983322 -78.826469
22.924446 2.8655553 -78.826477
22.924446 1.4327812 -78.826469
22.924446 4.543705e-06 -78.826477
22.924446 -1.4327801 -78.826469
22.924446 -2.8655503 -78.826469
22.924446 -4.2983341 -78.826477
22.924446 -5.731111 -78.826477
22.924446 -7.163887 -78.826469
22.924446 -8.5966635 -78.826477
24.090704 14.171008 -80.718918
24.072281 12.744145 -80.849747
24.072281 11.328136 -80.849754
24.097054 9.9223175 -80.673859
24.357224 8.5966711 -78.826477
24.357224 7.1638942 -78.826477
24.357224 5.7311063 -78.826477
24.357224 4.2983322 -78.826469
24.357224 2.8655553 -78.826477
24.357224 1.4327812 -78.826469
24.357224 4.543705e-06 -78.826477
24.357224 -1.4327801 -78.826469
24.357224 -2.8655503 -78.826469
24.357224 -4.2983341 -78.826477
24.357224 -5.731111 -78.826477
24.357224 -7.163887 -78.826469
24.357224 -8.5966635 -78.826477
25.507807 14.171008 -80.718918
25.488297 12.744145 -80.849747
25.488297 11.328136 -80.849754
25.514526 9.9223175 -80.673859
25.790003 8.5966711 -78.826477
25.790003 7.1638942 -78.826477
25.790003 5.7311063 -78.826477
25.790003 4.2983322 -78.826469
25.790003 2.8655553 -78.826477
25.790003 1.4327812 -78.826469
25.790003 4.543705e-06 -78.826477
25.790003 -1.4327801 -78.826469
25.790003 -2.8655503 -78.826469
25.790003 -4.2983341 -78.826477
25.790003 -5.731111 -78.826477
25.790003 -7.163887 -78.826469
25.790003 -8.5966635 -78.826477
26.924906 14.171008 -80.718918
26.904314 12.744145 -80.849747
26.904314 11.328136 -80.849754
26.932001 9.9223175 -80.673859
27.22278 8.5966711 -78.826477
27.22278 7.1638942 -78.826477
27.22278 5.7311063 -78.826477
27.22278 4.2983322 -78.826469
27.22278 2.8655553 -78.826477
27.22278 1.4327812 -78.826469
27.22278 4.543705e-06 -78.826477
27.22278 -1.4327801 -78.826469
27.22278 -2.8655503 -78.826469
27.22278 -4.2983341 -78.826477
27.22278 -5.731111 -78.826477
27.22278 -7.163887 -78.826469
27.22278 -8.5966635 -78.826477
28.342007 14.171008 -80.718918
28.32033 12.744145 -80.849747
28.32033 11.328136 -80.849754
28.349474 9.9223175 -80.673859
28.65556 8.5966711 -78.826477
28.65556 7.1638942 -78.826477
28.65556 5.7311063 -78.826477
28.65556 4.2983322 -78.826469
28.65556 2.8655553 -78.826477
28.65556 1.4327812 -78.826469
28.65556 4.543705e-06 -78.826477
28.65556 -1.4327801 -78.826469
28.65556 -2.8655503 -78.826469
28.65556 -4.2983341 -78.826477
28.65556 -5.731111 -78.826477
28.65556 -7.163887 -78.826469
28.65556 -8.5966635 -78.826477
29.759108 14.171008 -80.718918
29.736345 12.744145 -80.849747
29.736345 11.328136 -80.849754
29.766949 9.9223175 -80.673859
30.088335 8.5966711 -78.826477
30.088335 7.1638942 -78.826477
30.088335 5.7311063 -78.826477
30.088335 4.2983322 -78.826469
30.088335 2.8655553 -78.826477
30.088335 1.4327812 -78.826469
30.088335 4.543705e-06 -78.826477
30.088335 -1.4327801 -78.826469
30.088335 -2.8655503 -78.826469
30.088335 -4.2983341 -78.826477
30.088335 -5.731111 -78.826477
30.088335 -7.163887 -78.826469
30.088335 -8.5966635 -78.826477
31.176208 14.171008 -80.718918
31.152365 12.744145 -80.849747
31.152365 11.328136 -80.849754
31.184422 9.9223175 -80.673859
31.521112 8.5966711 -78.826477
31.521112 7.1638942 -78.826477
31.521112 5.7311063 -78.826477
31.521112 4.2983322 -78.826469
31.521112 2.8655553 -78.826477
31.521112 1.4327812 -78.826469
31.521112 4.543705e-06 -78.826477
31.521112 -1.4327801 -78.826469
31.521112 -2.8655503 -78.826469
31.521112 -4.2983341 -78.826477
31.521112 -5.731111 -78.826477
31.521112 -7.163887 -78.826469
31.521112 -8.5966635 -78.826477
32.655575 -10.390409 -72.601852
32.593307 14.171008 -80.718918
32.568378 12.744145 -80.849747
32.568378 11.328136 -80.849754
32.601894 9.9223175 -80.673859
32.915012 8.5865297 -79.030525
32.917175 7.1559038 -79.019165
32.919235 5.7250843 -79.008354
32.921402 4.2940965 -78.997002
32.923561 2.8629255 -78.985641
32.925625 1.4315505 -78.974823
32.927788 -4.3911109e-07 -78.963463
32.929955 -1.4317366 -78.952103
32.932018 -2.8636565 -78.941277
32.934181 -4.2957673 -78.929901
32.936348 -5.728054 -78.918549
32.938412 -7.1605177 -78.907722
32.940578 -8.5931931 -78.896355
32.942745 -10.026053 -78.884979
32.944809 -11.459059 -78.874153
32.946976 -12.892293 -78.86277
32.949142 -14.325714 -78.851395
32.951206 -15.75927 -78.840561
32.953373 -17.193064 -78.829185
32.955441 -18.626984 -78.818352
32.957607 -20.061153 -78.806961
32.959778 -21.495508 -78.795578
32.961948 -22.930048 -78.784195
32.964321 -24.364931 -78.771729
32.966702 -25.800024 -78.759254
32.969177 -27.235411 -78.746239
32.971558 -28.670914 -78.733765
32.973934 -30.106636 -78.721291
32.976414 -31.542656 -78.708267
32.978897 -32.978893 -78.695244
32.98138 -34.415344 -78.68222
32.98386 -35.852028 -78.669182
32.986343 -37.288914 -78.656158
32.988827 -38.726013 -78.64312
32.997108 -40.170387 -78.599678
33.00042 -41.60923 -78.582275
33.003735 -43.048351 -78.564888
33.008499 -44.489719 -78.539879
33.011711 -45.929337 -78.523026
33.014816 -47.369083 -78.506721
33.018028 -48.809265 -78.489853
33.021244 -50.249722 -78.472992
33.024456 -51.690456 -78.456116
33.027569 -53.131306 -78.439796
33.030785 -54.572598 -78.42292
33.034412 -56.014874 -78.403862
33.038048 -57.457474 -78.384804
33.050919 -58.916859 -78.31723
33.062244 -60.374538 -78.257797
33.073681 -61.833408 -78.197777
33.085125 -63.293278 -78.137718
33.096577 -64.754181 -78.077614
33.108036 -66.216072 -78.017471
33.119503 -67.678986 -77.957291
33.130981 -69.142921 -77.897049
33.142464 -70.607857 -77.836784
34.010406 14.171008 -80.718918
33.984394 12.744145 -80.849747
33.984394 11.328136 -80.849754
34.019371 9.9223175 -80.673859
34.3461 8.5865297 -79.030525
34.348358 7.1559038 -79.019165
34.350506 5.7250843 -79.008354
34.352764 4.2940965 -78.997002
34.355022 2.8629255 -78.985641
34.357174 1.4315505 -78.974823
34.359432 -4.3911109e-07 -78.963463
34.361694 -1.4317366 -78.952103
34.363846 -2.8636565 -78.941277
34.366104 -4.2957673 -78.929901
34.368362 -5.728054 -78.918549
34.370514 -7.1605177 -78.907722
34.372776 -8.5931931 -78.896355
34.375038 -10.026053 -78.884979
34.37719 -11.459059 -78.874153
34.379452 -12.892293 -78.86277
34.381714 -14.325714 -78.851395
34.383869 -15.75927 -78.840561
34.386131 -17.193064 -78.829185
34.388287 -18.626984 -78.818352
34.390549 -20.061153 -78.806961
34.392811 -21.495508 -78.795578
34.394966 -22.929976 -78.784737
34.397232 -24.364704 -78.773354
34.399494 -25.79962 -78.761963
34.401653 -27.23464 -78.751114
34.403915 -28.66993 -78.739731
34.406181 -30.105406 -78.72834
34.408337 -31.540977 -78.717484
34.410606 -32.976826 -78.706085
34.412868 -34.412868 -78.694702
34.415028 -35.848991 -78.683838
34.417294 -37.285393 -78.672447
34.419559 -38.722004 -78.661041
34.421719 -40.158669 -78.650185
34.423988 -41.59565 -78.638786
34.426254 -43.032814 -78.62738
34.428413 -44.470032 -78.616516
34.430683 -45.907581 -78.605103
34.432953 -47.345303 -78.593697
34.435112 -48.783077 -78.582832
34.437382 -50.221184 -78.571411
34.439651 -51.65947 -78.560005
34.441811 -53.097794 -78.549133
34.44408 -54.536457 -78.537712
34.44635 -55.975315 -78.526299
34.448513 -57.414192 -78.515419
34.450787 -58.85342 -78.503998
34.453056 -60.292854 -78.492569
34.455219 -61.732262 -78.481697
34.457489 -63.17207 -78.470268
34.459763 -64.612061 -78.458839
34.461926 -66.052032 -78.447952
34.464199 -67.492393 -78.436531
34.466473 -68.932953 -78.425087
34.468636 -70.373466 -78.414207
35.427509 14.171008 -80.718918
35.40041 12.744145 -80.849747
35.40041 11.328136 -80.849754
35.436844 9.9223175 -80.673859
35.777187 8.5865297 -79.030525
35.779541 7.1559038 -79.019165
35.781776 5.7250843 -79.008354
35.78413 4.2940965 -78.997002
35.78648 2.8629255 -78.985641
35.788723 1.4315505 -78.974823
35.791077 -4.3911109e-07 -78.963463
35.79343 -1.4317366 -78.952103
35.79567 -2.8636565 -78.941277
35.798027 -4.2957673 -78.929901
35.800377 -5.728054 -78.918549
35.80262 -7.1605177 -78.907722
35.804974 -8.5931931 -78.896355
35.807331 -10.026053 -78.884979
35.809574 -11.459059 -78.874153
35.811928 -12.892293 -78.86277
35.814285 -14.325714 -78.851395
35.816528 -15.75927 -78.840561
35.818886 -17.193064 -78.829185
35.821129 -18.626984 -78.818352
35.823486 -20.061153 -78.806961
35.825848 -21.495508 -78.795578
35.828091 -22.929976 -78.784737
35.830448 -24.364704 -78.773354
35.832809 -25.79962 -78.761963
35.835052 -27.23464 -78.751114
35.83741 -28.66993 -78.739731
35.839771 -30.105406 -78.72834
35.842018 -31.540977 -78.717484
35.844379 -32.976826 -78.706085
35.846741 -34.412868 -78.694702
35.848988 -35.848991 -78.683838
35.851349 -37.285393 -78.672447
35.85371 -38.722004 -78.661041
35.855957 -40.158669 -78.650185
35.858318 -41.59565 -78.638786
35.860683 -43.032814 -78.62738
35.86293 -44.470032 -78.616516
35.865295 -45.907581 -78.605103
35.867657 -47.345303 -78.593697
35.869907 -48.783077 -78.582832
35.872272 -50.221184 -78.571411
35.874638 -51.65947 -78.560005
35.876884 -53.097794 -78.549133
35.879253 -54.536457 -78.537712
35.881618 -55.975315 -78.526299
35.883869 -57.414192 -78.515419
35.886234 -58.85342 -78.503998
35.888599 -60.292854 -78.492569
35.890854 -61.732262 -78.481697
35.893219 -63.17207 -78.470268
35.895584 -64.612061 -78.458839
35.897842 -66.052032 -78.447952
35.900208 -67.492393 -78.436531
35.902576 -68.932953 -78.425087
35.904831 -70.373466 -78.414207
36.844608 14.171008 -80.718918
36.816429 12.744145 -80.849747
36.816429 11.328136 -80.849754
36.854317 9.9223175 -80.673859
37.208275 8.5865297 -79.030525
37.21072 7.1559038 -79.019165
37.213047 5.7250843 -79.008354
37.215496 4.2940965 -78.997002
37.217941 2.8629255 -78.985641
37.220272 1.4315505 -78.974823
37.222717 -4.3911109e-07 -78.963463
37.225166 -1.4317366 -78.952103
37.227497 -2.8636565 -78.941277
37.229946 -4.2957673 -78.929901
37.232395 -5.728054 -78.918549
37.234726 -7.1605177 -78.907722
37.237175 -8.5931931 -78.896355
37.239624 -10.026053 -78.884979
37.241959 -11.459059 -78.874153
37.244408 -12.892293 -78.86277
37.246857 -14.325714 -78.851395
37.249191 -15.75927 -78.840561
37.25164 -17.193064 -78.829185
37.253975 -18.626984 -78.818352
37.256428 -20.061153 -78.806961
37.258881 -21.495508 -78.795578
37.261215 -22.929976 -78.784737
37.263668 -24.364704 -78.773354
37.266117 -25.79962 -78.761963
37.268456 -27.23464 -78.751114
37.270908 -28.66993 -78.739731
37.273361 -30.105406 -78.72834
37.2757 -31.540977 -78.717484
37.278156 -32.976826 -78.706085
37.280609 -34.412868 -78.694702
37.282948 -35.848991 -78.683838
37.2854 -37.285393 -78.672447
37.287857 -38.722004 -78.661041
37.290195 -40.158669 -78.650185
37.292652 -41.59565 -78.638786
37.295109 -43.032814 -78.62738
37.297451 -44.470032 -78.616516
37.299904 -45.907581 -78.605103
37.302364 -47.345303 -78.593697
37.304707 -48.783077 -78.582832
37.307163 -50.221184 -78.571411
37.30962 -51.65947 -78.560005
37.311962 -53.097794 -78.549133
37.314423 -54.536457 -78.537712
37.316883 -55.975315 -78.526299
37.319221 -57.414192 -78.515419
37.321682 -58.85342 -78.503998
37.324146 -60.292854 -78.492569
37.326488 -61.732262 -78.481697
37.328949 -63.17207 -78.470268
37.331409 -64.612061 -78.458839
37.333755 -66.052032 -78.447952
37.336216 -67.492393 -78.436531
37.33868 -68.932953 -78.425087
37.341022 -70.373466 -78.414207
38.261711 14.171008 -80.718918
38.232445 12.744145 -80.849747
38.232445 11.328136 -80.849754
38.27179 9.9223175 -80.673859
38.639362 8.5865297 -79.030525
38.641903 7.1559038 -79.019165
38.644321 5.7250843 -79.008354
38.646862 4.2940965 -78.997002
38.649399 2.8629255 -78.985641
38.651821 1.4315505 -78.974823
38.654362 -4.3911109e-07 -78.963463
38.656906 -1.4317366 -78.952103
38.659325 -2.8636565 -78.941277
38.661865 -4.2957673 -78.929901
38.66441 -5.728054 -78.918549
38.666828 -7.1605177 -78.907722
38.669376 -8.5931931 -78.896355
38.671917 -10.026053 -78.884979
38.674339 -11.459059 -78.874153
38.676884 -12.892293 -78.86277
38.679428 -14.325714 -78.851395
38.68185 -15.75927 -78.840561
38.684395 -17.193064 -78.829185
38.686821 -18.626984 -78.818352
38.689365 -20.061153 -78.806961
38.691914 -21.495508 -78.795578
38.694336 -22.929976 -78.784737
38.696884 -24.364704 -78.773354
38.699432 -25.79962 -78.761963
38.701859 -27.23464 -78.751114
38.704403 -28.66993 -78.739731
38.706955 -30.105406 -78.72834
38.709381 -31.540977 -78.717484
38.711929 -32.976826 -78.706085
38.714478 -34.412868 -78.694702
38.716908 -35.848991 -78.683838
38.719456 -37.285393 -78.672447
38.722004 -38.722004 -78.661041
38.724434 -40.158669 -78.650185
38.726986 -41.59565 -78.638786
38.729538 -43.032814 -78.62738
38.731964 -44.470032 -78.616516
38.734516 -45.907581 -78.605103
38.737068 -47.345303 -78.593697
38.739502 -48.783077 -78.582832
38.742054 -50.221184 -78.571411
38.745823 -51.661098 -78.554558
38.756527 -53.110786 -78.506721
38.760174 -54.551361 -78.490395
38.763947 -55.992367 -78.473526
38.767719 -57.433655 -78.456673
38.771496 -58.875229 -78.439789
38.775146 -60.316891 -78.423462
39.67881 14.171008 -80.718918
39.64846 12.744145 -80.849747
39.64846 11.328136 -80.849754
39.689266 9.9223175 -80.673859
41.095909 14.171008 -80.718918
41.06448 12.744145 -80.849747
