# .PCD v0.7 - Point Cloud Data file format
VERSION 0.7
FIELDS x y z
SIZE 4 4 4
TYPE F F F
COUNT 1 1 1
WIDTH 1512
HEIGHT 1
VIEWPOINT 0 0 0 1 0 0 0
POINTS 1512
DATA ascii
-75.19117 73.400909 -35.673847
-75.176453 71.596619 -35.716141
-75.162033 69.793312 -35.75758
-75.147331 67.990456 -35.799835
-75.132637 66.188278 -35.842087
-75.117943 64.386818 -35.884304
-75.103554 62.586288 -35.925674
-75.088875 60.786224 -35.967873
-75.074196 58.986874 -36.010048
-75.059525 57.188213 -36.052208
-75.045151 55.39048 -36.09351
-75.030495 53.59322 -36.135635
-75.015846 51.796661 -36.177746
-75.001198 50.000801 -36.219845
-74.986847 48.205837 -36.261082
-74.972214 46.411369 -36.303143
-74.957581 44.617611 -36.345188
-74.943253 42.824715 -36.386383
-74.928635 41.032349 -36.428402
-74.914017 39.240677 -36.470394
-74.899414 37.449711 -36.512375
-74.885101 35.659576 -36.553497
-74.870506 33.869999 -36.595451
-74.855919 32.081108 -36.637375
-74.841331 30.292919 -36.679298
-74.827042 28.505537 -36.72036
-74.812477 26.718746 -36.762253
-74.797905 24.932642 -36.804115
-74.78334 23.147223 -36.845966
-74.769081 21.362595 -36.886955
-74.754524 19.578564 -36.92878
-74.739983 17.795237 -36.970585
-74.726021 16.012724 -37.010704
-74.712067 14.230881 -37.050808
-74.698128 12.449697 -37.090897
-74.206055 10.600863 -38.505116
-74.206055 8.8340549 -38.505127
-74.206055 7.0672441 -38.505112
-74.206055 5.300437 -38.505123
-74.206055 3.5336175 -38.505116
-74.206055 1.7668109 -38.505127
-74.206055 3.9235681e-07 -38.505112
-74.206055 -1.7668087 -38.505123
-74.206055 -3.5336163 -38.505131
-74.206055 -5.3004341 -38.505127
-74.206055 -7.0672336 -38.505131
-73.496727 -8.7496109 -40.543785
-73.496727 -10.499527 -40.5438
-73.496727 -12.249455 -40.5438
-72.439247 10.600863 -38.505116
-72.886147 8.8885632 -37.189373
-72.886147 7.1108432 -37.189369
-72.886147 5.3331337 -37.189365
-72.886147 3.5554318 -37.189373
-72.886147 1.7777113 -37.189373
-72.886147 1.3645587e-06 -37.189365
-72.886147 -1.7777083 -37.189381
-72.886147 -3.5554192 -37.189373
-72.886147 -5.3331308 -37.189369
-72.439247 -7.0672336 -38.505131
-71.746803 -8.7496109 -40.543785
-71.746803 -10.499527 -40.5438
-71.746803 -12.249455 -40.5438
-70.672432 10.600863 -38.505116
-71.108437 8.8885632 -37.189373
-71.108437 7.1108432 -37.189369
-71.108437 5.3331337 -37.189365
-71.108437 3.5554318 -37.189373
-71.108437 1.7777113 -37.189373
-71.108437 1.3645587e-06 -37.189365
-71.108437 -1.7777083 -37.189381
-71.108437 -3.5554192 -37.189373
-71.108437 -5.3331308 -37.189369
-70.672432 -7.0672336 -38.505131
-69.99688 -8.7496109 -40.543785
-69.99688 -10.499527 -40.5438
-69.99688 -12.249455 -40.5438
-68.905624 10.600863 -38.505116
-69.330727 8.8885632 -37.189373
-69.330727 7.1108432 -37.189369
-69.330727 5.3331337 -37.189365
-69.330727 3.5554318 -37.189373
-69.330727 1.7777113 -37.189373
-69.330727 1.3645587e-06 -37.189365
-69.330727 -1.7777083 -37.189381
-69.330727 -3.5554192 -37.189373
-69.330727 -5.3331308 -37.189369
-68.905624 -7.0672336 -38.505131
-68.246956 -8.7496109 -40.543785
-68.246956 -10.499527 -40.5438
-68.246956 -12.249455 -40.5438
-67.138809 10.600863 -38.505116
-67.553017 8.8885632 -37.189373
-67.553017 7.1108432 -37.189369
-67.553017 5.3331337 -37.189365
-67.553017 3.5554318 -37.189373
-67.553017 1.7777113 -37.189373
-67.553017 1.3645587e-06 -37.189365
-67.553017 -1.7777083 -37.189381
-67.553017 -3.5554192 -37.189373
-67.553017 -5.3331308 -37.189369
-67.138809 -7.0672336 -38.505131
-66.497032 -8.7496109 -40.543785
-66.497032 -10.499527 -40.5438
-66.497032 -12.249455 -40.5438
-65.372002 10.600863 -38.505116
-65.775307 8.8885632 -37.189373
-65.775307 7.1108432 -37.189369
-65.775307 5.3331337 -37.189365
-65.775307 3.5554318 -37.189373
-65.775307 1.7777113 -37.189373
-65.775307 1.3645587e-06 -37.189365
-65.775307 -1.7777083 -37.189381
-65.775307 -3.5554192 -37.189373
-65.775307 -5.3331308 -37.189369
-65.372002 -7.0672336 -38.505131
-64.747116 -8.7496109 -40.543785
-64.747116 -10.499527 -40.5438
-64.747116 -12.249455 -40.5438
-63.60519 10.600863 -38.505116
-63.997593 8.8885632 -37.189373
-63.997593 7.1108432 -37.189369
-63.997593 5.3331337 -37.189365
-63.997593 3.5554318 -37.189373
-63.997593 1.7777113 -37.189373
-63.997593 1.3645587e-06 -37.189365
-63.997593 -1.7777083 -37.189381
-63.997593 -3.5554192 -37.189373
-63.997593 -5.3331308 -37.189369
-63.60519 -7.0672336 -38.505131
-62.997189 -8.7496109 -40.543785
-62.997189 -10.499527 -40.5438
-62.997189 -12.249455 -40.5438
-61.838383 10.600863 -38.505116
-62.219879 8.8885632 -37.189373
-62.219879 7.1108432 -37.189369
-62.219879 5.3331337 -37.189365
-62.219879 3.5554318 -37.189373
-62.219879 1.7777113 -37.189373
-62.219879 1.3645587e-06 -37.189365
-62.219879 -1.7777083 -37.189381
-62.219879 -3.5554192 -37.189373
-62.219879 -5.3331308 -37.189369
-61.838383 -7.0672336 -38.505131
-61.247272 -8.7496109 -40.543785
-61.247272 -10.499527 -40.5438
-61.247272 -12.249455 -40.5438
-80.620926 87.73455 34.451542
-80.615913 85.35804 34.433735
-80.610481 82.981384 34.414459
-80.605461 80.605469 34.396656
-80.600029 78.229446 34.377357
-80.595016 75.854141 34.359558
-80.589584 73.478745 34.340275
-80.58416 71.103668 34.321011
-80.579147 68.729279 34.303204
-80.573715 66.354828 34.283928
-80.56871 63.981033 34.26614
-80.563278 61.607231 34.246876
-80.558273 59.234028 34.229088
-80.552841 56.86084 34.209831
-80.547836 54.488251 34.192055
-80.542412 52.115688 34.172794
-80.537407 49.743702 34.155022
-80.531982 47.37175 34.135769
-80.526978 45.000381 34.118008
-80.521561 42.629055 34.098751
-80.516556 40.258286 34.08099
-80.511131 37.8876 34.061741
-80.506126 35.517399 34.043983
-80.50071 33.147362 34.024742
-80.495712 30.777779 34.007
-80.490295 28.408337 33.987755
-80.485291 26.039358 33.969994
-80.479874 23.670549 33.950771
-80.474876 21.302181 33.933044
-80.46946 18.933998 33.913818
-80.464462 16.566219 33.896061
-60.071568 10.600863 -38.505116
-60.442173 8.8885632 -37.189373
-60.442173 7.1108432 -37.189369
-60.442173 5.3331337 -37.189365
-60.442173 3.5554318 -37.189373
-60.442173 1.7777113 -37.189373
-60.442173 1.3645587e-06 -37.189365
-60.442173 -1.7777083 -37.189381
-60.442173 -3.5554192 -37.189373
-60.442173 -5.3331308 -37.189369
-60.071568 -7.0672336 -38.505131
-59.497349 -8.7496109 -40.543785
-59.497349 -10.499527 -40.5438
-59.497349 -12.249455 -40.5438
-78.249725 87.73455 34.451542
-78.24485 85.35804 34.433735
-78.239586 82.981384 34.414459
-78.234711 80.605469 34.396656
-78.229446 78.229446 34.377357
-78.224579 75.854141 34.359558
-78.219307 73.478745 34.340275
-78.214035 71.103668 34.321011
-78.209167 68.729279 34.303204
-78.203903 66.354828 34.283928
-78.199036 63.981033 34.26614
-78.193771 61.607231 34.246876
-78.188911 59.234028 34.229088
-78.18364 56.86084 34.209831
-78.178787 54.488251 34.192055
-78.173515 52.115688 34.172794
-78.168663 49.743702 34.155022
-78.163391 47.37175 34.135769
-78.158539 45.000381 34.118008
-78.153275 42.629055 34.098751
-78.148422 40.258286 34.08099
-78.143158 37.8876 34.061741
-78.138298 35.517399 34.043983
-78.133049 33.147362 34.024742
-78.128189 30.777779 34.007
-78.122932 28.408337 33.987755
-78.11808 26.039358 33.969994
-78.112823 23.670549 33.950771
-78.107971 21.302181 33.933044
-78.102715 18.933998 33.913818
-78.097862 16.566219 33.896061
-58.30476 10.600863 -38.505116
-58.664463 8.8885632 -37.189373
-58.664463 7.1108432 -37.189369
-58.664463 5.3331337 -37.189365
-58.664463 3.5554318 -37.189373
-58.664463 1.7777113 -37.189373
-58.664463 1.3645587e-06 -37.189365
-58.664463 -1.7777083 -37.189381
-58.664463 -3.5554192 -37.189373
-58.664463 -5.3331308 -37.189369
-58.30476 -7.0672336 -38.505131
-57.747425 -8.7496109 -40.543785
-57.747425 -10.499527 -40.5438
-57.747425 -12.249455 -40.5438
-75.878517 87.73455 34.451542
-75.873802 85.35804 34.433735
-75.868683 82.981384 34.414459
-75.86396 80.605469 34.396656
-75.858849 78.229446 34.377357
-75.854134 75.854141 34.359558
-75.849022 73.478745 34.340275
-75.84391 71.103668 34.321011
-75.839195 68.729279 34.303204
-75.834084 66.354828 34.283928
-75.829369 63.981033 34.26614
-75.824265 61.607231 34.246876
-75.81955 59.234028 34.229088
-75.814438 56.86084 34.209831
-75.809731 54.488251 34.192055
-75.804626 52.115688 34.172794
-75.799911 49.743702 34.155022
-75.794807 47.37175 34.135769
-75.7901 45.000381 34.118008
-75.784996 42.629055 34.098751
-75.780281 40.258286 34.08099
-75.775185 37.8876 34.061741
-75.77047 35.517399 34.043983
-75.765373 33.147362 34.024742
-75.760666 30.777779 34.007
-75.755569 28.408337 33.987755
-75.750862 26.039358 33.969994
-75.745766 23.670549 33.950771
-75.741058 21.302181 33.933044
-75.73597 18.933998 33.913818
-75.731262 16.566219 33.896061
-56.537949 10.600863 -38.505116
-56.886749 8.8885632 -37.189373
-56.886749 7.1108432 -37.189369
-56.886749 5.3331337 -37.189365
-56.886749 3.5554318 -37.189373
-56.886749 1.7777113 -37.189373
-56.886749 1.3645587e-06 -37.189365
-56.886749 -1.7777083 -37.189381
-56.886749 -3.5554192 -37.189373
-56.886749 -5.3331308 -37.189369
-56.537949 -7.0672336 -38.505131
-55.997501 -8.7496109 -40.543785
-55.997501 -10.499527 -40.5438
-55.997501 -12.249455 -40.5438
-54.771137 10.600863 -38.505116
-55.109035 8.8885632 -37.189373
-55.109035 7.1108432 -37.189369
-55.109035 5.3331337 -37.189365
-55.109035 3.5554318 -37.189373
-55.109035 1.7777113 -37.189373
-54.858883 4.3865193e-06 -38.163448
-55.109035 -1.7777083 -37.189381
-55.109035 -3.5554192 -37.189373
-55.109035 -5.3331308 -37.189369
-54.771137 -7.0672336 -38.505131
-54.247581 -8.7496109 -40.543785
-54.247581 -10.499527 -40.5438
-54.247581 -12.249455 -40.5438
-53.004326 10.600863 -38.505116
-53.331329 8.8885632 -37.189373
-53.331329 7.1108432 -37.189369
-53.331329 5.3331337 -37.189365
-53.331329 3.5554318 -37.189373
-53.331329 1.7777113 -37.189373
-53.331329 1.3645587e-06 -37.189365
-53.331329 -1.7777083 -37.189381
-53.331329 -3.5554192 -37.189373
-53.331329 -5.3331308 -37.189369
-53.004326 -7.0672336 -38.505131
-52.497658 -8.7496109 -40.543785
-52.497658 -10.499527 -40.5438
-52.497658 -12.249455 -40.5438
-51.237518 10.600863 -38.505116
-51.553619 8.8885632 -37.189373
-51.553619 7.1108432 -37.189369
-51.553619 5.3331337 -37.189365
-51.553619 3.5554318 -37.189373
-51.553619 1.7777113 -37.189373
-51.553619 1.3645587e-06 -37.189365
-51.553619 -1.7777083 -37.189381
-51.553619 -3.5554192 -37.189373
-51.553619 -5.3331308 -37.189369
-51.237518 -7.0672336 -38.505131
-50.747738 -8.7496109 -40.543785
-50.747738 -10.499527 -40.5438
-50.747738 -12.249455 -40.5438
-49.470703 10.600863 -38.505116
-49.775906 8.8885632 -37.189373
-49.775906 7.1108432 -37.189369
-49.775906 5.3331337 -37.189365
-49.775906 3.5554318 -37.189373
-49.775906 1.7777113 -37.189373
-49.775906 1.3645587e-06 -37.189365
-49.775906 -1.7777083 -37.189381
-49.775906 -3.5554192 -37.189373
-49.775906 -5.3331308 -37.189369
-49.470703 -7.0672336 -38.505131
-48.997814 -8.7496109 -40.543785
-48.997814 -10.499527 -40.5438
-48.997814 -12.249455 -40.5438
-47.703896 10.600863 -38.505116
-47.998192 8.8885632 -37.189373
-47.998192 7.1108432 -37.189369
-47.998192 5.3331337 -37.189365
-47.998192 3.5554318 -37.189373
-47.998192 1.7777113 -37.189373
-47.998192 1.3645587e-06 -37.189365
-47.998192 -1.7777083 -37.189381
-47.998192 -3.5554192 -37.189373
-47.998192 -5.3331308 -37.189369
-47.703896 -7.0672336 -38.505131
-47.247894 -8.7496109 -40.543785
-47.247894 -10.499527 -40.5438
-47.247894 -12.249455 -40.5438
-45.93708 10.600863 -38.505116
-46.220486 8.8885632 -37.189373
-46.220486 7.1108432 -37.189369
-46.220486 5.3331337 -37.189365
-46.220486 3.5554318 -37.189373
-46.220486 1.7777113 -37.189373
-46.220486 1.3645587e-06 -37.189365
-46.220486 -1.7777083 -37.189381
-46.220486 -3.5554192 -37.189373
-46.220486 -5.3331308 -37.189369
-45.93708 -7.0672336 -38.505131
-45.497971 -8.7496109 -40.543785
-45.497971 -10.499527 -40.5438
-45.497971 -12.249455 -40.5438
-44.170273 10.600863 -38.505116
-44.442776 8.8885632 -37.189373
-44.442776 7.1108432 -37.189369
-44.442776 5.3331337 -37.189365
-44.442776 3.5554318 -37.189373
-44.442776 1.7777113 -37.189373
-44.442776 1.3645587e-06 -37.189365
-44.442776 -1.7777083 -37.189381
-44.442776 -3.5554192 -37.189373
-44.442776 -5.3331308 -37.189369
-44.170273 -7.0672336 -38.505131
-43.748047 -8.7496109 -40.543785
-43.748047 -10.499527 -40.5438
-43.748047 -12.249455 -40.5438
-42.403461 10.600863 -38.505116
-42.665062 8.8885632 -37.189373
-42.665062 7.1108432 -37.189369
-42.665062 5.3331337 -37.189365
-42.665062 3.5554318 -37.189373
-42.665062 1.7777113 -37.189373
-42.665062 1.3645587e-06 -37.189365
-42.665062 -1.7777083 -37.189381
-42.665062 -3.5554192 -37.189373
-42.665062 -5.3331308 -37.189369
-42.403461 -7.0672336 -38.505131
-41.998131 -8.7496109 -40.543785
-41.998131 -10.499527 -40.5438
-41.998131 -12.249455 -40.5438
-40.63665 10.600863 -38.505116
-40.887352 8.8885632 -37.189373
-40.887352 7.1108432 -37.189369
-40.887352 5.3331337 -37.189365
-40.887352 3.5554318 -37.189373
-40.887352 1.7777113 -37.189373
-40.887352 1.3645587e-06 -37.189365
-40.887352 -1.7777083 -37.189381
-40.887352 -3.5554192 -37.189373
-40.887352 -5.3331308 -37.189369
-40.63665 -7.0672336 -38.505131
-40.248207 -8.7496109 -40.543785
-40.248207 -10.499527 -40.5438
-40.248207 -12.249455 -40.5438
-38.869839 10.600863 -38.505116
-39.109642 8.8885632 -37.189373
-39.109642 7.1108432 -37.189369
-39.109642 5.3331337 -37.189365
-39.109642 3.5554318 -37.189373
-39.109642 1.7777113 -37.189373
-39.109642 1.3645587e-06 -37.189365
-39.109642 -1.7777083 -37.189381
-39.109642 -3.5554192 -37.189373
-39.109642 -5.3331308 -37.189369
-38.869839 -7.0672336 -38.505131
-38.498283 -8.7496109 -40.543785
-38.498283 -10.499527 -40.5438
-38.498283 -12.249455 -40.5438
-37.103027 10.600863 -38.505116
-37.331932 8.8885632 -37.189373
-37.331932 7.1108432 -37.189369
-37.331932 5.3331337 -37.189365
-37.331932 3.5554318 -37.189373
-37.331932 1.7777113 -37.189373
-37.331932 1.3645587e-06 -37.189365
-37.331932 -1.7777083 -37.189381
-37.331932 -3.5554192 -37.189373
-37.331932 -5.3331308 -37.189369
-37.103027 -7.0672336 -38.505131
-36.748363 -8.7496109 -40.543785
-36.748363 -10.499527 -40.5438
-36.748363 -12.249455 -40.5438
-35.336216 10.600863 -38.505116
-35.336216 8.8340549 -38.505127
-35.336216 7.0672441 -38.505112
-35.336216 5.300437 -38.505123
-35.336216 3.5336175 -38.505116
-35.336216 1.7668109 -38.505127
-35.336216 3.9235681e-07 -38.505112
-35.336216 -1.7668087 -38.505123
-35.336216 -3.5336163 -38.505131
-35.336216 -5.3004341 -38.505127
-35.336216 -7.0672336 -38.505131
-34.99844 -8.7496109 -40.543785
-34.99844 -10.499527 -40.5438
-34.99844 -12.249455 -40.5438
-35.18734 11.111786 -28.226072
-35.18734 9.2598248 -28.226078
-35.18734 7.4078641 -28.226082
-33.921562 5.3560414 -36.267815
-33.921562 3.5706878 -36.267807
-33.921562 1.7853502 -36.267811
-33.921562 7.0863493e-06 -36.267818
-33.921562 -1.7853477 -36.267807
-33.921562 -3.5706842 -36.267811
-33.921562 -5.356029 -36.267818
-33.921562 -7.1413846 -36.267811
-33.248516 -8.7496109 -40.543785
-33.248516 -10.499527 -40.5438
-33.248516 -12.249455 -40.5438
-35.250919 9.7919283 -15.380166
-35.250919 7.8335466 -15.380167
-32.136215 5.3560414 -36.267815
-32.332378 3.5924897 -34.952324
-32.332378 1.7962526 -34.952332
-32.332378 -3.5619748e-06 -34.952328
-32.332378 -1.7962422 -34.952339
-32.332378 -3.5924902 -34.952332
-32.332378 -5.3887272 -34.952339
-32.136215 -7.1413846 -36.267811
-31.498594 -8.7496109 -40.543785
-31.498594 -10.499527 -40.5438
-31.498594 -12.249455 -40.5438
-35.322247 10.388907 -0.96792591
-35.322247 8.3111258 -0.96792495
-30.35087 5.3560414 -36.267815
-30.536133 3.5924897 -34.952324
-30.536133 1.7962526 -34.952332
-30.536133 -3.5619748e-06 -34.952328
-30.536133 -1.7962422 -34.952339
-30.536133 -3.5924902 -34.952332
-30.536133 -5.3887272 -34.952339
-30.35087 -7.1413846 -36.267811
-29.748674 -8.7496109 -40.543785
-29.748674 -10.499527 -40.5438
-29.748674 -12.249455 -40.5438
-35.403011 11.063449 15.317011
-35.403011 8.8507519 15.317017
-28.565527 5.3560414 -36.267815
-28.739891 3.5924897 -34.952324
-28.739891 1.7962526 -34.952332
-28.739891 -3.5619748e-06 -34.952328
-28.739891 -1.7962422 -34.952339
-28.739891 -3.5924902 -34.952332
-28.739891 -5.3887272 -34.952339
-28.565527 -7.1413846 -36.267811
-27.998751 -8.7496109 -40.543785
-27.998751 -10.499527 -40.5438
-27.998751 -12.249455 -40.5438
-35.494804 11.831597 33.862072
-35.494804 9.4652824 33.862072
-26.780182 5.3560414 -36.267815
-26.943647 3.5924897 -34.952324
-26.943647 1.7962526 -34.952332
-26.943647 -3.5619748e-06 -34.952328
-26.943647 -1.7962422 -34.952339
-26.943647 -3.5924902 -34.952332
-26.943647 -5.3887272 -34.952339
-26.780182 -7.1413846 -36.267811
-26.248829 -8.7496109 -40.543785
-26.248829 -10.499527 -40.5438
-26.248829 -12.249455 -40.5438
-24.994835 5.3560414 -36.267815
-25.147404 3.5924897 -34.952324
-25.147404 1.7962526 -34.952332
-25.147404 -3.5619748e-06 -34.952328
-25.147404 -1.7962422 -34.952339
-25.147404 -3.5924902 -34.952332
-25.147404 -5.3887272 -34.952339
-24.994835 -7.1413846 -36.267811
-24.498907 -8.7496109 -40.543785
-24.498907 -10.499527 -40.5438
-24.498907 -12.249455 -40.5438
-23.20949 5.3560414 -36.267815
-23.351162 3.5924897 -34.952324
-23.351162 1.7962526 -34.952332
-23.351162 -3.5619748e-06 -34.952328
-23.351162 -1.7962422 -34.952339
-23.351162 -3.5924902 -34.952332
-23.351162 -5.3887272 -34.952339
-23.20949 -7.1413846 -36.267811
-22.748985 -8.7496109 -40.543785
-22.748985 -10.499527 -40.5438
-22.748985 -12.249455 -40.5438
-21.424145 5.3560414 -36.267815
-21.554918 3.5924897 -34.952324
-21.554918 1.7962526 -34.952332
-21.554918 -3.5619748e-06 -34.952328
-21.554918 -1.7962422 -34.952339
-21.554918 -3.5924902 -34.952332
-21.554918 -5.3887272 -34.952339
-21.424145 -7.1413846 -36.267811
-20.999065 -8.7496109 -40.543785
-20.999065 -10.499527 -40.5438
-20.999065 -12.249455 -40.5438
-19.6388 5.3560414 -36.267815
-19.758675 3.5924897 -34.952324
-19.758675 1.7962526 -34.952332
-19.758675 -3.5619748e-06 -34.952328
-19.758675 -1.7962422 -34.952339
-19.758675 -3.5924902 -34.952332
-19.758675 -5.3887272 -34.952339
-19.6388 -7.1413846 -36.267811
-19.249142 -8.7496109 -40.543785
-19.249142 -10.499527 -40.5438
-19.249142 -12.249455 -40.5438
-17.853455 5.3560414 -36.267815
-17.962433 3.5924897 -34.952324
-17.962433 1.7962526 -34.952332
-17.962433 -3.5619748e-06 -34.952328
-17.962433 -1.7962422 -34.952339
-17.962433 -3.5924902 -34.952332
-17.962433 -5.3887272 -34.952339
-17.853455 -7.1413846 -36.267811
-17.49922 -8.7496109 -40.543785
-17.49922 -10.499527 -40.5438
-17.49922 -12.249455 -40.5438
-16.068108 5.3560414 -36.267815
-16.166189 3.5924897 -34.952324
-16.166189 1.7962526 -34.952332
-16.166189 -3.5619748e-06 -34.952328
-16.166189 -1.7962422 -34.952339
-16.166189 -3.5924902 -34.952332
-16.166189 -5.3887272 -34.952339
-16.068108 -7.1413846 -36.267811
-15.749297 -8.7496109 -40.543785
-15.749297 -10.499527 -40.5438
-15.749297 -12.249455 -40.5438
-14.282763 5.3560414 -36.267815
-14.369946 3.5924897 -34.952324
-14.369946 1.7962526 -34.952332
-14.369946 -3.5619748e-06 -34.952328
-14.369946 -1.7962422 -34.952339
-14.369946 -3.5924902 -34.952332
-14.369946 -5.3887272 -34.952339
-14.282763 -7.1413846 -36.267811
-13.999375 -8.7496109 -40.543785
-13.999375 -10.499527 -40.5438
-13.999375 -12.249455 -40.5438
-12.497417 5.3560414 -36.267815
-12.573702 3.5924897 -34.952324
-12.573702 1.7962526 -34.952332
-12.573702 -3.5619748e-06 -34.952328
-12.573702 -1.7962422 -34.952339
-12.573702 -3.5924902 -34.952332
-12.573702 -5.3887272 -34.952339
-12.497417 -7.1413846 -36.267811
-12.249454 -8.7496109 -40.543785
-12.249454 -10.499527 -40.5438
-12.249454 -12.249455 -40.5438
-10.712072 5.3560414 -36.267815
-10.777459 3.5924897 -34.952324
-10.777459 1.7962526 -34.952332
-10.777459 -3.5619748e-06 -34.952328
-10.777459 -1.7962422 -34.952339
-10.777459 -3.5924902 -34.952332
-10.777459 -5.3887272 -34.952339
-10.712072 -7.1413846 -36.267811
-10.499533 -8.7496109 -40.543785
-10.499533 -10.499527 -40.5438
-10.499533 -12.249455 -40.5438
-8.9267273 5.3560414 -36.267815
-8.9812164 3.5924897 -34.952324
-8.9812164 1.7962526 -34.952332
-8.9812164 -3.5619748e-06 -34.952328
-8.9812164 -1.7962422 -34.952339
-8.9812164 -3.5924902 -34.952332
-8.9812164 -5.3887272 -34.952339
-8.9267273 -7.1413846 -36.267811
-8.7496099 -8.7496109 -40.543785
-8.7496099 -10.499527 -40.5438
-8.7496099 -12.249455 -40.5438
-7.1413817 5.3560414 -36.267815
-7.1849728 3.5924897 -34.952324
-7.1849728 1.7962526 -34.952332
-7.1849728 -3.5619748e-06 -34.952328
-7.1849728 -1.7962422 -34.952339
-7.1849728 -3.5924902 -34.952332
-7.1849728 -5.3887272 -34.952339
-7.1413817 -7.1413846 -36.267811
-6.9996877 -8.7496109 -40.543785
-6.9996877 -10.499527 -40.5438
-6.9996877 -12.249455 -40.5438
-5.3560362 5.3560414 -36.267815
-5.3887296 3.5924897 -34.952324
-5.3887296 1.7962526 -34.952332
-5.3887296 -3.5619748e-06 -34.952328
-5.3887296 -1.7962422 -34.952339
-5.3887296 -3.5924902 -34.952332
-5.3887296 -5.3887272 -34.952339
-5.3560362 -7.1413846 -36.267811
-5.2497663 -8.7496109 -40.543785
-5.2497663 -10.499527 -40.5438
-5.2497663 -12.249455 -40.5438
-3.5706909 5.3560414 -36.267815
-3.5924864 3.5924897 -34.952324
-3.5924864 1.7962526 -34.952332
-3.5924864 -3.5619748e-06 -34.952328
-3.5924864 -1.7962422 -34.952339
-3.5924864 -3.5924902 -34.952332
-3.5924864 -5.3887272 -34.952339
-3.5706909 -7.1413846 -36.267811
-3.4998438 -8.7496109 -40.543785
-3.4998438 -10.499527 -40.5438
-3.4998438 -12.249455 -40.5438
-1.7853454 5.3560414 -36.267815
-1.7962432 3.5924897 -34.952324
-1.7962432 1.7962526 -34.952332
-1.7962432 -3.5619748e-06 -34.952328
-1.7885085 -1.7885063 -35.886002
-1.7962432 -3.5924902 -34.952332
-1.7962432 -5.3887272 -34.952339
-1.7853454 -7.1413846 -36.267811
-1.7499219 -8.7496109 -40.543785
-1.7499219 -10.499527 -40.5438
-1.7499219 -12.249455 -40.5438
-8.0795967e-23 5.3560414 -36.267815
9.4624118e-24 3.5924897 -34.952324
-5.2418744e-23 1.7962526 -34.952332
-4.0220177e-23 -3.5619746e-06 -34.952328
-1.47392e-23 -1.7891665 -35.806595
-2.3728318e-23 -3.5924902 -34.952332
-9.884436e-23 -5.3887272 -34.952339
-1.9775758e-23 -7.1413846 -36.267811
3.3280559e-24 -8.7496109 -40.543785
-5.6858671e-23 -10.499527 -40.5438
-3.7668477e-23 -12.249455 -40.5438
1.7853454 5.3560414 -36.267815
1.7962432 3.5924897 -34.952324
1.7962432 1.7962526 -34.952332
1.7962432 -3.5619746e-06 -34.952328
1.7962432 -1.7962422 -34.952339
1.7962432 -3.5924902 -34.952332
1.7962432 -5.3887272 -34.952339
1.7853454 -7.1413846 -36.267811
1.7499219 -8.7496109 -40.543785
1.7499219 -10.499527 -40.5438
1.7499219 -12.249455 -40.5438
3.5706909 5.3560414 -36.267815
3.5924864 3.5924897 -34.952324
3.5924864 1.7962526 -34.952332
3.5924864 -3.5619746e-06 -34.952328
3.5924864 -1.7962422 -34.952339
3.5924864 -3.5924902 -34.952332
3.5924864 -5.3887272 -34.952339
3.5706909 -7.1413846 -36.267811
3.4998438 -8.7496109 -40.543785
3.4998438 -10.499527 -40.5438
3.4998438 -12.249455 -40.5438
5.3560362 5.3560414 -36.267815
5.3887296 3.5924897 -34.952324
5.3887296 1.7962526 -34.952332
5.3887296 -3.5619746e-06 -34.952328
5.3887296 -1.7962422 -34.952339
5.3887296 -3.5924902 -34.952332
5.3887296 -5.3887272 -34.952339
5.3560362 -7.1413846 -36.267811
5.2497663 -8.7496109 -40.543785
5.2497663 -10.499527 -40.5438
5.2497663 -12.249455 -40.5438
7.1413817 5.3560414 -36.267815
7.1849728 3.5924897 -34.952324
7.1849728 1.7962526 -34.952332
7.1849728 -3.5619746e-06 -34.952328
7.1849728 -1.7962422 -34.952339
7.1849728 -3.5924902 -34.952332
7.1849728 -5.3887272 -34.952339
7.1413817 -7.1413846 -36.267811
6.9996877 -8.7496109 -40.543785
6.9996877 -10.499527 -40.5438
6.9996877 -12.249455 -40.5438
8.9267273 5.3560414 -36.267815
8.9812164 3.5924897 -34.952324
8.9812164 1.7962526 -34.952332
8.9812164 -3.5619746e-06 -34.952328
8.9812164 -1.7962422 -34.952339
8.9812164 -3.5924902 -34.952332
8.9812164 -5.3887272 -34.952339
8.9267273 -7.1413846 -36.267811
8.7496099 -8.7496109 -40.543785
8.7496099 -10.499527 -40.5438
8.7496099 -12.249455 -40.5438
10.712072 5.3560414 -36.267815
10.777459 3.5924897 -34.952324
10.777459 1.7962526 -34.952332
10.777459 -3.5619746e-06 -34.952328
10.777459 -1.7962422 -34.952339
10.777459 -3.5924902 -34.952332
10.777459 -5.3887272 -34.952339
10.712072 -7.1413846 -36.267811
10.499533 -8.7496109 -40.543785
10.499533 -10.499527 -40.5438
10.499533 -12.249455 -40.5438
12.497417 5.3560414 -36.267815
12.573702 3.5924897 -34.952324
12.573702 1.7962526 -34.952332
12.573702 -3.5619746e-06 -34.952328
12.573702 -1.7962422 -34.952339
12.573702 -3.5924902 -34.952332
12.573702 -5.3887272 -34.952339
12.497417 -7.1413846 -36.267811
12.249454 -8.7496109 -40.543785
12.249454 -10.499527 -40.5438
12.249454 -12.249455 -40.5438
14.282763 5.3560414 -36.267815
14.369946 3.5924897 -34.952324
14.369946 1.7962526 -34.952332
14.369946 -3.5619746e-06 -34.952328
14.369946 -1.7962422 -34.952339
14.369946 -3.5924902 -34.952332
14.369946 -5.3887272 -34.952339
14.282763 -7.1413846 -36.267811
13.999375 -8.7496109 -40.543785
13.999375 -10.499527 -40.5438
13.999375 -12.249455 -40.5438
16.068108 5.3560414 -36.267815
16.166189 3.5924897 -34.952324
16.166189 1.7962526 -34.952332
16.166189 -3.5619746e-06 -34.952328
16.166189 -1.7962422 -34.952339
16.166189 -3.5924902 -34.952332
16.166189 -5.3887272 -34.952339
16.068108 -7.1413846 -36.267811
15.749297 -8.7496109 -40.543785
15.749297 -10.499527 -40.5438
15.749297 -12.249455 -40.5438
17.853455 5.3560414 -36.267815
17.962433 3.5924897 -34.952324
17.962433 1.7962526 -34.952332
17.962433 -3.5619746e-06 -34.952328
17.962433 -1.7962422 -34.952339
17.962433 -3.5924902 -34.952332
17.962433 -5.3887272 -34.952339
17.853455 -7.1413846 -36.267811
17.49922 -8.7496109 -40.543785
17.49922 -10.499527 -40.5438
17.49922 -12.249455 -40.5438
19.6388 5.3560414 -36.267815
19.758675 3.5924897 -34.952324
19.758675 1.7962526 -34.952332
19.758675 -3.5619746e-06 -34.952328
19.758675 -1.7962422 -34.952339
19.758675 -3.5924902 -34.952332
19.758675 -5.3887272 -34.952339
19.6388 -7.1413846 -36.267811
19.249142 -8.7496109 -40.543785
19.249142 -10.499527 -40.5438
19.249142 -12.249455 -40.5438
21.424145 5.3560414 -36.267815
21.554918 3.5924897 -34.952324
21.554918 1.7962526 -34.952332
21.554918 -3.5619746e-06 -34.952328
21.554918 -1.7962422 -34.952339
21.554918 -3.5924902 -34.952332
21.554918 -5.3887272 -34.952339
21.424145 -7.1413846 -36.267811
20.999065 -8.7496109 -40.543785
20.999065 -10.499527 -40.5438
20.999065 -12.249455 -40.5438
23.20949 5.3560414 -36.267815
23.351162 3.5924897 -34.952324
23.351162 1.7962526 -34.952332
23.351162 -3.5619746e-06 -34.952328
23.351162 -1.7962422 -34.952339
23.351162 -3.5924902 -34.952332
23.351162 -5.3887272 -34.952339
23.20949 -7.1413846 -36.267811
22.748985 -8.7496109 -40.543785
22.748985 -10.499527 -40.5438
22.748985 -12.249455 -40.5438
33.128483 11.831597 33.862072
33.128483 9.4652824 33.862072
24.994835 5.3560414 -36.267815
25.147404 3.5924897 -34.952324
25.147404 1.7962526 -34.952332
25.147404 -3.5619746e-06 -34.952328
25.147404 -1.7962422 -34.952339
25.147404 -3.5924902 -34.952332
25.147404 -5.3887272 -34.952339
24.994835 -7.1413846 -36.267811
24.498907 -8.7496109 -40.543785
24.498907 -10.499527 -40.5438
24.498907 -12.249455 -40.5438
33.190323 11.063449 15.317011
33.190323 8.8507519 15.317017
26.780182 5.3560414 -36.267815
26.943647 3.5924897 -34.952324
26.943647 1.7962526 -34.952332
26.943647 -3.5619746e-06 -34.952328
26.943647 -1.7962422 -34.952339
26.943647 -3.5924902 -34.952332
26.943647 -5.3887272 -34.952339
26.780182 -7.1413846 -36.267811
26.248829 -8.7496109 -40.543785
26.248829 -10.499527 -40.5438
26.248829 -12.249455 -40.5438
33.244469 10.388907 -0.96792591
33.244469 8.3111258 -0.96792495
28.565527 5.3560414 -36.267815
28.739891 3.5924897 -34.952324
28.739891 1.7962526 -34.952332
28.739891 -3.5619746e-06 -34.952328
28.739891 -1.7962422 -34.952339
28.739891 -3.5924902 -34.952332
28.739891 -5.3887272 -34.952339
28.565527 -7.1413846 -36.267811
27.998751 -8.7496109 -40.543785
27.998751 -10.499527 -40.5438
27.998751 -12.249455 -40.5438
33.292534 9.7919283 -15.380166
33.292534 7.8335466 -15.380167
30.35087 5.3560414 -36.267815
30.536133 3.5924897 -34.952324
30.536133 1.7962526 -34.952332
30.536133 -3.5619746e-06 -34.952328
30.536133 -1.7962422 -34.952339
30.536133 -3.5924902 -34.952332
30.536133 -5.3887272 -34.952339
30.35087 -7.1413846 -36.267811
29.748674 -8.7496109 -40.543785
29.748674 -10.499527 -40.5438
29.748674 -12.249455 -40.5438
33.335377 11.111786 -28.226072
33.335377 9.2598248 -28.226078
33.335377 7.4078641 -28.226082
32.136215 5.3560414 -36.267815
32.145878 3.5717664 -36.203007
32.145878 1.7858833 -36.202999
32.145878 1.5428451e-06 -36.203014
32.145878 -1.7858806 -36.203011
32.145878 -3.5717652 -36.203003
32.145878 -5.3576474 -36.202999
32.136215 -7.1413846 -36.267811
31.498594 -8.7496109 -40.543785
31.498594 -10.499527 -40.5438
31.498594 -12.249455 -40.5438
33.569405 10.600863 -38.505116
33.569405 8.8340549 -38.505127
33.569405 7.0672441 -38.505112
33.569405 5.300437 -38.505123
33.569405 3.5336175 -38.505116
33.569405 1.7668109 -38.505127
33.569405 3.9235681e-07 -38.505112
33.569405 -1.7668087 -38.505123
33.569405 -3.5336163 -38.505131
33.569405 -5.3004341 -38.505127
33.569405 -7.0672336 -38.505131
33.248516 -8.7496109 -40.543785
33.248516 -10.499527 -40.5438
33.248516 -12.249455 -40.5438
35.336216 10.600863 -38.505116
35.554081 8.8885231 -37.190205
35.554081 7.1108117 -37.190197
35.554081 5.3331118 -37.190208
35.554081 3.5554085 -37.190193
35.554081 1.7777075 -37.190205
35.554081 -4.0341811e-06 -37.190197
35.554081 -1.7777039 -37.190208
35.554081 -3.5554068 -37.190193
35.554081 -5.3331084 -37.190205
35.336216 -7.0672336 -38.505131
34.99844 -8.7496109 -40.543785
34.99844 -10.499527 -40.5438
34.99844 -12.249455 -40.5438
37.103027 10.600863 -38.505116
37.331787 8.8885231 -37.190205
37.331787 7.1108117 -37.190197
37.331787 5.3331118 -37.190208
37.331787 3.5554085 -37.190193
37.331787 1.7777075 -37.190205
37.331787 -4.0341811e-06 -37.190197
37.331787 -1.7777039 -37.190208
37.331787 -3.5554068 -37.190193
37.331787 -5.3331084 -37.190205
37.103027 -7.0672336 -38.505131
36.748363 -8.7496109 -40.543785
36.748363 -10.499527 -40.5438
36.748363 -12.249455 -40.5438
38.869839 10.600863 -38.505116
39.109489 8.8885231 -37.190205
39.109489 7.1108117 -37.190197
39.109489 5.3331118 -37.190208
39.109489 3.5554085 -37.190193
39.109489 1.7777075 -37.190205
39.109489 -4.0341811e-06 -37.190197
39.109489 -1.7777039 -37.190208
39.109489 -3.5554068 -37.190193
39.109489 -5.3331084 -37.190205
38.869839 -7.0672336 -38.505131
38.498283 -8.7496109 -40.543785
38.498283 -10.499527 -40.5438
38.498283 -12.249455 -40.5438
40.63665 10.600863 -38.505116
40.887192 8.8885231 -37.190205
40.887192 7.1108117 -37.190197
40.887192 5.3331118 -37.190208
40.887192 3.5554085 -37.190193
40.887192 1.7777075 -37.190205
40.887192 -4.0341811e-06 -37.190197
40.887192 -1.7777039 -37.190208
40.887192 -3.5554068 -37.190193
40.887192 -5.3331084 -37.190205
40.63665 -7.0672336 -38.505131
40.248207 -8.7496109 -40.543785
40.248207 -10.499527 -40.5438
40.248207 -12.249455 -40.5438
42.403461 10.600863 -38.505116
42.664894 8.8885231 -37.190205
42.664894 7.1108117 -37.190197
42.664894 5.3331118 -37.190208
42.664894 3.5554085 -37.190193
42.664894 1.7777075 -37.190205
42.664894 -4.0341811e-06 -37.190197
42.664894 -1.7777039 -37.190208
42.664894 -3.5554068 -37.190193
42.664894 -5.3331084 -37.190205
42.403461 -7.0672336 -38.505131
41.998131 -8.7496109 -40.543785
41.998131 -10.499527 -40.5438
41.998131 -12.249455 -40.5438
44.170273 10.600863 -38.505116
44.442604 8.8885231 -37.190205
44.442604 7.1108117 -37.190197
44.442604 5.3331118 -37.190208
44.442604 3.5554085 -37.190193
44.442604 1.7777075 -37.190205
44.442604 -4.0341811e-06 -37.190197
44.442604 -1.7777039 -37.190208
44.442604 -3.5554068 -37.190193
44.442604 -5.3331084 -37.190205
44.170273 -7.0672336 -38.505131
43.748047 -8.7496109 -40.543785
43.748047 -10.499527 -40.5438
43.748047 -12.249455 -40.5438
45.93708 10.600863 -38.505116
46.220306 8.8885231 -37.190205
46.220306 7.1108117 -37.190197
46.220306 5.3331118 -37.190208
46.220306 3.5554085 -37.190193
46.220306 1.7777075 -37.190205
46.220306 -4.0341811e-06 -37.190197
46.220306 -1.7777039 -37.190208
46.220306 -3.5554068 -37.190193
46.220306 -5.3331084 -37.190205
45.93708 -7.0672336 -38.505131
45.497971 -8.7496109 -40.543785
45.497971 -10.499527 -40.5438
45.497971 -12.249455 -40.5438
47.703896 10.600863 -38.505116
47.998009 8.8885231 -37.190205
47.998009 7.1108117 -37.190197
47.998009 5.3331118 -37.190208
47.998009 3.5554085 -37.190193
47.998009 1.7777075 -37.190205
47.998009 -4.0341811e-06 -37.190197
47.998009 -1.7777039 -37.190208
47.998009 -3.5554068 -37.190193
47.998009 -5.3331084 -37.190205
47.703896 -7.0672336 -38.505131
47.247894 -8.7496109 -40.543785
47.247894 -10.499527 -40.5438
47.247894 -12.249455 -40.5438
49.470703 10.600863 -38.505116
49.775715 8.8885231 -37.190205
49.775715 7.1108117 -37.190197
49.775715 5.3331118 -37.190208
49.775715 3.5554085 -37.190193
49.775715 1.7777075 -37.190205
49.775715 -4.0341811e-06 -37.190197
49.775715 -1.7777039 -37.190208
49.775715 -3.5554068 -37.190193
49.775715 -5.3331084 -37.190205
49.470703 -7.0672336 -38.505131
48.997814 -8.7496109 -40.543785
48.997814 -10.499527 -40.5438
48.997814 -12.249455 -40.5438
51.237518 10.600863 -38.505116
51.553417 8.8885231 -37.190205
51.553417 7.1108117 -37.190197
51.553417 5.3331118 -37.190208
51.553417 3.5554085 -37.190193
51.553417 1.7777075 -37.190205
51.553417 -4.0341811e-06 -37.190197
51.553417 -1.7777039 -37.190208
51.553417 -3.5554068 -37.190193
51.553417 -5.3331084 -37.190205
51.237518 -7.0672336 -38.505131
50.747738 -8.7496109 -40.543785
50.747738 -10.499527 -40.5438
50.747738 -12.249455 -40.5438
53.004326 10.600863 -38.505116
53.33112 8.8885231 -37.190205
53.33112 7.1108117 -37.190197
53.33112 5.3331118 -37.190208
53.33112 3.5554085 -37.190193
53.33112 1.7777075 -37.190205
53.33112 -4.0341811e-06 -37.190197
53.33112 -1.7777039 -37.190208
53.33112 -3.5554068 -37.190193
53.33112 -5.3331084 -37.190205
53.004326 -7.0672336 -38.505131
52.497658 -8.7496109 -40.543785
52.497658 -10.499527 -40.5438
52.497658 -12.249455 -40.5438
73.507317 87.73455 34.451542
73.502747 85.35804 34.433735
73.497787 82.981384 34.414459
73.493217 80.605469 34.396656
73.488258 78.229446 34.377357
73.483696 75.854141 34.359558
73.478745 73.478745 34.340275
73.473785 71.103668 34.321011
73.469223 68.729279 34.303204
73.464272 66.354828 34.283928
73.459702 63.981033 34.26614
73.454758 61.607231 34.246876
73.450188 59.234028 34.229088
73.445244 56.86084 34.209831
73.440674 54.488251 34.192055
73.43573 52.115688 34.172794
73.431168 49.743702 34.155022
73.426216 47.37175 34.135769
73.421661 45.000381 34.118008
73.41671 42.629055 34.098751
73.412155 40.258286 34.08099
73.407211 37.8876 34.061741
73.402649 35.517399 34.043983
73.397705 33.147362 34.024742
73.39315 30.777779 34.007
73.388206 28.408337 33.987755
73.383652 26.039358 33.969994
73.378708 23.670549 33.950771
73.374153 21.302181 33.933044
73.369217 18.933998 33.913818
73.364662 16.566219 33.896061
54.771137 10.600863 -38.505116
55.108826 8.8885231 -37.190205
55.108826 7.1108117 -37.190197
55.108826 5.3331118 -37.190208
55.108826 3.5554085 -37.190193
55.108826 1.7777075 -37.190205
54.861008 -1.7485494e-06 -38.155174
55.108826 -1.7777039 -37.190208
55.108826 -3.5554068 -37.190193
55.108826 -5.3331084 -37.190205
54.771137 -7.0672336 -38.505131
54.247581 -8.7496109 -40.543785
54.247581 -10.499527 -40.5438
54.247581 -12.249455 -40.5438
75.878517 87.73455 34.451542
75.873802 85.35804 34.433735
75.868683 82.981384 34.414459
75.86396 80.605469 34.396656
75.858849 78.229446 34.377357
75.854134 75.854141 34.359558
75.849022 73.478745 34.340275
75.84391 71.103668 34.321011
75.839195 68.729279 34.303204
75.834084 66.354828 34.283928
75.829369 63.981033 34.26614
75.824265 61.607231 34.246876
75.81955 59.234028 34.229088
75.814438 56.86084 34.209831
75.809731 54.488251 34.192055
75.804626 52.115688 34.172794
75.799911 49.743702 34.155022
75.794807 47.37175 34.135769
75.7901 45.000381 34.118008
75.784996 42.629055 34.098751
75.780281 40.258286 34.08099
75.775185 37.8876 34.061741
75.77047 35.517399 34.043983
75.765373 33.147362 34.024742
75.760666 30.777779 34.007
75.755569 28.408337 33.987755
75.750862 26.039358 33.969994
75.745766 23.670549 33.950771
75.741058 21.302181 33.933044
75.73597 18.933998 33.913818
75.731262 16.566219 33.896061
56.537949 10.600863 -38.505116
56.886528 8.8885231 -37.190205
56.886528 7.1108117 -37.190197
56.886528 5.3331118 -37.190208
56.886528 3.5554085 -37.190193
56.886528 1.7777075 -37.190205
56.886528 -4.0341811e-06 -37.190197
56.886528 -1.7777039 -37.190208
56.886528 -3.5554068 -37.190193
56.886528 -5.3331084 -37.190205
56.537949 -7.0672336 -38.505131
55.997501 -8.7496109 -40.543785
55.997501 -10.499527 -40.5438
55.997501 -12.249455 -40.5438
78.249725 87.73455 34.451542
78.24485 85.35804 34.433735
78.239586 82.981384 34.414459
78.234711 80.605469 34.396656
78.229446 78.229446 34.377357
78.224579 75.854141 34.359558
78.219307 73.478745 34.340275
78.214035 71.103668 34.321011
78.209167 68.729279 34.303204
78.203903 66.354828 34.283928
78.199036 63.981033 34.26614
78.193771 61.607231 34.246876
78.188911 59.234028 34.229088
78.18364 56.86084 34.209831
78.178787 54.488251 34.192055
78.173515 52.115688 34.172794
78.168663 49.743702 34.155022
78.163391 47.37175 34.135769
78.158539 45.000381 34.118008
78.153275 42.629055 34.098751
78.148422 40.258286 34.08099
78.143158 37.8876 34.061741
78.138298 35.517399 34.043983
78.133049 33.147362 34.024742
78.128189 30.777779 34.007
78.122932 28.408337 33.987755
78.11808 26.039358 33.969994
78.112823 23.670549 33.950771
78.107971 21.302181 33.933044
78.102715 18.933998 33.913818
78.097862 16.566219 33.896061
58.30476 10.600863 -38.505116
58.66423 8.8885231 -37.190205
58.66423 7.1108117 -37.190197
58.66423 5.3331118 -37.190208
58.66423 3.5554085 -37.190193
58.66423 1.7777075 -37.190205
58.66423 -4.0341811e-06 -37.190197
58.66423 -1.7777039 -37.190208
58.66423 -3.5554068 -37.190193
58.66423 -5.3331084 -37.190205
58.30476 -7.0672336 -38.505131
57.747425 -8.7496109 -40.543785
57.747425 -10.499527 -40.5438
57.747425 -12.249455 -40.5438
60.071568 10.600863 -38.505116
60.441936 8.8885231 -37.190205
60.441936 7.1108117 -37.190197
60.441936 5.3331118 -37.190208
60.441936 3.5554085 -37.190193
60.441936 1.7777075 -37.190205
60.441936 -4.0341811e-06 -37.190197
60.441936 -1.7777039 -37.190208
60.441936 -3.5554068 -37.190193
60.441936 -5.3331084 -37.190205
60.071568 -7.0672336 -38.505131
59.497349 -8.7496109 -40.543785
59.497349 -10.499527 -40.5438
59.497349 -12.249455 -40.5438
61.838383 10.600863 -38.505116
62.219639 8.8885231 -37.190205
62.219639 7.1108117 -37.190197
62.219639 5.3331118 -37.190208
62.219639 3.5554085 -37.190193
62.219639 1.7777075 -37.190205
62.219639 -4.0341811e-06 -37.190197
62.219639 -1.7777039 -37.190208
62.219639 -3.5554068 -37.190193
62.219639 -5.3331084 -37.190205
61.838383 -7.0672336 -38.505131
61.247272 -8.7496109 -40.543785
61.247272 -10.499527 -40.5438
61.247272 -12.249455 -40.5438
63.60519 10.600863 -38.505116
63.997341 8.8885231 -37.190205
63.997341 7.1108117 -37.190197
63.997341 5.3331118 -37.190208
63.997341 3.5554085 -37.190193
63.997341 1.7777075 -37.190205
63.997341 -4.0341811e-06 -37.190197
63.997341 -1.7777039 -37.190208
63.997341 -3.5554068 -37.190193
63.997341 -5.3331084 -37.190205
63.60519 -7.0672336 -38.505131
62.997189 -8.7496109 -40.543785
62.997189 -10.499527 -40.5438
62.997189 -12.249455 -40.5438
65.372002 10.600863 -38.505116
65.775047 8.8885231 -37.190205
65.775047 7.1108117 -37.190197
65.775047 5.3331118 -37.190208
65.775047 3.5554085 -37.190193
65.775047 1.7777075 -37.190205
65.775047 -4.0341811e-06 -37.190197
65.775047 -1.7777039 -37.190208
65.775047 -3.5554068 -37.190193
65.775047 -5.3331084 -37.190205
65.372002 -7.0672336 -38.505131
64.747116 -8.7496109 -40.543785
64.747116 -10.499527 -40.5438
64.747116 -12.249455 -40.5438
67.138809 10.600863 -38.505116
67.55275 8.8885231 -37.190205
67.55275 7.1108117 -37.190197
67.55275 5.3331118 -37.190208
67.55275 3.5554085 -37.190193
67.55275 1.7777075 -37.190205
67.55275 -4.0341811e-06 -37.190197
67.55275 -1.7777039 -37.190208
67.55275 -3.5554068 -37.190193
67.55275 -5.3331084 -37.190205
67.138809 -7.0672336 -38.505131
66.497032 -8.7496109 -40.543785
66.497032 -10.499527 -40.5438
66.497032 -12.249455 -40.5438
68.905624 10.600863 -38.505116
69.330452 8.8885231 -37.190205
69.330452 7.1108117 -37.190197
69.330452 5.3331118 -37.190208
69.330452 3.5554085 -37.190193
69.330452 1.7777075 -37.190205
69.330452 -4.0341811e-06 -37.190197
69.330452 -1.7777039 -37.190208
69.330452 -3.5554068 -37.190193
69.330452 -5.3331084 -37.190205
68.905624 -7.0672336 -38.505131
68.246956 -8.7496109 -40.543785
68.246956 -10.499527 -40.5438
68.246956 -12.249455 -40.5438
70.672432 10.600863 -38.505116
71.108162 8.8885231 -37.190205
71.108162 7.1108117 -37.190197
71.108162 5.3331118 -37.190208
71.108162 3.5554085 -37.190193
71.108162 1.7777075 -37.190205
71.108162 -4.0341811e-06 -37.190197
71.108162 -1.7777039 -37.190208
71.108162 -3.5554068 -37.190193
71.108162 -5.3331084 -37.190205
70.672432 -7.0672336 -38.505131
69.99688 -8.7496109 -40.543785
69.99688 -10.499527 -40.5438
69.99688 -12.249455 -40.5438
73.45813 87.79142 -35.505363
73.443459 85.982597 -35.548565
73.428787 84.174477 -35.591751
73.414124 82.367065 -35.634937
73.399467 80.560394 -35.678082
73.384811 78.754433 -35.721214
73.370171 76.949196 -35.764339
73.35553 75.144691 -35.807446
73.340897 73.340904 -35.850525
73.326263 71.537827 -35.893589
73.311646 69.735458 -35.936649
73.297028 67.93383 -35.979675
73.282417 66.132919 -36.02269
73.267807 64.332718 -36.065685
73.253212 62.533237 -36.108669
73.239189 60.73494 -36.149963
73.226891 58.938721 -36.186165
73.21431 57.142879 -36.223206
73.202019 55.34787 -36.259403
73.189445 53.553261 -36.296417
73.177162 51.759457 -36.332581
73.164597 49.966064 -36.369572
73.152321 48.173485 -36.405708
73.139771 46.381321 -36.442677
73.127502 44.589939 -36.478798
73.114952 42.799004 -36.515732
73.102409 41.008678 -36.552666
73.090157 39.219112 -36.588745
73.077621 37.43 -36.625648
73.065376 35.641647 -36.661694
73.052849 33.85376 -36.698582
73.040611 32.066608 -36.734612
73.028091 30.279947 -36.771465
73.015869 28.493999 -36.807465
73.003357 26.708542 -36.844292
72.991135 24.923809 -36.88028
72.978638 23.139561 -36.917072
72.966141 21.355947 -36.953865
72.953926 19.573006 -36.989803
72.941444 17.7906 -37.026588
72.929245 16.008862 -37.062496
72.916763 14.227657 -37.099232
72.904572 12.447124 -37.135136
72.439247 10.600863 -38.505116
72.439247 8.8340549 -38.505127
72.439247 7.0672441 -38.505112
72.439247 5.300437 -38.505123
72.439247 3.5336175 -38.505116
72.439247 1.7668109 -38.505127
72.439247 3.9235681e-07 -38.505112
72.439247 -1.7668087 -38.505123
72.439247 -3.5336163 -38.505131
72.439247 -5.3004341 -38.505127
72.439247 -7.0672336 -38.505131
71.746803 -8.7496109 -40.543785
71.746803 -10.499527 -40.5438
71.746803 -12.249455 -40.5438
74.412773 88.586639 -37.911018
74.407867 86.809181 -37.92511
74.403252 85.032288 -37.938366
74.398354 83.255302 -37.952442
74.393456 81.478554 -37.966518
74.388557 79.702034 -37.980606
74.383659 77.925743 -37.994675
74.378769 76.149696 -38.008747
74.374153 74.374161 -38.021999
74.369263 72.598579 -38.036064
74.364365 70.823212 -38.050137
74.359474 69.04808 -38.064198
74.354584 67.273186 -38.078262
74.349968 65.498795 -38.091496
74.345078 63.724365 -38.10556
74.340187 61.950157 -38.119617
74.335297 60.176193 -38.133675
74.330406 58.402473 -38.147736
74.325516 56.628967 -38.161797
74.320915 54.855915 -38.175014
74.316025 53.082878 -38.189064
74.311134 51.310078 -38.203114
74.306252 49.537502 -38.217167
74.301369 47.765167 -38.231209
74.296768 45.99324 -38.244423
74.291878 44.221363 -38.258457
74.286995 42.449715 -38.272499
74.282112 40.678299 -38.286541
74.277229 38.907124 -38.300579
74.272346 37.136173 -38.31461
74.267746 35.365593 -38.327816
74.262871 33.595104 -38.34185
74.257988 31.824856 -38.355873
74.253105 30.054829 -38.369904
74.248222 28.28504 -38.38393
74.243637 26.515583 -38.397125
74.238754 24.74625 -38.41114
74.233879 22.977158 -38.425175
74.229004 21.208292 -38.439182
74.224121 19.439659 -38.453209
74.219246 17.671249 -38.467213
74.214661 15.903147 -38.4804
74.209785 14.135198 -38.494419
74.20491 12.367485 -38.508423
74.200035 10.600011 -38.522427
74.19516 8.8327551 -38.536427
74.190575 7.0657721 -38.549622
74.185707 5.2989831 -38.56361
74.18084 3.5324249 -38.577621
74.175964 1.7660941 -38.59161
74.171097 -1.1575845e-06 -38.605606
74.166229 -1.7658553 -38.619598
74.161644 -3.5315044 -38.632767
74.156776 -5.2969093 -38.646759
74.151909 -7.0620871 -38.660744
73.496727 -8.7496109 -40.543785
73.496727 -10.499527 -40.5438
73.496727 -12.249455 -40.5438
76.184502 88.586639 -37.911018
76.179489 86.809181 -37.92511
76.174767 85.032288 -37.938366
76.169746 83.255302 -37.952442
76.164734 81.478554 -37.966518
76.159721 79.702034 -37.980606
76.154701 77.925743 -37.994675
76.149689 76.149696 -38.008747
76.144974 74.374161 -38.021999
76.139961 72.598579 -38.036064
76.134941 70.823212 -38.050137
76.129936 69.04808 -38.064198
76.124924 67.273186 -38.078262
76.120209 65.498795 -38.091496
76.115204 63.724365 -38.10556
76.110199 61.950157 -38.119617
76.105186 60.176193 -38.133675
76.100182 58.402473 -38.147736
76.095177 56.628967 -38.161797
76.090462 54.855915 -38.175014
76.085457 53.082878 -38.189064
76.080452 51.310078 -38.203114
76.075447 49.537502 -38.217167
76.070442 47.765167 -38.231209
76.065735 45.99324 -38.244423
76.060738 44.221363 -38.258457
76.055733 42.449715 -38.272499
76.050735 40.678299 -38.286541
76.045731 38.907124 -38.300579
76.040733 37.136173 -38.31461
76.036034 35.365593 -38.327816
76.031029 33.595104 -38.34185
76.026031 31.824856 -38.355873
76.021042 30.054829 -38.369904
76.016045 28.28504 -38.38393
76.011337 26.515583 -38.397125
76.006348 24.74625 -38.41114
76.00135 22.977158 -38.425175
75.996361 21.208292 -38.439182
75.991364 19.439659 -38.453209
75.986374 17.671249 -38.467213
75.981674 15.903147 -38.4804
75.976685 14.135198 -38.494419
75.971695 12.367485 -38.508423
75.966705 10.600011 -38.522427
75.961716 8.8327551 -38.536427
75.957016 7.0657721 -38.549622
75.952034 5.2989831 -38.56361
75.947044 3.5324249 -38.577621
75.942062 1.7660941 -38.59161
75.937073 -1.1575845e-06 -38.605606
75.932091 -1.7658553 -38.619598
75.927399 -3.5315044 -38.632767
75.922417 -5.2969093 -38.646759
75.917435 -7.0620871 -38.660744
75.246643 -8.7496109 -40.543785
75.246643 -10.499527 -40.5438
75.246643 -12.249455 -40.5438
77.956238 88.586639 -37.911018
77.951096 86.809181 -37.92511
77.946274 85.032288 -37.938366
77.941139 83.255302 -37.952442
77.936005 81.478554 -37.966518
77.93087 79.702034 -37.980606
77.925743 77.925743 -37.994675
77.920616 76.149696 -38.008747
77.915787 74.374161 -38.021999
77.91066 72.598579 -38.036064
77.905525 70.823212 -38.050137
77.900398 69.04808 -38.064198
77.895271 67.273186 -38.078262
77.89045 65.498795 -38.091496
77.885323 63.724365 -38.10556
77.880196 61.950157 -38.119617
77.875069 60.176193 -38.133675
77.869949 58.402473 -38.147736
77.864822 56.628967 -38.161797
77.860008 54.855915 -38.175014
77.854881 53.082878 -38.189064
77.849762 51.310078 -38.203114
77.844643 49.537502 -38.217167
77.839523 47.765167 -38.231209
77.834709 45.99324 -38.244423
77.82959 44.221363 -38.258457
77.824471 42.449715 -38.272499
77.819351 40.678299 -38.286541
77.81424 38.907124 -38.300579
77.809128 37.136173 -38.31461
77.804314 35.365593 -38.327816
77.799194 33.595104 -38.34185
77.794083 31.824856 -38.355873
77.788971 30.054829 -38.369904
77.783859 28.28504 -38.38393
77.779045 26.515583 -38.397125
77.773933 24.74625 -38.41114
77.768822 22.977158 -38.425175
77.763718 21.208292 -38.439182
77.758606 19.439659 -38.453209
77.753502 17.671249 -38.467213
77.748688 15.903147 -38.4804
77.743584 14.135198 -38.494419
77.73848 12.367485 -38.508423
77.733376 10.600011 -38.522427
77.728271 8.8327551 -38.536427
77.723465 7.0657721 -38.549622
77.718361 5.2989831 -38.56361
