# .PCD v0.7 - Point Cloud Data file format
VERSION 0.7
FIELDS x y z
SIZE 4 4 4
TYPE F F F
COUNT 1 1 1
WIDTH 1239
HEIGHT 1
VIEWPOINT 0 0 0 1 0 0 0
POINTS 1239
DATA ascii
-34.554382 -6.3652773 -11.048978
-37.753002 -6.1221056 2.3529875
-32.690041 -6.1846023 -14.164664
-36.735886 -6.1226463 2.3638299
-31.805634 -6.1844296 -14.167665
-30.222281 -6.7160616 -19.476757
-35.708324 -6.1214256 2.3392901
-30.921274 -6.184257 -14.170655
-29.120047 -6.6560116 -20.38287
-34.685032 -6.1208887 2.3284452
-30.036844 -6.1840582 -14.174083
-28.261986 -6.649878 -20.475395
-33.662079 -6.120378 2.3181725
-29.152592 -6.1838813 -14.177081
-27.461651 -6.6573691 -20.362366
-32.639141 -6.1198421 2.3073385
-28.268385 -6.1837087 -14.180072
-26.685055 -6.6712666 -20.152719
-28.258316 21.877405 -10.779466
-28.423313 21.088266 -10.136983
-28.423313 20.171385 -10.136983
-28.423313 19.254507 -10.136981
-28.423313 18.337624 -10.136982
-28.423313 17.420742 -10.136983
-28.423313 16.50386 -10.136984
-28.423313 15.586982 -10.136982
-28.423313 14.670099 -10.136983
-28.423313 13.753218 -10.136984
-28.423313 12.836339 -10.136982
-28.423313 11.919456 -10.136983
-28.423313 11.002575 -10.136984
-28.423313 10.085692 -10.136985
-28.423313 9.1688147 -10.136983
-28.423313 8.2519321 -10.136984
-28.423313 7.3350501 -10.136984
-28.423313 6.4181681 -10.136985
-28.423313 5.5012898 -10.136983
-28.423313 4.5844078 -10.136984
-28.423313 3.6675255 -10.136985
-28.423313 2.7506468 -10.136982
-28.423313 1.8337647 -10.136983
-28.423313 0.91688269 -10.136984
-28.423313 2.64172e-07 -10.136985
-28.423313 -0.91687769 -10.136983
-28.423313 -1.8337601 -10.136984
-28.423313 -2.7506421 -10.136985
-28.423313 -3.6675205 -10.136983
-28.423313 -4.5844021 -10.136984
-28.423313 -5.5012846 -10.136985
-27.384228 -6.1835322 -14.183069
-25.905313 -6.6852393 -19.941807
-27.311022 21.84882 -10.923249
-27.398602 21.005596 -10.570865
-27.398602 20.09231 -10.570864
-27.398602 19.179022 -10.570863
-27.398602 18.265734 -10.570862
-27.398602 17.352446 -10.570859
-27.398602 16.439159 -10.570858
-27.398602 15.525872 -10.570857
-27.398602 14.61259 -10.570864
-27.398602 13.699303 -10.570863
-27.398602 12.786016 -10.570862
-27.398602 11.872727 -10.57086
-27.398602 10.95944 -10.570859
-27.398602 10.046153 -10.570858
-27.398602 9.1328659 -10.570857
-27.398602 8.2195835 -10.570864
-27.398602 7.3062959 -10.570863
-27.398602 6.3930087 -10.570862
-27.398602 5.4797211 -10.57086
-27.398602 4.5664339 -10.570859
-27.398602 3.6531465 -10.570858
-27.398602 2.7398593 -10.570857
-27.398602 1.8265766 -10.570863
-27.398602 0.91328901 -10.570862
-27.398602 1.7564101e-06 -10.570861
-27.398602 -0.91328549 -10.57086
-27.398714 -1.8265796 -10.570407
-27.398714 -2.7398717 -10.570398
-27.398714 -3.6531634 -10.570399
-27.398714 -4.5664549 -10.570401
-27.398714 -5.4797459 -10.570402
-26.501289 -6.1836352 -14.181358
-25.122198 -6.6992531 -19.730389
-26.592319 21.090462 -10.125459
-26.592319 20.173481 -10.125454
-26.592319 19.256508 -10.125458
-26.592319 18.339531 -10.125461
-26.592319 17.422552 -10.125454
-26.592319 16.505581 -10.125454
-26.592319 15.588605 -10.125458
-26.592319 14.671625 -10.125453
-26.592319 13.754649 -10.125455
-26.592319 12.837674 -10.125458
-26.592319 11.920693 -10.125452
-26.592319 11.003719 -10.125456
-26.592319 10.086743 -10.125458
-26.592319 9.1697636 -10.125453
-26.592319 8.2527876 -10.125456
-26.592319 7.3358121 -10.125458
-26.592319 6.4188323 -10.125453
-26.592319 5.5018568 -10.125456
-26.592319 4.5848856 -10.125456
-26.592319 3.6679051 -10.12545
-26.592319 2.7509303 -10.125454
-26.592319 1.8339548 -10.125456
-26.592319 0.91697961 -10.12546
-26.592319 -6.2577288e-07 -10.125454
-26.592319 -0.9169758 -10.125457
-26.592319 -1.8339514 -10.12546
-26.592319 -2.7509313 -10.125454
-26.592319 -3.6679072 -10.125457
-26.592319 -4.5848818 -10.12546
-26.592319 -5.501862 -10.125454
-25.626965 -6.1858153 -14.143692
-24.335796 -6.7133269 -19.518085
-26.286051 20.65333 -7.4926362
-26.286051 19.714539 -7.4926367
-26.286051 18.775751 -7.4926348
-26.286051 17.836966 -7.4926338
-26.286051 16.898178 -7.4926319
-26.286051 15.959386 -7.4926324
-26.286051 15.020598 -7.4926305
-26.286051 14.081817 -7.4926367
-26.286051 13.143029 -7.4926348
-26.286051 12.204238 -7.4926357
-26.286051 11.26545 -7.4926338
-26.286051 10.326663 -7.4926319
-26.286051 9.3878756 -7.492631
-26.286051 8.4490843 -7.4926319
-26.286051 7.5103021 -7.4926381
-26.286051 6.5715146 -7.4926362
-26.286051 5.6327271 -7.4926343
-26.286051 4.6939397 -7.4926324
-26.286051 3.7551484 -7.4926333
-26.286051 2.816361 -7.4926314
-26.286051 1.8775736 -7.4926295
-26.286051 0.93879133 -7.4926357
-26.286051 1.8217051e-08 -7.4926367
-26.286051 -0.9387871 -7.4926348
-26.286051 -1.8775748 -7.4926333
-26.286051 -2.8163621 -7.4926314
-26.286051 -3.7551534 -7.4926319
-26.286051 -4.6939406 -7.4926305
-26.286051 -5.6327233 -7.4926367
-24.751919 -6.1879792 -14.106429
-23.546175 -6.7274761 -19.30451
-26.33329 21.456753 -3.0843441
-26.33329 20.481451 -3.0843449
-26.33329 19.506138 -3.084343
-26.33329 18.530832 -3.0843465
-26.33329 17.555529 -3.0843503
-26.33329 16.580217 -3.0843446
-26.33329 15.604913 -3.0843487
-26.33329 14.629602 -3.0843444
-26.33329 13.654298 -3.084347
-26.33329 12.678988 -3.0843427
-26.33329 11.703683 -3.0843465
-26.33329 10.728378 -3.0843492
-26.33329 9.753068 -3.0843446
-26.33329 8.7777672 -3.0843458
-26.33329 7.8024573 -3.084341
-26.33329 6.8271523 -3.0843441
-26.33329 5.8518424 -3.0843399
-26.33329 4.8765373 -3.0843432
-26.33329 3.9012325 -3.0843468
-26.33329 2.9259224 -3.084342
-26.33329 1.9506174 -3.0843453
-26.33329 0.97530752 -3.0843408
-26.33329 2.5987233e-06 -3.0843444
-26.33329 -0.97530746 -3.0843396
-26.33329 -1.9506124 -3.084343
-26.33329 -2.9259174 -3.0843463
-26.33329 -3.9012272 -3.0843418
-26.33329 -4.8765321 -3.0843451
-26.33329 -5.8518419 -3.0843403
-23.876358 -6.1901641 -14.06871
-22.753128 -6.7416649 -19.090414
-26.377787 21.305136 1.6503117
-26.377787 20.290606 1.6503173
-26.377787 19.276073 1.6503105
-26.377787 18.261545 1.6503168
-26.377787 17.247019 1.6503125
-26.377787 16.232485 1.650316
-26.377787 15.217957 1.6503112
-26.377787 14.203425 1.6503152
-26.377787 13.188892 1.650319
-26.377787 12.174365 1.6503143
-26.377787 11.159832 1.6503177
-26.377787 10.145304 1.6503133
-26.377787 9.1307726 1.6503171
-26.377787 8.1162443 1.6503127
-26.377787 7.1017113 1.650316
-26.377787 6.0871835 1.6503115
-26.377787 5.0726514 1.6503152
-26.377787 4.0581231 1.6503106
-26.377787 3.0435908 1.6503143
-26.377787 2.029058 1.6503178
-26.377787 1.0145304 1.6503134
-26.377787 -2.2647935e-06 1.6503171
-26.377787 -1.0145299 1.6503125
-26.377787 -2.0290625 1.650316
-26.377787 -3.0435903 1.6503117
-26.377787 -4.0581226 1.6503152
-26.377787 -5.0726504 1.6503109
-25.493961 -5.8832207 -2.4530294
-23.000088 -6.1923289 -14.031391
-21.95673 -6.7559171 -18.875414
-26.445946 21.156761 6.8780084
-26.445946 20.098921 6.8780055
-26.445946 19.041086 6.8780065
-26.445946 17.983244 6.8780026
-26.445946 16.925406 6.8780127
-26.445946 15.867564 6.8780088
-26.445946 14.809731 6.8780107
-26.445946 13.751894 6.8780098
-26.445946 12.694056 6.8780084
-26.445946 11.636218 6.8780074
-26.445946 10.578381 6.8780065
-26.445946 9.5205431 6.8780055
-26.445946 8.4627056 6.8780046
-26.102045 7.3085704 5.2175107
-26.102045 6.2644887 5.2175097
-26.102045 5.220408 5.2175093
-26.102045 4.1763272 5.2175088
-26.102045 3.1322463 5.2175083
-26.102045 2.0881658 5.2175078
-26.102045 1.0440847 5.2175074
-26.102045 3.7854895e-06 5.2175069
-26.102045 -1.0440818 5.217514
-26.102045 -2.0881667 5.2175112
-26.102045 -3.1322477 5.2175107
-26.102045 -4.1763282 5.2175097
-26.102045 -5.2204089 5.2175093
-25.484098 -6.1161819 2.2337949
-22.123201 -6.1944962 -13.994052
-21.159559 -6.7710586 -18.646935
-25.059153 7.3089209 5.2234879
-25.059153 6.2647891 5.2234888
-25.059153 5.2206573 5.2234902
-25.059153 4.1765256 5.2234917
-25.059153 3.1323946 5.2234821
-25.059153 2.0882628 5.2234836
-25.059153 1.0441308 5.2234845
-25.059153 -1.1461066e-06 5.2234859
-25.059153 -1.0441329 5.2234869
-25.059153 -2.0882647 5.2234883
-25.059153 -3.1323965 5.2234893
-25.059153 -4.1765232 5.2234826
-25.059153 -5.2206554 5.2234836
-24.462696 -6.1156731 2.2235434
-21.245789 -6.1966882 -13.956249
-20.359041 -6.7863493 -18.416237
-24.016273 7.3093033 5.2300615
-24.016273 6.2651167 5.2300625
-24.016273 5.2209296 5.230063
-24.016273 4.1767426 5.230063
-24.016273 3.132556 5.2300634
-24.016273 2.0883687 5.2300639
-24.016273 1.0441858 5.2300673
-24.016273 3.934023e-06 5.2300591
-24.016273 -1.044183 5.2300601
-24.016273 -2.0883698 5.2300606
-24.016273 -3.1325567 5.2300611
-24.016273 -4.1767435 5.2300611
-24.016273 -5.2209306 5.230062
-23.441355 -6.1151381 2.2127197
-20.366608 -6.1985345 -13.924449
-19.554903 -6.8017077 -18.184507
-22.973286 7.3096857 5.2366357
-22.973286 6.2654438 5.2366352
-22.973286 5.2212019 5.2366352
-22.973286 4.1769638 5.2366371
-22.973286 3.1327221 5.2366371
-22.973286 2.08848 5.2366366
-22.973286 1.044242 5.236639
-22.973286 1.4698142e-07 5.2366385
-22.973286 -1.0442418 5.2366381
-22.973286 -2.0884798 5.2366405
-22.973286 -3.1327217 5.2366405
-22.973286 -4.1769638 5.23664
-22.973286 -5.2212019 5.2366424
-22.420298 -6.1146255 2.2024708
-19.481573 -6.1986828 -13.921865
-18.74523 -6.8164487 -17.962072
-21.930086 7.3100276 5.2426181
-21.930086 6.265739 5.2426224
-21.930086 5.2214508 5.2426157
-21.930086 4.1771579 5.2426176
-21.930086 3.132869 5.2426214
-21.930086 2.0885813 5.2426147
-21.930086 1.0442921 5.242619
-21.930086 -9.3120633e-07 5.24262
-21.930086 -1.0442889 5.2426138
-21.930086 -2.0885777 5.2426176
-21.930086 -3.1328709 5.2426195
-21.930086 -4.177155 5.2426152
-21.930086 -5.2214479 5.2426167
-21.399311 -6.1140862 2.1916494
-18.596497 -6.1988349 -13.919285
-17.918972 -6.8262753 -17.813784
-20.886887 7.31041 5.2491918
-20.886887 6.2660661 5.2491951
-20.886887 5.2217221 5.2491984
-20.886887 4.1773796 5.2491913
-20.886887 3.1330352 5.2491946
-20.886887 2.0886872 5.2491951
-20.886887 1.0443431 5.2491989
-20.886887 4.1010458e-06 5.2491941
-20.886887 -1.0443441 5.2491951
-20.886887 -2.0886879 5.249198
-20.886887 -3.1330359 5.2491989
-20.886887 -4.1773748 5.2491941
-20.886887 -5.2217231 5.2491951
-20.378597 -6.1135826 2.181406
-17.711376 -6.1989779 -13.916709
-17.090328 -6.8361335 -17.665058
-19.843578 7.3107915 5.2557764
-19.843578 6.266398 5.2557712
-19.843578 5.2219944 5.2557712
-19.843578 4.1775951 5.2557735
-19.843578 3.1331966 5.2557759
-19.843578 2.0887973 5.2557783
-19.843578 1.0443993 5.2557707
-19.843578 1.111935e-07 5.2557731
-19.843578 -1.0443989 5.2557755
-19.843578 -2.088798 5.2557778
-19.843578 -3.1331961 5.2557702
-19.843578 -4.1775951 5.2557731
-19.843578 -5.2219944 5.2557755
-19.358055 -6.1130695 2.1711566
-16.826214 -6.1991296 -13.914129
-16.259289 -6.8460174 -17.515905
-18.800072 7.3111391 5.2617517
-18.800072 6.2666888 5.2617555
-18.800072 5.2222438 5.2617521
-18.800072 4.1777935 5.2617559
-18.800072 3.1333485 5.2617526
-18.800072 2.0888982 5.2617569
-18.800072 1.0444492 5.2617502
-18.800072 -7.6418331e-07 5.261755
-18.800072 -1.044446 5.2617512
-18.800072 -2.088896 5.261755
-18.800072 -3.1333411 5.2617517
-18.800072 -4.1777911 5.2617559
-18.800072 -5.2222452 5.2617579
-18.337599 -6.1125312 2.160346
-15.941008 -6.1992817 -13.911549
-15.425902 -6.8559546 -17.365919
-17.756548 7.3115206 5.2683358
-17.756548 6.2670202 5.2683311
-17.756548 5.2225146 5.2683344
-17.756548 4.17801 5.2683382
-17.756548 3.1335096 5.2683339
-17.756548 2.0890045 5.2683372
-17.756548 1.0445044 5.268333
-17.756548 -6.9781629e-07 5.2683363
-17.756548 -1.0445011 5.268332
-17.756548 -2.0890059 5.2683353
-17.756548 -3.1335063 5.2683311
-17.756548 -4.1780114 5.2683349
-17.756548 -5.2225165 5.2683382
-17.3174 -6.1120234 2.1501052
-15.055759 -6.19943 -13.908965
-14.589637 -6.8657126 -17.218729
-16.712917 7.3119011 5.2749195
-16.712917 6.2673459 5.2749143
-16.712917 5.2227859 5.2749176
-16.712917 4.1782308 5.2749124
-16.712917 3.133671 5.2749152
-16.712917 2.0891197 5.2749124
-16.712917 1.0445595 5.2749152
-16.712917 -8.8213744e-07 5.2749181
-16.712917 -1.0445559 5.2749128
-16.712917 -2.0891161 5.2749157
-16.712917 -3.1336713 5.2749104
-16.712917 -4.1782274 5.2749157
-16.712917 -5.2227879 5.274919
-16.297297 -6.111485 2.1392946
-14.166821 -6.1979823 -13.933908
-13.74895 -6.8744726 -17.086506
-15.669105 7.3122492 5.2808948
-15.669105 6.2676415 5.2809014
-15.669105 5.2230353 5.2808986
-15.669105 4.1784291 5.2808948
-15.669105 3.1338179 5.2808995
-15.669105 2.0892158 5.2808986
-15.669105 1.0446095 5.2808952
-15.669105 -1.7575143e-06 5.2809
-15.669105 -1.0446081 5.2808967
-15.669105 -2.0892103 5.2808957
-15.669105 -3.1338212 5.2809
-15.669105 -4.1784277 5.2808967
-15.669105 -5.2230339 5.2808933
-15.277443 -6.1109772 2.1290534
-13.277497 -6.196167 -13.965273
-12.906113 -6.8832588 -16.953945
-14.62526 7.3126307 5.2874789
-14.62526 6.2679729 5.2874775
-14.62526 5.2233067 5.2874813
-14.62526 4.1786456 5.287477
-14.62526 3.1339834 5.2874832
-14.62526 2.0893219 5.2874794
-14.62526 1.0446646 5.2874775
-14.62526 -1.6911473e-06 5.2874813
-14.62526 -1.0446589 5.2874799
-14.62526 -2.0893204 5.2874756
-14.62526 -3.1339865 5.2874794
-14.62526 -4.1786437 5.287478
-14.62526 -5.22331 5.2874818
-14.257694 -6.1104436 2.1182508
-12.388744 -6.194375 -13.996197
-12.061119 -6.8920679 -16.821041
-13.581308 7.3130121 5.2940636
-13.581308 6.2682991 5.2940607
-13.581308 5.223578 5.294064
-13.581308 4.1788654 5.2940612
-13.581308 3.1341443 5.2940645
-13.581308 2.0894322 5.2940626
-13.581308 1.0447197 5.2940598
-13.581308 -1.6247802e-06 5.2940631
-13.581308 -1.044714 5.2940607
-13.581308 -2.0894351 5.2940636
-13.581308 -3.1341476 5.2940612
-13.581308 -4.1788602 5.2940593
-13.581308 -5.2235808 5.2940621
-13.238185 -6.1099324 2.1080122
-11.500459 -6.192554 -14.027535
-11.213961 -6.9008985 -16.687798
-12.537187 7.3133578 5.3000484
-12.537187 6.2685947 5.3000479
-12.537187 5.2238274 5.300045
-12.537187 4.1790638 5.3000441
-12.537187 3.1343005 5.3000436
-12.537187 2.0895281 5.3000484
-12.537187 1.0447649 5.3000479
-12.537187 1.5560622e-06 5.3000474
-12.537187 -1.0447659 5.3000441
-12.537187 -2.0895295 5.3000436
-12.537187 -3.1342976 5.3000507
-12.537187 -4.1790652 5.3000479
-12.537187 -5.2238283 5.3000474
-12.218789 -6.1093946 2.0972116
-10.612738 -6.1907659 -14.058416
-10.364628 -6.9097557 -16.554213
-11.493022 7.3137393 5.306633
-11.493022 6.2689204 5.3066311
-11.493022 5.2241025 5.3066301
-11.493022 4.1792841 5.3066287
-11.493022 3.1344569 5.306633
-11.493022 2.0896385 5.3066316
-11.493022 1.0448198 5.3066301
-11.493022 1.3717412e-06 5.3066292
-11.493022 -1.044817 5.3066278
-11.493022 -2.0896401 5.3066339
-11.493022 -3.1344628 5.3066306
-11.493022 -4.1792812 5.3066287
-11.493022 -5.2240996 5.3066278
-11.199624 -6.1088881 2.0869815
-9.7254906 -6.1889486 -14.089713
-9.5118055 -6.9176803 -16.434637
-10.448747 7.3141208 5.3132172
-10.448747 6.2692475 5.3132153
-10.448747 5.2243738 5.3132129
-10.448747 4.1795001 5.3132105
-10.448747 3.1346219 5.3132167
-10.448747 2.0897484 5.3132148
-10.448747 1.0448749 5.3132129
-10.448747 1.4381081e-06 5.3132105
-10.448747 -1.0448768 5.3132162
-10.448747 -2.0897503 5.3132143
-10.448747 -3.1346238 5.3132124
-10.448747 -4.1794972 5.31321
-10.448747 -5.2243757 5.3132162
-10.180629 -6.1083808 2.0767508
-8.8387995 -6.1871629 -14.120564
-8.6518869 -6.9215093 -16.376802
-9.4043179 7.3144665 5.3192024
-9.4043179 6.269547 5.3192048
-9.4043179 5.2246218 5.3192043
-9.4043179 4.1796975 5.3192043
-9.4043179 3.1347733 5.3192039
-9.4043179 2.0898488 5.3192034
-9.4043179 1.044924 5.3192034
-9.4043179 -3.9481171e-07 5.3192029
-9.4043179 -1.044925 5.3192024
-9.4043179 -2.0898492 5.3192019
-9.4043179 -3.134774 5.3192019
-9.4043179 -4.1796985 5.3192015
-9.4043179 -5.2246227 5.319201
-9.1617613 -6.1078396 2.0659533
-7.952589 -6.1853447 -14.151826
-7.7910156 -6.9253483 -16.318897
-8.3598309 7.3148522 5.3257895
-8.3598309 6.2698727 5.325788
-8.3598309 5.2248936 5.3257871
-8.3598309 4.179914 5.3257861
-8.3598309 3.1349382 5.3257875
-8.3598309 2.0899587 5.3257866
-8.3598309 1.0449792 5.3257856
-8.3598309 -3.2844471e-07 5.3257847
-8.3598309 -1.044976 5.3257861
-8.3598309 -2.0899553 5.3257847
-8.3598309 -3.1349349 5.3257837
-8.3598309 -4.1799145 5.3257828
-8.3598309 -5.2248902 5.3257842
-8.1431103 -6.1073322 2.0557227
-7.0668979 -6.1835322 -14.183069
-6.9291887 -6.9291897 -16.260927
-7.3152337 7.3152337 5.3323736
-7.3152337 6.2701988 5.3323717
-7.3152337 5.2251687 5.3323727
-7.3152337 4.1801338 5.3323708
-7.3152337 3.1351035 5.3323717
-7.3152337 2.0900688 5.3323698
-7.3152337 1.0450382 5.3323703
-7.3152337 -1.2196208e-06 5.3323765
-7.3152337 -1.0450358 5.332375
-7.3152337 -2.0900664 5.3323755
-7.3152337 -3.1351008 5.3323736
-7.3152337 -4.1801314 5.3323741
-7.3152337 -5.2251663 5.3323727
-7.1245956 -6.1067963 2.0449331
-6.1817493 -6.1817465 -14.213865
-6.0664053 -6.9330344 -16.202904
-6.2704983 7.3155837 5.3383613
-6.2704983 6.2704983 5.3383613
-6.2704983 5.2254128 5.3383613
-6.2704983 4.1803312 5.3383636
-6.2704983 3.1352458 5.3383641
-6.2704983 2.090169 5.3383584
-6.2704983 1.0450834 5.3383584
-6.2704983 1.7584108e-06 5.3383608
-6.2704983 -1.045084 5.3383608
-6.2704983 -2.0901654 5.3383632
-6.2704983 -3.135251 5.3383632
-6.2704983 -4.1803327 5.3383656
-6.2704983 -5.2254133 5.3383579
-6.1062884 -6.1062903 2.034713
-5.2978344 -6.1808076 -14.23011
-5.2026429 -6.9368534 -16.14522
-5.225688 7.3159652 5.3449454
-5.225688 6.2708292 5.3449478
-5.225688 5.225688 5.3449469
-5.225688 4.1805515 5.3449488
-5.225688 3.1354148 5.3449502
-5.225688 2.0902743 5.3449492
-5.225688 1.0451375 5.3449512
-5.225688 -3.1889845e-06 5.3449502
-5.225688 -1.0451398 5.3449521
-5.225688 -2.0902715 5.3449459
-5.225688 -3.135412 5.344945
-5.225688 -4.1805487 5.3449469
-5.225688 -5.2256856 5.3449488
-5.0881267 -6.1057539 2.0239232
-4.414526 -6.1803384 -14.238234
-4.337945 -6.940712 -16.087059
-4.1807685 7.3163457 5.3515406
-4.1807685 6.2711501 5.3515391
-4.1807685 5.2259588 5.3515401
-4.1807685 4.1807666 5.351541
-4.1807685 3.1355801 5.3515344
-4.1807685 2.0903883 5.3515348
-4.1807685 1.0451926 5.3515334
-4.1807685 9.3360177e-07 5.3515344
-4.1807685 -1.0451909 5.3515358
-4.1807685 -2.0903823 5.3515368
-4.1807685 -3.1355741 5.3515377
-4.1807685 -4.1807699 5.3515363
-4.1807685 -5.2259617 5.3515372
-4.0701628 -6.1052442 2.0137055
-3.5313659 -6.1798902 -14.245925
-3.4722719 -6.9445429 -16.029249
-3.1357253 7.3166924 5.3575263
-3.1357253 6.2714496 5.3575287
-3.1357253 5.2262115 5.3575234
-3.1357253 4.1809692 5.3575263
-3.1357253 3.135726 5.3575292
-3.1357253 2.0904837 5.357532
-3.1357253 1.045242 5.3575239
-3.1357253 -8.9931808e-07 5.3575268
-3.1357253 -1.0452437 5.3575296
-3.1357253 -2.0904815 5.3575244
-3.1357253 -3.1357243 5.3575273
-3.1357253 -4.1809669 5.3575296
-3.1357253 -5.2262044 5.3575244
-3.0524666 -6.1049347 2.0074592
-2.6483226 -6.1794167 -14.254045
-2.6056421 -6.9483805 -15.971365
-2.0905929 7.3170724 5.3641205
-2.0905929 6.2717795 5.3641148
-2.0905929 5.2264819 5.3641167
-2.0905929 4.1811843 5.3641186
-2.0905929 3.1358914 5.3641129
-2.0905929 2.0905936 5.3641148
-2.0905929 1.045296 5.3641167
-2.0905929 -1.7904941e-06 5.3641191
-2.0905929 -1.0452948 5.3641133
-2.0905929 -2.0905926 5.3641152
-2.0905929 -3.1358902 5.3641171
-2.0905929 -4.1811881 5.3641191
-2.0905929 -5.226481 5.3641129
-2.0350623 -6.1051879 2.0125642
-1.7654209 -6.1789746 -14.26173
-1.7380548 -6.9522223 -15.913428
-1.0453509 7.3174577 5.3707075
-1.0453509 6.2721047 5.3707085
-1.0453509 5.2267523 5.3707099
-1.0453509 4.1814046 5.3707032
-1.0453509 3.1360555 5.370707
-1.0453509 2.090703 5.3707085
-1.0453509 1.04535 5.3707099
-1.0453509 2.3320922e-06 5.3707027
-1.0453509 -1.0453507 5.3707047
-1.0453509 -2.0906994 5.3707085
-1.0453509 -3.1360521 5.3707094
-1.0453509 -4.1814051 5.3707113
-1.0453509 -5.2267528 5.3707042
-1.0175782 -6.1054664 2.0182409
-0.88264674 -6.1785264 -14.269423
-0.86951131 -6.9560909 -15.855009
8.9224886e-24 7.3178034 5.3767037
-2.7727154e-23 6.2724042 5.3766985
7.7372432e-24 5.2270007 5.3767014
-2.8250756e-23 4.1816053 5.376699
6.2214288e-24 3.1362019 5.3767023
-2.9270466e-23 2.0908029 5.3766971
4.3745398e-24 1.0453993 5.3767004
-3.2109567e-23 2.9636143e-07 5.3766952
4.182012e-24 -1.0453994 5.3767009
-3.3956455e-23 -2.0907984 5.3766956
2.3351229e-24 -3.1362021 5.376699
3.8851155e-24 -4.1816063 5.3767018
-3.0944628e-23 -5.2270007 5.3766994
-1.6294236e-23 -6.1057234 2.0233538
-1.4396203e-23 -6.1786246 -14.267718
-7.1728472e-24 -6.9573812 -15.835528
1.0454552 7.3181882 5.3832898
1.0454552 6.2727304 5.3832927
1.0454552 5.2272801 5.3832893
1.0454552 4.1818209 5.3832917
1.0454552 3.1363623 5.3832941
1.0454552 2.0909123 5.3832908
1.0454552 1.0454534 5.3832932
1.0454552 3.4614047e-06 5.3832898
1.0454552 -1.0454556 5.3832927
1.0454552 -2.0909092 5.3832865
1.0454552 -3.1363645 5.3832917
1.0454552 -4.1818233 5.3832941
1.0454552 -5.227273 5.3832903
1.0176677 -6.1060023 2.0290303
0.88280255 -6.1796155 -14.250628
0.869398 -6.955184 -15.868689
2.0910096 7.3185344 5.389286
2.0910096 6.2730293 5.3892822
2.0910096 5.2275281 5.3892808
2.0910096 4.1820183 5.3892851
2.0910096 3.1365173 5.3892832
2.0910096 2.0910072 5.3892875
2.0910096 1.0455066 5.389286
2.0910096 1.6284849e-06 5.3892822
2.0910096 -1.0455084 5.3892865
2.0910096 -2.0910094 5.3892851
2.0910096 -3.1365144 5.3892808
2.0910096 -4.1820202 5.3892879
2.0910096 -5.2275252 5.3892837
2.0354199 -6.1062598 2.0341432
1.7658954 -6.1806355 -14.233101
1.73824 -6.9529591 -15.902251
3.1366782 7.3189149 5.3958812
3.1366782 6.2733588 5.3958788
3.1366782 5.2277985 5.395874
3.1366782 4.1822376 5.3958797
3.1366782 3.1366777 5.3958755
3.1366782 2.0911217 5.3958731
3.1366782 1.0455606 5.3958788
3.1366782 7.3730888e-07 5.395874
3.1366782 -1.0455602 5.3958802
3.1366782 -2.0911164 5.3958783
3.1366782 -3.1366763 5.3958735
3.1366782 -4.1822371 5.3958793
3.1366782 -5.2277975 5.395875
3.0535958 -6.1071916 2.0528908
2.6492786 -6.1816525 -14.215571
2.6065266 -6.9507365 -15.935784
4.1824565 7.3193002 5.4024677
4.1824565 6.2736835 5.4024725
4.1824565 5.2280726 5.4024696
4.1824565 4.182457 5.4024749
4.1824565 3.1368418 5.4024696
4.1824565 2.0912306 5.4024668
4.1824565 1.0456146 5.402472
4.1824565 3.6995411e-06 5.4024687
4.1824565 -1.0456164 5.4024715
4.1824565 -2.0912275 5.4024692
4.1824565 -3.1368432 5.4024739
4.1824565 -4.1824546 5.4024711
4.1824565 -5.2280746 5.4024734
4.0722327 -6.1083508 2.0761814
3.5329385 -6.1826429 -14.19847
3.4742582 -6.9485149 -15.969306
5.2283187 7.3196492 5.4084659
5.2283187 6.273983 5.4084625
5.2283187 5.2283211 5.4084611
5.2283187 4.1826539 5.4084682
5.2283187 3.1369917 5.4084668
5.2283187 2.0913301 5.4084659
5.2283187 1.045664 5.4084625
5.2283187 1.8666213e-06 5.4084611
5.2283187 -1.0456653 5.4084682
5.2283187 -2.0913272 5.4084668
5.2283187 -3.1369894 5.4084659
5.2283187 -4.1826515 5.4084649
5.2283187 -5.2283177 5.4084611
5.0912561 -6.1095066 2.0994847
4.4168997 -6.1836572 -14.180928
4.3414521 -6.9463248 -16.00238
6.2743101 7.3200297 5.415061
6.2743101 6.2743125 5.4150586
6.2743101 5.2285957 5.4150572
6.2743101 4.1828732 5.4150634
6.2743101 3.1371562 5.4150615
6.2743101 2.0914392 5.4150596
6.2743101 1.0457219 5.4150577
6.2743101 1.7902309e-08 5.4150639
6.2743101 -1.0457172 5.4150624
6.2743101 -2.0914342 5.41506
6.2743101 -3.1371515 5.4150586
6.2743101 -4.1828737 5.4150643
6.2743101 -5.2285905 5.4150624
6.1106668 -6.1106672 2.1227965
5.3013859 -6.1849518 -14.158675
5.2080789 -6.9441037 -16.03586
7.3204117 7.3204103 5.4216557
7.3204117 6.2746425 5.4216557
7.3204117 5.2288647 5.4216609
7.3204117 4.1830926 5.421658
7.3204117 3.1373203 5.4216557
7.3204117 2.0915484 5.4216533
7.3204117 1.0457711 5.4216585
7.3204117 -8.7327373e-07 5.4216561
7.3204117 -1.0457731 5.4216533
7.3204117 -2.0915463 5.4216614
7.3204117 -3.1373184 5.421659
7.3204117 -4.1830907 5.4216566
7.3204117 -5.2288628 5.4216537
7.1304302 -6.1117954 2.1455514
6.1873832 -6.1873875 -14.116707
6.0741525 -6.9418883 -16.069307
8.3665819 7.3207598 5.4276538
8.3665819 6.2749357 5.4276528
8.3665819 5.2291131 5.4276524
8.3665819 4.18329 5.4276514
8.3665819 3.1374707 5.4276533
8.3665819 2.0916476 5.4276524
8.3665819 1.0458243 5.4276519
8.3665819 1.1472148e-06 5.4276509
8.3665819 -1.045822 5.42765
8.3665819 -2.0916412 5.4276519
8.3665819 -3.1374645 5.4276509
8.3665819 -4.1832876 5.42765
8.3665819 -5.2291155 5.4276571
8.15061 -6.112958 2.168884
7.0741072 -6.1898441 -14.074285
6.9387712 -6.9387703 -16.116348
9.4128962 7.3211441 5.4342513
9.4128962 6.2752657 5.4342499
9.4128962 5.2293873 5.434248
9.4128962 4.1835132 5.4342489
9.4128962 3.1376348 5.4342475
9.4128962 2.0917566 5.4342456
9.4128962 1.0458776 5.4342551
9.4128962 -7.0150423e-07 5.4342537
9.4128962 -1.045879 5.4342523
9.4128962 -2.0917532 5.4342527
9.4128962 -3.1376314 5.4342513
9.4128962 -4.1835098 5.4342499
9.4128962 -5.2293839 5.4342504
9.171176 -6.1141167 2.1922193
7.961504 -6.1922812 -14.03225
7.8024592 -6.9355164 -16.165415
10.459321 7.3215241 5.4408455
10.459321 6.2755952 5.4408464
10.459321 5.2296619 5.4408441
10.459321 4.1837277 5.4408522
10.459321 3.1377943 5.4408498
10.459321 2.0918651 5.4408503
10.459321 1.0459317 5.4408479
10.459321 2.463539e-06 5.4408484
10.459321 -1.0459309 5.440846
10.459321 -2.0918601 5.440846
10.459321 -3.1377983 5.4408517
10.459321 -4.1837277 5.4408522
10.459321 -5.229661 5.4408498
10.19213 -6.1152759 2.2155645
8.8496361 -6.1947484 -13.989757
8.6653042 -6.9322419 -16.214846
11.505799 7.3218737 5.4468446
11.505799 6.2758937 5.4468465
11.505799 5.2299094 5.446846
11.505799 4.1839285 5.4468479
11.505799 3.1379445 5.4468474
11.505799 2.091964 5.4468493
11.505799 1.0459799 5.4468489
11.505799 -5.2973473e-07 5.4468508
11.505799 -1.0459797 5.4468422
11.505799 -2.0919602 5.4468441
11.505799 -3.1379445 5.4468436
11.505799 -4.1839247 5.446846
11.505799 -5.2299089 5.4468451
11.21347 -6.116437 2.2389207
9.7384357 -6.1971874 -13.947657
9.5221653 -6.92521 -16.320953
12.552437 7.3222537 5.4534497
12.552437 6.2762227 5.4534431
12.552437 5.2301836 5.4534416
12.552437 4.1841483 5.4534431
12.552437 3.1381128 5.4534445
12.552437 2.0920734 5.4534431
12.552437 1.0460379 5.4534445
12.552437 2.6353084e-06 5.4534454
12.552437 -1.0460368 5.4534445
12.552437 -2.092072 5.4534454
12.552437 -3.1381073 5.4534464
12.552437 -4.1841469 5.4534454
12.552437 -5.2301822 5.4534469
12.2352 -6.1175981 2.2622876
10.627979 -6.1996555 -13.905097
10.373947 -6.9159665 -16.460459
13.599184 7.3226371 5.4600468
13.599184 6.276547 5.4600472
13.599184 5.2304568 5.4600477
13.599184 4.1843624 5.4600458
13.599184 3.1382718 5.4600463
13.599184 2.0921814 5.4600472
13.599184 1.0460913 5.4600477
13.599184 8.3446662e-07 5.4600477
13.599184 -1.0460936 5.4600463
13.599184 -2.0921841 5.4600468
13.599184 -3.1382742 5.4600472
13.599184 -4.1843648 5.4600477
13.599184 -5.2304554 5.4600482
13.257257 -6.1187344 2.2850924
11.518187 -6.2020965 -13.862932
11.223414 -6.9067202 -16.600006
14.64597 7.3229871 5.4660454
14.64597 6.2768455 5.4660478
14.64597 5.2307043 5.4660501
14.64597 4.1845636 5.4660416
14.64597 3.1384225 5.4660439
14.64597 2.0922806 5.4660459
14.64597 1.0461395 5.4660482
14.64597 3.0577662e-06 5.4660425
14.64597 -1.0461385 5.4660449
14.64597 -2.0922801 5.4660473
14.64597 -3.1384254 5.4660468
14.64597 -4.1845617 5.4660411
14.64597 -5.2307034 5.4660435
14.279757 -6.1198983 2.3084803
12.409144 -6.2045722 -13.820299
12.070613 -6.8974948 -16.739178
15.692932 7.3233666 5.472651
15.692932 6.2771745 5.4726439
15.692932 5.2309785 5.4726458
15.692932 4.184782 5.4726472
15.692932 3.1385856 5.4726486
15.692932 2.0923891 5.4726505
15.692932 1.0461975 5.4726439
15.692932 1.209047e-06 5.4726453
15.692932 -1.0461954 5.4726467
15.692932 -2.0923917 5.4726486
15.692932 -3.1385884 5.4726505
15.692932 -4.1847801 5.4726439
15.692932 -5.2309766 5.4726453
15.302646 -6.121058 2.3318706
13.300759 -6.2070184 -13.77807
12.915552 -6.888298 -16.877979
16.740004 7.3237505 5.4792476
16.740004 6.2774997 5.479249
16.740004 5.2312517 5.4792519
16.740004 4.1850004 5.4792528
16.740004 3.1387537 5.4792457
16.740004 2.0925021 5.4792466
16.740004 1.0462507 5.4792476
16.740004 -8.4248296e-07 5.479248
16.740004 -1.0462524 5.479249
16.740004 -2.0924997 5.4792523
16.740004 -3.1387515 5.4792533
16.740004 -4.184998 5.4792457
16.740004 -5.2312493 5.4792471
16.325924 -6.1222219 2.3552682
14.192107 -6.2090454 -13.743141
13.75824 -6.879118 -17.016415
17.787098 7.3241005 5.4852467
17.787098 6.2778015 5.4852509
17.787098 5.2314992 5.4852543
17.787098 4.1852016 5.4852486
17.787098 3.1388991 5.4852514
17.787098 2.0925963 5.4852533
17.787098 1.0463028 5.4852509
17.787098 2.2046255e-07 5.4852533
17.787098 -1.0462973 5.4852481
17.787098 -2.0925999 5.4852505
17.787098 -3.1389024 5.4852533
17.787098 -4.1852002 5.4852476
17.787098 -5.2314987 5.4852529
17.349592 -6.1233835 2.3786795
15.070613 -6.2055488 -13.803499
14.600052 -6.8706131 -17.144775
18.834383 7.3244834 5.4918537
18.834383 6.2781262 5.4918561
18.834383 5.2317734 5.4918499
18.834383 4.18542 5.4918542
18.834383 3.1390622 5.4918561
18.834383 2.0927098 5.4918499
18.834383 1.0463562 5.4918542
18.834383 -1.6282565e-06 5.4918561
18.834383 -1.0463541 5.4918499
18.834383 -2.0927076 5.4918542
18.834383 -3.1390653 5.4918561
18.834383 -4.1854177 5.4918499
18.834383 -5.2317715 5.4918547
18.373648 -6.1245499 2.4020991
15.948064 -6.2020273 -13.864221
15.440508 -6.8624463 -17.267977
19.881777 7.324863 5.4984593
19.881777 6.2784595 5.498455
19.881777 5.2320466 5.498456
19.881777 4.1856384 5.4984598
19.881777 3.1392257 5.4984608
19.881777 2.0928218 5.4984565
19.881777 1.0464092 5.4984579
19.881777 8.2993188e-07 5.4984612
19.881777 -1.046407 5.4984541
19.881777 -2.0928156 5.4984579
19.881777 -3.1392283 5.4984593
19.881777 -4.1856408 5.4984603
19.881777 -5.2320447 5.4984555
19.398092 -6.1257172 2.4255285
16.824589 -6.1985345 -13.924449
16.279032 -6.8543301 -17.390474
20.92918 7.3252163 5.5044599
20.92918 6.2787533 5.5044632
20.92918 5.2322984 5.5044603
20.92918 4.1858349 5.5044637
20.92918 3.13938 5.5044608
20.92918 2.0929165 5.5044637
20.92918 1.0464615 5.5044608
20.92918 -2.1633418e-06 5.5044637
20.92918 -1.0464568 5.5044613
20.92918 -2.0929205 5.5044641
20.92918 -3.1393752 5.5044618
20.92918 -4.1858392 5.5044646
20.92918 -5.2322936 5.5044618
20.422834 -6.1268501 2.4483912
17.700127 -6.1950436 -13.9846
17.115507 -6.8462029 -17.5131
21.976789 7.3255959 5.5110655
21.976789 6.2790813 5.5110703
21.976789 5.2325716 5.5110669
21.976789 4.1860528 5.5110688
21.976789 3.1395431 5.5110655
21.976789 2.0930285 5.5110703
21.976789 1.0465149 5.5110641
21.976789 4.4158327e-08 5.5110693
21.976789 -1.0465138 5.5110636
21.976789 -2.0930285 5.5110679
21.976789 -3.1395383 5.5110645
21.976789 -4.1860566 5.5110664
21.976789 -5.2325668 5.5110631
21.448055 -6.1280146 2.4718339
18.574604 -6.1915364 -14.045119
17.950001 -6.8380933 -17.635426
23.024508 7.3259797 5.5176735
23.024508 6.2794147 5.5176692
23.024508 5.2328453 5.517673
23.024508 4.1862712 5.5176744
23.024508 3.1397066 5.5176706
23.024508 2.0931365 5.5176744
23.024508 1.0465719 5.5176702
23.024508 -2.0073717e-06 5.5176716
23.024508 -1.0465667 5.5176678
23.024508 -2.0931363 5.5176716
23.024508 -3.1397061 5.5176759
23.024508 -4.1862712 5.5176716
23.024508 -5.2328448 5.517673
22.473667 -6.1291795 2.4952872
19.45278 -6.1895189 -14.079855
18.770073 -6.8254805 -17.825756
24.07222 7.3263278 5.5236821
24.07222 6.2797084 5.5236773
24.07222 5.2330923 5.523675
24.07222 4.1864715 5.5236807
24.07222 3.1398556 5.5236783
24.07222 2.0932398 5.5236759
24.07222 1.0466192 5.5236816
24.07222 -4.9092711e-07 5.5236769
24.07222 -1.0466166 5.5236745
24.07222 -2.0932372 5.5236802
24.07222 -3.1398532 5.5236783
24.07222 -4.1864691 5.5236754
24.07222 -5.2330937 5.5236788
23.499666 -6.1303458 2.5187507
20.330545 -6.1875553 -14.113714
19.581219 -6.8108587 -18.046389
25.36203 21.135031 6.746841
25.36203 20.078272 6.7468414
25.36203 19.021521 6.7468352
25.36203 17.964771 6.7468405
25.36203 16.908016 6.7468419
25.36203 15.851273 6.7468405
25.36203 14.794516 6.746841
25.36203 13.737767 6.7468367
25.36203 12.681015 6.74684
25.36203 11.624262 6.7468438
25.36203 10.567514 6.7468395
25.36203 9.5107622 6.7468433
25.36203 8.4540138 6.7468386
25.12015 7.3267074 5.5302873
25.12015 6.2800364 5.5302844
25.12015 5.233366 5.5302815
25.12015 4.1866899 5.5302863
25.12015 3.1400187 5.5302835
25.12015 2.0933433 5.5302882
25.12015 1.0466723 5.5302849
25.12015 1.5137622e-06 5.530282
25.12015 -1.0466744 5.5302873
25.12015 -2.0933452 5.5302839
25.12015 -3.1400211 5.5302892
25.12015 -4.1866922 5.5302863
25.12015 -5.2333627 5.5302825
24.526056 -6.1315126 2.5422251
21.207842 -6.1856208 -14.147114
20.388895 -6.7962976 -18.266092
25.406693 21.341619 1.8600427
25.406693 20.325354 1.8600407
25.406693 19.309084 1.8600466
25.406693 18.292818 1.8600445
25.406693 17.276554 1.8600444
25.406693 16.260283 1.8600503
25.406693 15.244018 1.8600482
25.406693 14.227752 1.860046
25.406693 13.211481 1.8600516
25.406693 12.19521 1.860047
25.406693 11.178944 1.8600444
25.406693 10.162678 1.8600422
25.406693 9.1464071 1.8600482
25.406693 8.1301413 1.8600458
25.406693 7.1138749 1.8600436
25.406693 6.0976043 1.8600496
25.406693 5.0813384 1.8600475
25.406693 4.0650721 1.8600451
25.406693 3.048806 1.8600428
25.406693 2.0325351 1.8600487
25.406693 1.0162688 1.8600464
25.406693 2.8084196e-06 1.8600442
25.406693 -1.0162683 1.8600501
25.406693 -2.0325344 1.8600478
25.406693 -3.0488002 1.8600457
25.406693 -4.0650711 1.8600514
25.406693 -5.0813375 1.8600492
24.446682 -5.8672023 -2.7752962
22.084497 -6.1836572 -14.180928
21.193045 -6.7817764 -18.485243
25.450548 20.556215 -2.6545851
25.450548 19.577343 -2.6545832
25.450548 18.598482 -2.6545875
25.450548 17.61961 -2.6545858
25.450548 16.640745 -2.6545818
25.450548 15.661878 -2.6545882
25.450548 14.683011 -2.6545849
25.450548 13.704141 -2.6545825
25.450548 12.725279 -2.6545873
25.450548 11.746408 -2.6545851
25.450663 10.767592 -2.6540618
25.450663 9.7887173 -2.6540627
25.450663 8.8098469 -2.6540613
25.450663 7.8309755 -2.6540596
25.450663 6.8521013 -2.6540608
25.450663 5.8732305 -2.6540594
25.450663 4.8943596 -2.6540577
25.450663 3.9154849 -2.6540587
25.450663 2.9366143 -2.654057
25.450663 1.9577435 -2.6540558
25.450663 0.97886878 -2.6540565
25.450663 3.0079054e-06 -2.6540632
25.450663 -0.97886771 -2.6540618
25.450663 -1.9577426 -2.6540625
25.450663 -2.9366133 -2.6540611
25.450663 -3.915484 -2.6540596
25.450663 -4.8943586 -2.6540606
25.425905 -5.8675151 -2.7690077
22.9606 -6.1816993 -14.214724
21.993851 -6.7673368 -18.70307
25.493807 20.77273 -6.8374758
25.493807 19.828516 -6.8374753
25.493807 18.884302 -6.8374748
25.493807 17.940088 -6.8374743
25.493807 16.995871 -6.8374767
25.493807 16.051657 -6.8374772
25.493807 15.107444 -6.8374767
25.493807 14.163225 -6.8374791
25.493807 13.219012 -6.8374796
25.493807 12.274798 -6.8374796
25.493807 11.330585 -6.8374791
25.493807 10.386362 -6.8374739
25.493807 9.4421482 -6.8374739
25.493807 8.4979353 -6.8374743
25.493916 7.5537539 -6.8369875
25.493916 6.6095362 -6.8369899
25.493916 5.6653137 -6.8369851
25.493916 4.721096 -6.836987
25.493916 3.7768786 -6.8369899
25.493916 2.8326559 -6.8369842
25.493916 1.8884385 -6.836987
25.493916 0.94422066 -6.8369889
25.493916 -2.0120258e-06 -6.8369837
25.493916 -0.94421929 -6.8369861
25.493916 -1.8884372 -6.8369889
25.493916 -2.832655 -6.8369908
25.493916 -3.7768774 -6.8369856
25.493916 -4.7210951 -6.836988
25.493916 -5.6653123 -6.8369904
23.836241 -6.1797705 -14.24806
22.791252 -6.7529631 -18.91997
25.76355 21.162916 -9.745183
25.76355 20.24279 -9.7451792
25.76355 19.322666 -9.7451868
25.76355 18.402536 -9.7451849
25.76355 17.48241 -9.745182
25.76355 16.562281 -9.745182
25.76355 15.64216 -9.7451849
25.76355 14.722031 -9.7451859
25.76355 13.801901 -9.7451839
25.76355 12.881775 -9.7451801
25.76355 11.96165 -9.7451868
25.76355 11.041524 -9.7451839
25.76355 10.121395 -9.745182
25.76355 9.2012653 -9.7451811
25.76355 8.2811441 -9.7451859
25.76355 7.3610144 -9.7451849
25.76355 6.4408884 -9.7451811
25.76355 5.5207596 -9.7451811
25.76355 4.6006346 -9.7451878
25.76355 3.6805089 -9.7451839
25.76355 2.7603793 -9.745183
25.76355 1.8402534 -9.7451792
25.76355 0.92012858 -9.7451868
25.76355 -1.2836697e-06 -9.7451849
25.76355 -0.92012709 -9.745182
25.76355 -1.8402566 -9.7451801
25.76355 -2.7603774 -9.7451849
25.76355 -3.6805072 -9.7451839
25.76355 -4.6006365 -9.745183
25.76355 -5.5207629 -9.7451792
24.711237 -6.1778078 -14.281809
23.585274 -6.7386527 -19.135944
26.571293 21.073782 -10.212983
26.571293 20.157532 -10.212981
26.571293 19.241282 -10.21298
26.571293 18.325026 -10.212981
26.571293 17.408777 -10.212981
26.571293 16.492525 -10.21298
26.571293 15.576275 -10.212978
26.571293 14.660025 -10.212988
26.571293 13.743774 -10.212987
26.571293 12.827524 -10.212986
26.571293 11.911269 -10.212987
26.571293 10.995018 -10.212986
26.571293 10.078768 -10.212985
26.571293 9.1625166 -10.212984
26.571293 8.2462626 -10.212986
26.571293 7.3300114 -10.212984
26.571293 6.4137611 -10.212983
26.571293 5.49751 -10.212982
26.571293 4.5812554 -10.212984
26.571293 3.6650047 -10.212982
26.571293 2.7487538 -10.212981
26.571293 1.8325033 -10.21298
26.571293 0.91624826 -10.212981
26.571293 -1.8207222e-06 -10.21298
26.571293 -0.91625285 -10.212979
26.571293 -1.8325036 -10.212978
26.571293 -2.7487533 -10.212988
26.571293 -3.6650043 -10.212987
26.571293 -4.5812545 -10.212986
26.571293 -5.4975047 -10.212984
25.591217 -6.1771932 -14.292483
24.375937 -6.7243938 -19.351017
27.561529 21.130507 -9.9152813
27.561529 20.211788 -9.9152861
27.561529 19.293072 -9.9152889
27.561529 18.374357 -9.9152899
27.561529 17.455635 -9.9152842
27.561529 16.536917 -9.915287
27.561529 15.618203 -9.915287
27.561529 14.699486 -9.9152899
27.561529 13.780763 -9.9152851
27.561529 12.862049 -9.9152861
27.561529 11.943332 -9.9152889
27.561529 11.02461 -9.9152842
27.561529 10.105895 -9.9152842
27.561529 9.1871777 -9.915287
27.561529 8.2684603 -9.9152908
27.561529 7.3497419 -9.9152832
27.561529 6.4310241 -9.9152861
27.561529 5.5123062 -9.9152889
27.561529 4.5935874 -9.9152813
27.561529 3.6748705 -9.9152851
27.561529 2.7561526 -9.915288
27.561529 1.8374389 -9.915288
27.561529 0.91871613 -9.9152832
27.561529 -1.5285362e-06 -9.9152861
27.561529 -0.91871488 -9.915287
27.561529 -1.8374325 -9.9152899
27.561529 -2.7561553 -9.9152851
27.561529 -3.6748686 -9.9152851
27.561529 -4.5935869 -9.9152889
27.561529 -5.5123096 -9.9152832
26.475901 -6.1777081 -14.283523
25.163452 -6.7102566 -19.564402
31.721603 -6.1396646 2.7062113
27.360735 -6.1782341 -14.274548
25.94796 -6.6962452 -19.775745
32.751122 -6.1408334 2.7297511
28.245716 -6.17875 -14.265576
26.729097 -6.6822753 -19.98658
33.780876 -6.1419768 2.7527294
29.130964 -6.179297 -14.25618
27.525429 -6.6728349 -20.12907
34.811176 -6.1431475 2.7762904
30.016249 -6.1798129 -14.24721
28.366087 -6.6743736 -20.105793
35.847038 -6.1452103 2.8176906
30.90168 -6.1803384 -14.238234
29.51988 -6.7474012 -19.003891
36.866951 -6.1444898 2.803308
31.787264 -6.18086 -14.229255
34.234417 -6.4767833 -9.1262121
