# .PCD v0.7 - Point Cloud Data file format
VERSION 0.7
FIELDS x y z
SIZE 4 4 4
TYPE F F F
COUNT 1 1 1
WIDTH 1417
HEIGHT 1
VIEWPOINT 0 0 0 1 0 0 0
POINTS 1417
DATA ascii
-36.600849 1.9263593 -4.548172
-35.474709 1.917555 -5.079833
-35.801979 0.96762401 -4.0121264
-34.439888 1.9133295 -5.3348107
-34.680256 0.96333909 -4.5288405
-35.517956 1.9177412e-07 -1.7199736
-33.585678 0.95959157 -4.9814601
-34.325981 2.9316921e-06 -2.4282458
-35.416183 -1.0118876 1.3317212
-32.499729 0.95587707 -5.4300742
-33.148102 6.4443708e-07 -3.1281414
-34.194473 -1.0057189 0.58680421
-35.308891 -2.0769899 4.5433369
-31.422024 0.9521836 -5.8757234
-31.984072 2.7477151e-06 -3.8198104
-32.987576 -0.99962717 -0.14908126
-34.055931 -2.0639939 3.7588546
-35.194271 -3.1994758 7.9227858
-30.35261 0.94851923 -6.3179355
-30.833639 3.8478132e-07 -4.5033908
-31.795223 -0.99360102 -0.87610602
-32.818558 -2.0511565 2.9841297
-33.912243 -3.1792703 7.1097398
-29.291397 0.94488502 -6.7567663
-29.696575 -1.169488e-06 -5.1790347
-30.617149 -0.98764801 -1.594419
-31.602037 -2.0388422 2.2406361
-32.646305 -3.1593189 6.3068924
-33.747585 -4.3545241 10.595167
-28.238403 0.94128114 -7.1917496
-28.572643 -2.3608338e-06 -5.8468766
-29.452972 -0.98176581 -2.3047068
-30.402142 -2.026809 1.5144604
-31.39616 -3.1396143 5.51407
-32.448441 -4.3264594 9.7481337
-33.573536 -5.5955877 14.275163
-30.115414 2.0769238 4.5392008
-27.192951 0.93768495 -7.6253629
-27.476038 2.2081476e-06 -6.4470339
-28.307606 -0.97612262 -2.9856863
-29.216324 -2.0149162 0.79679948
-30.16151 -3.1201556 4.7310734
-31.165783 -4.2987289 8.9113016
-32.239407 -5.5585141 13.380177
-29.425474 6.30546 6.0417166
-29.261213 5.2252173 5.3335681
-29.162512 4.1660752 4.9080629
-29.065571 3.1141691 4.4901371
-29.001574 2.071543 4.2142415
-26.146572 0.93380815 -8.0939445
-26.425669 -8.8698067e-07 -6.8907347
-27.177124 -0.97061163 -3.6511421
-28.043831 -2.0031314 0.085320607
-28.94207 -3.1009383 3.9577165
-29.899609 -4.2713728 8.0857611
-30.922834 -5.5219355 12.496973
-32.01907 -6.8612332 17.222958
-28.717825 10.636233 7.5763526
-28.555721 9.5185757 6.8516288
-28.439592 8.4265423 6.3324432
-28.344122 7.3484759 5.9056196
-28.271864 6.2826347 5.5825677
-28.212553 5.2245469 5.3174047
-28.166965 4.1728859 5.1135945
-28.138565 3.1265059 4.9866223
-28.112883 2.0824392 4.8717904
-25.103838 0.92976892 -8.5809393
-25.369659 -2.2177844e-06 -7.3925152
-26.059225 -0.96515679 -4.3096294
-26.881813 -1.9912459 -0.63202304
-27.737564 -3.081948 3.1938312
-28.64945 -4.2443604 7.2706628
-29.623035 -5.4857488 11.623338
-30.666861 -6.8148589 16.290035
-31.768757 -8.2363405 21.216351
-27.833857 13.916932 8.4104424
-27.701714 12.785405 7.796936
-27.606054 11.679485 7.3528204
-27.527063 10.587336 6.9860835
-27.467358 9.5079308 6.708889
-27.412241 8.4345379 6.4530015
-27.387846 7.373652 6.3397393
-27.359701 6.3137798 6.2090683
-27.357216 5.2610059 6.197535
-27.358002 4.2089229 6.2011795
-27.358786 3.156781 6.2048206
-27.359571 2.1045842 6.2084613
-24.061674 0.92545068 -9.1027355
-24.323425 2.399787e-06 -7.8874993
-24.953821 -0.959759 -4.9607601
-25.733505 -1.979501 -1.3408962
-26.547714 -3.0631983 2.4392424
-27.414999 -4.2176909 6.4658074
-28.340023 -5.4500036 10.760428
-29.332655 -6.7690768 15.368944
-30.38847 -8.1815109 20.270796
-27.093212 18.423386 10.003287
-26.946636 17.245848 9.2955523
-26.851328 16.1108 8.8353539
-26.765408 14.988629 8.420496
-26.706314 13.88729 8.1351719
-26.648642 12.791351 7.8567157
-26.619644 11.712645 7.7166905
-26.593149 10.637259 7.5887628
-26.584671 9.5704794 7.5478296
-26.58544 8.5073423 7.5515456
-26.586212 7.4441414 7.5552664
-26.587111 6.3809052 7.5596094
-26.587881 5.3175769 7.5633297
-26.588652 4.2541847 7.5670543
-26.590193 3.1908219 7.5744934
-26.591736 2.1273403 7.5819364
-23.031954 0.92127728 -9.6062059
-23.286484 -3.3673234e-07 -8.3772278
-23.860703 -0.95442867 -5.6046515
-24.598661 -1.9678944 -2.0414643
-25.372141 -3.0446527 1.6932181
-26.195591 -4.1912942 5.6691966
-27.074287 -5.4148555 9.9118996
-28.016258 -6.7239022 14.460141
-29.026443 -8.1274014 19.337748
-30.080112 -9.6256361 24.425308
-26.493988 24.286154 12.440153
-26.334082 23.04232 11.635883
-26.181667 21.818064 10.869307
-26.080221 20.646845 10.359074
-25.987993 19.490992 9.8951855
-25.928562 18.366068 9.5962839
-25.870798 17.247202 9.3057556
-25.832346 16.14522 9.1123562
-25.809761 15.055691 8.9987497
-25.795521 13.972576 8.9271326
-25.796404 12.898201 8.9315729
-25.797159 11.8237 8.9353685
-25.797915 10.749134 8.9391689
-25.799047 9.6746473 8.9448719
-25.80056 8.6001883 8.9524784
-25.802071 7.5256014 8.960084
-25.803583 6.4508967 8.9676828
-25.804214 5.3758788 8.9708595
-25.804592 4.3007679 8.9727583
-25.805096 3.2256386 8.9752893
-25.805599 2.1504664 8.9778271
-22.080275 0.92001444 -9.7591085
-22.258591 1.1240409e-06 -8.862258
-22.779669 -0.94915587 -6.2414198
-23.477053 -1.9564182 -2.7338662
-24.210825 -3.0263522 0.95673138
-24.991119 -4.1651874 4.8813071
-25.824772 -5.3801632 9.074255
-26.717314 -6.6793275 13.563388
-27.670134 -8.0704546 18.355709
-28.680349 -9.5601139 23.436693
-25.1994 24.103775 11.439449
-25.13286 22.947393 11.090231
-25.076227 21.805418 10.793011
-25.027889 20.675209 10.539312
-25.007124 19.570793 10.430325
-24.989353 18.47039 10.337057
-24.990091 17.384409 10.34094
-24.990955 16.298447 10.345476
-24.992435 15.212784 10.35324
-24.993916 14.126995 10.361014
-24.995274 13.041009 10.368134
-24.996752 11.954967 10.375907
-24.998236 10.868795 10.383677
-24.998976 9.7822084 10.387563
-24.99947 8.6954699 10.390155
-24.99984 7.6086459 10.392096
-25.000334 6.5218225 10.394691
-25.000826 5.4349661 10.397278
-25.001198 4.348032 10.399227
-25.00169 3.2610905 10.401816
-25.002062 2.1740928 10.40376
-21.092306 0.91706055 -10.115776
-21.239437 4.0792306e-06 -9.3435917
-21.710615 -0.94393849 -6.870708
-22.368444 -1.9450815 -3.4182301
-23.062969 -3.008214 0.22683707
-23.801668 -4.1394196 4.1037531
-24.591286 -5.3459339 8.2479019
-25.435476 -6.6353383 12.678448
-26.338318 -8.0160103 17.416821
-27.299511 -9.4954834 22.461445
-24.122622 24.122623 11.542864
-24.165348 23.066929 11.777297
-24.166555 21.969591 11.783916
-24.168001 20.872366 11.791859
-24.169449 19.775 11.799792
-24.170895 18.677507 11.807736
-24.172342 17.579884 11.815677
-24.173792 16.482132 11.823627
-24.175238 15.384239 11.831569
-24.175962 14.285796 11.83554
-24.176445 13.187157 11.838191
-24.176928 12.088467 11.840834
-24.17729 10.989676 11.842825
-24.177773 9.8909054 11.845473
-24.178135 8.7920504 11.847459
-24.178617 7.6931953 11.85011
-24.1791 6.5943012 11.852759
-24.179462 5.4953327 11.854741
-24.179945 4.3963542 11.857393
-24.180307 3.2973177 11.859378
-24.18079 2.1982539 11.862034
-24.181274 1.0991529 11.864676
-20.229095 3.7974783e-07 -9.8203344
-20.653151 -0.93878132 -7.4935966
-21.272516 -1.933862 -4.0952301
-21.928791 -2.9902921 -0.49435636
-22.626949 -4.1139898 3.3363445
-23.373285 -5.3121109 7.4313731
-24.170534 -6.5919614 11.805749
-25.02409 -7.9622107 16.489086
-25.93722 -9.4317169 21.499294
-26.889029 -11.000056 26.72172
-23.329519 23.329517 13.286733
-23.330931 22.219931 13.294849
-23.332344 21.110216 13.302976
-23.333757 20.000364 13.311094
-23.3347 18.889994 13.316507
-23.335054 17.779087 13.318536
-23.335524 16.668232 13.321252
-23.335876 15.55725 13.323278
-23.336349 14.446311 13.325986
-23.336819 13.335326 13.328699
-23.337173 12.224241 13.330729
-23.337645 11.113166 13.333442
-23.338116 10.002049 13.33615
-23.338469 8.8908501 13.338176
-23.338942 7.7796483 13.340888
-23.339293 6.6683679 13.342919
-23.339766 5.5570903 13.345629
-23.340237 4.4457612 13.348339
-23.340588 3.3343713 13.350368
-23.341061 2.2229571 13.353083
-23.341415 1.1114945 13.355112
-19.227356 -8.4215458e-07 -10.293014
-19.605272 -0.93358594 -8.1207123
-20.188894 -1.9227524 -4.7659831
-20.807953 -2.9725664 -1.2075466
-21.466976 -4.0889468 2.580606
-22.170597 -5.2787142 6.6251154
-22.921909 -6.5491152 10.943732
-23.725924 -7.9086418 15.565328
-24.591009 -9.3680067 20.537952
-25.493845 -10.925933 25.727556
-22.474209 22.474213 14.829539
-22.47467 21.350941 14.832306
-22.475128 20.227621 14.835076
-22.4757 19.104351 14.838542
-22.476162 17.980934 14.841309
-22.47662 16.857471 14.844078
-22.477077 15.733953 14.846848
-22.477654 14.610475 14.850307
-22.477995 13.486802 14.852393
-22.478455 12.363152 14.855159
-22.478914 11.239456 14.85793
-22.479258 10.115664 14.860009
-22.479717 8.9918842 14.862782
-22.480177 7.8680606 14.865552
-22.48052 6.7441559 14.867627
-22.480982 5.6202474 14.8704
-22.481323 4.4962659 14.872483
-22.481783 3.3722687 14.875246
-22.482244 2.2482245 14.878023
-22.482586 1.1241285 14.880102
-18.234041 5.7154966e-07 -10.762151
-18.568302 -0.92841393 -8.7447014
-19.117571 -1.9117588 -5.4295712
-19.700415 -2.9550657 -1.911797
-20.321039 -4.0642061 1.8340042
-20.982939 -5.2457328 5.8289218
-21.689409 -6.5068192 10.092852
-22.445112 -7.8557873 14.653913
-23.251442 -9.3005762 19.52055
-24.113245 -10.85096 24.721996
-21.594086 21.594088 16.377094
-21.594643 20.458086 16.38063
-21.595089 19.32192 16.383463
-21.595535 18.185717 16.386305
-21.595982 17.049461 16.389139
-21.596539 15.91324 16.39267
-21.596985 14.776884 16.395508
-21.597431 13.640486 16.39834
-21.597876 12.504031 16.401173
-21.598434 11.367601 16.40472
-21.598879 10.231047 16.407557
-21.599325 9.094449 16.410389
-21.599771 7.9578118 16.413219
-21.60033 6.8211589 16.416761
-21.600777 5.6844149 16.419603
-21.601223 4.5476265 16.42244
-21.601669 3.4107916 16.425268
-21.602226 2.2739215 16.42881
-21.602673 1.1369835 16.431644
-17.240376 2.9695316e-06 -11.282874
-17.54253 -0.92328984 -9.3632269
-18.058508 -1.9008968 -6.0851164
-18.605759 -2.9377475 -2.6083355
-19.188885 -4.0397668 1.0963837
-19.810028 -5.2131653 5.0426283
-20.472729 -6.4650712 9.2528868
-21.181303 -7.8036337 13.754595
-21.93424 -9.235467 18.538153
-22.751339 -10.776953 23.729347
-20.693756 20.69376 17.96109
-20.694187 19.544514 17.963985
-20.69462 18.395222 17.966885
-20.695051 17.245874 17.969784
-20.695593 16.096575 17.973413
-20.696026 14.947131 17.976309
-20.696459 13.797638 17.979206
-20.69689 12.648099 17.982109
-20.697432 11.498571 17.985731
-20.697863 10.348937 17.98863
-20.698294 9.1992397 17.991535
-20.698835 8.0495481 17.995153
-20.69927 6.8997588 17.998058
-20.699701 5.7499151 18.000961
-20.700132 4.600029 18.00386
-20.700674 3.4501112 18.007484
-20.701105 2.300123 18.010387
-20.70154 1.1500891 18.013285
-16.253069 -1.2082637e-06 -11.818808
-16.52795 -0.91821975 -9.9754133
-17.011339 -1.8901492 -6.7337503
-17.524162 -2.9206965 -3.294673
-18.070351 -4.0156345 0.36814067
-18.65168 -5.1810207 4.2666178
-19.271654 -6.4238887 8.4242706
-19.934162 -7.7521734 12.867147
-20.641371 -9.1739454 17.609785
-21.407885 -10.70394 22.750145
-19.772287 19.772285 19.581348
-19.772705 18.609612 19.584314
-19.773228 17.44697 19.58802
-19.773645 16.28418 19.59099
-19.774063 15.121341 19.593954
-19.774481 13.958463 19.596928
-19.775005 12.795595 19.600637
-19.775423 11.6326 19.603603
-19.775841 10.469568 19.606569
-19.776258 9.3064709 19.609539
-19.776781 8.1433821 19.613247
-19.777199 6.9801865 19.616211
-19.777617 5.8169484 19.619184
-19.695187 4.6341591 19.033886
-19.616322 3.4617059 18.473877
-19.538084 2.2985997 17.918346
-19.460365 1.144729 17.366505
-15.275442 2.6006826e-06 -12.349088
-15.524457 -0.91320473 -10.580921
-15.976011 -1.8795304 -7.3746066
-16.455198 -2.9038584 -3.9720628
-16.965023 -3.9917698 -0.3520104
-17.507444 -5.1492496 3.4995437
-18.085701 -6.3831878 7.6055117
-18.703459 -7.701427 11.991988
-19.36491 -9.1128988 16.688715
-20.076265 -10.628611 21.739771
-18.829048 18.82905 21.239891
-18.829552 17.652708 21.243687
-18.829954 16.47621 21.246721
-18.830357 15.299669 21.249762
-18.830862 14.123143 21.253555
-18.831264 12.946494 21.256596
-18.831667 11.76979 21.259634
-18.832069 10.593043 21.262672
-18.832573 9.4162912 21.26647
-18.833479 8.2396469 21.27331
-18.834385 7.0628924 21.280148
-18.835392 5.8860569 21.287746
-18.441156 4.6102881 18.313456
-18.367689 3.4439423 17.759197
-18.294806 2.2868493 17.209337
-18.222498 1.1389067 16.663822
-14.307222 1.0355637e-06 -12.874663
-14.531927 -0.90824401 -11.179391
-14.952188 -1.8690238 -8.0087729
-15.398489 -2.8872156 -4.6416931
-15.872752 -3.9681854 -1.0636442
-16.377159 -5.1178627 2.7418108
-16.914679 -6.3430014 6.7970676
-17.488676 -7.6512966 11.12756
-18.103001 -9.0514994 15.762271
-18.75816 -10.551462 20.705055
-17.862968 19.053835 22.935751
-17.863354 17.863359 22.93886
-17.863741 16.672827 22.941967
-17.864128 15.482244 22.945086
-17.864611 14.291691 22.948967
-17.865578 13.101425 22.956745
-17.86664 11.911098 22.965305
-17.867994 10.720798 22.976192
-17.869349 9.530323 22.987091
-17.870703 8.3396616 22.997988
-17.872055 7.1488228 23.008884
-17.880379 5.9601264 23.075846
-17.199978 4.5866585 17.60041
-17.131805 3.4263623 17.0518
-17.064173 2.2752256 16.50753
-16.99707 1.1331359 15.967542
-13.348394 -6.5983272e-08 -13.394735
-13.55006 -0.90333825 -11.771846
-13.939747 -1.8586342 -8.6358976
-14.353821 -2.8707659 -5.3036852
-14.793313 -3.9448848 -1.7669182
-15.260571 -5.0868549 1.9932663
-15.758307 -6.3033247 5.9987411
-16.289606 -7.6018171 10.274303
-16.857981 -8.9909229 14.848238
-17.459049 -10.475431 19.685266
-16.875019 18.080378 24.685339
-16.876314 16.876318 24.696489
-16.877607 15.672069 24.707644
-16.878901 14.467626 24.718801
-16.880196 13.263007 24.729961
-16.881491 12.058209 24.741121
-16.896576 10.86209 24.871185
-15.971457 4.5632763 16.894634
-15.908557 3.4089808 16.352306
-15.845989 2.2637153 15.812831
-15.783992 1.1274263 15.278281
-12.398662 3.2786636e-07 -13.910687
-12.578749 -0.89848 -12.357938
-12.938828 -1.848403 -9.2532749
-13.321049 -2.8545105 -5.957684
-13.72654 -3.9218707 -2.461457
-14.157428 -5.0562229 1.2537347
-14.616314 -6.2641358 5.2103357
-15.105944 -7.5529704 9.4320211
-15.629515 -8.9311523 13.946348
-16.184816 -10.404526 18.734264
-16.798132 -11.998665 24.0224
-15.866773 17.087297 26.515596
-15.888 15.887997 26.712708
-14.755324 4.5401011 16.195311
-14.697584 3.3917549 15.659169
-14.640144 2.2523298 15.125822
-14.583077 1.1217765 14.595927
-11.45787 -2.9279227e-06 -14.42298
-11.61787 -0.89368421 -12.937321
-11.948865 -1.8382852 -9.8638964
-12.299852 -2.8384266 -6.6048074
-12.672086 -3.8991044 -3.1484575
-13.067552 -5.0259824 0.52361751
-13.488496 -6.2254591 4.4322686
-13.937464 -7.504786 8.6011171
-14.417274 -8.8721685 13.056379
-14.928574 -10.335164 17.804005
-15.484087 -11.910832 22.962191
-13.551551 4.5171824 15.503761
-13.498789 3.3746967 14.973006
-13.446298 2.2410488 14.444994
-13.394214 1.1161845 13.921067
-10.526096 -1.8472845e-06 -14.929964
-10.667159 -0.88893008 -13.51098
-10.96968 -1.8282799 -10.467862
-11.290099 -2.8225205 -7.2446823
-11.629803 -3.8766036 -3.8275309
-11.990582 -4.9960761 -0.19837116
-12.374462 -6.1872301 3.6631591
-12.783736 -7.4571776 7.7801342
-13.221006 -8.8140049 12.178746
-13.688897 -10.266676 16.885361
-14.188376 -11.823647 21.909727
-12.359806 4.4944768 14.818459
-12.311987 3.3578131 14.29371
-12.26435 2.2298841 13.770952
-12.21708 1.1106431 13.252233
-9.601903 -4.0013748e-07 -15.445928
-9.7265463 -0.88423204 -14.078136
-10.001098 -1.8183801 -11.065299
-10.291598 -2.8068008 -7.8774242
-10.599481 -3.8543556 -4.4988141
-10.926353 -4.9665241 -0.91182208
-11.274027 -6.1494708 2.9034486
-11.644552 -7.4101672 6.9694929
-12.040263 -8.7565546 11.311893
-12.463812 -10.197661 15.959794
-12.911497 -11.737728 20.872566
-11.179982 4.4719954 14.14002
-11.136944 3.3410842 13.620491
-11.094123 2.2188249 13.103601
-11.051575 1.1051598 12.589993
-8.6825285 8.6618667e-07 -16.006929
-8.7961397 -0.87961406 -14.635519
-9.042984 -1.8085974 -11.655839
-9.3042011 -2.7912598 -8.5026751
-9.5809155 -3.8323667 -5.1624322
-9.8746395 -4.9373188 -1.616874
-10.186942 -6.112165 2.1529477
-10.519644 -7.3637466 6.1690097
-10.87481 -8.6998491 10.456265
-11.254799 -10.129321 15.043121
-11.655264 -11.655265 19.877172
-10.011905 4.4497323 13.468331
-9.9736032 3.324537 12.954621
-9.9354954 2.2078879 12.443497
-9.8975773 1.0997323 11.934936
-7.7728915 2.7635474e-07 -16.561985
-7.8750248 -0.8750006 -15.19215
-8.0952263 -1.7989358 -12.238741
-8.3276405 -2.7758813 -9.121521
-8.5739441 -3.8106434 -5.8180237
-8.8352613 -4.9084792 -2.3131621
-9.1130085 -6.0753403 1.4120604
-9.40874 -7.3179064 5.3784986
-9.7243567 -8.6438732 9.6116419
-10.061883 -10.061882 14.138645
-10.419188 -11.576874 18.930931
-8.8553963 4.4277015 12.803288
-8.8216867 3.308131 12.294655
-8.788188 2.1970453 11.78921
-8.7548132 1.0943558 11.285615
-6.8727851 -1.9866832e-06 -17.112001
-6.9634609 -0.87043381 -15.743794
-7.1576519 -1.7894104 -12.81369
-7.3618455 -2.7606895 -9.7326479
-7.5782924 -3.7891436 -6.4667168
-7.8079214 -4.8799486 -3.0018833
-8.0519009 -6.0389223 0.67948991
-8.3116207 -7.2726717 4.5983586
-8.5886536 -8.5886536 8.7784595
-8.8847456 -9.9953356 13.246137
-9.1996746 -11.49959 17.998055
-7.7103248 4.4059043 12.145473
-7.6810799 3.2918918 11.641162
-7.6520557 2.1863041 11.140658
-7.6231747 1.089023 10.642625
-5.9820561 -1.5080673e-08 -17.657454
-6.0613952 -0.86591542 -16.289307
-6.2299051 -1.7799752 -13.383447
-6.406774 -2.7457638 -10.333449
-6.5938382 -3.7679074 -7.1076484
-6.7924542 -4.8517509 -3.6826413
-7.0034385 -6.0029483 -0.044342369
-7.2279496 -7.2279463 3.8272152
-7.4673328 -8.5340939 7.9552259
-7.723115 -9.9297199 12.366028
-7.9962945 -11.423278 17.076841
-6.5764403 4.3842931 11.493443
-6.5516176 3.2758064 10.994057
-6.5270143 2.1756737 10.499066
-6.5024986 1.0837526 10.005855
-5.1006293 2.1861849e-06 -18.197588
-5.1686263 -0.86143661 -16.829584
-5.3118954 -1.7706301 -13.94723
-5.4619336 -2.7309647 -10.928702
-5.620574 -3.7470486 -7.737103
-5.7886548 -4.8238811 -4.3555775
-5.9673944 -5.9673948 -0.75961125
-6.1575241 -7.1837797 3.0655043
-6.3601685 -8.4802246 7.1423855
-6.5766039 -9.8649025 11.496736
-6.8082895 -11.347148 16.157892
-5.4536223 4.3629017 10.847776
-5.4331384 3.2598829 10.353245
-5.4128337 2.1651337 9.8630466
-5.3926544 1.0785321 9.375865
-4.2284002 -4.2515501e-07 -18.731701
-4.2850561 -0.85701215 -17.363901
-4.403471 -1.7613879 -14.505119
-4.5271821 -2.7163086 -11.518473
-4.6580257 -3.7264211 -8.359621
-4.7965322 -4.7965317 -5.0157828
-4.9435501 -5.9322624 -1.4664497
-5.1001024 -7.1401453 2.3130431
-5.2668939 -8.4270287 6.3397398
-5.444963 -9.800931 10.638718
-5.6354947 -11.270988 15.238561
-4.3417101 4.3417115 10.208383
-4.3255024 3.2441258 9.7192736
-4.3093944 2.1546979 9.2331629
-4.2934055 1.0733509 8.7506599
-3.3652046 -1.8401643e-06 -19.260284
-3.410507 -0.85262793 -17.893162
-3.504482 -1.7522442 -15.05722
-3.6024113 -2.7018099 -12.101936
-3.705971 -3.7059708 -8.9767418
-3.8155951 -4.7694931 -5.6685443
-3.9318321 -5.8977489 -2.1607852
-4.0554671 -7.0970674 1.5702267
-4.1872492 -8.3744984 5.5471044
-4.3279047 -9.7377882 9.7917643
-4.4783382 -11.195847 14.331498
-4.6373096 -12.752602 19.128881
-3.2526903 5.4211502 10.063842
-3.2405455 4.3207278 9.5751657
-3.2285066 3.2285089 9.0907593
-3.2165413 2.1443622 8.6093121
-3.2046797 1.0682241 8.1320486
-2.5108924 -9.7324983e-07 -19.783808
-2.5448608 -0.84828907 -18.41703
-2.6146786 -1.7431201 -15.607778
-2.6874616 -2.6874623 -12.679211
-2.764297 -3.6857302 -9.5875893
-2.8456554 -4.7427578 -6.3139906
-2.9318438 -5.8636899 -2.8460338
-3.0234301 -7.054667 0.83911186
-3.1209965 -8.3226576 4.7648869
-3.2251644 -9.6754942 8.9562845
-3.3365092 -11.121694 13.436443
-3.4547141 -12.667282 18.192646
-2.1579919 5.3949785 9.432024
-2.1499732 4.2999449 8.9480429
-2.142024 3.2130392 8.4682751
-2.1341233 2.1341209 7.9914246
-2.1262908 1.0631442 7.5186934
-1.665148 1.0214171e-06 -20.313744
-1.6879885 -0.84399348 -18.935202
-1.7340505 -1.7340508 -16.155107
-1.7821774 -2.6732666 -13.250386
-1.8328538 -3.6657097 -10.191802
-1.8864964 -4.7162418 -6.9541893
-1.9433392 -5.8300138 -3.523417
-2.0036867 -7.0129051 0.11887871
-2.0678928 -8.2715712 3.9940457
-2.1364326 -9.6139479 8.1307974
-2.2097161 -11.048579 12.553843
-2.2878487 -12.583167 17.269575
-1.0738121 5.3690605 8.8062677
-1.0698463 4.2793865 8.3275518
-1.0659044 3.1977165 7.8517308
-1.0619967 2.1239939 7.3800225
-1.0581124 1.0581127 6.9111509
-0.82789332 -1.5776452e-06 -20.878754
-0.83974153 -0.83974367 -19.44854
-0.86254138 -1.7250834 -16.696362
-0.88640666 -2.6592205 -13.815562
-0.91147554 -3.6459019 -10.789487
-0.9380036 -4.6900196 -7.5872664
-0.96612632 -5.7967596 -4.1925483
-0.995947 -6.9716315 -0.59287697
-1.0276672 -8.2213364 3.2360854
-1.0614794 -9.5533142 7.3175983
-1.0976362 -10.976363 11.682108
-1.1363606 -12.499968 16.35656
-2.0358973e-23 5.3433876 8.1865005
-2.8168172e-23 4.2589998 7.7123399
-2.7399985e-23 3.1825361 7.2410345
-1.0571406e-23 2.1139479 6.773787
5.0407139e-24 0.81870669 -21.987349
-1.6803236e-23 -7.4279211e-07 -21.437449
-1.1202197e-23 -0.83556998 -19.952147
2.0958313e-23 -1.7162037 -17.232454
-1.6913061e-23 -2.6453185 -14.374832
-7.2782721e-24 -3.626308 -11.380745
8.0277278e-24 -4.6641078 -8.2128658
-9.6283369e-24 -5.7637491 -4.8566246
-2.6112444e-24 -6.9308376 -1.2963052
2.7426927e-24 -8.171751 2.4878576
-2.3719187e-23 -9.4937601 6.5188608
1.6306525e-23 -10.905139 10.822348
-3.1100021e-24 -12.41595 15.434571
1.0635974 5.3179884 7.5732508
1.0597014 4.2388082 7.1029639
1.0558389 3.1675181 6.6367211
1.0519996 2.1039979 6.1732602
0.81300724 0.81300592 -22.675663
0.81868804 -2.1630314e-07 -21.989927
0.83149862 -0.8314994 -20.443562
0.85370457 -1.7074082 -17.76306
0.87718868 -2.6315677 -14.928279
0.90173161 -3.6069283 -11.965687
0.92769134 -4.6384544 -8.8320665
0.95518595 -5.7311158 -5.513176
0.9843601 -6.8905187 -1.9915477
1.0153397 -8.122714 1.7480247
1.0483276 -9.4349508 5.7300286
1.0835311 -10.835312 9.9794579
1.1211867 -12.333053 14.5249
2.1171203 5.2928019 6.9651942
2.1094017 4.2188058 6.4993429
2.1017494 3.1526275 6.0374804
2.0941424 2.094147 5.5783548
1.6116236 0.80581045 -23.544222
1.6283236 6.5356949e-07 -22.536303
1.654934 -0.8274684 -20.93021
1.6987143 -1.6987171 -18.287848
1.7453024 -2.6179512 -15.476006
1.7938819 -3.5877671 -12.543961
1.8452357 -4.6130862 -9.4444952
1.8996162 -5.6988482 -6.1623397
1.9572995 -6.8505497 -2.6808465
2.0185678 -8.0742702 1.0170263
2.0837464 -9.3768549 4.9508991
2.153285 -10.766426 9.1479406
2.2276142 -12.251881 13.634094
3.1607108 5.2678504 6.3628654
3.1492417 4.1989918 5.9013882
3.1378706 3.1378713 5.44385
3.1265664 2.0843761 4.9890041
2.4020233 0.80067259 -24.16436
2.4290557 1.0317141e-06 -23.07666
2.470423 -0.82347423 -21.412174
2.535151 -1.6901014 -18.80772
2.6044297 -2.6044326 -16.020153
2.6765924 -3.5687878 -13.116563
2.7527986 -4.587996 -10.050259
2.8334715 -5.666944 -6.804225
2.9190156 -6.8110337 -3.3622007
3.0098858 -8.0263624 0.29413161
3.1065075 -9.319521 4.1818995
3.2095075 -10.698359 8.3262959
3.3195717 -12.17176 12.754937
4.194509 5.2431388 5.7661901
4.1793795 4.1793833 5.3096204
4.1643395 3.1232531 4.8557429
4.1494265 2.074712 4.4057131
3.1864965 0.79662418 -24.653282
3.221031 -4.8083604e-07 -23.611118
3.27808 -0.81952053 -21.8895
3.3631611 -1.6815827 -19.321949
3.4545779 -2.5909355 -16.563213
3.5500147 -3.5500119 -13.683144
3.650542 -4.5631795 -10.649465
3.7569284 -5.6353922 -7.4389691
3.8697019 -6.7719769 -4.035737
3.9894552 -7.9789076 -0.42186114
4.1168184 -9.2628403 3.421663
4.2524586 -10.631145 7.514976
4.3973417 -12.092689 11.887204
5.2186518 5.2186546 5.1750827
5.1999164 4.1599331 4.7227669
5.1812901 3.1087742 4.2730947
5.1628213 2.0651329 3.8272135
3.9630728 0.79261512 -25.137272
4.0044065 1.3369133e-06 -24.1394
4.0780177 -0.81560224 -22.362265
4.1830235 -1.6732087 -19.827188
4.2959766 -2.5775814 -17.100269
4.4142957 -3.5314362 -14.243787
4.5386248 -4.5386209 -11.242227
4.6701598 -5.6041927 -8.0666847
4.8095465 -6.7333632 -4.7015891
4.9575095 -7.9320116 -1.1294429
5.1148658 -9.2067547 2.6694725
5.2823868 -10.564774 6.7137814
5.4612255 -12.014696 11.031326
6.233304 5.1944222 4.5900683
6.2109995 4.1406679 4.1413445
6.1888833 3.0944402 3.6964066
6.1668959 2.0556324 3.2540455
4.7304478 0.7884078 -25.645061
4.7793121 1.080604e-06 -24.66198
4.8703456 -0.81172836 -22.830528
4.9948778 -1.6649568 -20.325146
5.1287313 -2.5643668 -17.632217
5.269578 -3.5130517 -14.7986
5.4172015 -4.5143347 -11.828643
5.5733347 -5.5733342 -8.6874847
5.7387347 -6.6951928 -5.3598905
5.9142523 -7.8856668 -1.8287523
6.100873 -9.1513109 1.9257745
6.2995348 -10.499227 5.9225426
6.5114422 -11.937644 10.185779
7.2385421 5.1703916 4.0098739
7.2127604 4.1215754 3.5652895
7.1871953 3.0802281 3.1244333
7.1617775 2.0462234 2.6861176
5.488801 0.78411365 -26.163322
5.545886 2.9740961e-06 -25.17894
5.6551719 -0.8078807 -23.294369
5.7987423 -1.6567829 -20.818586
5.9529862 -2.55128 -18.158739
6.1160011 -3.4948597 -15.34766
6.2864237 -4.4903059 -12.408813
6.4666176 -5.5428166 -9.3014917
6.6574459 -6.657445 -6.0107727
6.8598795 -7.8398595 -2.519937
7.0750422 -9.0964794 1.1904112
7.3041039 -10.434433 5.14045
7.5482731 -11.86157 9.3509998
8.2345219 5.1465731 3.4350269
8.205328 4.102664 2.9945185
8.1763773 3.0661426 2.5576882
8.1475935 2.0368986 2.123369
6.2358913 0.77948636 -26.721981
6.3022308 8.6937939e-07 -25.720999
6.4326034 -0.80407512 -23.75383
6.5947514 -1.6486906 -21.307209
6.7688985 -2.5383375 -18.679523
6.9537015 -3.476851 -15.891064
7.1464415 -4.4665256 -12.982844
7.3501701 -5.5126262 -9.9088087
7.5658565 -6.6201224 -6.6543593
7.7946177 -7.7946196 -3.202615
8.0376072 -9.0423069 0.46380854
8.2962341 -10.37029 4.3661904
8.5719748 -11.786468 8.5267982
9.2213707 5.1229796 2.8654468
9.1888685 4.0839434 2.4295261
9.1565533 3.0521848 1.9961056
9.124507 2.0276692 1.5662845
6.9742146 0.77491283 -27.274073
7.0479178 -1.8125232e-06 -26.285543
7.2027426 -0.80030662 -24.208986
7.383018 -1.6406705 -21.791079
7.5765457 -2.5255177 -19.195433
7.7827835 -3.4590144 -16.429312
7.9973984 -4.4429984 -13.550828
8.2241526 -5.4827709 -10.509541
8.464139 -6.5832186 -7.2907681
8.7185907 -7.7498622 -3.8779776
8.9887753 -8.9887733 -0.2541886
9.2762413 -10.306933 3.6013906
9.5827007 -11.712193 7.7117205
10.199212 5.0996046 2.3010626
10.163427 4.0653696 1.8691082
10.127847 3.0383575 1.4396089
10.092561 2.0185111 1.0136726
7.7039509 0.77039516 -27.819405
7.7844734 1.6767946e-06 -26.84741
7.9656935 -0.79657286 -24.659889
8.1640806 -1.6328137 -22.26515
8.3764563 -2.5129349 -19.701546
8.6028986 -3.4411595 -16.968147
8.8394384 -4.4197197 -14.112849
9.0887165 -5.4532275 -11.103806
9.3525009 -6.546751 -7.9196444
9.6320133 -7.7056122 -4.5456295
9.9287472 -8.9358721 -0.96372992
10.244346 -10.244346 2.8458815
10.580666 -11.638736 6.9056258
11.168221 5.0764666 1.7423742
11.129164 4.0469708 1.3137596
11.090378 3.0246501 0.88813645
11.051912 2.0094402 0.46602023
8.4251986 0.76592743 -28.358736
8.5122957 -1.3264074e-06 -27.402966
8.7215548 -0.79287088 -25.106606
8.9377327 -1.6250453 -22.734337
9.1685772 -2.500524 -20.201117
9.4146271 -3.4235044 -17.501047
9.6726999 -4.3966804 -14.669024
9.9440145 -5.4240084 -11.691701
10.231032 -6.5106592 -8.5420609
10.535065 -7.6618648 -5.2057004
10.85772 -8.8835869 -1.6649733
11.200764 -10.182512 2.0994847
11.566192 -11.566193 6.1095757
11.955973 -13.042878 10.386919
12.128421 5.0535088 1.1881704
12.086196 4.0287352 0.76341754
12.044318 3.0110819 0.34216633
12.002676 2.000448 -0.076722302
9.1381283 0.76151145 -28.891842
9.2412806 -1.6045267e-06 -27.854214
9.4699841 -0.78916478 -25.553631
9.7040529 -1.6173437 -23.199081
9.9529095 -2.488229 -20.695774
10.218027 -3.4060071 -18.028906
10.497321 -4.3738861 -15.219425
10.790195 -5.3951001 -12.273329
11.099929 -6.4749622 -9.1576509
11.42792 -7.6186109 -5.8583183
11.775886 -8.8319139 -2.3580601
12.145705 -10.121423 1.3620508
12.539508 -11.494548 5.3233938
12.958813 -12.958808 9.5412664
13.079974 5.0307622 0.63895822
13.034641 4.0106606 0.21801415
12.989679 2.9976187 -0.1994659
9.7806883 1.5047212 -29.996346
9.8427143 0.7571336 -29.42041
9.9668999 4.6097728e-07 -28.267294
10.21109 -0.78546596 -25.999884
10.463146 -1.6097143 -23.659441
10.729568 -2.4760518 -21.1856
11.01326 -3.3886969 -18.551395
11.313433 -4.3513198 -15.764151
11.627451 -5.3665161 -12.848353
11.959349 -6.4396491 -9.76653
12.310753 -7.5758486 -6.5036039
12.68343 -8.780839 -3.0431252
13.079377 -10.061058 0.63340342
13.500841 -11.423789 4.5468864
13.948875 -12.875883 8.7070837
14.023 5.0082164 0.09466514
13.974679 3.9927673 -0.32197201
13.926626 2.984277 -0.73628366
10.441275 1.4916093 -30.787647
10.53892 0.75277871 -29.94573
10.685618 -5.7977354e-07 -28.680872
10.945286 -0.78180742 -26.441975
11.215111 -1.6021557 -24.115484
11.498663 -2.4640012 -21.670641
11.800492 -3.3715725 -19.068209
12.121168 -4.32899 -16.303284
12.455832 -5.3382149 -13.417748
12.809448 -6.4047208 -10.36881
13.183728 -7.5335612 -7.1416917
13.580538 -8.7303457 -3.7203145
14.001977 -10.001414 -0.086588264
14.450411 -11.35389 3.7798805
14.926348 -12.794012 7.8835139
14.95761 4.9858723 -0.4447642
14.906297 3.9750154 -0.85769743
14.855268 2.9710531 -1.2683451
11.117594 1.4823425 -31.346836
11.227168 0.74847609 -30.465048
11.396997 -4.7622075e-07 -29.098368
11.672666 -0.77817923 -26.879959
11.960052 -1.5946739 -24.567255
12.260305 -2.452064 -22.150991
12.580289 -3.3547459 -19.575972
12.920706 -4.3069057 -16.8365
13.275521 -5.3102107 -13.981167
13.650375 -6.3701792 -10.964581
14.047011 -7.4917388 -7.772697
14.467388 -8.6804352 -4.3897619
14.913702 -9.9424667 -0.79810911
15.38843 -11.28485 3.0222104
15.891392 -12.713112 7.0697217
15.88399 4.9637475 -0.97886395
15.82967 3.9574175 -1.3886884
15.775719 2.9579489 -1.7957156
11.791123 1.4738913 -31.857157
11.907553 0.744223 -30.978769
12.101958 -2.2855322e-06 -29.5121
12.393282 -0.77457684 -27.314228
12.698063 -1.5872602 -25.014832
13.014605 -2.4402344 -22.626713
13.352592 -3.3381493 -20.076782
13.71138 -4.2848058 -17.369947
14.086656 -5.282496 -14.538704
14.482278 -6.3359966 -11.55397
14.900764 -7.4503837 -8.3967323
15.344156 -8.6310892 -5.0516009
15.814744 -9.8842173 -1.5012817
16.315186 -11.216691 2.274262
16.844387 -12.633287 6.2667747
16.802109 4.9417963 -1.5087829
16.744904 3.9399772 -1.9149873
16.688158 2.9449675 -2.3179154
12.463486 1.4662907 -32.315739
12.580288 0.74001575 -31.486378
12.800587 1.450457e-06 -29.922112
13.107311 -0.77101666 -27.744175
13.429145 -1.5798995 -25.458952
13.761713 -2.4285402 -23.097504
14.117293 -3.3217125 -20.572666
14.493869 -4.2628989 -17.898745
14.889366 -5.2550688 -15.090458
15.305303 -6.3021827 -12.137061
15.745143 -7.4094815 -9.0139112
16.211012 -8.582303 -5.7059493
16.70529 -9.826642 -2.19627
17.230736 -11.1493 1.5347295
17.785492 -12.554467 5.4738493
17.712145 4.9200392 -2.0340314
17.652103 3.9226942 -2.4366827
17.592546 2.9320939 -2.8360865
13.139705 1.4599676 -32.697498
13.258757 0.73659658 -31.89912
13.49297 -6.6020607e-07 -30.328461
13.814805 -0.7674908 -28.170177
14.15242 -1.5724914 -25.906088
14.50164 -2.4169431 -23.564157
14.874503 -3.3054466 -21.063683
15.268341 -4.2412052 -18.422554
15.683786 -5.227931 -15.63651
16.119589 -6.2687321 -12.713962
16.580299 -7.3690205 -9.6243591
17.068121 -8.5340567 -6.3529515
17.58552 -9.7697325 -2.8832016
18.134686 -11.082309 0.79958975
18.714836 -12.476558 4.6901636
18.614202 4.8984733 -2.554678
18.551462 3.9055707 -2.9532847
18.489061 2.9193256 -3.3497417
13.833863 1.4561962 -32.925098
13.953197 0.73437977 -32.166946
14.179139 -6.909728e-07 -30.731499
14.51585 -0.76399279 -28.592308
14.868942 -1.565155 -26.349047
15.235254 -2.40557 -24.021793
15.62439 -3.2893448 -21.549549
16.034969 -4.219727 -18.941059
16.470041 -5.2010665 -16.176947
16.925274 -6.2356267 -13.284772
17.406387 -7.3290067 -10.228168
17.915651 -8.4863625 -6.9927139
18.455694 -9.7135248 -3.5617092
19.027752 -11.016067 0.072665617
19.632811 -12.399669 3.9167228
19.508387 4.8770947 -3.07078
19.442917 3.8885865 -3.4659276
19.377802 2.906673 -3.8589416
14.55503 1.4555016 -32.966938
14.676219 0.73381144 -32.2355
14.859276 -1.6638637e-06 -31.130659
15.210537 -0.7605269 -29.010609
15.578753 -1.5578752 -26.788225
15.962112 -2.3943202 -24.474445
16.366945 -3.2733884 -22.031069
16.794575 -4.1986446 -19.450089
17.248259 -5.17448 -16.711863
17.722496 -6.2028766 -13.849585
18.223551 -7.2894225 -10.825463
18.753759 -8.4391937 -7.6253648
19.31583 -9.6579161 -4.2329626
19.910294 -10.950662 -0.64506418
20.539537 -12.323725 3.1527648
17.420019 4.9771485 -20.68182
17.319782 4.1237559 -21.258001
17.243555 3.2844903 -21.696163
17.179737 2.4542513 -22.063007
17.11664 1.630156 -22.425688
15.416658 0.73412544 -32.197399
15.596661 1.1581503e-06 -31.162727
15.89895 -0.75709355 -29.425127
16.282051 -1.5506735 -27.223013
16.682203 -2.3831701 -24.922884
17.102331 -3.2575846 -22.507942
17.547028 -4.1778674 -19.951756
18.01856 -5.1481586 -17.241339
18.511389 -6.1704583 -14.4085
19.031935 -7.2502599 -11.416336
19.582685 -8.392581 -8.2505455
20.166174 -9.6029406 -4.8965826
20.782419 -10.88603 -1.3543261
21.435722 -12.248986 2.4009585
18.691914 11.894853 -18.254614
18.583048 10.980896 -18.851946
18.483128 10.081704 -19.400187
18.41251 9.206254 -19.787647
18.342501 8.3375025 -20.171778
18.273851 7.475668 -20.548458
18.205711 6.6202564 -20.922325
18.140116 5.7718539 -21.282236
18.085453 4.9323974 -21.582169
18.030716 4.0978909 -21.882505
17.976109 3.2683859 -22.182123
17.921833 2.4438844 -22.479927
17.867882 1.6243523 -22.775948
16.168739 0.73494011 -32.098885
16.357735 1.5640924e-06 -31.061899
16.581173 -0.75368983 -29.835918
16.978874 -1.5435323 -27.653797
17.395622 -2.3721318 -25.367167
17.83065 -3.241936 -22.980228
18.292002 -4.1572747 -20.448868
18.780481 -5.1219478 -17.76865
19.292078 -6.1383867 -14.961601
19.831676 -7.2115154 -12.000896
20.402418 -8.346446 -8.8693304
21.006889 -9.5485868 -5.5526848
21.644308 -10.822152 -2.0552638
22.32234 -12.175824 1.6649921
19.908886 18.177679 -16.326702
19.797573 17.215281 -16.910898
19.704126 16.277317 -17.401344
19.627291 15.360491 -17.804598
19.551052 14.450779 -18.204721
19.476078 13.54858 -18.598206
19.402048 12.653512 -18.986734
19.339211 11.771692 -19.316523
19.279787 10.897269 -19.628397
19.220654 10.028164 -19.93874
19.161375 9.164135 -20.249851
19.10239 8.3053904 -20.559429
19.043766 7.4519119 -20.867105
18.993904 6.6065779 -21.128794
18.947918 5.766757 -21.370138
18.902084 4.9309802 -21.610693
18.856472 4.0992322 -21.850079
18.811079 3.271492 -22.088316
18.771259 2.4484229 -22.297298
18.745686 1.6300633 -22.431517
18.720182 0.81392086 -22.565363
17.120522 -3.3621347e-07 -30.960846
17.32312 -0.75317544 -29.897547
17.669313 -1.5364629 -28.080629
18.101553 -2.3610725 -25.812109
18.552006 -3.2264395 -23.448002
19.029667 -4.1368856 -20.941097
19.534157 -5.0958667 -18.29339
20.064693 -6.1066437 -15.50898
20.623005 -7.1732178 -12.578796
21.213188 -8.3008118 -9.4813538
21.838144 -9.4948444 -6.2013955
22.496042 -10.758973 -2.748553
23.198532 -12.103585 0.93832308
21.038195 24.544561 -15.000375
21.05924 23.691645 -14.894516
20.97414 22.721985 -15.322542
20.890715 21.761162 -15.742138
20.807951 20.807951 -16.158409
20.726086 19.862497 -16.570164
20.651556 18.930595 -16.945011
20.58662 18.013298 -17.271605
20.522095 17.101748 -17.596148
20.457972 16.195896 -17.918667
20.393932 15.29545 -18.240759
20.329901 14.40035 -18.562807
20.272026 13.514688 -18.853903
20.22183 12.638638 -19.106371
20.171803 11.766884 -19.357985
20.121868 10.899347 -19.609133
20.072184 10.03609 -19.859034
20.025928 9.1785507 -20.091673
19.998037 8.3325129 -20.231964
19.970144 7.488801 -20.372238
19.940149 6.6467175 -20.523104
19.921131 5.8103318 -20.618773
19.921131 4.9802809 -20.618773
19.921131 4.1502337 -20.618769
19.921131 3.3201919 -20.618774
19.921131 2.4901407 -20.618773
19.921131 1.6600937 -20.618771
19.921131 0.83004665 -20.618767
17.884968 -5.9268996e-07 -30.859867
18.096979 -0.75404221 -29.793543
18.353453 -1.5294565 -28.503572
18.800266 -2.3500357 -26.256281
19.266497 -3.211086 -23.911324
19.760132 -4.1166964 -21.428522
20.280117 -5.0700316 -18.813198
20.829361 -6.0752316 -16.050724
21.405884 -7.1352954 -13.151035
22.015141 -8.2556763 -10.086715
22.659897 -9.4416218 -6.8438344
23.337994 -10.696579 -3.4332712
24.064281 -12.032142 0.21967457
21.801157 24.417295 -15.549022
21.815327 23.560556 -15.480597
21.745771 22.615601 -15.816445
21.676657 21.676657 -16.150164
21.60993 20.745535 -16.472345
21.555004 19.830605 -16.737551
21.500273 18.92024 -17.001816
21.445736 18.01442 -17.26515
21.391556 17.113247 -17.526747
21.338064 16.216927 -17.78503
21.307581 15.341458 -17.932213
21.274801 14.466866 -18.090485
21.241547 13.59459 -18.251053
21.215919 12.729551 -18.374796
21.215919 11.880915 -18.374794
21.215919 11.032278 -18.374792
21.215919 10.183638 -18.374794
21.215919 9.3350048 -18.3748
21.215919 8.4863691 -18.374798
21.217474 7.638289 -18.367294
21.220583 6.7905884 -18.352285
21.223774 5.9426565 -18.336876
21.226885 5.0944514 -18.321857
21.228848 4.2457724 -18.31237
21.230158 3.3968284 -18.306042
21.231388 2.5477674 -18.30011
21.232698 1.6986154 -18.293779
21.234009 0.84936196 -18.287457
21.235237 -1.1608729e-06 -18.281521
18.872545 -0.75490046 -29.689611
19.099009 -1.5279167 -28.596151
19.492544 -2.3391051 -26.695988
19.974218 -3.1958735 -24.370262
20.483501 -4.0967002 -21.911219
21.019436 -5.0446634 -19.323505
21.586201 -6.0441365 -16.586927
22.180529 -7.0977683 -13.717248
22.808418 -8.2110329 -10.685533
23.471891 -9.3887587 -7.4820008
24.170767 -10.635137 -4.1075339
24.919981 -11.961591 -0.49000263
22.681469 24.426197 -15.510644
22.71459 23.588228 -15.356867
22.675808 22.675806 -15.536926
22.639486 21.768736 -15.705565
22.603279 20.864563 -15.873668
22.569946 19.965721 -16.028419
22.569946 19.097647 -16.028421
22.570478 18.230001 -16.02594
22.573952 17.364576 -16.009819
22.577333 16.498821 -15.994116
22.580809 15.632867 -15.977991
22.584192 14.766585 -15.962269
22.587669 13.900104 -15.946136
22.591057 13.033298 -15.930404
22.594534 12.166286 -15.914256
22.59605 11.298023 -15.907217
22.597477 10.429606 -15.900595
22.598906 9.5610743 -15.893966
22.600332 8.6924362 -15.887336
22.601671 7.8236575 -15.881124
22.6031 6.954803 -15.874495
22.604527 6.0858345 -15.867859
22.605867 5.2167382 -15.861646
22.607296 4.3475571 -15.855017
22.608723 3.4782655 -15.848379
22.610151 2.6088643 -15.841744
22.611492 1.7393471 -15.835525
22.612923 0.8697291 -15.828889
22.614351 1.660211e-06 -15.822255
19.649883 -0.75576353 -29.585438
19.886017 -1.5296937 -28.489145
20.178413 -2.328279 -27.13162
20.67527 -3.1808105 -24.824862
21.199881 -4.076901 -22.389242
21.751806 -5.0196476 -19.826805
22.335419 -6.0133796 -17.117268
22.947067 -7.0606346 -14.277543
23.593163 -8.1668644 -11.277906
24.274841 -9.3364763 -8.1130676
24.995445 -10.574995 -4.7675061
25.765593 -11.891812 -1.1919322
24.016624 22.237616 -13.441615
24.020409 21.351479 -13.42469
24.024097 20.464972 -13.408194
24.027496 19.577965 -13.393005
24.029053 18.689262 -13.386056
24.030605 17.800449 -13.379108
24.032064 16.911449 -13.372585
24.033617 16.022413 -13.365644
24.035172 15.133258 -13.358686
24.036631 14.243929 -13.35217
24.038187 13.354548 -13.345217
24.039742 12.465048 -13.338261
24.041298 11.575438 -13.331308
24.042757 10.685669 -13.324786
24.044312 9.7958298 -13.317829
24.045868 8.90588 -13.310873
24.047329 8.0157747 -13.304347
24.048883 7.125596 -13.297389
24.050442 6.2352991 -13.290427
24.051996 5.3448873 -13.283468
24.053457 4.4543405 -13.276937
24.055016 3.5637038 -13.269974
24.056574 2.6729531 -13.263015
24.058033 1.7820799 -13.256486
24.059589 0.89109546 -13.249516
24.06115 -3.5154017e-06 -13.24255
24.062708 -0.89121324 -13.235584
20.674925 -1.5314753 -28.381565
20.926474 -2.3251636 -27.256954
21.369818 -3.1658993 -25.274862
21.909365 -4.0572906 -22.862675
22.476948 -4.9948788 -20.325142
23.07696 -5.9829183 -17.64263
23.705629 -7.0238914 -14.831998
24.369511 -8.1231699 -11.863936
25.068794 -9.2847395 -8.7376127
25.810738 -10.515487 -5.4205556
26.601391 -11.822839 -1.8857248
25.532202 21.884747 -10.742552
25.534 20.97436 -10.734798
25.535799 20.063841 -10.727048
25.537704 19.153278 -10.718839
25.539503 18.2425 -10.711082
25.541407 17.331669 -10.702869
25.543205 16.420633 -10.695118
25.545111 15.509536 -10.686905
25.546911 14.598235 -10.679137
25.548817 13.686866 -10.670926
25.550617 12.775308 -10.663163
25.552525 11.863674 -10.654946
25.554325 10.951853 -10.647181
25.556232 10.039945 -10.638958
25.558033 9.1278687 -10.631193
25.55994 8.2156925 -10.62297
25.561741 7.3033538 -10.6152
25.56365 6.3909106 -10.606976
25.565451 5.4783139 -10.599211
25.567362 4.565598 -10.590976
25.569164 3.6527383 -10.583208
25.571074 2.7397604 -10.57498
25.572878 1.8266321 -10.5672
25.574787 0.91338706 -10.55897
25.57659 9.036184e-07 -10.551194
25.578499 -0.91351658 -10.542955
21.465527 -1.5332495 -28.274384
21.727076 -2.3279006 -27.146812
22.058517 -3.1512189 -25.717934
22.612059 -4.0378647 -23.331572
23.194969 -4.9703522 -20.81859
23.810659 -5.9526644 -18.164291
24.456335 -6.9875264 -15.380715
25.137594 -8.0799408 -12.443739
25.854101 -9.2336102 -9.3548079
26.61702 -10.456686 -6.0657964
27.427673 -11.754719 -2.5709887
27.11442 20.569565 -7.9522467
27.116495 19.636082 -7.9436164
27.11845 18.702379 -7.9354644
27.120525 17.768623 -7.9268374
27.122484 16.834646 -7.9186811
27.124557 15.900604 -7.9100518
27.126516 14.966355 -7.9018955
27.128592 14.032029 -7.8932552
27.130552 13.097508 -7.8850994
27.132627 12.162903 -7.8764644
27.134588 11.228106 -7.8683028
27.136663 10.293221 -7.859663
27.138624 9.3581448 -7.8514967
27.140701 8.4229746 -7.8428555
27.142664 7.4876304 -7.8346868
27.144741 6.5521765 -7.8260441
27.146702 5.6165614 -7.8178773
27.148663 4.6808066 -7.8097086
27.150742 3.7449319 -7.8010588
27.152706 2.8089006 -7.7928824
27.154438 1.8727194 -7.785676
27.155939 0.93641257 -7.7794247
27.15744 -5.8008828e-07 -7.7731719
27.158941 -0.93651474 -7.7669263
27.16033 -1.8731265 -7.7611513
22.529646 -2.3306541 -27.036083
22.807716 -3.1458898 -25.878628
23.308142 -4.0186448 -23.795645
23.905972 -4.9460621 -21.307211
24.535845 -5.9224458 -18.685408
25.199308 -6.9515352 -15.92378
25.897547 -8.0371714 -13.0174
26.631475 -9.1832695 -9.9624681
27.414217 -10.398498 -6.7043557
28.243866 -11.687119 -3.2510026
28.77907 19.186045 -5.0162911
28.7812 18.228094 -5.0077114
28.783459 17.270077 -4.9986286
28.785591 16.311836 -4.9900494
28.787849 15.353521 -4.9809618
28.789984 14.394993 -4.9723735
28.792242 13.436377 -4.9632831
28.794376 12.47756 -4.9546938
28.796635 11.518656 -4.9456053
28.798517 10.559459 -4.9380279
28.800152 9.6000528 -4.931457
28.801657 8.6404963 -4.9253902
28.803291 7.6808786 -4.918828
28.805176 6.721211 -4.9112425
28.80706 5.7614126 -4.9036603
28.808947 4.8014903 -4.8960767
28.810829 3.8414457 -4.8884912
23.334032 -2.3334033 -26.925428
23.635395 -3.1513851 -25.712831
23.997541 -3.9995906 -24.255671
24.61006 -4.9220133 -21.791075
25.254766 -5.8927789 -19.196987
25.934666 -6.9159093 -16.461279
26.6495 -7.9948454 -13.585019
27.40167 -9.1338863 -10.558513
28.202591 -10.340949 -7.3358526
29.050465 -11.620188 -3.9242702
30.531816 17.728153 -1.9266988
30.533865 16.744377 -1.9187181
30.535915 15.760476 -1.9107386
30.537964 14.776435 -1.9027559
30.539877 13.792203 -1.8953021
30.541929 12.807903 -1.8873242
24.469477 -3.1573524 -25.532799
24.807917 -4.0012746 -24.214958
25.307428 -4.898212 -22.269897
25.967014 -5.8635192 -19.70155
26.662525 -6.880651 -16.993299
27.393242 -7.9528766 -14.147975
28.163742 -9.0850782 -11.147719
28.981796 -10.283863 -7.9623084
29.848011 -11.55407 -4.5893607
25.340492 -3.1675611 -25.224689
25.657413 -4.0089674 -24.029202
26.017962 -4.8783689 -22.669136
26.672224 -5.8345485 -20.201118
27.383001 -6.8457484 -17.519922
28.12854 -7.9111543 -14.707587
28.917593 -9.0367498 -11.731118
29.752319 -10.22736 -8.5823641
30.636532 -11.488703 -5.2469249
26.508057 -4.0163732 -23.850512
26.883444 -4.8878965 -22.477386
27.370502 -5.8058639 -20.695782
28.096205 -6.8112016 -18.041229
28.856968 -7.8700814 -15.258434
29.662983 -8.9887819 -12.310112
30.51442 -10.171472 -9.1956425
31.41618 -11.424066 -5.8970928
27.750051 -4.8970695 -22.29291
28.149431 -5.7954698 -20.874996
28.802244 -6.777 -18.557299
29.579275 -7.8298068 -15.798608
30.400253 -8.9412518 -12.883871
31.268238 -10.116197 -9.8022518
32.187107 -11.360152 -6.5399837
28.616516 -4.9056916 -22.11948
29.032711 -5.8065414 -20.68408
29.500666 -6.743012 -19.070158
30.29351 -7.789763 -16.335739
31.129894 -8.8942537 -13.451156
32.013775 -10.061472 -10.402762
32.949314 -11.296907 -7.1762071
29.917904 -5.8173709 -20.497364
30.357838 -6.7461891 -19.022223
31.000477 -7.7501178 -16.867413
31.851906 -8.8477535 -14.01251
32.751423 -10.00738 -10.996362
33.702938 -11.234312 -7.805861
30.920771 -5.8498759 -19.936827
31.280432 -6.7633371 -18.763451
31.809843 -7.7375298 -17.03627
32.566406 -8.801733 -14.568024
33.481182 -9.9538679 -11.583606
34.446945 -11.17198 -8.4328585
32.339573 -6.8083324 -18.084528
32.759884 -7.7589226 -16.749369
33.325333 -8.7698231 -14.953167
34.203178 -9.9009199 -12.164605
35.182739 -11.11034 -9.0529375
33.718639 -7.7812252 -16.45022
34.299187 -8.7946634 -14.653333
34.917393 -9.8484945 -12.7399
35.910461 -11.049369 -9.666214
35.28352 -8.8208799 -14.336869
35.90353 -9.8734703 -12.465833
36.651886 -10.995565 -10.207461
36.91309 -9.9035091 -12.136171
