# .PCD v0.7 - Point Cloud Data file format
VERSION 0.7
FIELDS x y z
SIZE 4 4 4
TYPE F F F
COUNT 1 1 1
WIDTH 1128
HEIGHT 1
VIEWPOINT 0 0 0 1 0 0 0
POINTS 1128
DATA ascii
-544.54736 294.0556 -531.3703
-544.51898 283.1499 -531.43884
-544.4906 272.24533 -531.50739
-544.46405 261.34277 -531.57153
-544.43561 250.4404 -531.64001
-544.40729 239.53923 -531.70844
-544.37891 228.63916 -531.77692
-544.35059 217.74023 -531.8454
-544.3222 206.84247 -531.91388
-544.29565 195.94644 -531.97803
-544.26733 185.0509 -532.04645
-544.24072 174.15704 -532.11066
-544.21771 163.26535 -532.1662
-544.19287 152.37399 -532.22601
-544.16455 141.48283 -532.29449
-544.13623 130.59276 -532.36292
-544.10968 119.70415 -532.427
-544.08136 108.81634 -532.49542
-544.05304 97.929596 -532.56378
-544.02472 87.043953 -532.63214
-543.9964 76.159508 -532.70056
-543.96979 65.27639 -532.76465
-543.94153 54.394154 -532.83295
-543.91321 43.513046 -532.90131
-543.88489 32.633148 -532.96967
-543.85657 21.754295 -533.03796
-543.83008 10.87663 -533.10211
-518.28149 1.3456598e-05 -594.78174
-518.28149 -10.365673 -594.78168
-518.28149 -20.731234 -594.78168
-518.28149 -31.096876 -594.78168
-518.28149 -41.462532 -594.78174
-518.28149 -51.828091 -594.78174
-536.79797 295.78668 -523.6311
-536.76984 284.81665 -523.70038
-536.7417 273.84781 -523.76971
-536.71356 262.8801 -523.83899
-536.68719 251.91441 -523.90399
-536.65912 240.94904 -523.97327
-536.63098 229.9847 -524.04254
-536.60284 219.02161 -524.11176
-536.57471 208.05959 -524.18109
-536.5484 197.09943 -524.24603
-536.52557 186.14154 -524.30225
-536.50269 175.18462 -524.35852
-536.47986 164.22859 -524.41473
-536.45703 153.27351 -524.47101
-536.4325 142.31879 -524.53156
-536.40961 131.36563 -524.58777
-536.3833 120.41264 -524.65271
-536.35522 109.46027 -524.72186
-536.32886 98.509399 -524.7868
-536.30078 87.559326 -524.85596
-536.27271 76.610413 -524.92517
-536.24463 65.662598 -524.99432
-536.21655 54.716007 -525.06348
-536.19025 43.770668 -525.1283
-536.16217 32.826286 -525.19745
-536.13409 21.883055 -525.26666
-536.10602 10.940969 -525.33575
-507.91586 1.3456598e-05 -594.78174
-507.91586 -10.365673 -594.78168
-507.91586 -20.731234 -594.78168
-507.91586 -31.096876 -594.78168
-507.91586 -41.462532 -594.78174
-507.91586 -51.828091 -594.78174
-528.92896 286.50323 -515.87036
-528.90106 275.46933 -515.94055
-528.87317 264.43665 -516.01062
-528.84705 253.4059 -516.07635
-528.81915 242.37549 -516.14642
-528.79126 231.34619 -516.21655
-528.76343 220.31813 -516.28656
-528.74078 209.29324 -516.34351
-528.71814 198.26933 -516.40051
-528.6955 187.24638 -516.45746
-528.67285 176.22429 -516.5144
-528.65021 165.20317 -516.57129
-528.62756 154.18309 -516.62823
-528.60321 143.16342 -516.68945
-528.58057 132.14517 -516.7464
-528.55792 121.12788 -516.80328
-528.53534 110.11157 -516.86023
-528.51099 99.095863 -516.92145
-528.48315 88.080589 -516.99152
-528.45532 77.066406 -517.06152
-528.4292 66.053673 -517.12708
-528.40137 55.041786 -517.19714
-528.37354 44.031139 -517.26709
-528.3457 33.02161 -517.33704
-528.31787 22.013271 -517.4071
-528.29181 11.006118 -517.47266
-497.55023 1.3456598e-05 -594.78174
-497.55023 -10.365673 -594.78168
-497.55023 -20.731234 -594.78168
-497.55023 -31.096876 -594.78168
-497.55023 -41.462532 -594.78174
-497.55023 -51.828091 -594.78174
-520.99463 288.20984 -507.94699
-520.96698 277.11014 -508.01804
-520.93939 266.01163 -508.08899
-520.91174 254.91432 -508.15991
-520.88586 243.81888 -508.22638
-520.86169 232.72548 -508.28851
-520.83923 221.63373 -508.3461
-520.81677 210.54301 -508.40372
-520.79437 199.45319 -508.4614
-520.77197 188.36438 -508.51895
-520.74951 177.27644 -508.57657
-520.72711 166.18951 -508.63419
-520.70465 155.1035 -508.69174
-520.68048 144.01807 -508.75381
-520.65808 132.93398 -508.8114
-520.63568 121.8509 -508.86896
-520.61322 110.7688 -508.92657
-520.59082 99.687637 -508.98413
-520.56842 88.607407 -509.04166
-520.54602 77.528137 -509.09921
-520.51837 66.44915 -509.1701
-520.49084 55.371418 -509.24094
-520.46497 44.294891 -509.30734
-520.43738 33.219402 -509.37814
-520.40985 22.145113 -509.44897
-520.38226 11.071997 -509.51978
-487.18463 1.3456598e-05 -594.78174
-487.18463 -10.365673 -594.78168
-487.18463 -20.731234 -594.78168
-487.18463 -31.096876 -594.78168
-487.18463 -41.462532 -594.78174
-487.18463 -51.828091 -594.78174
-512.96521 289.93686 -499.92874
-512.93787 278.7706 -500.00052
-512.91046 267.6055 -500.07239
-512.88824 256.44418 -500.13071
-512.86603 245.28377 -500.18906
-512.8421 234.1236 -500.25183
-512.81989 222.96519 -500.31015
-512.79767 211.80772 -500.36847
-512.77539 200.65128 -500.42679
-512.75317 189.49576 -500.48511
-512.73096 178.34123 -500.5434
-512.70874 167.18764 -500.60168
-512.68652 156.03503 -500.65997
-512.6626 144.88293 -500.72275
-512.64044 133.73232 -500.7811
-512.61823 122.58265 -500.83932
-512.59601 111.43391 -500.89758
-512.57379 100.2862 -500.95587
-512.55157 89.139397 -501.01413
-512.52942 77.993637 -501.07242
-512.50549 66.848572 -501.1351
-512.48328 55.704742 -501.19339
-512.45935 44.561726 -501.25613
-512.43207 33.419514 -501.32779
-512.40479 22.278484 -501.39948
-512.37915 11.138702 -501.46661
-476.819 1.3456598e-05 -594.78174
-476.819 -10.365673 -594.78168
-476.819 -20.731234 -594.78168
-476.819 -31.096876 -594.78168
-476.819 -41.462532 -594.78174
-476.819 -51.828091 -594.78174
-504.83902 291.68478 -491.81375
-504.81528 280.45297 -491.87735
-504.79327 269.22311 -491.9364
-504.77124 257.99423 -491.99551
-504.74924 246.7663 -492.05447
-504.72552 235.53859 -492.1181
-504.70355 224.31268 -492.17709
-504.68155 213.08778 -492.23611
-504.65955 201.86383 -492.29514
-504.63751 190.64088 -492.35416
-504.61554 179.41887 -492.41318
-504.59354 168.19786 -492.4722
-504.56985 156.97729 -492.53577
-504.54785 145.75827 -492.59473
-504.52588 134.54028 -492.65372
-504.50391 123.32323 -492.71274
-504.48187 112.10713 -492.77164
-504.4599 100.892 -492.83063
-504.43793 89.677864 -492.88959
-504.41595 78.464745 -492.94855
-504.39227 67.252357 -493.01208
-504.3703 56.041149 -493.07101
-504.34833 44.830975 -493.12997
-504.32635 33.621799 -493.18893
-504.30438 22.413555 -493.24786
-504.27734 11.206193 -493.32037
-466.45334 1.3456598e-05 -594.78174
-466.45334 -10.365673 -594.78168
-466.45334 -20.731234 -594.78168
-466.45334 -31.096876 -594.78168
-466.45334 -41.462532 -594.78174
-466.45334 -51.828091 -594.78174
-501.87714 296.56378 -469.1619
-501.78986 285.10794 -469.40137
-501.70261 273.65601 -469.64075
-501.61365 262.20715 -469.88474
-501.52646 250.76331 -470.12399
-501.4393 239.32332 -470.3631
-501.35214 227.88736 -470.60214
-501.26505 216.45541 -470.84113
-501.17624 205.02669 -471.08466
-501.09091 193.60335 -471.31879
-501.00732 182.18454 -471.54819
-500.92203 170.76894 -471.78214
-500.83847 159.35776 -472.01135
-500.75497 147.95036 -472.24048
-500.67148 136.54677 -472.46954
-500.58801 125.14705 -472.69849
-500.50287 113.75067 -472.93204
-500.41946 102.35856 -473.16089
-500.33609 90.970177 -473.38965
-500.25272 79.585709 -473.61832
-500.1694 68.204918 -473.84695
-500.08612 56.827991 -474.07541
-500.00116 45.454647 -474.30856
-499.91791 34.085346 -474.53696
-499.83469 22.719765 -474.7652
-499.7515 11.357996 -474.99338
-456.08771 1.3456598e-05 -594.78174
-456.08771 -10.365673 -594.78168
-456.08771 -20.731234 -594.78168
-456.08771 -31.096876 -594.78168
-456.08771 -41.462532 -594.78174
-456.08771 -51.828091 -594.78174
-501.29947 198.18822 -438.76343
-501.21039 186.4969 -439.01361
-501.11954 174.80914 -439.26862
-501.03052 163.12621 -439.51859
-500.9415 151.44743 -439.76846
-500.85251 139.7728 -440.01822
-500.76355 128.10234 -440.26794
-500.67288 116.43557 -440.52252
-500.58395 104.7734 -440.772
-500.49512 93.115372 -441.02151
-500.40628 81.461533 -441.27081
-500.3175 69.811806 -441.52011
-500.22699 58.165947 -441.77414
-500.13824 46.524551 -442.02328
-500.04956 34.88718 -442.27225
-499.96265 23.25411 -442.5163
-499.87573 11.625032 -442.76025
-445.72208 1.3456598e-05 -594.78174
-445.72208 -10.365673 -594.78168
-445.72208 -20.731234 -594.78168
-445.72208 -31.096876 -594.78168
-445.72208 -41.462532 -594.78174
-445.72208 -51.828091 -594.78174
-435.35648 1.3456598e-05 -594.78174
-435.35648 -10.365673 -594.78168
-435.35648 -20.731234 -594.78168
-435.35648 -31.096876 -594.78168
-435.35648 -41.462532 -594.78174
-435.35648 -51.828091 -594.78174
-424.99084 1.3456598e-05 -594.78174
-424.99084 -10.365673 -594.78168
-424.99084 -20.731234 -594.78168
-424.99084 -31.096876 -594.78168
-424.99084 -41.462532 -594.78174
-424.99084 -51.828091 -594.78174
-414.62521 1.3456598e-05 -594.78174
-414.62521 -10.365673 -594.78168
-414.62521 -20.731234 -594.78168
-414.62521 -31.096876 -594.78168
-414.62521 -41.462532 -594.78174
-414.62521 -51.828091 -594.78174
-404.25955 1.3456598e-05 -594.78174
-404.25955 -10.365673 -594.78168
-404.25955 -20.731234 -594.78168
-404.25955 -31.096876 -594.78168
-404.25955 -41.462532 -594.78174
-404.25955 -51.828091 -594.78174
-393.89392 1.3456598e-05 -594.78174
-393.89392 -10.365673 -594.78168
-393.89392 -20.731234 -594.78168
-393.89392 -31.096876 -594.78168
-393.89392 -41.462532 -594.78174
-393.89392 -51.828091 -594.78174
-383.52832 1.3456598e-05 -594.78174
-383.52832 -10.365673 -594.78168
-383.52832 -20.731234 -594.78168
-383.52832 -31.096876 -594.78168
-383.52832 -41.462532 -594.78174
-383.52832 -51.828091 -594.78174
-373.16269 1.3456598e-05 -594.78174
-373.16269 -10.365673 -594.78168
-373.16269 -20.731234 -594.78168
-373.16269 -31.096876 -594.78168
-373.16269 -41.462532 -594.78174
-373.16269 -51.828091 -594.78174
-362.79706 1.3456598e-05 -594.78174
-362.79706 -10.365673 -594.78168
-362.79706 -20.731234 -594.78168
-362.79706 -31.096876 -594.78168
-362.79706 -41.462532 -594.78174
-362.79706 -51.828091 -594.78174
-352.43143 1.3456598e-05 -594.78174
-352.43143 -10.365673 -594.78168
-352.43143 -20.731234 -594.78168
-352.43143 -31.096876 -594.78168
-352.43143 -41.462532 -594.78174
-352.43143 -51.828091 -594.78174
-342.06577 1.3456598e-05 -594.78174
-342.06577 -10.365673 -594.78168
-342.06577 -20.731234 -594.78168
-342.06577 -31.096876 -594.78168
-342.06577 -41.462532 -594.78174
-342.06577 -51.828091 -594.78174
-331.70013 1.3456598e-05 -594.78174
-331.70013 -10.365673 -594.78168
-331.70013 -20.731234 -594.78168
-331.70013 -31.096876 -594.78168
-331.70013 -41.462532 -594.78174
-331.70013 -51.828091 -594.78174
-321.33453 1.3456598e-05 -594.78174
-321.33453 -10.365673 -594.78168
-321.33453 -20.731234 -594.78168
-321.33453 -31.096876 -594.78168
-321.33453 -41.462532 -594.78174
-321.33453 -51.828091 -594.78174
-591.48688 295.7435 533.9353
-591.53918 276.05157 534.14587
-591.59497 256.35785 534.37042
-591.64728 236.65897 534.58099
-591.70312 216.95789 534.80554
-591.75897 197.25296 535.03027
-591.81482 177.54451 535.25507
-591.87067 157.83218 535.47974
-591.92657 138.11626 535.70459
-591.98242 118.39657 535.92944
-592.03485 98.672554 536.14038
-592.09076 78.945465 536.36523
-592.14667 59.214691 536.59033
-592.20258 39.480263 536.81537
-592.25854 19.741947 537.04041
-310.9689 1.3456598e-05 -594.78174
-310.9689 -10.365673 -594.78168
-310.9689 -20.731234 -594.78168
-310.9689 -31.096876 -594.78168
-310.9689 -41.462532 -594.78174
-310.9689 -51.828091 -594.78174
-565.59485 292.5491 508.22888
-565.64429 273.06967 508.43484
-565.69379 253.58688 508.6409
-565.74329 234.10074 508.84695
-565.79279 214.61115 509.05304
-565.84558 195.11932 509.27289
-565.89514 175.62265 509.479
-565.94794 156.12366 509.69897
-566.00085 136.62091 509.91904
-566.05371 117.11462 510.13907
-566.10327 97.60405 510.34534
-566.15613 78.090485 510.56543
-566.20898 58.573357 510.78552
-566.2619 39.052616 511.00574
-566.31482 19.528168 511.22604
-300.60327 1.3456598e-05 -594.78174
-300.60327 -10.365673 -594.78168
-300.60327 -20.731234 -594.78168
-300.60327 -31.096876 -594.78168
-300.60327 -41.462532 -594.78174
-540.25299 289.42123 483.05856
-540.29974 270.1499 483.26013
-540.34656 250.87517 483.46176
-540.39648 231.59851 483.67688
-540.44324 212.31702 483.87854
-540.49005 193.03221 484.08035
-540.5368 173.74393 484.28207
-540.58362 154.45247 484.48386
-540.63361 135.15846 484.69919
-540.68042 115.86013 484.90106
-540.72723 96.558441 485.10294
-540.77722 77.253929 485.31839
-540.82721 57.945896 485.53381
-540.8772 38.634106 485.74933
-540.92712 19.318892 485.9649
-290.23764 1.3456598e-05 -594.78174
-290.23764 -10.365673 -594.78168
-290.23764 -20.731234 -594.78168
-290.23764 -31.096876 -594.78168
-290.23764 -41.462532 -594.78174
-515.45032 286.36133 458.43381
-515.49445 267.29343 458.6311
-515.53857 248.22243 458.82849
-515.58276 229.14789 459.02591
-515.62695 210.07025 459.22342
-515.67108 190.98924 459.42093
-515.71826 171.9062 459.63159
-515.76245 152.81857 459.82916
-515.80664 133.72771 460.02679
-515.85083 114.63353 460.22437
-515.89502 95.536217 460.42206
-515.9422 76.435883 460.63284
-515.98645 57.331814 460.83057
-516.0307 38.224476 461.02841
-516.07788 19.114073 461.23941
-279.87201 1.3456598e-05 -594.78174
-279.87201 -10.365673 -594.78168
-279.87201 -20.731234 -594.78168
-279.87201 -31.096876 -594.78168
-279.87201 -41.462532 -594.78174
-505.12595 155.42339 499.13354
-504.96457 135.952 498.38437
-504.80038 116.49245 497.62207
-504.63632 97.045486 496.86038
-504.47235 77.611206 496.09921
-504.3114 58.189896 495.35199
-504.14767 38.780605 494.59177
-503.98401 19.38406 493.83203
-269.50638 1.3456598e-05 -594.78174
-269.50638 -10.365673 -594.78168
-269.50638 -20.731234 -594.78168
-269.50638 -31.096876 -594.78168
-269.50638 -41.462532 -594.78174
-259.14075 1.3456598e-05 -594.78174
-259.14075 -10.365673 -594.78168
-259.14075 -20.731234 -594.78168
-259.14075 -31.096876 -594.78168
-259.14075 -41.462532 -594.78174
-248.77512 1.3456598e-05 -594.78174
-248.77512 -10.365673 -594.78168
-248.77512 -20.731234 -594.78168
-248.77512 -31.096876 -594.78168
-248.77512 -41.462532 -594.78174
-238.4095 1.3456598e-05 -594.78174
-238.4095 -10.365673 -594.78168
-238.4095 -20.731234 -594.78168
-238.4095 -31.096876 -594.78168
-238.4095 -41.462532 -594.78174
-228.04385 1.3456598e-05 -594.78174
-228.04385 -10.365673 -594.78168
-228.04385 -20.731234 -594.78168
-228.04385 -31.096876 -594.78168
-228.04385 -41.462532 -594.78174
-217.67824 1.3456598e-05 -594.78174
-217.67824 -10.365673 -594.78168
-217.67824 -20.731234 -594.78168
-217.67824 -31.096876 -594.78168
-217.67824 -41.462532 -594.78174
-207.31261 1.3456598e-05 -594.78174
-207.31261 -10.365673 -594.78168
-207.31261 -20.731234 -594.78168
-207.31261 -31.096876 -594.78168
-207.31261 -41.462532 -594.78174
-196.94696 1.3456598e-05 -594.78174
-196.94696 -10.365673 -594.78168
-196.94696 -20.731234 -594.78168
-196.94696 -31.096876 -594.78168
-196.94696 -41.462532 -594.78174
-186.58134 1.3456598e-05 -594.78174
-186.58134 -10.365673 -594.78168
-186.58134 -20.731234 -594.78168
-186.58134 -31.096876 -594.78168
-186.58134 -41.462532 -594.78174
-176.21571 1.3456598e-05 -594.78174
-176.21571 -10.365673 -594.78168
-176.21571 -20.731234 -594.78168
-176.21571 -31.096876 -594.78168
-176.21571 -41.462532 -594.78174
-165.85007 1.3456598e-05 -594.78174
-165.85007 -10.365673 -594.78168
-165.85007 -20.731234 -594.78168
-165.85007 -31.096876 -594.78168
-165.85007 -41.462532 -594.78174
-155.48445 1.3456598e-05 -594.78174
-155.48445 -10.365673 -594.78168
-155.48445 -20.731234 -594.78168
-155.48445 -31.096876 -594.78168
-155.48445 -41.462532 -594.78174
-145.11882 1.3456598e-05 -594.78174
-145.11882 -10.365673 -594.78168
-145.11882 -20.731234 -594.78168
-145.11882 -31.096876 -594.78168
-145.11882 -41.462532 -594.78174
-134.75319 1.3456598e-05 -594.78174
-134.75319 -10.365673 -594.78168
-134.75319 -20.731234 -594.78168
-134.75319 -31.096876 -594.78168
-134.75319 -41.462532 -594.78174
-124.38756 1.3456598e-05 -594.78174
-124.38756 -10.365673 -594.78168
-124.38756 -20.731234 -594.78168
-124.38756 -31.096876 -594.78168
-124.38756 -41.462532 -594.78174
-114.02193 1.3456598e-05 -594.78174
-114.02193 -10.365673 -594.78168
-114.02193 -20.731234 -594.78168
-114.02193 -31.096876 -594.78168
-114.02193 -41.462532 -594.78174
-103.6563 1.3456598e-05 -594.78174
-103.6563 -10.365673 -594.78168
-103.6563 -20.731234 -594.78168
-103.6563 -31.096876 -594.78168
-103.6563 -41.462532 -594.78174
-93.290672 1.3456598e-05 -594.78174
-93.290672 -10.365673 -594.78168
-93.290672 -20.731234 -594.78168
-93.290672 -31.096876 -594.78168
-93.290672 -41.462532 -594.78174
-82.925034 1.3456598e-05 -594.78174
-82.925034 -10.365673 -594.78168
-82.925034 -20.731234 -594.78168
-82.925034 -31.096876 -594.78168
-82.925034 -41.462532 -594.78174
-72.55941 10.365651 -594.78168
-72.55941 1.3456598e-05 -594.78174
-72.55941 -10.365673 -594.78168
-72.55941 -20.731234 -594.78168
-72.55941 -31.096876 -594.78168
-72.55941 -41.462532 -594.78174
-62.193779 10.365651 -594.78168
-62.193779 1.3456598e-05 -594.78174
-62.193779 -10.365673 -594.78168
-62.193779 -20.731234 -594.78168
-62.193779 -31.096876 -594.78168
-62.193779 -41.462532 -594.78174
-51.828152 10.365651 -594.78168
-51.828152 1.3456598e-05 -594.78174
-51.828152 -10.365673 -594.78168
-51.828152 -20.731234 -594.78168
-51.828152 -31.096876 -594.78168
-51.828152 -41.462532 -594.78174
-41.462517 10.365651 -594.78168
-41.462517 1.3456598e-05 -594.78174
-41.462517 -10.365673 -594.78168
-41.462517 -20.731234 -594.78168
-41.462517 -31.096876 -594.78168
-41.462517 -41.462532 -594.78174
-31.096889 10.365651 -594.78168
-31.096889 1.3456598e-05 -594.78174
-31.096889 -10.365673 -594.78168
-31.096889 -20.731234 -594.78168
-31.096889 -31.096876 -594.78168
-31.096889 -41.462532 -594.78174
-20.731258 10.365651 -594.78168
-20.731258 1.3456598e-05 -594.78174
-20.731258 -10.365673 -594.78168
-20.731258 -20.731234 -594.78168
-20.731258 -31.096876 -594.78168
-20.731258 -41.462532 -594.78174
-10.365629 10.365651 -594.78168
-10.365629 1.3456598e-05 -594.78174
-10.365629 -10.365673 -594.78168
-10.365629 -20.731234 -594.78168
-10.365629 -31.096876 -594.78168
-10.365629 -41.462532 -594.78174
1.6783678e-22 10.365651 -594.78168
9.5690873e-23 1.3456598e-05 -594.78174
4.0455418e-22 -10.365673 -594.78168
1.2065003e-22 -20.731234 -594.78168
3.0251026e-22 -31.096876 -594.78168
3.5736742e-22 -41.462532 -594.78174
10.365629 10.365651 -594.78168
10.365629 1.3456598e-05 -594.78174
10.365629 -10.365673 -594.78168
10.365629 -20.731234 -594.78168
10.365629 -31.096876 -594.78168
10.365629 -41.462532 -594.78174
20.731258 10.365651 -594.78168
20.731258 1.3456598e-05 -594.78174
20.731258 -10.365673 -594.78168
20.731258 -20.731234 -594.78168
20.731258 -31.096876 -594.78168
20.731258 -41.462532 -594.78174
31.096889 10.365651 -594.78168
31.096889 1.3456598e-05 -594.78174
31.096889 -10.365673 -594.78168
31.096889 -20.731234 -594.78168
31.096889 -31.096876 -594.78168
31.096889 -41.462532 -594.78174
41.462517 10.365651 -594.78168
41.462517 1.3456598e-05 -594.78174
41.462517 -10.365673 -594.78168
41.462517 -20.731234 -594.78168
41.462517 -31.096876 -594.78168
41.462517 -41.462532 -594.78174
51.828152 10.365651 -594.78168
51.828152 1.3456598e-05 -594.78174
51.828152 -10.365673 -594.78168
51.828152 -20.731234 -594.78168
51.828152 -31.096876 -594.78168
51.828152 -41.462532 -594.78174
62.193779 10.365651 -594.78168
62.193779 1.3456598e-05 -594.78174
62.193779 -10.365673 -594.78168
62.193779 -20.731234 -594.78168
62.193779 -31.096876 -594.78168
62.193779 -41.462532 -594.78174
72.55941 10.365651 -594.78168
72.55941 1.3456598e-05 -594.78174
72.55941 -10.365673 -594.78168
72.55941 -20.731234 -594.78168
72.55941 -31.096876 -594.78168
72.55941 -41.462532 -594.78174
82.925034 10.365651 -594.78168
82.925034 1.3456598e-05 -594.78174
82.925034 -10.365673 -594.78168
82.925034 -20.731234 -594.78168
82.925034 -31.096876 -594.78168
82.925034 -41.462532 -594.78174
93.290672 10.365651 -594.78168
93.290672 1.3456598e-05 -594.78174
93.290672 -10.365673 -594.78168
93.290672 -20.731234 -594.78168
93.290672 -31.096876 -594.78168
93.290672 -41.462532 -594.78174
103.6563 10.365651 -594.78168
103.6563 1.3456598e-05 -594.78174
103.6563 -10.365673 -594.78168
103.6563 -20.731234 -594.78168
103.6563 -31.096876 -594.78168
103.6563 -41.462532 -594.78174
114.02193 10.365651 -594.78168
114.02193 1.3456598e-05 -594.78174
114.02193 -10.365673 -594.78168
114.02193 -20.731234 -594.78168
114.02193 -31.096876 -594.78168
114.02193 -41.462532 -594.78174
124.38756 10.365651 -594.78168
124.38756 1.3456598e-05 -594.78174
124.38756 -10.365673 -594.78168
124.38756 -20.731234 -594.78168
124.38756 -31.096876 -594.78168
124.38756 -41.462532 -594.78174
134.75319 10.365651 -594.78168
134.75319 1.3456598e-05 -594.78174
134.75319 -10.365673 -594.78168
134.75319 -20.731234 -594.78168
134.75319 -31.096876 -594.78168
134.75319 -41.462532 -594.78174
145.11882 10.365651 -594.78168
145.11882 1.3456598e-05 -594.78174
145.11882 -10.365673 -594.78168
145.11882 -20.731234 -594.78168
145.11882 -31.096876 -594.78168
145.11882 -41.462532 -594.78174
155.48445 10.365651 -594.78168
155.48445 1.3456598e-05 -594.78174
155.48445 -10.365673 -594.78168
155.48445 -20.731234 -594.78168
155.48445 -31.096876 -594.78168
155.48445 -41.462532 -594.78174
165.85007 10.365651 -594.78168
165.85007 1.3456598e-05 -594.78174
165.85007 -10.365673 -594.78168
165.85007 -20.731234 -594.78168
165.85007 -31.096876 -594.78168
165.85007 -41.462532 -594.78174
176.21571 10.365651 -594.78168
176.21571 1.3456598e-05 -594.78174
176.21571 -10.365673 -594.78168
176.21571 -20.731234 -594.78168
176.21571 -31.096876 -594.78168
176.21571 -41.462532 -594.78174
186.58134 10.365651 -594.78168
186.58134 1.3456598e-05 -594.78174
186.58134 -10.365673 -594.78168
186.58134 -20.731234 -594.78168
186.58134 -31.096876 -594.78168
186.58134 -41.462532 -594.78174
196.94696 10.365651 -594.78168
196.94696 1.3456598e-05 -594.78174
196.94696 -10.365673 -594.78168
196.94696 -20.731234 -594.78168
196.94696 -31.096876 -594.78168
196.94696 -41.462532 -594.78174
207.31261 10.365651 -594.78168
207.31261 1.3456598e-05 -594.78174
207.31261 -10.365673 -594.78168
207.31261 -20.731234 -594.78168
207.31261 -31.096876 -594.78168
207.31261 -41.462532 -594.78174
217.67824 10.365651 -594.78168
217.67824 1.3456598e-05 -594.78174
217.67824 -10.365673 -594.78168
217.67824 -20.731234 -594.78168
217.67824 -31.096876 -594.78168
217.67824 -41.462532 -594.78174
228.04385 10.365651 -594.78168
228.04385 1.3456598e-05 -594.78174
228.04385 -10.365673 -594.78168
228.04385 -20.731234 -594.78168
228.04385 -31.096876 -594.78168
228.04385 -41.462532 -594.78174
238.4095 10.365651 -594.78168
238.4095 1.3456598e-05 -594.78174
238.4095 -10.365673 -594.78168
238.4095 -20.731234 -594.78168
238.4095 -31.096876 -594.78168
238.4095 -41.462532 -594.78174
248.77512 10.365651 -594.78168
248.77512 1.3456598e-05 -594.78174
248.77512 -10.365673 -594.78168
248.77512 -20.731234 -594.78168
248.77512 -31.096876 -594.78168
248.77512 -41.462532 -594.78174
481.79056 308.34604 480.26675
482.04333 289.22607 481.48721
482.29642 270.086 482.70911
482.55252 250.92734 483.9458
482.80615 231.74695 485.17026
482.97345 212.50845 485.9783
483.12698 193.25085 486.71954
483.28336 173.98206 487.47461
483.43707 154.69998 488.21677
483.59366 135.4062 488.97296
483.7504 116.10017 489.72961
483.90442 96.780937 490.47327
484.06131 77.44976 491.23077
484.21548 58.105854 491.97531
484.37259 38.749813 492.7338
259.14075 10.365651 -594.78168
259.14075 1.3456598e-05 -594.78174
259.14075 -10.365673 -594.78168
259.14075 -20.731234 -594.78168
259.14075 -31.096876 -594.78168
259.14075 -41.462532 -594.78174
497.96289 306.43875 465.87756
497.89731 287.24857 465.57309
497.83176 268.06323 465.26862
497.76617 248.88318 464.96432
497.70065 229.70804 464.66006
497.63797 210.53914 464.36908
497.57248 191.37415 464.065
497.50699 172.21407 463.76093
497.44153 153.05902 463.45709
497.37607 133.90894 463.15314
497.31064 114.76402 462.84933
497.24524 95.624222 462.54568
497.17984 76.48925 462.24213
497.11444 57.359352 461.93848
497.04626 38.23431 461.62189
269.50638 10.365651 -594.78168
269.50638 1.3456598e-05 -594.78174
269.50638 -10.365673 -594.78168
269.50638 -20.731234 -594.78168
269.50638 -31.096876 -594.78168
269.50638 -41.462532 -594.78174
522.68024 309.73648 490.7572
522.61066 290.33936 490.44604
522.54114 270.94727 490.13516
522.47156 251.56047 489.82416
522.40204 232.17874 489.5134
522.33252 212.80217 489.20251
522.26306 193.43077 488.89194
522.19354 174.06462 488.58136
522.12415 154.70346 488.27087
522.05469 135.34755 487.96039
521.98529 115.99677 487.65005
521.9129 96.650604 487.32623
521.84045 77.309677 487.00266
521.76813 57.974308 486.67905
521.69574 38.644161 486.35556
279.87201 10.365651 -594.78168
279.87201 1.3456598e-05 -594.78174
279.87201 -10.365673 -594.78168
279.87201 -20.731234 -594.78168
279.87201 -31.096876 -594.78168
279.87201 -41.462532 -594.78174
547.85846 293.49564 515.84637
547.78473 273.8924 515.52856
547.71106 254.2944 515.21094
547.64056 234.70311 514.90704
547.56696 215.11565 514.58954
547.49329 195.53342 514.27209
547.4165 175.95526 513.94092
547.33966 156.38283 513.60974
547.26288 136.81578 513.27893
547.18616 117.25423 512.94788
547.10938 97.69812 512.617
547.03271 78.147591 512.28644
546.95605 58.602493 511.95584
546.88251 39.063122 511.63907
290.23764 10.365651 -594.78168
290.23764 1.3456598e-05 -594.78174
290.23764 -10.365673 -594.78168
290.23764 -20.731234 -594.78168
290.23764 -31.096876 -594.78168
290.23764 -41.462532 -594.78174
573.66467 296.72311 541.81921
573.58661 276.9039 541.49432
573.50519 257.08853 541.15552
573.42383 237.27895 540.81671
573.34589 217.47603 540.49213
573.26453 197.67752 540.15363
573.18323 177.88457 539.81512
573.10187 158.09714 539.47668
573.02063 138.31534 539.13837
572.93939 118.53922 538.80017
572.85815 98.768669 538.46222
572.77698 79.003738 538.12421
572.6958 59.244484 537.78632
572.61798 39.49099 537.46252
300.60327 10.365651 -594.78168
300.60327 1.3456598e-05 -594.78174
300.60327 -10.365673 -594.78168
300.60327 -20.731234 -594.78168
300.60327 -31.096876 -594.78168
300.60327 -41.462532 -594.78174
310.9689 10.365651 -594.78168
310.9689 1.3456598e-05 -594.78174
310.9689 -10.365673 -594.78168
310.9689 -20.731234 -594.78168
310.9689 -31.096876 -594.78168
310.9689 -41.462532 -594.78174
321.33453 10.365651 -594.78168
321.33453 1.3456598e-05 -594.78174
321.33453 -10.365673 -594.78168
321.33453 -20.731234 -594.78168
321.33453 -31.096876 -594.78168
321.33453 -41.462532 -594.78174
331.70013 10.365651 -594.78168
331.70013 1.3456598e-05 -594.78174
331.70013 -10.365673 -594.78168
331.70013 -20.731234 -594.78168
331.70013 -31.096876 -594.78168
331.70013 -41.462532 -594.78174
342.06577 10.365651 -594.78168
342.06577 1.3456598e-05 -594.78174
342.06577 -10.365673 -594.78168
342.06577 -20.731234 -594.78168
342.06577 -31.096876 -594.78168
342.06577 -41.462532 -594.78174
352.43143 10.365651 -594.78168
352.43143 1.3456598e-05 -594.78174
352.43143 -10.365673 -594.78168
352.43143 -20.731234 -594.78168
352.43143 -31.096876 -594.78168
352.43143 -41.462532 -594.78174
362.79706 10.365651 -594.78168
362.79706 1.3456598e-05 -594.78174
362.79706 -10.365673 -594.78168
362.79706 -20.731234 -594.78168
362.79706 -31.096876 -594.78168
362.79706 -41.462532 -594.78174
373.16269 10.365651 -594.78168
373.16269 1.3456598e-05 -594.78174
373.16269 -10.365673 -594.78168
373.16269 -20.731234 -594.78168
373.16269 -31.096876 -594.78168
373.16269 -41.462532 -594.78174
383.52832 10.365651 -594.78168
383.52832 1.3456598e-05 -594.78174
383.52832 -10.365673 -594.78168
383.52832 -20.731234 -594.78168
383.52832 -31.096876 -594.78168
383.52832 -41.462532 -594.78174
393.89392 10.365651 -594.78168
393.89392 1.3456598e-05 -594.78174
393.89392 -10.365673 -594.78168
393.89392 -20.731234 -594.78168
393.89392 -31.096876 -594.78168
393.89392 -41.462532 -594.78174
404.25955 10.365651 -594.78168
404.25955 1.3456598e-05 -594.78174
404.25955 -10.365673 -594.78168
404.25955 -20.731234 -594.78168
404.25955 -31.096876 -594.78168
404.25955 -41.462532 -594.78174
414.62521 10.365651 -594.78168
414.62521 1.3456598e-05 -594.78174
414.62521 -10.365673 -594.78168
414.62521 -20.731234 -594.78168
414.62521 -31.096876 -594.78168
414.62521 -41.462532 -594.78174
424.99084 10.365651 -594.78168
424.99084 1.3456598e-05 -594.78174
424.99084 -10.365673 -594.78168
424.99084 -20.731234 -594.78168
424.99084 -31.096876 -594.78168
424.99084 -41.462532 -594.78174
485.41916 300.49759 -450.89828
485.53162 289.00696 -450.5752
485.64575 277.51187 -450.24707
485.7583 266.0105 -449.92368
485.87256 254.50471 -449.59528
485.98685 242.99347 -449.26666
486.09958 231.47604 -448.94278
486.21399 219.95393 -448.61389
486.32678 208.42578 -448.2897
486.44131 196.89296 -447.96054
486.55423 185.35399 -447.63602
486.66888 173.81035 -447.30655
486.78189 162.26068 -446.98175
486.89664 150.70613 -446.65195
487.01144 139.14616 -446.32196
487.1246 127.58028 -445.99673
487.2395 116.00942 -445.66644
487.35281 104.43275 -445.34094
487.4678 92.850998 -445.01035
487.58118 81.263557 -444.68445
487.69635 69.670921 -444.35358
487.80981 58.072617 -444.02744
487.92505 46.469086 -443.69623
488.03693 34.859814 -443.3746
488.1489 23.245188 -443.05289
435.35648 10.365651 -594.78168
435.35648 1.3456598e-05 -594.78174
435.35648 -10.365673 -594.78168
435.35648 -20.731234 -594.78168
435.35648 -31.096876 -594.78168
435.35648 -41.462532 -594.78174
485.58154 304.90009 -482.88721
485.69308 293.67493 -482.57416
485.80466 282.44464 -482.26096
485.91464 271.20822 -481.95218
486.02469 259.96671 -481.64328
486.1315 248.71844 -481.34341
486.23999 237.46602 -481.03888
486.34854 226.20865 -480.73422
486.45544 214.94548 -480.43396
486.56412 203.67802 -480.12897
486.67279 192.40556 -479.82388
486.77988 181.1274 -479.52322
486.88864 169.84491 -479.21793
486.9975 158.55731 -478.91235
487.10474 147.26425 -478.61136
487.21365 135.96666 -478.3056
487.3226 124.66397 -477.99963
487.42999 113.35583 -477.69821
487.53909 102.04305 -477.39203
487.64819 90.725296 -477.08569
487.75571 79.402153 -476.78387
487.86493 68.074219 -476.47729
487.97418 56.741219 -476.17056
488.08185 45.402977 -475.86835
488.19122 34.059887 -475.56125
488.30063 22.711655 -475.25415
445.72208 10.365651 -594.78168
445.72208 1.3456598e-05 -594.78174
445.72208 -10.365673 -594.78168
445.72208 -20.731234 -594.78168
445.72208 -31.096876 -594.78168
445.72208 -41.462532 -594.78174
492.32712 302.10986 -495.36169
492.35345 290.93619 -495.2894
492.37817 279.76035 -495.22159
492.40454 268.58435 -495.14923
492.4342 257.40881 -495.06787
492.46225 246.23112 -494.99103
492.49188 235.05296 -494.90958
492.52158 223.87346 -494.82819
492.54962 212.69189 -494.75134
492.57928 201.5097 -494.66983
492.6073 190.32558 -494.59293
492.63699 179.14073 -494.51147
492.66672 167.95454 -494.43002
492.69473 156.76651 -494.35309
492.72443 145.57771 -494.27164
492.75415 134.38753 -494.19012
492.7822 123.19559 -494.11316
492.81192 112.00273 -494.03168
492.83994 100.8082 -493.95474
492.86966 89.612701 -493.8732
492.89938 78.415794 -493.79163
492.92746 67.217369 -493.71463
492.95718 56.017872 -493.63309
492.98691 44.817051 -493.55154
493.01501 33.614704 -493.47449
493.04474 22.411165 -493.39291
456.08771 10.365651 -594.78168
456.08771 1.3456598e-05 -594.78174
456.08771 -10.365673 -594.78168
456.08771 -20.731234 -594.78168
456.08771 -31.096876 -594.78168
456.08771 -41.462532 -594.78174
500.4953 300.29721 -503.46561
500.52194 289.19049 -503.3941
500.54858 278.08258 -503.32269
500.57355 266.9726 -503.25568
500.60016 255.86235 -503.1842
500.62686 244.75095 -503.11273
500.65347 233.63834 -503.0412
500.68011 222.52455 -502.9697
500.70844 211.41029 -502.89377
500.73846 200.29538 -502.81335
500.76678 189.17856 -502.73734
500.79678 178.06111 -502.65689
500.82675 166.94226 -502.57639
500.85513 155.82164 -502.50037
500.88513 144.70018 -502.41986
500.91345 133.57693 -502.34384
500.94345 122.4529 -502.26337
500.97351 111.32743 -502.18277
501.00186 100.20041 -502.10675
501.03186 89.072342 -502.02621
501.06192 77.943001 -501.94565
501.09027 66.812065 -501.86957
501.12033 55.680054 -501.789
501.14868 44.54657 -501.71292
501.17871 33.411911 -501.63232
501.20877 22.275957 -501.55167
466.45334 10.365651 -594.78168
466.45334 1.3456598e-05 -594.78174
466.45334 -10.365673 -594.78168
466.45334 -20.731234 -594.78168
466.45334 -31.096876 -594.78168
466.45334 -41.462532 -594.78174
508.56604 298.5062 -511.47281
508.59293 287.46561 -511.40219
508.61987 276.42386 -511.3316
508.64676 265.38095 -511.26099
508.672 254.33598 -511.19473
508.69891 243.2908 -511.12418
508.72583 232.24445 -511.05347
508.75275 221.19688 -510.98288
508.77966 210.14818 -510.9122
508.80658 199.09822 -510.84155
508.83185 188.04662 -510.77533
508.8588 176.99435 -510.70462
508.88907 165.94214 -510.62512
508.91769 154.88802 -510.55005
508.94803 143.83315 -510.47046
508.97662 132.77652 -510.39532
509.00696 121.71909 -510.31583
509.03726 110.66029 -510.23621
509.06592 99.599831 -510.16107
509.09622 88.53849 -510.08157
509.12488 77.475533 -510.00638
509.15521 66.411598 -509.92673
509.18555 55.346256 -509.84714
509.2142 44.279503 -509.77194
509.24457 33.211613 -509.69235
509.2749 22.142427 -509.61264
476.819 10.365651 -594.78168
476.819 1.3456598e-05 -594.78174
476.819 -10.365673 -594.78168
476.819 -20.731234 -594.78168
476.819 -31.096876 -594.78168
476.819 -41.462532 -594.78174
516.54279 296.7374 -519.38068
516.5683 285.76117 -519.31531
516.5954 274.78485 -519.24554
516.62262 263.80734 -519.17572
516.64978 252.82864 -519.10596
516.67529 241.84799 -519.04053
516.70245 230.86708 -518.9707
516.72961 219.88496 -518.901
516.75677 208.90169 -518.83112
516.784 197.91731 -518.76129
516.81116 186.93176 -518.69147
516.83667 175.94443 -518.62598
516.86383 164.95659 -518.55615
516.89105 153.96758 -518.48633
516.91821 142.97739 -518.4165
516.94543 131.98605 -518.34656
516.97437 120.994 -518.27234
517.00494 110.00107 -518.19373
517.03387 99.006546 -518.11945
517.06445 88.011002 -518.04083
517.09338 77.013947 -517.96655
517.12402 66.015846 -517.88788
517.15466 55.016487 -517.8092
517.18359 44.015633 -517.73492
517.21423 33.013672 -517.65625
517.24316 22.010387 -517.58191
487.18463 10.365651 -594.78168
487.18463 1.3456598e-05 -594.78174
487.18463 -10.365673 -594.78168
487.18463 -20.731234 -594.78168
487.18463 -31.096876 -594.78168
487.18463 -41.462532 -594.78174
524.42389 294.98846 -527.19983
524.45129 284.07776 -527.1308
524.47699 273.1651 -527.06616
524.50439 262.2522 -526.99719
524.5318 251.33824 -526.92828
524.55927 240.42303 -526.85931
524.58496 229.50597 -526.79462
524.61237 218.58853 -526.72559
524.63983 207.66991 -526.65662
524.6673 196.75024 -526.58765
524.6947 185.82941 -526.51862
524.72046 174.9068 -526.45392
524.74786 163.98372 -526.38489
524.77533 153.05949 -526.31586
524.8028 142.13414 -526.24683
524.8302 131.20758 -526.1778
524.85767 120.27991 -526.10876
524.88513 109.35112 -526.03967
524.91089 98.420822 -525.97498
524.93835 87.489761 -525.90588
524.96759 76.557823 -525.83246
524.99847 65.624817 -525.75476
525.02765 54.690392 -525.68134
525.05859 43.754906 -525.60358
525.08948 32.818127 -525.52582
525.11871 21.87995 -525.45239
497.55023 10.365651 -594.78168
497.55023 1.3456598e-05 -594.78174
497.55023 -10.365673 -594.78168
497.55023 -20.731234 -594.78168
497.55023 -31.096876 -594.78168
497.55023 -41.462532 -594.78174
532.18494 304.10571 -534.99536
532.21259 293.26001 -534.92719
532.24023 282.41321 -534.85901
532.26788 271.56528 -534.79089
532.29382 260.71533 -534.72705
532.32147 249.8652 -534.65887
532.34918 239.01392 -534.5907
532.37683 228.1615 -534.52252
532.40277 217.30731 -534.45862
532.43048 206.45267 -534.39044
532.45813 195.59692 -534.32227
532.48584 184.73999 -534.25403
532.51178 173.88141 -534.19006
532.53949 163.02228 -534.12189
532.5672 152.16205 -534.05365
532.59485 141.30072 -533.98541
532.62256 130.43823 -533.91718
532.65027 119.57455 -533.84894
532.67798 108.70984 -533.7807
532.70569 97.843918 -533.7124
532.73169 86.976639 -533.64844
532.7594 76.108521 -533.58014
532.78711 65.23925 -533.5119
532.81482 54.368874 -533.4436
532.84253 43.497383 -533.37531
532.87201 32.624798 -533.30273
532.90143 21.751081 -533.2301
507.91586 10.365651 -594.78168
507.91586 1.3456598e-05 -594.78174
507.91586 -10.365673 -594.78168
507.91586 -20.731234 -594.78168
507.91586 -31.096876 -594.78168
507.91586 -41.462532 -594.78174
