# .PCD v0.7 - Point Cloud Data file format
VERSION 0.7
FIELDS x y z
SIZE 4 4 4
TYPE F F F
COUNT 1 1 1
WIDTH 1505
HEIGHT 1
VIEWPOINT 0 0 0 1 0 0 0
POINTS 1505
DATA ascii
-49.23703 60.599434 -23.184391
-49.676025 59.229115 -21.146261
-50.122925 57.834152 -19.071457
-50.578144 56.414093 -16.957987
-51.041496 54.967758 -14.806779
-51.513409 53.494705 -12.615814
-51.994362 51.994358 -10.382885
-52.484146 50.465534 -8.1089497
-52.983482 48.907825 -5.7906642
-53.492176 47.320004 -3.4289546
-54.010727 45.701382 -1.0214734
-54.53968 44.051289 1.4343157
-55.078842 42.368343 3.9374828
-55.628769 40.651802 6.490644
-56.190056 38.900822 9.0965462
-45.998096 62.557419 -29.679594
-46.396652 61.243576 -27.755224
-46.801979 59.906532 -25.79813
-47.214645 58.546162 -23.805595
-47.634457 57.161362 -21.77857
-48.061798 55.751694 -19.715185
-48.497086 54.316738 -17.613432
-48.940117 52.855335 -15.474281
-49.391319 51.366966 -13.295688
-49.851135 49.851143 -11.075503
-50.31937 48.306591 -8.8146515
-50.796715 46.732979 -6.5098414
-51.282967 45.129017 -4.1620026
-51.778622 43.494041 -1.7687554
-52.284187 41.827354 0.67232746
-52.799484 40.127617 3.160394
-53.325035 38.394024 5.6979895
-53.861412 36.625771 8.2878208
-54.408424 34.821392 10.929054
-43.489922 63.422806 -33.04063
-43.667633 61.862484 -32.146835
-44.041576 60.557171 -30.266031
-44.422161 59.229549 -28.351852
-44.809196 57.878548 -26.405214
-45.203037 56.503792 -24.424362
-45.604046 55.104885 -22.407413
-46.012047 53.680717 -20.355339
-46.427608 52.23106 -18.265234
-46.850544 50.754761 -16.138012
-47.281258 49.251324 -13.971704
-47.720169 47.720181 -11.764147
-48.167099 46.160137 -9.5162811
-48.622471 44.570591 -7.2259049
-49.086765 42.950924 -4.8907003
-49.559784 41.299824 -2.511615
-50.042233 39.616768 -0.085076049
-50.533936 37.900448 2.3880146
-51.0354 36.150085 4.9101758
-51.547157 34.364773 7.4841166
-52.069035 32.54314 10.108946
-52.601837 30.684404 12.788744
-41.043552 62.457581 -36.369576
-41.388378 61.182823 -34.559853
-41.738876 59.886215 -32.720329
-42.09536 58.567471 -30.849386
-42.45816 57.226219 -28.945311
-42.827095 55.861427 -27.009043
-43.202492 54.472713 -25.038834
-43.584713 53.059658 -23.032835
-43.973576 51.621155 -20.991993
-44.369621 50.156971 -18.913399
-44.772675 48.665955 -16.798042
-45.183125 47.147606 -14.643897
-45.601364 45.601368 -12.448876
-46.027218 44.026047 -10.213868
-46.461098 42.421005 -7.9367328
-46.903446 40.785603 -5.6151466
-47.354088 39.118595 -3.250066
-47.813686 37.419415 -0.83794343
-48.282078 35.686749 1.6202964
-48.759731 33.919819 4.1271696
-49.247162 32.117714 6.685339
-49.744205 30.279083 9.2939434
-50.251377 28.402958 11.955755
-50.769245 26.488298 14.67368
-38.658051 63.258621 -39.667194
-38.83593 61.784431 -38.691185
-39.158504 60.517696 -36.921261
-39.486641 59.229965 -35.120831
-39.820164 57.920246 -33.290844
-40.159367 56.5882 -31.429678
-40.504562 55.233501 -29.535629
-40.855583 53.855087 -27.609657
-41.212738 52.452572 -25.650007
-41.576359 51.025532 -23.654852
-41.946281 49.572876 -21.62513
-42.323032 48.094357 -19.558001
-42.706421 46.588825 -17.454384
-43.096817 45.055779 -15.312323
-43.494614 43.49461 -13.129685
-43.899628 41.90419 -10.907441
-44.312252 40.283867 -8.6434164
-44.73291 38.632973 -6.33535
-45.161427 36.95026 -3.9841444
-45.598438 35.235165 -1.586332
-46.043777 33.486389 0.85720241
-46.497906 31.703115 3.3489263
-46.9613 29.884464 5.8914967
-47.433796 28.029062 8.4840193
-47.915901 26.135948 11.129246
-48.408138 24.204067 13.830071
-36.378761 62.36359 -42.668304
-36.675243 61.125404 -40.964096
-36.976738 59.867104 -39.231056
-37.283085 58.587708 -37.470131
-37.594555 57.286942 -35.679775
-37.911419 55.964474 -33.858391
-38.233521 54.619316 -32.00692
-38.561295 53.251312 -30.122837
-38.894577 51.85944 -28.207064
-39.233677 50.443298 -26.257885
-39.578899 49.002453 -24.273497
-39.930088 47.53582 -22.254814
-40.287567 46.042931 -20.200001
-40.651672 44.52327 -18.107073
-41.022243 42.975689 -15.976968
-41.399815 41.399811 -13.806648
-41.784218 39.794491 -11.597052
-42.175827 38.159084 -9.3460379
-42.575031 36.492886 -7.0513473
-42.981678 34.794693 -4.7139058
-43.39616 33.06374 -2.3313799
-43.818924 31.299238 0.098676689
-44.24979 29.499865 2.5754004
-44.68943 27.664892 5.1024885
-45.13768 25.792963 7.67908
-45.595016 23.883108 10.307897
-46.061932 21.934263 12.991783
-46.538284 19.944983 15.729918
-34.112106 63.107395 -45.893299
-34.283833 61.710907 -44.856819
-34.560295 60.480515 -43.188244
-34.841248 59.230129 -41.492535
-35.126942 57.959457 -39.768204
-35.417225 56.667561 -38.016205
-35.712345 55.354141 -36.234997
-36.012566 54.018852 -34.423
-36.317734 52.660717 -32.581154
-36.628265 51.279572 -30.706944
-36.944 49.874405 -28.801298
-37.265228 48.444798 -26.862516
-37.592243 46.990314 -24.888796
-37.924896 45.509876 -22.881063
-38.263485 44.003006 -20.837498
-38.608337 42.46917 -18.756119
-38.959301 40.907265 -16.637888
-39.316868 39.316872 -14.479792
-39.680885 37.696842 -12.282716
-40.051712 36.046539 -10.0446
-40.42971 34.365253 -7.7631764
-40.814728 32.651791 -5.439393
-41.207153 30.905363 -3.0709016
-41.607384 29.125175 -0.65528768
-42.015274 27.309929 1.8065532
-42.431435 25.45887 4.318305
-42.855724 23.570654 6.8791137
-43.288586 21.644295 9.4916658
-43.730488 19.678722 12.158783
-44.18129 17.672529 14.879617
-44.641487 15.624529 17.657146
-31.979023 62.274944 -48.609142
-32.232182 61.07151 -47.000759
-32.489506 59.849094 -45.365936
-32.750847 58.606781 -43.705601
-33.016426 57.344326 -42.018318
-33.286476 56.06144 -40.302647
-33.560848 54.757179 -38.559498
-33.839783 53.43124 -36.787373
-34.123528 52.083286 -34.984692
-34.411934 50.712326 -33.152393
-34.705395 49.318195 -31.287971
-35.003761 47.899883 -29.39238
-35.307308 46.456989 -27.463911
-35.616306 44.989029 -25.500778
-35.930614 43.494961 -23.503914
-36.250519 41.974293 -21.471502
-36.576328 40.426464 -19.401581
-36.907883 38.850414 -17.295134
-37.24567 37.245674 -15.149112
-37.589531 35.61113 -12.964488
-37.9398 33.946136 -10.739161
-38.296829 32.249966 -8.4708805
-38.660473 30.521421 -6.1606131
-39.031082 28.759747 -3.8060403
-39.409046 26.964087 -1.404761
-39.79422 25.133192 1.0423366
-40.187183 23.266266 3.5389102
-40.587799 21.362 6.0840821
-40.996479 19.419384 8.680501
-41.41367 17.437328 11.330999
-41.839237 15.414462 14.034704
-42.27364 13.349571 16.794579
-42.717373 11.241411 19.61368
-29.825535 62.965023 -51.763596
-29.98765 61.641289 -50.676422
-30.222721 60.44545 -49.099991
-30.461399 59.230495 -47.499401
-30.703871 57.996197 -45.873329
-30.950354 56.742321 -44.22039
-31.200705 55.467926 -42.541492
-31.455261 54.172958 -40.834393
-31.713884 52.85648 -39.100033
-31.976795 51.518169 -37.336926
-32.244225 50.157688 -35.543484
-32.516041 48.774067 -33.720661
-32.792477 47.366917 -31.866833
-33.073788 45.935814 -29.980333
-33.359829 44.479774 -28.062096
-33.651001 42.998501 -26.109447
-33.947155 41.490971 -24.123369
-34.248577 39.956676 -22.102034
-34.555538 38.395046 -20.043482
-34.867905 36.805016 -17.948694
-35.18597 35.185978 -15.815701
-35.510048 33.537273 -13.642392
-35.839993 31.857775 -11.429741
-36.176289 30.146912 -9.1745043
-36.518791 28.403515 -6.8776369
-36.867836 26.626772 -4.5368476
-37.223793 24.815865 -2.1497648
-37.586517 22.96954 0.28270164
-37.956379 21.08688 2.7630501
-38.333767 19.166891 5.2938938
-38.718559 17.208254 7.8743477
-39.11134 15.209967 10.508382
-39.511978 13.170663 13.195128
-39.92091 11.089138 15.937507
-40.338593 8.9641333 18.738544
-40.764908 6.7941585 21.597479
-27.789253 63.75182 -54.456898
-27.822371 62.191193 -54.221741
-28.036497 61.020607 -52.70134
-28.253939 59.831879 -51.157341
-28.47489 58.624771 -49.588467
-28.699213 57.39843 -47.995617
-28.927101 56.152615 -46.377472
-29.158747 54.887058 -44.732643
-29.39402 53.600864 -43.062054
-29.633236 52.293949 -41.363472
-29.876261 50.965393 -39.63784
-30.123306 49.614857 -37.883675
-30.374588 48.241993 -36.099407
-30.629976 46.845852 -34.28598
-30.889698 45.426033 -32.441795
-31.153986 43.982105 -30.565189
-31.42271 42.513084 -28.657095
-31.696238 41.018661 -26.714882
-31.974438 39.497841 -24.739485
-32.257561 37.950073 -22.729101
-32.545883 36.374809 -20.681837
-32.839268 34.770992 -18.598635
-33.137989 33.137993 -16.47752
-33.442337 31.475149 -14.316454
-33.752182 29.78134 -12.11636
-34.067974 28.055975 -9.8740511
-34.389576 26.297909 -7.5904675
-34.717308 24.506338 -5.2633624
-35.051502 22.680391 -2.8903694
-35.392036 20.818844 -0.47236073
-35.73925 18.920778 1.9930726
-36.093513 16.98518 4.5085516
-36.454697 15.010762 7.0731897
-36.823357 12.996483 9.6909075
-37.199371 10.940996 12.36085
-37.583145 8.8430967 15.085894
-37.975105 6.7014947 17.869041
-38.375137 4.5147247 20.70953
-25.776627 62.830528 -57.308422
-25.926605 61.575687 -56.176929
-26.124149 60.412098 -54.686581
-26.32482 59.23085 -53.172634
-26.528503 58.031109 -51.635971
-26.73546 56.812855 -50.074596
-26.945572 55.575249 -48.489433
-27.159012 54.318027 -46.879143
-27.375963 53.040932 -45.242374
-27.596304 51.743076 -43.580029
-27.820221 50.424152 -41.890705
-28.047909 49.083847 -40.172935
-28.279245 47.721226 -38.427643
-28.514542 46.336128 -36.65247
-28.75367 44.927612 -34.848377
-28.996845 43.495274 -33.01376
-29.244286 42.038662 -31.146975
-29.495865 40.556816 -29.248928
-29.751814 39.049259 -27.317968
-30.012363 37.515453 -25.352261
-30.277393 35.954411 -23.352777
-30.547272 34.365685 -21.316687
-30.821877 32.748253 -19.24497
-31.101461 31.101461 -17.135651
-31.386301 29.424662 -14.986715
-31.676268 27.716738 -12.799076
-31.971783 25.977077 -10.569592
-32.27272 24.204542 -8.2991714
-32.57938 22.398327 -5.9856358
-32.892067 20.557547 -3.6265814
-33.210667 18.681002 -1.2229362
-33.5355 16.76775 1.2277389
-33.866905 14.816767 3.7279923
-34.204762 12.826785 6.276948
-34.549595 10.796757 8.8785009
-34.901287 8.7253246 11.531811
-35.260208 6.6112928 14.239667
-35.626766 4.4533496 17.005108
-36.000843 2.2500508 19.827335
-36.382862 -1.6386144e-07 22.70945
-23.847843 63.594257 -59.865433
-23.889122 62.111721 -59.533249
-24.068079 60.972469 -58.093124
-24.249653 59.815807 -56.631931
-24.433987 58.641571 -55.148529
-24.621231 57.449539 -53.641693
-24.811279 56.238903 -52.112305
-25.004374 55.009628 -50.558395
-25.200405 53.760876 -48.980854
-25.399536 52.492378 -47.37838
-25.601934 51.203869 -45.749603
-25.807487 49.894482 -44.09544
-26.016367 48.563892 -42.414513
-26.228756 47.211765 -40.705338
-26.444538 45.837208 -38.968853
-26.664005 44.44001 -37.202713
-26.887039 43.019268 -35.407875
-27.113838 41.574554 -33.582745
-27.344603 40.105412 -31.725689
-27.579218 38.610909 -29.837658
-27.817896 37.090527 -27.916927
-28.060854 35.543747 -25.961746
-28.307978 33.969574 -23.973057
-28.559612 32.367561 -21.948059
-28.815636 30.736679 -19.88772
-29.076294 29.0763 -17.790121
-29.341837 27.38571 -15.653188
-29.612146 25.663862 -13.477914
-29.887484 23.909985 -11.262173
-30.168119 22.123289 -9.0037766
-30.453941 20.302629 -6.7036638
-30.745369 18.447229 -4.3584404
-31.042288 16.555887 -1.9690129
-31.344999 14.627666 0.46699333
-31.653814 12.661531 2.9521654
-31.968628 10.656209 5.4856
-32.289768 8.6106071 8.0699196
-32.61758 6.5235133 10.707949
-32.951958 4.3935976 13.398795
-33.293423 2.2195611 16.146706
-33.641872 6.148021e-07 18.950836
-33.997696 -2.2665143 21.814268
-34.361298 -4.5814977 24.740305
-21.946156 62.703308 -62.554119
-22.0818 61.513596 -61.38456
-22.245535 60.380749 -59.972794
-22.411798 59.231186 -58.539257
-22.580482 58.064102 -57.08482
-22.751726 56.879326 -55.60833
-22.925669 55.676628 -54.108551
-23.102209 54.455212 -52.586399
-23.281574 53.215023 -51.039879
-23.463659 51.95525 -49.469906
-23.648615 50.675606 -47.875175
-23.836599 49.375813 -46.254345
-24.027506 48.055012 -44.608315
-24.221493 46.712887 -42.935707
-24.418734 45.349083 -41.235065
-24.619118 43.962715 -39.507324
-24.822916 42.55357 -37.750149
-25.030016 41.120739 -35.964493
-25.240599 39.663803 -34.148788
-25.454859 38.182289 -32.301395
-25.672686 36.67527 -30.423265
-25.894272 35.142235 -28.512707
-26.119823 33.58263 -26.567965
-26.349228 31.995499 -24.589979
-26.582811 30.380356 -22.575981
-26.820457 28.736208 -20.526932
-27.062393 27.062397 -18.440928
-27.308851 25.358223 -16.315941
-27.559717 23.622623 -14.152902
-27.815237 21.854832 -11.949748
-28.075663 20.054045 -9.7043257
-28.340887 18.219139 -7.4175129
-28.611298 16.349318 -5.0859985
-28.886786 14.443388 -2.7106805
-29.167631 12.500422 -0.28918174
-29.454126 10.519336 2.1810322
-29.746166 8.498909 4.6990685
-30.044058 6.4380136 7.26755
-30.348118 4.3354521 9.8892183
-30.658249 2.1898735 12.563237
-30.974936 4.8243683e-06 15.293755
-31.298079 -2.2355776 18.079962
-31.628035 -4.5182943 20.924919
-31.965183 -6.8496776 23.831854
-32.309433 -9.231266 26.800047
-20.169222 63.610622 -64.498039
-20.230721 62.248371 -63.926987
-20.308956 60.926872 -63.200539
-20.458099 59.800598 -61.815678
-20.609449 58.657665 -60.410324
-20.763128 57.497894 -58.983349
-20.919043 56.320503 -57.535614
-21.077318 55.125294 -56.065971
-21.238079 53.912052 -54.573215
-21.401236 52.67997 -53.058235
-21.566919 51.42881 -51.519791
-21.735268 50.15831 -49.956604
-21.906183 48.867649 -48.369576
-22.079893 47.556698 -46.756618
-22.256292 46.224609 -45.118656
-22.435535 44.871075 -43.454319
-22.617775 43.49572 -41.762146
-22.802912 42.097683 -40.043068
-22.991104 40.676567 -38.29562
-23.18252 39.231956 -36.518246
-23.377056 37.762939 -34.711891
-23.574978 36.269199 -32.874084
-23.776188 34.749813 -31.005787
-23.980858 33.204266 -29.105314
-24.189184 31.63201 -27.170927
-24.40106 30.032082 -25.203571
-24.61668 28.403864 -23.201431
-24.836248 26.746729 -21.162643
-25.059664 25.059662 -19.088131
-25.287243 23.342075 -16.97496
-25.518885 21.592901 -14.824069
-25.754808 19.811399 -12.633423
-25.995249 17.996712 -10.400834
-26.240105 16.147753 -8.127224
-26.489616 14.263643 -5.8103962
-26.744041 12.343403 -3.447957
-27.003277 10.385874 -1.0408309
-27.267714 8.39007 1.4145699
-27.537254 6.354753 3.9173629
-27.812174 4.278801 6.4701071
-28.092772 2.1609848 9.075592
-28.378952 3.5149342e-06 11.732923
-28.671026 -2.2054658 14.444946
-28.969316 -4.4568129 17.214676
-29.273731 -6.7554727 20.041321
-29.584761 -9.1029921 22.929359
-29.902319 -11.500891 25.878042
-30.226772 -13.950817 28.890707
-18.722105 63.967197 -63.448246
-18.722296 62.407658 -63.446316
-18.722486 60.848083 -63.444389
-18.774179 59.451569 -62.924416
-18.841799 58.095543 -62.244205
-18.980875 56.942627 -60.845207
-19.122021 55.77256 -59.425404
-19.26528 54.584961 -57.984325
-19.41077 53.37962 -56.520802
-19.558405 52.155746 -55.035702
-19.708303 50.913116 -53.527851
-19.860518 49.651291 -51.996689
-20.015173 48.37001 -50.440975
-20.172184 47.068432 -48.861576
-20.331751 45.746445 -47.256447
-20.493786 44.403206 -45.626495
-20.658426 43.038387 -43.970348
-20.825811 41.651627 -42.286594
-20.995852 40.242046 -40.57613
-21.168688 38.809265 -38.837498
-21.344479 37.35284 -37.06918
-21.52313 35.871883 -35.272091
-21.704884 34.366062 -33.443802
-21.889645 32.834469 -31.58526
-22.077578 31.276573 -29.694792
-22.268856 29.691813 -27.77067
-22.463387 28.079239 -25.813852
-22.661345 26.438244 -23.822536
-22.862919 24.768169 -21.794859
-23.068016 23.068016 -19.731754
-23.276922 21.337181 -17.630323
-23.489546 19.574633 -15.491478
-23.706091 17.779575 -13.313198
-23.926771 15.951188 -11.09334
-24.151491 14.088378 -8.8328323
-24.380472 12.190238 -6.5294471
-24.613947 10.255811 -4.180872
-24.851824 8.2839365 -1.7880052
-25.09446 6.2736163 0.65270591
-25.341763 4.2236261 3.1403904
-25.593987 2.1328297 5.6775742
-25.851406 3.2174567e-06 8.267005
-26.11393 -2.1761658 10.907802
-26.381842 -4.3969707 13.602786
-26.655437 -6.6638598 16.354933
-26.934635 -8.9782133 19.163439
-27.219877 -11.341615 22.032764
-27.511087 -13.755541 24.962114
-27.808598 -16.221676 27.954824
-28.112757 -18.741833 31.014431
-17.258671 64.327782 -62.386612
-17.25885 62.759449 -62.384663
-17.259027 61.191097 -62.382706
-17.259205 59.622711 -62.380764
-17.259382 58.054295 -62.378815
-17.302006 56.624748 -61.911076
-17.363941 55.248909 -61.231426
-17.488541 54.055496 -59.864101
-17.619261 52.857796 -58.429611
-17.751951 51.642048 -56.973515
-17.886654 50.407845 -55.495319
-18.023417 49.154778 -53.994526
-18.162287 47.882393 -52.470608
-18.303316 46.59026 -50.923008
-18.44655 45.277893 -49.351204
-18.592112 43.944996 -47.753841
-18.73992 42.590736 -46.13184
-18.890097 41.21476 -44.483837
-19.042772 39.816708 -42.808418
-19.197863 38.395733 -41.106499
-19.355501 36.951412 -39.376637
-19.515825 35.483315 -37.617294
-19.678749 33.99057 -35.829403
-19.844496 32.472816 -34.010567
-20.012978 30.929148 -32.161678
-20.184345 29.359053 -30.281147
-20.358757 27.761942 -28.367216
-20.536123 26.136889 -26.420851
-20.716606 24.483267 -24.440271
-20.900379 22.800423 -22.42362
-21.087351 21.087358 -20.371836
-21.27779 19.343443 -18.282015
-21.471607 17.56768 -16.155117
-21.668987 15.759273 -13.989125
-21.870129 13.917362 -11.781889
-22.07494 12.040883 -9.5343485
-22.283623 10.128925 -7.2443223
-22.496391 8.1805115 -4.9094849
-22.713156 6.1945009 -2.5307505
-22.934246 4.1698704 -0.104578
-23.159575 2.1054149 2.3681266
-23.389374 3.6884947e-07 4.8898897
-23.623894 -2.1476302 7.4634156
-23.86305 -4.3387365 10.087834
-24.107096 -6.5746622 12.765934
-24.356304 -8.8568354 15.50066
-24.6106 -11.186636 18.291204
-24.87038 -13.565658 21.141977
-25.135582 -15.995366 24.05221
-25.406498 -18.477446 27.025175
-25.683451 -21.013727 30.064354
-15.958984 65.431839 -59.136082
-15.958428 63.833714 -59.142803
-15.778974 61.537998 -61.309002
-15.779137 59.96072 -61.307037
-15.779245 58.383213 -61.305725
-15.779408 56.80587 -61.303749
-15.779572 55.2285 -61.301769
-15.81395 53.767433 -60.886799
-15.870809 52.373672 -60.200459
-15.980735 51.138355 -58.873528
-16.100807 49.912502 -57.424133
-16.222696 48.668091 -55.952805
-16.346445 47.40469 -54.459019
-16.472095 46.121872 -52.942272
-16.599693 44.81918 -51.402027
-16.729284 43.49614 -49.837742
-16.860914 42.152287 -48.248821
-16.994633 40.787117 -46.634716
-17.13055 39.400269 -44.994019
-17.268597 37.990917 -43.327656
-17.408886 36.558662 -41.63422
-17.551474 35.102951 -39.913044
-17.696484 33.623318 -38.162617
-17.843842 32.118912 -36.383862
-17.993671 30.589249 -34.575241
-18.146112 29.033777 -32.7351
-18.301086 27.451626 -30.864418
-18.458803 25.842325 -28.960608
-18.619186 24.204945 -27.024603
-18.782381 22.538862 -25.054674
-18.948542 20.843399 -23.048956
-19.117586 19.117592 -21.008392
-19.289675 17.360708 -18.931084
-19.464973 15.571984 -16.815052
-19.643402 13.750389 -14.661221
-19.825218 11.895131 -12.4665
-20.010345 10.005177 -10.231829
-20.198961 8.0795822 -7.9550266
-20.391256 6.117382 -5.6338048
-20.58716 4.1174359 -3.2690778
-20.786858 2.0786929 -0.85847425
-20.990568 1.5889423e-06 1.6005214
-21.198212 -2.1198149 4.106998
-21.410105 -4.2820263 6.6647811
-21.626175 -6.4878445 9.2729597
-21.846649 -8.7386599 11.934341
-22.071774 -11.035884 14.651811
-22.301476 -13.380882 17.424572
-22.536009 -15.775205 20.255651
-22.775644 -18.220514 23.148268
-23.020311 -20.718273 26.101673
-23.270411 -23.270407 29.120657
-23.525885 -25.878468 32.204487
-14.446677 65.812645 -58.014935
-14.44622 64.205429 -58.021061
-14.445714 62.598091 -58.027851
-14.445257 60.991093 -58.03397
-14.28229 58.716084 -60.21973
-14.28244 57.129761 -60.217735
-14.282588 55.543396 -60.215744
-14.282737 53.957005 -60.213745
-14.282887 52.370583 -60.211758
-14.309752 50.879116 -59.851421
-14.361483 49.467327 -59.157581
-14.457283 48.190945 -57.872681
-14.566528 46.936592 -56.407455
-14.677383 45.662975 -54.920639
-14.789938 44.369816 -53.411003
-14.904234 43.056671 -51.87804
-15.020309 41.723087 -50.321198
-15.138207 40.368557 -48.739914
-15.257971 38.992592 -47.133617
-15.379645 37.594688 -45.50169
-15.503274 36.174313 -43.84354
-15.628907 34.730911 -42.158512
-15.756594 33.26392 -40.445942
-15.886383 31.772774 -38.70517
-16.01833 30.256845 -36.935482
-16.152485 28.715532 -35.136135
-16.288971 27.148294 -33.30555
-16.427717 25.554228 -31.44463
-16.568914 23.932877 -29.550846
-16.712492 22.283331 -27.62513
-16.858582 20.604937 -25.665758
-17.007317 18.897022 -23.670872
-17.158627 17.158632 -21.641451
-17.312654 15.389025 -19.575579
-17.469547 13.587421 -17.471291
-17.629232 11.752823 -15.329527
-17.791945 9.8844109 -13.147224
-17.957605 7.9811654 -10.92531
-18.126383 6.0421357 -8.6616287
-18.298443 4.0663228 -6.3538928
-18.473719 2.0526407 -4.0030494
-18.652384 -4.3663026e-06 -1.6067321
-18.834625 -2.0927348 0.83754665
-19.020376 -4.2267551 3.328882
-19.209915 -6.4033031 5.8710489
-19.403179 -8.6236372 8.4631557
-19.600372 -10.88909 11.107953
-19.801708 -13.201136 13.808353
-20.007128 -15.56109 16.563478
-20.216852 -17.970531 19.376387
-20.431122 -20.431128 22.250242
-20.649879 -22.944304 25.184277
-20.873478 -25.512033 28.183247
-21.101864 -28.135822 31.246422
-21.3353 -30.817652 34.377357
-12.917165 67.815125 -56.873096
-12.916709 66.198135 -56.879978
-12.916253 64.581261 -56.886852
-12.915843 62.964733 -56.893051
-12.915387 61.348091 -56.899933
-12.927115 59.787914 -56.722954
-13.030855 58.638851 -55.157635
-12.768435 55.861912 -59.11726
-12.768569 54.266418 -59.115234
-12.768703 52.670902 -59.113213
-12.768836 51.075348 -59.111198
-12.768926 49.479588 -59.109859
-12.789146 47.959305 -58.804745
-12.835633 46.529175 -58.103317
-12.917987 45.212948 -56.860706
-13.016067 43.929226 -55.380791
-13.115646 42.625851 -53.878239
-13.216762 41.302383 -52.352516
-13.31945 39.958347 -50.803085
-13.423745 38.593266 -49.229393
-13.529687 37.206638 -47.630856
-13.637314 35.797955 -46.006882
-13.746667 34.366669 -44.356876
-13.857788 32.912243 -42.680183
-13.970721 31.434124 -40.976166
-14.085508 29.931705 -39.244156
-14.202199 28.404398 -37.483437
-14.320838 26.851568 -35.693306
-14.441533 25.272688 -33.872154
-14.564222 23.666864 -32.02092
-14.689013 22.033522 -30.137962
-14.815962 20.37195 -28.222464
-14.945125 18.681406 -26.273556
-15.07662 16.961199 -24.289425
-15.210387 15.210394 -22.271042
-15.346549 13.428239 -20.216518
-15.485237 11.613932 -18.123886
-15.626388 9.7664919 -15.994096
-15.770203 7.885108 -13.824098
-15.91662 5.9687362 -11.614815
-16.065783 4.0164471 -9.3641462
-16.217836 2.0272312 -7.0697885
-16.372726 5.1524867e-06 -4.7327104
-16.530602 -2.0663249 -2.3505454
-16.691628 -4.172905 0.079156995
-16.855743 -6.3209014 2.5554681
-17.023199 -8.5115881 5.0821652
-17.193933 -10.746206 7.6583662
-17.368126 -13.026099 10.286747
-17.545971 -15.352725 12.970206
-17.727409 -17.727406 15.707884
-17.91264 -20.151716 18.502773
-18.10187 -22.627333 21.358053
-18.29505 -25.155687 24.272911
-18.492491 -27.738729 27.252064
-18.694143 -30.377981 30.294781
-18.900244 -33.075432 33.404606
-19.11104 -35.833195 36.585255
-11.369035 68.214218 -55.72607
-11.368672 66.587936 -55.73233
-11.368308 64.961769 -55.738605
-11.367905 63.335472 -55.74556
-11.36738 61.708633 -55.754612
-11.376874 60.134914 -55.5909
-11.468091 58.978756 -54.01791
-11.468132 57.340668 -54.017204
-11.468174 55.702557 -54.016499
-11.237054 52.974689 -58.00201
-11.237172 51.36993 -57.999969
-11.237251 49.764969 -57.998611
-11.23737 48.160156 -57.996563
-11.237488 46.555309 -57.994526
-11.251866 45.007469 -57.746586
-11.29299 43.558678 -57.037434
-11.362498 42.203564 -55.838806
-11.449224 40.890091 -54.343285
-11.537283 39.5564 -52.824749
-11.626708 38.202045 -51.282677
-11.717529 36.826523 -49.716511
-11.809781 35.42934 -48.125679
-11.903497 34.009991 -46.509613
-11.998756 32.568058 -44.866905
-12.095509 31.102739 -43.19849
-12.193832 29.6136 -41.502941
-12.293769 28.10005 -39.77961
-12.395357 26.56148 -38.02779
-12.498637 24.997276 -36.246784
-12.603653 23.406794 -34.435844
-12.71045 21.789352 -32.594212
-12.819071 20.144258 -30.721098
-12.929564 18.470812 -28.815704
-13.04198 16.768259 -26.877169
-13.156366 15.035846 -24.90464
-13.272778 13.272774 -22.897203
-13.391267 11.47824 -20.85393
-13.511949 9.6513958 -18.77285
-13.634767 7.7912965 -16.654917
-13.759838 5.897068 -14.498137
-13.887286 3.9678056 -12.300393
-14.017055 2.0024385 -10.062603
-14.149335 -4.9020341e-06 -7.7815156
-14.284071 -2.0405746 -5.4580789
-14.421399 -4.120398 -3.0899477
-14.561459 -6.2406168 -0.67471498
-14.704198 -8.4023933 1.7867397
-14.849763 -10.606966 4.2969246
-14.998309 -12.855697 6.8585258
-15.149786 -15.149779 9.470643
-15.304427 -17.490768 12.137318
-15.462182 -19.879955 14.857732
-15.623224 -22.318895 17.634794
-15.787734 -24.80929 20.471649
-15.955666 -27.35257 23.367531
-16.127207 -29.95052 26.325668
-16.302563 -32.605118 29.349537
-16.481686 -35.317894 32.438431
-16.664877 -38.091145 35.597454
-16.852098 -40.926521 38.825947
-9.8032055 70.256317 -54.552788
-9.8026457 68.61853 -54.56406
-9.8022957 66.982361 -54.571102
-9.80198 65.346535 -54.577442
-9.8016653 63.710831 -54.583786
-9.8083572 62.119598 -54.449142
-9.8870687 60.970253 -52.865612
-9.887104 59.322624 -52.864895
-9.8871393 57.674984 -52.864182
-9.8871756 56.027325 -52.863453
-9.8872108 54.379665 -52.862736
-9.8872108 52.731796 -52.862747
-9.6972551 50.102489 -56.684345
-9.6879082 48.439541 -56.872402
-9.6880102 46.825386 -56.870338
-9.6881132 45.211193 -56.868275
-9.6882162 43.59697 -56.866211
-9.6976318 42.023083 -56.676765
-9.7332726 40.555298 -55.959747
-9.7906485 39.16259 -54.805439
-9.8657742 37.818802 -53.294025
-9.9420605 36.454224 -51.759247
-10.019537 35.068378 -50.200546
-10.098229 33.660763 -48.617363
-10.178169 32.230869 -47.009117
-10.259383 30.778152 -45.375206
-10.341905 29.302061 -43.715
-10.425764 27.80204 -42.027885
-10.510995 26.277485 -40.313175
-10.597631 24.727808 -38.570202
-10.685706 23.152357 -36.798248
-10.775259 21.550516 -34.996609
-10.866323 19.921598 -33.164516
-10.958942 18.2649 -31.301178
-11.053152 16.579731 -29.405821
-11.148996 14.86533 -27.477583
-11.246517 13.12094 -25.515612
-11.345758 11.34577 -23.519018
-11.446815 9.5390139 -21.485905
-11.549641 7.6997628 -19.41724
-11.654329 5.8271723 -17.311064
-11.760933 3.9203115 -15.166354
-11.869505 1.9782513 -12.982055
-11.980101 4.8658364e-08 -10.757045
-12.09283 -2.0154686 -8.4891253
-12.207646 -4.0692191 -6.179184
-12.324664 -6.1623254 -3.8249791
-12.444002 -8.2960033 -1.4240586
-12.565618 -10.47135 1.0226465
-12.689633 -12.689631 3.5176513
-12.816182 -14.952209 6.0635929
-12.945218 -17.260294 8.6596088
-13.076941 -19.615406 11.309671
-13.211308 -22.018847 14.012954
-13.348468 -24.472185 16.772356
-13.488568 -26.977133 19.590996
-13.631577 -29.535076 22.468063
-13.777647 -32.14785 25.406801
-13.926954 -34.817379 28.41061
-14.079459 -37.545223 31.478781
-14.235416 -40.333679 34.616394
-14.394791 -43.184376 37.822762
-14.557775 -46.099617 41.101742
-8.2178431 70.673454 -53.381767
-8.2175474 69.027405 -53.388908
-8.2172823 67.381721 -53.395321
-8.2169867 65.735901 -53.402454
-8.2169867 64.092506 -53.402454
-8.2243757 62.505264 -53.22406
-8.2875128 61.327599 -51.699806
-8.2875423 59.670311 -51.699074
-8.2875729 58.01302 -51.698353
-8.2876024 56.355705 -51.697632
-8.2876329 54.69838 -51.696896
-8.2876625 53.041042 -51.696175
-8.287693 51.383705 -51.69545
-8.287693 49.726158 -51.69545
-8.2237549 47.697777 -53.239059
-8.1205378 45.475018 -55.730942
-8.1206236 43.851368 -55.728855
-8.1206818 42.227554 -55.727467
-8.1207685 40.603844 -55.725372
-8.1261654 39.005596 -55.595081
-8.1561956 37.518501 -54.870075
-8.2021017 36.089245 -53.761818
-8.2653732 34.714573 -52.234287
-8.3296299 33.31852 -50.683018
-8.3948927 31.900593 -49.10743
-8.4611864 30.46027 -47.506962
-8.5285349 28.997023 -45.881008
-8.5969648 27.510292 -44.228977
-8.666502 25.9995 -42.550205
-8.7371721 24.464077 -40.844063
-8.8090048 22.90341 -39.109863
-8.8820286 21.316875 -37.346924
-8.9562731 19.703798 -35.554489
-9.031805 18.06361 -33.730999
-9.1085854 16.395454 -31.877344
-9.1866827 14.698696 -29.991919
-9.2661314 12.972577 -28.073872
-9.3469648 11.216363 -26.12237
-9.4292212 9.429225 -24.136515
-9.5129395 7.6103587 -22.1154
-9.5981569 5.7588949 -20.058067
-9.6849136 3.8739619 -17.963552
-9.7732544 1.9546565 -15.830825
-9.8632221 3.119653e-06 -13.658826
-9.9548607 -1.9909679 -11.446472
-10.048218 -4.0192833 -9.192625
-10.143343 -6.0860019 -6.8960924
-10.240287 -8.1922283 -4.5556679
-10.339147 -10.339136 -2.1689641
-10.439889 -12.527862 0.26313192
-10.542612 -14.759651 2.7431018
-10.647427 -17.035881 5.273551
-10.754295 -19.357727 7.8535938
-10.863331 -21.726664 10.485962
-10.974654 -24.144236 13.173523
-11.088228 -26.611744 15.915431
-11.204232 -29.130999 18.716005
-11.322633 -31.703373 21.574472
-11.443562 -34.330685 24.493965
-11.567162 -37.014915 27.477921
-11.6934 -39.757565 30.5256
-11.822486 -42.560944 33.642002
-11.954391 -45.426685 36.826485
-12.089272 -48.35709 40.082813
-6.615025 72.765274 -52.152035
-6.6136856 71.09713 -52.192451
-6.6134706 69.441444 -52.198933
-6.6132312 67.785622 -52.20615
-6.6130161 66.130173 -52.21265
-6.6160297 64.506302 -52.121704
-6.6690974 63.356422 -50.520248
-6.6691217 61.689381 -50.519508
-6.6691461 60.02232 -50.518784
-6.6691704 58.355247 -50.518044
-6.6691947 56.68816 -50.517315
-6.669219 55.021061 -50.516575
-6.6692433 53.353943 -50.515846
-6.6692677 51.686825 -50.515118
-6.6692677 50.019512 -50.515114
-6.6692915 48.352367 -50.514374
-6.6692915 46.685043 -50.514374
-6.6693163 45.017891 -50.513649
-6.534677 42.475399 -54.57674
-6.5347471 40.842167 -54.574631
-6.5348167 39.208904 -54.572514
-6.5348873 37.575603 -54.5704
-6.5371757 35.954468 -54.501335
-6.5614696 34.447716 -53.768211
-6.596632 32.983158 -52.707073
-6.6477923 31.577021 -51.163174
-6.6997533 30.14889 -49.595139
-6.752532 28.698259 -48.002392
-6.8061495 27.224596 -46.384354
-6.8606501 25.72744 -44.739635
-6.9160047 24.206022 -43.069157
-6.9722605 22.659842 -41.37149
-7.029438 21.088326 -39.646
-7.0875621 19.490793 -37.891956
-7.1466546 17.866636 -36.108677
-7.2067409 16.215174 -34.295403
-7.2678466 14.535692 -32.451382
-7.3299971 12.827502 -30.575829
-7.3932199 11.089837 -28.667915
-7.4575424 9.3219318 -26.726797
-7.5229945 7.5229969 -24.751623
-7.5896053 5.6921997 -22.741457
-7.6574068 3.8287096 -20.695383
-7.7264295 1.9316096 -18.612421
-7.7967091 -1.9962367e-06 -16.491564
-7.8682775 -1.9670624 -14.331774
-7.9411731 -3.9705772 -12.131969
-8.0154314 -6.0115743 -9.8910084
-8.0911283 -8.0911236 -7.6066709
-8.168231 -10.21028 -5.2798858
-8.2468176 -12.370222 -2.9083152
-8.326932 -14.572121 -0.49067691
-8.408617 -16.817228 1.9743987
-8.4919214 -19.106815 4.488317
-8.5768919 -21.442223 7.0525551
-8.6635809 -23.824844 9.6686239
-8.7520819 -26.256241 12.339368
-8.8423662 -28.737682 15.063949
-8.934577 -31.271013 17.846651
-9.0286865 -33.857571 20.686665
-9.1248007 -36.499203 23.587145
-9.2230282 -39.197868 26.551437
-9.3233461 -41.955051 29.578808
-9.4258709 -44.772884 32.672768
-9.5307255 -47.653633 35.837029
-9.637888 -50.598904 39.070934
-9.7475395 -53.611465 42.379967
-4.9903784 73.192223 -50.980747
-4.9901791 71.525902 -50.988762
-4.9900155 69.860229 -50.995338
-4.9898524 68.194656 -51.001919
-4.9906149 66.541534 -50.971245
-4.9949026 64.933739 -50.798702
-5.031486 63.732162 -49.326706
-5.0315046 62.055225 -49.325958
-5.0315228 60.378281 -49.325222
-5.0315413 58.701324 -49.324478
-5.0315599 57.024349 -49.32373
-5.0315781 55.347363 -49.322994
-5.0315967 53.670364 -49.322247
-5.0316153 51.993362 -49.32151
-5.0316339 50.316334 -49.320763
-5.031652 48.639309 -49.320023
-5.031652 46.962093 -49.320023
-5.0316706 45.28503 -49.319279
-5.0316706 43.607819 -49.319279
-5.0316887 41.930744 -49.318539
-4.9300504 39.440411 -53.408154
-4.9301038 37.797459 -53.406017
-4.9301567 36.154484 -53.403873
-4.9302101 34.511471 -53.401733
-4.9304399 32.869602 -53.392467
-4.9487948 31.342371 -52.653938
-4.9739861 29.84392 -51.64032
-5.0127702 28.405697 -50.079754
-5.0521646 26.944881 -48.494663
-5.0921822 25.460911 -46.884472
-5.1328392 23.953249 -45.248554
-5.1741509 22.421326 -43.586308
-5.2161326 20.864534 -41.897087
-5.2588015 19.282282 -40.180241
-5.3021736 17.673916 -38.435059
-5.3462677 16.038805 -36.660854
-5.3911014 14.376266 -34.856895
-5.4366932 12.685616 -33.022423
-5.4830623 10.966124 -31.156672
-5.53023 9.2170534 -29.258804
-5.5782156 7.4376278 -27.328011
-5.6270409 5.6270356 -25.363405
-5.6767292 3.7844872 -23.364122
-5.7273264 1.9091109 -21.32823
-5.7788095 1.6971052e-06 -19.256723
-5.8312263 -1.9437399 -17.147629
-5.8846035 -3.9230621 -14.999912
-5.9389658 -5.9389663 -12.812513
-5.9943423 -7.9924498 -10.584342
-6.0507617 -10.084606 -8.3142052
-6.1082525 -12.216509 -6.000946
-6.1668468 -14.389312 -3.6432948
-6.2265759 -16.604202 -1.2399795
-6.2874737 -18.862411 1.2103357
-6.3495741 -21.165239 3.7090628
-6.4129133 -23.514011 6.2576418
-6.4775295 -25.910112 8.8575878
-6.5434604 -28.35499 11.510452
-6.6107473 -30.850157 14.217885
-6.6794658 -33.397331 16.982876
-6.7495933 -35.997833 19.804617
-6.8212099 -38.653526 22.686235
-6.8943973 -41.366383 25.631062
-6.9691367 -44.137863 28.638348
-7.0455146 -46.970093 31.711535
-7.1236215 -49.865349 34.854332
-7.2034421 -52.825245 38.066067
-7.2851105 -55.852509 41.352146
-7.3686118 -58.948898 44.712002
-3.3486745 75.345192 -49.667683
-3.3470936 73.636063 -49.763088
-3.3469834 71.960152 -49.769749
-3.3468609 70.284096 -49.777138
-3.346714 68.607635 -49.786011
-3.3474979 66.949959 -49.738693
-3.3743353 65.799538 -48.118919
-3.3743474 64.11261 -48.118168
-3.3743601 62.425663 -48.117424
-3.3743727 60.738712 -48.116665
-3.3743849 59.051746 -48.115917
-3.3743975 57.364761 -48.115162
-3.3744099 55.677769 -48.11441
-3.3744223 53.990757 -48.113663
-3.3744349 52.303741 -48.112911
-3.3744473 50.616714 -48.112156
-3.3744597 48.929665 -48.111404
-3.3744597 47.242432 -48.111401
-3.3744721 45.555374 -48.110657
-3.3744721 43.868137 -48.110653
-3.3744845 42.181057 -48.109901
-3.3744845 40.493813 -48.109905
-3.3744969 38.806721 -48.109154
-3.3062928 36.369232 -52.225636
-3.3063288 34.716454 -52.223469
-3.3063526 33.063534 -52.222023
-3.3063884 31.410696 -52.21986
-3.3065557 29.758999 -52.209763
-3.3178794 28.201981 -51.526329
-3.3338437 26.67075 -50.562794
-3.3599803 25.199856 -48.985325
-3.3865297 23.705713 -47.382919
-3.4135022 22.187767 -45.754982
-3.4409077 20.645449 -44.10091
-3.4687569 19.078161 -42.420067
-3.4970605 17.485312 -40.7118
-3.5258298 15.86623 -38.97541
-3.5550766 14.220307 -37.210213
-3.5848124 12.546838 -35.415497
-3.6150639 10.845191 -33.589645
-3.6458161 9.1145353 -31.733583
-3.6770961 7.3541937 -29.84568
-3.7089171 5.5633783 -27.925104
-3.7412941 3.7412987 -25.970989
-3.7742412 1.887128 -23.982464
-3.8077738 -5.2693031e-06 -21.958584
-3.8419075 -1.9209557 -19.898434
-3.8766584 -3.8766596 -17.801018
-3.912044 -5.868063 -15.665311
-3.9480815 -7.8961611 -13.490244
-3.9847896 -9.9619761 -11.274742
-4.0221858 -12.06656 -9.0176573
-4.0602913 -14.211018 -6.7178059
-4.0991254 -16.396498 -4.3739605
-4.1387095 -18.624187 -1.9848498
-4.1790657 -20.895327 0.45085734
-4.2202163 -23.211195 2.9345396
-4.2621861 -25.573116 5.4676137
-4.3049984 -27.982483 8.0515699
-4.3487005 -30.440897 10.689222
-4.3932776 -32.949585 13.379699
-4.4387784 -35.510223 16.125904
-4.4852314 -38.124458 18.929586
-4.5326667 -40.793999 21.792574
-4.5811162 -43.520603 24.716772
-4.6306129 -46.306133 27.704153
-4.6811905 -49.152504 30.756796
-4.7329102 -52.062008 33.878338
-4.7857599 -55.036232 37.068096
-4.8398032 -58.077637 40.329922
-4.8951077 -61.188843 43.66782
-4.951664 -64.371628 47.08128
-1.6838378 75.772697 -48.520874
-1.6837696 74.085861 -48.529106
-1.6837075 72.399437 -48.536587
-1.6836517 70.713379 -48.54332
-1.6839619 69.042435 -48.505898
-1.684427 67.377083 -48.449741
-1.6946138 66.089951 -47.22007
-1.6972996 64.497391 -46.895878
-1.6973059 62.80032 -46.895119
-1.6973122 61.103245 -46.894356
-1.6973184 59.406151 -46.893597
-1.6973248 57.709042 -46.892838
-1.6973311 56.011932 -46.892071
-1.6973375 54.314804 -46.891315
-1.69735 52.617851 -46.889797
-1.6973563 50.920696 -46.88903
-1.6973627 49.223518 -46.888268
-1.6879585 47.26284 -48.023449
-1.6973689 45.828957 -46.887512
-1.6973752 44.131756 -46.886749
-1.6973752 42.434383 -46.886749
-1.6973815 40.73716 -46.88599
-1.6973815 39.03978 -46.885994
-1.6973879 37.342533 -46.885235
-1.6973879 35.645145 -46.885235
-1.6630541 33.261089 -51.029659
-1.6630723 31.598379 -51.027462
-1.6630905 29.935631 -51.02528
-1.6631087 28.272856 -51.023094
-1.6631873 26.610998 -51.013603
-1.6683815 25.025723 -50.38662
-1.6759449 23.463228 -49.473606
-1.6891556 21.959021 -47.878941
-1.7025763 20.430918 -46.25893
-1.7162182 18.878397 -44.612202
-1.730074 17.300745 -42.939659
-1.7441553 15.697399 -41.239883
-1.7584679 14.067744 -39.512218
-1.7730172 12.411128 -37.755962
-1.7878093 10.726851 -35.970394
-1.8028502 9.0142479 -34.154789
-1.8181465 7.2725825 -32.308369
-1.8337045 5.5011134 -30.430361
-1.8495311 3.6990688 -28.51993
-1.865633 1.8656349 -26.576223
-1.8820181 2.7515337e-06 -24.598398
-1.8986933 -1.8986962 -22.585495
-1.9156668 -3.8313367 -20.536627
-1.9329464 -5.7988362 -18.450788
-1.9505407 -7.8021646 -16.326971
-1.9684581 -9.842288 -14.164154
-1.9867078 -11.920239 -11.961225
-2.0052991 -14.037098 -9.7170515
-2.0242505 -16.194006 -7.4294138
-2.0435543 -18.391991 -5.0992217
-2.06323 -20.632301 -2.7241583
-2.0832882 -22.916164 -0.30293059
-2.1037402 -25.244875 2.1658518
-2.1245978 -27.619766 4.6835799
-2.1458731 -30.042221 7.2517452
-2.1675789 -32.51368 9.8718596
-2.1897283 -35.035645 12.545508
-2.2123349 -37.609688 15.274369
-2.2354131 -40.237438 18.060175
-2.2589779 -42.920582 20.904703
-2.2830451 -45.6609 23.809847
-2.3076303 -48.460236 26.777561
-2.332751 -51.320507 29.809875
-2.3584244 -54.243759 32.908951
-2.3846693 -57.232059 36.076984
-2.411505 -60.287624 39.316345
-2.4389644 -63.413067 42.630985
-2.4670432 -66.610153 46.020386
-2.4957895 -69.882103 49.490383
-1.9904778e-23 76.237846 -47.273125
-4.8288082e-23 74.540916 -47.280693
-1.3883068e-23 72.844383 -47.28751
-1.1416711e-23 71.144791 -47.303417
-2.4063249e-23 66.072807 -47.273113
-6.7987807e-23 64.371956 -47.294327
6.8564382e-24 62.985237 -46.291828
-6.1240219e-23 61.472416 -45.656521
-1.0421951e-23 59.765064 -45.655743
-1.782423e-23 58.057705 -45.65498
1.1805247e-23 56.350338 -45.654202
-1.6785824e-23 54.64296 -45.653439
-3.4814918e-23 52.935566 -45.652668
-4.7563024e-23 51.228161 -45.651897
2.9660186e-23 49.520729 -45.651123
1.1598672e-23 47.813297 -45.650356
-2.7651632e-23 46.105858 -45.649582
1.9130066e-24 44.398396 -45.648819
6.6702923e-25 42.690769 -45.648815
-3.8615694e-23 40.983284 -45.648048
-1.3391892e-23 39.27565 -45.648048
-5.0484637e-24 37.568153 -45.647278
-5.9234e-23 35.860512 -45.647285
-2.97342e-23 34.152996 -45.646507
-3.6293584e-23 32.445351 -45.646503
2.8188335e-23 30.115576 -49.818523
-4.0397163e-23 28.442804 -49.816311
-8.4493692e-24 26.769993 -49.814087
-3.4754542e-23 25.097141 -49.811878
1.3677971e-23 23.42511 -49.802265
-1.4563161e-23 21.813107 -49.233852
-1.2911728e-23 20.220875 -48.371822
-3.1056078e-23 18.682716 -46.75967
-6.3411915e-23 17.119978 -45.121761
-5.5589766e-24 15.532061 -43.457451
-5.7414628e-23 13.918374 -41.76614
-4.3232847e-23 12.278255 -40.047134
-6.5135456e-23 10.611079 -38.299755
-1.361572e-23 8.9161482 -36.523281
-3.3237884e-23 7.1927733 -34.71701
-6.225104e-23 5.4402304 -32.880169
-8.6562849e-23 3.6577752 -31.011971
-7.2309692e-23 1.8446375 -29.111603
1.2986982e-23 6.127546e-07 -27.17823
-5.3634154e-23 -1.876933 -25.21101
-1.0092273e-22 -3.7870483 -23.209013
-3.18305e-23 -5.7312465 -21.170353
-4.1632456e-23 -7.7103996 -19.095984
-3.6091052e-23 -9.7254868 -16.983952
-1.426415e-23 -11.777492 -14.833226
-6.7920709e-23 -13.867422 -12.642749
-1.1674954e-23 -15.99638 -10.41138
-1.1826488e-23 -18.165424 -8.1379747
-1.10565e-22 -20.375711 -5.8213563
-6.606173e-23 -22.62845 -3.4602447
-4.6684691e-23 -24.924852 -1.0533603
-8.5517113e-24 -27.266214 1.4006416
-1.0239591e-22 -29.653849 3.9031377
-9.4053399e-23 -32.089161 6.4556112
9.0381466e-24 -34.573597 9.0595694
-5.6087966e-23 -37.108631 11.716563
-9.7358121e-23 -39.69585 14.428243
-7.5029608e-23 -42.33688 17.196323
-1.0698783e-22 -45.033398 20.022579
-8.1038576e-23 -47.787197 22.908857
-4.9249413e-23 -50.600101 25.85709
-1.5949934e-23 -53.474323 28.870735
-8.7246192e-23 -56.411331 31.949041
1.2716368e-23 -59.413486 35.095646
-1.7762699e-23 -62.482983 38.31282
-7.8315511e-23 -65.622093 41.60297
-2.1207383e-23 -68.833237 44.968609
-6.9507481e-23 -72.118904 48.41235
1.7047215 78.417198 -45.999981
1.7046452 76.709038 -46.00919
1.7045881 75.001884 -46.016094
1.7045245 73.294556 -46.023769
1.7043339 61.356018 -46.046764
1.71007 59.852451 -45.354362
1.7179525 58.410389 -44.402851
1.7179589 56.69265 -44.402069
1.7179718 54.975105 -44.400509
1.7179785 53.257336 -44.399738
1.7179848 51.539543 -44.398952
1.7179912 49.821747 -44.398174
1.7179977 48.103939 -44.3974
1.7180041 46.386116 -44.396618
1.7180105 44.668282 -44.395836
1.7180105 42.950264 -44.395836
1.718017 41.23241 -44.395065
1.718017 39.5144 -44.395058
1.7180234 37.79652 -44.394279
1.7180234 36.078503 -44.394279
1.7180301 34.3606 -44.393501
1.7180301 32.642567 -44.393501
1.7180365 30.924654 -44.392719
1.7180365 29.206619 -44.392715
1.6832428 26.931887 -48.59269
1.6832552 25.248829 -48.591198
1.6832738 23.565834 -48.588947
1.6832986 21.882887 -48.585957
1.6833791 20.200554 -48.576237
1.687591 18.563501 -48.06781
1.6942936 16.942942 -47.258717
1.7077965 15.370173 -45.628803
1.721516 13.772128 -43.972691
1.7354579 12.14821 -42.28978
1.7496275 10.497769 -40.579365
1.7640302 8.8201504 -38.84079
1.778672 7.1146932 -37.073357
1.7935591 5.3806777 -35.276337
1.8087045 3.617415 -33.448128
1.8241005 1.8240966 -31.589642
1.839761 -4.008441e-06 -29.699253
1.8556929 -1.8556941 -27.776123
1.8719029 -3.7437971 -25.819403
1.8883985 -5.6651974 -23.828184
1.9051876 -7.6207438 -21.801563
1.9222779 -9.611393 -19.738586
1.9396776 -11.638062 -17.638254
1.9573952 -13.701768 -15.499557
1.9754393 -15.803513 -13.321429
1.9938194 -17.944372 -11.102787
2.0125444 -20.125448 -8.8424435
2.0316248 -22.347874 -6.5392528
2.0510702 -24.612846 -4.1919732
2.0708916 -26.921589 -1.7993311
2.0910997 -29.275402 0.64001268
2.1117063 -31.675596 3.1274376
2.1327229 -34.123566 5.6643682
2.1541619 -36.62075 8.2523069
2.1760471 -39.168842 10.894037
2.1983707 -41.769043 13.588748
2.2211571 -44.423134 16.339306
2.2444205 -47.132832 19.147478
2.2681768 -49.899883 22.0151
2.2924414 -52.726151 24.944078
2.3172305 -55.613533 27.936401
2.3425617 -58.564041 30.994146
2.3684528 -61.579769 34.119476
2.3949227 -64.662918 37.314682
2.4219909 -67.815742 40.582085
2.4496779 -71.040657 43.924225
2.4780052 -74.340141 47.343628
3.430634 78.904587 -44.720993
3.4304924 77.186081 -44.729534
3.4303765 75.468277 -44.73653
3.4300163 73.745346 -44.75827
3.4295919 58.30307 -44.783886
3.4358146 56.690945 -44.408298
3.4586303 55.338081 -43.031269
3.4569569 53.58284 -43.132263
3.4569697 51.854553 -43.131466
3.4569829 50.126255 -43.130688
3.4569962 48.397949 -43.129894
3.4570091 46.669628 -43.129105
3.4570222 44.941292 -43.128323
3.4570353 43.212936 -43.127529
3.4570482 41.484589 -43.126743
3.4570482 39.756054 -43.12674
3.4570613 38.027676 -43.125946
3.4570613 36.299149 -43.12595
3.4570746 34.570751 -43.12516
3.4570746 32.842209 -43.125164
3.4570875 31.113787 -43.124378
3.4570875 29.385244 -43.124378
3.4292061 27.433649 -44.807163
3.5029271 26.271957 -40.357723
3.3870313 23.709221 -47.352634
3.387069 22.015951 -47.350365
3.3871067 20.322639 -47.348099
3.3871443 18.629299 -47.345821
3.3873198 16.936605 -47.335232
3.3947253 15.276263 -46.888268
3.4079945 13.631983 -46.087402
3.4345503 12.020924 -44.484612
3.4622962 10.386894 -42.810001
3.490494 8.7262411 -41.108109
3.5191548 7.0383062 -39.378262
3.5482905 5.3224359 -37.619778
3.5779126 3.5779169 -35.831951
3.6080334 1.8040242 -34.013996
3.6386654 -1.2437202e-06 -32.165173
3.6698222 -1.8349009 -30.284708
3.7015171 -3.7015173 -28.371744
3.7337644 -5.6006393 -26.425453
3.7665782 -7.533155 -24.444954
3.799974 -9.4999323 -22.429331
3.8339677 -11.501899 -20.377661
3.8685746 -13.540007 -18.288939
3.9038122 -15.615248 -16.162165
3.9396973 -17.72864 -13.996285
3.9762485 -19.881239 -11.790224
4.0134845 -22.074162 -9.5428505
4.0514421 -24.308647 -7.2519083
4.0901065 -26.585693 -4.918314
4.1295156 -28.906612 -2.5397458
4.1696916 -31.272686 -0.11489584
4.2106571 -33.685265 2.3575909
4.2524357 -36.145695 4.8791413
4.2950516 -38.655464 7.4512339
4.3385301 -41.216034 10.075409
4.3828983 -43.828979 12.753251
4.4281831 -46.49593 15.486433
4.4744134 -49.218544 18.276667
4.5216193 -51.998611 21.125795
4.5698314 -54.837982 24.035679
4.6190834 -57.738533 27.00827
4.6694083 -60.702301 30.045647
4.7208419 -63.731358 33.149944
4.7734208 -66.827896 36.32338
4.8271847 -69.994179 39.568298
4.8821735 -73.23259 42.88715
5.1783886 81.128098 -43.415791
5.1781349 79.398064 -43.426014
5.177959 77.669388 -43.433086
5.1777048 75.939674 -43.443306
5.1761618 55.212391 -43.505402
5.1788974 53.515278 -43.395332
5.2122288 52.122288 -42.054184
5.2173824 50.4347 -41.846802
5.2174025 48.695755 -41.846008
5.217422 46.956799 -41.845207
5.217442 45.217831 -41.844414
5.2174621 43.478855 -41.843613
5.2174816 41.739857 -41.842815
5.2174816 40.000694 -41.842812
5.2175016 38.261677 -41.842014
5.2175016 36.522518 -41.842018
5.2175212 34.783478 -41.841221
5.2175212 33.0443 -41.841217
5.2175407 31.305248 -41.84042
5.1772752 29.337889 -43.460602
5.2451496 27.974134 -40.729546
5.2865839 26.432919 -39.062332
5.2866249 24.670927 -39.060699
5.2866454 22.908798 -39.059868
5.1171975 20.468796 -45.877941
5.1118207 18.743343 -46.094299
5.1118774 17.039597 -46.091991
5.1119347 15.335806 -46.089684
5.1121826 13.632489 -46.079735
5.1217442 11.950739 -45.694988
5.1418619 10.283721 -44.885513
5.1805596 8.6342697 -43.328449
5.2226458 6.9635315 -41.635025
5.2654219 5.2654243 -39.91386
5.3089037 3.5392692 -38.164272
5.3531103 1.7843689 -36.385532
5.3980589 -2.9497612e-06 -34.576939
5.443769 -1.8145943 -32.737709
5.4902596 -3.6601698 -30.867071
5.5375514 -5.5375543 -28.964195
5.5856647 -7.4475498 -27.028269
5.6346221 -9.3910313 -25.058395
5.6844444 -11.368888 -23.053679
5.7351799 -13.382085 -21.012245
5.7868052 -15.431477 -18.935017
5.8393674 -17.518103 -16.820051
5.8928938 -19.642975 -14.666316
5.9474111 -21.807173 -12.472727
6.0029459 -24.01178 -10.238174
6.0595279 -26.257952 -7.9614873
6.1171861 -28.546864 -5.6414976
6.1759529 -30.879766 -3.2769055
6.2358594 -33.257919 -0.8664608
6.2969394 -35.682652 1.5912062
6.3592281 -38.155365 4.0975103
6.4227614 -40.677479 6.6538835
6.4875765 -43.250504 9.2618542
6.5537133 -45.875988 11.923001
6.621213 -48.555553 14.638955
6.6901169 -51.290901 17.411453
6.7604704 -54.083752 20.242241
6.8323188 -56.935993 23.133219
6.9057107 -59.849495 26.0863
6.9807329 -62.826588 29.104929
7.0573664 -65.868744 32.188427
7.1357007 -68.978439 35.340359
7.2157936 -72.157936 38.563049
6.9479752 81.63871 -42.104362
6.9476848 79.898376 -42.113132
6.9474211 78.158485 -42.12109
6.9464712 76.411194 -42.149754
6.9444404 52.083309 -42.211029
6.9428062 50.335346 -42.260349
6.9820008 48.874004 -41.077553
6.9996076 47.247353 -40.546227
6.9996343 45.497623 -40.54541
6.9996877 43.748051 -40.543797
6.9997144 41.998291 -40.542984
6.9997144 40.248363 -40.542984
6.9997416 38.498581 -40.542175
6.9997416 36.748646 -40.542179
6.9997678 34.998844 -40.541374
6.9997678 33.248905 -40.541374
7.0013762 31.506193 -40.492859
6.9432015 29.508608 -42.248425
7.0922065 28.368822 -37.751804
7.0922608 26.595982 -37.750149
7.0922885 24.823013 -37.749329
7.0923162 23.050035 -37.748497
7.0923438 21.277031 -37.747654
7.0923715 19.504028 -37.746838
7.0923986 17.731007 -37.746006
6.857872 15.430216 -44.82346
6.8579493 13.715901 -44.821136
6.8580523 12.001587 -44.818031
6.8583865 10.287584 -44.807949
6.8689971 8.5862474 -44.487732
6.8961105 6.8961177 -43.669514
6.9461546 5.2096095 -42.159298
7.0029039 3.5014482 -40.446747
7.0605874 1.7651436 -38.70599
7.1192293 -1.5260201e-06 -36.936302
7.1788535 -1.7947122 -35.136978
7.2395134 -3.6197591 -33.3064
7.3011789 -5.4758782 -31.445505
7.3639026 -7.3638959 -29.552639
7.4277148 -9.2846441 -27.626955
7.4926414 -11.238958 -25.667603
