# .PCD v0.7 - Point Cloud Data file format
VERSION 0.7
FIELDS x y z
SIZE 4 4 4
TYPE F F F
COUNT 1 1 1
WIDTH 1540
HEIGHT 1
VIEWPOINT 0 0 0 1 0 0 0
POINTS 1540
DATA ascii
-4.351315 -15.954824 -26.41757
-4.351315 -17.405266 -26.417578
-4.351315 -18.855698 -26.417578
-4.3228283 -20.173199 -27.563776
-4.3195148 -21.597574 -27.697105
-4.3334842 -23.111921 -27.135015
-4.2323956 -23.983576 -31.202499
-4.2405796 -25.443474 -30.87322
-3.5882585 -10.764777 15.069603
-3.1101618 -10.885569 -13.786082
-2.8933144 -11.573256 -26.874008
-2.8796766 -12.958542 -27.697109
-2.9008763 -14.504383 -26.417582
-2.9008763 -15.954824 -26.41757
-2.9008763 -17.405266 -26.417578
-2.9008763 -18.855698 -26.417578
-2.8818855 -20.173199 -27.563776
-2.8796766 -21.597574 -27.697105
-2.8889894 -23.111921 -27.135015
-2.8215973 -23.983576 -31.202499
-2.8270528 -25.443474 -30.87322
-1.7941293 -10.764777 15.069603
-1.5550809 -10.885569 -13.786082
-1.4466572 -11.573256 -26.874008
-1.4398383 -12.958542 -27.697109
-1.4504381 -14.504383 -26.417582
-1.4504381 -15.954824 -26.41757
-1.4504381 -17.405266 -26.417578
-1.4504381 -18.855698 -26.417578
-1.4409428 -20.173199 -27.563776
-1.4398383 -21.597574 -27.697105
-1.4444947 -23.111921 -27.135015
-1.4107987 -23.983576 -31.202499
-1.4135264 -25.443474 -30.87322
2.0093032e-23 -10.764777 15.069603
4.3967611e-23 -10.885569 -13.786082
-3.7656689e-23 -11.573256 -26.874008
5.1888503e-23 -12.958496 -27.697783
-9.3743055e-24 -14.504383 -26.417582
4.7128428e-23 -15.954824 -26.41757
3.6160778e-23 -17.405266 -26.417578
2.5193131e-23 -18.855698 -26.417578
-6.4073144e-24 -20.173199 -27.563776
3.4670232e-24 -21.597574 -27.697105
5.8397088e-23 -23.111921 -27.135015
2.7958297e-23 -23.983576 -31.202499
2.4119048e-23 -25.443474 -30.87322
1.7941293 -10.764777 15.069603
1.5550809 -10.885569 -13.786082
1.4466572 -11.573256 -26.874008
1.4398326 -12.958496 -27.697783
1.4504381 -14.504383 -26.417582
1.4504381 -15.954824 -26.41757
1.4504381 -17.405266 -26.417578
1.4504381 -18.855698 -26.417578
1.4409428 -20.173199 -27.563776
1.4398383 -21.597574 -27.697105
1.4444947 -23.111921 -27.135015
1.4107987 -23.983576 -31.202499
1.4135264 -25.443474 -30.87322
3.5882585 -10.764777 15.069603
3.1101618 -10.885569 -13.786082
2.8933144 -11.573256 -26.874008
2.8796651 -12.958496 -27.697783
2.9008763 -14.504383 -26.417582
2.9008763 -15.954824 -26.41757
2.9008763 -17.405266 -26.417578
2.9008763 -18.855698 -26.417578
2.8818855 -20.173199 -27.563776
2.8796766 -21.597574 -27.697105
2.8889894 -23.111921 -27.135015
2.8215973 -23.983576 -31.202499
2.8270528 -25.443474 -30.87322
5.3823881 -10.764777 15.069603
4.6652427 -10.885569 -13.786082
4.3399711 -11.573256 -26.874008
4.3194976 -12.958496 -27.697783
4.351315 -14.504383 -26.417582
4.351315 -15.954824 -26.41757
4.351315 -17.405266 -26.417578
4.351315 -18.855698 -26.417578
4.3228283 -20.173199 -27.563776
4.3195148 -21.597574 -27.697105
4.3334842 -23.111921 -27.135015
4.2323956 -23.983576 -31.202499
4.2405796 -25.443474 -30.87322
7.176517 -10.764777 15.069603
6.2203236 -10.885569 -13.786082
5.7866287 -11.573256 -26.874008
5.7593303 -12.958496 -27.697783
5.8017526 -14.504383 -26.417582
5.8017526 -15.954824 -26.41757
5.8017526 -17.405266 -26.417578
5.8017526 -18.855698 -26.417578
5.7637711 -20.173199 -27.563776
5.7593532 -21.597574 -27.697105
5.7779789 -23.111921 -27.135015
5.6431947 -23.983576 -31.202499
5.6541057 -25.443474 -30.87322
8.9706469 -10.764777 15.069603
7.7754049 -10.885569 -13.786082
7.2332854 -11.573256 -26.874008
7.199163 -12.958496 -27.697783
7.2521911 -14.504383 -26.417582
7.2521911 -15.954824 -26.41757
7.2521911 -17.405266 -26.417578
7.2521911 -18.855698 -26.417578
7.2047429 -20.173281 -27.563087
7.1991911 -21.597574 -27.697105
7.2224731 -23.111921 -27.135015
7.0539932 -23.983576 -31.202499
7.0676322 -25.443474 -30.87322
10.764776 -10.764777 15.069603
9.3304853 -10.885569 -13.786082
8.6799421 -11.573256 -26.874008
8.6389952 -12.958496 -27.697783
8.70263 -14.504383 -26.417582
8.70263 -15.954824 -26.41757
8.70263 -17.405266 -26.417578
8.70263 -18.855698 -26.417578
8.6456909 -20.173281 -27.563087
8.6390295 -21.597574 -27.697105
8.6669683 -23.111921 -27.135015
8.4647913 -23.983576 -31.202499
8.4811592 -25.443474 -30.87322
12.558905 -10.764777 15.069603
10.885567 -10.885569 -13.786082
10.126599 -11.573256 -26.874008
10.078828 -12.958496 -27.697783
10.153068 -14.504383 -26.417582
10.153068 -15.954824 -26.41757
10.153068 -17.405266 -26.417578
10.153068 -18.855698 -26.417578
10.086639 -20.173281 -27.563087
10.078867 -21.597574 -27.697105
10.111463 -23.111921 -27.135015
9.8755903 -23.983576 -31.202499
9.8946848 -25.443474 -30.87322
14.353034 -10.764777 15.069603
12.440647 -10.885569 -13.786082
11.573257 -11.573256 -26.874008
11.518661 -12.958496 -27.697783
11.603505 -14.504383 -26.417582
11.533032 -15.85792 -27.480932
11.533032 -17.299551 -27.480923
11.603505 -18.855698 -26.417578
11.527588 -20.173281 -27.563087
11.518706 -21.597574 -27.697105
11.555958 -23.111921 -27.135015
11.286389 -23.983576 -31.202499
11.308211 -25.443474 -30.87322
16.147163 -10.764777 15.069603
13.995728 -10.885569 -13.786082
13.019914 -11.573256 -26.874008
12.958493 -12.958496 -27.697783
13.053944 -14.504383 -26.417582
12.974662 -15.85792 -27.480932
13.00594 -17.341257 -27.061409
13.053944 -18.855698 -26.417578
12.968536 -20.173281 -27.563087
12.958544 -21.597574 -27.697105
13.000452 -23.111921 -27.135015
12.697187 -23.983576 -31.202499
12.721739 -25.443474 -30.87322
17.941294 -10.764777 15.069603
15.55081 -10.885569 -13.786082
14.466571 -11.573256 -26.874008
14.398326 -12.958496 -27.697783
14.504382 -14.504383 -26.417582
14.416291 -15.85792 -27.480932
14.451045 -17.341257 -27.061409
14.504382 -18.855698 -26.417578
14.409486 -20.173281 -27.563087
14.398382 -21.597574 -27.697105
14.444946 -23.111921 -27.135015
14.107986 -23.983576 -31.202499
14.135264 -25.443474 -30.87322
19.735422 -10.764777 15.069603
17.10589 -10.885569 -13.786082
15.913227 -11.573256 -26.874008
15.838159 -12.958496 -27.697783
15.954821 -14.504383 -26.417582
15.85792 -15.85792 -27.480932
15.85792 -17.299551 -27.480923
15.954821 -18.855698 -26.417578
15.850433 -20.173281 -27.563087
15.838221 -21.597574 -27.697105
15.889441 -23.111921 -27.135015
15.518785 -23.983576 -31.202499
15.548791 -25.443474 -30.87322
21.529552 -10.764777 15.069603
18.660971 -10.885569 -13.786082
17.359884 -11.573256 -26.874008
17.27799 -12.958496 -27.697783
17.40526 -14.504383 -26.417582
17.40526 -15.954824 -26.41757
17.40526 -17.405266 -26.417578
17.40526 -18.855698 -26.417578
17.291382 -20.173281 -27.563087
17.278059 -21.597574 -27.697105
17.333937 -23.111921 -27.135015
16.929583 -23.983576 -31.202499
16.962318 -25.443474 -30.87322
23.724388 47.448772 18.790352
23.724388 45.623825 18.790361
23.724388 43.798866 18.790361
23.724388 41.973915 18.790348
23.724388 40.148972 18.790356
23.728172 38.330128 18.825489
23.724388 36.499054 18.790358
23.724388 34.674107 18.790365
23.724272 32.848988 18.789249
23.724272 31.024042 18.789257
23.724272 29.199104 18.789253
23.724272 27.374159 18.789261
23.724272 25.549221 18.789255
23.724272 23.724276 18.789265
23.724272 21.899324 18.789251
23.724272 20.074379 18.789259
23.724272 18.249441 18.789253
23.724272 16.424496 18.789263
23.724272 14.599552 18.789253
23.724272 12.774606 18.789261
23.724272 10.949669 18.789255
23.724272 9.1247158 18.789261
23.724272 7.2997789 18.789255
23.724272 5.4748263 18.789259
23.724272 3.649889 18.789255
23.724272 1.8249433 18.789263
23.724272 -1.5136159e-06 18.789253
23.724272 -1.8249463 18.789261
23.727818 -3.6504347 18.822189
23.727818 -5.4756556 18.822195
23.727818 -7.3008671 18.822186
23.727934 -9.1261301 18.82329
23.323679 -10.764777 15.069603
20.216053 -10.885569 -13.786082
18.806543 -11.573256 -26.874008
18.717825 -12.958496 -27.697783
18.855698 -14.504383 -26.417582
18.855698 -15.954824 -26.41757
18.855698 -17.405266 -26.417578
18.855698 -18.855698 -26.417578
18.73233 -20.173281 -27.563087
18.717897 -21.597574 -27.697105
18.778431 -23.111921 -27.135015
18.340384 -23.983576 -31.202499
18.375845 -25.443474 -30.87322
23.795185 47.590378 3.6656921
23.795185 45.89072 3.6656928
23.795185 44.191059 3.6656921
23.796068 42.492985 3.6733174
23.800158 40.800266 3.7085514
23.804134 39.106796 3.7428424
23.795185 37.392437 3.6656997
23.795185 35.69278 3.6656988
23.795185 33.993122 3.6656988
23.795185 32.293465 3.6656985
23.795185 30.593805 3.6656985
23.795185 28.894156 3.6656847
23.795185 27.194502 3.6656885
23.795185 25.494844 3.6656885
23.795185 23.795185 3.6656883
23.795185 22.095533 3.6656916
23.795185 20.395876 3.6656914
23.795185 18.696217 3.6656914
23.795185 16.996565 3.6656952
23.795185 15.296906 3.6656942
23.795185 13.597246 3.6656942
23.795185 11.897594 3.6656978
23.795185 10.197936 3.6656976
23.795185 8.4982777 3.6656973
23.795185 6.7986183 3.6656971
23.795185 5.0989666 3.6657009
23.795185 3.3993077 3.6657004
23.795185 1.6996576 3.6656868
23.795076 -8.3062719e-07 3.6647451
23.795076 -1.6996529 3.6647489
23.804577 -3.4006531 3.746659
23.804577 -5.1009812 3.7466509
23.804577 -6.801311 3.7466609
23.804577 -8.5016394 3.7466531
23.804577 -10.201961 3.7466497
21.771133 -10.885569 -13.786082
20.253199 -11.573256 -26.874008
20.157656 -12.958496 -27.697783
20.306135 -14.504383 -26.417582
20.306135 -15.954824 -26.41757
20.306135 -17.405266 -26.417578
20.306135 -18.855698 -26.417578
20.173279 -20.173281 -27.563087
20.157734 -21.597574 -27.697105
20.222925 -23.111921 -27.135015
19.751181 -23.983576 -31.202499
19.78937 -25.443474 -30.87322
23.856888 47.713776 -9.5155478
23.856888 46.123318 -9.5155468
23.859064 44.536922 -9.4980412
23.862898 42.953209 -9.4671898
23.866631 41.36882 -9.4371624
23.870466 39.784111 -9.4062805
23.874201 38.198715 -9.3762293
23.856888 36.580566 -9.5155573
23.856888 34.990105 -9.5155582
23.856888 33.399647 -9.5155582
23.856888 31.809187 -9.5155563
23.856888 30.218727 -9.5155554
23.856888 28.628265 -9.5155554
23.856888 27.037806 -9.5155563
23.856888 25.447348 -9.5155544
23.856888 23.856886 -9.5155544
23.856888 22.266426 -9.5155535
23.856888 20.675966 -9.5155535
23.856888 19.085506 -9.5155535
23.856888 17.495047 -9.5155535
23.856888 15.904587 -9.5155525
23.856888 14.314127 -9.5155525
23.856888 12.723667 -9.5155516
23.856888 11.133214 -9.5155478
23.856888 9.5427542 -9.5155468
23.856888 7.9522939 -9.5155468
23.856888 6.361834 -9.5155468
23.856888 4.7713737 -9.5155458
23.856888 3.1809223 -9.5155592
23.856888 1.5904626 -9.5155592
23.856888 2.2925499e-06 -9.5155582
23.856888 -1.5904576 -9.5155582
23.871399 -3.1828513 -9.3987646
23.871399 -4.7742772 -9.3987703
23.871399 -6.3657107 -9.3987617
23.871399 -7.9571362 -9.3987675
23.871399 -9.5485554 -9.3987684
23.326214 -10.885569 -13.786082
21.699856 -11.573256 -26.874008
21.597488 -12.958496 -27.697783
21.597488 -14.398328 -27.697786
21.597488 -15.83816 -27.69779
21.597488 -17.277992 -27.697796
21.597488 -18.717827 -27.697783
21.597488 -20.15766 -27.697788
21.597572 -21.597574 -27.697105
21.667421 -23.111921 -27.135015
21.16198 -23.983576 -31.202499
21.202896 -25.443474 -30.87322
23.911236 47.822475 -21.104614
23.914455 46.334263 -21.080313
23.918068 44.846378 -21.053072
23.921583 43.357868 -21.026552
23.925196 41.869095 -20.999294
23.928713 40.379707 -20.972761
23.932327 38.890034 -20.94548
23.911236 37.361309 -21.104618
23.911236 35.866852 -21.104609
23.911236 34.372402 -21.104616
23.911236 32.877945 -21.104609
23.911236 31.383495 -21.104616
23.911236 29.889038 -21.104609
23.911236 28.394596 -21.104612
23.911236 26.900139 -21.104609
23.911236 25.405689 -21.104612
23.911236 23.911232 -21.104607
23.911236 22.416782 -21.104612
23.911236 20.922323 -21.104605
23.911236 19.427876 -21.104614
23.911236 17.933434 -21.104616
23.911137 16.438908 -21.105352
23.911137 14.944457 -21.105341
23.911137 13.450014 -21.105343
23.911137 11.955565 -21.10535
23.911137 10.461123 -21.105354
23.911137 8.9666719 -21.105343
23.911137 7.4722295 -21.105345
23.911137 5.9777865 -21.105347
23.911137 4.4833374 -21.105354
23.911137 2.9888864 -21.105343
23.911137 1.4944448 -21.105347
23.911137 1.4905089e-06 -21.105349
23.911137 -1.494441 -21.10535
23.911137 -2.9888988 -21.105345
23.930277 -4.4869313 -20.960958
23.930277 -5.9825726 -20.960962
23.930277 -7.4782152 -20.960968
23.930277 -8.9738579 -20.960955
23.930277 -10.469498 -20.960958
23.146515 -11.573256 -26.874008
23.037321 -12.958496 -27.697783
23.037321 -14.398328 -27.697786
23.037321 -15.83816 -27.69779
23.037321 -17.277992 -27.697796
23.037321 -18.717827 -27.697783
23.037321 -20.15766 -27.697788
23.037321 -21.597492 -27.697792
23.034151 -23.034153 -27.721706
22.572779 -23.983576 -31.202499
22.616423 -25.443474 -30.87322
24.473787 47.507938 -27.721703
24.473787 46.068302 -27.721697
24.473787 44.628674 -27.721701
24.473787 43.189034 -27.721704
24.473787 41.749397 -27.721699
24.473787 40.309765 -27.721701
24.473787 38.870132 -27.721701
24.571335 37.579685 -27.029051
24.571335 36.134315 -27.029055
24.571335 34.688942 -27.029057
24.571335 33.243565 -27.029057
24.571335 31.798199 -27.029055
24.571335 30.352823 -27.029053
24.571335 28.907446 -27.029047
24.571335 27.462078 -27.029058
24.571335 26.016706 -27.029051
24.571335 24.571331 -27.029049
24.571335 23.125963 -27.02906
24.571335 21.680586 -27.029057
24.571335 20.235216 -27.029051
24.571335 18.789846 -27.029058
24.571335 17.344471 -27.029057
24.571335 15.899094 -27.029053
24.571236 14.453668 -27.029747
24.571236 13.008298 -27.029739
24.571236 11.562936 -27.029745
24.571236 10.117565 -27.029737
24.571236 8.672204 -27.029743
24.571236 7.2268271 -27.029741
24.571236 5.7814655 -27.029747
24.571236 4.3360953 -27.029739
24.571236 2.890733 -27.029745
24.571236 1.4453635 -27.029737
24.571236 1.3250218e-06 -27.029743
24.571236 -1.4453689 -27.029737
24.571236 -2.8907366 -27.029749
24.593267 -4.339992 -26.87331
24.593267 -5.7866521 -26.873306
24.593267 -7.2333198 -26.873308
24.593267 -8.6799803 -26.873302
24.593267 -10.126638 -26.873318
24.593267 -11.573298 -26.873312
24.59317 -13.019911 -26.873999
24.59317 -14.466572 -26.873997
24.59317 -15.913232 -26.873993
24.59317 -17.359884 -26.874001
24.59317 -18.806543 -26.873997
24.59317 -20.253204 -26.873995
24.59317 -21.699856 -26.874002
24.59317 -23.146517 -26.874001
23.983578 -23.983576 -31.202499
24.029949 -25.443474 -30.87322
26.000801 47.668137 -27.135714
26.000801 46.223648 -27.135708
26.000801 44.77916 -27.13571
26.000801 43.334671 -27.135712
26.000801 41.890182 -27.135714
26.000801 40.44569 -27.135704
26.000801 39.001205 -27.135706
25.917088 37.435787 -27.697105
25.917088 35.995953 -27.697105
25.917088 34.556118 -27.697109
25.917088 33.116283 -27.697107
25.917088 31.676437 -27.697109
25.917088 30.236599 -27.697102
25.917088 28.796766 -27.697105
25.917088 27.356928 -27.697113
25.917088 25.917088 -27.697107
25.917088 24.477255 -27.697111
25.917088 23.037407 -27.697107
25.917088 21.597574 -27.697111
25.917088 20.157734 -27.697104
25.917088 18.717896 -27.697113
25.917088 17.278053 -27.697104
25.917088 15.838222 -27.697109
25.917088 14.39838 -27.6971
25.917088 12.958542 -27.697109
25.917088 11.518701 -27.6971
25.917088 10.078868 -27.697105
25.917088 8.6390295 -27.697115
25.917088 7.1991882 -27.697105
25.917088 5.759356 -27.697111
25.917088 4.3195086 -27.697105
25.917088 2.8796763 -27.697111
25.917088 1.4398352 -27.697102
25.917088 -3.4953728e-06 -27.697111
25.917088 -1.4398447 -27.697102
25.917088 -2.8796761 -27.697105
25.917088 -4.3195171 -27.6971
25.917088 -5.759356 -27.697107
25.917088 -7.1991887 -27.697113
25.917088 -8.6390295 -27.697104
25.917088 -10.078869 -27.697113
25.917088 -11.518709 -27.697104
25.917088 -12.958542 -27.697109
25.917088 -14.398389 -27.697104
25.917088 -15.838222 -27.697109
25.917088 -17.278063 -27.6971
25.917088 -18.717896 -27.697105
25.917088 -20.157742 -27.6971
25.917088 -21.597574 -27.697105
26.039827 -23.146517 -26.874001
25.394375 -23.983576 -31.202499
25.443478 -25.443474 -30.87322
27.44529 47.668137 -27.135714
27.44529 46.223648 -27.135708
27.44529 44.77916 -27.13571
27.44529 43.334671 -27.135712
27.44529 41.890182 -27.135714
27.44529 40.44569 -27.135704
27.44529 39.001205 -27.135706
27.356926 37.435787 -27.697105
27.356926 35.995953 -27.697105
27.558325 34.810516 -26.417574
27.558325 33.360077 -26.417578
27.558325 31.909643 -26.417582
27.558325 30.459194 -26.417572
27.558325 29.008762 -26.417574
27.558325 27.558323 -26.417582
27.558325 26.107887 -26.417582
27.558325 24.657448 -26.41757
27.558325 23.207006 -26.417574
27.558325 21.756575 -26.417576
27.558325 20.306135 -26.417583
27.558325 18.855694 -26.41757
27.558325 17.405254 -26.417576
27.558325 15.954821 -26.417578
27.558325 14.50438 -26.417583
27.558325 13.053939 -26.41757
27.558325 11.603499 -26.417576
27.558325 10.153067 -26.417578
27.558325 8.7026329 -26.41758
27.558325 7.2521853 -26.417572
27.558325 5.8017521 -26.417572
27.558325 4.3513117 -26.417578
27.558325 2.9008791 -26.417582
27.558325 1.4504316 -26.417572
27.558325 -2.1208211e-06 -26.417574
27.558325 -1.4504423 -26.41758
27.558325 -2.9008741 -26.417582
27.558325 -4.351315 -26.41757
27.558325 -5.8017564 -26.417576
27.558325 -7.2521892 -26.417576
27.558325 -8.70263 -26.417582
27.558325 -10.153071 -26.41757
27.558325 -11.60351 -26.417576
27.558325 -13.053944 -26.417578
27.558325 -14.504383 -26.417582
27.558325 -15.954824 -26.41757
27.558325 -17.405266 -26.417578
27.558325 -18.855698 -26.417578
27.38858 -20.181061 -27.495995
27.356926 -21.597574 -27.697105
27.486483 -23.146517 -26.874001
26.805174 -23.983576 -31.202499
26.857004 -25.443474 -30.87322
28.88978 47.668137 -27.135714
28.88978 46.223648 -27.135708
28.88978 44.77916 -27.13571
28.88978 43.334671 -27.135712
28.88978 41.890182 -27.135714
28.88978 40.44569 -27.135704
28.88978 39.001205 -27.135706
28.796764 37.435787 -27.697105
28.796764 35.995953 -27.697105
29.008764 34.810516 -26.417574
29.008764 33.360077 -26.417578
29.008764 31.909643 -26.417582
29.008764 30.459194 -26.417572
29.008764 29.008762 -26.417574
29.008764 27.558323 -26.417582
29.008764 26.107887 -26.417582
29.008764 24.657448 -26.41757
29.008764 23.207006 -26.417574
29.008764 21.756575 -26.417576
29.008764 20.306135 -26.417583
29.008764 18.855694 -26.41757
29.008764 17.405254 -26.417576
29.008764 15.954821 -26.417578
29.008764 14.50438 -26.417583
29.008764 13.053939 -26.41757
29.008764 11.603499 -26.417576
29.008764 10.153067 -26.417578
29.008764 8.7026329 -26.41758
29.008764 7.2521853 -26.417572
29.008764 5.8017521 -26.417572
29.008764 4.3513117 -26.417578
29.008764 2.9008791 -26.417582
29.008764 1.4504316 -26.417572
29.008764 -2.1208211e-06 -26.417574
29.008764 -1.4504423 -26.41758
29.008764 -2.9008741 -26.417582
29.008764 -4.351315 -26.41757
29.008764 -5.8017564 -26.417576
29.008764 -7.2521892 -26.417576
29.008764 -8.70263 -26.417582
29.008764 -10.153071 -26.41757
29.008764 -11.60351 -26.417576
29.008764 -13.053944 -26.417578
29.008764 -14.504383 -26.417582
29.008764 -15.954824 -26.41757
29.008764 -17.405266 -26.417578
29.008764 -18.855698 -26.417578
28.830086 -20.181061 -27.495995
28.796764 -21.597574 -27.697105
28.933142 -23.146517 -26.874001
28.215973 -23.983576 -31.202499
28.270529 -25.443474 -30.87322
30.334269 47.668137 -27.135714
30.334269 46.223648 -27.135708
30.334269 44.77916 -27.13571
30.334269 43.334671 -27.135712
30.334269 41.890182 -27.135714
30.334269 40.44569 -27.135704
30.334269 39.001205 -27.135706
30.236603 37.435787 -27.697105
30.236603 35.995953 -27.697105
30.459202 34.810516 -26.417574
30.459202 33.360077 -26.417578
30.459202 31.909643 -26.417582
30.459202 30.459194 -26.417572
30.459202 29.008762 -26.417574
30.459202 27.558323 -26.417582
30.459202 26.107887 -26.417582
30.459202 24.657448 -26.41757
30.459202 23.207006 -26.417574
30.459202 21.756575 -26.417576
30.459202 20.306135 -26.417583
30.459202 18.855694 -26.41757
30.459202 17.405254 -26.417576
30.459202 15.954821 -26.417578
30.459202 14.50438 -26.417583
30.459202 13.053939 -26.41757
30.459202 11.603499 -26.417576
30.459202 10.153067 -26.417578
30.459202 8.7026329 -26.41758
30.459202 7.2521853 -26.417572
30.459202 5.8017521 -26.417572
30.459202 4.3513117 -26.417578
30.459202 2.9008791 -26.417582
30.459202 1.4504316 -26.417572
30.459202 -2.1208211e-06 -26.417574
30.459202 -1.4504423 -26.41758
30.459202 -2.9008741 -26.417582
30.459202 -4.351315 -26.41757
30.459202 -5.8017564 -26.417576
30.459202 -7.2521892 -26.417576
30.459202 -8.70263 -26.417582
30.459202 -10.153071 -26.41757
30.459202 -11.60351 -26.417576
30.459202 -13.053944 -26.417578
30.459202 -14.504383 -26.417582
30.459202 -15.954824 -26.41757
30.459202 -17.405266 -26.417578
30.459202 -18.855698 -26.417578
30.271589 -20.181061 -27.495995
30.236603 -21.597574 -27.697105
30.379799 -23.146517 -26.874001
29.62677 -23.983576 -31.202499
29.684055 -25.443474 -30.87322
31.778757 47.668137 -27.135714
31.778757 46.223648 -27.135708
31.778757 44.77916 -27.13571
31.778757 43.334671 -27.135712
31.778757 41.890182 -27.135714
31.778757 40.44569 -27.135704
31.778757 39.001205 -27.135706
31.676441 37.435787 -27.697105
31.676441 35.995953 -27.697105
31.909641 34.810516 -26.417574
31.909641 33.360077 -26.417578
31.909641 31.909643 -26.417582
31.909641 30.459194 -26.417572
31.909641 29.008762 -26.417574
31.909641 27.558323 -26.417582
31.909641 26.107887 -26.417582
31.909641 24.657448 -26.41757
31.909641 23.207006 -26.417574
31.909641 21.756575 -26.417576
31.909641 20.306135 -26.417583
31.909641 18.855694 -26.41757
31.909641 17.405254 -26.417576
31.909641 15.954821 -26.417578
31.909641 14.50438 -26.417583
31.909641 13.053939 -26.41757
31.909641 11.603499 -26.417576
31.909641 10.153067 -26.417578
31.909641 8.7026329 -26.41758
31.909641 7.2521853 -26.417572
31.909641 5.8017521 -26.417572
31.909641 4.3513117 -26.417578
31.909641 2.9008791 -26.417582
31.909641 1.4504316 -26.417572
31.909641 -2.1208211e-06 -26.417574
31.909641 -1.4504423 -26.41758
31.909641 -2.9008741 -26.417582
31.909641 -4.351315 -26.41757
31.909641 -5.8017564 -26.417576
31.909641 -7.2521892 -26.417576
31.909641 -8.70263 -26.417582
31.909641 -10.153071 -26.41757
31.78816 -11.559334 -27.084114
31.72583 -12.978753 -27.426113
31.72583 -14.420836 -27.426105
31.909641 -15.954824 -26.41757
31.909641 -17.405266 -26.417578
31.909641 -18.855698 -26.417578
31.713095 -20.181061 -27.495995
31.676441 -21.597574 -27.697105
31.826454 -23.146517 -26.874001
31.037571 -23.983576 -31.202499
31.097582 -25.443474 -30.87322
33.223248 47.668137 -27.135714
33.223248 46.223648 -27.135708
33.223248 44.77916 -27.13571
33.223248 43.334671 -27.135712
33.223248 41.890182 -27.135714
33.223248 40.44569 -27.135704
33.223248 39.001205 -27.135706
33.11628 37.435787 -27.697105
33.11628 35.995953 -27.697105
33.360081 34.810516 -26.417574
33.360081 33.360077 -26.417578
33.360081 31.909643 -26.417582
33.360081 30.459194 -26.417572
33.360081 29.008762 -26.417574
33.360081 27.558323 -26.417582
33.360081 26.107887 -26.417582
33.360081 24.657448 -26.41757
33.360081 23.207006 -26.417574
33.360081 21.756575 -26.417576
33.360081 20.306135 -26.417583
33.360081 18.855694 -26.41757
33.360081 17.405254 -26.417576
33.360081 15.954821 -26.417578
33.360081 14.50438 -26.417583
33.360081 13.053939 -26.41757
33.360081 11.603499 -26.417576
33.360081 10.153067 -26.417578
33.360081 8.7026329 -26.41758
33.360081 7.2521853 -26.417572
33.360081 5.8017521 -26.417572
33.360081 4.3513117 -26.417578
33.360081 2.9008791 -26.417582
33.360081 1.4504316 -26.417572
33.360081 -2.1208211e-06 -26.417574
33.360081 -1.4504423 -26.41758
33.360081 -2.9008741 -26.417582
33.360081 -4.351315 -26.41757
33.360081 -5.8017564 -26.417576
33.360081 -7.2521892 -26.417576
33.360081 -8.70263 -26.417582
33.360081 -10.153071 -26.41757
33.167915 -11.536662 -27.426119
33.237404 -13.005945 -27.061407
33.157471 -14.416294 -27.480928
33.360081 -15.954824 -26.41757
33.360081 -17.405266 -26.417578
33.360081 -18.855698 -26.417578
33.154598 -20.181061 -27.495995
33.11628 -21.597574 -27.697105
33.273113 -23.146517 -26.874001
32.448368 -23.983576 -31.202499
32.511108 -25.443474 -30.87322
34.667736 47.668137 -27.135714
34.667736 46.223648 -27.135708
34.667736 44.77916 -27.13571
34.667736 43.334671 -27.135712
34.667736 41.890182 -27.135714
34.667736 40.44569 -27.135704
34.667736 39.001205 -27.135706
34.556118 37.435787 -27.697105
34.556118 35.995953 -27.697105
34.81052 34.810516 -26.417574
34.81052 33.360077 -26.417578
34.81052 31.909643 -26.417582
34.81052 30.459194 -26.417572
34.81052 29.008762 -26.417574
34.81052 27.558323 -26.417582
34.81052 26.107887 -26.417582
34.81052 24.657448 -26.41757
34.81052 23.207006 -26.417574
34.81052 21.756575 -26.417576
34.81052 20.306135 -26.417583
34.81052 18.855694 -26.41757
34.81052 17.405254 -26.417576
34.81052 15.954821 -26.417578
34.81052 14.50438 -26.417583
34.81052 13.053939 -26.41757
34.81052 11.603499 -26.417576
34.81052 10.153067 -26.417578
34.81052 8.7026329 -26.41758
34.81052 7.2521853 -26.417572
34.81052 5.8017521 -26.417572
34.81052 4.3513117 -26.417578
34.81052 2.9008791 -26.417582
34.81052 1.4504316 -26.417572
34.81052 -2.1208211e-06 -26.417574
34.81052 -1.4504423 -26.41758
34.81052 -2.9008741 -26.417582
34.81052 -4.351315 -26.41757
34.81052 -5.8017564 -26.417576
34.81052 -7.2521892 -26.417576
34.81052 -8.70263 -26.417582
34.81052 -10.153071 -26.41757
34.609997 -11.536662 -27.426119
34.682507 -13.005945 -27.061407
34.599102 -14.416294 -27.480928
34.81052 -15.954824 -26.41757
34.81052 -17.405266 -26.417578
34.81052 -18.855698 -26.417578
34.596104 -20.181061 -27.495995
34.556118 -21.597574 -27.697105
34.719769 -23.146517 -26.874001
33.859165 -23.983576 -31.202499
33.924637 -25.443474 -30.87322
36.112225 47.668137 -27.135714
36.112225 46.223648 -27.135708
36.112225 44.77916 -27.13571
36.112225 43.334671 -27.135712
36.112225 41.890182 -27.135714
36.112225 40.44569 -27.135704
36.112225 39.001205 -27.135706
35.995953 37.435787 -27.697105
35.995953 35.995953 -27.697105
36.260956 34.810516 -26.417574
36.260956 33.360077 -26.417578
36.260956 31.909643 -26.417582
36.260956 30.459194 -26.417572
36.260956 29.008762 -26.417574
36.260956 27.558323 -26.417582
36.260956 26.107887 -26.417582
36.260956 24.657448 -26.41757
36.260956 23.207006 -26.417574
36.260956 21.756575 -26.417576
36.260956 20.306135 -26.417583
36.260956 18.855694 -26.41757
36.260956 17.405254 -26.417576
36.260956 15.954821 -26.417578
36.260956 14.50438 -26.417583
36.260956 13.053939 -26.41757
36.260956 11.603499 -26.417576
36.260956 10.153067 -26.417578
36.260956 8.7026329 -26.41758
36.260956 7.2521853 -26.417572
36.260956 5.8017521 -26.417572
36.260956 4.3513117 -26.417578
36.260956 2.9008791 -26.417582
36.260956 1.4504316 -26.417572
36.260956 -2.1208211e-06 -26.417574
36.260956 -1.4504423 -26.41758
36.260956 -2.9008741 -26.417582
36.260956 -4.351315 -26.41757
36.260956 -5.8017564 -26.417576
36.260956 -7.2521892 -26.417576
36.260956 -8.70263 -26.417582
36.260956 -10.153071 -26.41757
36.052078 -11.536662 -27.426119
36.040726 -12.974664 -27.480919
36.040726 -14.416294 -27.480928
36.260956 -15.954824 -26.41757
36.260956 -17.405266 -26.417578
36.260956 -18.855698 -26.417578
36.037609 -20.181061 -27.495995
35.995953 -21.597574 -27.697105
36.166428 -23.146517 -26.874001
35.269966 -23.983576 -31.202499
35.338161 -25.443474 -30.87322
37.556713 47.668137 -27.135714
37.556713 46.223648 -27.135708
37.556713 44.77916 -27.13571
37.556713 43.334671 -27.135712
37.556713 41.890182 -27.135714
37.556713 40.44569 -27.135704
37.556713 39.001205 -27.135706
37.435795 37.435787 -27.697105
37.435795 35.995953 -27.697105
37.711395 34.810516 -26.417574
37.711395 33.360077 -26.417578
37.711395 31.909643 -26.417582
37.711395 30.459194 -26.417572
37.711395 29.008762 -26.417574
37.711395 27.558323 -26.417582
37.711395 26.107887 -26.417582
37.711395 24.657448 -26.41757
37.711395 23.207006 -26.417574
37.711395 21.756575 -26.417576
37.711395 20.306135 -26.417583
37.711395 18.855694 -26.41757
37.711395 17.405254 -26.417576
37.711395 15.954821 -26.417578
37.711395 14.50438 -26.417583
37.711395 13.053939 -26.41757
37.711395 11.603499 -26.417576
37.711395 10.153067 -26.417578
37.711395 8.7026329 -26.41758
37.711395 7.2521853 -26.417572
37.711395 5.8017521 -26.417572
37.711395 4.3513117 -26.417578
37.711395 2.9008791 -26.417582
37.711395 1.4504316 -26.417572
37.711395 -2.1208211e-06 -26.417574
37.711395 -1.4504423 -26.41758
37.711395 -2.9008741 -26.417582
37.711395 -4.351315 -26.41757
37.711395 -5.8017564 -26.417576
37.711395 -7.2521892 -26.417576
37.711395 -8.70263 -26.417582
37.711395 -10.153071 -26.41757
37.711395 -11.60351 -26.417576
37.711395 -13.053944 -26.417578
37.711395 -14.504383 -26.417582
37.711395 -15.954824 -26.41757
37.711395 -17.405266 -26.417578
37.711395 -18.855698 -26.417578
37.479111 -20.181061 -27.495995
37.435795 -21.597574 -27.697105
37.613087 -23.146517 -26.874001
36.680767 -23.983576 -31.202499
36.75169 -25.443474 -30.87322
39.001202 47.668137 -27.135714
39.001202 46.223648 -27.135708
39.001202 44.77916 -27.13571
39.001202 43.334671 -27.135712
39.001202 41.890182 -27.135714
39.001202 40.44569 -27.135704
39.001202 39.001205 -27.135706
38.875633 37.435787 -27.697105
38.875633 35.995953 -27.697105
39.161831 34.810516 -26.417574
39.161831 33.360077 -26.417578
39.161831 31.909643 -26.417582
39.161831 30.459194 -26.417572
39.161831 29.008762 -26.417574
39.161831 27.558323 -26.417582
39.161831 26.107887 -26.417582
39.161831 24.657448 -26.41757
39.161831 23.207006 -26.417574
39.161831 21.756575 -26.417576
39.161831 20.306135 -26.417583
39.161831 18.855694 -26.41757
39.161831 17.405254 -26.417576
39.161831 15.954821 -26.417578
39.161831 14.50438 -26.417583
39.161831 13.053939 -26.41757
39.161831 11.603499 -26.417576
39.161831 10.153067 -26.417578
39.161831 8.7026329 -26.41758
39.161831 7.2521853 -26.417572
39.161831 5.8017521 -26.417572
39.161831 4.3513117 -26.417578
39.161831 2.9008791 -26.417582
39.161831 1.4504316 -26.417572
39.161831 -2.1208211e-06 -26.417574
39.161831 -1.4504423 -26.41758
39.161831 -2.9008741 -26.417582
39.161831 -4.351315 -26.41757
39.161831 -5.8017564 -26.417576
39.161831 -7.2521892 -26.417576
39.161831 -8.70263 -26.417582
39.161831 -10.153071 -26.41757
39.161831 -11.60351 -26.417576
39.161831 -13.053944 -26.417578
39.161831 -14.504383 -26.417582
39.161831 -15.954824 -26.41757
39.161831 -17.405266 -26.417578
39.161831 -18.855698 -26.417578
38.920612 -20.181061 -27.495995
38.875633 -21.597574 -27.697105
39.059742 -23.146517 -26.874001
38.091564 -23.983576 -31.202499
38.165215 -25.443474 -30.87322
40.44569 47.668137 -27.135714
40.44569 46.223648 -27.135708
40.44569 44.77916 -27.13571
40.44569 43.334671 -27.135712
40.44569 41.890182 -27.135714
40.44569 40.44569 -27.135704
40.44569 39.001205 -27.135706
40.315468 37.435787 -27.697105
40.315468 35.995953 -27.697105
40.61227 34.810516 -26.417574
40.61227 33.360077 -26.417578
40.61227 31.909643 -26.417582
40.61227 30.459194 -26.417572
40.61227 29.008762 -26.417574
40.61227 27.558323 -26.417582
40.61227 26.107887 -26.417582
40.61227 24.657448 -26.41757
40.61227 23.207006 -26.417574
40.61227 21.756575 -26.417576
40.61227 20.306135 -26.417583
40.61227 18.855694 -26.41757
40.61227 17.405254 -26.417576
40.61227 15.954821 -26.417578
40.61227 14.50438 -26.417583
40.61227 13.053939 -26.41757
40.61227 11.603499 -26.417576
40.61227 10.153067 -26.417578
40.61227 8.7026329 -26.41758
40.61227 7.2521853 -26.417572
40.61227 5.8017521 -26.417572
40.61227 4.3513117 -26.417578
40.61227 2.9008791 -26.417582
40.61227 1.4504316 -26.417572
40.61227 -2.1208211e-06 -26.417574
40.61227 -1.4504423 -26.41758
40.61227 -2.9008741 -26.417582
40.61227 -4.351315 -26.41757
40.61227 -5.8017564 -26.417576
40.61227 -7.2521892 -26.417576
40.61227 -8.70263 -26.417582
40.61227 -10.153071 -26.41757
40.61227 -11.60351 -26.417576
40.61227 -13.053944 -26.417578
40.61227 -14.504383 -26.417582
40.61227 -15.954824 -26.41757
40.61227 -17.405266 -26.417578
40.61227 -18.855698 -26.417578
40.362118 -20.181061 -27.495995
40.315468 -21.597574 -27.697105
40.506397 -23.146517 -26.874001
39.502361 -23.983576 -31.202499
39.578739 -25.443474 -30.87322
41.890179 47.668137 -27.135714
41.890179 46.223648 -27.135708
41.890179 44.77916 -27.13571
41.890179 43.334671 -27.135712
41.890179 41.890182 -27.135714
41.890179 40.44569 -27.135704
41.890179 39.001205 -27.135706
41.75531 37.435787 -27.697105
41.75531 35.995953 -27.697105
42.06271 34.810516 -26.417574
42.06271 33.360077 -26.417578
42.06271 31.909643 -26.417582
42.06271 30.459194 -26.417572
42.06271 29.008762 -26.417574
42.06271 27.558323 -26.417582
42.06271 26.107887 -26.417582
42.06271 24.657448 -26.41757
42.06271 23.207006 -26.417574
42.06271 21.756575 -26.417576
42.06271 20.306135 -26.417583
42.06271 18.855694 -26.41757
42.06271 17.405254 -26.417576
42.06271 15.954821 -26.417578
42.06271 14.50438 -26.417583
42.06271 13.053939 -26.41757
42.06271 11.603499 -26.417576
42.06271 10.153067 -26.417578
42.06271 8.7026329 -26.41758
42.06271 7.2521853 -26.417572
42.06271 5.8017521 -26.417572
42.06271 4.3513117 -26.417578
42.06271 2.9008791 -26.417582
42.06271 1.4504316 -26.417572
42.06271 -2.1208211e-06 -26.417574
42.06271 -1.4504423 -26.41758
42.06271 -2.9008741 -26.417582
42.06271 -4.351315 -26.41757
42.06271 -5.8017564 -26.417576
42.06271 -7.2521892 -26.417576
42.06271 -8.70263 -26.417582
42.06271 -10.153071 -26.41757
42.06271 -11.60351 -26.417576
42.06271 -13.053944 -26.417578
42.06271 -14.504383 -26.417582
42.06271 -15.954824 -26.41757
42.06271 -17.405266 -26.417578
42.06271 -18.855698 -26.417578
41.803623 -20.181061 -27.495995
41.75531 -21.597574 -27.697105
41.953056 -23.146517 -26.874001
40.913158 -23.983576 -31.202499
40.992268 -25.443474 -30.87322
43.334667 47.668137 -27.135714
43.334667 46.223648 -27.135708
43.334667 44.77916 -27.13571
43.334667 43.334671 -27.135712
43.334667 41.890182 -27.135714
43.334667 40.44569 -27.135704
43.334667 39.001205 -27.135706
43.195145 37.435787 -27.697105
43.195145 35.995953 -27.697105
43.513145 34.810516 -26.417574
43.513145 33.360077 -26.417578
43.513145 31.909643 -26.417582
43.513145 30.459194 -26.417572
43.513145 29.008762 -26.417574
43.513145 27.558323 -26.417582
43.513145 26.107887 -26.417582
43.513145 24.657448 -26.41757
43.513145 23.207006 -26.417574
43.513145 21.756575 -26.417576
43.513145 20.306135 -26.417583
43.513145 18.855694 -26.41757
43.513145 17.405254 -26.417576
43.513145 15.954821 -26.417578
43.513145 14.50438 -26.417583
43.513145 13.053939 -26.41757
43.513145 11.603499 -26.417576
43.513145 10.153067 -26.417578
43.513145 8.7026329 -26.41758
43.513145 7.2521853 -26.417572
43.513145 5.8017521 -26.417572
43.513145 4.3513117 -26.417578
43.513145 2.9008791 -26.417582
43.513145 1.4504316 -26.417572
43.513145 -2.1208211e-06 -26.417574
43.513145 -1.4504423 -26.41758
43.513145 -2.9008741 -26.417582
43.513145 -4.351315 -26.41757
43.513145 -5.8017564 -26.417576
43.513145 -7.2521892 -26.417576
43.513145 -8.70263 -26.417582
43.513145 -10.153071 -26.41757
43.513145 -11.60351 -26.417576
43.513145 -13.053944 -26.417578
43.513145 -14.504383 -26.417582
43.513145 -15.954824 -26.41757
43.513145 -17.405266 -26.417578
43.513145 -18.855698 -26.417578
43.245129 -20.181061 -27.495995
43.195145 -21.597574 -27.697105
43.399712 -23.146517 -26.874001
42.323959 -23.983576 -31.202499
42.405792 -25.443474 -30.87322
44.77916 47.668137 -27.135714
44.77916 46.223648 -27.135708
44.77916 44.77916 -27.13571
44.77916 43.334671 -27.135712
44.77916 41.890182 -27.135714
44.77916 40.44569 -27.135704
44.77916 39.001205 -27.135706
44.634983 37.435787 -27.697105
44.634983 35.995953 -27.697105
44.963585 34.810516 -26.417574
44.963585 33.360077 -26.417578
44.963585 31.909643 -26.417582
44.963585 30.459194 -26.417572
44.963585 29.008762 -26.417574
44.963585 27.558323 -26.417582
44.963585 26.107887 -26.417582
44.963585 24.657448 -26.41757
44.963585 23.207006 -26.417574
44.963585 21.756575 -26.417576
44.963585 20.306135 -26.417583
44.963585 18.855694 -26.41757
44.963585 17.405254 -26.417576
44.963585 15.954821 -26.417578
44.963585 14.50438 -26.417583
44.963585 13.053939 -26.41757
44.963585 11.603499 -26.417576
44.963585 10.153067 -26.417578
44.963585 8.7026329 -26.41758
44.963585 7.2521853 -26.417572
44.963585 5.8017521 -26.417572
44.963585 4.3513117 -26.417578
44.963585 2.9008791 -26.417582
44.963585 1.4504316 -26.417572
44.963585 -2.1208211e-06 -26.417574
44.963585 -1.4504423 -26.41758
44.963585 -2.9008741 -26.417582
44.963585 -4.351315 -26.41757
44.963585 -5.8017564 -26.417576
44.963585 -7.2521892 -26.417576
44.963585 -8.70263 -26.417582
44.963585 -10.153071 -26.41757
44.963585 -11.60351 -26.417576
44.963585 -13.053944 -26.417578
44.963585 -14.504383 -26.417582
44.963585 -15.954824 -26.41757
44.963585 -17.405266 -26.417578
44.963585 -18.855698 -26.417578
44.686634 -20.181061 -27.495995
44.634983 -21.597574 -27.697105
44.846367 -23.146517 -26.874001
43.734756 -23.983576 -31.202499
43.819321 -25.443474 -30.87322
46.223648 47.668137 -27.135714
46.223648 46.223648 -27.135708
46.223648 44.77916 -27.13571
46.223648 43.334671 -27.135712
46.223648 41.890182 -27.135714
46.223648 40.44569 -27.135704
46.223648 39.001205 -27.135706
46.074825 37.435787 -27.697105
46.074825 35.995953 -27.697105
46.414021 34.810516 -26.417574
46.414021 33.360077 -26.417578
46.414021 31.909643 -26.417582
46.414021 30.459194 -26.417572
46.414021 29.008762 -26.417574
46.414021 27.558323 -26.417582
46.414021 26.107887 -26.417582
46.414021 24.657448 -26.41757
46.414021 23.207006 -26.417574
46.414021 21.756575 -26.417576
46.414021 20.306135 -26.417583
46.414021 18.855694 -26.41757
46.414021 17.405254 -26.417576
46.414021 15.954821 -26.417578
46.414021 14.50438 -26.417583
46.414021 13.053939 -26.41757
46.414021 11.603499 -26.417576
46.414021 10.153067 -26.417578
46.414021 8.7026329 -26.41758
46.414021 7.2521853 -26.417572
46.414021 5.8017521 -26.417572
46.414021 4.3513117 -26.417578
46.414021 2.9008791 -26.417582
46.414021 1.4504316 -26.417572
46.414021 -2.1208211e-06 -26.417574
46.414021 -1.4504423 -26.41758
46.414021 -2.9008741 -26.417582
46.414021 -4.351315 -26.41757
46.414021 -5.8017564 -26.417576
46.414021 -7.2521892 -26.417576
46.414021 -8.70263 -26.417582
46.414021 -10.153071 -26.41757
46.414021 -11.60351 -26.417576
46.414021 -13.053944 -26.417578
46.414021 -14.504383 -26.417582
46.414021 -15.954824 -26.41757
46.414021 -17.405266 -26.417578
46.414021 -18.855698 -26.417578
46.128136 -20.181061 -27.495995
46.074825 -21.597574 -27.697105
46.29303 -23.146517 -26.874001
45.145557 -23.983576 -31.202499
45.232845 -25.443474 -30.87322
47.668137 47.668137 -27.135714
47.668137 46.223648 -27.135708
47.668137 44.77916 -27.13571
47.668137 43.334671 -27.135712
47.668137 41.890182 -27.135714
47.668137 40.44569 -27.135704
47.668137 39.001205 -27.135706
47.51466 37.435787 -27.697105
47.51466 35.995953 -27.697105
47.86446 34.810516 -26.417574
47.86446 33.360077 -26.417578
47.86446 31.909643 -26.417582
47.86446 30.459194 -26.417572
47.86446 29.008762 -26.417574
47.86446 27.558323 -26.417582
47.86446 26.107887 -26.417582
47.86446 24.657448 -26.41757
47.86446 23.207006 -26.417574
47.86446 21.756575 -26.417576
47.86446 20.306135 -26.417583
47.86446 18.855694 -26.41757
47.86446 17.405254 -26.417576
47.86446 15.954821 -26.417578
47.86446 14.50438 -26.417583
47.86446 13.053939 -26.41757
47.86446 11.603499 -26.417576
47.86446 10.153067 -26.417578
47.86446 8.7026329 -26.41758
47.86446 7.2521853 -26.417572
47.86446 5.8017521 -26.417572
47.86446 4.3513117 -26.417578
47.86446 2.9008791 -26.417582
47.86446 1.4504316 -26.417572
47.86446 -2.1208211e-06 -26.417574
47.86446 -1.4504423 -26.41758
47.86446 -2.9008741 -26.417582
47.86446 -4.351315 -26.41757
47.86446 -5.8017564 -26.417576
47.86446 -7.2521892 -26.417576
47.86446 -8.70263 -26.417582
47.86446 -10.153071 -26.41757
47.86446 -11.60351 -26.417576
47.86446 -13.053944 -26.417578
47.86446 -14.504383 -26.417582
47.86446 -15.954824 -26.41757
47.86446 -17.405266 -26.417578
47.86446 -18.855698 -26.417578
47.569641 -20.181061 -27.495995
47.51466 -21.597574 -27.697105
47.739685 -23.146517 -26.874001
46.556355 -23.983576 -31.202499
46.646374 -25.443474 -30.87322
49.112625 47.668137 -27.135714
49.112625 46.223648 -27.135708
49.112625 44.77916 -27.13571
49.112625 43.334671 -27.135712
49.112625 41.890182 -27.135714
49.112625 40.44569 -27.135704
49.112625 39.001205 -27.135706
48.954498 37.435787 -27.697105
48.954498 35.995953 -27.697105
49.314899 34.810516 -26.417574
49.314899 33.360077 -26.417578
49.314899 31.909643 -26.417582
49.314899 30.459194 -26.417572
49.314899 29.008762 -26.417574
49.314899 27.558323 -26.417582
49.314899 26.107887 -26.417582
49.314899 24.657448 -26.41757
49.314899 23.207006 -26.417574
49.314899 21.756575 -26.417576
49.314899 20.306135 -26.417583
49.314899 18.855694 -26.41757
49.314899 17.405254 -26.417576
49.314899 15.954821 -26.417578
49.314899 14.50438 -26.417583
49.314899 13.053939 -26.41757
49.314899 11.603499 -26.417576
49.314899 10.153067 -26.417578
49.314899 8.7026329 -26.41758
49.314899 7.2521853 -26.417572
49.314899 5.8017521 -26.417572
49.314899 4.3513117 -26.417578
49.314899 2.9008791 -26.417582
49.314899 1.4504316 -26.417572
49.314899 -2.1208211e-06 -26.417574
49.314899 -1.4504423 -26.41758
49.314899 -2.9008741 -26.417582
49.314899 -4.351315 -26.41757
49.314899 -5.8017564 -26.417576
49.314899 -7.2521892 -26.417576
49.314899 -8.70263 -26.417582
49.314899 -10.153071 -26.41757
49.314899 -11.60351 -26.417576
49.314899 -13.053944 -26.417578
49.314899 -14.504383 -26.417582
49.314899 -15.954824 -26.41757
49.314899 -17.405266 -26.417578
49.314899 -18.855698 -26.417578
49.011147 -20.181061 -27.495995
48.954498 -21.597574 -27.697105
49.18634 -23.146517 -26.874001
47.967155 -23.983576 -31.202499
48.059898 -25.443474 -30.87322
50.557114 47.668137 -27.135714
50.557114 46.223648 -27.135708
50.557114 44.77916 -27.13571
50.557114 43.334671 -27.135712
50.557114 41.890182 -27.135714
50.557114 40.44569 -27.135704
50.557114 39.001205 -27.135706
50.394341 37.435787 -27.697105
50.394341 35.995953 -27.697105
50.765335 34.810516 -26.417574
50.765335 33.360077 -26.417578
50.765335 31.909643 -26.417582
50.765335 30.459194 -26.417572
50.765335 29.008762 -26.417574
50.765335 27.558323 -26.417582
50.765335 26.107887 -26.417582
50.765335 24.657448 -26.41757
50.765335 23.207006 -26.417574
50.765335 21.756575 -26.417576
50.765335 20.306135 -26.417583
50.765335 18.855694 -26.41757
50.765335 17.405254 -26.417576
50.765335 15.954821 -26.417578
50.765335 14.50438 -26.417583
50.765335 13.053939 -26.41757
50.765335 11.603499 -26.417576
50.765335 10.153067 -26.417578
50.765335 8.7026329 -26.41758
50.765335 7.2521853 -26.417572
50.765335 5.8017521 -26.417572
50.765335 4.3513117 -26.417578
50.765335 2.9008791 -26.417582
50.765335 1.4504316 -26.417572
50.765335 -2.1208211e-06 -26.417574
50.765335 -1.4504423 -26.41758
50.765335 -2.9008741 -26.417582
50.765335 -4.351315 -26.41757
50.765335 -5.8017564 -26.417576
50.765335 -7.2521892 -26.417576
50.765335 -8.70263 -26.417582
50.765335 -10.153071 -26.41757
50.765335 -11.60351 -26.417576
50.765335 -13.053944 -26.417578
50.765335 -14.504383 -26.417582
50.765335 -15.954824 -26.41757
50.765335 -17.405266 -26.417578
50.765335 -18.855698 -26.417578
50.452652 -20.181061 -27.495995
50.394341 -21.597574 -27.697105
50.632999 -23.146517 -26.874001
49.377953 -23.983576 -31.202499
49.473427 -25.443474 -30.87322
52.001602 47.668137 -27.135714
52.001602 46.223648 -27.135708
52.001602 44.77916 -27.13571
52.001602 43.334671 -27.135712
52.001602 41.890182 -27.135714
52.001602 40.44569 -27.135704
52.001602 39.001205 -27.135706
51.834175 37.435787 -27.697105
51.834175 35.995953 -27.697105
52.215775 34.810516 -26.417574
52.215775 33.360077 -26.417578
52.215775 31.909643 -26.417582
52.215775 30.459194 -26.417572
52.215775 29.008762 -26.417574
52.215775 27.558323 -26.417582
52.215775 26.107887 -26.417582
52.215775 24.657448 -26.41757
52.215775 23.207006 -26.417574
52.215775 21.756575 -26.417576
52.215775 20.306135 -26.417583
52.215775 18.855694 -26.41757
52.215775 17.405254 -26.417576
52.215775 15.954821 -26.417578
52.215775 14.50438 -26.417583
52.215775 13.053939 -26.41757
52.215775 11.603499 -26.417576
52.215775 10.153067 -26.417578
52.215775 8.7026329 -26.41758
52.215775 7.2521853 -26.417572
52.215775 5.8017521 -26.417572
52.215775 4.3513117 -26.417578
52.215775 2.9008791 -26.417582
52.215775 1.4504316 -26.417572
52.215775 -2.1208211e-06 -26.417574
52.215775 -1.4504423 -26.41758
52.215775 -2.9008741 -26.417582
52.215775 -4.351315 -26.41757
52.215775 -5.8017564 -26.417576
52.215775 -7.2521892 -26.417576
52.215775 -8.70263 -26.417582
52.215775 -10.153071 -26.41757
52.215775 -11.60351 -26.417576
52.215775 -13.053944 -26.417578
52.215775 -14.504383 -26.417582
52.215775 -15.954824 -26.41757
52.215775 -17.405266 -26.417578
52.215775 -18.855698 -26.417578
51.894157 -20.181061 -27.495995
51.834175 -21.597574 -27.697105
52.079655 -23.146517 -26.874001
50.78875 -23.983576 -31.202499
50.886955 -25.443474 -30.87322
53.446091 47.668137 -27.135714
53.446091 46.223648 -27.135708
53.446091 44.77916 -27.13571
53.446091 43.334671 -27.135712
53.446091 41.890182 -27.135714
53.446091 40.44569 -27.135704
53.446091 39.001205 -27.135706
53.274014 37.435787 -27.697105
53.274014 35.995953 -27.697105
53.66621 34.810516 -26.417574
53.66621 33.360077 -26.417578
53.66621 31.909643 -26.417582
53.66621 30.459194 -26.417572
53.66621 29.008762 -26.417574
53.66621 27.558323 -26.417582
53.66621 26.107887 -26.417582
53.66621 24.657448 -26.41757
53.66621 23.207006 -26.417574
53.66621 21.756575 -26.417576
53.66621 20.306135 -26.417583
53.66621 18.855694 -26.41757
53.66621 17.405254 -26.417576
53.66621 15.954821 -26.417578
53.66621 14.50438 -26.417583
53.66621 13.053939 -26.41757
53.66621 11.603499 -26.417576
53.66621 10.153067 -26.417578
53.66621 8.7026329 -26.41758
53.66621 7.2521853 -26.417572
53.66621 5.8017521 -26.417572
53.66621 4.3513117 -26.417578
53.66621 2.9008791 -26.417582
53.66621 1.4504316 -26.417572
53.66621 -2.1208211e-06 -26.417574
53.66621 -1.4504423 -26.41758
53.66621 -2.9008741 -26.417582
53.66621 -4.351315 -26.41757
53.66621 -5.8017564 -26.417576
53.66621 -7.2521892 -26.417576
53.66621 -8.70263 -26.417582
53.66621 -10.153071 -26.41757
53.66621 -11.60351 -26.417576
53.66621 -13.053944 -26.417578
53.66621 -14.504383 -26.417582
53.66621 -15.954824 -26.41757
53.66621 -17.405266 -26.417578
53.66621 -18.855698 -26.417578
53.335655 -20.181061 -27.495995
53.274014 -21.597574 -27.697105
53.52631 -23.146517 -26.874001
52.199547 -23.983576 -31.202499
52.30048 -25.443474 -30.87322
54.890579 47.668137 -27.135714
54.890579 46.223648 -27.135708
54.890579 44.77916 -27.13571
54.890579 43.334671 -27.135712
54.890579 41.890182 -27.135714
54.890579 40.44569 -27.135704
54.890579 39.001205 -27.135706
54.713852 37.435787 -27.697105
54.713852 35.995953 -27.697105
55.11665 34.810516 -26.417574
55.11665 33.360077 -26.417578
55.11665 31.909643 -26.417582
55.11665 30.459194 -26.417572
55.11665 29.008762 -26.417574
55.11665 27.558323 -26.417582
55.11665 26.107887 -26.417582
55.11665 24.657448 -26.41757
55.11665 23.207006 -26.417574
55.11665 21.756575 -26.417576
55.11665 20.306135 -26.417583
55.11665 18.855694 -26.41757
55.11665 17.405254 -26.417576
55.11665 15.954821 -26.417578
55.11665 14.50438 -26.417583
55.11665 13.053939 -26.41757
55.11665 11.603499 -26.417576
55.11665 10.153067 -26.417578
55.11665 8.7026329 -26.41758
55.11665 7.2521853 -26.417572
55.11665 5.8017521 -26.417572
55.11665 4.3513117 -26.417578
55.11665 2.9008791 -26.417582
55.11665 1.4504316 -26.417572
55.11665 -2.1208211e-06 -26.417574
55.11665 -1.4504423 -26.41758
55.11665 -2.9008741 -26.417582
55.11665 -4.351315 -26.41757
55.11665 -5.8017564 -26.417576
55.11665 -7.2521892 -26.417576
55.11665 -8.70263 -26.417582
55.11665 -10.153071 -26.41757
55.11665 -11.60351 -26.417576
55.11665 -13.053944 -26.417578
55.11665 -14.504383 -26.417582
55.11665 -15.954824 -26.41757
55.11665 -17.405266 -26.417578
55.11665 -18.855698 -26.417578
54.777161 -20.181061 -27.495995
54.713852 -21.597574 -27.697105
54.972965 -23.146517 -26.874001
53.610348 -23.983576 -31.202499
53.714008 -25.443474 -30.87322
56.335068 47.668137 -27.135714
