# .PCD v0.7 - Point Cloud Data file format
VERSION 0.7
FIELDS x y z
SIZE 4 4 4
TYPE F F F
COUNT 1 1 1
WIDTH 1398
HEIGHT 1
VIEWPOINT 0 0 0 1 0 0 0
POINTS 1398
DATA ascii
-528.37189 295.88834 -570.42133
-528.40033 285.33618 -570.35278
-528.42871 274.78293 -570.28424
-528.45538 264.22775 -570.21967
-528.48218 253.67143 -570.15515
-528.50885 243.11411 -570.0907
-528.53558 232.55571 -570.02606
-528.56403 221.9969 -569.95758
-528.59076 211.43629 -569.89294
-528.61749 200.87468 -569.82849
-528.64423 190.31195 -569.76398
-528.67096 179.74814 -569.69934
-528.69769 169.18326 -569.63477
-528.72443 158.61737 -569.57019
-528.75287 148.05081 -569.50153
-528.7796 137.48274 -569.43695
-528.8064 126.91353 -569.37238
-528.83313 116.34332 -569.30774
-528.85992 105.77202 -569.24316
-528.88666 95.199608 -569.17853
-528.91345 84.626175 -569.11389
-528.94189 74.05188 -569.04523
-528.96869 63.476246 -568.98059
-528.99548 52.899525 -568.91595
-529.02222 42.321808 -568.85132
-529.04901 31.742962 -568.78668
-529.07581 21.163008 -568.72198
-529.1026 10.58208 -568.65735
-518.29114 3.6716032e-05 -594.75842
-518.32812 -10.36655 -594.66925
-518.36505 -20.73461 -594.57996
-518.40204 -31.104143 -594.49078
-518.44061 -41.47525 -594.39764
-518.47754 -51.847729 -594.30835
-520.89081 287.02148 -562.81818
-520.91895 276.40598 -562.7489
-520.94714 265.78931 -562.67944
-520.97528 255.17159 -562.61011
-521.00177 244.55188 -562.5448
-521.02826 233.93112 -562.47955
-521.05481 223.30922 -562.41425
-521.08295 212.68692 -562.34485
-521.10944 202.06288 -562.27948
-521.13599 191.4377 -562.21417
-521.16248 180.81149 -562.14886
-521.18903 170.1842 -562.08356
-521.21558 159.55579 -562.01819
-521.24207 148.92635 -561.95276
-521.27026 138.2962 -561.88342
-521.29681 127.66454 -561.81799
-521.3233 117.03178 -561.75269
-521.34991 106.39794 -561.68726
-521.3764 95.763016 -561.62189
-521.40295 85.127045 -561.55646
-521.4295 74.489967 -561.49109
-521.4577 63.851978 -561.42157
-521.48425 53.212662 -561.3562
-521.5108 42.572315 -561.29077
-521.53741 31.930861 -561.22534
-521.5639 21.288338 -561.15991
-521.59052 10.644688 -561.09442
-507.92532 3.6716032e-05 -594.75842
-507.96155 -10.36655 -594.66925
-507.99774 -20.73461 -594.57996
-508.03397 -31.104143 -594.49078
-508.07178 -41.47525 -594.39764
-508.108 -51.847729 -594.30835
-513.29205 288.72681 -555.19409
-513.31995 278.04834 -555.1239
-513.3479 267.36874 -555.05371
-513.37579 256.68793 -554.98352
-513.40369 246.00597 -554.91339
-513.43164 235.32289 -554.84314
-513.45789 224.63789 -554.7771
-513.48419 213.95178 -554.711
-513.51208 203.26523 -554.64075
-513.53839 192.57692 -554.57465
-513.5647 181.88754 -554.50854
-513.59094 171.19699 -554.44238
-513.61725 160.50542 -554.37628
-513.64355 149.81271 -554.31018
-513.67151 139.11938 -554.23987
-513.69781 128.42447 -554.17371
-513.72412 117.72849 -554.1076
-513.75043 107.03136 -554.04144
-513.77673 96.33316 -553.97522
-513.80304 85.633835 -553.90906
-513.82935 74.933464 -553.8429
-513.8573 64.232193 -553.77258
-513.88367 53.529575 -553.70642
-513.90997 42.825851 -553.64014
-513.93628 32.121086 -553.57397
-513.96265 21.415167 -553.50775
-513.98895 10.708153 -553.44153
-497.55948 3.6716032e-05 -594.75842
-497.59494 -10.36655 -594.66925
-497.63043 -20.73461 -594.57996
-497.66592 -31.104143 -594.49078
-497.70297 -41.47525 -594.39764
-497.73846 -51.847729 -594.30835
-505.60083 290.45157 -547.48303
-505.62851 279.70938 -547.41199
-505.65616 268.96606 -547.341
-505.68381 258.22153 -547.27002
-505.71149 247.47589 -547.19897
-505.73911 236.72896 -547.12787
-505.76678 225.98096 -547.05682
-505.79446 215.23169 -546.98578
-505.82214 204.48132 -546.91473
-505.84982 193.72974 -546.84363
-505.87585 182.97638 -546.77673
-505.90192 172.22197 -546.70978
-505.92798 161.4664 -546.64282
-505.95401 150.70976 -546.57599
-505.98007 139.952 -546.50903
-506.00781 129.1935 -546.43793
-506.03387 118.4335 -546.37091
-506.05994 107.67238 -546.30402
-506.086 96.91011 -546.23706
-506.11206 86.146767 -546.17004
-506.13815 75.382309 -546.10309
-506.16422 64.616768 -546.03613
-506.19193 53.850235 -545.96497
-506.21805 43.08239 -545.89795
-506.24411 32.313484 -545.83093
-506.2702 21.543407 -545.76398
-506.2963 10.77227 -545.6969
-487.19366 3.6716032e-05 -594.75842
-487.22839 -10.36655 -594.66925
-487.26312 -20.73461 -594.57996
-487.29788 -31.104143 -594.49078
-487.33417 -41.47525 -594.39764
-487.3689 -51.847729 -594.30835
-497.81882 292.198 -539.67511
-497.84619 281.39139 -539.60321
-497.8736 270.58353 -539.53131
-497.901 259.77444 -539.45941
-497.92838 248.96425 -539.38751
-497.95581 238.1528 -539.31561
-497.98318 227.34015 -539.24371
-498.01059 216.52637 -539.17181
-498.03802 205.71138 -539.09985
-498.06543 194.89522 -539.02789
-498.09283 184.0778 -538.95599
-498.12027 173.25928 -538.88403
-498.14609 162.439 -538.81635
-498.17188 151.6176 -538.7486
-498.19769 140.79501 -538.68085
-498.22351 129.97142 -538.61316
-498.25095 119.14705 -538.54114
-498.27679 108.32104 -538.47333
-498.30261 97.494003 -538.40558
-498.32843 86.665817 -538.33777
-498.35428 75.836555 -538.27002
-498.3801 65.006081 -538.20221
-498.40594 54.174557 -538.13446
-498.43338 43.342041 -538.06238
-498.4592 32.508244 -537.99463
-498.48505 21.6733 -537.92676
-498.51089 10.837215 -537.85889
-476.82785 3.6716032e-05 -594.75842
-476.86185 -10.36655 -594.66925
-476.89587 -20.73461 -594.57996
-476.92984 -31.104143 -594.49078
-476.96533 -41.47525 -594.39764
-476.99936 -51.847729 -594.30835
-489.94263 293.96561 -531.77271
-489.96976 283.09366 -531.69995
-489.99689 272.22049 -531.62714
-490.02399 261.34619 -531.55444
-490.05112 250.47058 -531.48163
-490.07828 239.59381 -531.40887
-490.10538 228.71587 -531.33612
-490.13251 217.83669 -531.26331
-490.15967 206.95633 -531.19043
-490.1868 196.07474 -531.11761
-490.21396 185.19197 -531.04486
-490.24112 174.30798 -530.97205
-490.26825 163.42274 -530.89917
-490.29544 152.53638 -530.82635
-490.32098 141.6483 -530.75775
-490.34656 130.75911 -530.68915
-490.37369 119.86913 -530.61633
-490.39926 108.97766 -530.54773
-490.42487 98.085014 -530.47913
-490.45041 87.191177 -530.41052
-490.47598 76.296242 -530.34192
-490.50159 65.400223 -530.27338
-490.52713 54.503063 -530.20471
-490.55432 43.604874 -530.13177
-490.57993 32.705372 -530.06317
-490.60553 21.804663 -529.99451
-490.6311 10.90292 -529.92578
-466.46201 3.6716032e-05 -594.75842
-466.49527 -10.36655 -594.66925
-466.52856 -20.73461 -594.57996
-466.56183 -31.104143 -594.49078
-466.59653 -41.47525 -594.39764
-466.62979 -51.847729 -594.30835
-481.96899 295.75372 -523.77838
-481.99585 284.81573 -523.70477
-482.02267 273.87653 -523.6311
-482.0495 262.93616 -523.55743
-482.07635 251.99452 -523.48376
-482.10321 241.05162 -523.41016
-482.13007 230.10757 -523.33643
-482.15692 219.16226 -523.26282
-482.18381 208.21577 -523.18909
-482.21066 197.26802 -523.11536
-482.23752 186.31906 -523.04169
-482.2644 175.36893 -522.96796
-482.29126 164.41748 -522.89429
-482.31815 153.4649 -522.8205
-482.34503 142.51105 -522.7467
-482.37189 131.55598 -522.67297
-482.39877 120.59969 -522.59924
-482.42566 109.64223 -522.52551
-482.45099 98.683144 -522.45605
-482.47629 87.722977 -522.38666
-482.50162 76.761665 -522.3172
-482.52692 65.799126 -522.24774
-482.55228 54.835522 -522.17822
-482.57758 43.870678 -522.10876
-482.60446 32.904869 -522.03503
-482.62982 21.937729 -521.96552
-482.65512 10.969466 -521.896
-456.09619 3.6716032e-05 -594.75842
-456.12872 -10.36655 -594.66925
-456.16125 -20.73461 -594.57996
-456.19376 -31.104143 -594.49078
-456.22772 -41.47525 -594.39764
-456.26025 -51.847729 -594.30835
-473.92587 286.55984 -515.60736
-473.95245 275.55374 -515.53278
-473.97897 264.54645 -515.45819
-474.00555 253.53784 -515.38361
-474.0321 242.52803 -515.30908
-474.05869 231.51704 -515.2345
-474.08524 220.50481 -515.15997
-474.11182 209.49126 -515.08533
-474.13843 198.47658 -515.0108
-474.16498 187.46065 -514.9361
-474.19156 176.44339 -514.86151
-474.21814 165.42496 -514.78687
-474.24475 154.40532 -514.71222
-474.27133 143.38441 -514.63757
-474.29791 132.36226 -514.56293
-474.32452 121.33889 -514.48822
-474.35114 110.31427 -514.41357
-474.37772 99.288383 -514.33893
-474.40433 88.261322 -514.26422
-474.42935 77.232704 -514.19391
-474.45441 66.202988 -514.12366
-474.47949 55.172009 -514.05328
-474.50452 44.139969 -513.98297
-474.52957 33.106716 -513.9126
-474.55621 22.072407 -513.83795
-474.58127 11.036767 -513.76752
-445.73038 3.6716032e-05 -594.75842
-445.76218 -10.36655 -594.66925
-445.79395 -20.73461 -594.57996
-445.82574 -31.104143 -594.49078
-445.85889 -41.47525 -594.39764
-445.89069 -51.847729 -594.30835
-465.75647 288.32547 -507.41016
-465.78275 277.25165 -507.33469
-465.80899 266.17661 -507.25919
-465.83527 255.1003 -507.18365
-465.86151 244.02277 -507.10822
-465.88779 232.94392 -507.03268
-465.91406 221.86385 -506.95721
-465.94037 210.78256 -506.88168
-465.96664 199.70001 -506.80615
-465.99292 188.61618 -506.73065
-466.0192 177.53116 -506.65506
-466.04547 166.44487 -506.5795
-466.07175 155.35724 -506.50394
-466.09808 144.26849 -506.42838
-466.12436 133.17841 -506.35278
-466.15067 122.08706 -506.27719
-466.17694 110.99451 -506.2016
-466.20328 99.900711 -506.12601
-466.22958 88.805603 -506.05038
-466.25589 77.709373 -505.97482
-466.2822 66.611732 -505.89914
-466.30698 55.512722 -505.82794
-466.33176 44.41256 -505.75681
-466.35654 33.31123 -505.68555
-466.38132 22.208673 -505.61435
-466.40762 11.10496 -505.53867
-435.36456 3.6716032e-05 -594.75842
-435.3956 -10.36655 -594.66925
-435.42664 -20.73461 -594.57996
-435.4577 -31.104143 -594.49078
-435.49008 -41.47525 -594.39764
-435.52118 -51.847729 -594.30835
-457.48428 290.11203 -499.11581
-457.51019 278.96964 -499.0394
-457.53616 267.82608 -498.96295
-457.5621 256.68121 -498.88657
-457.58807 245.5351 -498.81006
-457.61404 234.38768 -498.73367
-457.64001 223.23906 -498.65723
-457.66599 212.08917 -498.58075
-457.69196 200.93796 -498.50433
-457.71793 189.78549 -498.42783
-457.74393 178.63177 -498.35129
-457.76987 167.47682 -498.27484
-457.79587 156.32057 -498.1983
-457.82187 145.16306 -498.1218
-457.84784 134.0043 -498.04532
-457.87384 122.84425 -497.96878
-457.89984 111.68295 -497.89227
-457.92584 100.52034 -497.8157
-457.95181 89.356483 -497.73917
-457.97784 78.191338 -497.66257
-458.00385 67.024948 -497.586
-458.02988 55.8573 -497.50943
-458.05588 44.688412 -497.4328
-458.08191 33.518211 -497.3562
-458.10638 22.346678 -497.28415
-458.13242 11.174005 -497.20752
-424.99872 3.6716032e-05 -594.75842
-425.02902 -10.36655 -594.66925
-425.05936 -20.73461 -594.57996
-425.08966 -31.104143 -594.49078
-425.12128 -41.47525 -594.39764
-425.15161 -51.847729 -594.30835
-414.63293 3.6716032e-05 -594.75842
-414.66248 -10.36655 -594.66925
-414.69205 -20.73461 -594.57996
-414.72162 -31.104143 -594.49078
-414.7525 -41.47525 -594.39764
-414.78207 -51.847729 -594.30835
-404.26709 3.6716032e-05 -594.75842
-404.2959 -10.36655 -594.66925
-404.32474 -20.73461 -594.57996
-404.35355 -31.104143 -594.49078
-404.38367 -41.47525 -594.39764
-404.41251 -51.847729 -594.30835
-393.90128 3.6716032e-05 -594.75842
-393.92935 -10.36655 -594.66925
-393.95743 -20.73461 -594.57996
-393.98553 -31.104143 -594.49078
-394.01486 -41.47525 -594.39764
-394.04294 -51.847729 -594.30835
-383.53543 3.6716032e-05 -594.75842
-383.56281 -10.36655 -594.66925
-383.59015 -20.73461 -594.57996
-383.61749 -31.104143 -594.49078
-383.64606 -41.47525 -594.39764
-383.6734 -51.847729 -594.30835
-373.16959 3.6716032e-05 -594.75842
-373.19623 -10.36655 -594.66925
-373.22284 -20.73461 -594.57996
-373.24945 -31.104143 -594.49078
-373.27722 -41.47525 -594.39764
-373.30383 -51.847729 -594.30835
-362.8038 3.6716032e-05 -594.75842
-362.82965 -10.36655 -594.66925
-362.85553 -20.73461 -594.57996
-362.88141 -31.104143 -594.49078
-362.90842 -41.47525 -594.39764
-362.9343 -51.847729 -594.30835
-352.43796 3.6716032e-05 -594.75842
-352.4631 -10.36655 -594.66925
-352.48822 -20.73461 -594.57996
-352.51337 -31.104143 -594.49078
-352.53961 -41.47525 -594.39764
-352.56473 -51.847729 -594.30835
-599.45856 18.165455 346.73514
-342.07214 3.6716032e-05 -594.75842
-342.09653 -10.36655 -594.66925
-342.12094 -20.73461 -594.57996
-342.14532 -31.104143 -594.49078
-342.17078 -41.47525 -594.39764
-342.19519 -51.847729 -594.30835
-580.2373 18.13242 342.75223
-331.70633 3.6716032e-05 -594.75842
-331.72998 -10.36655 -594.66925
-331.75363 -20.73461 -594.57996
-331.77731 -31.104143 -594.49078
-331.80197 -41.47525 -594.39764
-331.82562 -51.847729 -594.30835
-562.10486 18.13242 342.75223
-321.34052 3.6716032e-05 -594.75842
-321.36343 -10.36655 -594.66925
-321.38632 -20.73461 -594.57996
-321.40924 -31.104143 -594.49078
-321.43317 -41.47525 -594.39764
-321.45612 -51.847729 -594.30835
-608.15625 304.07809 601.00806
-608.2005 283.82703 601.18604
-608.24475 263.57285 601.36414
-608.28906 243.3157 601.54211
-608.33331 223.05556 601.72021
-608.37756 202.79262 601.89832
-608.41815 182.52545 602.06171
-608.46246 162.25673 602.23993
-608.50671 141.98494 602.41809
-608.55103 121.71025 602.59637
-608.59534 101.43263 602.77441
-608.63965 81.152039 602.95276
-608.68396 60.868408 603.13104
-608.72455 40.581707 603.29462
-543.97247 18.13242 342.75223
-310.97467 3.6716032e-05 -594.75842
-310.99686 -10.36655 -594.66925
-311.01901 -20.73461 -594.57996
-311.04123 -31.104143 -594.49078
-311.06433 -41.47525 -594.39764
-311.08655 -51.847729 -594.30835
-581.51099 300.78162 574.479
-581.5528 280.74969 574.6532
-581.59467 260.71497 574.82733
-581.63654 240.67722 575.00165
-581.67841 220.63663 575.1759
-581.72028 200.59325 575.3501
-581.75867 180.54587 575.51001
-581.80054 160.49675 575.6842
-581.84241 140.44475 575.85864
-581.88428 120.38994 576.03302
-581.92621 100.33214 576.2074
-581.96814 80.271515 576.3819
-582.01349 60.208351 576.57086
-582.05542 40.141815 576.74542
-525.84003 18.13242 342.75223
-300.60886 3.6716032e-05 -594.75842
-300.63028 -10.36655 -594.66925
-300.65173 -20.73461 -594.57996
-300.67316 -31.104143 -594.49078
-300.69556 -41.47525 -594.39764
-300.71698 -51.847729 -594.30835
-555.43719 297.55573 548.51917
-555.47675 277.7384 548.68958
-555.5163 257.91833 548.85999
-555.55585 238.09537 549.03052
-555.5954 218.26965 549.20111
-555.63495 198.44109 549.3717
-555.67456 178.60968 549.54224
-555.71411 158.7755 549.71283
-555.75372 138.93851 549.88342
-555.79657 119.09936 550.06836
-555.83618 99.256561 550.23907
-555.87909 79.411369 550.42395
-555.9187 59.562832 550.59467
-555.95831 39.711384 550.76544
-507.70761 18.13242 342.75223
-290.24304 3.6716032e-05 -594.75842
-290.26373 -10.36655 -594.66925
-290.28442 -20.73461 -594.57996
-290.30511 -31.104143 -594.49078
-290.32672 -41.47525 -594.39764
-290.34744 -51.847729 -594.30835
-529.91992 294.39996 523.12384
-529.9541 274.79111 523.27698
-529.99146 255.18109 523.44385
-530.02881 235.56841 523.61078
-530.06921 215.95419 523.79163
-530.10657 196.33574 523.9585
-530.14709 176.71571 524.13947
-530.18439 157.09167 524.30646
-530.2218 137.46492 524.47345
-530.26227 117.83607 524.65448
-530.29962 98.203697 524.82159
-530.34009 78.569016 525.00256
-530.3775 58.930824 525.16974
-530.41803 39.290321 525.35083
-489.5752 18.13242 342.75223
-279.8772 3.6716032e-05 -594.75842
-279.89716 -10.36655 -594.66925
-279.91714 -20.73461 -594.57996
-279.93707 -31.104143 -594.49078
-279.95792 -41.47525 -594.39764
-279.97787 -51.847729 -594.30835
-504.93524 291.30887 498.24817
-504.97043 271.90717 498.41165
-505.00854 252.50439 498.58862
-505.04376 233.09717 498.75204
-505.08191 213.68858 498.92914
-505.11713 194.27585 499.09268
-505.15527 174.86156 499.26978
-505.19049 155.44328 499.43329
-505.22864 136.02316 499.61047
-505.26389 116.59939 499.77399
-505.30203 97.173431 499.95129
-505.33728 77.744164 500.1149
-505.37256 58.312214 500.27853
-505.41074 38.877846 500.45587
-471.44278 18.13242 342.75223
-269.51138 3.6716032e-05 -594.75842
-269.53061 -10.36655 -594.66925
-269.54984 -20.73461 -594.57996
-269.56903 -31.104143 -594.49078
-269.58911 -41.47525 -594.39764
-269.60834 -51.847729 -594.30835
-485.19623 291.11786 496.71078
-485.23285 271.7305 496.88766
-485.26666 252.33873 497.05087
-485.30328 232.94569 497.2276
-485.3371 213.54832 497.3909
-485.37091 194.14845 497.55414
-485.40756 174.74669 497.73108
-485.44138 155.34129 497.89429
-485.478 135.93394 498.07126
-485.51184 116.52284 498.23465
-485.54849 97.109741 498.41162
-485.58234 77.693268 498.57507
-485.61902 58.274242 498.75214
-485.65286 38.85231 498.91556
-453.31036 18.13242 342.75223
-259.14557 3.6716032e-05 -594.75842
-259.16406 -10.36655 -594.66925
-259.18253 -20.73461 -594.57996
-259.20102 -31.104143 -594.49078
-259.22031 -41.47525 -594.39764
-259.23877 -51.847729 -594.30835
-465.78842 291.11786 496.71078
-465.82355 271.7305 496.88766
-465.85599 252.33873 497.05087
-465.89117 232.94569 497.2276
-465.92361 213.54832 497.3909
-465.95605 194.14845 497.55414
-465.99124 174.74669 497.73108
-466.02371 155.34129 497.89429
-466.0589 135.93394 498.07126
-466.09137 116.52284 498.23465
-466.12659 97.109741 498.41162
-466.15906 77.693268 498.57507
-466.19427 58.274242 498.75214
-466.22675 38.85231 498.91556
-435.17795 18.13242 342.75223
-248.77974 3.6716032e-05 -594.75842
-248.79747 -10.36655 -594.66925
-248.81522 -20.73461 -594.57996
-248.83296 -31.104143 -594.49078
-248.85149 -41.47525 -594.39764
-248.86923 -51.847729 -594.30835
-417.04553 18.13242 342.75223
-238.41393 3.6716032e-05 -594.75842
-238.43092 -10.36655 -594.66925
-238.44794 -20.73461 -594.57996
-238.46492 -31.104143 -594.49078
-238.48267 -41.47525 -594.39764
-238.49968 -51.847729 -594.30835
-398.91312 18.13242 342.75223
-228.0481 3.6716032e-05 -594.75842
-228.06436 -10.36655 -594.66925
-228.08063 -20.73461 -594.57996
-228.09688 -31.104143 -594.49078
-228.11386 -41.47525 -594.39764
-228.13013 -51.847729 -594.30835
-380.78073 18.13242 342.75223
-217.68228 3.6716032e-05 -594.75842
-217.69847 -10.366586 -594.66534
-217.71332 -20.73461 -594.57996
-217.72885 -31.104143 -594.49078
-217.74504 -41.47525 -594.39764
-217.76059 -51.847729 -594.30835
-362.52249 18.126141 341.99289
-207.31647 3.6716032e-05 -594.75842
-207.33188 -10.366586 -594.66534
-207.34602 -20.73461 -594.57996
-207.36081 -31.104143 -594.49078
-207.37625 -41.47525 -594.39764
-207.39104 -51.847729 -594.30835
-343.36716 18.072004 335.45395
-196.95064 3.6716032e-05 -594.75842
-196.96529 -10.366586 -594.66534
-196.97871 -20.73461 -594.57996
-196.99277 -31.104143 -594.49078
-197.00743 -41.47525 -594.39764
-197.02147 -51.847729 -594.30835
-325.98929 18.110575 340.10873
-186.58479 3.6716032e-05 -594.75842
-186.59869 -10.366586 -594.66534
-186.61142 -20.73461 -594.57996
-186.62473 -31.104143 -594.49078
-186.63861 -41.47525 -594.39764
-186.65192 -51.847729 -594.30835
-309.23029 18.189993 349.70517
-176.21898 3.6716032e-05 -594.75842
-176.2321 -10.366586 -594.66534
-176.24411 -20.73461 -594.57996
-176.25668 -31.104143 -594.49078
-176.26981 -41.47525 -594.39764
-176.28236 -51.847729 -594.30835
-291.29376 18.205894 351.61783
-165.85316 3.6716032e-05 -594.75842
-165.86551 -10.366586 -594.66534
-165.87682 -20.73461 -594.57996
-165.88866 -31.104143 -594.49078
-165.90099 -41.47525 -594.39764
-165.91281 -51.847729 -594.30835
-273.08789 18.205894 351.61783
-155.48734 3.6716032e-05 -594.75842
-155.49892 -10.366586 -594.66534
-155.50951 -20.73461 -594.57996
-155.52061 -31.104143 -594.49078
-155.53217 -41.47525 -594.39764
-155.54327 -51.847729 -594.30835
-254.88203 18.205894 351.61783
-145.12152 3.6716032e-05 -594.75842
-145.13231 -10.366586 -594.66534
-145.14221 -20.73461 -594.57996
-145.15256 -31.104143 -594.49078
-145.16336 -41.47525 -594.39764
-145.17372 -51.847729 -594.30835
-236.67618 18.205894 351.61783
-134.75569 3.6716032e-05 -594.75842
-134.76572 -10.366586 -594.66534
-134.77492 -20.73461 -594.57996
-134.78452 -31.104143 -594.49078
-134.79456 -41.47525 -594.39764
-134.80417 -51.847729 -594.30835
-218.47032 18.205894 351.61783
-124.38987 3.6716032e-05 -594.75842
-124.39912 -10.366586 -594.66534
-124.40761 -20.73461 -594.57996
-124.41648 -31.104143 -594.49078
-124.42574 -41.47525 -594.39764
-124.43462 -51.847729 -594.30835
-200.26447 18.205894 351.61783
-114.02405 3.6716032e-05 -594.75842
-114.03253 -10.366586 -594.66534
-114.04031 -20.73461 -594.57996
-114.04844 -31.104143 -594.49078
-114.05693 -41.47525 -594.39764
-114.06506 -51.847729 -594.30835
-182.05859 18.205894 351.61783
-103.65823 3.6716032e-05 -594.75842
-103.66594 -10.366586 -594.66534
-103.67301 -20.73461 -594.57996
-103.6804 -31.104143 -594.49078
-103.68813 -41.47525 -594.39764
-103.69552 -51.847729 -594.30835
-163.85274 18.205894 351.61783
-93.292397 3.6716032e-05 -594.75842
-93.299347 -10.366586 -594.66534
-93.30571 -20.73461 -594.57996
-93.312363 -31.104143 -594.49078
-93.319305 -41.47525 -594.39764
-93.325958 -51.847729 -594.30835
-145.64688 18.205894 351.61783
-82.926582 3.6716032e-05 -594.75842
-82.932755 -10.366586 -594.66534
-82.938408 -20.73461 -594.57996
-82.944328 -31.104143 -594.49078
-82.950493 -41.47525 -594.39764
-82.956406 -51.847729 -594.30835
-127.44102 18.205894 351.61783
-72.56076 3.6716032e-05 -594.75842
-72.566154 -10.366586 -594.66534
-72.571106 -20.73461 -594.57996
-72.576279 -31.104143 -594.49078
-72.58168 -41.47525 -594.39764
-72.586861 -51.847729 -594.30835
-109.23516 18.205894 351.61783
-62.194935 3.6716032e-05 -594.75842
-62.199562 -10.366586 -594.66534
-62.203804 -20.73461 -594.57996
-62.208241 -31.104143 -594.49078
-62.212872 -41.47525 -594.39764
-62.217308 -51.847729 -594.30835
-91.029297 18.205894 351.61783
-51.829117 3.6716032e-05 -594.75842
-51.83297 -10.366586 -594.66534
-51.836506 -20.73461 -594.57996
-51.840202 -31.104143 -594.49078
-51.844063 -41.47525 -594.39764
-51.847759 -51.847729 -594.30835
-72.823441 18.205894 351.61783
-41.463291 3.6716032e-05 -594.75842
-41.466377 -10.366586 -594.66534
-41.46933 -20.734629 -594.57611
-41.472164 -31.104143 -594.49078
-41.475246 -41.47525 -594.39764
-41.478203 -51.847729 -594.30835
-54.61758 18.205894 351.61783
-31.097467 3.6716032e-05 -594.75842
-31.099781 -10.366586 -594.66534
-31.101999 -20.734629 -594.57611
-31.10412 -31.104143 -594.49078
-31.106436 -41.47525 -594.39764
-31.108654 -51.847729 -594.30835
-36.41172 18.205894 351.61783
-20.731646 3.6716032e-05 -594.75842
-20.733189 -10.366586 -594.66534
-20.734665 -20.734629 -594.57611
-20.736082 -31.104143 -594.49078
-20.737623 -41.47525 -594.39764
-20.739101 -51.847729 -594.30835
-18.20586 18.205894 351.61783
-10.365823 3.6716032e-05 -594.75842
-10.366594 -10.366586 -594.66534
-10.367332 -20.734629 -594.57611
-10.368041 -31.104143 -594.49078
-10.368812 -41.47525 -594.39764
-10.369551 -51.847729 -594.30835
2.0086292e-22 18.205894 351.61783
3.5848849e-22 3.6716032e-05 -594.75842
3.2021169e-22 -10.366586 -594.66534
1.1683356e-22 -20.734629 -594.57611
1.7187055e-22 -31.104143 -594.49078
2.1419929e-22 -41.47525 -594.39764
5.1494316e-22 -51.847729 -594.30835
18.20586 18.205894 351.61783
10.365823 3.6716036e-05 -594.75842
10.366594 -10.366586 -594.66534
10.367332 -20.734629 -594.57611
10.368041 -31.104143 -594.49078
10.368812 -41.47525 -594.39764
10.369551 -51.847729 -594.30835
36.41172 18.205894 351.61783
20.731646 3.6716036e-05 -594.75842
20.733189 -10.366586 -594.66534
20.734665 -20.734629 -594.57611
20.736082 -31.104143 -594.49078
20.737623 -41.47525 -594.39764
20.739101 -51.847729 -594.30835
54.61758 18.205894 351.61783
31.097467 3.6716036e-05 -594.75842
31.099781 -10.366586 -594.66534
31.101999 -20.734629 -594.57611
31.10412 -31.104143 -594.49078
31.106436 -41.47525 -594.39764
31.108654 -51.847729 -594.30835
72.823441 18.205894 351.61783
41.463291 3.6716036e-05 -594.75842
41.466377 -10.366586 -594.66534
41.46933 -20.734629 -594.57611
41.472164 -31.104143 -594.49078
41.475246 -41.47525 -594.39764
41.478203 -51.847729 -594.30835
91.029297 18.205894 351.61783
51.829117 3.6716036e-05 -594.75842
51.83297 -10.366586 -594.66534
51.836666 -20.734629 -594.57611
51.840202 -31.104143 -594.49078
51.844063 -41.47525 -594.39764
51.847759 -51.847729 -594.30835
109.23516 18.205894 351.61783
62.194935 3.6716036e-05 -594.75842
62.199562 -10.366586 -594.66534
62.203999 -20.734629 -594.57611
62.208241 -31.104143 -594.49078
62.212872 -41.47525 -594.39764
62.217308 -51.847729 -594.30835
127.44102 18.205894 351.61783
72.56076 3.6716036e-05 -594.75842
72.566154 -10.366586 -594.66534
72.571327 -20.734629 -594.57611
72.576279 -31.104143 -594.49078
72.58168 -41.47525 -594.39764
72.586861 -51.847729 -594.30835
145.64688 18.205894 351.61783
82.926582 3.6716036e-05 -594.75842
82.932755 -10.366586 -594.66534
82.93866 -20.734629 -594.57611
82.944328 -31.104143 -594.49078
82.950493 -41.47525 -594.39764
82.956406 -51.847729 -594.30835
163.85274 18.205894 351.61783
93.292397 3.6716036e-05 -594.75842
93.299347 -10.366586 -594.66534
93.306 -20.734629 -594.57611
93.312363 -31.104143 -594.49078
93.319305 -41.47525 -594.39764
93.325958 -51.847729 -594.30835
182.05859 18.205894 351.61783
103.65823 3.6716036e-05 -594.75842
103.66594 -10.366586 -594.66534
103.67333 -20.734629 -594.57611
103.6804 -31.104143 -594.49078
103.68813 -41.47525 -594.39764
103.69552 -51.847729 -594.30835
200.26447 18.205894 351.61783
114.02405 3.6716036e-05 -594.75842
114.03253 -10.366586 -594.66534
114.04066 -20.734629 -594.57611
114.04844 -31.104143 -594.49078
114.05693 -41.47525 -594.39764
114.06506 -51.847729 -594.30835
218.47032 18.205894 351.61783
124.38987 3.6716036e-05 -594.75842
124.39912 -10.366586 -594.66534
124.408 -20.734629 -594.57611
124.41648 -31.104143 -594.49078
124.42574 -41.47525 -594.39764
124.43462 -51.847729 -594.30835
236.67618 18.205894 351.61783
134.75569 3.6716036e-05 -594.75842
134.76572 -10.366586 -594.66534
134.77533 -20.734629 -594.57611
134.78452 -31.104143 -594.49078
134.79456 -41.47525 -594.39764
134.80417 -51.847729 -594.30835
254.88203 18.205894 351.61783
145.12152 3.6716036e-05 -594.75842
145.13231 -10.366586 -594.66534
145.14265 -20.734629 -594.57611
145.15302 -31.104195 -594.48688
145.16336 -41.47525 -594.39764
145.17372 -51.847729 -594.30835
273.08789 18.205894 351.61783
155.48734 3.6716036e-05 -594.75842
155.49892 -10.366586 -594.66534
155.50999 -20.734629 -594.57611
155.52109 -31.104195 -594.48688
155.53217 -41.47525 -594.39764
155.54327 -51.847729 -594.30835
291.29376 18.205894 351.61783
165.85316 3.6716036e-05 -594.75842
165.86551 -10.366586 -594.66534
165.87732 -20.734629 -594.57611
165.88916 -31.104195 -594.48688
165.90099 -41.47525 -594.39764
165.91281 -51.847729 -594.30835
309.49963 18.205894 351.61783
176.21898 3.6716036e-05 -594.75842
176.2321 -10.366586 -594.66534
176.24467 -20.734629 -594.57611
176.25723 -31.104195 -594.48688
176.26981 -41.47525 -594.39764
176.28236 -51.847729 -594.30835
327.70547 18.205894 351.61783
186.58479 3.6716036e-05 -594.75842
186.59869 -10.366586 -594.66534
186.612 -20.734629 -594.57611
186.62529 -31.104195 -594.48688
186.63861 -41.47525 -594.39764
186.65192 -51.847729 -594.30835
345.91135 18.205894 351.61783
196.95064 3.6716036e-05 -594.75842
196.96529 -10.366586 -594.66534
196.97932 -20.734629 -594.57611
196.99338 -31.104195 -594.48688
197.00743 -41.47525 -594.39764
197.02147 -51.847729 -594.30835
364.11719 18.205894 351.61783
207.31647 3.6716036e-05 -594.75842
207.33188 -10.366586 -594.66534
207.34666 -20.734629 -594.57611
207.36145 -31.104195 -594.48688
207.37625 -41.47525 -594.39764
207.39104 -51.847729 -594.30835
382.32306 18.205894 351.61783
217.68228 3.6716036e-05 -594.75842
217.69847 -10.366586 -594.66534
217.71399 -20.734629 -594.57611
217.72952 -31.104195 -594.48688
217.74504 -41.47525 -594.39764
217.76059 -51.847729 -594.30835
400.52893 18.205894 351.61783
228.0481 3.6716036e-05 -594.75842
228.06506 -10.366586 -594.66534
228.08131 -20.734629 -594.57611
228.0976 -31.104195 -594.48688
228.11386 -41.47525 -594.39764
228.13013 -51.847729 -594.30835
446.38055 291.11786 496.71078
446.41422 271.7305 496.88766
446.44534 252.33873 497.05087
446.479 232.94569 497.2276
446.51013 213.54832 497.3909
446.54123 194.14845 497.55414
446.57495 174.74669 497.73108
446.60605 155.34129 497.89429
446.63977 135.93394 498.07126
446.6709 116.52284 498.23465
446.70462 97.109741 498.41162
446.73575 77.693268 498.57507
446.76947 58.274242 498.75214
446.80063 38.85231 498.91556
418.73477 18.205894 351.61783
238.41393 3.6716036e-05 -594.75842
238.43166 -10.366586 -594.66534
238.44867 -20.734629 -594.57611
238.46565 -31.104195 -594.48688
238.48267 -41.47525 -594.39764
238.49968 -51.847729 -594.30835
465.78842 291.11786 496.71078
465.82355 271.7305 496.88766
465.85599 252.33873 497.05087
465.89117 232.94569 497.2276
465.92361 213.54832 497.3909
465.95605 194.14845 497.55414
465.99124 174.74669 497.73108
466.02371 155.34129 497.89429
466.0589 135.93394 498.07126
466.09137 116.52284 498.23465
466.12659 97.109741 498.41162
466.15906 77.693268 498.57507
466.19427 58.274242 498.75214
466.22675 38.85231 498.91556
436.94064 18.205894 351.61783
248.77974 3.6716036e-05 -594.75842
248.79825 -10.366586 -594.66534
248.81599 -20.734629 -594.57611
248.83374 -31.104195 -594.48688
248.85149 -41.47525 -594.39764
248.86923 -51.847729 -594.30835
485.51465 291.30887 498.24817
485.54849 271.90717 498.41165
485.58517 252.50439 498.58862
485.61902 233.09717 498.75204
485.6557 213.68858 498.92914
485.68954 194.27585 499.09268
485.7262 174.86156 499.26978
485.7601 155.44328 499.43329
485.79678 136.02316 499.61047
485.83066 116.59939 499.77399
485.86737 97.173431 499.95129
485.90125 77.744164 500.1149
485.93515 58.312214 500.27853
485.97186 38.877846 500.45587
455.14651 18.205894 351.61783
259.14557 3.6716036e-05 -594.75842
259.16486 -10.366586 -594.66534
259.18332 -20.734629 -594.57611
259.20181 -31.104195 -594.48688
259.22031 -41.47525 -594.39764
259.23877 -51.847729 -594.30835
510.29324 294.39996 523.12384
510.3262 274.79111 523.27698
510.36215 255.18109 523.44385
510.3981 235.56841 523.61078
510.43704 215.95419 523.79163
510.47299 196.33574 523.9585
510.51196 176.71571 524.13947
510.54794 157.09167 524.30646
510.58392 137.46492 524.47345
510.62289 117.83607 524.65448
510.65891 98.203697 524.82159
510.69791 78.569016 525.00256
510.73392 58.930824 525.16974
510.77292 39.290321 525.35083
473.35236 18.205894 351.61783
269.51138 3.6716036e-05 -594.75842
269.53143 -10.366586 -594.66534
269.55066 -20.734629 -594.57611
269.56989 -31.104195 -594.48688
269.58911 -41.47525 -594.39764
269.60834 -51.847729 -594.30835
535.60016 297.55573 548.51917
535.63831 277.7384 548.68958
535.67645 257.91833 548.85999
535.71454 238.09537 549.03052
535.75269 218.26965 549.20111
535.79083 198.44109 549.3717
535.82904 178.60968 549.54224
535.86719 158.7755 549.71283
535.9054 138.93851 549.88342
535.94672 119.09936 550.06836
535.98486 99.256561 550.23907
536.02625 79.411369 550.42395
536.06445 59.562832 550.59467
536.1026 39.711384 550.76544
491.55823 18.205894 351.61783
279.8772 3.6716036e-05 -594.75842
279.89804 -10.366586 -594.66534
279.918 -20.734629 -594.57611
279.93796 -31.104195 -594.48688
279.95792 -41.47525 -594.39764
279.97787 -51.847729 -594.30835
561.45886 300.78162 574.479
561.49927 280.74969 574.6532
561.53967 260.71497 574.82733
561.58008 240.67722 575.00165
561.62054 220.63663 575.1759
561.66095 200.59325 575.3501
561.698 180.54587 575.51001
561.73846 160.49675 575.6842
561.77887 140.44475 575.85864
561.81934 120.38994 576.03302
561.8598 100.33214 576.2074
561.90027 80.271515 576.3819
561.94409 60.208351 576.57086
561.98456 40.141815 576.74542
509.76407 18.205894 351.61783
290.24304 3.6716036e-05 -594.75842
290.26462 -10.366586 -594.66534
290.28531 -20.734629 -594.57611
290.30603 -31.104195 -594.48688
290.32672 -41.47525 -594.39764
290.34744 -51.847729 -594.30835
587.8844 304.07809 601.00806
587.92719 283.82703 601.18604
587.96991 263.57285 601.36414
588.01276 243.3157 601.54211
588.05554 223.05556 601.72021
588.09833 202.79262 601.89832
588.13757 182.52545 602.06171
588.18036 162.25673 602.23993
588.22314 141.98494 602.41809
588.26599 121.71025 602.59637
588.30884 101.43263 602.77441
588.35162 81.152039 602.95276
588.39447 60.868408 603.13104
588.43372 40.581707 603.29462
527.96991 18.205894 351.61783
300.60886 3.6716036e-05 -594.75842
300.63123 -10.366586 -594.66534
300.65265 -20.734629 -594.57611
300.6741 -31.104195 -594.48688
300.69556 -41.47525 -594.39764
300.71698 -51.847729 -594.30835
546.17578 18.205894 351.61783
310.97467 3.6716036e-05 -594.75842
310.99783 -10.366586 -594.66534
311.01999 -20.734629 -594.57611
311.04218 -31.104195 -594.48688
311.06433 -41.47525 -594.39764
311.08655 -51.847729 -594.30835
564.38165 18.205894 351.61783
321.34052 3.6716036e-05 -594.75842
321.36444 -10.366586 -594.66534
321.38733 -20.734629 -594.57611
321.41025 -31.104195 -594.48688
321.43317 -41.47525 -594.39764
321.45612 -51.847729 -594.30835
582.58752 18.205894 351.61783
331.70633 3.6716036e-05 -594.75842
331.73102 -10.366586 -594.66534
331.75464 -20.734629 -594.57611
331.77832 -31.104195 -594.48688
331.80197 -41.47525 -594.39764
331.82562 -51.847729 -594.30835
342.07214 3.6716036e-05 -594.75842
342.0976 -10.366586 -594.66534
342.12198 -20.734629 -594.57611
342.14639 -31.104195 -594.48688
342.17078 -41.47525 -594.39764
342.19519 -51.847729 -594.30835
352.43796 3.6716036e-05 -594.75842
352.4642 -10.366586 -594.66534
352.48935 -20.734629 -594.57611
352.51447 -31.104195 -594.48688
352.53961 -41.47525 -594.39764
352.56473 -51.847729 -594.30835
362.8038 3.6716036e-05 -594.75842
362.83078 -10.366586 -594.66534
362.85666 -20.734629 -594.57611
362.88254 -31.104195 -594.48688
362.90842 -41.47525 -594.39764
362.9343 -51.847729 -594.30835
373.16959 3.6716036e-05 -594.75842
373.19739 -10.366586 -594.66534
373.224 -20.734629 -594.57611
373.25058 -31.104195 -594.48688
373.27722 -41.47525 -594.39764
373.30383 -51.847729 -594.30835
383.53543 3.6716036e-05 -594.75842
383.56396 -10.366586 -594.66534
383.59134 -20.734629 -594.57611
383.61868 -31.104195 -594.48688
383.64606 -41.47525 -594.39764
383.6734 -51.847729 -594.30835
393.90128 3.6716036e-05 -594.75842
393.93057 -10.366586 -594.66534
393.95865 -20.734629 -594.57611
393.98676 -31.104195 -594.48688
394.01486 -41.47525 -594.39764
394.04294 -51.847729 -594.30835
404.26709 3.6716036e-05 -594.75842
404.29715 -10.366586 -594.66534
404.32599 -20.734629 -594.57611
404.35483 -31.104195 -594.48688
404.38367 -41.47525 -594.39764
404.41251 -51.847729 -594.30835
446.32608 290.11203 -499.11581
446.35141 278.96964 -499.0394
446.37674 267.82608 -498.96295
446.40207 256.68121 -498.88657
446.42737 245.5351 -498.81006
446.45273 234.38768 -498.73367
446.47806 223.23906 -498.65723
446.50339 212.08917 -498.58075
446.52872 200.93796 -498.50433
446.55408 189.78549 -498.42783
446.57944 178.63177 -498.35129
446.60477 167.47682 -498.27484
446.63013 156.32057 -498.1983
446.65546 145.16306 -498.1218
446.68082 134.0043 -498.04532
446.70621 122.84425 -497.96878
446.73154 111.68295 -497.89227
446.7569 100.52034 -497.8157
446.78229 89.356483 -497.73917
446.80765 78.191338 -497.66257
446.83301 67.024948 -497.586
446.8584 55.8573 -497.50943
446.88379 44.688412 -497.4328
446.90915 33.518211 -497.3562
446.93304 22.346678 -497.28415
446.95844 11.174005 -497.20752
414.63293 3.6716036e-05 -594.75842
414.66376 -10.366586 -594.66534
414.69333 -20.734629 -594.57611
414.7229 -31.104195 -594.48688
414.7525 -41.47525 -594.39764
414.78207 -51.847729 -594.30835
454.66553 288.32449 -507.41455
454.69116 277.25076 -507.33911
454.7168 266.17575 -507.26364
454.74243 255.09944 -507.18814
454.7681 244.0219 -507.11267
454.79373 232.94316 -507.03717
454.81937 221.86313 -506.96167
454.84503 210.78186 -506.88614
454.87067 199.69937 -506.81058
454.89633 188.61554 -506.73505
454.922 177.53055 -506.65955
454.94763 166.44429 -506.58401
454.9733 155.3568 -506.50839
454.99899 144.26799 -506.43286
455.02466 133.17798 -506.35727
455.05032 122.08669 -506.28165
455.07599 110.99414 -506.20602
455.10168 99.900406 -506.13043
455.12738 88.805336 -506.05484
455.15305 77.709053 -505.97922
455.17874 66.611557 -505.90363
455.20441 55.512722 -505.82794
455.22861 44.41256 -505.75681
455.25278 33.31123 -505.68555
455.27698 22.208673 -505.61435
455.30267 11.10496 -505.53867
424.99872 3.6716036e-05 -594.75842
425.03033 -10.366586 -594.66534
425.06064 -20.734629 -594.57611
425.09097 -31.104195 -594.48688
425.12128 -41.47525 -594.39764
425.15161 -51.847729 -594.30835
462.90283 286.55893 -515.61176
462.92874 275.5528 -515.53711
462.95471 264.54556 -515.46265
462.98062 253.537 -515.388
463.00659 242.52733 -515.31354
463.03253 231.51631 -515.23889
463.0585 220.50407 -515.16437
463.08447 209.49059 -515.08972
463.11041 198.47589 -515.01514
463.13638 187.45998 -514.94049
463.16232 176.44281 -514.86591
463.18829 165.42444 -514.7912
463.21423 154.40474 -514.71661
463.24023 143.38393 -514.64197
463.2662 132.36174 -514.56732
463.29218 121.33848 -514.49261
463.31818 110.31386 -514.41797
463.34415 99.288086 -514.34332
463.37012 88.261009 -514.26862
463.39612 77.232704 -514.19391
463.42056 66.202988 -514.12366
463.44507 55.172009 -514.05328
463.46951 44.139969 -513.98297
463.49399 33.106716 -513.9126
463.51999 22.072407 -513.83795
463.54449 11.036767 -513.76752
435.36456 3.6716036e-05 -594.75842
435.39694 -10.366586 -594.66534
435.42798 -20.734629 -594.57611
435.45905 -31.104195 -594.48688
435.49008 -41.47525 -594.39764
435.52118 -51.847729 -594.30835
471.01517 295.75372 -523.77838
471.04138 284.81573 -523.70477
471.06607 273.87564 -523.63544
471.09232 262.9353 -523.56177
471.11856 251.9937 -523.48816
471.14481 241.05083 -523.41443
471.17105 230.10681 -523.34076
471.1973 219.16156 -523.26715
471.22354 208.21507 -523.19342
471.24979 197.26735 -523.11969
471.27603 186.31841 -523.04596
471.30231 175.36835 -522.97229
471.32855 164.41693 -522.89856
471.35483 153.46439 -522.82483
471.3811 142.51057 -522.7511
471.40735 131.55559 -522.67737
471.43362 120.59935 -522.60358
471.4599 109.64188 -522.52985
471.48621 98.683144 -522.45605
471.51093 87.722977 -522.38666
471.53568 76.761665 -522.3172
471.56039 65.799126 -522.24774
471.58514 54.835522 -522.17822
471.60992 43.870678 -522.10876
471.6362 32.904869 -522.03503
471.66095 21.937729 -521.96552
471.6857 10.969466 -521.896
445.73038 3.6716036e-05 -594.75842
445.76352 -10.366586 -594.66534
445.79532 -20.734629 -594.57611
445.82709 -31.104195 -594.48688
445.85889 -41.47525 -594.39764
445.89069 -51.847729 -594.30835
479.05499 293.96561 -531.77271
479.07996 283.09274 -531.70416
479.10495 272.21872 -531.63574
479.12991 261.34357 -531.5672
479.15643 250.46815 -531.49451
479.18295 239.59154 -531.42169
479.2095 228.71368 -531.34894
479.23602 217.83459 -531.27612
479.26254 206.95433 -531.20331
479.28909 196.0728 -531.13049
479.31561 185.19012 -531.05768
479.34219 174.30624 -530.98486
479.36871 163.42117 -530.91205
479.39526 152.53491 -530.83923
479.42181 141.64738 -530.76636
479.44836 130.75868 -530.69354
479.47495 119.86877 -530.62061
479.5015 108.97766 -530.54773
479.52649 98.085014 -530.47913
479.55151 87.191177 -530.41052
479.57651 76.296242 -530.34192
479.60153 65.400223 -530.27338
479.62656 54.503063 -530.20471
479.65314 43.604874 -530.13177
479.67816 32.705372 -530.06317
479.70319 21.804663 -529.99451
479.72821 10.90292 -529.92578
456.09619 3.6716036e-05 -594.75842
456.13013 -10.366586 -594.66534
456.16263 -20.734629 -594.57611
456.19519 -31.104195 -594.48688
456.22772 -41.47525 -594.39764
456.26025 -51.847729 -594.30835
486.99667 292.198 -539.67511
487.02188 281.39047 -539.60748
487.04712 270.58176 -539.53979
487.07233 259.77191 -539.47211
487.09915 248.96181 -539.40027
487.12592 238.1505 -539.32837
487.15274 227.33797 -539.25641
487.17957 216.52426 -539.18451
487.20639 205.70935 -539.11255
487.23318 194.89331 -539.04065
487.26001 184.07602 -538.96863
487.28683 173.25758 -538.89673
487.31366 162.43787 -538.82477
487.34045 151.6171 -538.75287
487.36731 140.79501 -538.68085
487.39255 129.97142 -538.61316
487.4194 119.14705 -538.54114
487.44464 108.32104 -538.47333
487.46994 97.494003 -538.40558
487.49521 86.665817 -538.33777
487.52048 75.836555 -538.27002
487.54575 65.006081 -538.20221
487.57101 54.174557 -538.13446
487.5979 43.342041 -538.06238
487.62317 32.508244 -537.99463
487.64844 21.6733 -537.92676
487.67371 10.837215 -537.85889
466.46201 3.6716036e-05 -594.75842
466.4967 -10.366586 -594.66534
466.53 -20.734629 -594.57611
466.56326 -31.104195 -594.48688
466.59653 -41.47525 -594.39764
466.62979 -51.847729 -594.30835
494.84338 290.45157 -547.48303
494.86887 279.70853 -547.4162
494.89432 268.96429 -547.34937
494.91983 258.21902 -547.28247
494.9469 247.47342 -547.21143
494.97397 236.72668 -547.14038
495.00104 225.97876 -547.0694
495.02811 215.22964 -546.99829
495.05521 204.47935 -546.92725
495.08228 193.72789 -546.85614
495.10938 182.9752 -546.78503
495.13647 172.22139 -546.71399
495.16354 161.4664 -546.64282
495.18906 150.70976 -546.57599
495.21457 139.952 -546.50903
495.24167 129.1935 -546.43793
495.26718 118.4335 -546.37091
495.29269 107.67238 -546.30402
495.31821 96.91011 -546.23706
495.34375 86.146767 -546.17004
495.36926 75.382309 -546.10309
495.39481 64.616768 -546.03613
495.42191 53.850235 -545.96497
495.44742 43.08239 -545.89795
495.47296 32.313484 -545.83093
495.4985 21.543407 -545.76398
495.52405 10.77227 -545.6969
476.82785 3.6716036e-05 -594.75842
476.86331 -10.366586 -594.66534
476.89734 -20.734629 -594.57611
476.9313 -31.104195 -594.48688
476.96533 -41.47525 -594.39764
476.99936 -51.847729 -594.30835
502.59686 288.72586 -555.19818
502.62259 278.04657 -555.1322
502.6499 267.367 -555.06195
502.67563 256.68546 -554.99591
502.70135 246.00284 -554.92987
502.7287 235.31982 -554.85962
502.75601 224.6357 -554.78949
502.78339 213.95041 -554.7193
502.8107 203.26393 -554.64905
502.83804 192.57628 -554.5788
502.86542 181.88754 -554.50854
502.89114 171.19699 -554.44238
502.9169 160.50542 -554.37628
502.94263 149.81271 -554.31018
502.97003 139.11938 -554.23987
502.99576 128.42447 -554.17371
503.02151 117.72849 -554.1076
503.04727 107.03136 -554.04144
503.07303 96.33316 -553.97522
503.09882 85.633835 -553.90906
503.12457 74.933464 -553.8429
503.15195 64.232193 -553.77258
503.1777 53.529575 -553.70642
503.20349 42.825851 -553.64014
503.22928 32.121086 -553.57397
503.25504 21.415167 -553.50775
503.28085 10.708153 -553.44153
487.19366 3.6716036e-05 -594.75842
487.22989 -10.366586 -594.66534
487.26465 -20.734629 -594.57611
487.29941 -31.104195 -594.48688
487.33417 -41.47525 -594.39764
487.3689 -51.847729 -594.30835
510.25876 287.0206 -562.82233
510.28632 276.40512 -562.75293
510.31229 265.78769 -562.68762
510.33823 255.16914 -562.62238
510.3642 244.54953 -562.55707
510.39178 233.92957 -562.48767
510.41937 223.30853 -562.41833
510.44699 212.68629 -562.34888
510.47458 202.06288 -562.27948
510.50055 191.4377 -562.21417
510.52652 180.81149 -562.14886
510.55252 170.1842 -562.08356
510.57849 159.55579 -562.01819
510.60446 148.92635 -561.95276
510.63208 138.2962 -561.88342
510.65808 127.66454 -561.81799
510.68408 117.03178 -561.75269
510.71005 106.39794 -561.68726
510.73608 95.763016 -561.62189
510.76208 85.127045 -561.55646
510.78809 74.489967 -561.49109
510.8157 63.851978 -561.42157
510.84174 53.212662 -561.3562
510.86774 42.572315 -561.29077
510.89377 31.930861 -561.22534
510.91977 21.288338 -561.15991
510.9458 10.644688 -561.09442
497.55948 3.6716036e-05 -594.75842
497.5965 -10.366586 -594.66534
497.63199 -20.734629 -594.57611
497.66748 -31.104195 -594.48688
497.70297 -41.47525 -594.39764
497.73846 -51.847729 -594.30835
517.80444 295.88834 -570.42133
517.83228 285.33618 -570.35278
517.85852 274.7821 -570.28821
517.8847 264.2269 -570.22375
517.91083 253.67065 -570.15924
517.93707 243.11336 -570.09467
517.9649 232.55571 -570.02606
517.99274 221.9969 -569.95758
518.01892 211.43629 -569.89294
518.0451 200.87468 -569.82849
518.07135 190.31195 -569.76398
518.09753 179.74814 -569.69934
518.12372 169.18326 -569.63477
518.14996 158.61737 -569.57019
518.17786 148.05081 -569.50153
518.20404 137.48274 -569.43695
518.23029 126.91353 -569.37238
518.25653 116.34332 -569.30774
518.28271 105.77202 -569.24316
518.30896 95.199608 -569.17853
518.33521 84.626175 -569.11389
518.36304 74.05188 -569.04523
518.38928 63.476246 -568.98059
518.41553 52.899525 -568.91595
518.44177 42.321808 -568.85132
518.46802 31.742962 -568.78668
518.49426 21.163008 -568.72198
518.52051 10.58208 -568.65735
507.92532 3.6716036e-05 -594.75842
507.9631 -10.366586 -594.66534
507.99933 -20.734629 -594.57611
508.03555 -31.104195 -594.48688
508.07178 -41.47525 -594.39764
508.108 -51.847729 -594.30835
