# .PCD v0.7 - Point Cloud Data file format
VERSION 0.7
FIELDS x y z
SIZE 4 4 4
TYPE F F F
COUNT 1 1 1
WIDTH 1498
HEIGHT 1
VIEWPOINT 0 0 0 1 0 0 0
POINTS 1498
DATA ascii
-67.463661 16.454554 -53.154057
-69.120827 15.172869 -48.275082
-70.861458 13.826629 -43.150394
-69.606659 38.283661 -41.721386
-69.253525 36.358105 -42.787056
-68.904221 34.452106 -43.841194
-68.558418 32.56525 -44.884743
-68.216064 30.697239 -45.91787
-67.877373 28.847885 -46.939968
-67.541779 27.016714 -47.952728
-67.243332 25.216251 -48.853374
-67.001701 23.4506 -49.582542
-65.569534 21.310101 -53.904491
-65.258881 19.577669 -54.841972
-64.949768 17.861183 -55.774799
-65.519981 16.379999 -54.054035
-67.121925 15.102438 -49.21973
-68.804176 13.760839 -44.143097
-68.854012 45.902679 -38.664856
-68.471764 43.892162 -39.847977
-68.12001 41.920013 -40.936714
-67.773392 39.968925 -42.009552
-67.430534 38.037743 -43.070724
-67.090881 36.125866 -44.122005
-66.754639 34.233143 -45.16275
-66.421738 32.359306 -46.193111
-66.181664 30.545387 -46.936165
-65.862228 28.709177 -47.924881
-65.544891 26.890215 -48.90707
-65.230606 25.088699 -49.879837
-64.919319 23.304375 -50.843319
-63.533566 21.177858 -55.132427
-63.234413 19.456745 -56.058342
-62.936073 17.751198 -56.981762
-63.59383 16.306112 -54.945904
-65.141502 15.03266 -50.15564
-66.76638 13.695672 -45.126404
-68.474396 12.290278 -39.839844
-67.69249 51.660053 -36.74633
-67.316452 49.601604 -37.940842
-66.966499 47.581463 -39.052498
-66.622726 45.583965 -40.144543
-66.282455 43.60688 -41.225426
-65.945648 41.649879 -42.295338
-65.612495 39.71283 -43.353634
-65.28244 37.795101 -44.402073
-65.021317 35.932838 -45.23156
-64.703918 34.054691 -46.239799
-64.389603 32.194801 -47.238262
-64.078323 30.35289 -48.227062
-63.770046 28.528708 -49.206345
-63.46471 26.721983 -50.176258
-63.162296 24.932493 -51.136925
-62.862747 23.159962 -52.08847
-61.522713 21.047249 -56.345211
-61.23481 19.337307 -57.259769
-60.976536 17.651102 -58.0802
-61.684975 16.232891 -55.829762
-63.179058 14.963467 -51.083675
-64.747551 13.63106 -46.101185
-66.395912 12.230824 -40.865013
-68.130394 10.757437 -35.355282
-66.50985 57.522038 -34.79295
-66.140152 55.414722 -35.999084
-65.792183 53.34502 -37.1343
-65.451401 51.299751 -38.246071
-65.114136 49.275566 -39.34639
-64.780327 47.272133 -40.435432
-64.449928 45.289135 -41.513355
-64.122871 43.326275 -42.580341
-64.004745 41.516598 -42.965729
-63.526299 39.489319 -44.526646
-63.215141 37.587379 -45.541767
-62.907024 35.703987 -46.547005
-62.601891 33.83886 -47.54248
-62.299702 31.991741 -48.528351
-62.00042 30.162371 -49.504745
-61.703999 28.350485 -50.471809
-61.410397 26.555851 -51.429672
-61.119801 24.778292 -52.377728
-60.83128 23.017246 -53.319008
-59.53651 20.918234 -57.543137
-59.259808 19.219398 -58.445858
-59.050922 17.555681 -59.127335
-59.79298 16.160261 -56.706413
-61.234821 14.894961 -52.002472
-62.747917 13.567122 -47.066071
-64.337685 12.171996 -41.879539
-66.010101 10.704334 -36.423347
-65.305794 63.491753 -32.802879
-64.942291 61.334385 -34.021729
-64.597511 59.214397 -35.177795
-64.258636 57.118793 -36.314079
-63.924534 55.046127 -37.434345
-63.593891 52.994911 -38.543018
-63.266891 50.965 -39.639477
-62.942032 48.954918 -40.728745
-62.884331 47.163254 -40.922218
-62.879768 45.41317 -40.937519
-62.873768 43.662338 -40.957657
-62.866562 41.911041 -40.981808
-61.414387 39.236977 -45.851063
-61.11549 37.348351 -46.853283
-60.819485 35.478035 -47.845806
-60.52634 33.625744 -48.828754
-60.236004 31.791225 -49.802265
-59.948437 29.974222 -50.766495
-59.663605 28.17448 -51.721558
-59.381683 26.391857 -52.666866
-59.1022 24.625919 -53.603996
-58.824703 22.876274 -54.534458
-57.574711 20.790869 -58.725788
-57.308548 19.10285 -59.61824
-57.145821 17.461227 -60.163876
-57.918041 16.088345 -57.57457
-59.308308 14.827073 -52.912903
-60.766956 13.503769 -48.02195
-62.299164 12.113725 -42.884331
-63.910637 10.651775 -37.480938
-65.607697 9.1121826 -31.790598
-64.079193 69.571686 -30.776865
-63.722279 67.363548 -32.007801
-63.380863 65.191757 -33.185291
-63.044334 63.044331 -34.345951
-62.713566 60.921745 -35.486717
-62.38625 58.821327 -36.615589
-62.06234 56.742718 -37.732723
-61.76226 54.703724 -38.767654
-61.741531 52.921314 -38.839149
-61.737007 51.153526 -38.854748
-61.732006 49.385612 -38.871994
-61.724865 47.616325 -38.896622
-61.717484 45.847282 -38.922073
-61.710346 44.078823 -38.946697
-61.702972 42.310608 -38.97213
-59.329296 38.987823 -47.158653
-59.04237 37.112347 -48.14822
-58.758205 35.254929 -49.128262
-58.476765 33.415291 -50.098919
-58.198009 31.593208 -51.060318
-57.922104 29.788509 -52.011871
-57.648598 28.000755 -52.955166
-57.377663 26.229792 -53.889591
-57.109055 24.475311 -54.815979
-56.842552 22.737022 -55.735123
-55.636463 20.664976 -59.894779
-55.380806 18.987705 -60.776501
-55.261303 17.36784 -61.188656
-56.059715 16.017065 -58.435032
-57.399269 14.759809 -53.815075
-58.804405 13.44101 -48.968933
-60.280064 12.05601 -43.879562
-61.831692 10.599719 -38.528187
-63.465309 9.0664701 -32.894051
-62.82967 75.76519 -28.712999
-62.479736 73.505577 -29.955379
-62.141624 71.280098 -31.155794
-61.807396 69.078857 -32.342407
-61.480148 66.904869 -33.50423
-61.156586 64.754044 -34.652981
-60.835934 62.625229 -35.791386
-60.57616 60.576157 -36.713661
-60.57616 58.794518 -36.713661
-60.571678 57.008644 -36.72958
-60.567196 55.223038 -36.745499
-60.56012 53.435402 -36.770618
-60.553043 51.648182 -36.795742
-60.545734 49.861195 -36.821701
-60.538658 48.074821 -36.846806
-60.53159 46.288872 -36.87191
-60.524284 44.503159 -36.897842
-57.270519 38.741821 -48.449741
-56.995285 36.879307 -49.426895
-56.722694 35.034611 -50.394695
-56.452892 33.207588 -51.352566
-56.185448 31.397749 -52.302071
-55.920528 29.604984 -53.242626
-55.658092 27.829052 -54.174366
-55.398106 26.069702 -55.097385
-55.140144 24.326536 -56.013226
-54.884388 22.599455 -56.921257
-53.721546 20.540594 -61.049713
-53.476166 18.873947 -61.920868
-53.396832 17.275444 -62.202541
-54.217785 15.946414 -59.287895
-55.507473 14.693157 -54.709099
-56.860016 13.378823 -49.90715
-58.280113 11.998842 -44.865345
-59.772964 10.548172 -39.56525
-61.344311 9.0212212 -33.986496
-63.0005 7.4118319 -28.106514
-61.556602 82.075462 -26.610226
-61.21352 79.763077 -27.865175
-60.87915 77.482559 -29.088247
-60.54842 75.226837 -30.298031
-60.224148 72.99897 -31.484196
-59.904041 70.795692 -32.655106
-59.587082 68.61544 -33.814503
-59.391739 66.590729 -34.529079
-59.387295 64.786148 -34.545311
-59.382854 62.981823 -34.561558
-59.378418 61.177761 -34.577805
-59.372105 59.372116 -34.600868
-59.365101 57.566162 -34.626503
-59.357864 55.760418 -34.652985
-59.350857 53.955326 -34.6786
-59.34362 52.150459 -34.705063
-59.334991 50.344849 -34.736641
-55.237556 38.498909 -49.724644
-54.973755 36.64917 -50.689606
-54.712658 34.817146 -51.644672
-54.453831 33.002323 -52.591431
-54.197449 31.204594 -53.52927
-53.943459 29.423712 -54.458313
-53.691845 27.659437 -55.378704
-53.44257 25.911547 -56.290535
-53.195026 24.179558 -57.195999
-52.949959 22.463619 -58.092445
-51.82954 20.4177 -62.190823
-51.593689 18.761343 -63.053543
-51.551918 17.183977 -63.206333
-52.392033 15.876371 -60.133274
-53.632694 14.627101 -55.595081
-54.933533 13.317219 -50.836739
-56.299042 11.94222 -45.841827
-57.734169 10.497119 -40.592281
-59.244373 8.976428 -35.0681
-60.835712 7.3740354 -29.247149
-60.259296 88.505844 -24.467417
-59.92321 86.139626 -25.735203
-59.5928 83.802376 -26.981598
-59.266251 81.491104 -28.2134
-58.944443 79.206604 -29.427315
-58.628464 76.949867 -30.619253
-58.315395 74.716599 -31.800234
-58.178371 72.722969 -32.317104
-58.173981 70.899536 -32.333675
-58.169815 69.07666 -32.349377
-58.165424 67.253769 -32.365948
-58.159874 65.429863 -32.386875
-58.15271 63.604523 -32.41391
-58.145779 61.779892 -32.440048
-58.138847 59.955685 -32.466194
-58.131458 58.131462 -32.494072
-53.230122 38.259155 -50.982925
-52.977482 36.422024 -51.935944
-52.72723 34.602249 -52.879948
-52.479332 32.799583 -53.815079
-52.233753 31.013792 -54.741459
-51.990459 29.244635 -55.659206
-51.749424 27.49188 -56.568447
-51.510429 25.755213 -57.469975
-51.273273 24.034351 -58.364574
-51.038471 22.329334 -59.250301
-49.960045 20.296272 -63.318363
-49.733707 18.650141 -64.17215
-49.726608 17.093519 -64.198929
-50.582249 15.806957 -60.971256
-51.774689 14.561634 -56.473133
-53.024708 13.256173 -51.757797
-54.336578 11.886127 -46.809151
-55.715008 10.446565 -41.609413
-57.165195 8.9320602 -36.139
-58.692661 7.3365865 -30.3771
-60.304245 5.6535172 -24.297867
-58.937065 95.059792 -22.283451
-58.608124 92.638641 -23.564316
-58.281876 90.242905 -24.834696
-57.959473 87.874046 -26.090078
-57.640858 85.531593 -27.330746
-57.328732 83.219139 -28.546114
-57.019745 80.931244 -29.749275
-56.940277 78.981667 -30.058735
-56.935928 77.139008 -30.075647
-56.931583 75.296616 -30.092566
-56.927471 73.454819 -30.108593
-56.922672 71.612396 -30.127285
-56.915588 69.767494 -30.154865
-56.908733 67.923332 -30.181553
-56.901649 66.07933 -30.209135
-56.892513 64.23349 -30.244701
-51.247356 38.022236 -52.226357
-51.005627 36.197544 -53.167633
-50.766167 34.389984 -54.100063
-50.528942 32.599316 -55.023781
-50.293926 30.825314 -55.938908
-50.061085 29.067732 -56.845558
-49.830391 27.326351 -57.743862
-49.601467 25.60076 -58.635265
-49.374634 23.890951 -59.51852
-49.1497 22.196646 -60.394402
-48.112812 20.176342 -64.431931
-47.895481 18.540184 -65.278206
-47.92025 17.003965 -65.181747
-48.788223 15.738143 -61.801949
-49.933247 14.496748 -57.343361
-51.133118 13.195648 -52.671173
-52.392273 11.830519 -47.768177
-53.715004 10.396457 -42.617607
-55.106251 8.8881063 -37.200214
-56.571491 7.299552 -31.49474
-58.116776 5.6242113 -25.477587
-56.62764 94.379402 -23.926048
-56.312912 91.97776 -25.192406
-56.00441 89.607048 -26.433741
-55.711029 87.280602 -27.61421
-55.676434 85.370529 -27.753403
-55.672138 83.508217 -27.770674
-55.66785 81.646172 -27.787945
-55.663555 79.784431 -27.80521
-55.659489 77.923286 -27.821571
-55.652718 76.058723 -27.848825
-55.645718 74.194298 -27.876978
-55.638046 72.329468 -27.907854
-49.288994 37.788235 -53.454483
-49.057922 35.975811 -54.384232
-48.82901 34.180313 -55.305302
-48.602222 32.401482 -56.217819
-48.377537 30.639105 -57.121895
-48.155083 28.893053 -58.016972
-47.93433 27.162786 -58.905209
-47.715263 25.448141 -59.786659
-47.498352 23.74918 -60.659451
-47.283245 22.065516 -61.524986
-46.287128 20.057751 -65.533043
-46.078953 18.431587 -66.370659
-46.135208 16.916241 -66.144333
-47.00959 15.669867 -62.626087
-48.107971 14.432394 -58.206543
-49.258904 13.135711 -53.575535
-50.466259 11.775455 -48.717506
-51.734291 10.346859 -43.615356
-53.06768 8.8446198 -38.250214
-54.471622 7.2628889 -32.601177
-55.95187 5.5951881 -26.645121
-57.514816 3.8343275 -20.356312
-54.397858 93.789406 -25.35041
-54.386032 91.893646 -25.399626
-54.381794 90.011246 -25.417273
-54.37756 88.129143 -25.4349
-54.373325 86.247337 -25.45253
-54.369087 84.365829 -25.47016
-54.363293 82.482246 -25.494272
-54.356384 80.597404 -25.523026
-54.347031 78.709496 -25.561972
-47.577312 39.374329 -53.740505
-47.354584 37.557083 -54.66758
-47.133934 35.756775 -55.58601
-46.915337 33.973175 -56.495926
-46.69875 32.206036 -57.397446
-46.484318 30.455244 -58.289997
-46.27169 28.720364 -59.17506
-46.060677 27.001083 -60.053394
-45.851578 25.297421 -60.923763
-45.644211 23.609077 -61.786915
-45.438869 21.936007 -62.641632
-44.48278 19.940557 -66.621284
-44.283443 18.324181 -67.451019
-44.368782 16.829542 -67.095802
-45.246475 15.602233 -63.442463
-46.298988 14.368652 -59.061424
-47.401642 13.076316 -54.471714
-48.558094 11.720928 -49.658062
-49.772381 10.297728 -44.603642
-51.048962 8.8015471 -39.289967
-52.39275 7.2265844 -33.696533
-53.809196 5.5664668 -27.800663
-55.304359 3.8141012 -21.57715
-53.059868 94.749771 -23.031885
-53.055691 92.847473 -23.049885
-53.051514 90.945457 -23.067905
-53.046246 89.041908 -23.090639
-53.038109 87.134056 -23.125689
-45.656128 39.133831 -54.950115
-45.443699 37.328758 -55.865929
-45.233238 35.540405 -56.773258
-45.024868 33.768654 -57.671535
-44.81826 32.013039 -58.562252
-44.613537 30.273472 -59.444839
-44.410675 28.549719 -60.319389
-44.20919 26.841295 -61.188004
-44.009686 25.148394 -62.048122
-43.811813 23.470619 -62.901146
-42.929447 21.464731 -66.705093
-42.69939 19.82472 -67.696899
-42.508732 18.218031 -68.51886
-42.620228 16.743664 -68.038193
-43.498512 15.53518 -64.251816
-44.505917 14.305474 -59.908794
-45.561092 13.017458 -55.359829
-46.667515 11.66688 -50.589935
-47.829014 10.249077 -45.582596
-49.049805 8.7588882 -40.319649
-50.334553 7.1906528 -34.781006
-51.688404 5.5380487 -28.944424
-53.1171 3.7940731 -22.785162
-54.627022 1.9509652 -16.275745
-51.700912 95.742439 -20.635387
-51.691391 93.81031 -20.677967
-43.758282 38.896252 -56.14505
-43.556061 37.103313 -57.049107
-43.355553 35.326744 -57.945538
-43.156883 33.566467 -58.833744
-42.960022 31.822245 -59.713856
-42.764957 30.093861 -60.585968
-42.571499 28.381001 -61.450855
-42.379642 26.683479 -62.308609
-42.189362 25.00111 -63.159306
-42.000931 23.333849 -64.001755
-41.117649 21.320267 -67.950684
-40.936607 19.71022 -68.760071
-40.754601 18.113159 -69.573799
-40.889565 16.658714 -68.97039
-41.765514 15.468715 -65.054245
-42.728546 14.24285 -60.748734
-43.737041 12.959123 -56.239986
-44.794296 11.613338 -51.513252
-45.903931 10.200883 -46.552349
-47.069935 8.7166567 -41.339409
-48.296719 7.155076 -35.854748
-49.589161 5.5098996 -30.076534
-50.952675 3.7742758 -23.980585
-52.393299 1.9404911 -17.539894
-53.917747 -3.0284232e-07 -10.724424
-41.88348 38.661674 -57.324867
-41.690941 36.880447 -58.218761
-41.500164 35.115528 -59.104477
-41.311131 33.36668 -59.982124
-41.123806 31.633698 -60.851807
-40.938175 29.916361 -61.713646
-40.753933 28.21426 -62.569031
-40.571342 26.527414 -63.416756
-40.390244 24.855537 -64.257553
-40.210888 23.198591 -65.09024
-39.366402 21.197298 -69.010941
-39.194069 19.597033 -69.811043
-39.02042 18.009422 -70.617249
-39.176376 16.574619 -69.893188
-40.047276 15.4028 -65.849846
-40.966671 14.180772 -61.581352
-41.929264 12.901313 -57.112282
-42.93819 11.560285 -52.428139
-43.996868 10.153119 -47.513004
-45.109066 8.6748257 -42.349377
-46.278954 7.1198373 -36.917904
-47.511139 5.4820614 -31.197229
-48.810734 3.754678 -25.163572
-50.18343 1.9301379 -18.790548
-51.635559 1.1604283e-06 -12.0487
-40.031017 38.429779 -58.491215
-39.848095 36.660244 -59.374443
-39.666836 34.906818 -60.249641
-39.487221 33.169262 -61.116909
-39.309223 31.447378 -61.976353
-39.13282 29.740946 -62.828098
-38.957729 28.049574 -63.6735
-38.784069 26.373169 -64.512009
-38.61208 24.711733 -65.342445
-38.441479 23.064892 -66.166176
-37.635242 21.075733 -70.059044
-37.47118 19.48502 -70.851204
-37.30611 17.906931 -71.648232
-37.505478 16.502413 -70.6856
-38.343624 15.337451 -66.63868
-39.220081 14.119234 -62.406754
-40.137547 12.84402 -57.976833
-41.098965 11.507714 -53.334705
-42.107574 10.105824 -48.464722
-43.166927 8.6333847 -43.349693
-44.280964 7.0849552 -37.970654
-45.453842 5.4544711 -32.307507
-46.690735 3.7352674 -26.335262
-47.996826 1.9198713 -20.028885
-49.37809 -2.2362708e-06 -13.359539
-50.841213 -2.0336397 -6.2949705
-38.200642 38.200649 -59.643665
-38.027122 36.442657 -60.516415
-37.855167 34.700569 -61.381275
-37.684761 32.974174 -62.238346
-37.515884 31.263239 -63.08773
-37.348385 29.567476 -63.930183
-37.182251 27.886692 -64.765785
-37.017464 26.220705 -65.594604
-36.854252 24.5695 -66.415489
-36.692352 22.932722 -67.229782
-35.923939 20.955631 -71.094589
-35.767879 19.374273 -71.879524
-35.611088 17.805544 -72.668121
-35.856457 16.434208 -71.434021
-36.654366 15.272656 -67.420853
-37.48859 14.05822 -63.225018
-38.361675 12.787225 -58.833744
-39.276253 11.455575 -54.233765
-40.235657 10.058918 -49.40834
-41.243099 8.59231 -44.341282
-42.302292 7.0503855 -39.013966
-43.417324 5.427175 -33.405804
-44.592724 3.7160611 -27.493984
-45.833534 1.9097308 -21.253174
-47.145382 6.1693316e-07 -14.655113
-48.534531 -2.022274 -7.6682224
-36.391968 37.974228 -60.78244
-36.227638 36.227638 -61.644905
-36.064781 34.49675 -62.499607
-35.903507 32.781464 -63.34602
-35.743549 31.08135 -64.185539
-35.584766 29.396111 -65.018867
-35.427273 27.725697 -65.845451
-35.271282 26.070076 -66.664131
-35.116543 24.4289 -67.47625
-34.963272 22.802137 -68.28067
-34.231922 20.836821 -72.118988
-34.083717 19.264715 -72.896805
-33.935154 17.705294 -73.676537
-34.220894 16.366516 -72.176872
-34.979198 15.208351 -68.197067
-35.771873 13.997687 -64.03688
-36.601307 12.730894 -59.683777
-37.470116 11.403948 -55.124012
-38.381172 10.012483 -50.342518
-39.337639 8.5516682 -45.322712
-40.342995 7.0161738 -40.04631
-41.401085 5.4001408 -34.493145
-42.516171 3.6970651 -28.640867
-43.692986 1.8996959 -22.464577
-44.936802 -1.2174224e-06 -15.936672
-46.25351 -2.0110164 -9.0262098
-47.649712 -4.1434488 -1.698535
-34.604607 37.750481 -61.90781
-34.449265 36.015141 -62.760159
-34.295425 34.295433 -63.604244
-34.142838 32.590893 -64.441467
-33.991486 30.90136 -65.271904
-33.841358 29.226629 -66.095627
-33.69244 27.566542 -66.912727
-33.544937 25.921091 -67.722054
-33.398609 24.2899 -68.52494
-33.253662 22.672949 -69.320251
-32.558983 20.719349 -73.131844
-32.418499 19.156387 -73.902657
-32.284401 17.60968 -74.63842
-32.598862 16.299431 -72.91304
-33.318195 15.144642 -68.966148
-34.069996 13.937726 -64.841148
-34.856503 12.675093 -60.525696
-35.680183 11.352788 -56.006287
-36.543736 9.9664793 -51.268101
-37.450123 8.5113964 -46.294895
-38.402615 6.9822879 -41.068703
-39.404827 5.3733892 -35.569736
-40.460747 3.6782472 -29.776064
-41.574814 1.8897614 -23.663334
-42.751972 5.4788284e-06 -17.204464
-43.99773 -1.9998916 -10.369156
-45.318272 -4.1198416 -3.1235626
-32.986061 39.269123 -62.169983
-32.838295 37.529484 -63.019348
-32.691742 35.805244 -63.861759
-32.54649 34.096321 -64.696701
-32.402519 32.402527 -65.524246
-32.259712 30.723541 -66.345131
-32.117943 29.059092 -67.160042
-31.977518 27.409302 -67.967216
-31.838211 25.773787 -68.76796
-31.700218 24.15255 -69.561157
-31.563314 22.545225 -70.348114
-30.904797 20.603203 -74.133347
-30.772001 19.049328 -74.896683
-30.664505 17.522572 -75.514587
-30.990068 16.232891 -73.643204
-31.671051 15.081453 -69.728821
-32.382633 13.878276 -65.63855
-33.12693 12.619782 -61.360256
-33.906242 11.302088 -56.880665
-34.723106 9.9208889 -52.185223
-35.580299 8.4715023 -47.257969
-36.480888 6.9487424 -42.081272
-37.428249 5.3468928 -36.635696
-38.426128 3.6596267 -30.899775
-39.478672 1.8799359 -24.849617
-40.590504 3.8638818e-06 -18.458679
-41.766773 -1.988892 -11.697332
-43.013245 -4.0964937 -4.5324283
-44.336414 -6.3337698 3.0732884
-31.231636 39.039547 -63.278458
-31.092442 37.310932 -64.118576
-30.954483 35.597656 -64.951233
-30.817741 33.899513 -65.776543
-30.682203 32.216316 -66.594582
-30.547649 30.547649 -67.406685
-30.414167 28.893457 -68.212326
-30.28195 27.253754 -69.010338
-30.150774 25.628159 -69.802048
-30.02083 24.016668 -70.586327
-29.891903 22.41893 -71.364464
-29.269058 20.488342 -75.12368
-29.143707 18.943415 -75.880234
-29.060459 17.436272 -76.382675
-29.394356 16.166897 -74.367432
-30.037592 15.0188 -70.485161
-30.709608 13.819322 -66.429184
-31.412382 12.564957 -62.187565
-32.148075 11.251826 -57.747269
-32.919056 9.87572 -53.09399
-33.727921 8.4319859 -48.212055
-34.577541 6.9155087 -43.084148
-35.471069 5.3206611 -37.691216
-36.412006 3.6412106 -32.012177
-37.404221 1.8702098 -26.023623
-38.452026 6.8460372e-06 -19.699568
-39.560226 -1.978004 -13.010985
-40.7342 -4.0734158 -5.9254146
-41.97998 -6.2969933 1.5935308
-29.497507 38.812511 -64.374687
-29.366802 37.09491 -65.205078
-29.237251 35.392467 -66.028145
-29.108839 33.704971 -66.843987
-28.981546 32.032238 -67.652679
-28.855076 30.373766 -68.456169
-28.729801 28.729805 -69.252068
-28.605515 27.099968 -70.041687
-28.482393 25.484245 -70.823914
-28.360231 23.882301 -71.600029
-28.239206 22.294117 -72.368904
-27.651543 20.374819 -76.10247
-27.53351 18.838718 -76.852341
-27.472223 17.350882 -77.241722
-27.811567 16.10144 -75.085793
-28.41765 14.956658 -71.235245
-29.050734 13.760877 -67.213127
-29.712671 12.5106 -63.007725
-30.405472 11.202021 -58.606201
-31.131355 9.8309555 -53.994522
-31.892748 8.3928232 -49.157269
-32.69231 6.8825965 -44.077469
-33.533001 5.2946801 -38.736412
-34.418068 3.6229589 -33.113415
-35.35112 1.8605919 -27.185549
-36.336174 4.4790631e-06 -20.927319
-37.377697 -1.967244 -14.31033
-38.480686 -4.0505996 -7.3027945
-39.650574 -6.2606158 0.12971112
-40.89402 -8.6092672 8.0295591
-27.78343 38.5881 -65.458244
-27.661032 36.881374 -66.279076
-27.539703 35.189621 -67.092712
-27.419436 33.51265 -67.899246
-27.300123 31.850149 -68.699371
-27.181665 30.201851 -69.493774
-27.064322 28.567896 -70.280701
-26.947895 26.947897 -71.06147
-26.832556 25.341862 -71.834953
-26.718113 23.749437 -72.602432
-26.604727 22.170603 -73.362816
-26.051771 20.262487 -77.07103
-25.940931 18.735123 -77.814308
-25.899633 17.266422 -78.091278
-26.241545 16.036505 -75.798355
-26.811056 14.895031 -71.979134
-27.405832 13.702912 -67.990463
-28.027597 12.456714 -63.820808
-28.678232 11.152649 -59.457573
-29.359791 9.786602 -54.886929
-30.074535 8.3540459 -50.093765
-30.824945 6.849997 -45.061398
-31.613764 5.2689624 -39.771458
-32.444016 3.6048896 -34.203678
-33.318913 1.851056 -28.336473
-34.242447 -8.5553035e-07 -22.143108
-35.218643 -1.9565864 -15.596622
-36.252125 -4.0280137 -8.6659069
-37.348099 -6.2246857 -1.3161494
-38.512405 -8.5583115 6.4918685
-26.089064 38.366276 -66.529327
-25.974785 36.670288 -67.340775
-25.861502 34.989098 -68.145149
-25.74929 33.322617 -68.941933
-25.637709 31.670113 -69.734222
-25.527176 30.031971 -70.519104
-25.417505 28.407797 -71.297813
-25.308857 26.797609 -72.069283
-25.201054 25.201052 -72.834763
-25.094244 23.618118 -73.593178
-24.988256 22.048464 -74.345757
-24.469387 20.15126 -78.030045
-24.365774 18.632658 -78.765762
-24.343418 17.183598 -78.9245
-24.684135 15.972095 -76.505203
-25.217646 14.833904 -72.716927
-25.774731 13.645452 -68.761284
-26.356981 12.403284 -64.62693
-26.96615 11.103712 -60.301456
-27.604141 9.7426395 -55.77132
-28.272949 8.3155689 -51.022354
-28.975079 6.8176599 -46.036793
-29.712973 5.243475 -40.79731
-30.489428 3.5869858 -35.283974
-31.307554 1.8416231 -29.47477
-32.170795 9.7867132e-06 -23.345215
-33.082993 -1.9460537 -16.868052
-34.048428 -4.0056977 -10.012841
-35.071903 -6.1891518 -2.7455173
-36.158817 -8.5079565 4.9722519
-37.315258 -10.975069 13.183683
-24.414064 38.146976 -67.588188
-24.307812 36.461723 -68.389786
-24.2024 34.790951 -69.185051
-24.097818 33.134506 -69.974052
-23.99398 31.492102 -70.757454
-23.891113 29.863894 -71.533539
-23.789045 28.249495 -72.303581
-23.687922 26.648918 -73.066498
-23.587578 25.06181 -73.823524
-23.488157 23.488161 -74.573593
-23.389498 21.927652 -75.31794
-22.904209 20.041187 -78.979149
-22.807823 18.531363 -79.706329
-22.802065 17.101545 -79.749756
-23.139187 15.908195 -77.20639
-23.637262 14.773285 -73.448692
-24.157173 13.588406 -69.526268
-24.700552 12.350278 -65.426781
-25.26894 11.055158 -61.138634
-25.8641 9.6990395 -56.648495
-26.487974 8.2774935 -51.941727
-27.142689 6.7856817 -47.002285
-27.830591 5.2182341 -41.812466
-28.554268 3.569284 -36.352749
-29.316584 1.8322855 -30.601526
-30.120718 6.9338114e-07 -24.534794
-30.970211 -1.9356403 -18.12586
-31.869013 -3.9836185 -11.344936
-32.821541 -6.1540322 -4.1586576
-33.832764 -8.4581919 3.4704356
-34.908279 -10.908835 11.584567
-36.054417 -13.520407 20.231524
-22.758179 37.930298 -68.634377
-22.659618 36.255394 -69.427528
-22.561909 34.594929 -70.213844
-22.46489 32.948502 -70.994583
-22.368702 31.316185 -71.768646
-22.273264 29.69768 -72.536682
-22.178705 28.093029 -73.297615
-22.084877 26.501858 -74.052704
-21.991909 24.924164 -74.80085
-21.899651 23.359631 -75.543282
-21.4846 21.484604 -78.883347
-21.356106 19.932371 -79.917404
-21.266655 18.431099 -80.637253
-21.27536 17.02029 -80.567184
-21.60648 15.844753 -77.902534
-22.069672 14.713119 -74.175072
-22.553154 13.531899 -70.284286
-23.058298 12.297762 -66.219215
-23.586586 11.007072 -61.967873
-24.139652 9.655858 -57.517155
-24.719273 8.2397594 -52.852699
-25.327417 6.7539773 -47.958752
-25.96624 5.1932578 -42.817921
-26.638119 3.5517483 -37.411034
-27.345694 1.8230515 -31.716923
-28.091881 -1.3004549e-06 -25.712055
-28.879936 -1.9253238 -19.370289
-29.713482 -3.9617906 -12.662434
-30.596573 -6.1193113 -5.5558605
-31.533764 -8.4089975 1.9860649
-32.530182 -10.84339 10.00463
-33.591625 -13.436648 18.546457
-21.212675 39.39497 -68.878326
-21.12093 37.715954 -69.669373
-21.029974 36.051384 -70.453606
-20.9398 34.401104 -71.23111
-20.850189 32.764591 -72.003731
-20.761414 31.142124 -72.769188
-20.673321 29.533319 -73.528732
-20.586039 27.9382 -74.281288
-20.499426 26.356409 -75.028084
-20.413605 24.787954 -75.768051
-20.328434 23.232498 -76.502419
-19.916367 21.338968 -80.055336
-19.824661 19.824661 -80.846039
-19.742132 18.331985 -81.557625
-19.763096 16.939796 -81.376869
-20.086014 15.781872 -78.592606
-20.514864 14.653472 -74.894981
-20.962423 13.475842 -71.036026
-21.429951 12.245688 -67.004929
-21.918806 10.959406 -62.789925
-22.430485 9.6130657 -58.378128
-22.966627 8.2023659 -53.755421
-23.529024 6.7225833 -48.906319
-24.119656 5.1685052 -43.813778
-24.740705 3.5343878 -38.458969
-25.394583 1.8139088 -32.821129
-26.08396 4.286786e-06 -26.877188
-26.81181 -1.915123 -20.601509
-27.581448 -3.940203 -13.965553
-28.396572 -6.0849748 -6.9373698
-29.261349 -8.3603849 0.51887935
-30.180449 -10.778726 8.4435282
-31.159157 -13.353917 16.882151
-32.203468 -16.10173 25.886414
-19.586317 39.172634 -69.910561
-19.502081 37.503998 -70.692719
-19.418568 35.849667 -71.468185
-19.335703 34.209324 -72.237617
-19.253481 32.582813 -73.001099
-19.171892 30.969976 -73.758667
-19.091055 29.370853 -74.509293
-19.010834 27.785061 -75.254166
-18.931345 26.212633 -75.992264
-18.852459 24.653215 -76.724754
-18.774286 23.106819 -77.450615
-18.385612 21.214174 -81.059624
-18.309734 19.718178 -81.764191
-18.233862 18.23386 -82.468674
-18.265068 16.860069 -82.178932
-18.577568 15.71948 -79.277222
-18.97261 14.594322 -75.609093
-19.384817 13.420264 -71.781563
-19.815336 12.194056 -67.784019
-20.265409 10.912145 -63.604889
-20.736404 9.5706453 -59.231495
-21.229813 8.1653175 -54.649986
-21.747274 6.6914744 -49.845131
-22.290592 5.1439862 -44.800182
-22.861752 3.5171905 -39.496708
-23.462954 1.8048451 -33.914288
-24.096628 5.0924114e-06 -28.030355
-24.76548 -1.9050353 -21.819773
-25.472525 -3.9188473 -15.254569
-26.221125 -6.0510325 -8.3034697
-27.015059 -8.3123226 -0.93144798
-27.85857 -10.714833 6.9009461
-28.756458 -13.272212 15.238213
-29.714149 -15.999926 24.130798
-17.978212 38.952793 -70.931213
-17.901325 37.294426 -71.704643
-17.825092 35.650181 -72.471474
-17.749393 34.019669 -73.232971
-17.674332 32.402943 -73.988022
-17.599848 30.799732 -74.737274
-17.526043 29.210075 -75.479683
-17.452801 27.633608 -76.216446
-17.380222 26.070335 -76.946518
-17.308191 24.519943 -77.671104
-17.236809 22.982412 -78.389153
-16.880444 21.100565 -81.973907
-16.810944 19.612768 -82.673042
-16.741653 18.136791 -83.370026
-16.781023 16.781027 -82.973999
-17.081001 15.657585 -79.956459
-17.44276 14.535637 -76.317444
-17.820173 13.365133 -72.520973
-18.214279 12.14285 -68.556572
-18.626211 10.865295 -64.412857
-19.057207 9.5286045 -60.077362
-19.508621 8.1285934 -55.536499
-19.981939 6.6606483 -50.775284
-20.478796 5.1197014 -45.777287
-21.000992 3.5001731 -40.524399
-21.550518 1.7958761 -34.996597
-22.12957 2.8933528e-06 -29.17177
-22.740604 -1.8950416 -23.025255
-23.386337 -3.8977246 -16.529667
-24.069817 -6.0174527 -9.654417
-24.794334 -8.2647734 -2.3663232
-25.56394 -10.651644 5.3753357
-26.382856 -13.191419 13.612983
-27.255974 -15.899318 22.395882
-28.18886 -18.792572 31.779985
-16.388058 38.735413 -71.940483
-16.318359 37.087189 -72.705315
-16.249252 35.452923 -73.463669
-16.180626 33.832222 -74.216782
-16.112522 32.225044 -74.964111
-16.045042 30.631441 -75.704613
-15.978074 29.051043 -76.439507
-15.911713 27.483871 -77.167732
-15.845851 25.929571 -77.890488
-15.780581 24.388172 -78.606735
-15.715798 22.859346 -79.317642
-15.391266 20.988091 -82.878975
-15.328137 19.508535 -83.571701
-15.265295 18.040804 -84.26133
-15.310875 16.702772 -83.761139
-15.596175 15.596178 -80.630356
-15.925163 14.477423 -77.020142
-16.26833 13.310454 -73.254333
-16.626612 12.09208 -69.322662
-17.001028 10.818841 -65.213905
-17.392698 9.4869289 -60.915836
-17.802839 8.092205 -56.415066
-18.232792 6.6301117 -51.696911
-18.684027 5.0956454 -46.745193
-19.158161 3.4832983 -41.542179
-19.656988 1.7870015 -36.068226
-20.182402 4.5235529e-06 -30.302483
-20.736761 -1.8851575 -24.219091
-21.322435 -3.8768032 -17.792093
-21.942152 -5.9842257 -10.991495
-22.598974 -8.2178097 -3.7837634
-23.296328 -10.589231 3.8687949
-24.038092 -13.111677 12.008683
-24.828644 -15.800045 20.683977
-25.672964 -18.671247 29.949289
-14.815552 38.520432 -72.93853
-14.752938 36.882351 -73.694351
-14.69071 35.257702 -74.445511
-14.629004 33.646706 -75.190353
-14.567768 32.049095 -75.929535
-14.50709 30.464888 -76.661995
-14.446869 28.893736 -77.388931
-14.38719 27.335663 -78.109314
-14.327958 25.790331 -78.82431
-14.269257 24.257736 -79.532906
-14.21099 22.737579 -80.236244
-13.917876 20.876818 -83.774429
-13.860968 19.405355 -84.46138
-13.804439 17.945774 -85.143738
-13.854375 16.625256 -84.54097
-14.12295 15.535246 -81.298988
-14.419673 14.419674 -77.717216
-14.729132 13.256221 -73.981712
-15.052165 12.041733 -70.082367
-15.389685 10.772779 -66.008148
-15.742687 9.4456158 -61.747009
-16.112267 8.0561342 -57.285812
-16.499554 6.5998206 -52.610825
-16.905981 5.0717907 -47.704807
-17.332937 3.4665921 -42.551003
-17.782017 1.7781994 -37.130123
-18.254986 4.3295668e-06 -31.420887
-18.753805 -1.8753794 -25.399624
-19.280647 -3.8561294 -19.040056
-19.837948 -5.9513855 -12.31286
-20.428423 -8.1713667 -5.1851792
-21.055128 -10.527567 2.3798211
-21.721504 -13.032907 10.423676
-22.431437 -15.702003 18.99333
-23.189344 -18.551476 28.142071
-24.000256 -21.600225 37.930672
-13.260447 38.307964 -73.925011
-13.204671 36.679646 -74.673088
-13.149278 35.064743 -75.416031
-13.094307 33.46323 -76.15332
-13.039834 31.875151 -76.883942
-12.985772 30.300138 -77.609024
-12.932198 28.738211 -78.327591
-12.879022 27.189051 -79.040794
-12.826322 25.652641 -79.74762
-12.774012 24.128696 -80.449211
-12.722166 22.617184 -81.144585
-12.459991 20.766651 -84.660957
-12.409235 19.303255 -85.34169
-12.358931 17.851788 -86.016418
-12.411331 16.548447 -85.313591
-12.661191 15.474791 -81.96241
-12.926145 14.362382 -78.408768
-13.202426 13.202424 -74.703194
-13.490731 11.991769 -70.836372
-13.791954 10.72708 -66.796265
-14.106937 9.4046268 -62.571617
-14.436643 8.0203581 -58.149502
-14.782129 6.569838 -53.515739
-15.144558 5.048192 -48.654747
-15.525205 3.4500508 -43.5494
-15.925479 1.7694948 -38.180798
-16.346939 3.8496482e-06 -32.528042
-16.791315 -1.8656989 -26.567951
-17.260523 -3.8356709 -20.27478
-17.75671 -5.9189043 -13.619783
-18.282269 -8.1254454 -6.5708489
-18.839884 -10.466594 0.90807903
-19.432589 -12.955051 8.8575869
-20.063795 -15.605169 17.323515
-20.737385 -18.433226 26.357906
-21.457771 -21.457771 36.019962
-11.722365 38.097691 -74.901222
-11.673291 36.479038 -75.641701
-11.62459 34.873772 -76.376549
-11.576256 33.281731 -77.10585
-11.528358 31.702991 -77.82856
-11.480821 30.137152 -78.545868
-11.433707 28.584269 -79.256737
-11.386945 27.043999 -79.962341
-11.340599 25.516354 -80.661652
-11.294593 24.001011 -81.355827
-11.248993 22.497992 -82.043869
-11.017344 20.657526 -85.539185
-10.972733 19.202286 -86.212311
-10.928451 17.758739 -86.880486
-10.986408 16.47962 -86.005966
-11.21073 15.414757 -82.621216
-11.444403 14.305507 -79.095367
-11.688024 13.149025 -75.419411
-11.942243 11.942245 -71.583549
-12.207765 10.681798 -67.57711
-12.485364 9.3640251 -63.388462
-12.775883 7.9849257 -59.004887
-13.080242 6.5401216 -54.412457
-13.399457 5.0247941 -49.595871
-13.734642 3.4336631 -44.538311
-14.087027 1.7608805 -39.22123
-14.45797 1.7513811e-06 -33.62413
-14.848977 -1.8561199 -27.724308
-15.261722 -3.8154278 -21.496475
-15.698066 -5.8867683 -14.912534
-16.160097 -8.0800495 -7.9410276
-16.650148 -10.406347 -0.5467065
-17.170853 -12.878134 7.3100991
-17.725176 -15.509531 15.674191
-18.316483 -18.316477 24.596333
-18.948603 -21.317177 34.134293
-19.625914 -24.532391 44.354111
-10.201078 37.889717 -75.866776
-10.158605 36.280731 -76.599205
-10.11642 34.684868 -77.32666
-10.074615 33.10231 -78.047546
-10.033123 31.532669 -78.763046
-9.9920025 29.976015 -79.472145
-9.9511871 28.431961 -80.17598
-9.9107342 26.90057 -80.873566
-9.8533211 25.337116 -81.863625
-9.8128462 23.8312 -82.561584
-9.7726736 22.337536 -83.254349
-9.5898085 20.549589 -86.407722
-9.5511522 19.102303 -87.074333
-9.5128345 17.666693 -87.735107
-9.5767269 16.417238 -86.633324
-9.7715092 15.355227 -83.274406
-9.9743805 14.249116 -79.776024
-10.185854 13.096104 -76.129295
-10.406489 11.893126 -72.324585
-10.636894 10.636896 -68.351395
-10.877732 9.3237762 -64.198288
-11.129729 7.9498124 -59.852749
-11.393679 6.5106745 -55.301102
-11.670452 5.0016265 -50.528324
-11.961006 3.4174387 -45.517883
-12.266398 1.7523443 -40.251587
-12.587794 4.0035447e-06 -34.709335
-12.926484 -1.8466411 -28.86883
-13.283904 -3.7953992 -22.705347
-13.661651 -5.8549924 -16.19133
-14.06151 -8.0351439 -9.2959948
-14.485483 -10.346774 -1.9848479
-14.935818 -12.802124 5.7808857
-15.415051 -15.415046 14.044953
-15.926055 -18.2012 22.856926
-16.472101 -21.178421 32.27317
-17.056921 -24.367033 42.358036
-8.7325945 39.296673 -76.091843
-8.6963091 37.684006 -76.821846
-8.6602688 36.084461 -77.546913
-8.6244993 34.497997 -78.266533
-8.5789804 32.886093 -79.182297
-8.541831 31.320045 -79.92971
-8.5063448 29.772209 -80.643616
-8.4711275 28.237095 -81.352142
-8.4362259 26.71471 -82.054306
-8.4015856 25.204754 -82.751221
-8.3672276 23.707144 -83.442444
-8.3331499 22.221737 -84.128036
-8.1770887 20.442722 -87.267731
-8.1443224 19.00342 -87.926949
-8.1117926 17.575554 -88.581398
-8.1776743 16.355354 -87.255966
-8.3433619 15.296169 -83.922585
-8.5159025 14.19317 -80.45134
-8.6957293 13.043598 -76.833488
-8.883316 11.844427 -73.059555
-9.0791731 10.592375 -69.119202
-9.2838621 9.2838621 -65.001175
-9.4979935 7.9149957 -60.693188
-9.7222357 6.4814901 -56.181778
-9.9573221 4.9786611 -51.452209
-10.20406 3.4013591 -46.488235
-10.463337 1.743898 -41.272003
-10.736131 3.3369568e-06 -35.783775
-11.023532 -1.8372501 -30.001719
-11.326743 -3.7755864 -23.901577
-11.647106 -5.8235483 -17.456383
-11.986119 -7.9907455 -10.635967
-12.345459 -10.287886 -3.406606
-12.727011 -12.727009 4.2696075
-13.132897 -15.321713 12.435452
-13.565529 -18.087374 21.139286
-14.027561 -21.041332 30.434669
-14.522254 -24.203749 40.387119
-15.053114 -27.597376 51.067192
-7.2306523 39.045517 -77.214668
-7.2001419 37.440739 -77.951271
-7.1699095 35.849552 -78.681129
-7.1398864 34.271458 -79.405968
-7.1101127 32.706516 -80.124756
-7.0805869 31.154589 -80.837578
-7.0513268 29.615574 -81.543976
-7.0222855 28.089144 -82.245087
-6.9934831 26.575232 -82.940445
-6.9649162 25.073698 -83.630119
-6.9365811 23.584383 -84.314186
-6.9084759 22.107124 -84.992706
-6.779007 20.337027 -88.118355
-6.7519627 18.905497 -88.771271
-6.7288733 17.495077 -89.328697
-6.7891316 16.293917 -87.873917
-6.9261589 15.237554 -84.565796
-7.0688319 14.137667 -81.121368
-7.2175059 12.991511 -77.532059
-7.3725686 11.796108 -73.788521
-7.53444 10.548213 -69.8806
-7.7035789 9.2442999 -65.797218
-7.8804865 7.8804927 -61.526295
-8.0657101 6.4525709 -57.054604
-8.2598505 4.9559069 -52.367645
-8.4635668 3.3854318 -47.449501
-8.6775856 1.7355173 -42.282616
-8.902709 -7.6955428e-07 -36.847633
-9.1398258 -1.8279577 -31.123159
-9.3899174 -3.7559674 -25.085388
-9.6540813 -5.7924523 -18.707911
-9.9335394 -7.9468274 -11.961228
-10.229611 -10.229608 -4.8133874
-10.543924 -12.65271 2.7747941
-10.878164 -15.229433 10.844065
-11.234288 -17.974869 19.441671
-11.61452 -20.906128 28.621243
-12.02139 -24.042774 38.443981
-12.457802 -27.407158 48.9799
-12.927094 -31.025028 60.309605
-5.8521819 45.354412 -75.172852
-5.8272004 43.704006 -75.926743
-5.8024497 42.067757 -76.673668
-5.7778893 40.445229 -77.414833
-5.7535191 38.836254 -78.150284
-5.7293525 37.240791 -78.879562
-5.7053885 35.658672 -79.602737
-5.6816239 34.089748 -80.319908
-5.6580744 32.533928 -81.030579
-5.6347017 30.990854 -81.735909
-5.6115208 29.460485 -82.43544
-5.5885305 27.942659 -83.129234
-5.5657277 26.437206 -83.817368
-5.5431099 24.943996 -84.499924
-5.5206757 23.462877 -85.176933
-5.4984384 21.993757 -85.848
-5.3952923 20.232353 -88.960701
-5.3738785 18.808571 -89.606926
-5.3589377 17.41655 -90.057808
-5.4109178 16.232756 -88.489189
-5.5197597 15.179338 -85.20459
-5.6330352 14.082595 -81.786179
-5.7510405 12.93984 -78.225075
-5.874095 11.748188 -74.511574
-6.0025306 10.504436 -70.635674
-6.1367083 9.2050581 -66.586502
-6.2770219 7.8462796 -62.352169
-6.4239025 6.4239039 -57.919666
-6.5778208 4.9333682 -53.274765
-6.7392964 3.369653 -48.401798
-6.9088993 1.7272258 -43.283566
-7.0872602 -2.2567906e-06 -37.901073
-7.2750444 -1.8187604 -32.234177
-7.4730811 -3.7365317 -26.257898
-7.6822014 -5.7616568 -19.947126
-7.9033623 -7.903368 -13.273008
-8.1376343 -10.172039 -6.2032242
-8.386219 -12.579322 1.2984825
-8.6504707 -15.138312 9.2729626
-8.9319162 -17.863827 17.766342
-9.2322912 -20.77265 26.830978
-9.5535736 -23.883921 36.526508
-9.8980227 -27.219559 46.921185
-10.268238 -30.804714 58.093433
-4.441083 51.81263 -73.082695
-4.4219012 50.114887 -73.8545
-4.4028988 48.431892 -74.619095
-4.3840451 46.763149 -75.377716
-4.3653383 45.108498 -76.130409
-4.3468041 43.468044 -76.876175
-4.328413 41.841331 -77.616165
-4.3101768 40.228317 -78.349937
-4.2920942 38.628845 -79.077545
-4.2741618 37.042736 -79.79908
-4.2563791 35.46983 -80.514587
-4.2387567 33.910061 -81.223663
-4.2212667 32.363052 -81.927399
-4.2039204 30.828749 -82.625366
-4.1867161 29.307014 -83.317612
-4.1696396 27.797602 -84.004723
-4.1550159 26.315107 -84.59314
-4.1552801 24.931681 -84.582504
-4.1547394 23.543526 -84.604279
-4.1541982 22.155722 -84.626045
-4.0618644 20.309324 -88.341248
-4.0621176 18.956554 -88.331093
-4.0623817 17.603651 -88.320435
-4.0764203 16.305685 -87.755577
-4.1238661 15.120847 -85.846504
-4.2081885 14.027298 -82.453613
-4.2960186 12.888062 -78.919624
-4.3876066 11.700291 -75.234413
-4.4831705 10.46073 -71.389229
-4.5830045 9.1660128 -67.372192
-4.6873708 7.8122835 -63.172836
-4.7966008 6.3954663 -58.777752
-4.9110079 4.9110155 -54.174366
-5.0310063 3.3540092 -49.346016
-5.1570158 1.7190082 -44.27578
-5.2894993 -9.0319111e-07 -38.945057
-5.4289694 -1.8096555 -33.333214
-5.5759935 -3.7173247 -27.417412
-5.7312026 -5.7311959 -21.172281
-5.8952999 -7.8604054 -14.569512
-6.0690708 -10.115115 -7.5775065
-6.253397 -12.506791 -0.16079095
-6.4492712 -15.048298 7.7205663
-6.6578121 -17.754166 16.111601
-6.88029 -20.640867 25.063435
-7.1181512 -23.727173 34.634228
-7.3730478 -27.034502 44.890457
-7.6468768 -30.587507 55.908516
-7.9418306 -34.4146 67.776543
-3.0093827 60.18766 -70.145744
-2.9961822 58.425552 -70.942474
-2.9830871 56.678658 -71.732841
-2.9701157 54.947144 -72.515732
-2.9572563 53.230618 -73.291855
-2.944489 51.528564 -74.062439
-2.9318316 49.841137 -74.82637
-2.9192822 48.168159 -75.583786
-2.9068496 46.509594 -76.334175
-2.8945129 44.864948 -77.078758
-2.8822806 43.234203 -77.817055
-2.870151 41.617195 -78.549133
-2.8581231 40.013729 -79.27507
-2.8461959 38.423645 -79.994942
-2.8343589 36.846668 -80.709381
-2.8226111 35.282646 -81.418411
-2.8119977 33.743973 -82.059006
-2.811064 32.32724 -82.115341
-2.8105891 30.916481 -82.14402
-2.8102176 29.50729 -82.166428
-2.8098462 28.098471 -82.188835
-2.8094838 26.6901 -82.210716
-2.8091125 25.282021 -82.233116
-2.8087418 23.87431 -82.255493
-2.8083711 22.466974 -82.277885
-2.8080003 21.060005 -82.300255
-2.7459507 19.221659 -86.04528
-2.7461321 17.849859 -86.03434
-2.7463052 16.477831 -86.023888
-2.7587228 15.172976 -85.274422
-2.7944703 13.972351 -83.116875
-2.8525696 12.836568 -79.61026
-2.9131269 11.652511 -75.955299
-2.9763112 10.417091 -72.141792
-3.0423069 9.1269264 -68.158592
-3.1112854 7.7782178 -63.995369
-3.1834757 6.3669553 -59.638313
-3.2590835 4.8886204 -55.074959
-3.3383827 3.3383815 -50.288837
-3.4216242 1.7108105 -45.264774
-3.5091364 4.7595922e-06 -39.982952
-3.6012282 -1.8006163 -34.424702
-3.6982989 -3.6982968 -28.565966
-3.8007162 -5.7010665 -22.384546
-3.908951 -7.8178973 -15.852003
-4.023531 -10.058822 -8.9365005
-4.1450305 -12.435091 -1.6033341
-4.274097 -14.959328 6.1864972
-4.411459 -17.645832 14.477041
-4.5579433 -20.510744 23.318172
-4.7144904 -23.572445 32.766605
-4.8821735 -26.851954 42.887161
-5.0622239 -30.373343 53.754181
-5.2560639 -34.16441 65.453445
-1.5230129 67.012573 -67.934158
-1.5162511 65.198799 -68.750366
-1.5095443 63.400856 -69.559959
-1.5029013 61.618958 -70.361824
-1.4963166 59.852661 -71.15667
-1.4897846 58.101593 -71.94516
-1.4833044 56.365574 -72.727386
-1.4768803 54.644581 -73.502831
-1.4705118 52.938431 -74.271591
-1.464198 51.246929 -75.033745
-1.4579426 49.570053 -75.788826
-1.4517361 47.907288 -76.538033
-1.4455774 46.258476 -77.281441
-1.4394617 44.623322 -78.019661
-1.4334022 43.002068 -78.751122
-1.4276696 41.402416 -79.443092
-1.4266185 39.945324 -79.569984
-1.4263204 38.510654 -79.605965
-1.4260936 37.07843 -79.633354
-1.4259024 35.64756 -79.656433
-1.4257112 34.217072 -79.679512
-1.4255201 32.786961 -79.702576
-1.4253335 31.357332 -79.725098
-1.4251424 29.927996 -79.748154
-1.4249516 28.499033 -79.77121
-1.4247606 27.07045 -79.79425
-1.4245697 25.64226 -79.817284
-1.424379 24.214443 -79.840317
-1.4241927 22.787088 -79.862808
-1.4258134 21.387203 -79.667152
-1.42576 19.960644 -79.673607
-1.3925378 18.102995 -83.683876
-1.3926312 16.711576 -83.672615
-1.3927201 15.319921 -83.661873
-1.4005473 14.005474 -82.717049
-1.4206046 12.785444 -80.295929
-1.45064 11.605122 -76.670334
-1.4819777 10.373849 -72.887535
-1.5146942 9.0881681 -68.938293
-1.5488932 7.7444634 -64.810127
-1.5846665 6.3386707 -60.491886
-1.6221372 4.866416 -55.968777
-1.6614168 3.3228352 -51.227318
-1.7026522 1.7026552 -46.249756
-1.7459801 -1.2765042e-06 -41.019634
-1.7915704 -1.791569 -35.516376
-1.8396131 -3.6792283 -29.717125
-1.8902955 -5.6708822 -23.59922
-1.9438579 -7.7754269 -17.133665
-2.0005355 -10.00268 -10.292062
-2.0606267 -12.363757 -3.0384028
-2.1244302 -14.871006 4.6633253
-2.1923211 -17.538565 12.858514
-2.2646835 -20.382141 21.59341
-2.3419738 -23.419731 30.923189
-2.4247134 -26.671848 40.910732
-2.5135131 -30.162161 51.629818
-2.6090643 -33.917831 63.163872
-2.7121675 -37.970341 75.60952
-2.4604748e-23 74.00573 -65.668053
8.316626e-24 72.138275 -66.504456
1.4285249e-23 70.2873 -67.334
-6.1064877e-23 68.453056 -68.15554
-3.7142739e-23 66.635071 -68.969788
-1.9179077e-23 64.832932 -69.777443
-2.9075898e-23 63.046642 -70.578003
-2.387208e-23 61.275803 -71.372139
-5.193941e-23 59.52042 -72.15934
-3.9214377e-23 57.780285 -72.939697
-9.5640234e-25 56.055019 -73.713882
4.5491273e-24 54.344448 -74.481956
-6.8548226e-24 52.648418 -75.244003
-3.5881471e-23 50.966896 -75.999535
-3.1679329e-23 49.30518 -76.729195
-4.330883e-23 47.795311 -76.947632
-6.9293163e-24 46.33728 -76.984161
-3.3532634e-23 44.87986 -77.020691
-1.8867243e-23 43.425526 -77.047241
-4.9561985e-23 41.972298 -77.071022
-5.231978e-25 40.519463 -77.094788
-4.6412524e-23 39.067024 -77.118561
-5.5594284e-23 37.615101 -77.141777
-2.670688e-23 36.163441 -77.165527
-8.0572612e-24 34.712181 -77.18927
-5.7865977e-23 33.261326 -77.213013
-1.4713834e-24 31.810854 -77.236748
-4.4544994e-23 30.375662 -77.174911
-5.7918748e-23 28.928106 -77.181541
2.9006857e-24 27.480648 -77.188164
-2.0625646e-23 26.435635 -74.496765
-7.0755951e-23 24.966747 -74.498482
-3.5417873e-23 23.497812 -74.500748
-2.1203748e-23 22.028919 -74.503029
-4.4799436e-23 20.56012 -74.504738
-5.0153151e-23 19.091183 -74.508156
-3.7699271e-23 16.951992 -81.254219
-2.4113648e-23 15.540383 -81.24263
-7.3510855e-23 14.128542 -81.231567
-2.3326377e-23 12.80155 -80.079903
-1.019958e-23 11.558156 -77.379013
-6.1450434e-23 10.330928 -73.627678
-4.0243127e-23 9.0497704 -69.710815
-1.7185587e-23 7.710989 -65.618469
-9.8522416e-24 6.3106542 -61.337265
-2.8915577e-23 4.8443823 -56.855202
-2.2230656e-23 3.3074439 -52.156349
-7.1150659e-23 1.6945709 -47.226139
-5.1203213e-23 -1.8364202e-06 -42.046211
-2.6818557e-24 -1.7826235 -36.596283
-5.7268941e-23 -3.6603522 -30.856462
-3.2740984e-23 -5.6410136 -24.801086
1.5536158e-24 -7.7332878 -18.405411
2.3577989e-23 -9.9469385 -11.637796
-7.0335558e-23 -12.292746 -4.4670768
-8.2158144e-24 -14.783034 3.146277
-9.4579652e-23 -17.431425 11.241982
-1.3509044e-23 -20.253569 19.868769
-1.1113128e-22 -23.267208 29.082058
-2.8556923e-23 -26.492329 38.940742
-6.7611255e-23 -29.952244 49.518337
-1.3443943e-22 -33.673256 60.892952
-8.2720788e-23 -37.686478 73.162018
1.5468812 77.344063 -65.052986
1.5399064 75.455414 -65.89492
1.5329943 73.583725 -66.729294
1.5261387 71.728516 -67.556824
1.5193442 69.889832 -68.376999
1.512605 68.06723 -69.190483
1.5059252 66.260712 -69.996811
1.4992895 64.469452 -70.797806
1.4927169 62.694111 -71.591194
1.4861968 60.934074 -72.378242
1.4797335 59.189335 -73.15844
1.4733307 57.4599 -73.931305
1.4707437 55.888256 -74.243614
1.4704313 54.405972 -74.281296
1.4701147 52.924137 -74.319519
1.4698029 51.443108 -74.35717
1.469595 49.966236 -74.382256
1.4693919 48.489937 -74.406769
1.4691889 47.01405 -74.431259
1.4689859 45.538567 -74.455765
1.4687831 44.063492 -74.480247
1.468585 42.58897 -74.504166
1.4683824 41.114712 -74.528648
1.4681984 39.641361 -74.550835
1.4680995 36.702484 -74.56279
1.4675387 35.220932 -74.630455
1.4902651 34.276104 -71.887146
1.4902457 32.785408 -71.889488
1.4902263 31.294756 -71.891838
1.4902117 29.804235 -71.893593
1.4901923 28.313656 -71.895943
1.490173 26.823118 -71.898277
1.4901584 25.332693 -71.90004
1.4901389 23.842228 -71.90239
1.4901195 22.351797 -71.904732
1.4901049 20.861469 -71.906487
1.4900758 19.370991 -71.910004
1.4900368 17.880442 -71.914696
1.4333887 15.767278 -78.752747
1.4334831 14.334832 -78.741356
1.4335774 12.902192 -78.729965
1.4449333 11.559464 -77.359184
1.4697698 10.288392 -74.36116
1.5019437 9.0116692 -70.477425
1.5355629 7.6778169 -66.419228
1.5707161 6.2828646 -62.175846
1.6075168 4.8225536 -57.733627
1.646089 3.292181 -53.077553
1.6865516 1.6865509 -48.193283
1.7290601 -3.4000016e-06 -43.062046
1.77376 -1.7737583 -37.666306
1.8208394 -3.641679 -31.983292
1.8704786 -5.6114302 -25.991302
1.9229085 -7.691627 -19.662489
1.9783535 -9.8917704 -12.96966
2.0371001 -12.222599 -5.8783269
2.0994327 -14.696027 1.6458762
2.1657004 -17.3256 9.6450901
2.2362986 -20.126682 18.167059
2.3116431 -23.116421 27.261938
2.3922541 -26.314795 36.992558
2.4786768 -29.744125 47.424706
2.5715921 -33.430706 58.640594
2.6717296 -37.404209 70.72821
3.0760527 76.901329 -66.121864
3.0622211 75.024414 -66.956673
3.0485029 73.164078 -67.784637
3.0349071 71.32032 -68.605209
3.0214422 69.493172 -69.417892
3.0080864 67.681946 -70.223999
2.994848 65.886665 -71.023003
2.9876964 64.235466 -71.454636
2.9870522 62.728104 -71.493507
2.9863989 61.22118 -71.532951
2.9857554 59.715111 -71.571785
2.9851315 58.210068 -71.609436
2.9847128 56.709545 -71.634705
2.9842942 55.209442 -71.659988
2.9838753 53.709763 -71.685257
2.9834566 52.210495 -71.710518
2.9830482 50.711819 -71.735184
2.9826591 49.213879 -71.758675
2.9822798 47.716476 -71.781555
2.9837976 34.313675 -71.689949
3.0248299 33.273129 -69.213432
3.0247898 31.760292 -69.215858
3.0247598 30.247602 -69.217667
3.0247195 28.734837 -69.22007
3.0246899 27.222212 -69.221893
3.0246496 25.709524 -69.224297
3.0246096 24.19688 -69.226723
3.0245795 22.684355 -69.228531
3.0245397 21.17178 -69.230949
3.0244899 19.659189 -69.233963
3.0243998 18.146406 -69.239403
3.0243196 16.633757 -69.244225
2.9094479 14.547243 -76.177353
2.9096422 13.09339 -76.165619
