# .PCD v0.7 - Point Cloud Data file format
VERSION 0.7
FIELDS x y z
SIZE 4 4 4
TYPE F F F
COUNT 1 1 1
WIDTH 1498
HEIGHT 1
VIEWPOINT 0 0 0 1 0 0 0
POINTS 1498
DATA ascii
-87.918564 57.946331 -10.580114
-87.894753 55.933029 -10.64546
-87.87133 53.921059 -10.709682
-87.847557 51.909916 -10.774937
-87.823776 49.899876 -10.840155
-87.800018 47.890926 -10.905348
-87.774742 45.882263 -10.974693
-87.748703 43.874359 -11.046106
-87.722694 41.867661 -11.117472
-87.696693 39.862141 -11.188795
-87.670326 37.857643 -11.261126
-87.644363 35.854523 -11.332374
-87.618408 33.85257 -11.403567
-87.592476 31.85181 -11.474717
-87.566177 29.8521 -11.546877
-87.540268 27.853729 -11.617955
-87.514374 25.856525 -11.688982
-87.488495 23.860508 -11.759968
-87.462639 21.865664 -11.830917
-87.436417 19.871916 -11.902853
-87.410583 17.879442 -11.973721
-87.384773 15.888138 -12.044538
-87.358978 13.898017 -12.115311
-87.333183 11.909074 -12.186051
-87.307045 9.9212494 -12.257782
-87.281288 7.9346676 -12.328444
-87.255547 5.9492421 -12.399039
-87.229828 3.9649947 -12.469619
-87.203743 1.981901 -12.541169
-87.178055 -2.3699351e-06 -12.611663
-87.152374 -1.9807398 -12.682102
-87.126709 -3.9603002 -12.752506
-87.101059 -5.9387102 -12.822868
-87.075058 -7.9159141 -12.894214
-83.995537 -9.5449486 -21.342669
-83.995537 -11.453938 -21.342667
-85.269516 89.235535 -12.407356
-85.263969 87.246864 -12.422921
-85.258057 85.258049 -12.439526
-85.252502 83.26989 -12.455099
-85.246964 81.282005 -12.470654
-85.241051 79.293999 -12.487257
-85.235512 77.306633 -12.502809
-85.229599 75.319176 -12.519407
-85.22406 73.332321 -12.534964
-85.218147 71.345436 -12.551548
-85.212608 69.359108 -12.567093
-85.207062 67.373032 -12.582643
-85.201164 65.386932 -12.599228
-85.195625 63.401402 -12.614762
-85.18972 61.415852 -12.631346
-85.184181 59.430832 -12.646887
-85.17865 57.446072 -12.662436
-85.172745 55.461323 -12.679009
-85.167213 53.477093 -12.694526
-85.161308 51.492901 -12.711105
-85.155785 49.509182 -12.726624
-85.149879 47.525517 -12.743199
-85.144348 45.542332 -12.758717
-85.138817 43.559399 -12.774239
-85.132912 41.576546 -12.790791
-85.127396 39.594135 -12.806314
-85.12149 37.61182 -12.822859
-85.115974 35.629936 -12.83838
-85.110077 33.64817 -12.854932
-85.104546 31.666815 -12.870448
-85.09903 29.685711 -12.885945
-85.093132 27.704744 -12.902488
-85.087616 25.724161 -12.917986
-85.081718 23.743744 -12.934537
-85.076202 21.763687 -12.950032
-85.070305 19.783794 -12.966557
-85.064789 17.804258 -12.982054
-85.059639 15.825052 -12.996517
-85.054115 13.846017 -13.012005
-82.832047 11.557959 -19.249865
-82.832047 9.6316299 -19.249861
-82.83239 7.7053461 -19.248884
-82.83239 5.7790098 -19.248884
-82.83239 3.8526726 -19.248884
-82.83239 1.9263363 -19.248886
-82.83239 -9.7451925e-07 -19.248886
-82.832748 -1.9263383 -19.247898
-82.832748 -3.8526833 -19.247904
-82.832748 -5.7790203 -19.247904
-82.832748 -7.7053647 -19.247911
-79.532082 -9.2479153 -28.513601
-79.53241 -11.097547 -28.512695
-83.629562 87.611931 -11.421361
-83.6241 85.615158 -11.437057
-83.618279 83.618271 -11.453801
-83.612816 81.622047 -11.469491
-83.607361 79.62606 -11.485185
-83.60154 77.62999 -11.501918
-83.596077 75.634552 -11.517608
-83.590263 73.639038 -11.534335
-83.584801 71.644112 -11.550029
-83.578987 69.649147 -11.566742
-83.573524 67.654762 -11.582426
-83.568069 65.660622 -11.598095
-83.562256 63.666492 -11.61482
-83.556808 61.672882 -11.630486
-83.55098 59.679279 -11.647205
-83.545525 57.686195 -11.662869
-83.540085 55.693398 -11.678539
-83.534271 53.700611 -11.69524
-83.528816 51.708324 -11.710919
-83.523369 49.716297 -11.726575
-83.518288 47.724731 -11.741184
-83.513199 45.733418 -11.755796
-83.508118 43.742348 -11.770401
-83.503029 41.751522 -11.785015
-83.497955 39.760933 -11.79962
-83.492874 37.770592 -11.814232
-83.487793 35.780487 -11.828838
-83.482712 33.79063 -11.843431
-83.477638 31.80101 -11.858035
-83.472191 29.811501 -11.873678
-83.467117 27.822371 -11.888259
-83.462036 25.83349 -11.902866
-83.456955 23.844847 -11.917447
-83.451874 21.856441 -11.93204
-83.446808 19.86829 -11.946637
-83.441727 17.880377 -11.961224
-83.436646 15.892701 -11.975805
-83.43158 13.905272 -11.990393
-78.465111 11.209307 -26.264339
-78.465431 9.3411217 -26.263422
-78.465431 7.4729033 -26.26342
-78.465431 5.6046772 -26.263426
-78.465431 3.7364495 -26.263411
-78.465431 1.8682228 -26.263414
-78.465744 1.9958752e-06 -26.262495
-78.465744 -1.8682237 -26.262501
-78.465744 -3.7364693 -26.262493
-78.465744 -5.6046948 -26.262499
-78.465744 -7.4729204 -26.262505
-75.338341 -8.9688501 -35.250858
-75.338638 -10.762656 -35.250008
-75.757637 -12.626277 -34.045769
-81.981789 87.980453 -10.410323
-81.976051 85.974899 -10.427208
-81.971039 83.970345 -10.441981
-81.966019 81.966026 -10.45675
-81.960999 79.961952 -10.471524
-81.955627 77.957794 -10.48735
-81.950607 75.954239 -10.502117
-81.945602 73.950912 -10.51687
-81.940582 71.94783 -10.531636
-81.935577 69.945015 -10.546396
-81.930557 67.942429 -10.561155
-81.925545 65.940071 -10.575911
-81.92054 63.937988 -10.590658
-81.915527 61.936138 -10.605418
-81.910515 59.934525 -10.620177
-81.905502 57.933167 -10.634911
-81.900497 55.932049 -10.649661
-81.895493 53.931187 -10.664412
-81.89048 51.930546 -10.679142
-81.885475 49.930172 -10.693896
-81.88047 47.930038 -10.708636
-81.875107 45.929935 -10.724422
-81.870094 43.930294 -10.739153
-81.865089 41.930904 -10.753897
-81.860092 39.931759 -10.768625
-81.855087 37.932842 -10.783353
-81.850082 35.934181 -10.798082
-81.845078 33.935776 -10.812815
-81.84008 31.937597 -10.827545
-81.835075 29.939667 -10.842262
-81.830078 27.941982 -10.856987
-81.825081 25.944534 -10.871703
-81.820076 23.947344 -10.886424
-81.815079 21.95039 -10.901136
-81.810081 19.953682 -10.915857
-81.805084 17.95722 -10.930564
-81.799736 15.960924 -10.946322
-81.794739 13.964965 -10.961041
-74.354218 10.88111 -32.867153
-74.354218 9.0675936 -32.867146
-74.354218 7.2540693 -32.867138
-74.354218 5.4405546 -32.867149
-74.354218 3.6270387 -32.867142
-74.354515 1.8135235 -32.866276
-74.354515 -4.8515244e-07 -32.866272
-74.354515 -1.8135262 -32.866268
-74.354515 -3.6270401 -32.86628
-74.354515 -5.4405723 -32.86628
-74.354515 -7.2540979 -32.866276
-71.390289 -8.7061367 -41.593407
-71.390289 -10.447354 -41.593418
-71.390289 -12.188582 -41.59341
-70.476929 10.571543 -39.095119
-70.476929 8.8096123 -39.095112
-70.476929 7.0476913 -39.095119
-70.477203 5.2857933 -39.094311
-70.477203 3.5238619 -39.094303
-70.477203 1.76193 -39.094292
-70.477203 8.5243928e-06 -39.094303
-70.477203 -1.7619311 -39.094299
-70.477203 -3.5238609 -39.094292
-70.477203 -5.2857823 -39.094303
-70.477203 -7.0477204 -39.094299
-67.722069 -8.4652586 -47.408649
-67.666954 -10.150038 -47.574974
-67.666702 -11.841676 -47.575718
-66.814156 10.279111 -44.978531
-66.814156 8.5659208 -44.978535
-66.814407 6.8527584 -44.977753
-66.814407 5.1395683 -44.977757
-66.814407 3.4263783 -44.977757
-66.814407 1.7131897 -44.977757
-66.814407 -4.3110197e-07 -44.977757
-66.814407 -1.7131906 -44.977757
-66.814407 -3.4263725 -44.977753
-66.814407 -5.1395612 -44.977753
-66.814407 -6.8527513 -44.977753
-64.518425 -8.2715912 -52.084137
-64.149673 -9.8691778 -53.225498
-64.149445 -11.514002 -53.2262
-63.348572 10.002401 -50.545189
-63.348801 8.3353767 -50.54446
-63.348801 6.6682968 -50.544464
-63.348801 5.0012226 -50.544456
-63.348801 3.3341484 -50.544449
-63.348801 1.6670762 -50.544464
-63.348801 4.0652208e-06 -50.54446
-63.348801 -1.6670702 -50.544456
-63.348801 -3.3341525 -50.544453
-63.348801 -5.0012164 -50.544464
-63.348801 -6.6682887 -50.54446
-62.862061 -8.2713242 -52.090633
-60.82159 -9.6034079 -58.572388
-60.82159 -11.203978 -58.572392
-61.476353 -12.942397 -56.492474
-60.064671 11.363587 -55.82003
-60.064888 9.7402544 -55.819328
-60.064888 8.1168718 -55.819328
-60.064888 6.4935031 -55.819332
-60.064888 4.8701286 -55.819324
-60.064888 3.2467523 -55.819336
-60.064888 1.623382 -55.819336
-60.064888 -4.8993288e-06 -55.819328
-60.064888 -1.6233733 -55.819332
-60.064888 -3.2467437 -55.819336
-60.064888 -4.870132 -55.819324
-60.064888 -6.4935007 -55.819324
-60.064888 -8.1168709 -55.819332
-57.668251 -9.3516054 -63.638237
-57.668053 -10.910167 -63.638878
-57.668053 -12.468769 -63.638878
-56.94873 11.073365 -60.824726
-56.94873 9.4914608 -60.82473
-56.94873 7.9095531 -60.82473
-56.94873 6.3276334 -60.82473
-56.94873 4.7457275 -60.824734
-56.94873 3.1638196 -60.824734
-56.94873 1.5819076 -60.824726
-56.94873 1.7549372e-06 -60.82473
-56.94873 -1.5819101 -60.824726
-56.94873 -3.1638165 -60.824726
-56.94873 -4.7457237 -60.82473
-56.94873 -6.3276339 -60.824722
-56.94873 -7.909544 -60.824741
-54.676044 -9.1126738 -68.445213
-54.675865 -10.631418 -68.445816
-54.675682 -12.15015 -68.446426
-53.987804 10.797559 -65.580788
-53.987804 9.2550526 -65.580795
-53.987804 7.7125454 -65.580795
-53.987804 6.1700358 -65.580788
-53.987804 4.6275263 -65.580788
-53.987804 3.0850186 -65.580788
-53.987804 1.5425074 -65.580788
-53.987804 -6.0120215e-07 -65.58078
-53.987804 -1.5425059 -65.580795
-53.987804 -3.085017 -65.580788
-53.987804 -4.6275229 -65.580788
-53.987804 -6.1700344 -65.580788
-53.987804 -7.7125421 -65.580788
-51.832767 -8.8856173 -73.013245
-51.832767 -10.366552 -73.013252
-51.8326 -11.847455 -73.013824
-51.185444 28.603634 -70.05365
-51.173489 27.09185 -70.096123
-51.16153 25.580767 -70.138565
-51.149582 24.070395 -70.180992
-51.137806 22.560795 -70.222809
-51.125866 21.051823 -70.26519
-51.113934 19.543568 -70.307556
-51.102005 18.036003 -70.349899
-51.09008 16.52914 -70.392235
-51.078335 15.023043 -70.433945
-51.066422 13.517582 -70.476227
-51.054516 12.012826 -70.518494
-51.042618 10.508778 -70.560745
-51.030891 9.0054522 -70.602379
-51.019001 7.5027928 -70.644592
-51.007282 6.0008636 -70.686188
-50.995571 4.4996119 -70.72776
-50.983868 2.9990551 -70.769325
-50.972336 1.4991835 -70.810265
-50.96064 1.3938416e-07 -70.851784
-50.948952 -1.4984986 -70.893288
-50.937435 -2.9963202 -70.934181
-50.925755 -4.4934487 -70.975639
-50.914082 -5.9898973 -71.017082
-50.902412 -7.4856462 -71.05851
-49.127888 -8.6696301 -77.358627
-49.127735 -10.114532 -77.359177
-49.127735 -11.559464 -77.359184
-49.894394 -13.207339 -74.637283
-48.812881 73.958916 -73.225464
-48.801674 72.463089 -73.266464
-48.79047 70.967957 -73.307434
-48.77943 69.47374 -73.347816
-48.768234 67.979965 -73.388763
-48.757053 66.486885 -73.42968
-48.746185 64.994919 -73.469429
-48.735168 63.503391 -73.509735
-48.724152 62.012554 -73.550034
-48.713295 60.522587 -73.589722
-48.702293 59.033085 -73.629982
-48.691292 57.544258 -73.670212
-48.680302 56.056103 -73.710426
-48.669464 54.568798 -73.750061
-48.658478 53.081982 -73.790245
-48.647499 51.595833 -73.830406
-48.636681 50.110519 -73.869987
-48.625713 48.625721 -73.91011
-48.614746 47.141575 -73.950211
-48.603943 45.658249 -73.989738
-48.592987 44.175449 -74.029816
-48.582039 42.693306 -74.069855
-48.571091 41.211834 -74.109901
-48.560307 39.731159 -74.149353
-48.549374 38.251022 -74.189354
-48.538437 36.771549 -74.229332
-48.527672 35.292847 -74.26873
-48.51675 33.814705 -74.308685
-48.505829 32.337223 -74.348618
-48.494923 30.860403 -74.388519
-48.484169 29.384352 -74.427849
-48.47327 27.90885 -74.46772
-48.462372 26.434019 -74.507584
-48.451633 24.95993 -74.546852
-48.44075 23.486425 -74.586678
-48.429867 22.013577 -74.62648
-48.418991 20.541388 -74.666275
-48.408276 19.069927 -74.705467
-48.397408 17.599054 -74.745224
-48.386539 16.128853 -74.784966
-48.375843 14.659347 -74.824104
-48.36499 13.190448 -74.863808
-48.354137 11.722218 -74.903488
-48.343452 10.25467 -74.942581
-48.332615 8.7877512 -74.982231
-48.321781 7.3214798 -75.021858
-48.310951 5.8558745 -75.061462
-48.300282 4.3909364 -75.100487
-48.289463 2.9266372 -75.140068
-48.278652 1.4629878 -75.179626
-48.267994 1.0571121e-06 -75.218597
-48.257191 -1.4623365 -75.258125
-48.246391 -2.9240181 -75.297623
-48.235596 -4.3850503 -75.337112
-48.22496 -5.8454494 -75.376022
-48.214176 -7.3051796 -75.415474
-47.635994 -8.6610861 -77.530411
-47.635841 -10.104572 -77.53096
-47.635689 -11.548047 -77.531509
-47.794399 -13.034835 -76.950951
-47.077118 73.558006 -74.193352
-47.073788 72.081741 -74.205917
-47.070606 70.605911 -74.217911
-47.067429 69.13028 -74.229904
-47.064095 67.65464 -74.24247
-47.060917 66.179413 -74.254463
-47.057739 64.704399 -74.266449
-47.054565 63.229572 -74.278442
-47.051235 61.754749 -74.290985
-47.048058 60.280327 -74.302971
-47.04488 58.806099 -74.314957
-47.041553 57.331898 -74.327507
-47.03838 55.85807 -74.339485
-47.035202 54.384453 -74.351463
-47.031879 52.910862 -74.364014
-47.028702 51.437653 -74.375984
-47.025528 49.964626 -74.387955
-47.022205 48.491653 -74.400497
-47.019035 47.019032 -74.41246
-47.015862 45.546612 -74.424431
-47.012539 44.074261 -74.436966
-47.009365 42.602242 -74.448921
-47.006191 41.130421 -74.460884
-47.002872 39.65868 -74.473419
-46.999702 38.18726 -74.485382
-46.996536 36.716049 -74.497337
-46.99321 35.244907 -74.509857
-46.990044 33.774097 -74.521812
-46.986877 32.303482 -74.533768
-46.983559 30.832962 -74.546288
-46.980389 29.362747 -74.558235
-46.977222 27.892729 -74.570183
-46.973904 26.422823 -74.582703
-46.970737 24.953213 -74.594643
-46.967567 23.483786 -74.606575
-46.964405 22.014574 -74.61853
-46.961094 20.545473 -74.631027
-46.957924 19.076656 -74.642967
-46.954762 17.608036 -74.6549
-46.95145 16.139563 -74.667412
-46.94828 14.671342 -74.679337
-46.945118 13.203319 -74.691269
-46.942108 11.735527 -74.702629
-46.939098 10.267923 -74.713989
-46.936089 8.8005171 -74.725349
-46.933079 7.3332911 -74.73671
-46.930069 5.866262 -74.748062
-46.927059 4.3994112 -74.759415
-46.924046 2.932755 -74.770767
-46.921036 1.4662776 -74.78212
-46.918026 3.5405599e-06 -74.793472
-46.91502 -1.4660918 -74.804825
-46.91201 -2.9320035 -74.816162
-46.909004 -4.3977141 -74.827515
-46.905994 -5.8632455 -74.838852
-46.903141 -7.3286171 -74.849632
-46.396194 -8.6992836 -76.761932
-46.396049 -10.149136 -76.762497
-46.395901 -11.598973 -76.763054
-46.573387 -13.098762 -76.093513
-45.80711 73.882446 -73.410095
-45.804001 72.399879 -73.422188
-45.800747 70.917282 -73.434868
-45.797638 69.435135 -73.446968
-45.794533 67.953178 -73.459061
-45.791279 66.471214 -73.471733
-45.78817 64.98967 -73.483833
-45.785069 63.508316 -73.495918
-45.781811 62.026974 -73.508591
-45.778709 60.546036 -73.520683
-45.775604 59.065296 -73.532761
-45.772354 57.584576 -73.545433
-45.769249 56.104244 -73.557518
-45.766148 54.624111 -73.569588
-45.762897 53.144012 -73.582253
-45.759792 51.664284 -73.59433
-45.756695 50.184769 -73.606407
-45.75359 48.705444 -73.618477
-45.750347 47.226162 -73.631126
-45.747242 45.747242 -73.643204
-45.744144 44.268524 -73.655266
-45.740898 42.789875 -73.667915
-45.737793 41.311562 -73.679977
-45.734695 39.83345 -73.692062
-45.73175 38.355659 -73.703545
-45.728798 36.878063 -73.715034
-45.725845 35.400654 -73.726517
-45.722897 33.923447 -73.737999
-45.719948 32.446419 -73.749489
-45.716995 30.969578 -73.760971
-45.71405 29.492941 -73.772446
-45.711105 28.016485 -73.783928
-45.708153 26.54022 -73.79541
-45.705208 25.06415 -73.806885
-45.702259 23.588266 -73.818359
-45.699314 22.112576 -73.829842
-45.696365 20.637072 -73.841309
-45.693573 19.161823 -73.852203
-45.690624 17.686693 -73.86367
-45.687679 16.211756 -73.875145
-45.684731 14.73701 -73.886604
-45.681789 13.262461 -73.898064
-45.678844 11.788085 -73.909531
-45.675903 10.31392 -73.920998
-45.672962 8.8399324 -73.932457
-45.670013 7.366128 -73.943916
-45.667072 5.8925338 -73.955376
-45.664131 4.4191113 -73.966835
-45.66119 2.9458864 -73.978271
-45.658249 1.472846 -73.989738
-45.655304 7.0819119e-06 -74.001183
-45.652515 -1.4726596 -74.012062
-45.649574 -2.9451301 -74.023514
-45.646633 -4.4174194 -74.034958
-45.643696 -5.8895068 -74.04641
-45.640755 -7.3614116 -74.057846
-45.145271 -8.7377949 -75.987213
-45.145271 -10.19409 -75.987221
-45.14513 -11.650352 -75.987785
-45.340343 -13.163326 -75.227631
-44.525852 74.209755 -72.619873
-44.522816 72.720604 -72.632095
-44.519783 71.231659 -72.644302
-44.516605 69.742683 -72.657089
-44.513569 68.254135 -72.669289
-44.510536 66.765816 -72.681496
-44.507648 65.277885 -72.693123
-44.504761 63.790165 -72.704735
-44.501877 62.302624 -72.716347
-44.498989 60.815285 -72.727966
-44.496101 59.328136 -72.739578
-44.493214 57.841187 -72.75119
-44.49033 56.35442 -72.76281
-44.487442 54.867851 -72.774406
-44.484562 53.381477 -72.786026
-44.481674 51.89529 -72.79763
-44.47879 50.40929 -72.809235
-44.475906 48.923504 -72.820847
-44.473022 47.437889 -72.832443
-44.470135 45.952477 -72.844048
-44.4674 44.467403 -72.855064
-44.46452 42.982368 -72.866661
-44.461636 41.497524 -72.878258
-44.458752 40.012882 -72.889862
-44.455875 38.528427 -72.901443
-44.452991 37.044163 -72.91304
-44.450108 35.560093 -72.924637
-44.447231 34.076214 -72.936226
-44.444351 32.592529 -72.947807
-44.441471 31.109028 -72.959389
-44.438591 29.625727 -72.970978
-44.435715 28.14262 -72.982567
-44.432835 26.659708 -72.994148
-44.430099 25.177055 -73.00515
-44.427223 23.694519 -73.016724
-44.424343 22.212175 -73.028297
-44.421467 20.730019 -73.039871
-44.418594 19.248062 -73.051453
-44.415714 17.766287 -73.063011
-44.412842 16.284708 -73.074593
-44.409966 14.803321 -73.086159
-44.407093 13.322128 -73.097733
-44.404213 11.841131 -73.109299
-44.40134 10.360312 -73.120857
-44.398468 8.8796978 -73.132431
-44.395596 7.3992696 -73.143982
-44.392723 5.9190292 -73.155548
-44.389992 4.4390001 -73.166534
-44.387119 2.9591463 -73.178093
-44.384247 1.4794787 -73.189644
-44.381378 6.0792368e-06 -73.201195
-44.378506 -1.4792845 -73.212753
-44.375629 -2.9583731 -73.224312
-44.372761 -4.4372759 -73.235855
-44.369896 -5.9159894 -73.247406
-44.36702 -7.3944964 -73.258949
-43.883366 -8.7766705 -75.205048
-43.883366 -10.23945 -75.20504
-43.883221 -11.702191 -75.205605
-44.095081 -13.228524 -74.353172
-43.249119 74.567451 -71.756325
-43.247711 73.073723 -71.762192
-43.2463 71.580086 -71.768059
-43.245029 70.086777 -71.773346
-43.243622 68.59333 -71.779213
-43.242352 67.100197 -71.7845
-43.224453 65.581932 -71.859001
-43.212479 64.073677 -71.908836
-43.209805 62.57972 -71.919968
-43.20713 61.085945 -71.931107
-43.204453 59.592358 -71.942238
-43.201782 58.098949 -71.953362
-43.199104 56.605732 -71.9645
-43.196434 55.11269 -71.975624
-43.19376 53.619843 -71.986755
-43.19109 52.127174 -71.997871
-43.188416 50.634693 -72.009003
-43.185883 49.142559 -72.019539
-43.183212 47.650444 -72.030655
-43.180538 46.158512 -72.041779
-43.177868 44.666771 -72.052902
-43.175198 43.175201 -72.064018
-43.172527 41.683823 -72.075134
-43.169857 40.192623 -72.08625
-43.167187 38.701618 -72.097366
-43.164516 37.210793 -72.108475
-43.16185 35.720154 -72.119583
-43.159184 34.229698 -72.130699
-43.156509 32.739422 -72.1418
-43.153843 31.249332 -72.152908
-43.151176 29.759436 -72.164001
-43.14851 28.269716 -72.17511
-43.14584 26.780178 -72.186218
-43.143173 25.290827 -72.197319
-43.140507 23.801664 -72.20842
-43.137699 22.312607 -72.220093
-43.134895 20.82374 -72.231781
-43.132088 19.335075 -72.243454
-43.129284 17.8466 -72.255142
-43.126476 16.358322 -72.266808
-43.123672 14.870235 -72.278488
-43.120869 13.382341 -72.290161
-43.118061 11.894638 -72.301826
-43.115398 10.407166 -72.31292
-43.112595 8.9198427 -72.324585
-43.109795 7.4327288 -72.33625
-43.106991 5.9457965 -72.347916
-43.104187 4.4590492 -72.359581
-43.101387 2.9725127 -72.371246
-43.098587 1.4861658 -72.382904
-43.095783 4.0762925e-06 -72.394569
-43.092983 -1.4859627 -72.406227
-43.090187 -2.9717367 -72.417877
-43.087387 -4.4573126 -72.429535
-43.084587 -5.9427023 -72.441185
-43.081787 -7.4279003 -72.452835
-42.610176 -8.815896 -74.415886
-42.610039 -10.28518 -74.416451
-42.610039 -11.754491 -74.416451
-42.837418 -13.294373 -73.470009
-41.816685 10.454177 -71.502342
-41.816002 8.9605751 -71.505287
-41.816002 7.4671454 -71.50528
-41.816002 5.9737129 -71.505287
-41.816002 4.4802833 -71.50528
-41.816002 2.9868588 -71.50528
-41.816002 1.4934331 -71.505287
-41.816002 1.3612471e-06 -71.50528
-41.816002 -1.4934309 -71.505287
-41.816002 -2.9868534 -71.505287
-41.816002 -4.4802852 -71.50528
-41.816002 -5.9737077 -71.50528
-41.81805 -7.4675064 -71.496452
-41.325558 -8.8554773 -73.619629
-41.325428 -10.331357 -73.620209
-41.325428 -11.807262 -73.620209
-41.567173 -13.360878 -72.578003
-40.505119 10.501328 -70.689156
-40.809288 9.0687313 -69.3293
-40.809288 7.5572753 -69.329292
-40.809288 6.0458207 -69.329292
-40.809288 4.5343661 -69.329292
-40.809288 3.0229099 -69.329292
-40.809288 1.5114536 -69.329292
-40.809155 6.0610932e-06 -69.329895
-40.809155 -1.5114502 -69.329895
-40.809155 -3.0229063 -69.329895
-40.809155 -4.5343471 -69.329895
-40.809155 -6.0458031 -69.329895
-40.506451 -7.5011926 -70.68322
-40.029354 -8.8954115 -72.8162
-40.029224 -10.377942 -72.81678
-40.029224 -11.860511 -72.81678
-39.181667 10.54891 -69.868614
-39.4758 9.1098042 -68.503029
-39.4758 7.5915012 -68.503029
-39.4758 6.0732045 -68.503036
-39.4758 4.5549021 -68.503044
-39.4758 3.0366027 -68.503036
-39.4758 1.5183002 -68.503044
-39.4758 -1.0335289e-06 -68.503036
-39.47567 -1.5182968 -68.503647
-39.47567 -3.0365837 -68.503647
-39.47567 -4.5548859 -68.503647
-39.47567 -6.0731807 -68.503639
-39.182961 -7.535182 -69.86261
-38.721405 -8.9357109 -72.005486
-38.721279 -10.424962 -72.006073
-38.721153 -11.914201 -72.006653
-37.846298 10.596961 -69.039986
-38.13018 9.1512451 -67.669266
-38.13018 7.6260395 -67.669273
-38.13018 6.1008282 -67.669266
-38.13018 4.5756245 -67.669266
-38.13018 3.0504172 -67.669266
-38.13018 1.5252134 -67.669266
-38.13018 3.4030222e-07 -67.669258
-38.13018 -1.5252033 -67.669266
-38.130054 -3.0504062 -67.669884
-38.130054 -4.5756035 -67.669884
-38.130054 -6.1008072 -67.669884
-37.847424 -7.5694842 -69.034538
-37.40155 -8.9763699 -71.187401
-37.401428 -10.4724 -71.187988
-37.401306 -11.968422 -71.188576
-36.498577 10.645419 -68.204391
-36.772259 9.1930609 -66.827873
-36.772259 7.6608868 -66.827881
-36.772259 6.128716 -66.827873
-36.772259 4.5965371 -66.827873
-36.772259 3.0643551 -66.827873
-36.772259 1.532178 -66.827881
-36.772259 5.5964847e-06 -66.827873
-36.772259 -1.5321734 -66.827873
-36.772259 -3.0643535 -66.827873
-36.772259 -4.5965323 -66.827873
-36.772259 -6.128705 -66.827866
-36.499672 -7.6040959 -68.198898
-36.06963 -9.0174026 -70.361832
-36.069515 -10.520269 -70.362427
-36.069393 -12.023129 -70.363022
-35.138481 10.694319 -67.361115
-35.401871 9.2352724 -65.978752
-35.401871 7.6960607 -65.978752
-35.401871 6.1568484 -65.978752
-35.401871 4.6176367 -65.978752
-35.401871 3.078428 -65.978752
-35.401871 1.5392145 -65.978752
-35.401871 4.0105365e-06 -65.978752
-35.401871 -1.5392077 -65.97876
-35.401871 -3.078418 -65.978752
-35.401871 -4.6176319 -65.97876
-35.401871 -6.1568422 -65.978752
-35.139538 -7.639029 -67.355568
-34.725479 -9.0588245 -69.528671
-34.725361 -10.568589 -69.529282
-34.725246 -12.078349 -69.529877
-33.765942 10.743715 -66.50943
-34.018845 9.2778664 -65.121803
-34.018845 7.7315521 -65.121803
-34.018845 6.1852398 -65.121803
-34.018845 4.6389399 -65.121803
-34.018845 3.0926263 -65.121803
-34.018845 1.546314 -65.121803
-34.018845 4.1469912e-06 -65.121803
-34.018845 -1.5463097 -65.121803
-34.018845 -3.0926235 -65.121803
-34.018845 -4.6389341 -65.121803
-34.018845 -6.1852441 -65.121803
-33.76685 -7.6742802 -66.504456
-33.368919 -9.1006107 -68.687836
-33.368809 -10.617348 -68.688446
-33.368698 -12.134068 -68.689049
-32.380558 10.793519 -65.650475
-32.623108 9.3208942 -64.256271
-32.622997 7.7673826 -64.256912
-32.622997 6.2139101 -64.256912
-32.622997 4.6604285 -64.256912
-32.622997 3.106956 -64.256912
-32.622997 1.5534741 -64.256912
-32.622997 -2.3418716e-07 -64.256905
-32.622997 -1.553479 -64.256905
-32.622997 -3.1069512 -64.256905
-32.622997 -4.6604271 -64.25692
-32.622997 -6.2138996 -64.256912
-32.381432 -7.7098641 -65.645462
-31.999681 -9.1427631 -67.839813
-31.999681 -10.666556 -67.839813
-31.999577 -12.190312 -67.840431
-30.982376 10.843832 -64.78289
-31.214264 9.3642826 -63.38332
-31.214264 7.8035641 -63.383324
-31.214155 6.242836 -63.383968
-31.214155 4.6821232 -63.383965
-31.214155 3.1214142 -63.383961
-31.214155 1.5607073 -63.383968
-31.214155 -1.8079363e-06 -63.383965
-31.214155 -1.5607004 -63.383968
-31.214155 -3.1214149 -63.383965
-31.214155 -4.6821241 -63.383965
-31.214155 -6.2428293 -63.383968
-30.98311 -7.7457743 -64.77845
-30.617802 -9.185339 -66.983276
-30.617802 -10.71623 -66.983276
-30.617701 -12.247081 -66.983894
-29.570995 10.894579 -63.907803
-29.792238 9.4080763 -62.502205
-29.792238 7.8400607 -62.502209
-29.792238 6.2720547 -62.502209
-29.792137 4.7040215 -62.502857
-29.792137 3.1360154 -62.502857
-29.792137 1.5680076 -62.502853
-29.792137 1.6811639e-06 -62.502857
-29.792137 -1.5680046 -62.502853
-29.792137 -3.1360121 -62.502853
-29.792137 -4.7040181 -62.502853
-29.792238 -6.2720447 -62.502205
-29.571699 -7.7820272 -63.903336
-29.222992 -9.2283125 -66.118736
-29.222895 -10.766335 -66.119362
-29.222895 -12.304378 -66.11937
-28.146343 10.945798 -63.024506
-28.356852 9.4522848 -61.612808
-28.356852 7.8769031 -61.612812
-28.356852 6.3015218 -61.612816
-28.356852 4.7261424 -61.612801
-28.356752 3.1507514 -61.613461
-28.356752 1.5753781 -61.613461
-28.356752 -1.7308389e-06 -61.613461
-28.356752 -1.5753751 -61.613461
-28.356852 -3.150759 -61.612812
-28.356852 -4.7261419 -61.612816
-28.356852 -6.301518 -61.612801
-28.147015 -7.8186159 -63.019989
-27.815071 -9.2716913 -65.246063
-27.814978 -10.816935 -65.246689
-27.814978 -12.362212 -65.246681
-26.708321 10.997546 -62.132202
-26.907907 9.4969072 -60.715015
-26.907907 7.9140878 -60.715012
-26.907907 6.3312707 -60.715015
-26.907907 4.7484531 -60.715015
-26.907907 3.1656339 -60.715015
-26.907814 1.5828176 -60.715672
-26.759254 6.6499579e-06 -61.770561
-26.907907 -1.5828117 -60.715015
-26.907907 -3.1656294 -60.715012
-26.907907 -4.7484484 -60.715015
-26.907907 -6.3312659 -60.715015
-26.708874 -7.8555455 -62.1283
-26.39385 -9.3154726 -64.365143
-26.393763 -10.868021 -64.365776
-26.393763 -12.420588 -64.365784
-25.256556 11.049742 -61.232079
-25.445221 9.5419607 -59.808701
-25.445221 7.951633 -59.808697
-25.445221 6.3613057 -59.808708
-25.445221 4.7709785 -59.808701
-25.445221 3.1806545 -59.808697
-25.445221 1.5903249 -59.808704
-25.316591 3.5005405e-07 -60.779144
-25.445221 -1.5903203 -59.808704
-25.445221 -3.1806457 -59.808701
-25.445221 -4.770977 -59.808708
-25.445221 -6.3613052 -59.808693
-25.257076 -7.8928318 -61.228142
-24.959143 -9.3596764 -63.475876
-24.959057 -10.919597 -63.476501
-24.959057 -12.479527 -63.476509
-23.790937 11.102433 -60.323372
-23.96859 9.5874338 -58.893749
-23.96859 7.9895277 -58.893749
-23.96859 6.3916292 -58.893745
-23.96859 4.7937212 -58.893745
-23.96859 3.1958148 -58.893745
-23.96859 1.5979068 -58.893749
-23.96859 3.3204606e-07 -58.893749
-23.96859 -1.5979061 -58.893749
-23.96859 -3.1958065 -58.893757
-23.96859 -4.7937222 -58.893749
-23.96859 -6.391613 -58.893753
-23.791515 -7.9305058 -60.318718
-23.510757 -9.4043026 -62.578106
-23.510675 -10.971645 -62.578754
-23.513094 -12.540322 -62.559296
-22.311356 11.155679 -59.405289
-22.477816 9.6333523 -57.970036
-22.477816 8.0277891 -57.970036
-22.477816 6.4222379 -57.970032
-22.477816 4.8166785 -57.970036
-22.477816 3.2111151 -57.970032
-22.477816 1.6055638 -57.970032
-22.477816 -1.6188764e-06 -57.970024
-22.477816 -1.6055551 -57.970039
-22.477816 -3.2111168 -57.970036
-22.477816 -4.8166757 -57.970024
-22.477816 -6.4222293 -57.970036
-22.311821 -7.9685063 -59.401272
-22.048491 -9.4493523 -61.671749
-22.048414 -11.024205 -61.672409
-22.062092 -12.606913 -61.554485
-20.817442 11.209394 -58.479031
-20.972694 9.6797056 -57.037422
-20.972694 8.0664225 -57.03743
-20.972694 6.4531374 -57.037426
-20.972694 4.8398566 -57.03743
-20.972694 3.2265677 -57.037426
-20.972694 1.6132805 -57.037422
-20.972694 3.7799168e-06 -57.037437
-20.972694 -1.6132834 -57.03743
-20.972694 -3.2265701 -57.03743
-20.972769 -4.8398643 -57.036739
-20.972769 -6.4531612 -57.036739
-20.817879 -8.0068769 -58.474972
-20.572149 -9.4948368 -60.756668
-20.572079 -11.077271 -60.757332
-20.595596 -12.674214 -60.538933
-19.309139 11.263662 -57.543129
-19.453018 9.7265081 -56.095806
-19.453018 8.1054296 -56.095798
-19.453018 6.4843402 -56.095798
-19.453018 4.8632574 -56.09581
-19.453018 3.2421625 -56.095798
-19.453018 1.6210934 -56.09581
-19.453018 4.4527128e-06 -56.09581
-19.453018 -1.6210845 -56.09581
-19.453087 -3.2421839 -56.095104
-19.453087 -4.8632712 -56.095104
-19.453087 -6.4843616 -56.095104
-19.310905 -8.0462103 -57.525356
-19.081526 -9.5407581 -59.832729
-19.081459 -11.130852 -59.833397
-19.113361 -12.742237 -59.512505
-17.786097 11.318425 -56.598816
-17.918575 9.7737741 -55.145027
-17.918575 8.1448145 -55.145031
-17.918575 6.5158529 -55.145031
-17.918575 4.8868914 -55.145031
-17.918575 3.2579284 -55.145031
-17.918575 1.6289669 -55.145031
-17.918638 -3.5536577e-06 -55.144325
-17.918638 -1.6289667 -55.144325
-17.918638 -3.2579341 -55.144333
-17.918638 -4.8868942 -55.144333
-17.918638 -6.5158653 -55.144337
-17.792072 -8.0872984 -56.53323
-17.576351 -9.5870943 -58.90049
-17.576351 -11.184946 -58.90049
-17.615128 -12.810993 -58.474976
-16.248173 11.373719 -55.645267
-16.369148 9.8214922 -54.184967
-16.369148 8.1845779 -54.184975
-16.369148 6.5476613 -54.184971
-16.369148 4.910749 -54.184975
-16.369205 3.2738423 -54.184261
-16.369205 1.6369216 -54.184269
-16.369205 -2.4120395e-06 -54.184258
-16.369205 -1.636923 -54.184265
-16.369205 -3.2738354 -54.184269
-16.369205 -4.9107661 -54.184261
-16.369205 -6.547678 -54.184269
-16.560379 -8.2801895 -51.876591
-16.056541 -9.6339254 -57.958458
-16.056541 -11.239576 -57.958466
-16.100637 -12.880507 -57.426186
-14.69604 11.430253 -54.670395
-14.804569 9.8697186 -53.214783
-14.804516 8.2247362 -53.215496
-14.804569 6.5798173 -53.214779
-14.804569 4.9348536 -53.214775
-14.804569 3.2899003 -53.214771
-14.804569 1.6449584 -53.214783
-14.804569 4.7808512e-06 -53.214779
-14.804569 -1.6449553 -53.214779
-14.804569 -3.2898989 -53.21479
-14.804569 -4.9348526 -53.214779
-14.804569 -6.5798044 -53.214775
-14.906879 -8.281601 -51.84256
-14.521812 -9.6812105 -57.007191
-14.521761 -11.2947 -57.007889
-14.569622 -12.950774 -56.365963
-13.129485 11.488297 -53.66943
-13.224503 9.9183836 -52.235741
-13.224503 8.2653103 -52.235725
-13.224503 6.612247 -52.235729
-13.224503 4.9591932 -52.235725
-13.224503 3.3061295 -52.235729
-13.224503 1.653066 -52.235733
-13.224503 4.6194127e-06 -52.235737
-13.224503 -1.6530572 -52.235741
-13.224503 -3.3061306 -52.235725
-13.224503 -4.9591861 -52.235725
-13.224503 -6.6122479 -52.235725
-13.252768 -8.2829762 -51.809242
-12.971944 -9.7289534 -56.046543
-12.971898 -11.350414 -56.047234
-13.021811 -13.021807 -55.294113
-11.546938 11.546942 -52.658245
-11.628777 9.9675226 -51.246983
-11.628777 8.3062706 -51.246979
-11.628777 6.6450186 -51.24699
-11.628777 4.9837651 -51.246986
-11.628777 3.3225031 -51.246983
-11.628777 1.6612509 -51.246975
-11.628777 9.1844095e-06 -51.246986
-11.628777 -1.6612527 -51.246986
-11.628777 -3.3225064 -51.246979
-11.628819 -4.9837794 -51.246246
-11.628819 -6.645041 -51.246246
-11.598145 -8.2843904 -51.775188
-11.406712 -9.7771778 -55.07637
-11.406671 -11.406664 -55.077068
-11.456926 -13.093622 -54.210434
-9.9481525 11.606184 -51.636688
-9.9434299 9.9434338 -51.731712
-9.9434299 8.2861881 -51.731701
-9.9434299 6.6289511 -51.731701
-9.9434299 4.9717131 -51.731701
-9.9434299 3.314477 -51.731701
-9.9434299 1.657239 -51.731701
-9.9434299 4.4841217e-06 -51.731705
-9.9434299 -1.6572336 -51.731705
-9.9434299 -3.3144717 -51.731705
-9.9434299 -4.9717078 -51.731709
-9.9434299 -6.6289458 -51.731709
-9.9429617 -8.2857971 -51.741131
-9.8258848 -9.8258858 -54.096519
-9.8258495 -11.463493 -54.097229
-9.8748283 -13.166429 -53.111877
-8.4397612 5.0638514 -48.024197
-8.4953899 3.3981643 -46.681213
-8.4953899 1.6990811 -46.68121
-8.4953899 -3.6278152e-06 -46.681206
-8.4953899 -1.6990767 -46.681198
-8.4953899 -3.3981497 -46.68121
-8.4953899 -5.0972328 -46.681206
-8.4973469 -6.7978826 -46.633945
-8.2871828 -8.2871857 -51.707779
-8.2292309 -9.8750734 -53.106865
-8.2292004 -11.520877 -53.107594
-8.2750654 -13.240109 -52.000301
-6.7852192 5.088912 -47.015949
-6.8305478 3.4152784 -45.648045
-6.8305478 1.7076371 -45.648052
-6.8305478 3.682595e-06 -45.648052
-6.8305478 -1.707628 -45.648052
-6.8305478 -3.4152796 -45.648045
-6.8305478 -5.1229129 -45.648045
-6.833457 -6.8334584 -45.560261
-6.6308756 -8.2885933 -51.673698
-6.6165085 -9.9247637 -52.107262
-6.6164846 -11.578843 -52.107986
-6.6573014 -13.314602 -50.876221
-5.1142025 5.1142039 -45.998455
-5.1488285 3.4325542 -44.605209
-5.1488285 1.7162801 -44.605202
-5.1488285 1.5000684e-06 -44.605202
-5.1488285 -1.7162807 -44.605198
-5.1488285 -3.4325492 -44.605213
-5.1488285 -5.1488233 -44.605206
-5.1268163 -6.8357511 -45.490898
-4.99403 -8.3233862 -50.833805
-4.9874759 -9.974947 -51.097542
-4.9874578 -11.637405 -51.098259
-3.4265079 5.1397667 -44.970001
-3.4500062 3.4500062 -43.551754
-3.4500062 1.7249984 -43.55175
-3.4500062 2.3675693e-06 -43.551762
-3.4500062 -1.7249975 -43.551754
-3.4500062 -3.4500055 -43.551746
-3.4500062 -5.1750031 -43.551762
-3.4271629 -6.8543282 -44.930473
-3.3453796 -8.363451 -49.866547
-3.3418837 -10.02565 -50.077538
-3.3418713 -11.696547 -50.078281
-1.7218531 5.1655531 -43.932003
-1.7338194 3.4676418 -42.48753
-1.7338194 1.73382 -42.487534
-1.7338194 2.3720645e-08 -42.487537
-1.7338194 -1.7338138 -42.487537
-1.7338194 -3.4676356 -42.487537
-1.7338194 -5.2014575 -42.487541
-1.7220541 -6.8882074 -43.907753
-1.6807867 -8.4039297 -48.889168
-1.6794719 -10.076823 -49.04789
-1.6794719 -11.756307 -49.047874
-2.8543259e-23 5.1916356 -42.882759
-4.4774174e-23 3.485456 -41.412388
-4.2978089e-23 1.7427297 -41.412384
9.1170611e-24 -2.802622e-06 -41.412384
1.0913146e-23 -1.7427291 -41.41238
-8.2543073e-23 -3.4854434 -41.412395
-8.0746988e-23 -5.228178 -41.412392
-3.3441795e-23 -6.922442 -42.874851
-3.8267138e-23 -8.4448118 -47.902287
-1.0514223e-22 -10.128571 -48.006908
-3.0726221e-23 -11.816672 -48.006893
1.7393193 5.217967 -41.823654
1.7517252 3.5034549 -40.326134
1.7517252 1.7517315 -40.326134
1.7517252 6.0597258e-06 -40.326134
1.7517252 -1.7517194 -40.326134
1.7517252 -3.5034428 -40.326138
1.7517252 -5.255167 -40.326141
1.7392466 -6.9569879 -41.832436
1.6972367 -8.4861774 -46.903488
1.6968085 -10.180856 -46.955166
1.6968085 -11.877657 -46.955181
3.4963789 5.2445703 -40.752941
3.5216482 3.5216506 -39.227791
3.5216482 1.7608293 -39.227787
3.5216482 8.1933595e-06 -39.227787
3.5216482 -1.7608227 -39.227791
3.5216482 -3.5216427 -39.227787
3.5216482 -5.2824721 -39.227791
3.4959509 -6.9918976 -40.778763
3.4112358 -8.5280914 -45.891766
3.4112234 -10.233674 -45.892532
3.4112234 -11.939283 -45.892525
7.5450597 10.060087 51.811695
5.271451 5.2714548 -39.671268
5.3100338 3.5400302 -38.118801
5.3100338 1.7700065 -38.11879
5.3100338 3.1473169e-06 -38.118793
5.3100338 -1.7700039 -38.118797
5.3100338 -3.5400264 -38.11879
5.3100338 -5.3100333 -38.11879
5.2708025 -7.0277405 -39.697334
5.1435394 -8.572567 -44.818027
5.1435199 -10.287043 -44.818798
5.1435199 -12.001546 -44.818806
9.9325809 9.9325829 47.964088
7.0647869 5.2985883 -38.579254
7.1171799 3.5585933 -36.998165
7.1171799 1.7792993 -36.998173
7.1171799 3.150622e-06 -36.998177
7.1171799 -1.779303 -36.998161
7.1171799 -3.5585883 -36.998161
7.1171799 -5.3378844 -36.998165
7.0646505 -7.0646524 -38.58337
6.8940053 -8.6175041 -43.733044
6.8939795 -10.34097 -43.733814
6.8939795 -12.064462 -43.733818
12.260408 9.8083296 44.214375
8.8772707 5.3263659 -37.461803
8.9433813 3.5773516 -35.865726
8.9433813 1.7886772 -35.865719
8.9433813 3.9474025e-06 -35.86573
8.9433813 -1.7886788 -35.865726
8.9433813 -3.577354 -35.865719
8.9433813 -5.3660254 -35.86573
8.877408 -7.1019263 -37.458469
8.6629229 -8.6629162 -42.63662
8.6628895 -10.395469 -42.637405
8.6628895 -12.128052 -42.637402
14.530713 9.6871443 40.55732
10.709145 5.3545814 -36.326702
10.788943 3.5963225 -34.721283
10.788943 1.7981641 -34.721279
10.788943 5.056078e-06 -34.721275
10.788943 -1.7981606 -34.721279
10.788943 -3.5963197 -34.721275
10.788943 -5.3944674 -34.721287
10.709396 -7.139595 -36.321644
10.450542 -8.7087851 -41.529366
10.450542 -10.450541 -41.529362
10.450542 -12.192308 -41.529366
16.745604 9.5689259 36.989521
12.56053 5.3830848 -35.179497
12.654224 3.6154971 -33.563778
12.654224 1.8077492 -33.563774
12.654224 1.3662824e-06 -33.563774
12.654224 -1.8077464 -33.563774
12.654224 -3.6154952 -33.56377
12.654224 -5.4232411 -33.56377
12.560924 -7.177671 -35.172684
12.25724 -8.7551737 -40.409523
12.25724 -10.506203 -40.409531
12.25724 -12.25724 -40.409523
18.907082 11.816927 33.507771
18.907082 9.4535456 33.507763
14.431734 5.4118991 -34.02
14.539449 3.6348624 -32.394718
14.539449 1.8174376 -32.39473
14.539449 3.3669116e-06 -32.394718
14.539449 -1.8174304 -32.394733
14.539449 -3.6348655 -32.394722
14.539449 -5.4522896 -32.39473
14.432303 -7.2161541 -34.011417
14.083284 -8.8020535 -39.277695
14.083284 -10.562469 -39.277695
14.083231 -12.322827 -39.278515
21.017057 11.676143 30.108982
21.017057 9.3409214 30.108974
16.323082 5.4410329 -32.848042
16.444981 3.6544416 -31.213081
16.444981 1.8272148 -31.213083
16.444981 -2.7845738e-06 -31.213081
16.444981 -1.8272197 -31.213078
16.444981 -3.6544454 -31.213079
16.444981 -5.4816532 -31.213095
16.323923 -7.2550783 -32.83675
15.928992 -8.849431 -38.133682
15.928931 -10.619283 -38.13451
15.928931 -12.389166 -38.134506
23.077351 11.538675 26.790215
23.077351 9.2309465 26.790207
18.234896 5.4704757 -31.663397
18.371151 3.6742327 -30.018656
18.371151 1.8371148 -30.018639
18.371151 6.0474702e-07 -30.018642
18.277752 -1.8277754 -31.14608
18.371151 -3.6742303 -30.018652
18.371151 -5.5113358 -30.01865
18.235987 -7.2943935 -31.650217
17.79468 -8.8973398 -36.977268
17.794611 -10.676762 -36.978111
17.798628 -12.459037 -36.92963
25.089697 11.404415 23.548677
25.089697 9.1235256 23.548679
20.167513 5.500236 -30.465853
20.318298 3.6942406 -28.811209
20.318298 1.8471205 -28.811195
20.318298 1.5947899e-06 -28.811203
20.318298 -1.8471158 -28.811211
20.318298 -3.6942358 -28.811197
20.318298 -5.5413537 -28.811205
20.168888 -7.3341432 -30.450771
19.680674 -8.9457636 -35.808285
19.680597 -10.734873 -35.80912
19.696627 -12.53422 -35.633236
27.055746 11.273231 20.381731
27.055746 9.0185843 20.381723
22.121275 5.5303206 -29.25522
22.286762 3.7144647 -27.590532
22.286762 1.857237 -27.590542
22.286762 -8.8122289e-07 -27.590532
22.286762 -1.8572277 -27.59054
22.286762 -3.7144654 -27.590532
22.286762 -5.5716844 -27.590534
22.122969 -7.3743215 -29.238169
21.587311 -8.9947062 -34.626507
21.587225 -10.793607 -34.627354
21.617668 -12.610309 -34.321102
28.977081 11.145037 17.286787
28.97694 8.9159822 17.285488
24.096432 5.5607219 -28.032173
24.277 3.734926 -26.355507
24.277 1.8674568 -26.355505
24.277 5.8471569e-06 -26.355516
24.277 -1.8674634 -26.355513
24.277 -3.7349243 -26.355509
24.277 -5.6023765 -26.355516
24.098288 -7.4148607 -28.014933
23.514925 -9.044198 -33.431721
23.514832 -10.852996 -33.432575
23.562178 -12.687325 -32.992943
30.855061 11.019662 14.260188
30.855061 8.8157377 14.260175
26.093527 5.5914769 -26.794683
26.289179 3.7556043 -25.107738
26.289179 1.8778063 -25.107735
26.289179 -1.7368656e-06 -25.107737
26.289179 -1.8778008 -25.107733
26.289179 -3.7555988 -25.107731
26.289179 -5.633388 -25.107742
26.095123 -7.4557543 -26.780918
25.463871 -9.0942402 -32.223694
25.46377 -10.91304 -32.224575
25.530584 -12.765292 -31.648474
32.691418 10.897139 11.302163
32.691418 8.7177219 11.302149
28.112835 5.6225657 -25.54343
28.323757 3.7765 -23.846071
28.323757 1.8882575 -23.846069
28.323757 5.88177e-06 -23.846069
28.323757 -1.888245 -23.846069
28.323757 -3.7764957 -23.846071
28.323757 -5.6647472 -23.846073
28.114103 -7.4970899 -25.53323
27.434502 -9.1448326 -31.002243
27.434391 -10.973759 -31.003134
27.523666 -12.844376 -30.284704
42.766663 88.206238 70.871483
42.762913 85.525826 70.843185
42.758915 82.845406 70.813026
42.754913 80.165482 70.782867
42.751167 77.486496 70.754601
42.747173 74.807556 70.724449
42.743179 72.12912 70.694313
42.739182 69.45118 70.664162
42.735435 66.774132 70.635918
42.731445 64.097168 70.605789
42.727451 61.420727 70.575668
42.723709 58.745106 70.547432
42.719719 56.06963 70.517319
42.715729 53.39468 70.487221
42.711987 50.720493 70.458992
42.708 48.046501 70.428909
42.70401 45.37302 70.398811
42.700024 42.700027 70.368744
42.695789 40.027309 70.336784
42.691303 37.354893 70.302948
42.686821 34.683041 70.269135
42.682339 32.011761 70.235298
42.677856 29.341032 70.201492
42.673378 26.670868 70.167702
42.668896 24.001261 70.133911
42.664421 21.332218 70.100105
42.659695 18.66362 70.064453
42.655216 15.995711 70.030678
34.487389 10.777311 8.4091797
34.487389 8.6218433 8.4091902
30.15473 5.6540241 -24.278189
30.381111 3.7976458 -22.570282
30.381111 1.8988178 -22.570271
30.381111 -2.3860355e-07 -22.570278
30.381111 -1.8988092 -22.57028
30.381111 -3.7976382 -22.570271
30.381111 -5.6964545 -22.570278
30.155478 -7.5388637 -24.272554
29.427063 -9.1959515 -29.768024
29.427063 -11.035145 -29.768023
29.541836 -12.924546 -28.902128
45.07756 87.503487 68.300911
45.073898 84.844978 68.274933
45.070499 82.187386 68.250801
45.066841 79.529724 68.224838
45.06345 76.872948 68.200729
45.059792 74.216125 68.174751
45.056393 71.560158 68.150642
45.052742 68.904198 68.124687
45.049343 66.249046 68.100594
45.045692 63.593925 68.074654
45.042297 60.939587 68.05056
45.038647 58.285309 68.024605
45.035252 55.631783 68.000526
45.031601 52.978359 67.974602
45.028214 50.325645 67.950516
45.024559 47.673054 67.924591
45.021168 45.021172 67.900513
45.017521 42.369423 67.874603
45.014133 39.718361 67.850548
45.010483 37.067463 67.824638
45.007095 34.417194 67.800591
45.003448 31.767147 67.774696
45.000061 29.117687 67.750641
44.996414 26.468493 67.724739
44.993031 23.819851 67.700706
44.989384 21.171474 67.674828
44.986 18.523647 67.650787
44.982357 15.876122 67.624908
36.244286 10.660084 5.5791507
36.244286 8.5280676 5.579154
32.219593 5.6858082 -22.998703
32.461628 3.8190191 -21.280125
32.461628 1.9095109 -21.280123
32.461628 9.3032958e-07 -21.280119
32.461628 -1.9095073 -21.280119
32.461628 -3.8190162 -21.280117
32.461628 -5.7285256 -21.280115
32.219864 -7.5811343 -22.996811
31.442154 -9.2476912 -28.519018
31.442154 -11.09723 -28.519024
31.585485 -13.005793 -27.501266
48.002506 88.004601 70.133904
47.998592 85.330841 70.10762
47.994953 82.657982 70.083237
47.991035 79.985069 70.056946
47.987396 77.313034 70.03257
47.983479 74.640976 70.006294
47.979843 71.969765 69.981918
47.976208 69.298973 69.957542
47.972298 66.628189 69.931282
47.96838 63.957844 69.905037
47.964466 61.287933 69.878784
47.960556 58.618469 69.852554
47.956642 55.949421 69.826332
47.952732 53.280811 69.800102
47.948822 50.612644 69.773865
47.944912 47.944912 69.747643
47.941002 45.27763 69.721428
47.937096 42.610752 69.695229
47.933182 39.944324 69.669006
47.929276 37.278336 69.642807
47.925373 34.612766 69.616608
47.921745 31.947828 69.592278
47.917839 29.283136 69.566093
47.913933 26.618855 69.539909
47.910027 23.955019 69.513718
47.906124 21.291609 69.487549
47.902222 18.628639 69.461365
47.898319 15.966104 69.435196
37.963379 10.545389 2.8100057
37.963379 8.4363117 2.8100073
34.307812 5.7179704 -21.70476
34.565842 3.840652 -19.974384
34.565842 1.9203211 -19.974384
34.565842 8.3369487e-06 -19.974398
34.565842 -1.9203225 -19.974398
34.565842 -3.8406453 -19.974394
34.565842 -5.7609682 -19.97439
34.307529 -7.6238937 -21.706659
33.480045 -9.3000069 -27.255892
33.480045 -11.160008 -27.255886
33.65485 -13.087999 -26.083614
39.645874 10.433125 0.099837027
39.645874 8.3465023 0.099837832
36.419792 5.7504969 -20.396091
36.693874 3.8625119 -18.65476
36.693874 1.9312531 -18.654762
36.693874 1.7759861e-06 -18.654757
36.693874 -1.9312571 -18.654757
36.693874 -3.8625169 -18.654757
36.693874 -5.7937756 -18.654757
36.418873 -7.6671252 -20.401909
35.54113 -9.3529243 -25.978384
35.54113 -11.223511 -25.978373
35.750546 -13.171248 -24.647932
41.292919 10.323236 -2.5532579
41.292919 8.2585926 -2.5532525
38.555931 5.7833972 -19.072437
38.846279 3.8846292 -17.320019
38.846279 1.9423188 -17.320024
38.846279 8.7463259e-06 -17.32003
38.846279 -1.9423118 -17.320021
38.846279 -3.8846214 -17.320026
38.846279 -5.826932 -17.320032
38.554306 -7.710855 -19.082247
37.625805 -9.4064474 -24.686239
37.625805 -11.287733 -24.686247
42.905632 10.215621 -5.1510229
42.905632 8.1725101 -5.1510344
40.716652 5.8166685 -17.733566
41.023472 3.9070005 -15.969928
41.023472 1.9534961 -15.969913
41.023472 1.6707288e-06 -15.969914
41.023472 -1.9534923 -15.969916
41.023472 -3.9069943 -15.969923
41.023472 -5.8604884 -15.969925
40.714233 -7.7550859 -17.747452
39.734474 -9.4605894 -23.379238
39.734474 -11.352707 -23.379232
44.485069 10.110247 -7.695209
44.485069 8.0881987 -7.6952057
42.902382 5.8503299 -16.379194
43.225883 3.9296229 -14.604165
43.225883 1.9648141 -14.604175
43.225883 2.9127357e-06 -14.604161
43.225883 -1.9648058 -14.604171
43.225883 -3.929625 -14.604163
43.225883 -5.8944345 -14.604173
42.899086 -7.7998338 -16.397253
41.867558 -9.5153465 -22.057104
41.867558 -11.418427 -22.057095
46.032253 10.007011 -10.187423
46.032055 8.0055771 -10.18849
45.113552 5.8843746 -15.009047
45.453953 3.9525204 -13.222509
45.453953 1.9762635 -13.222516
45.453953 -3.6862625e-06 -13.222507
45.453953 -1.976252 -13.222508
45.453953 -3.9525092 -13.222515
45.453953 -5.9287758 -13.222505
45.1091 -7.845058 -15.032408
44.025482 -9.5707626 -20.719561
44.025482 -11.484903 -20.719563
47.548164 9.9058743 -12.62928
47.547958 7.924665 -12.63032
47.350613 5.9188328 -13.622874
47.351433 3.9459558 -13.618764
47.351433 1.9729835 -13.61877
47.351433 6.5940287e-07 -13.618758
47.351433 -1.9729717 -13.618765
47.351433 -3.9459541 -13.618753
47.351631 -5.9189482 -13.617735
47.345097 -7.8908405 -13.650618
46.208675 -9.6268072 -19.36636
46.208675 -11.552176 -19.366362
49.033524 9.8066988 -15.023264
49.033524 7.8453689 -15.023269
49.033524 5.8840289 -15.023277
49.033524 3.9226792 -15.02327
49.033524 1.9613481 -15.023273
49.033524 -1.7354727e-06 -15.023266
49.033524 -1.961341 -15.023275
49.033524 -3.9226818 -15.023262
49.033524 -5.8840218 -15.023272
49.033524 -7.8453526 -15.023275
48.417595 -9.6835136 -17.997223
48.417595 -11.620223 -17.997225
51.641613 9.9310789 -12.020589
51.641613 7.9448705 -12.020591
51.641613 5.9586544 -12.020597
51.641613 3.9724278 -12.020588
51.641613 1.9862194 -12.020589
51.641613 3.3860395e-06 -12.020596
51.641613 -1.9862146 -12.02058
51.641613 -3.9724314 -12.020588
51.641613 -5.9586482 -12.020595
51.250065 -7.8846207 -13.838446
50.652695 -9.7408981 -16.61186
50.652695 -11.689084 -16.611855
53.946724 9.9901314 -10.594871
53.946724 7.992116 -10.594885
53.946724 5.9940906 -10.594883
53.946724 3.9960561 -10.594885
53.946724 1.9980297 -10.594882
53.946724 4.0903333e-06 -10.594879
53.946724 -1.998022 -10.594876
53.946724 -3.9960558 -10.594879
53.946724 -5.994082 -10.594876
53.538071 -7.9315572 -12.421888
52.914219 -9.7989349 -15.21097
52.914219 -11.758708 -15.210979
56.279419 10.049902 -9.1521101
56.279419 8.039917 -9.1520987
56.279419 6.029942 -9.1521034
56.279419 4.0199676 -9.1521082
56.279419 2.0099742 -9.1521015
56.279419 -7.3262805e-07 -9.1521063
56.279419 -2.0099757 -9.1521111
56.279419 -4.0199609 -9.1520996
56.279419 -6.0299354 -9.1521044
55.869568 -7.9813633 -10.919015
55.203083 -9.857688 -13.792286
55.203083 -11.829234 -13.792287
58.640186 10.110377 -7.6919694
58.640186 8.0883026 -7.6919608
58.640186 6.0662289 -7.6919732
58.640186 4.0441537 -7.6919637
58.640186 2.0220797 -7.6919761
58.640186 4.3777518e-06 -7.691967
58.640186 -2.0220795 -7.6919632
58.640186 -4.0441446 -7.6919703
58.640186 -6.0662279 -7.6919661
58.239223 -8.0329943 -9.3609476
57.519569 -9.9171648 -12.356483
57.519569 -11.900599 -12.356477
61.029541 10.171593 -6.2141504
61.029541 8.137269 -6.214149
61.029541 6.1029639 -6.2141595
61.029541 4.0686402 -6.2141585
61.029541 2.0343249 -6.2141523
61.029541 1.066481e-06 -6.2141509
61.029541 -2.0343227 -6.21415
