# .PCD v0.7 - Point Cloud Data file format
VERSION 0.7
FIELDS x y z
SIZE 4 4 4
TYPE F F F
COUNT 1 1 1
WIDTH 1526
HEIGHT 1
VIEWPOINT 0 0 0 1 0 0 0
POINTS 1526
DATA ascii
12.118591 -44.434837 -38.962807
12.118591 -45.781345 -38.962799
12.118591 -47.127853 -38.962811
13.211084 26.422165 -42.029057
13.219429 25.116909 -41.928333
13.399779 24.119602 -39.751324
13.399779 22.779623 -39.751324
13.399779 21.439644 -39.751324
13.399779 20.099665 -39.751324
13.399779 18.759693 -39.751324
13.399779 17.419714 -39.751324
13.399779 16.079733 -39.75132
13.399779 14.739755 -39.75132
13.399779 13.399776 -39.75132
13.39973 12.059755 -39.751915
13.39973 10.719788 -39.751915
13.39973 9.3798065 -39.751915
13.39973 8.039835 -39.751911
13.39973 6.699863 -39.751907
13.39973 5.3598833 -39.751907
13.39973 4.0199194 -39.751919
13.39973 2.6799486 -39.751915
13.39973 1.3399698 -39.751915
13.39973 -2.4642147e-06 -39.751911
13.39973 -1.3399748 -39.751907
13.39973 -2.679949 -39.751904
13.39973 -4.0199189 -39.751919
13.39973 -5.3598909 -39.751915
13.39973 -6.6998644 -39.751911
13.39973 -8.0398426 -39.751911
13.39973 -9.3798151 -39.751907
13.39973 -10.719779 -39.751915
13.39973 -12.059758 -39.751919
13.39973 -13.39973 -39.751911
13.39973 -14.739702 -39.751907
13.39973 -16.079681 -39.751911
13.39973 -17.419653 -39.751907
13.39973 -18.759617 -39.751915
13.39973 -20.099598 -39.751915
13.39973 -21.439569 -39.751911
13.39973 -22.779541 -39.751907
13.39973 -24.119516 -39.751907
13.39973 -25.459494 -39.751904
13.39973 -26.799458 -39.751915
13.39973 -28.139433 -39.751915
13.39973 -29.479408 -39.751911
13.39973 -30.819382 -39.751907
13.39973 -32.159359 -39.751907
13.39973 -33.499321 -39.751915
13.39973 -34.839298 -39.751915
13.39973 -36.179272 -39.751915
13.39973 -37.519245 -39.751911
13.39973 -38.859222 -39.751907
13.39973 -40.199196 -39.751907
13.39973 -41.539162 -39.751915
13.39973 -42.879135 -39.751915
13.39973 -44.219109 -39.751911
13.39973 -45.559086 -39.751911
13.39973 -46.899059 -39.751907
14.461875 26.294317 -42.800705
14.482202 25.014709 -42.577648
14.668542 24.003069 -40.532806
14.668542 22.669561 -40.532806
14.668542 21.336063 -40.532806
14.668542 20.002556 -40.532806
14.668542 18.669048 -40.532806
14.668542 17.33555 -40.532806
14.668542 16.002041 -40.532803
14.668542 14.668546 -40.532806
14.668542 13.335037 -40.532806
14.668542 12.001532 -40.53281
14.668542 10.668032 -40.532806
14.668489 9.334486 -40.533386
14.668489 8.0009899 -40.53339
14.668489 6.6674914 -40.53339
14.668489 5.3339953 -40.533394
14.668489 4.0004983 -40.533394
14.668489 2.6669993 -40.533394
14.668489 1.3335027 -40.533398
14.668489 -2.6365469e-06 -40.533386
14.668489 -1.3335015 -40.533386
14.668489 -2.6669967 -40.53339
14.668489 -4.0005021 -40.533394
14.668489 -5.3339982 -40.533394
14.668489 -6.6674972 -40.533394
14.668489 -8.0009947 -40.533398
14.668489 -9.3344908 -40.533398
14.668489 -10.667998 -40.533386
14.668489 -12.001494 -40.533386
14.668489 -13.334992 -40.53339
14.668489 -14.668489 -40.53339
14.668489 -16.001989 -40.533394
14.668489 -17.335484 -40.533394
14.668489 -18.668982 -40.533394
14.668489 -20.002495 -40.533386
14.668489 -21.335993 -40.53339
14.668489 -22.669483 -40.533386
14.668489 -24.002983 -40.533386
14.668489 -25.336483 -40.53339
14.668489 -26.669981 -40.533394
14.668489 -28.003479 -40.533398
14.668489 -29.336975 -40.533394
14.668489 -30.670481 -40.533382
14.668489 -32.003979 -40.533386
14.668489 -33.337482 -40.53339
14.668489 -34.670979 -40.53339
14.668489 -36.004475 -40.53339
14.668489 -37.337971 -40.533394
14.668489 -38.671471 -40.533394
14.668489 -40.004967 -40.533398
14.668489 -41.338478 -40.533386
14.668489 -42.671974 -40.533386
14.668489 -44.00547 -40.53339
14.668489 -45.33897 -40.53339
14.668489 -46.672466 -40.533394
15.700675 26.167793 -43.564362
15.734738 24.913334 -43.221714
15.925105 23.887655 -41.306778
15.925105 22.560566 -41.306778
15.925105 21.233471 -41.306774
15.925105 19.906382 -41.306778
15.925105 18.57929 -41.306778
15.925105 17.252197 -41.306774
15.925105 15.9251 -41.306778
15.925105 14.598011 -41.306782
15.925105 13.270917 -41.306774
15.925105 11.943828 -41.306778
15.925105 10.616732 -41.30677
15.925105 9.2896433 -41.306774
15.925105 7.9625483 -41.30677
15.925105 6.6354632 -41.306778
15.925047 5.308351 -41.307358
15.925047 3.9812579 -41.307354
15.925047 2.654171 -41.307362
15.925047 1.3270845 -41.307354
15.925047 -2.3309992e-06 -41.307358
15.925047 -1.3270887 -41.307354
15.925047 -2.6541736 -41.307362
15.925047 -3.981262 -41.30735
15.925047 -5.3083467 -41.307362
15.925047 -6.6354418 -41.307354
15.925047 -7.9625201 -41.307362
15.925047 -9.2896147 -41.307358
15.925047 -10.616693 -41.307362
15.925047 -11.943788 -41.307354
15.925047 -13.270873 -41.307365
15.925047 -14.59796 -41.307354
15.925105 -15.925107 -41.306774
15.925105 -17.252201 -41.306767
15.925105 -18.579287 -41.306778
15.925105 -19.90638 -41.306774
15.925105 -21.23348 -41.30677
15.925105 -22.560562 -41.306778
15.925105 -23.887659 -41.306774
15.925105 -25.214754 -41.30677
15.925105 -26.54184 -41.306778
15.925105 -27.868933 -41.306774
15.925105 -29.196028 -41.30677
15.925105 -30.523117 -41.306778
15.925105 -31.85021 -41.306774
15.925105 -33.177303 -41.30677
15.925105 -34.504391 -41.306778
15.925105 -35.831486 -41.306774
15.925105 -37.158585 -41.306774
15.925105 -38.485668 -41.306782
15.925047 -39.812622 -41.307354
15.925047 -41.139706 -41.307362
15.925047 -42.466797 -41.307354
15.925047 -43.793877 -41.307358
15.925047 -45.120968 -41.307354
15.925047 -46.448055 -41.307362
16.927551 26.042385 -44.321247
17.023722 24.880823 -43.428268
17.169703 23.773436 -42.072762
17.169641 22.45261 -42.073338
17.169641 21.131861 -42.073338
17.169641 19.811121 -42.073338
17.169641 18.490383 -42.073338
17.169641 17.169643 -42.073338
17.169641 15.848895 -42.073338
17.169641 14.528154 -42.073338
17.169641 13.207417 -42.073338
17.169641 11.886679 -42.073341
17.169641 10.565928 -42.073338
17.169641 9.2451878 -42.073338
17.169641 7.9244504 -42.073338
17.169641 6.6037002 -42.073334
17.169641 5.2829609 -42.073338
17.169641 3.9622233 -42.073338
17.169641 2.6414838 -42.073338
17.169641 1.3207381 -42.073345
17.169641 -1.4947838e-06 -42.073341
17.169641 -1.320739 -42.073345
17.169641 -2.6414788 -42.073341
17.169641 -3.9622324 -42.073338
17.169641 -5.2829719 -42.073338
17.169641 -6.6037097 -42.073338
17.169641 -7.924449 -42.073338
17.169641 -9.2451954 -42.073341
17.169641 -10.565934 -42.073341
17.169641 -11.886673 -42.073341
17.169641 -13.207413 -42.073341
17.169641 -14.528165 -42.073334
17.169641 -15.848905 -42.073334
17.169641 -17.169645 -42.073338
17.169641 -18.490381 -42.073334
17.169641 -19.811129 -42.073341
17.169641 -21.131868 -42.073341
17.169641 -22.452606 -42.073341
17.169641 -23.77335 -42.073345
17.169641 -25.094095 -42.07333
17.169641 -26.414837 -42.073334
17.169641 -27.735579 -42.073334
17.169641 -29.056318 -42.073338
17.169641 -30.377058 -42.073338
17.169641 -31.697802 -42.073341
17.169641 -33.018539 -42.073341
17.169641 -34.339283 -42.073341
17.169641 -35.660027 -42.07333
17.169641 -36.98077 -42.073334
17.169641 -38.301514 -42.073338
17.169641 -39.62225 -42.073338
17.169641 -40.942993 -42.073338
17.169641 -42.263733 -42.073341
17.169641 -43.584473 -42.073341
17.169641 -44.905216 -42.073341
17.169641 -46.22596 -42.073345
18.142786 25.918262 -45.070374
18.333567 24.881264 -43.425442
18.40239 23.660217 -42.832031
18.40239 22.345757 -42.832031
18.40239 21.031305 -42.832031
18.40239 19.716843 -42.832031
18.402325 18.402319 -42.832603
18.402325 17.087875 -42.8326
18.402325 15.773422 -42.8326
18.402325 14.458971 -42.8326
18.402325 13.144517 -42.8326
18.402325 11.830066 -42.8326
18.402325 10.515614 -42.8326
18.402325 9.2011623 -42.8326
18.402325 7.8867121 -42.832603
18.402325 6.5722561 -42.8326
18.402325 5.2578044 -42.8326
18.402325 3.9433572 -42.832603
18.402325 2.628902 -42.8326
18.402325 1.3144469 -42.832596
18.402325 -4.4070828e-07 -42.832603
18.402325 -1.3144559 -42.832596
18.402325 -2.6289032 -42.832603
18.402325 -3.9433582 -42.832603
18.402325 -5.2578135 -42.832596
18.402325 -6.5722609 -42.832603
18.402325 -7.8867164 -42.832596
18.402325 -9.2011642 -42.832607
18.402325 -10.515618 -42.8326
18.402325 -11.830074 -42.832596
18.402325 -13.144522 -42.832603
18.402325 -14.458969 -42.832592
18.402325 -15.773417 -42.832603
18.402325 -17.087872 -42.832596
18.402325 -18.402319 -42.832603
18.402325 -19.716776 -42.8326
18.402325 -21.031233 -42.832596
18.402325 -22.345678 -42.832603
18.402325 -23.660135 -42.832596
18.402325 -24.974579 -42.832603
18.402325 -26.289036 -42.8326
18.402325 -27.603489 -42.832592
18.402325 -28.917938 -42.8326
18.402325 -30.232393 -42.832596
18.402325 -31.546839 -42.832603
18.402325 -32.861294 -42.8326
18.402325 -34.175751 -42.832596
18.402325 -35.4902 -42.8326
18.402325 -36.804653 -42.832596
18.402325 -38.119099 -42.8326
18.402325 -39.433552 -42.832596
18.402325 -40.748001 -42.832607
18.402325 -42.062454 -42.8326
18.402325 -43.376911 -42.832596
18.402325 -44.69136 -42.832603
18.402325 -46.005814 -42.832596
18.402325 -47.320263 -42.832607
19.346495 25.795324 -45.812389
19.643459 24.881714 -43.422615
19.623392 23.548069 -43.584099
19.623392 22.239841 -43.584099
19.623392 20.931614 -43.584106
19.623392 19.62339 -43.584099
19.623392 18.315165 -43.584103
19.623392 17.006939 -43.584095
19.623392 15.698712 -43.584103
19.623322 14.390433 -43.584663
19.623322 13.082213 -43.584663
19.623322 11.773992 -43.584663
19.623322 10.465772 -43.584663
19.623322 9.1575527 -43.584663
19.623322 7.8493266 -43.584667
19.623322 6.5411053 -43.584667
19.623322 5.2328815 -43.58466
19.623322 3.9246616 -43.584663
19.623322 2.616442 -43.584663
19.623322 1.3082201 -43.58466
19.623322 4.105791e-07 -43.584663
19.623322 -1.3082193 -43.584663
19.623322 -2.6164474 -43.584667
19.623322 -3.9246674 -43.584667
19.623322 -5.2328868 -43.584667
19.623322 -6.5411067 -43.584667
19.623322 -7.8493285 -43.584667
19.623322 -9.157548 -43.584667
19.623322 -10.465768 -43.584667
19.623322 -11.773989 -43.584667
19.623322 -13.082216 -43.584656
19.623322 -14.390444 -43.58466
19.623322 -15.698665 -43.58466
19.623322 -17.006884 -43.58466
19.623322 -18.315105 -43.58466
19.623322 -19.623325 -43.58466
19.623322 -20.931545 -43.58466
19.623322 -22.239769 -43.584663
19.623322 -23.547989 -43.584663
19.623322 -24.856209 -43.584663
19.623322 -26.164429 -43.584663
19.623322 -27.472649 -43.584663
19.623322 -28.780872 -43.584667
19.623322 -30.089092 -43.584667
19.623322 -31.397314 -43.584667
19.623322 -32.705532 -43.584667
19.623322 -34.013756 -43.584667
19.623322 -35.32198 -43.584667
19.623322 -36.630199 -43.584671
19.623322 -37.938419 -43.584667
19.623322 -39.246651 -43.58466
19.623322 -40.554871 -43.58466
19.623322 -41.863091 -43.58466
19.623322 -43.17131 -43.58466
19.623322 -44.479534 -43.58466
19.623322 -45.787754 -43.58466
19.623322 -47.095974 -43.584663
20.538765 25.673458 -46.547943
20.832872 24.739038 -44.329075
20.832872 23.436975 -44.329075
20.832872 22.134924 -44.329075
20.832872 20.83287 -44.329075
20.832872 19.530815 -44.329071
20.832872 18.228762 -44.329071
20.832872 16.92671 -44.329075
20.832872 15.624657 -44.329075
20.832872 14.322595 -44.329075
20.832872 13.020542 -44.329075
20.832798 11.718448 -44.329636
20.832798 10.416402 -44.329632
20.832798 9.1143494 -44.329636
20.832798 7.8122973 -44.329636
20.832798 6.5102506 -44.329632
20.832798 5.208199 -44.329636
20.832798 3.906146 -44.329636
20.832798 2.6041009 -44.329632
20.832798 1.3020436 -44.329628
20.832798 -3.9678807e-06 -44.329636
20.832798 -1.3020531 -44.329624
20.832798 -2.6041024 -44.329632
20.832798 -3.906158 -44.329628
20.832798 -5.2082005 -44.329632
20.832798 -6.5102482 -44.329639
20.832798 -7.8122988 -44.329632
20.832798 -9.1143465 -44.329636
20.832798 -10.416404 -44.329632
20.832798 -11.718447 -44.329636
20.832798 -13.0205 -44.329632
20.832798 -14.32255 -44.329639
20.832798 -15.6246 -44.329628
20.832798 -16.926647 -44.329636
20.832798 -18.228704 -44.329632
20.832798 -19.530746 -44.329636
20.832798 -20.832804 -44.329632
20.832798 -22.134846 -44.329636
20.832872 -23.436985 -44.329071
20.832872 -24.739035 -44.329079
20.832872 -26.041092 -44.329075
20.832872 -27.343149 -44.329067
20.832872 -28.645201 -44.329079
20.832872 -29.947254 -44.329071
20.832872 -31.249311 -44.329067
20.832872 -32.551365 -44.329079
20.832872 -33.853424 -44.329071
20.832872 -35.155476 -44.329063
20.832872 -36.457531 -44.329075
20.832798 -37.759449 -44.329632
20.832798 -39.061504 -44.329624
20.832798 -40.363548 -44.329632
20.832798 -41.665592 -44.329636
20.832798 -42.967648 -44.329632
20.832798 -44.269695 -44.329639
20.832798 -45.571751 -44.329632
20.832798 -46.873795 -44.329636
21.719898 25.552816 -47.276035
22.030994 24.622871 -45.067051
22.030994 23.326931 -45.067055
22.030994 22.030996 -45.067047
22.030994 20.735056 -45.067051
22.030994 19.439114 -45.067051
22.030994 18.143173 -45.067051
22.030994 16.847231 -45.067051
22.030994 15.551291 -45.067051
22.030994 14.255349 -45.067051
22.030994 12.959408 -45.067051
22.030994 11.663466 -45.067051
22.030994 10.367525 -45.067051
22.030994 9.0715837 -45.067051
22.030916 7.7756133 -45.067604
22.030916 6.4796839 -45.067604
22.030916 5.183742 -45.067604
22.030916 3.8878069 -45.067604
22.030916 2.591867 -45.0676
22.030916 1.2959358 -45.067604
22.030916 -5.9157442e-06 -45.067604
22.030916 -1.2959394 -45.0676
22.030916 -2.5918746 -45.067596
22.030916 -3.8878164 -45.067596
22.030916 -5.1837397 -45.067608
22.030916 -6.4796815 -45.067612
22.030916 -7.7756166 -45.067608
22.030916 -9.071557 -45.067604
22.030916 -10.367492 -45.067604
22.030916 -11.663434 -45.067604
22.030916 -12.95937 -45.067596
22.030916 -14.255302 -45.067612
22.030916 -15.551234 -45.067608
22.030916 -16.84717 -45.067604
22.030916 -18.143112 -45.067604
22.030994 -19.439114 -45.067051
22.030994 -20.735054 -45.067051
22.030994 -22.030996 -45.067051
22.030994 -23.326939 -45.067051
22.030994 -24.622881 -45.067051
22.030994 -25.918821 -45.067051
22.030994 -27.21476 -45.067051
22.030994 -28.510702 -45.067051
22.030994 -29.806643 -45.067051
22.030994 -31.102581 -45.067051
22.030994 -32.398525 -45.067051
22.030994 -33.694466 -45.067051
22.030994 -34.990406 -45.067051
22.030994 -36.286346 -45.067051
22.030994 -37.582287 -45.067051
22.030994 -38.878227 -45.067051
22.030916 -40.174023 -45.067608
22.030916 -41.469963 -45.067608
22.030916 -42.7659 -45.067604
22.030916 -44.06184 -45.067604
22.030916 -45.357777 -45.067604
22.030916 -46.653713 -45.0676
22.940481 26.763893 -47.658672
22.889904 25.433228 -47.997852
23.217918 24.507803 -45.798126
23.217918 23.21792 -45.79813
23.217918 21.928036 -45.79813
23.217918 20.638151 -45.79813
23.217918 19.348265 -45.79813
23.217918 18.058382 -45.798134
23.217918 16.768496 -45.79813
23.217918 15.47861 -45.79813
23.217918 14.188727 -45.798134
23.217918 12.898839 -45.79813
23.217918 11.608957 -45.798134
23.217918 10.319071 -45.79813
23.217918 9.0291891 -45.798138
23.217918 7.7393022 -45.798134
23.217918 6.4494214 -45.798126
23.217838 5.1595178 -45.798679
23.217838 3.8696368 -45.798683
23.217838 2.5797586 -45.798683
23.217838 1.289884 -45.798683
23.217838 -6.7415585e-06 -45.798672
23.217838 -1.289883 -45.798676
23.217838 -2.5797641 -45.798679
23.217838 -3.8696404 -45.798679
23.217838 -5.1595249 -45.798679
23.217838 -6.4493995 -45.798679
23.217838 -7.7392759 -45.798683
23.217838 -9.0291586 -45.798687
23.217838 -10.319041 -45.798672
23.217838 -11.608922 -45.798676
23.217838 -12.898803 -45.798676
23.217838 -14.188683 -45.798679
23.217918 -15.478614 -45.798122
23.217918 -16.768499 -45.79813
23.217918 -18.05838 -45.798134
23.217918 -19.348272 -45.798126
23.217918 -20.638155 -45.798126
23.217918 -21.928036 -45.79813
23.217918 -23.21792 -45.798138
23.217918 -24.507811 -45.798126
23.217918 -25.797691 -45.79813
23.217918 -27.087572 -45.798134
23.217918 -28.377462 -45.798122
23.217918 -29.667345 -45.798126
23.217918 -30.95723 -45.79813
23.217918 -32.247112 -45.798134
23.217918 -33.536999 -45.798126
23.217918 -34.826885 -45.79813
23.217918 -36.116768 -45.798134
23.217918 -37.406651 -45.798122
23.217918 -38.696537 -45.798126
23.217918 -39.98642 -45.79813
23.217918 -41.276299 -45.798134
23.217838 -42.56604 -45.798679
23.217838 -43.855919 -45.798679
23.217838 -45.145798 -45.798683
23.217838 -46.435677 -45.798683
24.068222 26.601717 -48.590881
24.049093 25.314833 -48.712418
24.393888 24.39389 -46.52187
24.393888 23.109993 -46.521866
24.393801 21.826033 -46.522411
24.393801 20.542147 -46.522408
24.393801 19.258265 -46.522411
24.393801 17.974379 -46.522408
24.393801 16.690495 -46.522411
24.393801 15.40661 -46.522408
24.393801 14.122725 -46.522404
24.393801 12.838844 -46.522411
24.393801 11.554959 -46.522411
24.393801 10.271076 -46.522411
24.393801 8.9871912 -46.522411
24.393801 7.7033048 -46.522408
24.393801 6.4194221 -46.522408
24.393801 5.1355371 -46.522408
24.393801 3.8516529 -46.522408
24.393801 2.5677681 -46.522408
24.393801 1.2838833 -46.522404
24.393801 -1.0302952e-06 -46.522408
24.393801 -1.2838818 -46.522411
24.393801 -2.5677686 -46.522404
24.393801 -3.851651 -46.522408
24.393801 -5.1355443 -46.522408
24.393801 -6.4194269 -46.522411
24.393801 -7.7033157 -46.522404
24.393801 -8.9871941 -46.522411
24.393801 -10.271075 -46.522415
24.393801 -11.554962 -46.522411
24.393801 -12.838846 -46.522415
24.393801 -14.122735 -46.522408
24.393801 -15.406613 -46.522415
24.393801 -16.690502 -46.522404
24.393801 -17.974382 -46.522411
24.393801 -19.258272 -46.522408
24.393801 -20.542152 -46.522411
24.393801 -21.82604 -46.522404
24.393801 -23.109921 -46.522411
24.393801 -24.393801 -46.522415
24.393801 -25.677689 -46.522408
24.393801 -26.961573 -46.522415
24.393801 -28.245461 -46.522408
24.393801 -29.529339 -46.522411
24.393801 -30.813229 -46.522404
24.393801 -32.097107 -46.522411
24.393801 -33.380997 -46.522404
24.393801 -34.664879 -46.522411
24.393801 -35.948769 -46.522404
24.393801 -37.232647 -46.522408
24.393801 -38.516529 -46.522411
24.393801 -39.800415 -46.522404
24.393801 -41.084293 -46.522411
24.393801 -42.368191 -46.522408
24.393801 -43.652069 -46.522415
24.393801 -44.935959 -46.522404
24.393801 -46.219837 -46.522411
25.197365 26.45723 -49.42141
25.197451 25.197453 -49.420883
25.558886 24.280937 -47.239441
25.558886 23.002989 -47.239441
25.558886 21.725052 -47.239441
25.558886 20.447105 -47.239445
25.558886 19.169163 -47.239441
25.558794 17.891153 -47.239983
25.558794 16.613213 -47.239979
25.558794 15.335274 -47.239979
25.558794 14.057336 -47.239979
25.558794 12.779397 -47.239979
25.558794 11.501458 -47.239979
25.558794 10.223512 -47.239979
25.558794 8.9455767 -47.239986
25.558794 7.6676378 -47.239986
25.558794 6.3897004 -47.239983
25.558794 5.1117611 -47.239983
25.558794 3.8338201 -47.239983
25.558794 2.555881 -47.239983
25.558794 1.2779371 -47.239986
25.558794 -2.0055861e-06 -47.239986
25.558794 -1.2779431 -47.239983
25.558794 -2.5558846 -47.239975
25.558794 -3.8338196 -47.239983
25.558794 -5.1117625 -47.239975
25.558794 -6.3896976 -47.239983
25.558794 -7.6676397 -47.239986
25.558794 -8.9455843 -47.239983
25.558794 -10.223517 -47.23999
25.558794 -11.501459 -47.239983
25.558794 -12.779398 -47.239986
25.558794 -14.05734 -47.239979
25.558794 -15.335273 -47.239983
25.558794 -16.613218 -47.239979
25.558794 -17.891159 -47.239986
25.558794 -19.169096 -47.239979
25.558794 -20.447037 -47.239986
25.558794 -21.724979 -47.239979
25.558794 -23.002913 -47.239983
25.558794 -24.280861 -47.239979
25.558794 -25.558796 -47.239983
25.558794 -26.83674 -47.239979
25.558794 -28.114674 -47.239983
25.558794 -29.39262 -47.239975
25.558794 -30.670557 -47.239983
25.558794 -31.9485 -47.239975
25.558794 -33.226433 -47.239979
25.558794 -34.504379 -47.239975
25.558794 -35.782314 -47.239983
25.558794 -37.060257 -47.239971
25.558794 -38.338196 -47.239983
25.558794 -39.616138 -47.239975
25.558794 -40.894077 -47.239983
25.558794 -42.172009 -47.239986
25.558794 -43.449955 -47.239979
25.558794 -44.72789 -47.239986
25.558794 -46.005833 -47.239979
25.558794 -47.283768 -47.239983
26.335211 26.335209 -50.122814
26.351089 25.096273 -50.031536
26.713142 24.169033 -47.950409
26.713142 22.896976 -47.950409
26.713142 21.624928 -47.950405
26.713142 20.352869 -47.950409
26.713142 19.080814 -47.950409
26.713142 17.808764 -47.950405
26.713142 16.536707 -47.950409
26.713142 15.26465 -47.950409
26.713051 13.992549 -47.950935
26.713051 12.720503 -47.950939
26.713051 11.448446 -47.950943
26.713051 10.176396 -47.950939
26.713051 8.9043503 -47.950943
26.713051 7.6322999 -47.950939
26.713051 6.3602514 -47.950939
26.713051 5.0881991 -47.950932
26.713051 3.8161461 -47.950939
26.713051 2.5440958 -47.950939
26.713051 1.2720455 -47.950935
26.713051 7.9589836e-07 -47.950939
26.713051 -1.2720495 -47.950935
26.713051 -2.5441024 -47.950943
26.713051 -3.8161566 -47.950935
26.713051 -5.0882015 -47.950939
26.713051 -6.3602476 -47.950943
26.713051 -7.6323018 -47.950932
26.713051 -8.9043465 -47.950935
26.713051 -10.176399 -47.950943
26.713051 -11.448454 -47.950935
26.713051 -12.7205 -47.950939
26.713051 -13.992546 -47.950943
26.713051 -15.264603 -47.950932
26.713051 -16.536655 -47.950939
26.713051 -17.808701 -47.950947
26.713051 -19.080757 -47.950935
26.713051 -20.352798 -47.950939
26.713051 -21.624849 -47.950943
26.713051 -22.896904 -47.950935
26.713051 -24.168949 -47.950939
26.713051 -25.441 -47.950947
26.713142 -26.713146 -47.950401
26.713142 -27.985195 -47.950409
26.713142 -29.257254 -47.950401
26.713142 -30.529306 -47.950409
26.713142 -31.801363 -47.950401
26.713142 -33.073414 -47.950405
26.713142 -34.345474 -47.950401
26.713142 -35.617523 -47.950409
26.713142 -36.889584 -47.950401
26.713051 -38.161503 -47.950935
26.713051 -39.433552 -47.950943
26.713051 -40.705608 -47.950932
26.713051 -41.977654 -47.950935
26.713051 -43.249699 -47.950939
26.713051 -44.521755 -47.950932
26.713051 -45.793804 -47.950939
26.713051 -47.065849 -47.950943
27.462513 26.214216 -50.818298
27.499252 24.999323 -50.616703
27.85681 24.058155 -48.654846
27.85681 22.791933 -48.654846
27.85681 21.525715 -48.654842
27.85681 20.259497 -48.654846
27.85681 18.993282 -48.654846
27.85681 17.727058 -48.654842
27.85681 16.460844 -48.654842
27.85681 15.194625 -48.654846
27.85681 13.928399 -48.654842
27.85681 12.662186 -48.654842
27.85681 11.395965 -48.654846
27.856714 10.129713 -48.655369
27.856714 8.8635006 -48.655369
27.856714 7.59728 -48.655373
27.856714 6.3310661 -48.655373
27.856714 5.0648537 -48.655373
27.856714 3.7986393 -48.655373
27.856714 2.5324266 -48.655373
27.856714 1.2662106 -48.655369
27.856714 -2.0468281e-06 -48.655369
27.856714 -1.2662163 -48.655373
27.856714 -2.5324287 -48.655369
27.856714 -3.7986429 -48.655373
27.856714 -5.0648556 -48.655373
27.856714 -6.3310695 -48.655373
27.856714 -7.5972886 -48.655376
27.856714 -8.8635054 -48.655373
27.856714 -10.129719 -48.655373
27.856714 -11.395933 -48.655373
27.856714 -12.662145 -48.655373
27.856714 -13.928358 -48.655373
27.856714 -15.194572 -48.655373
27.856714 -16.460787 -48.655376
27.856714 -17.726997 -48.655373
27.856714 -18.993216 -48.655373
27.856714 -20.25943 -48.655376
27.856714 -21.525644 -48.655376
27.85681 -22.791933 -48.65485
27.85681 -24.058159 -48.654839
27.85681 -25.324381 -48.654842
27.85681 -26.590595 -48.654842
27.85681 -27.856812 -48.654846
27.85681 -29.12303 -48.654846
27.85681 -30.389248 -48.65485
27.85681 -31.65547 -48.654835
27.85681 -32.921688 -48.654839
27.85681 -34.187908 -48.654839
27.85681 -35.454124 -48.654842
27.85681 -36.720345 -48.654846
27.85681 -37.986557 -48.654846
27.85681 -39.252785 -48.654835
27.856714 -40.518856 -48.655376
27.856714 -41.785069 -48.655376
27.856714 -43.051285 -48.65538
27.856714 -44.317501 -48.655376
27.856714 -45.583717 -48.655376
27.856714 -46.849926 -48.655376
28.579605 26.094418 -51.506897
28.63858 24.903111 -51.197372
28.990032 23.948286 -49.352848
28.990032 22.687851 -49.352848
28.990032 21.427418 -49.352848
28.990032 20.166973 -49.352848
28.990032 18.90654 -49.352848
28.990032 17.646107 -49.352848
28.990032 16.385672 -49.352848
28.990032 15.125237 -49.352848
28.990032 13.864794 -49.352848
28.990032 12.604359 -49.352848
28.990032 11.343926 -49.352848
28.990032 10.083491 -49.352848
28.990032 8.8230476 -49.352848
28.989933 7.5625868 -49.353374
28.989933 6.3021584 -49.353367
28.989933 5.0417252 -49.353371
28.989933 3.7812922 -49.353371
28.989933 2.5208571 -49.353371
28.989933 1.2604306 -49.353367
28.989933 1.5206056e-06 -49.353374
28.989933 -1.2604336 -49.353374
28.989933 -2.5208666 -49.353378
28.989933 -3.7812951 -49.353371
28.989933 -5.0417323 -49.353367
28.989933 -6.3021612 -49.353374
28.989933 -7.5626001 -49.353367
28.989933 -8.8230228 -49.353371
28.989933 -10.083454 -49.353374
28.989933 -11.343891 -49.353371
28.989933 -12.60432 -49.353378
28.989933 -13.864752 -49.353367
28.989933 -15.125181 -49.353378
28.989933 -16.38562 -49.353367
28.989933 -17.646046 -49.353374
28.990032 -18.906544 -49.352852
28.990032 -20.166981 -49.352844
28.990032 -21.427414 -49.352856
28.990032 -22.687851 -49.352848
28.990032 -23.948294 -49.352844
28.990032 -25.208723 -49.352852
28.990032 -26.469164 -49.352848
28.990032 -27.729603 -49.35284
28.990032 -28.990032 -49.352848
28.990032 -30.250473 -49.352844
28.990032 -31.510902 -49.352852
28.990032 -32.771343 -49.352848
28.990032 -34.03178 -49.35284
28.990032 -35.292213 -49.352852
28.990032 -36.552654 -49.352844
28.990032 -37.813087 -49.352856
28.990032 -39.073524 -49.352848
28.990032 -40.333961 -49.35284
28.990032 -41.594395 -49.352852
28.989933 -42.854691 -49.353367
28.989933 -44.115116 -49.353371
28.989933 -45.375553 -49.353367
28.989933 -46.635983 -49.353371
29.686529 25.97571 -52.189243
29.820677 24.850565 -51.514534
30.112951 23.839417 -50.044514
30.112951 22.584713 -50.044506
30.112951 21.330002 -50.044506
30.112951 20.075302 -50.044506
30.112951 18.820593 -50.044506
30.112951 17.565886 -50.04451
30.112951 16.31118 -50.044506
30.112951 15.056473 -50.04451
30.112951 13.801772 -50.04451
30.112951 12.547061 -50.04451
30.112951 11.292357 -50.044502
30.112951 10.037651 -50.04451
30.112951 8.7829399 -50.04451
30.112951 7.5282364 -50.044502
30.112951 6.2735295 -50.04451
30.112951 5.0188279 -50.044506
30.112848 3.7641063 -50.045029
30.112848 2.5094023 -50.045021
30.112848 1.2547022 -50.045025
30.112848 2.2580509e-06 -50.045025
30.112848 -1.2547082 -50.045025
30.112848 -2.5094061 -50.045029
30.112848 -3.764106 -50.045029
30.112848 -5.0188103 -50.045025
30.112848 -6.2735143 -50.045021
30.112848 -7.5282102 -50.045029
30.112848 -8.7829161 -50.045025
30.112848 -10.037618 -50.045017
30.112848 -11.29232 -50.045033
30.112848 -12.547023 -50.045029
30.112848 -13.801728 -50.045021
30.112951 -15.056478 -50.044514
30.112951 -16.311184 -50.04451
30.112951 -17.565891 -50.044506
30.112951 -18.820599 -50.044502
30.112951 -20.075298 -50.044514
30.112951 -21.330008 -50.04451
30.112951 -22.584715 -50.04451
30.112951 -23.839424 -50.044506
30.112951 -25.09413 -50.044502
30.112951 -26.348839 -50.044502
30.112951 -27.603535 -50.04451
30.112951 -28.858244 -50.04451
30.112951 -30.112955 -50.04451
30.112951 -31.367662 -50.044506
30.112951 -32.622372 -50.044502
30.112951 -33.877075 -50.044502
30.112951 -35.131775 -50.04451
30.112951 -36.386482 -50.044506
30.112951 -37.641193 -50.044506
30.112951 -38.895901 -50.044506
30.112951 -40.150608 -50.044502
30.112951 -41.405308 -50.044514
30.112951 -42.660015 -50.04451
30.112951 -43.914722 -50.04451
30.112848 -45.169277 -50.045021
30.112848 -46.423977 -50.045029
30.783327 25.857994 -52.865902
31.063732 24.850986 -51.511986
31.225813 23.731621 -50.729393
31.225813 22.482586 -50.729389
31.225706 21.233475 -50.729904
31.225706 19.984455 -50.729908
31.225706 18.73542 -50.729904
31.225706 17.486399 -50.729908
31.225706 16.237364 -50.729904
31.225706 14.988338 -50.729912
31.225706 13.73931 -50.729904
31.225706 12.490279 -50.729904
31.225706 11.241255 -50.729904
31.225706 9.9922209 -50.729904
31.225706 8.7431993 -50.729908
31.225706 7.4941654 -50.729904
31.225706 6.2451439 -50.729908
31.225706 4.99611 -50.729904
31.225706 3.747082 -50.729912
31.225706 2.4980545 -50.729904
31.225706 1.2490282 -50.729912
31.225706 6.2265474e-07 -50.729904
31.225706 -1.2490335 -50.7299
31.225706 -2.498055 -50.729904
31.225706 -3.7470889 -50.729904
31.225706 -4.9961171 -50.729908
31.225706 -6.2451444 -50.729904
31.225706 -7.4941707 -50.729908
31.225706 -8.7432003 -50.729904
31.225706 -9.9922304 -50.729904
31.225706 -11.241252 -50.729912
31.225706 -12.490282 -50.729912
31.225706 -13.739318 -50.729908
31.225706 -14.988343 -50.7299
31.225706 -16.237371 -50.7299
31.225706 -17.486395 -50.729908
31.225706 -18.735426 -50.729908
31.225706 -19.984457 -50.729904
31.225706 -21.233486 -50.7299
31.225706 -22.48251 -50.729912
31.225706 -23.731537 -50.729908
31.225706 -24.98057 -50.729904
31.225706 -26.229597 -50.7299
31.225706 -27.478626 -50.729897
31.225706 -28.727652 -50.729912
31.225706 -29.976681 -50.729908
31.225706 -31.225712 -50.729904
31.225706 -32.474739 -50.7299
31.225706 -33.723763 -50.729912
31.225706 -34.972794 -50.729908
31.225706 -36.221825 -50.729904
31.225706 -37.470852 -50.7299
31.225706 -38.719875 -50.729912
31.225706 -39.968906 -50.729908
31.225706 -41.217934 -50.729904
31.225706 -42.466969 -50.7299
31.225706 -43.715996 -50.729897
31.225706 -44.965015 -50.729908
31.225706 -46.21405 -50.729908
31.225706 -47.463078 -50.729904
31.870337 25.741425 -53.535961
32.306831 24.851408 -51.509441
32.328545 23.624704 -51.408619
32.328545 22.381298 -51.408623
32.328545 21.137896 -51.408619
32.328545 19.894487 -51.408623
32.328545 18.651085 -51.408619
32.328438 17.407621 -51.40913
32.328438 16.164219 -51.409126
32.328438 14.920818 -51.409126
32.328438 13.677411 -51.409134
32.328438 12.434009 -51.40913
32.328438 11.190609 -51.40913
32.328438 9.9472084 -51.409134
32.328438 8.7038088 -51.409134
32.328438 7.4604068 -51.40913
32.328438 6.2170053 -51.40913
32.328438 4.9736052 -51.40913
32.328438 3.7302029 -51.409126
32.328438 2.4868028 -51.409126
32.328438 1.2433991 -51.409122
32.328438 3.1318941e-06 -51.40913
32.328438 -1.2434055 -51.40913
32.328438 -2.4868071 -51.40913
32.328438 -3.7302072 -51.40913
32.328438 -4.9736094 -51.40913
32.328438 -6.2170091 -51.40913
32.328438 -7.460413 -51.409126
32.328438 -8.7038107 -51.409134
32.328438 -9.9472151 -51.409122
32.328438 -11.190613 -51.40913
32.328438 -12.43402 -51.409122
32.328438 -13.677415 -51.409126
32.328438 -14.920813 -51.409134
32.328438 -16.164221 -51.409126
32.328438 -17.407618 -51.409134
32.328438 -18.651026 -51.409122
32.328438 -19.894423 -51.40913
32.328438 -21.137831 -51.409122
32.328438 -22.381229 -51.40913
32.328438 -23.624624 -51.409134
32.328438 -24.868031 -51.409126
32.328438 -26.111429 -51.409134
32.328438 -27.354836 -51.409126
32.328438 -28.598234 -51.40913
32.328545 -29.841742 -51.408611
32.328545 -31.085142 -51.408623
32.328545 -32.328552 -51.408615
32.328545 -33.571953 -51.408623
32.328545 -34.815361 -51.408619
32.328545 -36.058762 -51.408627
32.328545 -37.30217 -51.408619
32.328438 -38.545448 -51.409122
32.328438 -39.788845 -51.40913
32.328438 -41.032246 -51.409134
32.328438 -42.27565 -51.409126
32.328438 -43.519047 -51.40913
32.328438 -44.762455 -51.409122
32.328438 -46.005852 -51.40913
32.328438 -47.24926 -51.409122
32.947475 25.625811 -54.2005
33.549969 24.851828 -51.506897
33.421387 23.518755 -52.08176
33.421387 22.280922 -52.081757
33.421387 21.043097 -52.081757
33.421387 19.805262 -52.081757
33.421387 18.567434 -52.081753
33.421387 17.329601 -52.081753
33.421387 16.09178 -52.081757
33.421387 14.853948 -52.081757
33.421276 13.616075 -52.08226
33.421276 12.378249 -52.08226
33.421276 11.140421 -52.082256
33.421276 9.9026003 -52.08226
33.421276 8.6647739 -52.082256
33.421276 7.4269514 -52.08226
33.421276 6.1891246 -52.082256
33.421276 4.951304 -52.08226
33.421276 3.7134693 -52.08226
33.421276 2.4756444 -52.08226
33.421276 1.2378201 -52.08226
33.421276 -4.561653e-06 -52.08226
33.421276 -1.2378273 -52.08226
33.421276 -2.4756536 -52.08226
33.421276 -3.7134762 -52.08226
33.421276 -4.9513011 -52.08226
33.421276 -6.1891236 -52.08226
33.421276 -7.4269485 -52.08226
33.421276 -8.6647787 -52.082256
33.421276 -9.9025993 -52.08226
33.421276 -11.140426 -52.082256
33.421276 -12.378257 -52.082256
33.421276 -13.616076 -52.082264
33.421276 -14.853904 -52.082264
33.421276 -16.091726 -52.08226
33.421276 -17.329556 -52.08226
33.421276 -18.567381 -52.082253
33.421276 -19.805199 -52.082264
33.421276 -21.043026 -52.08226
33.421276 -22.280853 -52.08226
33.421276 -23.518681 -52.082256
33.421276 -24.756498 -52.082264
33.421387 -25.994419 -52.081749
33.421387 -27.232241 -52.08176
33.421387 -28.47007 -52.08176
33.421387 -29.707899 -52.081757
33.421387 -30.94573 -52.081757
33.421387 -32.183559 -52.081757
33.421387 -33.421391 -52.081757
33.421387 -34.659218 -52.081753
33.421387 -35.897045 -52.081753
33.421387 -37.13488 -52.081753
33.421387 -38.372711 -52.081753
33.421387 -39.610542 -52.081749
33.421276 -40.848228 -52.082253
33.421276 -42.086048 -52.082264
33.421276 -43.323879 -52.082264
33.421276 -44.561703 -52.08226
33.421276 -45.79953 -52.082256
33.421276 -47.037357 -52.082253
34.015099 25.51132 -54.858608
34.504471 24.646048 -52.748875
34.504471 23.413744 -52.748875
34.504471 22.181446 -52.748882
34.504471 20.949142 -52.748882
34.504471 19.716839 -52.748882
34.504471 18.484533 -52.748878
34.504471 17.252232 -52.748882
34.504471 16.019934 -52.748878
34.504471 14.78763 -52.748875
34.504471 13.555326 -52.748875
34.504471 12.323026 -52.748882
34.504356 11.090681 -52.749382
34.504356 9.858387 -52.749382
34.504356 8.6260834 -52.749382
34.504356 7.3937898 -52.749382
34.504356 6.1614923 -52.749378
34.504356 4.9291906 -52.749378
34.504356 3.696897 -52.749378
34.504356 2.4645932 -52.749378
34.504356 1.2322997 -52.749378
34.504356 -2.291177e-06 -52.749382
34.504356 -1.2322998 -52.749378
34.504356 -2.4646013 -52.749382
34.504356 -3.6968987 -52.749378
34.504356 -4.9291987 -52.749382
34.504356 -6.1614923 -52.749382
34.504356 -7.3937902 -52.749374
34.504356 -8.62609 -52.749382
34.504356 -9.858387 -52.749374
34.504356 -11.090685 -52.749382
34.504356 -12.322983 -52.749378
34.504356 -13.555286 -52.749378
34.504356 -14.787584 -52.749371
34.504356 -16.019876 -52.749382
34.504356 -17.252178 -52.749386
34.504356 -18.48448 -52.749382
34.504356 -19.71678 -52.749378
34.504356 -20.949081 -52.749374
34.504471 -22.181448 -52.748878
34.504471 -23.413752 -52.748878
34.504471 -24.646055 -52.748878
34.504471 -25.878355 -52.748875
34.504471 -27.110659 -52.748875
34.504471 -28.342962 -52.748875
34.504471 -29.575266 -52.748875
34.504471 -30.80757 -52.748875
34.504471 -32.039864 -52.748882
34.504471 -33.272167 -52.748886
34.504471 -34.504471 -52.748886
34.504471 -35.736774 -52.748886
34.504471 -36.969078 -52.748882
34.504471 -38.201382 -52.748882
34.504471 -39.433681 -52.748882
34.504471 -40.665989 -52.748878
34.504471 -41.898289 -52.748878
34.504356 -43.130447 -52.749378
34.504356 -44.362747 -52.749374
34.504356 -45.595047 -52.749374
34.504356 -46.827339 -52.749386
35.121239 26.643696 -55.311012
35.073109 25.397764 -55.511349
35.577927 24.536505 -53.410076
35.577927 23.309671 -53.410072
35.577927 22.082846 -53.410072
35.577927 20.856026 -53.410072
35.577927 19.6292 -53.410076
35.577927 18.402378 -53.410072
35.577927 17.175547 -53.410072
35.577927 15.948721 -53.410076
35.577927 14.721901 -53.410076
35.577927 13.495073 -53.410076
35.577927 12.268253 -53.410076
35.577927 11.041423 -53.410072
35.577927 9.8145943 -53.410072
35.577927 8.5877743 -53.410072
35.577805 7.3609228 -53.410572
35.577805 6.1341019 -53.410572
35.577805 4.9072828 -53.410572
35.577805 3.6804614 -53.410568
35.577805 2.4536407 -53.410568
35.577805 1.2268215 -53.410568
35.577805 -4.1642893e-06 -53.410568
35.577805 -1.226827 -53.410568
35.577805 -2.4536462 -53.410564
35.577805 -3.6804614 -53.410572
35.577805 -4.9072804 -53.410572
35.577805 -6.1341047 -53.410568
35.577805 -7.3609304 -53.410572
35.577805 -8.5877495 -53.410572
35.577805 -9.8145695 -53.410572
35.577805 -11.041387 -53.410572
35.577805 -12.268209 -53.410568
35.577805 -13.495028 -53.410576
35.577805 -14.721854 -53.410568
35.577805 -15.948671 -53.410572
35.577805 -17.175497 -53.410568
35.577927 -18.402378 -53.410076
35.577927 -19.629206 -53.410069
35.577927 -20.856024 -53.410076
35.577927 -22.082853 -53.410072
35.577927 -23.309685 -53.410069
35.577927 -24.536503 -53.410076
35.577927 -25.76333 -53.410069
35.577927 -26.990149 -53.410076
35.577927 -28.216978 -53.410072
35.577927 -29.44381 -53.410069
35.577927 -30.670628 -53.410076
35.577927 -31.897455 -53.410069
35.577927 -33.124275 -53.410076
35.577927 -34.351105 -53.410072
35.577927 -35.577934 -53.410069
35.577927 -36.804752 -53.410076
35.577927 -38.031578 -53.410069
35.577927 -39.2584 -53.410076
35.577927 -40.485229 -53.410072
35.577927 -41.712059 -53.410069
35.577927 -42.938877 -53.410072
35.577927 -44.165707 -53.410069
35.577805 -45.392372 -53.410572
35.577805 -46.619198 -53.410564
36.121738 26.489273 -56.158298
36.121861 25.285303 -56.157818
36.64188 24.427919 -54.065418
36.64188 23.206526 -54.065414
36.64188 21.985126 -54.065414
36.64188 20.763725 -54.065414
36.64188 19.542337 -54.065418
36.64188 18.320936 -54.065418
36.64188 17.099543 -54.065414
36.64188 15.878142 -54.065414
36.64188 14.656753 -54.065414
36.64188 13.435352 -54.065414
36.64188 12.21396 -54.065411
36.64188 10.99256 -54.065411
36.64188 9.7711716 -54.065418
36.64188 8.5497723 -54.065418
36.64188 7.3283725 -54.065418
36.64188 6.1069779 -54.065414
36.64188 4.8855824 -54.065418
36.641758 3.6641767 -54.065903
36.641758 2.4427795 -54.06591
36.641758 1.2213866 -54.065907
36.641758 -2.5206461e-06 -54.065907
36.641758 -1.2213972 -54.065903
36.641758 -2.4427841 -54.06591
36.641758 -3.6641772 -54.065907
36.641758 -4.8855677 -54.06591
36.641758 -6.1069593 -54.065903
36.641758 -7.3283501 -54.065907
36.641758 -8.5497513 -54.065907
36.641758 -9.7711382 -54.065907
36.641758 -10.992533 -54.065903
36.641758 -12.213923 -54.065907
36.64188 -13.435361 -54.065414
36.64188 -14.656755 -54.065411
36.64188 -15.878154 -54.065411
36.64188 -17.099552 -54.065407
36.64188 -18.320936 -54.065422
36.64188 -19.542334 -54.065418
36.64188 -20.763735 -54.065422
36.64188 -21.98513 -54.065418
36.64188 -23.206528 -54.065414
36.64188 -24.427925 -54.065414
36.64188 -25.649321 -54.065411
36.64188 -26.870718 -54.065411
36.64188 -28.092108 -54.065422
36.64188 -29.313501 -54.065418
36.64188 -30.534899 -54.065418
36.64188 -31.7563 -54.065418
36.64188 -32.977695 -54.065414
36.64188 -34.199093 -54.065414
36.64188 -35.42049 -54.065414
36.64188 -36.641884 -54.065411
36.64188 -37.863285 -54.065407
36.64188 -39.084671 -54.065422
36.64188 -40.306068 -54.065418
36.64188 -41.527466 -54.065418
36.64188 -42.748863 -54.065414
36.64188 -43.970264 -54.065414
36.64188 -45.191658 -54.065414
36.64188 -46.413052 -54.065411
37.161243 26.372494 -56.799065
37.161243 25.17374 -56.799065
37.696583 24.320374 -54.714497
37.696583 23.104355 -54.714493
37.696583 21.88834 -54.714497
37.696461 20.672251 -54.714981
37.696461 19.456232 -54.714977
37.696461 18.240219 -54.714985
37.696461 17.024206 -54.714981
37.696461 15.808191 -54.714985
37.696461 14.592171 -54.714981
37.696461 13.376165 -54.714985
37.696461 12.160146 -54.714981
37.696461 10.94413 -54.714985
37.696461 9.728117 -54.714977
37.696461 8.512104 -54.714985
37.696461 7.2960844 -54.714985
37.696461 6.0800753 -54.714985
37.696461 4.8640561 -54.714981
37.696461 3.6480441 -54.714989
37.696461 2.4320312 -54.714981
37.696461 1.2160157 -54.714985
37.696461 -3.7760685e-06 -54.714981
37.696461 -1.2160213 -54.714985
37.696461 -2.4320302 -54.714985
37.696461 -3.6480496 -54.714981
37.696461 -4.8640652 -54.714985
37.696461 -6.0800743 -54.714981
37.696461 -7.2960916 -54.714985
37.696461 -8.5121098 -54.714981
37.696461 -9.728117 -54.714981
37.696461 -10.944138 -54.714981
37.696461 -12.16015 -54.714985
37.696461 -13.376163 -54.714989
37.696461 -14.592178 -54.714985
37.696461 -15.808196 -54.714981
37.696461 -17.024212 -54.714981
37.696461 -18.240221 -54.714989
37.696461 -19.45624 -54.714985
37.696461 -20.672255 -54.714981
37.696461 -21.888269 -54.714981
37.696461 -23.104288 -54.714977
37.696461 -24.320297 -54.714985
37.696461 -25.536312 -54.714981
37.696461 -26.752331 -54.714985
37.696461 -27.968346 -54.714977
37.696461 -29.184353 -54.714985
37.696461 -30.400373 -54.714985
37.696461 -31.616386 -54.714981
37.696583 -32.832516 -54.714493
37.696583 -34.048534 -54.714489
37.696583 -35.264542 -54.7145
37.696583 -36.480568 -54.7145
37.696583 -37.696583 -54.714497
37.696461 -38.912472 -54.714989
37.696461 -40.12849 -54.714985
37.696461 -41.344505 -54.714981
37.696461 -42.56052 -54.714977
37.696461 -43.776543 -54.714977
37.696461 -44.992546 -54.714985
37.696461 -46.208569 -54.714985
37.696461 -47.424583 -54.714981
38.19149 26.256645 -57.434681
38.213409 25.077547 -57.352013
38.741913 24.21369 -55.358368
38.741913 23.003012 -55.358372
38.741913 21.79233 -55.358368
38.741913 20.581638 -55.358368
38.741913 19.370955 -55.358364
38.741913 18.160275 -55.358368
38.741787 16.949533 -55.358852
38.741787 15.738849 -55.358849
38.741787 14.528171 -55.358856
38.741787 13.317487 -55.358852
38.741787 12.106807 -55.358852
38.741787 10.896123 -55.358849
38.741787 9.6854448 -55.358856
38.741787 8.474761 -55.358852
38.741787 7.264081 -55.358852
38.741787 6.0533972 -55.358849
38.741787 4.8427172 -55.358852
38.741787 3.6320457 -55.358856
38.741787 2.4213619 -55.358852
38.741787 1.210682 -55.358852
38.741787 -1.907857e-06 -55.358849
38.741787 -1.2106818 -55.358852
38.741787 -2.4213636 -55.358852
38.741787 -3.6320436 -55.358852
38.741787 -4.8427258 -55.358849
38.741787 -6.0534072 -55.358852
38.741787 -7.2640896 -55.358849
38.741787 -8.4747696 -55.358852
38.741787 -9.6854477 -55.358856
38.741787 -10.896133 -55.358852
38.741787 -12.106812 -55.358852
38.741787 -13.317493 -55.358849
38.741787 -14.52817 -55.358852
38.741787 -15.738852 -55.358856
38.741787 -16.949533 -55.358845
38.741787 -18.160215 -55.358849
38.741787 -19.370892 -55.358852
38.741787 -20.581573 -55.358856
38.741787 -21.792259 -55.358845
38.741787 -23.002941 -55.358849
38.741787 -24.213619 -55.358849
38.741787 -25.424295 -55.358856
38.741787 -26.634974 -55.358856
38.741787 -27.845663 -55.358845
38.741913 -29.056435 -55.358372
38.741913 -30.267128 -55.358364
38.741913 -31.47781 -55.358368
38.741913 -32.688488 -55.358372
38.741913 -33.899178 -55.358364
38.741913 -35.109863 -55.358368
38.741913 -36.320545 -55.358376
38.741913 -37.531235 -55.358364
38.741913 -38.741913 -55.358372
38.741913 -39.952606 -55.358364
38.741787 -41.163151 -55.358856
38.741787 -42.373829 -55.358856
38.741787 -43.584518 -55.358845
38.741787 -44.795197 -55.358852
38.741787 -46.005871 -55.358852
38.741787 -47.216553 -55.358856
39.21286 26.141903 -58.06427
39.262665 24.985331 -57.882084
40.278263 24.411064 -54.167122
40.278263 23.190516 -54.167126
40.278263 21.969961 -54.167118
40.27813 20.749334 -54.16761
40.27813 19.528786 -54.16761
40.27813 18.308241 -54.167606
40.27813 17.087692 -54.16761
40.27813 15.867142 -54.16761
40.27813 14.64659 -54.16761
40.27813 13.426041 -54.167614
40.27813 12.205491 -54.167614
40.27813 10.984941 -54.167618
40.27813 9.7643976 -54.16761
40.27813 8.5438461 -54.16761
40.27813 7.3232927 -54.16761
40.27813 6.1027427 -54.167606
40.27813 4.8821931 -54.16761
40.27813 3.6616433 -54.16761
40.27813 2.4411004 -54.16761
40.27813 1.2205503 -54.16761
40.27813 -1.2501803e-06 -54.16761
40.27813 -1.2205508 -54.167614
40.27813 -2.4411008 -54.167614
40.27813 -3.6616504 -54.167618
40.27813 -4.8822002 -54.167614
40.27813 -6.1027436 -54.16761
40.27813 -7.3232989 -54.16761
40.27813 -8.543849 -54.167606
40.27813 -9.7643967 -54.16761
40.27813 -10.98495 -54.16761
40.27813 -12.2055 -54.16761
40.277863 -13.425956 -54.168598
40.277863 -14.646502 -54.168587
40.277863 -15.867041 -54.168591
40.277863 -17.087578 -54.168594
40.277863 -18.308117 -54.168598
40.277863 -19.528666 -54.168591
40.277863 -20.749207 -54.168594
40.277863 -21.969744 -54.168598
40.277996 -23.190367 -54.168098
40.277996 -24.410906 -54.168102
40.277996 -25.631449 -54.168106
40.277996 -26.852001 -54.168102
40.277996 -28.072542 -54.168106
40.277996 -29.293095 -54.168098
40.277996 -30.513636 -54.168102
40.277996 -31.734184 -54.168095
40.277996 -32.954727 -54.168102
40.277996 -34.17527 -54.168106
40.277996 -35.395817 -54.168098
40.279068 -36.61734 -54.164165
40.279068 -37.837917 -54.164173
40.279068 -39.058498 -54.164165
40.279068 -40.279072 -54.164177
40.279068 -41.499653 -54.164165
40.279068 -42.72023 -54.164177
40.279068 -43.940811 -54.164169
40.279068 -45.161385 -54.164173
40.279068 -46.381966 -54.164165
40.764427 26.37698 -56.774433
40.764427 25.178026 -56.774437
42.258289 24.857819 -51.470757
42.532959 23.768414 -50.495602
42.532959 22.517448 -50.495594
42.532959 21.266479 -50.495598
42.532959 20.015505 -50.495594
42.532959 18.764538 -50.495598
42.532959 17.513565 -50.495598
42.532959 16.262604 -50.495598
42.532959 15.011631 -50.495594
42.532959 13.760663 -50.495598
42.532814 12.509646 -50.496109
42.532814 11.258685 -50.496109
42.532814 10.007716 -50.496113
42.532814 8.7567549 -50.496113
42.532814 7.5057926 -50.496113
42.532814 6.2548213 -50.496113
42.532814 5.0038571 -50.496109
42.532814 3.7528963 -50.496109
42.532814 2.5019274 -50.496113
42.532814 1.2509664 -50.496113
42.532814 -6.512998e-06 -50.496113
42.532814 -1.2509689 -50.496113
42.532814 -2.5019319 -50.496109
42.532814 -3.7529008 -50.496113
42.532814 -5.0038614 -50.496113
42.532814 -6.254828 -50.496109
42.532814 -7.5057955 -50.496113
42.532814 -8.7567539 -50.49612
42.532814 -10.007722 -50.496113
42.532814 -11.258692 -50.496109
42.533539 -12.509868 -50.493538
42.532089 -13.760386 -50.498699
42.532089 -15.011328 -50.498695
42.532089 -16.26227 -50.498692
42.532089 -17.513212 -50.498688
42.532089 -18.764156 -50.498688
42.532089 -20.015106 -50.498692
42.532089 -21.266048 -50.498688
42.532089 -22.516994 -50.498684
42.532089 -23.767933 -50.498699
42.532089 -25.018875 -50.498695
42.532089 -26.269819 -50.498695
42.532234 -27.520857 -50.498177
42.532234 -28.771805 -50.498177
42.532234 -30.022751 -50.498177
42.532234 -31.273699 -50.498177
42.532234 -32.524647 -50.49818
42.532234 -33.775593 -50.498177
42.534702 -35.028576 -50.48941
42.532669 -36.27787 -50.496624
42.536156 -37.531898 -50.484257
42.536156 -38.782963 -50.484253
42.536156 -40.034027 -50.484249
42.536156 -41.285091 -50.484249
42.536156 -42.536156 -50.484249
42.536156 -43.78722 -50.484249
42.536156 -45.038284 -50.484245
42.536011 -46.289185 -50.484772
43.035892 25.821535 -53.075481
43.502804 24.858742 -51.465157
44.902897 24.37586 -46.636414
44.902897 23.092916 -46.636414
44.902897 21.809973 -46.63641
44.902897 20.52704 -46.636414
44.902897 19.244097 -46.63641
44.902897 17.961155 -46.63641
44.902897 16.678217 -46.636406
44.902897 15.395281 -46.636414
44.902897 14.112337 -46.63641
44.902897 12.829393 -46.63641
44.902897 11.546461 -46.63641
44.902897 10.263518 -46.63641
44.902897 8.9805746 -46.63641
44.902897 7.6976361 -46.636414
44.902897 6.4146996 -46.636406
44.90274 5.131743 -46.636951
44.90274 3.8487988 -46.636951
44.90274 2.5658667 -46.636951
44.90274 1.2829345 -46.636955
44.90274 3.9975203e-07 -46.636951
44.90274 -1.2829398 -46.636955
44.90274 -2.565876 -46.636951
44.90274 -3.848804 -46.636959
44.90274 -5.131742 -46.636955
44.90274 -6.4146843 -46.636951
44.90274 -7.6976128 -46.636959
44.90274 -8.980547 -46.636955
44.907932 -10.264668 -46.619049
44.905098 -11.547026 -46.628807
44.902267 -12.829223 -46.638577
44.901478 -14.1119 -46.641289
44.901478 -15.394794 -46.641296
44.901478 -16.677694 -46.641289
44.901478 -17.960596 -46.641296
44.901478 -19.243496 -46.641289
44.901478 -20.526394 -46.641296
44.901478 -21.809296 -46.641289
44.901478 -23.092192 -46.641293
44.901478 -24.375097 -46.641289
44.901478 -25.65799 -46.641293
44.901478 -26.940891 -46.641285
44.901478 -28.223789 -46.641293
44.901478 -29.506695 -46.641285
44.901642 -30.789698 -46.640751
44.904942 -32.074966 -46.629353
44.906826 -33.359364 -46.622849
44.904785 -34.640835 -46.629894
44.902584 -35.922066 -46.637497
44.908875 -37.210209 -46.615799
44.908875 -38.493324 -46.615795
44.908875 -39.776436 -46.615788
