# .PCD v0.7 - Point Cloud Data file format
VERSION 0.7
FIELDS x y z
SIZE 4 4 4
TYPE F F F
COUNT 1 1 1
WIDTH 1489
HEIGHT 1
VIEWPOINT 0 0 0 1 0 0 0
POINTS 1489
DATA ascii
-142.88127 -200.03372 -267.48679
-143.11499 -207.51671 -266.07614
-143.6472 -215.47078 -262.86398
-144.1778 -223.47556 -259.66156
-187.67024 256.81192 62.453819
-177.78224 233.92401 -0.36659798
-168.88405 213.32724 -56.898426
-160.83347 194.69315 -108.04537
-153.5161 177.75551 -154.53403
-146.83557 162.29199 -196.97667
-140.71225 148.11819 -235.87939
-135.07918 135.07919 -271.66736
-129.87976 123.04401 -304.70023
-125.06738 111.90243 -335.2742
-120.60114 101.55888 -363.64917
-117.38779 92.674606 -384.06415
-117.7663 86.775177 -381.65945
-118.1451 80.836159 -379.2529
-118.52633 74.858734 -376.83084
-119.17343 68.995163 -372.71967
-119.56062 62.92667 -370.25986
-119.94994 56.818413 -367.78629
-120.3422 50.670414 -365.29428
-120.73702 44.482071 -362.78586
-121.13445 38.25301 -360.26096
-121.53411 31.982676 -357.7218
-121.93681 25.670931 -355.16336
-122.34219 19.317192 -352.58795
-122.74988 12.92107 -349.9978
-123.16069 6.4821496 -347.38785
-123.57425 1.4639329e-05 -344.76038
-123.99021 -6.5257864 -342.11774
-124.40937 -13.095677 -339.45468
-124.83139 -19.710167 -336.77359
-125.25586 -26.369623 -334.07675
-125.68365 -33.074642 -331.35898
-126.11436 -39.825565 -328.62256
-126.54762 -46.622807 -325.86996
-126.98429 -53.467056 -323.09573
-127.42399 -60.358692 -320.30228
-127.86672 -67.298248 -317.48941
-128.31213 -74.28595 -314.65967
-128.76108 -81.322792 -311.80737
-129.2132 -88.409012 -308.93509
-129.66805 -95.544868 -306.04529
-130.12656 -102.73148 -303.13235
-130.58832 -109.96907 -300.1987
-131.05292 -117.25787 -297.24695
-131.52129 -124.59909 -294.27133
-131.99301 -131.99301 -291.27432
-132.46768 -139.43967 -288.25861
-132.94624 -146.94054 -285.21829
-133.42827 -154.49586 -282.15591
-133.91335 -162.10564 -279.0741
-134.4001 -169.76851 -275.98169
-134.89368 -177.49165 -272.84589
-135.39137 -185.27237 -269.68396
-135.89227 -193.11005 -266.50159
-136.39737 -201.00664 -263.2926
-136.62492 -208.53275 -261.84689
-137.1326 -216.52515 -258.62155
-137.64114 -224.57234 -255.39075
-179.702 259.56961 75.25676
-170.13757 236.30217 11.116308
-161.53979 215.38644 -46.541553
-153.7692 196.48293 -98.652428
-146.71187 179.31451 -145.97986
-140.27338 163.6523 -189.15733
-134.37674 149.30751 -228.70114
-128.95584 136.1201 -265.05447
-123.95535 123.95539 -298.58844
-119.33052 112.70107 -329.6033
-115.03946 102.25729 -358.37979
-111.67693 93.064156 -380.92938
-112.03888 87.141373 -378.50211
-112.40077 81.178352 -376.07516
-112.76502 75.176712 -373.63254
-113.38261 69.289398 -369.49094
-113.7522 63.195694 -367.01236
-114.12456 57.062279 -364.51526
-114.49937 50.888603 -362.00174
-114.87665 44.674286 -359.47165
-115.25605 38.418732 -356.92728
-115.63835 32.121765 -354.36356
-116.02319 25.782934 -351.78281
-116.41021 19.401718 -349.18732
-116.80022 12.977845 -346.57193
-117.19283 6.510715 -343.93896
-117.58773 4.585545e-05 -341.29074
-117.98566 -6.5547256 -338.6221
-118.3863 -13.154012 -335.9353
-118.7893 -19.798195 -333.23282
-119.19543 -26.487854 -330.50925
-119.60434 -33.2234 -327.76703
-120.01569 -40.005215 -325.00851
-120.43025 -46.833961 -322.2283
-120.8477 -53.710052 -319.42886
-121.26804 -60.634018 -316.60992
-121.69093 -67.606049 -313.77399
-122.11718 -74.627136 -310.91553
-122.54643 -81.697609 -308.03693
-122.97829 -88.817627 -305.14084
-123.41362 -95.988327 -302.22147
-123.85204 -103.21001 -299.28131
-124.29317 -110.4828 -296.32303
-124.73788 -117.80798 -293.34073
-125.18577 -125.18571 -290.33713
-125.63647 -132.61626 -287.31464
-126.09087 -140.10097 -284.26743
-126.54855 -147.63995 -281.19815
-127.00912 -155.23334 -278.10941
-127.47043 -162.87886 -275.01587
-127.93909 -170.58543 -271.87292
-128.41167 -178.34952 -268.7038
-128.88728 -186.1705 -265.51422
-129.3669 -194.05032 -262.29785
-129.85008 -201.98901 -259.0575
-130.07054 -209.55807 -257.5791
-130.55394 -217.58984 -254.33742
-171.56076 262.38705 88.337624
-162.33586 238.72925 22.835024
-154.0524 217.48572 -35.982803
-146.57324 198.30498 -89.089439
-139.78668 180.90041 -137.27831
-133.60075 165.03624 -181.20224
-127.93913 150.51663 -221.40338
-122.73784 137.17761 -258.33582
-117.94254 124.88033 -292.38547
-113.5108 113.51085 -323.85352
-109.40108 102.96577 -353.03506
-105.91819 93.457222 -377.76581
-106.26293 87.510658 -375.31799
-106.60795 81.523766 -372.86807
-106.9549 75.49762 -370.40454
-107.54184 69.585915 -366.23688
-107.89423 63.467209 -363.73465
-108.24895 57.30827 -361.216
-108.60599 51.108738 -358.68076
-108.96507 44.867989 -356.13113
-109.32687 38.585964 -353.56213
-109.69107 32.262108 -350.97604
-110.05737 25.895859 -348.37512
-110.42646 19.487049 -345.7543
-110.79804 13.035086 -343.11581
-111.17178 6.5395479 -340.46201
-111.5484 4.4062235e-05 -337.78778
-111.92758 -6.5839386 -335.09534
-112.309 -13.212785 -332.38708
-112.69338 -19.887058 -329.65771
-113.08041 -26.607128 -326.90964
-113.46972 -33.37344 -324.1452
-113.86211 -40.186596 -321.35901
-114.25721 -47.04707 -318.55356
-114.65508 -53.955292 -315.72849
-115.05533 -60.911613 -312.88641
-115.45877 -67.916924 -310.0217
-115.86505 -74.971489 -307.13687
-116.27382 -82.075615 -304.23438
-116.68587 -89.230339 -301.30856
-117.10085 -96.435959 -298.36194
-117.5184 -103.69267 -295.39706
-117.93933 -111.00169 -292.40817
-118.3633 -118.36328 -289.39777
-118.78992 -125.77753 -286.36853
-119.22002 -133.24586 -283.31451
-119.65326 -140.76852 -280.23822
-120.08923 -148.34555 -277.14249
-120.52882 -155.9785 -274.02112
-120.9687 -163.6635 -270.8978
-121.41603 -171.41084 -267.72144
-121.86626 -179.21504 -264.5246
-122.32027 -187.07803 -261.30078
-122.77766 -194.99982 -258.05295
-123.23807 -202.98033 -254.78383
-123.4492 -210.58978 -253.28468
-123.90981 -218.66434 -250.01404
-163.24086 265.26642 101.7056
-154.37222 241.20663 34.796947
-146.41759 219.6264 -25.216187
-139.24255 200.16121 -79.347534
-132.7379 182.5146 -128.42148
-126.81382 166.44319 -173.11511
-121.39594 151.74496 -213.98984
-116.42204 138.25121 -251.51508
-111.83968 125.81968 -286.0863
-107.60721 114.33268 -318.01788
-103.68372 103.68374 -347.61819
-100.11028 93.853424 -374.57776
-100.43812 87.883362 -372.10446
-100.76531 81.871834 -369.63596
-101.09465 75.820999 -367.15128
-101.65119 69.885223 -362.95248
-101.98572 63.741112 -360.42871
-102.32246 57.556385 -357.88821
-102.6611 51.33057 -355.33334
-103.00233 45.063534 -352.75903
-103.34582 38.754696 -350.1676
-103.69128 32.403553 -347.56125
-104.03939 26.009895 -344.93494
-104.38985 19.573099 -342.29095
-104.74234 13.09282 -339.63159
-105.09756 6.5686455 -336.95169
-105.45519 2.1969072e-06 -334.25354
-105.81493 -6.6133971 -331.53955
-106.17747 -13.272147 -328.80438
-106.54251 -19.9767 -326.05042
-106.90971 -26.727407 -323.28003
-107.2798 -33.524944 -320.48788
-107.65247 -40.369659 -317.67633
-108.02738 -47.261936 -314.84787
-108.40527 -54.202637 -311.99692
-108.78581 -61.191982 -309.12595
-109.16903 -68.230637 -306.23474
-109.5546 -75.318787 -303.3259
-109.94326 -82.457436 -300.39362
-110.3347 -89.646935 -297.44046
-110.72856 -96.887489 -294.46902
-111.12562 -104.18025 -291.47345
-111.52554 -111.52554 -288.4563
-111.92796 -118.92345 -285.42026
-112.33368 -126.37534 -282.35941
-112.74235 -133.88152 -279.27621
-113.15362 -141.44197 -276.17343
-113.56829 -149.05835 -273.04495
-113.98244 -156.72585 -269.92038
-114.40443 -164.45634 -266.73679
-114.82914 -172.24367 -263.53259
-115.25742 -180.08969 -260.30142
-115.68891 -187.99446 -257.04608
-116.12323 -195.95792 -253.76941
-116.56123 -203.98216 -250.46487
-116.76233 -211.63173 -248.94768
-117.20016 -219.75026 -245.64465
-146.24228 243.73714 47.015465
-138.63162 221.81059 -14.2304
-131.77335 202.05251 -69.421516
-125.56217 184.1579 -119.40515
-119.91017 167.87427 -164.88893
-114.74509 152.99347 -206.45428
-110.00661 139.34175 -244.58672
-105.64396 126.7728 -279.69461
-101.61716 115.16615 -312.09976
-97.886375 104.41215 -342.12274
-94.426529 94.426521 -369.96552
-94.563179 88.258995 -368.86575
-94.872566 82.222908 -366.37604
-95.183983 76.147202 -363.87
-95.709648 70.187126 -359.63974
-96.025681 64.017128 -357.09644
-96.344124 57.806484 -354.53391
-96.66468 51.554523 -351.95425
-96.987373 45.260818 -349.35742
-97.311913 38.92477 -346.7457
-97.638954 32.546333 -344.11386
-97.968201 26.124851 -341.46436
-98.299347 19.659895 -338.79941
-98.63308 13.151104 -336.11383
-98.96907 6.5979395 -333.40997
-99.307037 2.5504962e-05 -330.69022
-99.647644 -6.6431513 -327.94919
-99.990593 -13.332066 -325.18933
-100.33559 -20.06711 -322.41302
-100.6833 -26.848867 -319.61484
-101.03343 -33.677784 -316.79724
-101.38567 -40.554249 -313.96262
-101.74072 -47.478962 -311.10544
-102.09825 -54.452377 -308.22821
-102.45831 -61.474964 -305.33069
-102.82057 -68.547035 -302.41537
-103.18575 -75.669548 -299.47665
-103.55354 -82.842812 -296.51697
-103.92361 -90.067093 -293.53897
-104.29668 -97.343544 -290.53665
-104.67243 -104.67242 -287.51276
-105.05055 -112.0539 -284.46997
-105.43177 -119.48933 -281.4021
-105.81577 -126.97892 -278.31189
-106.20221 -134.5228 -275.20206
-106.59185 -142.12244 -272.06653
-106.98437 -149.77809 -268.90781
-107.37678 -157.48592 -265.74997
-107.77586 -165.25627 -262.53839
-108.1783 -173.08528 -259.2998
-108.58337 -180.97226 -256.04004
-108.99187 -188.9192 -252.75266
-109.40347 -196.92619 -249.44044
-109.81778 -204.99316 -246.10626
-110.00858 -212.68321 -244.57086
-110.42353 -220.84702 -241.2316
-137.93927 246.32014 59.487194
-130.68863 224.03769 -3.0291233
-124.16219 203.98077 -59.301521
-118.25656 185.83177 -110.22079
-112.88679 169.33023 -156.52003
-107.98389 154.26276 -198.7937
-103.48916 140.4496 -237.54819
-99.353996 127.74085 -273.20233
-95.539467 116.01225 -306.09201
-92.006706 105.15057 -336.55206
-88.726173 95.063797 -364.83749
-88.637825 88.63784 -365.59927
-88.929337 82.577271 -363.08572
-89.222504 76.476448 -360.55801
-89.716278 70.491386 -356.30069
-90.014091 64.295815 -353.73279
-90.313896 58.058941 -351.14783
-90.6157 51.780426 -348.54559
-90.91925 45.459629 -345.92841
-91.225121 39.096485 -343.29108
-91.533058 32.690395 -340.63599
-91.842789 26.240803 -337.96545
-92.154915 19.747507 -335.2742
-92.469177 13.2099 -332.56461
-92.785278 6.6275358 -329.83905
-93.103859 3.2056632e-06 -327.09219
-93.424637 -6.6731663 -324.32642
-93.747322 -13.392456 -321.54413
-94.072556 -20.158384 -318.73993
-94.400055 -26.971405 -315.9162
-94.729523 -33.831944 -313.07547
-95.061623 -40.74065 -310.21207
-95.396049 -47.698002 -307.32849
-95.732841 -54.704475 -304.42462
-96.071701 -61.760345 -301.50299
-96.413284 -68.866608 -298.55774
-96.757317 -76.023628 -295.59143
-97.103477 -83.231537 -292.60678
-97.452454 -90.491531 -289.59781
-97.803947 -97.803925 -286.56714
-98.157661 -105.16887 -283.51746
-98.514267 -112.58772 -280.44263
-98.873474 -120.06062 -277.34549
-99.234978 -127.58781 -274.22858
-99.599472 -135.17068 -271.08588
-99.96666 -142.80949 -267.91992
-100.33305 -150.49954 -264.7608
-100.70638 -158.25285 -261.5419
-101.08285 -166.06465 -258.29587
-101.46179 -173.93449 -255.02852
-101.84395 -181.86415 -251.73354
-102.22899 -189.85381 -248.41362
-102.61659 -197.90341 -245.07159
-102.9095 -205.81898 -242.54611
-103.18774 -213.74602 -240.14703
-103.57854 -221.95398 -236.7775
-129.45839 248.95847 72.226143
-122.58453 226.30994 8.399354
-116.40382 205.94524 -48.991108
-110.81647 187.53558 -100.8722
-105.74093 170.81227 -148.00084
-101.10995 155.55379 -191.0014
-96.867249 141.57524 -230.39684
-92.967224 128.72386 -266.6102
-89.371498 116.87045 -299.99814
-86.043564 105.89977 -330.89951
-82.954308 95.71653 -359.5845
-82.661621 89.020241 -362.30222
-82.93441 82.934464 -359.76935
-83.209 76.808311 -357.21967
-83.670967 70.798515 -352.93002
-83.949936 64.57692 -350.33972
-84.230766 58.313622 -347.73206
-84.513214 52.008152 -345.10944
-84.797836 45.660378 -342.46658
-85.084381 39.269737 -339.80594
-85.372597 32.835636 -337.12973
-85.66304 26.357876 -334.4328
-85.955467 19.835905 -331.71744
-86.249626 13.269201 -328.98608
-86.546082 6.657423 -326.2334
-86.844582 8.4564308e-06 -323.46164
-87.144867 -6.7034039 -320.6734
-87.447517 -13.45346 -317.86313
-87.752281 -20.250517 -315.03326
-88.058884 -27.09502 -312.18634
-88.367928 -33.987644 -309.31671
-88.679153 -40.92881 -306.42685
-88.992577 -47.919064 -303.5166
-89.307922 -54.958702 -300.58847
-89.625816 -62.048599 -297.63672
-89.945976 -69.189178 -294.66385
-90.268127 -76.380699 -291.67252
-90.592911 -83.624191 -288.65683
-90.920029 -90.920013 -285.61932
-91.249207 -98.268356 -282.56277
-91.581093 -105.67049 -279.48102
-91.915405 -113.12663 -276.37686
-92.251854 -120.63702 -273.25284
-92.591087 -128.203 -270.10291
-92.932823 -135.82486 -266.92969
-93.276764 -143.50269 -263.73605
-93.620628 -151.23331 -260.54306
-93.971016 -159.02785 -257.28958
-94.323708 -166.88036 -254.01472
-94.67939 -174.79271 -250.71202
-95.037766 -182.76494 -247.38432
-95.398521 -190.797 -244.03456
-95.762375 -198.89105 -240.65602
-95.924934 -206.60753 -239.14655
-96.298401 -214.81949 -235.67882
-96.66494 -223.07294 -232.27525
-120.79387 251.65395 85.24102
-114.31435 228.62874 20.062115
-108.49459 207.94798 -38.480259
-103.23867 189.27094 -91.350632
-98.468483 172.31989 -139.33517
-94.119621 156.86609 -183.08119
-90.138657 142.71957 -223.12659
-86.481712 129.7226 -259.91272
-83.111603 117.74148 -293.81339
-79.99456 106.65942 -325.16837
-77.102875 96.378624 -354.25647
-76.6334 89.40564 -358.97903
-76.88739 83.29467 -356.42413
-77.143066 77.143105 -353.8522
-77.572746 71.108368 -349.52997
-77.83252 64.860451 -346.91684
-78.093788 58.570354 -344.2887
-78.357063 52.238064 -341.64038
-78.622116 45.862934 -338.97409
-78.888725 39.444386 -336.29221
-79.157394 32.982254 -333.5896
-79.42791 26.476013 -330.86847
-79.700012 19.925026 -328.13132
-79.974251 13.329073 -325.37268
-80.250381 6.6875424 -322.59503
-80.52816 4.4471935e-06 -319.80078
-80.808136 -6.7339759 -316.98444
-81.090065 -13.515006 -314.14844
-81.373703 -20.343386 -311.29529
-81.659599 -27.219864 -308.4194
-81.94751 -34.144753 -305.52322
-82.237465 -41.118702 -302.60654
-82.52919 -48.142017 -299.67194
-82.823288 -55.215538 -296.71362
-83.119476 -62.339596 -293.73413
-83.417511 -69.514557 -290.73618
-83.717972 -76.74144 -287.71378
-84.020607 -84.020561 -284.66943
-84.325157 -91.352226 -281.60599
-84.632202 -98.737564 -278.51727
-84.941498 -106.17686 -275.40598
-85.252769 -113.67033 -272.2749
-85.566628 -121.21938 -269.11771
-85.882797 -128.82417 -265.93726
-86.201027 -136.48494 -262.73618
-86.518562 -144.19759 -259.54199
-86.842743 -151.97478 -256.28094
-87.16906 -159.80992 -252.99847
-87.498146 -167.70474 -249.68816
-87.829727 -175.65942 -246.35269
-88.163513 -183.67395 -242.9951
-88.50016 -191.75034 -239.60863
-88.839081 -199.88792 -236.1994
-88.993225 -207.65086 -234.64876
-89.33918 -215.90303 -231.16875
-89.68129 -224.20322 -227.72739
-111.94024 254.40965 98.546814
-105.87295 230.99561 31.966253
-100.43001 209.99007 -27.763023
-95.519341 191.03867 -81.651138
-91.066513 173.85429 -130.51517
-87.010353 158.20065 -175.02623
-83.30011 143.88202 -215.74129
-79.894478 130.73642 -253.1136
-76.757957 118.62595 -287.5329
-73.858154 107.43009 -319.35446
-71.169701 97.049622 -348.85669
-70.55275 89.794418 -355.62692
-70.787827 83.658363 -353.04727
-71.024254 77.481033 -350.45279
-71.420914 71.420937 -346.09995
-71.660912 65.146278 -343.46631
-71.902756 58.82954 -340.81238
-72.146233 52.470032 -338.1405
-72.391136 46.067093 -335.453
-72.637947 39.620708 -332.74463
-72.886444 33.130238 -330.0177
-73.136406 26.59507 -327.27469
-73.388329 20.015003 -324.51016
-73.641991 13.389471 -321.72653
-73.897171 6.717947 -318.92627
-74.154373 1.0196233e-05 -316.10382
-74.413376 -6.7648177 -313.26166
-74.673935 -13.577061 -310.40228
-74.936577 -20.437233 -307.52014
-75.20108 -27.345833 -304.61761
-75.467201 -34.303253 -301.69724
-75.735466 -41.310246 -298.75339
-76.005646 -48.367207 -295.78854
-76.277756 -55.474739 -292.80243
-76.551567 -62.633083 -289.79773
-76.827614 -69.843269 -286.76849
-77.105652 -77.105614 -283.71741
-77.385452 -84.420479 -280.64697
-77.667549 -91.788872 -277.5513
-77.951714 -99.211235 -274.43295
-78.237694 -106.68774 -271.29468
-78.526054 -114.21972 -268.13022
-78.816551 -121.80737 -264.9425
-79.108925 -129.45091 -261.7341
-79.403755 -137.15193 -258.49863
-79.697968 -144.90541 -255.27003
-79.997787 -152.72305 -251.97993
-80.300156 -160.6003 -248.66183
-80.604813 -168.53731 -245.31866
-80.911507 -176.53416 -241.95314
-81.220825 -184.59276 -238.55867
-81.532234 -192.71252 -235.14142
-81.846329 -200.89551 -231.69461
-81.99115 -208.70473 -230.10538
-82.309708 -216.99831 -226.60966
-102.89003 257.22513 112.14107
-97.255409 233.41301 44.125088
-92.205879 212.0735 -16.82815
-87.654816 192.84064 -71.76432
-83.53154 175.41626 -121.53661
-79.779068 159.55818 -166.83299
-76.349243 145.0636 -208.23463
-73.203743 131.76675 -246.20422
-70.307884 119.52346 -281.16028
-67.632652 108.21226 -313.45319
-65.153336 97.730034 -343.3812
-64.419189 90.186874 -352.2431
-64.634567 84.024963 -349.64325
-64.851387 77.821686 -347.02597
-65.214561 71.736053 -342.64218
-65.434875 65.434875 -339.98264
-65.656693 59.091061 -337.30515
-65.879807 52.703861 -334.61197
-66.104645 46.273266 -331.89786
-66.331032 39.798645 -329.1651
-66.558754 33.279396 -326.41626
-66.788269 26.715336 -323.64584
-67.019371 20.105843 -320.85617
-67.251846 13.450408 -318.04987
-67.486176 6.7486372 -315.22131
-67.722145 4.0813087e-05 -312.37296
-67.959534 -6.7959218 -309.50739
-68.19883 -13.639746 -306.61887
-68.439804 -20.531933 -303.70996
-68.682266 -27.472897 -300.7832
-68.926682 -34.463326 -297.83282
-69.172852 -41.503674 -294.86139
-69.420776 -48.594482 -291.86865
-69.67025 -55.736179 -288.85724
-69.921761 -62.929596 -285.82117
-70.175095 -70.175064 -282.76315
-70.430031 -77.473007 -279.68588
-70.687073 -84.82444 -276.58313
-70.945992 -92.229752 -273.45764
-71.206566 -99.689156 -270.31223
-71.469315 -107.20395 -267.14056
-71.734009 -114.77441 -263.9454
-72.00042 -122.40068 -260.72961
-72.269066 -130.08429 -257.48672
-72.539215 -137.82448 -254.22574
-72.809837 -145.61966 -250.95901
-73.085358 -153.47923 -247.63321
-73.362968 -161.3985 -244.28217
-73.642433 -169.37758 -240.90872
-73.924294 -177.41829 -237.50632
-74.208069 -185.52013 -234.08098
-74.494286 -193.68512 -230.62593
-74.782455 -201.9126 -227.14748
-74.917641 -209.76939 -225.51561
-75.208542 -218.10477 -222.00404
-93.637276 260.10361 126.03951
-88.455154 235.88048 56.535309
-83.816536 214.19786 -5.6792274
-79.640175 194.67604 -61.693779
-75.86026 177.00731 -112.39117
-72.422897 160.93977 -158.49409
-69.283272 146.26471 -200.6037
-66.406464 132.81296 -239.18829
-63.759693 120.43498 -274.6875
-61.315628 109.0056 -307.46814
-59.0522 98.420341 -337.82587
-58.229942 90.579933 -348.85425
-58.427143 84.394783 -346.20929
-58.624195 78.165596 -343.56638
-58.953384 72.054146 -339.15121
-59.153435 65.726074 -336.46805
-59.35466 59.354694 -333.76917
-59.557453 52.93998 -331.04926
-59.761635 46.481297 -328.31073
-59.967022 39.97805 -325.55597
-60.174026 33.430023 -322.77957
-60.382465 26.836653 -319.98395
-60.592152 20.197412 -317.17154
-60.803505 13.511906 -314.33685
-61.016335 6.779592 -311.48233
-61.230453 2.6676251e-05 -308.61044
-61.446285 -6.8273454 -305.71567
-61.663647 -13.703037 -302.80032
-61.882343 -20.627441 -299.8671
-62.102802 -27.601223 -296.91019
-62.324848 -34.624882 -293.93216
-62.548477 -41.698963 -290.93271
-62.77351 -48.823807 -287.91455
-63.000374 -56.000301 -284.87173
-63.228893 -63.228893 -281.80679
-63.458855 -70.509804 -278.7225
-63.690712 -77.84417 -275.61273
-63.924274 -85.23233 -272.48013
-64.159325 -92.674576 -269.32751
-64.396347 -100.17207 -266.14856
-64.635117 -107.72517 -262.94608
-64.875443 -115.33411 -259.72278
-65.117783 -123.00024 -256.47238
-65.361954 -130.72391 -253.19757
-65.605148 -138.49976 -249.93571
-65.853699 -146.34154 -246.60214
-66.104134 -154.24297 -243.24326
-66.356239 -162.20413 -239.86186
-66.610519 -170.22685 -236.4514
-66.866508 -178.31068 -233.01794
-67.124725 -186.45757 -229.5547
-67.384697 -194.66687 -226.0679
-67.646935 -202.94081 -222.55067
-67.771591 -210.84491 -220.87878
-68.034592 -219.22256 -217.35123
-84.175095 263.04724 140.25255
-79.466858 238.40059 69.210815
-75.257423 216.36513 5.6953244
-71.471512 196.54668 -51.429695
-68.048264 178.62674 -103.08255
-64.93795 162.34488 -150.01347
-62.099541 147.48643 -192.84178
-59.500385 133.87592 -232.06007
-57.110657 121.36017 -268.11829
-54.905476 109.81097 -301.39188
-52.864086 99.120186 -332.19403
-51.987995 90.979004 -345.41333
-52.165001 84.768135 -342.74246
-52.341545 78.512321 -340.07858
-52.636425 72.375107 -335.62918
-52.815674 66.01963 -332.92453
-52.996315 59.62088 -330.19891
-53.178196 53.178234 -327.4545
-53.36116 46.691051 -324.69385
-53.545551 40.159203 -321.91147
-53.731232 33.582024 -319.10983
-53.918026 26.959049 -316.29132
-54.106297 20.289892 -313.45047
-54.295895 13.573985 -310.58975
-54.486637 6.8108358 -307.71164
-54.678913 3.571402e-06 -304.81046
-54.872547 -6.8590498 -301.8887
-55.067375 -13.766818 -298.94901
-55.263775 -20.723896 -295.98553
-55.461586 -27.730774 -293.00085
-55.660812 -34.787971 -289.99472
-55.861286 -41.895943 -286.96982
-56.063404 -49.055466 -283.9201
-56.266987 -56.26693 -280.8483
-56.471859 -63.530823 -277.75699
-56.678425 -70.84803 -274.64014
-56.886505 -78.218925 -271.50037
-57.095924 -85.643845 -268.34058
-57.307091 -93.124008 -265.15433
-57.519821 -100.65965 -261.94443
-57.733936 -108.25113 -258.71365
-57.94986 -115.8997 -255.4557
-58.167397 -123.60569 -252.17329
-58.386372 -131.36934 -248.8692
-58.60511 -139.18713 -245.56866
-58.828243 -147.0706 -242.20189
-59.052868 -155.01375 -238.81256
-59.279427 -163.01839 -235.39404
-59.507519 -171.08412 -231.95238
-59.737587 -179.21274 -228.48094
-59.969223 -187.40379 -224.98576
-60.202881 -195.65935 -221.46016
-60.438148 -203.97876 -217.91023
-60.550991 -211.92844 -216.20767
-60.78651 -220.35107 -212.65395
-74.496674 266.05954 154.79765
-70.284431 240.97519 82.160065
-66.523338 218.57672 17.302443
-63.144333 198.45367 -40.966461
-60.092007 180.27606 -93.601959
-57.321163 163.7748 -141.38345
-54.794586 148.72821 -184.95273
-52.483063 134.95647 -224.81346
-50.358673 122.29968 -261.44733
-48.399734 110.62801 -295.228
-46.587494 99.830383 -326.47891
-45.690651 91.381332 -341.94446
-45.847057 85.144569 -339.24734
-46.002911 78.862152 -336.55972
-46.262794 72.698715 -332.07819
-46.421196 66.31601 -329.34668
-46.580677 59.889458 -326.59644
-46.741116 53.418442 -323.82986
-46.902809 46.902794 -321.0415
-47.065628 40.34198 -318.23383
-47.229427 33.735313 -315.40924
-47.394524 27.082621 -312.56223
-47.56078 20.383221 -309.69519
-47.728046 13.636621 -306.81079
-47.89666 6.8423986 -303.90326
-48.066463 9.5037394e-06 -300.97507
-48.237309 -6.8910322 -298.02887
-48.409546 -13.831281 -295.05881
-48.583008 -20.821287 -292.06747
-48.757725 -27.861525 -289.05463
-48.933537 -34.952488 -286.02292
-49.110783 -42.094948 -282.96634
-49.289322 -49.289303 -279.88757
-49.46899 -56.53595 -276.78934
-49.650146 -63.835857 -273.66537
-49.832638 -71.189484 -270.51846
-50.016296 -78.597038 -267.35132
-50.201492 -86.059685 -264.15775
-50.388065 -93.577812 -260.94046
-50.575851 -101.15169 -257.70218
-50.765217 -108.7826 -254.43663
-50.956013 -116.47086 -251.14655
-51.14806 -124.21668 -247.83476
-51.339546 -132.01595 -244.53279
-51.535244 -139.88135 -241.15807
-51.732254 -147.80641 -237.76074
-51.930965 -155.79285 -234.33417
-52.131016 -163.84033 -230.88432
-52.332809 -171.95065 -227.40457
-52.535976 -180.12331 -223.90112
-52.740921 -188.36037 -220.36697
-52.947273 -196.66129 -216.8085
-53.155445 -205.02814 -213.21864
-53.255398 -213.02159 -211.49506
-53.463612 -221.49211 -207.90456
-60.901802 243.60724 95.398102
-57.609127 220.83499 29.154646
-54.654232 200.39891 -30.293282
-51.987457 181.9561 -83.944695
-49.569012 165.23009 -132.60005
-47.365761 149.99162 -176.92603
-45.351372 136.05415 -217.45238
-43.501488 123.25425 -254.66919
-41.796604 111.45763 -288.96881
-40.220181 100.55046 -320.68402
-39.337498 91.787521 -338.44223
-39.472755 85.524338 -335.72101
-39.60767 79.21537 -333.00681
-39.832043 73.025459 -328.49268
-39.96904 66.615089 -325.73654
-40.10685 60.160286 -322.96405
-40.245743 53.661015 -320.16971
-40.385601 47.116547 -317.35593
-40.526306 40.526329 -314.52524
-40.668125 33.890137 -311.672
-40.810944 27.207317 -308.79877
-40.954632 20.477341 -305.90799
-41.099472 13.699833 -302.99405
-41.245335 6.8742523 -300.05939
-41.392105 2.6048019e-05 -297.10666
-41.540062 -6.9233284 -294.13007
-41.689079 -13.896358 -291.13202
-41.839027 -20.919477 -288.11533
-41.990204 -27.993454 -285.07394
-42.142471 -35.118694 -282.01047
-42.295849 -42.295849 -278.92471
-42.450203 -49.525204 -275.81937
-42.605835 -56.807774 -272.68832
-42.762611 -64.143913 -269.53421
-42.920395 -71.533943 -266.35983
-43.079502 -78.979034 -263.15894
-43.239788 -86.479546 -259.93417
-43.401123 -94.035736 -256.68839
-43.563816 -101.64886 -253.41524
-43.727737 -109.31928 -250.11743
-43.892735 -117.04729 -246.79784
-44.059147 -124.83422 -243.44995
-44.225071 -132.67519 -240.11182
-44.394333 -140.58206 -236.70645
-44.56506 -148.55017 -233.27176
-44.736942 -156.57925 -229.81374
-44.91032 -164.67114 -226.3257
-45.084881 -172.82536 -222.81374
-45.260971 -181.04387 -219.27112
-45.438274 -189.3261 -215.70409
-45.617138 -197.67424 -212.10556
-45.732967 -205.79831 -209.77531
-45.88398 -214.12523 -206.73711
-46.06448 -222.64494 -203.10579
-51.311691 246.29614 108.92229
-48.508564 223.13943 41.248817
-45.995838 202.3817 -19.413805
-43.73061 183.66855 -74.101242
-41.67802 166.71213 -123.65501
-39.809643 151.27664 -168.76178
-38.102859 137.17032 -209.96707
-36.536285 124.22342 -247.78754
-35.093563 112.29943 -282.61795
-33.760448 101.28136 -314.80215
-32.927505 92.197037 -334.91125
-33.041443 85.907791 -332.16055
-33.154774 79.571472 -329.42447
-33.343227 73.35511 -324.87482
-33.458317 66.916656 -322.09634
-33.57431 60.433773 -319.29596
-33.691113 53.905781 -316.4761
-33.808617 47.332104 -313.63928
-33.927063 40.712494 -310.77982
-34.046337 34.046349 -307.90033
-34.166336 27.33308 -305.0032
-34.2873 20.572411 -302.08282
-34.409126 13.76369 -299.14172
-34.531704 6.906373 -296.18243
-34.655277 7.599323e-06 -293.19919
-34.779732 -6.9559331 -290.19449
-34.904968 -13.961987 -287.17099
-35.031231 -21.018711 -284.12277
-35.158409 -28.126709 -281.0524
-35.286518 -35.286526 -277.95963
-35.415436 -42.498489 -274.84729
-35.545425 -49.763577 -271.70905
-35.676373 -57.08218 -268.5477
-35.808159 -64.454704 -265.36603
-35.941051 -71.882057 -262.15775
-36.074936 -79.36483 -258.92554
-36.209694 -86.903236 -255.67216
-36.345589 -94.498489 -252.39139
-36.482506 -102.15101 -249.08583
-36.620331 -109.86099 -245.7585
-36.759335 -117.62982 -242.40273
-36.897663 -125.45202 -239.0631
-37.039051 -133.34055 -235.64972
-37.18166 -141.29031 -232.20677
-37.325237 -149.30093 -228.74054
-37.470066 -157.37425 -225.24413
-37.615883 -165.50986 -221.72385
-37.762978 -173.70966 -218.17265
-37.911083 -181.97319 -214.59697
-38.060501 -190.30249 -210.9897
-38.210957 -198.69698 -207.35736
-38.279976 -206.71182 -205.69116
-38.435928 -215.2412 -201.92607
-38.587776 -223.80908 -198.26022
-41.507511 249.04509 122.74841
-39.216068 225.49246 53.598019
-37.164391 204.40416 -8.3168049
-35.316715 185.41277 -64.075371
-33.644058 168.22034 -114.55229
-32.122929 152.58391 -160.45641
-30.734316 138.30446 -202.36143
-29.460787 125.20835 -240.79361
-28.288502 113.15404 -276.17047
-27.20603 102.02264 -308.83691
-26.460056 92.610252 -331.34869
-26.552114 86.294395 -328.57062
-26.643599 79.930832 -325.80981
-26.795465 73.687553 -321.22681
-26.888464 67.221161 -318.42035
-26.982107 60.709789 -315.59439
-27.076317 54.152676 -312.75137
-27.171276 47.549763 -309.88568
-27.266903 40.900402 -306.99988
-27.363117 34.203903 -304.09644
-27.460102 27.460114 -301.16965
-27.557779 20.668362 -298.22202
-27.656055 13.828048 -295.2562
-27.755135 6.9387832 -292.26624
-27.854923 6.3131483e-06 -289.25485
-27.955338 -6.9888167 -286.22458
-28.056576 -14.028264 -283.16949
-28.158548 -21.118891 -280.09216
-28.261265 -28.261225 -276.99246
-28.364634 -35.455769 -273.87296
-28.468863 -42.703293 -270.72754
-28.573862 -50.004219 -267.55902
-28.679535 -57.359028 -264.37
-28.786097 -64.768723 -261.15424
-28.89345 -72.233597 -257.91455
-29.001505 -79.754128 -254.65364
-29.110476 -87.331421 -251.36517
-29.220268 -94.965828 -248.05193
-29.330788 -102.65772 -244.71674
-29.442251 -110.40845 -241.35297
-29.554565 -118.21825 -237.96358
-29.666344 -126.08192 -234.59045
-29.780701 -134.01314 -231.13934
-29.895836 -142.0052 -227.66484
-30.011974 -150.05984 -224.16008
-30.128908 -158.17676 -220.63126
-30.246868 -166.35774 -217.07155
-30.365643 -174.60242 -213.4872
-30.485466 -182.91277 -209.87119
-30.606125 -191.28825 -206.23
-30.727861 -199.73106 -202.55632
-30.78446 -207.79507 -200.84825
-30.909836 -216.36884 -197.06467
-31.032591 -224.98628 -193.3602
-31.482008 251.85606 136.8867
-29.725508 227.89557 66.210503
-28.15465 206.46751 3.0041347
-26.741486 187.19041 -53.857212
-25.463404 169.75604 -105.28333
-24.302301 153.91461 -152.00246
-23.243 139.45802 -194.62543
-22.272106 126.20863 -233.69115
-21.379148 114.02216 -269.62106
-20.554962 102.77486 -302.78372
-19.934444 93.027458 -327.7514
-20.004112 86.684509 -324.94821
-20.073414 80.293686 -322.15967
-20.143133 73.858177 -319.35443
-20.258541 67.528488 -314.71075
-20.329353 60.988098 -311.86157
-20.400726 54.40197 -308.98962
-20.472605 47.769451 -306.0975
-20.544924 41.089855 -303.18765
-20.617823 34.36306 -300.25436
-20.691242 27.58836 -297.30026
-20.765116 20.765154 -294.32782
-20.839588 13.89309 -291.33121
-20.914598 6.9715681 -288.31308
-20.990078 6.828388e-06 -285.276
-21.066175 -7.022028 -282.21405
-21.14283 -14.09519 -279.12979
-21.220041 -21.220041 -276.02298
-21.297747 -28.396978 -272.89642
-21.376097 -35.626808 -269.7438
-21.455027 -42.910057 -266.56796
-21.534464 -50.247032 -263.37164
-21.614569 -57.63884 -260.14841
-21.695271 -65.085785 -256.90118
-21.776503 -72.58831 -253.63275
-21.858421 -80.147484 -250.33659
-21.940958 -87.76384 -247.01549
-22.024044 -95.437523 -243.67244
-22.10784 -103.16991 -240.30075
-22.192274 -110.96137 -236.90332
-22.276146 -118.80612 -233.52861
-22.362118 -126.71864 -230.06935
-22.448677 -134.69206 -226.58655
-22.535988 -142.72792 -223.07336
-22.623899 -150.82597 -219.53609
-22.712584 -158.98805 -215.96779
-22.80188 -167.21378 -212.37471
-22.891966 -175.50505 -208.74991
-22.982683 -183.86143 -205.09981
-23.074205 -192.28502 -201.41713
-23.166376 -200.77524 -197.70856
-23.209972 -208.88974 -195.95428
-23.30438 -217.50754 -192.15561
-21.227715 254.73259 151.35439
-20.030575 230.35165 79.100548
-18.961164 208.57278 14.555987
-18.000235 189.00252 -43.441265
-17.132006 171.3201 -95.843597
-16.344004 155.26807 -143.40358
-15.625604 140.63048 -186.76291
-14.967698 127.22546 -226.47096
-14.362906 114.90329 -262.97345
-13.805137 103.53855 -296.63779
-13.349728 93.448112 -324.12421
-13.396681 87.078453 -321.29025
-13.443261 80.659592 -318.47897
-13.490165 74.195946 -315.64807
-13.567677 67.838379 -310.96982
-13.615364 61.269173 -308.09161
-13.663387 54.653591 -305.19315
-13.711706 47.990982 -302.27689
-13.760412 41.281254 -299.33716
-13.809467 34.523693 -296.37646
-13.858826 27.71767 -293.3974
-13.908586 20.862911 -290.39417
-13.958703 13.958705 -287.3692
-14.009137 7.0046043 -284.32532
-14.059983 2.1140964e-05 -281.25644
-14.111202 -7.0555787 -278.16516
-14.162744 -14.162734 -275.05429
-14.214714 -21.32202 -271.91763
-14.267068 -28.534126 -268.75778
-14.319808 -35.799477 -265.57468
-14.372889 -43.118618 -262.37097
-14.426416 -50.492409 -259.14032
-14.480342 -57.921322 -255.88556
-14.534622 -65.405762 -252.60947
-14.589364 -72.9468 -249.3055
-14.644518 -80.544853 -245.97668
-14.700038 -88.200195 -242.6257
-14.756034 -95.9142 -239.24606
-14.812459 -103.6872 -235.84055
-14.869262 -111.51945 -232.41219
-14.925849 -119.40679 -228.99681
-14.983692 -127.36137 -225.50566
-15.042041 -135.37833 -221.9841
-15.100789 -143.4575 -218.43825
-15.160054 -151.60054 -214.86127
-15.21973 -159.80714 -211.25958
-15.279934 -168.07924 -207.62592
-15.34056 -176.41643 -203.96684
-15.401726 -184.82069 -200.27512
-15.463323 -193.2915 -196.55743
-15.525475 -201.83116 -192.80623
-15.55526 -209.99597 -191.00854
-15.618511 -218.6591 -187.19101
-10.736424 257.67419 166.14954
-10.124349 232.86006 92.265457
-9.5782967 210.72258 26.351255
-9.0881329 190.85083 -32.816742
-8.6456947 172.91394 -86.223801
-8.2445345 156.64615 -134.64818
-7.8790417 141.82278 -178.76703
-7.5446067 128.25833 -219.13692
-7.2374067 115.79857 -256.21924
-6.9542222 104.31334 -290.40271
-6.7052073 93.872917 -320.4614
-6.7288985 87.475716 -317.60156
-6.7524018 81.028854 -314.76453
-6.7760921 74.537041 -311.90485
-6.8151379 68.151413 -307.19162
-6.8392024 61.552837 -304.28677
-6.8634143 54.907345 -301.36414
-6.8878217 48.214779 -298.41785
-6.9124036 41.474426 -295.45062
-6.9371376 34.685738 -292.46494
-6.9620728 27.848301 -289.45493
-6.9871888 20.961601 -286.42322
-7.0124621 14.024928 -283.37247
-7.0379429 7.0379615 -280.29669
-7.0636096 3.1548981e-05 -277.19839
-7.0894399 -7.0894203 -274.08044
-7.1154842 -14.230942 -270.93661
-7.1417212 -21.42514 -267.76953
-7.1681514 -28.672571 -264.5791
-7.1947536 -35.973747 -261.36798
-7.2215791 -43.329433 -258.12985
-7.2486053 -50.740227 -254.86749
-7.2758083 -58.206436 -251.58376
-7.3032432 -65.729172 -248.27208
-7.3308849 -73.308792 -244.93541
-7.3587108 -80.945824 -241.57651
-7.3867755 -88.641266 -238.1889
-7.4150543 -96.39566 -234.77527
-7.4435244 -104.20933 -231.33864
-7.4718313 -112.07744 -227.92171
-7.5008221 -120.01316 -224.4222
-7.5300665 -128.01108 -220.89217
-7.5595112 -136.07117 -217.33783
-7.5892158 -144.1951 -213.75214
-7.6191254 -152.38249 -210.14168
-7.6493015 -160.63533 -206.4991
-7.6796889 -168.95311 -202.83113
-7.7103467 -177.33798 -199.13031
-7.7412219 -185.78928 -195.40344
-7.7723737 -194.30931 -191.64301
-7.8037782 -202.89819 -187.85216
-7.8190384 -211.11401 -186.01013
-7.850821 -219.82297 -182.17354
-1.6405825e-22 260.68457 181.29041
-1.0441061e-22 235.42369 105.72027
-1.151068e-24 212.91605 38.386646
4.8808503e-23 192.73477 -21.987421
-4.7677632e-22 174.53697 -76.427971
1.2966218e-22 158.04831 -125.74002
-2.9255771e-22 143.03604 -170.63077
-3.3979584e-24 129.30812 -211.68274
-1.1049738e-22 116.70746 -249.36203
-4.6329889e-23 105.10018 -284.07065
-2.2659165e-22 94.400688 -315.91086
-1.2127152e-22 87.876602 -313.87912
-5.568631e-23 81.401756 -311.01324
-9.8743171e-23 74.881058 -308.12985
9.0359788e-23 68.4673 -303.37839
-1.5729947e-22 61.838978 -300.44928
-1.8469488e-22 55.163677 -297.49652
-2.0047245e-22 48.440674 -294.52271
-1.80396e-22 41.669308 -291.53033
-3.6590635e-22 34.849384 -288.51367
-3.517581e-22 27.98019 -285.47513
-1.5570362e-22 21.061142 -282.41748
-4.0826392e-23 14.091847 -279.33475
-8.8769344e-23 7.0716529 -276.22943
-6.3019359e-23 2.8819613e-05 -273.10434
5.8332541e-24 -7.1235871 -269.95331
-2.1773091e-22 -14.299825 -266.77902
-1.3116048e-22 -21.52924 -263.58118
-3.0233835e-22 -28.812288 -260.36267
-3.6024036e-22 -36.149803 -257.11703
-1.2142263e-22 -43.542362 -253.84703
-4.2876844e-22 -50.990242 -250.55568
-1.3893267e-22 -58.494564 -247.23624
-2.9625415e-22 -66.055756 -243.89166
-4.4151058e-22 -73.674202 -240.5249
8.1365966e-23 -81.351097 -237.12912
9.0601117e-23 -89.0868 -233.70735
-2.0858888e-22 -96.881676 -230.26262
-4.4084122e-23 -104.7371 -226.7879
-2.7640906e-22 -112.64726 -223.33617
-1.133918e-22 -120.62614 -219.79758
-2.5271155e-22 -128.66702 -216.23466
-1.5558442e-22 -136.77165 -212.64034
-3.2596704e-22 -144.93974 -209.02106
-4.7406007e-22 -153.17313 -205.36966
-2.3031732e-22 -161.47153 -201.69258
-1.8372321e-22 -169.83676 -197.98273
-1.1279377e-22 -178.26851 -194.24658
-3.5817723e-22 -186.7688 -190.47682
-2.2216391e-22 -195.33791 -186.67653
-1.2614512e-22 -203.97586 -182.84901
-1.8969223e-22 -212.24397 -180.95819
-1.8834896e-22 -220.99841 -177.10605
10.990252 263.76608 196.7892
10.349757 238.04443 119.4746
9.7798042 215.15572 50.675285
9.2693491 194.65637 -10.942124
8.8095369 176.19075 -66.446335
8.3934965 159.47647 -116.66685
8.0149803 144.26965 -162.35779
7.6691594 130.37572 -204.10213
7.3519459 117.63115 -242.39317
7.059907 105.89861 -277.64532
6.7913547 95.078987 -310.06256
6.7905884 88.277679 -310.15497
6.8148203 81.77787 -307.22998
6.8389282 75.228241 -304.31982
6.8785882 68.785904 -299.53247
6.9031038 62.127975 -296.57315
6.9277945 55.422405 -293.59271
6.9526396 48.668495 -290.59369
6.9776869 41.866135 -287.57022
7.0029149 35.014603 -284.52487
7.0283022 28.113256 -281.46036
7.0538993 21.161715 -278.37061
7.0796824 14.159385 -275.25827
7.1056304 7.1056519 -272.12604
7.1317945 4.5503657e-05 -268.96777
7.1581516 -7.1580806 -265.78622
7.1847043 -14.369402 -262.58099
7.2114296 -21.63427 -259.35498
7.2383795 -28.953478 -256.10187
7.265532 -36.327629 -252.82428
7.2928629 -43.757179 -249.5251
7.320426 -51.242954 -246.19792
7.3481984 -58.785572 -242.84549
7.3761563 -66.385361 -239.4707
7.4043541 -74.043549 -236.06688
7.4327683 -81.760414 -232.63698
7.4613743 -89.536499 -229.18391
7.4902291 -97.372963 -225.70088
7.5189757 -105.26566 -222.23082
7.548223 -113.22332 -218.70038
7.5778103 -121.24493 -215.12886
7.6076593 -129.33022 -211.52579
7.6377158 -137.47887 -207.89767
7.6680393 -145.69273 -204.23732
7.698575 -153.97147 -200.5513
7.7293849 -162.31703 -196.83228
7.7604122 -170.72908 -193.08684
7.7917199 -179.20953 -189.30771
7.8232813 -187.7587 -185.49799
7.8550692 -196.37669 -181.66081
7.8871465 -205.06577 -177.78873
7.9031615 -213.38533 -175.85559
7.9352641 -222.18739 -171.98036
20.93264 240.7254 133.54514
19.767542 217.44302 63.225174
18.725388 196.61664 0.32564977
17.787617 177.87622 -56.273895
16.939995 160.92999 -107.4324
16.169479 145.52534 -153.93709
15.465951 131.4606 -196.39877
14.821145 118.56918 -235.31635
14.227952 106.70966 -271.11862
13.68101 95.767105 -304.12952
13.643991 88.685982 -306.36374
13.692905 82.157448 -303.41159
13.741617 75.578926 -300.47156
13.821541 69.107727 -295.64774
13.871032 62.419662 -292.66064
13.920833 55.68335 -289.65494
13.971039 48.898685 -286.62469
14.021609 42.064873 -283.57251
14.072498 35.181263 -280.50107
14.123808 28.247643 -277.4043
14.175492 21.263247 -274.28485
14.227508 14.227555 -271.14551
14.279955 7.1399822 -267.98001
14.33279 1.3150004e-05 -264.79111
14.386019 -7.1929832 -261.57852
14.439592 -14.439562 -258.34503
14.493617 -21.740416 -255.08427
14.54805 -29.096048 -251.79906
14.602839 -36.507107 -248.49217
14.658096 -43.974232 -245.15718
14.713773 -51.498161 -241.79681
14.76982 -59.079277 -238.41399
14.826349 -66.718552 -235.00209
14.883314 -74.416527 -231.56401
14.940663 -82.173645 -228.10266
14.998512 -89.991051 -224.61124
15.056808 -97.869217 -221.09268
15.11467 -105.80267 -217.60052
15.173986 -113.80491 -214.02034
15.233829 -121.8706 -210.40857
15.294088 -129.99974 -206.77159
15.354885 -138.19392 -203.10228
15.416106 -146.45297 -199.40718
15.477878 -154.77876 -195.67892
15.540088 -163.1709 -191.92429
15.602858 -171.63141 -188.13573
15.666139 -180.16058 -184.31642
15.729874 -188.75847 -180.46971
15.794189 -197.42735 -176.58783
15.828993 -205.7769 -174.48724
15.891411 -214.53404 -170.72008
15.956373 -223.38921 -166.79922
31.756454 243.46613 147.9295
29.970062 219.78047 76.050667
28.373945 198.61766 11.827916
26.93936 179.59576 -45.895332
25.643717 162.4102 -98.028046
24.467075 146.80247 -145.37238
23.393679 132.56422 -188.56258
22.410423 119.52229 -228.12572
21.506563 107.53283 -264.49423
20.672787 96.473022 -298.04282
20.561018 89.097755 -302.54007
20.63521 82.540848 -299.55478
20.708893 75.932625 -296.59
20.829763 69.432587 -291.72653
20.904633 62.713928 -288.71408
20.980112 55.947002 -285.67703
21.056137 49.131012 -282.61795
21.132645 42.265301 -279.53958
21.209784 35.349678 -276.43576
21.287485 28.383324 -273.30927
21.365686 21.365719 -270.16269
21.444538 14.296376 -266.98996
21.523973 7.1746616 -263.7937
21.603924 2.9429177e-05 -260.57672
21.684547 -7.2281513 -257.33267
21.765774 -14.510528 -254.06433
21.847614 -21.847569 -250.77147
21.929991 -29.239975 -247.45686
22.013071 -36.688408 -244.11394
22.096783 -44.193542 -240.74567
22.181053 -51.755798 -237.35478
22.266052 -59.376137 -233.9348
22.351702 -67.055107 -230.48849
22.437933 -74.793098 -227.01881
22.524912 -82.591339 -223.51897
22.61257 -90.450264 -219.99191
22.700663 -98.369492 -216.44742
22.788597 -106.34674 -212.90918
22.878578 -114.39285 -209.2886
22.969187 -122.50229 -205.64276
23.060606 -130.67674 -201.96445
23.152666 -138.91595 -198.26018
23.245552 -147.22179 -194.5228
23.339096 -155.59395 -190.7588
23.433489 -164.03438 -186.96082
23.528643 -172.54338 -183.13194
23.624487 -181.12105 -179.27553
23.721207 -189.76964 -175.3839
23.818626 -198.48854 -171.46397
23.864344 -206.8243 -169.62445
23.966221 -215.69598 -165.52524
24.064632 -224.60318 -161.56554
42.829575 246.27008 162.64525
40.394119 222.16766 89.148827
38.220737 200.65889 23.561357
36.269615 181.3481 -35.319088
34.509186 163.91866 -88.44474
32.911736 148.10283 -136.65204
31.455515 133.68597 -180.59731
30.122812 120.49128 -220.81525
28.898344 108.3688 -257.76685
27.769629 97.193733 -291.82886
27.542669 89.51371 -298.67795
27.642521 82.927589 -295.66464
27.741688 76.289673 -292.67203
27.904089 69.760246 -287.77112
28.004953 63.011177 -284.72723
28.10655 56.21312 -281.66129
28.208792 49.365391 -278.5759
28.311876 42.467823 -275.46509
28.415718 35.519646 -272.33142
28.520224 28.520258 -269.17767
28.625601 21.469229 -265.99765
28.731758 14.365909 -262.79398
28.838606 7.2096977 -259.56961
28.946354 4.3607641e-05 -256.31802
29.054909 -7.2636967 -253.04208
29.164282 -14.582134 -249.74142
29.274376 -21.955753 -246.41904
29.38541 -29.385386 -243.06831
29.497292 -36.87162 -239.69197
29.609921 -44.414825 -236.29314
29.72352 -52.016155 -232.86491
29.837994 -59.675964 -229.41037
29.953245 -67.394798 -225.93236
30.0695 -75.173737 -222.42409
30.186659 -83.013283 -218.88847
30.304625 -90.913887 -215.32855
30.421707 -98.870544 -211.79533
30.541973 -106.89685 -208.16592
30.663084 -114.98653 -204.51115
30.785273 -123.14103 -200.82381
30.908321 -131.36032 -197.11044
31.032475 -139.6461 -193.36375
31.157513 -147.99817 -189.59044
31.283682 -156.41838 -185.78296
31.410873 -164.90706 -181.94453
31.538986 -173.46439 -178.07843
31.668268 -182.09251 -174.17694
31.798492 -190.79095 -170.24706
31.929918 -199.56197 -166.28101
31.992413 -207.95067 -164.39503
32.128979 -216.87056 -160.27391
54.160717 249.13936 177.70387
51.047112 224.6073 102.53474
48.272034 202.74255 35.538486
45.783939 183.1358 -24.529421
43.540691 165.4547 -78.686264
41.507164 149.4258 -127.7799
39.655109 134.82741 -172.49246
37.961136 121.47566 -213.38864
36.406082 109.21827 -250.93091
34.973301 97.92527 -285.52127
34.589699 89.933235 -294.78238
34.715805 83.317963 -291.73788
34.841053 76.650368 -288.71411
35.045624 70.091278 -283.7753
35.172909 63.311249 -280.70245
35.300999 56.48164 -277.61008
35.430145 49.602234 -274.49216
35.560242 42.67231 -271.35135
35.691174 35.691196 -268.19037
35.823196 28.658598 -265.00299
35.956203 21.573759 -261.79199
36.090073 14.436034 -258.56012
36.225071 7.2450109 -255.30096
36.36108 1.8151977e-05 -252.01735
36.498116 -7.2996073 -248.70898
36.636059 -14.654419 -245.37878
36.775181 -22.065092 -242.02016
36.915363 -29.532236 -238.63583
37.056484 -37.056442 -235.22888
37.198822 -44.638588 -231.79253
37.342258 -52.27911 -228.32968
37.486668 -59.978645 -224.84334
37.632336 -67.738167 -221.32658
37.77914 -75.558266 -217.78235
37.926956 -83.439255 -214.21382
38.076077 -91.382538 -210.6138
38.224087 -99.382622 -207.04044
38.375843 -107.45232 -203.37674
38.52895 -115.58683 -199.68033
38.683144 -123.78602 -195.95786
38.838722 -132.05161 -192.20189
38.995407 -140.38344 -188.41916
39.153511 -148.78334 -184.60213
39.312904 -157.25162 -180.75406
39.473442 -165.78844 -176.87828
39.63546 -174.39598 -172.96695
39.798649 -183.07376 -169.02708
39.963352 -191.82405 -165.05092
40.129257 -200.64626 -161.0455
40.209496 -209.08937 -159.10843
40.380962 -218.05717 -154.96881
65.759361 252.07751 193.12462
61.936661 227.10114 116.21786
58.53426 204.86996 47.766933
55.487465 184.95824 -13.529935
52.743286 167.02043 -68.738503
50.257542 150.77263 -118.74781
47.995743 135.98796 -164.25174
45.928761 122.47671 -205.83629
44.032295 110.08077 -243.99013
42.286385 98.668236 -279.11511
41.703232 90.35701 -290.84729
41.856133 83.712318 -287.77115
42.007721 77.014183 -284.7215
42.255257 70.425461 -279.74142
42.409313 63.61401 -276.64203
42.564644 56.752872 -273.517
42.721115 49.841331 -270.36905
42.878597 42.878601 -267.20081
43.037388 35.864521 -264.00607
43.197361 28.798273 -260.78766
43.358379 21.679226 -257.54828
43.520752 14.506952 -254.28156
43.684349 7.2807455 -250.99025
43.849178 9.045586e-06 -247.67413
44.015099 -7.3358212 -244.33612
44.182438 -14.727467 -240.96945
44.351055 -22.175522 -237.57716
44.520805 -29.680483 -234.16214
44.69202 -37.243324 -230.71753
44.864555 -44.864521 -227.24638
45.038265 -52.54459 -223.75162
45.21349 -60.284649 -220.22635
45.390083 -68.085098 -216.67358
45.567894 -75.946457 -213.09631
45.747272 -83.870018 -209.48741
45.92498 -91.849915 -205.91231
46.107533 -99.899651 -202.23958
46.291718 -108.01396 -198.53409
46.477203 -116.19301 -194.80235
46.66436 -124.43826 -191.03703
46.852852 -132.74974 -187.24492
47.043053 -141.12914 -183.41841
47.234619 -149.57628 -179.5643
47.42794 -158.09311 -175.67503
47.622845 -166.67993 -171.7538
47.81918 -175.33694 -167.80399
48.017319 -184.06639 -163.81761
48.216927 -192.86766 -159.80194
48.418385 -201.74323 -155.74889
48.516872 -210.23976 -153.76743
48.723946 -219.25772 -149.60153
77.634422 255.08459 208.90614
73.071106 229.65213 130.21468
69.014473 207.04349 60.260429
65.386353 186.81819 -2.3042452
62.121456 168.6154 -58.605362
59.167343 152.14459 -109.54723
56.481209 137.16869 -155.86789
54.028587 123.49394 -198.16191
51.780102 110.9574 -236.93559
49.711117 99.422279 -272.61401
48.883961 90.784508 -286.87781
49.064209 84.1101 -283.7695
49.242744 77.381485 -280.69073
49.533794 70.762581 -275.67178
49.715431 63.919853 -272.53964
49.898399 57.026733 -269.38443
50.082546 50.082561 -266.20898
50.26823 43.08709 -263.0069
50.455303 36.039505 -259.78101
50.643589 28.939199 -256.53412
50.833466 21.785809 -253.25978
51.024773 14.578515 -249.96075
51.217525 7.3168015 -246.63692
51.411556 3.4185836e-05 -243.29094
51.607246 -7.372448 -239.91637
51.80444 -14.801242 -236.51596
52.002945 -22.286959 -233.09277
52.203178 -29.830349 -229.63997
52.404949 -37.432076 -226.16049
52.608101 -45.092648 -222.6573
52.813026 -52.813011 -219.12346
53.019554 -60.593742 -215.56201
53.227505 -68.435349 -211.97606
53.437294 -76.338989 -208.35835
53.648743 -84.305176 -204.71204
53.858231 -92.328384 -201.09959
54.073643 -100.42242 -197.38498
54.290577 -108.58117 -193.64401
54.509472 -116.80598 -189.86935
54.729923 -125.09695 -186.06776
54.952377 -133.45575 -182.23172
55.176437 -141.88225 -178.36795
55.40255 -150.37833 -174.46886
55.630512 -158.94432 -170.53761
55.860149 -167.5804 -166.57776
56.091904 -176.28885 -162.58119
56.325371 -185.06908 -158.55521
56.561016 -193.92348 -154.49167
56.798412 -202.85146 -150.39793
56.916389 -211.4037 -148.36348
57.159294 -220.47156 -144.17476
89.796219 258.16415 225.06874
84.458107 232.2598 144.52289
79.719055 209.26257 73.016075
75.486008 188.71506 9.1442795
71.680779 170.24191 -48.272137
68.240494 153.54114 -100.18192
65.115578 138.37064 -147.33333
62.264091 124.52821 -190.35898
59.652081 111.84766 -229.77112
57.250401 100.18823 -266.00974
56.133152 91.216393 -282.86768
56.341122 84.511696 -279.72974
56.54731 77.752579 -276.61847
56.882557 71.103233 -271.56003
57.092144 64.228668 -268.39761
57.303078 57.303097 -265.21484
57.515781 50.326344 -262.00537
57.730072 43.297585 -258.77203
57.945755 36.216125 -255.51756
58.163265 29.081661 -252.23561
58.382416 21.893423 -248.92885
58.603016 14.650768 -245.60034
