# .PCD v0.7 - Point Cloud Data file format
VERSION 0.7
FIELDS x y z
SIZE 4 4 4
TYPE F F F
COUNT 1 1 1
WIDTH 1550
HEIGHT 1
VIEWPOINT 0 0 0 1 0 0 0
POINTS 1550
DATA ascii
7.6569052 -91.882896 -312.28827
7.6569052 -99.539818 -312.28827
7.6569052 -107.19673 -312.28827
7.6569052 -114.85358 -312.28833
7.6569052 -122.51051 -312.28833
7.6569052 -130.16742 -312.28833
7.6569052 -137.82433 -312.28833
7.6569052 -145.48122 -312.2883
7.6569052 -153.13814 -312.2883
7.6569052 -160.79503 -312.2883
7.6569052 -168.45195 -312.2883
7.6569052 -176.10887 -312.2883
7.6569052 -183.76576 -312.2883
7.6569052 -191.42268 -312.2883
7.6569052 -199.07959 -312.28827
7.6569052 -206.73651 -312.28827
7.6569052 -214.39334 -312.28833
7.6569052 -222.05026 -312.28833
7.6569052 -229.70718 -312.28833
7.6569052 -237.36409 -312.28833
7.6569052 -245.02101 -312.28833
7.6569052 -252.6779 -312.2883
7.6569052 -260.33481 -312.2883
7.6569052 -267.99173 -312.2883
7.6569052 -275.64862 -312.28827
7.6569052 -283.30557 -312.2883
7.6569052 -290.96246 -312.2883
7.6569052 -298.61935 -312.28827
7.6569052 -306.27628 -312.28827
7.6569052 -313.93317 -312.28824
7.6569052 -321.59003 -312.28833
7.6569052 -329.24695 -312.28833
7.6569052 -336.90384 -312.28833
7.6569052 -344.56079 -312.28833
7.6569052 -352.21768 -312.2883
7.6569052 -359.8746 -312.2883
7.6569052 -367.53149 -312.2883
7.6569052 -375.18842 -312.2883
14.816764 311.15204 -342.28775
14.816764 303.74362 -342.28778
14.849858 296.99713 -340.29031
14.849465 289.56454 -340.31406
15.15727 287.9881 -321.73633
15.31381 283.30545 -312.28827
15.31381 275.64859 -312.28833
15.31381 267.99167 -312.28833
15.31381 260.33475 -312.2883
15.31381 252.67786 -312.2883
15.31381 245.02095 -312.2883
15.31381 237.36404 -312.28827
15.31381 229.70717 -312.28833
15.31381 222.05022 -312.28833
15.31381 214.39331 -312.28833
15.31381 206.7364 -312.28833
15.31381 199.0795 -312.2883
15.31381 191.42259 -312.2883
15.31381 183.76569 -312.2883
15.31381 176.10881 -312.28833
15.31381 168.4519 -312.28833
15.31381 160.795 -312.2883
15.31381 153.13808 -312.2883
15.31381 145.48117 -312.2883
15.31381 137.82426 -312.28827
15.31381 130.16736 -312.28827
15.31381 122.51049 -312.2883
15.31381 114.85354 -312.28833
15.31381 107.19663 -312.28833
15.31381 99.539726 -312.2883
15.31381 91.882812 -312.2883
15.31381 84.225906 -312.2883
15.31381 76.569 -312.28827
15.31381 68.912125 -312.28833
15.31381 61.255219 -312.28833
15.31381 53.598316 -312.2883
15.31381 45.941406 -312.2883
15.31381 38.284496 -312.2883
15.31381 30.627588 -312.28827
15.31381 22.97068 -312.28827
15.31381 15.313815 -312.2883
15.31381 7.6568542 -312.28833
15.31381 -4.1690044e-05 -312.2883
15.31381 -7.656951 -312.2883
15.31381 -15.31386 -312.2883
15.31381 -22.97076 -312.2883
15.31381 -30.627645 -312.28833
15.31381 -38.284554 -312.28833
15.31381 -45.941463 -312.2883
15.31381 -53.598358 -312.2883
15.31381 -61.255268 -312.2883
15.31381 -68.91217 -312.2883
15.31381 -76.569077 -312.28827
15.31381 -84.22599 -312.28827
15.31381 -91.882896 -312.28827
15.31381 -99.539818 -312.28827
15.31381 -107.19673 -312.28827
15.31381 -114.85358 -312.28833
15.31381 -122.51051 -312.28833
15.31381 -130.16742 -312.28833
15.31381 -137.82433 -312.28833
15.31381 -145.48122 -312.2883
15.31381 -153.13814 -312.2883
15.31381 -160.79503 -312.2883
15.31381 -168.45195 -312.2883
15.31381 -176.10887 -312.2883
15.31381 -183.76576 -312.2883
15.31381 -191.42268 -312.2883
15.31381 -199.07959 -312.28827
15.31381 -206.73651 -312.28827
15.31381 -214.39334 -312.28833
15.31381 -222.05026 -312.28833
15.31381 -229.70718 -312.28833
15.31381 -237.36409 -312.28833
15.31381 -245.02101 -312.28833
15.31381 -252.6779 -312.2883
15.31381 -260.33481 -312.2883
15.31381 -267.99173 -312.2883
15.31381 -275.64862 -312.28827
15.31381 -283.30557 -312.2883
15.31381 -290.96246 -312.2883
15.31381 -298.61935 -312.28827
15.31381 -306.27628 -312.28827
15.31381 -313.93317 -312.28824
15.31381 -321.59003 -312.28833
15.31381 -329.24695 -312.28833
15.31381 -336.90384 -312.28833
15.31381 -344.56079 -312.28833
15.31381 -352.21768 -312.2883
15.31381 -359.8746 -312.2883
15.31381 -367.53149 -312.2883
15.31381 -375.18842 -312.2883
22.225145 311.15204 -342.28775
22.225145 303.74362 -342.28778
22.274788 296.99713 -340.29031
22.274199 289.56454 -340.31406
22.735907 287.9881 -321.73633
22.970716 283.30545 -312.28827
22.970716 275.64859 -312.28833
22.970716 267.99167 -312.28833
22.970716 260.33475 -312.2883
22.970716 252.67786 -312.2883
22.970716 245.02095 -312.2883
22.970716 237.36404 -312.28827
22.970716 229.70717 -312.28833
22.970716 222.05022 -312.28833
22.970716 214.39331 -312.28833
22.970716 206.7364 -312.28833
22.970716 199.0795 -312.2883
22.970716 191.42259 -312.2883
22.970716 183.76569 -312.2883
22.970716 176.10881 -312.28833
22.970716 168.4519 -312.28833
22.970716 160.795 -312.2883
22.970716 153.13808 -312.2883
22.970716 145.48117 -312.2883
22.970716 137.82426 -312.28827
22.970716 130.16736 -312.28827
22.970716 122.51049 -312.2883
22.970716 114.85354 -312.28833
22.970716 107.19663 -312.28833
22.970716 99.539726 -312.2883
22.970716 91.882812 -312.2883
22.970716 84.225906 -312.2883
22.970716 76.569 -312.28827
22.970716 68.912125 -312.28833
22.970716 61.255219 -312.28833
22.970716 53.598316 -312.2883
22.970716 45.941406 -312.2883
22.970716 38.284496 -312.2883
22.970716 30.627588 -312.28827
22.970716 22.97068 -312.28827
22.970716 15.313815 -312.2883
22.970716 7.6568542 -312.28833
22.970716 -4.1690044e-05 -312.2883
22.970716 -7.656951 -312.2883
22.970716 -15.31386 -312.2883
22.970716 -22.97076 -312.2883
22.970716 -30.627645 -312.28833
22.970716 -38.284554 -312.28833
22.970716 -45.941463 -312.2883
22.970716 -53.598358 -312.2883
22.970716 -61.255268 -312.2883
22.970716 -68.91217 -312.2883
22.970716 -76.569077 -312.28827
22.970716 -84.22599 -312.28827
22.970716 -91.882896 -312.28827
22.970716 -99.539818 -312.28827
22.970716 -107.19673 -312.28827
22.970716 -114.85358 -312.28833
22.970716 -122.51051 -312.28833
22.970716 -130.16742 -312.28833
22.970716 -137.82433 -312.28833
22.970716 -145.48122 -312.2883
22.970716 -153.13814 -312.2883
22.970716 -160.79503 -312.2883
22.970716 -168.45195 -312.2883
22.970716 -176.10887 -312.2883
22.970716 -183.76576 -312.2883
22.970716 -191.42268 -312.2883
22.970716 -199.07959 -312.28827
22.970716 -206.73651 -312.28827
22.970716 -214.39334 -312.28833
22.970716 -222.05026 -312.28833
22.970716 -229.70718 -312.28833
22.970716 -237.36409 -312.28833
22.970716 -245.02101 -312.28833
22.970716 -252.6779 -312.2883
22.970716 -260.33481 -312.2883
22.970716 -267.99173 -312.2883
22.970716 -275.64862 -312.28827
22.970716 -283.30557 -312.2883
22.970716 -290.96246 -312.2883
22.970716 -298.61935 -312.28827
22.970716 -306.27628 -312.28827
22.970716 -313.93317 -312.28824
22.970716 -321.59003 -312.28833
22.970716 -329.24695 -312.28833
22.970716 -336.90384 -312.28833
22.970716 -344.56079 -312.28833
22.970716 -352.21768 -312.2883
22.970716 -359.8746 -312.2883
22.970716 -367.53149 -312.2883
22.970716 -375.18842 -312.2883
29.633528 311.15204 -342.28775
29.633528 303.74362 -342.28778
29.699717 296.99713 -340.29031
29.698931 289.56454 -340.31406
30.314541 287.9881 -321.73633
30.627621 283.30545 -312.28827
30.627621 275.64859 -312.28833
30.627621 267.99167 -312.28833
30.627621 260.33475 -312.2883
30.627621 252.67786 -312.2883
30.627621 245.02095 -312.2883
30.627621 237.36404 -312.28827
30.627621 229.70717 -312.28833
30.627621 222.05022 -312.28833
30.627621 214.39331 -312.28833
30.627621 206.7364 -312.28833
30.627621 199.0795 -312.2883
30.627621 191.42259 -312.2883
30.627621 183.76569 -312.2883
30.627621 176.10881 -312.28833
30.627621 168.4519 -312.28833
30.627621 160.795 -312.2883
30.627621 153.13808 -312.2883
30.627621 145.48117 -312.2883
30.627621 137.82426 -312.28827
30.627621 130.16736 -312.28827
30.627621 122.51049 -312.2883
30.627621 114.85354 -312.28833
30.627621 107.19663 -312.28833
30.627621 99.539726 -312.2883
30.627621 91.882812 -312.2883
30.627621 84.225906 -312.2883
30.627621 76.569 -312.28827
30.627621 68.912125 -312.28833
30.627621 61.255219 -312.28833
30.627621 53.598316 -312.2883
30.627621 45.941406 -312.2883
30.627621 38.284496 -312.2883
30.627621 30.627588 -312.28827
30.627621 22.97068 -312.28827
30.627621 15.313815 -312.2883
30.627621 7.6568542 -312.28833
30.627621 -4.1690044e-05 -312.2883
30.627621 -7.656951 -312.2883
30.627621 -15.31386 -312.2883
30.627621 -22.97076 -312.2883
30.627621 -30.627645 -312.28833
30.627621 -38.284554 -312.28833
30.627621 -45.941463 -312.2883
30.627621 -53.598358 -312.2883
30.627621 -61.255268 -312.2883
30.627621 -68.91217 -312.2883
30.627621 -76.569077 -312.28827
30.627621 -84.22599 -312.28827
30.627621 -91.882896 -312.28827
30.627621 -99.539818 -312.28827
30.627621 -107.19673 -312.28827
30.627621 -114.85358 -312.28833
30.627621 -122.51051 -312.28833
30.627621 -130.16742 -312.28833
30.627621 -137.82433 -312.28833
30.627621 -145.48122 -312.2883
30.627621 -153.13814 -312.2883
30.627621 -160.79503 -312.2883
30.627621 -168.45195 -312.2883
30.627621 -176.10887 -312.2883
30.627621 -183.76576 -312.2883
30.627621 -191.42268 -312.2883
30.627621 -199.07959 -312.28827
30.627621 -206.73651 -312.28827
30.627621 -214.39334 -312.28833
30.627621 -222.05026 -312.28833
30.627621 -229.70718 -312.28833
30.627621 -237.36409 -312.28833
30.627621 -245.02101 -312.28833
30.627621 -252.6779 -312.2883
30.627621 -260.33481 -312.2883
30.627621 -267.99173 -312.2883
30.627621 -275.64862 -312.28827
30.627621 -283.30557 -312.2883
30.627621 -290.96246 -312.2883
30.627621 -298.61935 -312.28827
30.627621 -306.27628 -312.28827
30.627621 -313.93317 -312.28824
30.627621 -321.59003 -312.28833
30.627621 -329.24695 -312.28833
30.627621 -336.90384 -312.28833
30.627621 -344.56079 -312.28833
30.627621 -352.21768 -312.2883
30.627621 -359.8746 -312.2883
30.627621 -367.53149 -312.2883
30.627621 -375.18842 -312.2883
37.041908 311.15204 -342.28775
37.041908 303.74362 -342.28778
37.124645 296.99713 -340.29031
37.123665 289.56454 -340.31406
37.893177 287.9881 -321.73633
38.284527 283.30545 -312.28827
38.284527 275.64859 -312.28833
38.284527 267.99167 -312.28833
38.284527 260.33475 -312.2883
38.284527 252.67786 -312.2883
38.284527 245.02095 -312.2883
38.284527 237.36404 -312.28827
38.284527 229.70717 -312.28833
38.284527 222.05022 -312.28833
38.284527 214.39331 -312.28833
38.284527 206.7364 -312.28833
38.284527 199.0795 -312.2883
38.284527 191.42259 -312.2883
38.284527 183.76569 -312.2883
38.284527 176.10881 -312.28833
38.284527 168.4519 -312.28833
38.284527 160.795 -312.2883
38.284527 153.13808 -312.2883
38.284527 145.48117 -312.2883
38.284527 137.82426 -312.28827
38.284527 130.16736 -312.28827
38.284527 122.51049 -312.2883
38.284527 114.85354 -312.28833
38.284527 107.19663 -312.28833
38.284527 99.539726 -312.2883
38.284527 91.882812 -312.2883
38.284527 84.225906 -312.2883
38.284527 76.569 -312.28827
38.284527 68.912125 -312.28833
38.284527 61.255219 -312.28833
38.284527 53.598316 -312.2883
38.284527 45.941406 -312.2883
38.284527 38.284496 -312.2883
38.284527 30.627588 -312.28827
38.284527 22.97068 -312.28827
38.284527 15.313815 -312.2883
38.284527 7.6568542 -312.28833
38.284527 -4.1690044e-05 -312.2883
38.284527 -7.656951 -312.2883
38.284527 -15.31386 -312.2883
38.284527 -22.97076 -312.2883
38.284527 -30.627645 -312.28833
38.284527 -38.284554 -312.28833
38.284527 -45.941463 -312.2883
38.284527 -53.598358 -312.2883
38.284527 -61.255268 -312.2883
38.284527 -68.91217 -312.2883
38.284527 -76.569077 -312.28827
38.284527 -84.22599 -312.28827
38.284527 -91.882896 -312.28827
38.284527 -99.539818 -312.28827
38.284527 -107.19673 -312.28827
38.284527 -114.85358 -312.28833
38.284527 -122.51051 -312.28833
38.284527 -130.16742 -312.28833
38.284527 -137.82433 -312.28833
38.284527 -145.48122 -312.2883
38.284527 -153.13814 -312.2883
38.284527 -160.79503 -312.2883
38.284527 -168.45195 -312.2883
38.284527 -176.10887 -312.2883
38.284527 -183.76576 -312.2883
38.284527 -191.42268 -312.2883
38.284527 -199.07959 -312.28827
38.284527 -206.73651 -312.28827
38.284527 -214.39334 -312.28833
38.284527 -222.05026 -312.28833
38.284527 -229.70718 -312.28833
38.284527 -237.36409 -312.28833
38.284527 -245.02101 -312.28833
38.284527 -252.6779 -312.2883
38.284527 -260.33481 -312.2883
38.284527 -267.99173 -312.2883
38.284527 -275.64862 -312.28827
38.284527 -283.30557 -312.2883
38.284527 -290.96246 -312.2883
38.284527 -298.61935 -312.28827
38.284527 -306.27628 -312.28827
38.284527 -313.93317 -312.28824
38.284527 -321.59003 -312.28833
38.284527 -329.24695 -312.28833
38.284527 -336.90384 -312.28833
38.284527 -344.56079 -312.28833
38.284527 -352.21768 -312.2883
38.284527 -359.8746 -312.2883
38.284527 -367.53149 -312.2883
38.284527 -375.18842 -312.2883
44.450291 311.15204 -342.28775
44.450291 303.74362 -342.28778
44.549576 296.99713 -340.29031
44.548397 289.56454 -340.31406
45.471813 287.9881 -321.73633
45.941433 283.30545 -312.28827
45.941433 275.64859 -312.28833
45.941433 267.99167 -312.28833
45.941433 260.33475 -312.2883
45.941433 252.67786 -312.2883
45.941433 245.02095 -312.2883
45.941433 237.36404 -312.28827
45.941433 229.70717 -312.28833
45.941433 222.05022 -312.28833
45.941433 214.39331 -312.28833
45.941433 206.7364 -312.28833
45.941433 199.0795 -312.2883
45.941433 191.42259 -312.2883
45.941433 183.76569 -312.2883
45.941433 176.10881 -312.28833
45.941433 168.4519 -312.28833
45.941433 160.795 -312.2883
45.941433 153.13808 -312.2883
45.941433 145.48117 -312.2883
45.941433 137.82426 -312.28827
45.941433 130.16736 -312.28827
45.941433 122.51049 -312.2883
45.941433 114.85354 -312.28833
45.941433 107.19663 -312.28833
45.941433 99.539726 -312.2883
45.941433 91.882812 -312.2883
45.941433 84.225906 -312.2883
45.941433 76.569 -312.28827
45.941433 68.912125 -312.28833
45.941433 61.255219 -312.28833
45.941433 53.598316 -312.2883
45.941433 45.941406 -312.2883
45.941433 38.284496 -312.2883
45.941433 30.627588 -312.28827
45.941433 22.97068 -312.28827
45.941433 15.313815 -312.2883
45.941433 7.6568542 -312.28833
45.941433 -4.1690044e-05 -312.2883
45.941433 -7.656951 -312.2883
45.941433 -15.31386 -312.2883
45.941433 -22.97076 -312.2883
45.941433 -30.627645 -312.28833
45.941433 -38.284554 -312.28833
45.941433 -45.941463 -312.2883
45.941433 -53.598358 -312.2883
45.941433 -61.255268 -312.2883
45.941433 -68.91217 -312.2883
45.941433 -76.569077 -312.28827
45.941433 -84.22599 -312.28827
45.941433 -91.882896 -312.28827
45.941433 -99.539818 -312.28827
45.941433 -107.19673 -312.28827
45.941433 -114.85358 -312.28833
45.941433 -122.51051 -312.28833
45.941433 -130.16742 -312.28833
45.941433 -137.82433 -312.28833
45.941433 -145.48122 -312.2883
45.941433 -153.13814 -312.2883
45.941433 -160.79503 -312.2883
45.941433 -168.45195 -312.2883
45.941433 -176.10887 -312.2883
45.941433 -183.76576 -312.2883
45.941433 -191.42268 -312.2883
45.941433 -199.07959 -312.28827
45.941433 -206.73651 -312.28827
45.941433 -214.39334 -312.28833
45.941433 -222.05026 -312.28833
45.941433 -229.70718 -312.28833
45.941433 -237.36409 -312.28833
45.941433 -245.02101 -312.28833
45.941433 -252.6779 -312.2883
45.941433 -260.33481 -312.2883
45.941433 -267.99173 -312.2883
45.941433 -275.64862 -312.28827
45.941433 -283.30557 -312.2883
45.941433 -290.96246 -312.2883
45.941433 -298.61935 -312.28827
45.941433 -306.27628 -312.28827
45.941433 -313.93317 -312.28824
45.941433 -321.59003 -312.28833
45.941433 -329.24695 -312.28833
45.941433 -336.90384 -312.28833
45.941433 -344.56079 -312.28833
45.941433 -352.21768 -312.2883
45.941433 -359.8746 -312.2883
45.941433 -367.53149 -312.2883
45.941433 -375.18842 -312.2883
51.858673 311.15204 -342.28775
51.858673 303.74362 -342.28778
51.974506 296.99713 -340.29031
51.973125 289.56454 -340.31406
53.050446 287.9881 -321.73633
53.598339 283.30545 -312.28827
53.598339 275.64859 -312.28833
53.598339 267.99167 -312.28833
53.598339 260.33475 -312.2883
53.598339 252.67786 -312.2883
53.598339 245.02095 -312.2883
53.598339 237.36404 -312.28827
53.598339 229.70717 -312.28833
53.598339 222.05022 -312.28833
53.598339 214.39331 -312.28833
53.598339 206.7364 -312.28833
53.598339 199.0795 -312.2883
53.598339 191.42259 -312.2883
53.598339 183.76569 -312.2883
53.598339 176.10881 -312.28833
53.598339 168.4519 -312.28833
53.598339 160.795 -312.2883
53.598339 153.13808 -312.2883
53.598339 145.48117 -312.2883
53.598339 137.82426 -312.28827
53.598339 130.16736 -312.28827
53.598339 122.51049 -312.2883
53.598339 114.85354 -312.28833
53.598339 107.19663 -312.28833
53.598339 99.539726 -312.2883
53.598339 91.882812 -312.2883
53.598339 84.225906 -312.2883
53.598339 76.569 -312.28827
53.598339 68.912125 -312.28833
53.598339 61.255219 -312.28833
53.598339 53.598316 -312.2883
53.598339 45.941406 -312.2883
53.598339 38.284496 -312.2883
53.598339 30.627588 -312.28827
53.598339 22.97068 -312.28827
53.598339 15.313815 -312.2883
53.598339 7.6568542 -312.28833
53.598339 -4.1690044e-05 -312.2883
53.598339 -7.656951 -312.2883
53.598339 -15.31386 -312.2883
53.598339 -22.97076 -312.2883
53.598339 -30.627645 -312.28833
53.598339 -38.284554 -312.28833
53.598339 -45.941463 -312.2883
53.598339 -53.598358 -312.2883
53.598339 -61.255268 -312.2883
53.598339 -68.91217 -312.2883
53.598339 -76.569077 -312.28827
53.598339 -84.22599 -312.28827
53.598339 -91.882896 -312.28827
53.598339 -99.539818 -312.28827
53.598339 -107.19673 -312.28827
53.598339 -114.85358 -312.28833
53.598339 -122.51051 -312.28833
53.598339 -130.16742 -312.28833
53.598339 -137.82433 -312.28833
53.598339 -145.48122 -312.2883
53.598339 -153.13814 -312.2883
53.598339 -160.79503 -312.2883
53.598339 -168.45195 -312.2883
53.598339 -176.10887 -312.2883
53.598339 -183.76576 -312.2883
53.598339 -191.42268 -312.2883
53.598339 -199.07959 -312.28827
53.598339 -206.73651 -312.28827
53.598339 -214.39334 -312.28833
53.598339 -222.05026 -312.28833
53.598339 -229.70718 -312.28833
53.598339 -237.36409 -312.28833
53.598339 -245.02101 -312.28833
53.598339 -252.6779 -312.2883
53.598339 -260.33481 -312.2883
53.598339 -267.99173 -312.2883
53.598339 -275.64862 -312.28827
53.598339 -283.30557 -312.2883
53.598339 -290.96246 -312.2883
53.598339 -298.61935 -312.28827
53.598339 -306.27628 -312.28827
53.598339 -313.93317 -312.28824
53.598339 -321.59003 -312.28833
53.598339 -329.24695 -312.28833
53.598339 -336.90384 -312.28833
53.598339 -344.56079 -312.28833
53.598339 -352.21768 -312.2883
53.598339 -359.8746 -312.2883
53.598339 -367.53149 -312.2883
53.598339 -375.18842 -312.2883
59.267056 311.15204 -342.28775
59.267056 303.74362 -342.28778
59.399433 296.99713 -340.29031
59.397861 289.56454 -340.31406
60.629082 287.9881 -321.73633
61.255241 283.30545 -312.28827
61.255241 275.64859 -312.28833
61.255241 267.99167 -312.28833
61.255241 260.33475 -312.2883
61.255241 252.67786 -312.2883
61.255241 245.02095 -312.2883
61.255241 237.36404 -312.28827
61.255241 229.70717 -312.28833
61.255241 222.05022 -312.28833
61.255241 214.39331 -312.28833
61.255241 206.7364 -312.28833
61.255241 199.0795 -312.2883
61.255241 191.42259 -312.2883
61.255241 183.76569 -312.2883
61.255241 176.10881 -312.28833
61.255241 168.4519 -312.28833
61.255241 160.795 -312.2883
61.255241 153.13808 -312.2883
61.255241 145.48117 -312.2883
61.255241 137.82426 -312.28827
61.255241 130.16736 -312.28827
61.255241 122.51049 -312.2883
61.255241 114.85354 -312.28833
61.255241 107.19663 -312.28833
61.255241 99.539726 -312.2883
61.255241 91.882812 -312.2883
61.255241 84.225906 -312.2883
61.255241 76.569 -312.28827
61.255241 68.912125 -312.28833
61.255241 61.255219 -312.28833
61.255241 53.598316 -312.2883
61.255241 45.941406 -312.2883
61.255241 38.284496 -312.2883
61.255241 30.627588 -312.28827
61.255241 22.97068 -312.28827
61.255241 15.313815 -312.2883
61.255241 7.6568542 -312.28833
61.255241 -4.1690044e-05 -312.2883
61.255241 -7.656951 -312.2883
61.255241 -15.31386 -312.2883
61.255241 -22.97076 -312.2883
61.255241 -30.627645 -312.28833
61.255241 -38.284554 -312.28833
61.255241 -45.941463 -312.2883
61.255241 -53.598358 -312.2883
61.255241 -61.255268 -312.2883
61.255241 -68.91217 -312.2883
61.255241 -76.569077 -312.28827
61.255241 -84.22599 -312.28827
61.255241 -91.882896 -312.28827
61.255241 -99.539818 -312.28827
61.255241 -107.19673 -312.28827
61.255241 -114.85358 -312.28833
61.255241 -122.51051 -312.28833
61.255241 -130.16742 -312.28833
61.255241 -137.82433 -312.28833
61.255241 -145.48122 -312.2883
61.255241 -153.13814 -312.2883
61.255241 -160.79503 -312.2883
61.255241 -168.45195 -312.2883
61.255241 -176.10887 -312.2883
61.255241 -183.76576 -312.2883
61.255241 -191.42268 -312.2883
61.255241 -199.07959 -312.28827
61.255241 -206.73651 -312.28827
61.255241 -214.39334 -312.28833
61.255241 -222.05026 -312.28833
61.255241 -229.70718 -312.28833
61.255241 -237.36409 -312.28833
61.255241 -245.02101 -312.28833
61.255241 -252.6779 -312.2883
61.255241 -260.33481 -312.2883
61.255241 -267.99173 -312.2883
61.255241 -275.64862 -312.28827
61.255241 -283.30557 -312.2883
61.255241 -290.96246 -312.2883
61.255241 -298.61935 -312.28827
61.255241 -306.27628 -312.28827
61.255241 -313.93317 -312.28824
61.255241 -321.59003 -312.28833
61.255241 -329.24695 -312.28833
61.255241 -336.90384 -312.28833
61.255241 -344.56079 -312.28833
61.255241 -352.21768 -312.2883
61.255241 -359.8746 -312.2883
61.255241 -367.53149 -312.2883
61.255241 -375.18842 -312.2883
66.67543 311.15204 -342.28775
66.67543 303.74362 -342.28778
66.824364 296.99713 -340.29031
66.822594 289.56454 -340.31406
68.207718 287.9881 -321.73633
68.912148 283.30545 -312.28827
68.912148 275.64859 -312.28833
68.912148 267.99167 -312.28833
68.912148 260.33475 -312.2883
68.912148 252.67786 -312.2883
68.912148 245.02095 -312.2883
68.912148 237.36404 -312.28827
68.912148 229.70717 -312.28833
68.912148 222.05022 -312.28833
68.912148 214.39331 -312.28833
68.912148 206.7364 -312.28833
68.912148 199.0795 -312.2883
68.912148 191.42259 -312.2883
68.912148 183.76569 -312.2883
68.912148 176.10881 -312.28833
68.912148 168.4519 -312.28833
68.912148 160.795 -312.2883
68.912148 153.13808 -312.2883
68.912148 145.48117 -312.2883
68.912148 137.82426 -312.28827
68.912148 130.16736 -312.28827
68.912148 122.51049 -312.2883
68.912148 114.85354 -312.28833
68.912148 107.19663 -312.28833
68.912148 99.539726 -312.2883
68.912148 91.882812 -312.2883
68.912148 84.225906 -312.2883
68.912148 76.569 -312.28827
68.912148 68.912125 -312.28833
68.912148 61.255219 -312.28833
68.912148 53.598316 -312.2883
68.912148 45.941406 -312.2883
68.912148 38.284496 -312.2883
68.912148 30.627588 -312.28827
68.912148 22.97068 -312.28827
68.912148 15.313815 -312.2883
68.912148 7.6568542 -312.28833
68.912148 -4.1690044e-05 -312.2883
68.912148 -7.656951 -312.2883
68.912148 -15.31386 -312.2883
68.912148 -22.97076 -312.2883
68.912148 -30.627645 -312.28833
68.912148 -38.284554 -312.28833
68.912148 -45.941463 -312.2883
68.912148 -53.598358 -312.2883
68.912148 -61.255268 -312.2883
68.912148 -68.91217 -312.2883
68.912148 -76.569077 -312.28827
68.912148 -84.22599 -312.28827
68.912148 -91.882896 -312.28827
68.912148 -99.539818 -312.28827
68.912148 -107.19673 -312.28827
68.912148 -114.85358 -312.28833
68.912148 -122.51051 -312.28833
68.912148 -130.16742 -312.28833
68.912148 -137.82433 -312.28833
68.912148 -145.48122 -312.2883
68.912148 -153.13814 -312.2883
68.912148 -160.79503 -312.2883
68.912148 -168.45195 -312.2883
68.912148 -176.10887 -312.2883
68.912148 -183.76576 -312.2883
68.912148 -191.42268 -312.2883
68.912148 -199.07959 -312.28827
68.912148 -206.73651 -312.28827
68.912148 -214.39334 -312.28833
68.912148 -222.05026 -312.28833
68.912148 -229.70718 -312.28833
68.912148 -237.36409 -312.28833
68.912148 -245.02101 -312.28833
68.912148 -252.6779 -312.2883
68.912148 -260.33481 -312.2883
68.912148 -267.99173 -312.2883
68.912148 -275.64862 -312.28827
68.912148 -283.30557 -312.2883
68.912148 -290.96246 -312.2883
68.912148 -298.61935 -312.28827
68.912148 -306.27628 -312.28827
68.912148 -313.93317 -312.28824
68.912148 -321.59003 -312.28833
68.912148 -329.24695 -312.28833
68.912148 -336.90384 -312.28833
68.912148 -344.56079 -312.28833
68.912148 -352.21768 -312.2883
68.912148 -359.8746 -312.2883
68.912148 -367.53149 -312.2883
68.912148 -375.18842 -312.2883
74.083817 311.15204 -342.28775
74.083817 303.74362 -342.28778
74.24929 296.99713 -340.29031
74.24733 289.56454 -340.31406
75.786354 287.9881 -321.73633
76.569054 283.30545 -312.28827
76.569054 275.64859 -312.28833
76.569054 267.99167 -312.28833
76.569054 260.33475 -312.2883
76.569054 252.67786 -312.2883
76.569054 245.02095 -312.2883
76.569054 237.36404 -312.28827
76.569054 229.70717 -312.28833
76.569054 222.05022 -312.28833
76.569054 214.39331 -312.28833
76.569054 206.7364 -312.28833
76.569054 199.0795 -312.2883
76.569054 191.42259 -312.2883
76.569054 183.76569 -312.2883
76.569054 176.10881 -312.28833
76.569054 168.4519 -312.28833
76.569054 160.795 -312.2883
76.569054 153.13808 -312.2883
76.569054 145.48117 -312.2883
76.569054 137.82426 -312.28827
76.569054 130.16736 -312.28827
76.569054 122.51049 -312.2883
76.569054 114.85354 -312.28833
76.569054 107.19663 -312.28833
76.569054 99.539726 -312.2883
76.569054 91.882812 -312.2883
76.569054 84.225906 -312.2883
76.569054 76.569 -312.28827
76.569054 68.912125 -312.28833
76.569054 61.255219 -312.28833
76.569054 53.598316 -312.2883
76.569054 45.941406 -312.2883
76.569054 38.284496 -312.2883
76.569054 30.627588 -312.28827
76.569054 22.97068 -312.28827
76.569054 15.313815 -312.2883
76.569054 7.6568542 -312.28833
76.569054 -4.1690044e-05 -312.2883
76.569054 -7.656951 -312.2883
76.569054 -15.31386 -312.2883
76.569054 -22.97076 -312.2883
76.569054 -30.627645 -312.28833
76.569054 -38.284554 -312.28833
76.569054 -45.941463 -312.2883
76.569054 -53.598358 -312.2883
76.569054 -61.255268 -312.2883
76.569054 -68.91217 -312.2883
76.569054 -76.569077 -312.28827
76.569054 -84.22599 -312.28827
76.569054 -91.882896 -312.28827
76.569054 -99.539818 -312.28827
76.569054 -107.19673 -312.28827
76.569054 -114.85358 -312.28833
76.569054 -122.51051 -312.28833
76.569054 -130.16742 -312.28833
76.569054 -137.82433 -312.28833
76.569054 -145.48122 -312.2883
76.569054 -153.13814 -312.2883
76.569054 -160.79503 -312.2883
76.569054 -168.45195 -312.2883
76.569054 -176.10887 -312.2883
76.569054 -183.76576 -312.2883
76.569054 -191.42268 -312.2883
76.569054 -199.07959 -312.28827
76.569054 -206.73651 -312.28827
76.569054 -214.39334 -312.28833
76.569054 -222.05026 -312.28833
76.569054 -229.70718 -312.28833
76.569054 -237.36409 -312.28833
76.569054 -245.02101 -312.28833
76.569054 -252.6779 -312.2883
76.569054 -260.33481 -312.2883
76.569054 -267.99173 -312.2883
76.569054 -275.64862 -312.28827
76.569054 -283.30557 -312.2883
76.569054 -290.96246 -312.2883
76.569054 -298.61935 -312.28827
76.569054 -306.27628 -312.28827
76.569054 -313.93317 -312.28824
76.569054 -321.59003 -312.28833
76.569054 -329.24695 -312.28833
76.569054 -336.90384 -312.28833
76.569054 -344.56079 -312.28833
76.569054 -352.21768 -312.2883
76.569054 -359.8746 -312.2883
76.569054 -367.53149 -312.2883
76.569054 -375.18842 -312.2883
81.492203 311.15204 -342.28775
81.492203 303.74362 -342.28778
81.674225 296.99713 -340.29031
81.672058 289.56454 -340.31406
83.36499 287.9881 -321.73633
84.22596 283.30545 -312.28827
84.22596 275.64859 -312.28833
84.22596 267.99167 -312.28833
84.22596 260.33475 -312.2883
84.22596 252.67786 -312.2883
84.22596 245.02095 -312.2883
84.22596 237.36404 -312.28827
84.22596 229.70717 -312.28833
84.22596 222.05022 -312.28833
84.22596 214.39331 -312.28833
84.22596 206.7364 -312.28833
84.22596 199.0795 -312.2883
84.22596 191.42259 -312.2883
84.22596 183.76569 -312.2883
84.22596 176.10881 -312.28833
84.22596 168.4519 -312.28833
84.22596 160.795 -312.2883
84.22596 153.13808 -312.2883
84.22596 145.48117 -312.2883
84.22596 137.82426 -312.28827
84.22596 130.16736 -312.28827
84.22596 122.51049 -312.2883
84.22596 114.85354 -312.28833
84.22596 107.19663 -312.28833
84.22596 99.539726 -312.2883
84.22596 91.882812 -312.2883
84.22596 84.225906 -312.2883
84.22596 76.569 -312.28827
84.22596 68.912125 -312.28833
84.22596 61.255219 -312.28833
84.22596 53.598316 -312.2883
84.22596 45.941406 -312.2883
84.22596 38.284496 -312.2883
84.22596 30.627588 -312.28827
84.22596 22.97068 -312.28827
84.22596 15.313815 -312.2883
84.22596 7.6568542 -312.28833
84.22596 -4.1690044e-05 -312.2883
84.22596 -7.656951 -312.2883
84.22596 -15.31386 -312.2883
84.22596 -22.97076 -312.2883
84.22596 -30.627645 -312.28833
84.22596 -38.284554 -312.28833
84.22596 -45.941463 -312.2883
84.22596 -53.598358 -312.2883
84.22596 -61.255268 -312.2883
84.22596 -68.91217 -312.2883
84.22596 -76.569077 -312.28827
84.22596 -84.22599 -312.28827
84.22596 -91.882896 -312.28827
84.22596 -99.539818 -312.28827
84.22596 -107.19673 -312.28827
84.22596 -114.85358 -312.28833
84.22596 -122.51051 -312.28833
84.22596 -130.16742 -312.28833
84.22596 -137.82433 -312.28833
84.22596 -145.48122 -312.2883
84.22596 -153.13814 -312.2883
84.22596 -160.79503 -312.2883
84.22596 -168.45195 -312.2883
84.22596 -176.10887 -312.2883
84.22596 -183.76576 -312.2883
84.22596 -191.42268 -312.2883
84.22596 -199.07959 -312.28827
84.22596 -206.73651 -312.28827
84.22596 -214.39334 -312.28833
84.22596 -222.05026 -312.28833
84.22596 -229.70718 -312.28833
84.22596 -237.36409 -312.28833
84.22596 -245.02101 -312.28833
84.22596 -252.6779 -312.2883
84.22596 -260.33481 -312.2883
84.22596 -267.99173 -312.2883
84.22596 -275.64862 -312.28827
84.22596 -283.30557 -312.2883
84.22596 -290.96246 -312.2883
84.22596 -298.61935 -312.28827
84.22596 -306.27628 -312.28827
84.22596 -313.93317 -312.28824
84.22596 -321.59003 -312.28833
84.22596 -329.24695 -312.28833
84.22596 -336.90384 -312.28833
84.22596 -344.56079 -312.28833
84.22596 -352.21768 -312.2883
84.22596 -359.8746 -312.2883
84.22596 -367.53149 -312.2883
84.22596 -375.18842 -312.2883
88.900581 311.15204 -342.28775
88.900581 303.74362 -342.28778
89.099152 296.99713 -340.29031
89.096794 289.56454 -340.31406
90.943626 287.9881 -321.73633
91.882866 283.30545 -312.28827
91.882866 275.64859 -312.28833
91.882866 267.99167 -312.28833
91.882866 260.33475 -312.2883
91.882866 252.67786 -312.2883
91.882866 245.02095 -312.2883
91.882866 237.36404 -312.28827
91.882866 229.70717 -312.28833
91.882866 222.05022 -312.28833
91.882866 214.39331 -312.28833
91.882866 206.7364 -312.28833
91.882866 199.0795 -312.2883
91.882866 191.42259 -312.2883
91.882866 183.76569 -312.2883
91.882866 176.10881 -312.28833
91.882866 168.4519 -312.28833
91.882866 160.795 -312.2883
91.882866 153.13808 -312.2883
91.882866 145.48117 -312.2883
91.882866 137.82426 -312.28827
91.882866 130.16736 -312.28827
91.882866 122.51049 -312.2883
91.882866 114.85354 -312.28833
91.882866 107.19663 -312.28833
91.882866 99.539726 -312.2883
91.882866 91.882812 -312.2883
91.882866 84.225906 -312.2883
91.882866 76.569 -312.28827
91.882866 68.912125 -312.28833
91.882866 61.255219 -312.28833
91.882866 53.598316 -312.2883
91.882866 45.941406 -312.2883
91.882866 38.284496 -312.2883
91.882866 30.627588 -312.28827
91.882866 22.97068 -312.28827
91.882866 15.313815 -312.2883
91.882866 7.6568542 -312.28833
91.882866 -4.1690044e-05 -312.2883
91.882866 -7.656951 -312.2883
91.882866 -15.31386 -312.2883
91.882866 -22.97076 -312.2883
91.882866 -30.627645 -312.28833
91.882866 -38.284554 -312.28833
91.882866 -45.941463 -312.2883
91.882866 -53.598358 -312.2883
91.882866 -61.255268 -312.2883
91.882866 -68.91217 -312.2883
91.882866 -76.569077 -312.28827
91.882866 -84.22599 -312.28827
91.882866 -91.882896 -312.28827
91.882866 -99.539818 -312.28827
91.882866 -107.19673 -312.28827
91.882866 -114.85358 -312.28833
91.882866 -122.51051 -312.28833
91.882866 -130.16742 -312.28833
91.882866 -137.82433 -312.28833
91.882866 -145.48122 -312.2883
91.882866 -153.13814 -312.2883
91.882866 -160.79503 -312.2883
91.882866 -168.45195 -312.2883
91.882866 -176.10887 -312.2883
91.882866 -183.76576 -312.2883
91.882866 -191.42268 -312.2883
91.882866 -199.07959 -312.28827
91.882866 -206.73651 -312.28827
91.882866 -214.39334 -312.28833
91.882866 -222.05026 -312.28833
91.882866 -229.70718 -312.28833
91.882866 -237.36409 -312.28833
91.882866 -245.02101 -312.28833
91.882866 -252.6779 -312.2883
91.882866 -260.33481 -312.2883
91.882866 -267.99173 -312.2883
91.882866 -275.64862 -312.28827
91.882866 -283.30557 -312.2883
91.882866 -290.96246 -312.2883
91.882866 -298.61935 -312.28827
91.882866 -306.27628 -312.28827
91.882866 -313.93317 -312.28824
91.882866 -321.59003 -312.28833
91.882866 -329.24695 -312.28833
91.882866 -336.90384 -312.28833
91.882866 -344.56079 -312.28833
91.882866 -352.21768 -312.2883
91.882866 -359.8746 -312.2883
91.882866 -367.53149 -312.2883
91.882866 -375.18842 -312.2883
96.30896 311.15204 -342.28775
96.30896 303.74362 -342.28778
96.524078 296.99713 -340.29031
96.521523 289.56454 -340.31406
98.522255 287.9881 -321.73633
99.539764 283.30545 -312.28827
99.539764 275.64859 -312.28833
99.539764 267.99167 -312.28833
99.539764 260.33475 -312.2883
99.539764 252.67786 -312.2883
99.539764 245.02095 -312.2883
99.539764 237.36404 -312.28827
99.539764 229.70717 -312.28833
99.539764 222.05022 -312.28833
99.539764 214.39331 -312.28833
99.539764 206.7364 -312.28833
99.539764 199.0795 -312.2883
99.539764 191.42259 -312.2883
99.539764 183.76569 -312.2883
99.539764 176.10881 -312.28833
99.539764 168.4519 -312.28833
99.539764 160.795 -312.2883
99.539764 153.13808 -312.2883
99.539764 145.48117 -312.2883
99.539764 137.82426 -312.28827
99.539764 130.16736 -312.28827
99.539764 122.51049 -312.2883
99.539764 114.85354 -312.28833
99.539764 107.19663 -312.28833
99.539764 99.539726 -312.2883
99.539764 91.882812 -312.2883
99.539764 84.225906 -312.2883
99.539764 76.569 -312.28827
99.539764 68.912125 -312.28833
99.539764 61.255219 -312.28833
99.539764 53.598316 -312.2883
99.539764 45.941406 -312.2883
99.539764 38.284496 -312.2883
99.539764 30.627588 -312.28827
99.539764 22.97068 -312.28827
99.539764 15.313815 -312.2883
99.539764 7.6568542 -312.28833
99.539764 -4.1690044e-05 -312.2883
99.539764 -7.656951 -312.2883
99.539764 -15.31386 -312.2883
99.539764 -22.97076 -312.2883
99.539764 -30.627645 -312.28833
99.539764 -38.284554 -312.28833
99.539764 -45.941463 -312.2883
99.539764 -53.598358 -312.2883
99.539764 -61.255268 -312.2883
99.539764 -68.91217 -312.2883
99.539764 -76.569077 -312.28827
99.539764 -84.22599 -312.28827
99.539764 -91.882896 -312.28827
99.539764 -99.539818 -312.28827
99.539764 -107.19673 -312.28827
99.539764 -114.85358 -312.28833
99.539764 -122.51051 -312.28833
99.539764 -130.16742 -312.28833
99.539764 -137.82433 -312.28833
99.539764 -145.48122 -312.2883
99.539764 -153.13814 -312.2883
99.539764 -160.79503 -312.2883
99.539764 -168.45195 -312.2883
99.539764 -176.10887 -312.2883
99.539764 -183.76576 -312.2883
99.539764 -191.42268 -312.2883
99.539764 -199.07959 -312.28827
99.539764 -206.73651 -312.28827
99.539764 -214.39334 -312.28833
99.539764 -222.05026 -312.28833
99.539764 -229.70718 -312.28833
99.539764 -237.36409 -312.28833
99.539764 -245.02101 -312.28833
99.539764 -252.6779 -312.2883
99.539764 -260.33481 -312.2883
99.539764 -267.99173 -312.2883
99.539764 -275.64862 -312.28827
99.539764 -283.30557 -312.2883
99.539764 -290.96246 -312.2883
99.539764 -298.61935 -312.28827
99.539764 -306.27628 -312.28827
99.539764 -313.93317 -312.28824
99.539764 -321.59003 -312.28833
99.539764 -329.24695 -312.28833
99.539764 -336.90384 -312.28833
99.539764 -344.56079 -312.28833
99.539764 -352.21768 -312.2883
99.539764 -359.8746 -312.2883
99.539764 -367.53149 -312.2883
99.539764 -375.18842 -312.2883
103.71735 311.15204 -342.28775
103.71735 303.74362 -342.28778
103.94901 296.99713 -340.29031
103.94625 289.56454 -340.31406
106.0661 287.89365 -322.03641
107.19668 283.30545 -312.28827
107.19668 275.64859 -312.28833
107.19668 267.99167 -312.28833
107.19668 260.33475 -312.2883
107.19668 252.67786 -312.2883
107.19668 245.02095 -312.2883
107.19668 237.36404 -312.28827
107.19668 229.70717 -312.28833
107.19668 222.05022 -312.28833
107.19668 214.39331 -312.28833
107.19668 206.7364 -312.28833
107.19668 199.0795 -312.2883
107.19668 191.42259 -312.2883
107.19668 183.76569 -312.2883
107.19668 176.10881 -312.28833
107.19668 168.4519 -312.28833
107.19668 160.795 -312.2883
107.19668 153.13808 -312.2883
107.19668 145.48117 -312.2883
107.19668 137.82426 -312.28827
107.19668 130.16736 -312.28827
107.19668 122.51049 -312.2883
107.19668 114.85354 -312.28833
107.19668 107.19663 -312.28833
107.19668 99.539726 -312.2883
107.19668 91.882812 -312.2883
107.19668 84.225906 -312.2883
107.19668 76.569 -312.28827
107.19668 68.912125 -312.28833
107.19668 61.255219 -312.28833
107.19668 53.598316 -312.2883
107.19668 45.941406 -312.2883
107.19668 38.284496 -312.2883
107.19668 30.627588 -312.28827
107.19668 22.97068 -312.28827
107.19668 15.313815 -312.2883
107.19668 7.6568542 -312.28833
107.19668 -4.1690044e-05 -312.2883
107.19668 -7.656951 -312.2883
107.19668 -15.31386 -312.2883
107.19668 -22.97076 -312.2883
107.19668 -30.627645 -312.28833
107.19668 -38.284554 -312.28833
107.19668 -45.941463 -312.2883
107.19668 -53.598358 -312.2883
107.19668 -61.255268 -312.2883
107.19668 -68.91217 -312.2883
107.19668 -76.569077 -312.28827
107.19668 -84.22599 -312.28827
107.19668 -91.882896 -312.28827
107.19668 -99.539818 -312.28827
107.19668 -107.19673 -312.28827
107.19668 -114.85358 -312.28833
107.19668 -122.51051 -312.28833
107.19668 -130.16742 -312.28833
107.19668 -137.82433 -312.28833
107.19668 -145.48122 -312.2883
107.19668 -153.13814 -312.2883
107.19668 -160.79503 -312.2883
107.19668 -168.45195 -312.2883
107.19668 -176.10887 -312.2883
107.19668 -183.76576 -312.2883
107.19668 -191.42268 -312.2883
107.19668 -199.07959 -312.28827
107.19668 -206.73651 -312.28827
107.19668 -214.39334 -312.28833
107.19668 -222.05026 -312.28833
107.19668 -229.70718 -312.28833
107.19668 -237.36409 -312.28833
107.19668 -245.02101 -312.28833
107.19668 -252.6779 -312.2883
107.19668 -260.33481 -312.2883
107.19668 -267.99173 -312.2883
107.19668 -275.64862 -312.28827
107.19668 -283.30557 -312.2883
107.19668 -290.96246 -312.2883
107.19668 -298.61935 -312.28827
107.19668 -306.27628 -312.28827
107.19668 -313.93317 -312.28824
107.19668 -321.59003 -312.28833
107.19668 -329.24695 -312.28833
107.19668 -336.90384 -312.28833
107.19668 -344.56079 -312.28833
107.19668 -352.21768 -312.2883
107.19668 -359.8746 -312.2883
107.19668 -367.53149 -312.2883
107.19668 -375.18842 -312.2883
111.143 311.20038 -342.14877
111.14263 303.78983 -342.15173
111.30902 296.82401 -340.81277
111.38871 289.61063 -340.17148
113.60384 287.79633 -322.34552
114.85358 283.30545 -312.28827
114.85358 275.64859 -312.28833
114.85358 267.99167 -312.28833
114.85358 260.33475 -312.2883
114.85358 252.67786 -312.2883
114.85358 245.02095 -312.2883
114.85358 237.36404 -312.28827
114.85358 229.70717 -312.28833
114.85358 222.05022 -312.28833
114.85358 214.39331 -312.28833
114.85358 206.7364 -312.28833
114.85358 199.0795 -312.2883
114.85358 191.42259 -312.2883
114.85358 183.76569 -312.2883
114.85358 176.10881 -312.28833
114.85358 168.4519 -312.28833
114.85358 160.795 -312.2883
114.85358 153.13808 -312.2883
114.85358 145.48117 -312.2883
114.85358 137.82426 -312.28827
114.85358 130.16736 -312.28827
114.85358 122.51049 -312.2883
114.85358 114.85354 -312.28833
114.85358 107.19663 -312.28833
114.85358 99.539726 -312.2883
114.85358 91.882812 -312.2883
114.85358 84.225906 -312.2883
114.85358 76.569 -312.28827
114.85358 68.912125 -312.28833
114.85358 61.255219 -312.28833
114.85358 53.598316 -312.2883
114.85358 45.941406 -312.2883
114.85358 38.284496 -312.2883
114.85358 30.627588 -312.28827
114.85358 22.97068 -312.28827
114.85358 15.313815 -312.2883
114.85358 7.6568542 -312.28833
114.85358 -4.1690044e-05 -312.2883
114.85358 -7.656951 -312.2883
114.85358 -15.31386 -312.2883
114.85358 -22.97076 -312.2883
114.85358 -30.627645 -312.28833
114.85358 -38.284554 -312.28833
114.85358 -45.941463 -312.2883
114.85358 -53.598358 -312.2883
114.85358 -61.255268 -312.2883
114.85358 -68.91217 -312.2883
114.85358 -76.569077 -312.28827
114.85358 -84.22599 -312.28827
114.85358 -91.882896 -312.28827
114.85358 -99.539818 -312.28827
114.85358 -107.19673 -312.28827
114.85358 -114.85358 -312.28833
114.85358 -122.51051 -312.28833
114.85358 -130.16742 -312.28833
114.85358 -137.82433 -312.28833
114.85358 -145.48122 -312.2883
114.85358 -153.13814 -312.2883
114.85358 -160.79503 -312.2883
114.85358 -168.45195 -312.2883
114.85358 -176.10887 -312.2883
114.85358 -183.76576 -312.2883
114.85358 -191.42268 -312.2883
114.85358 -199.07959 -312.28827
114.85358 -206.73651 -312.28827
114.85358 -214.39334 -312.28833
114.85358 -222.05026 -312.28833
114.85358 -229.70718 -312.28833
114.85358 -237.36409 -312.28833
114.85358 -245.02101 -312.28833
114.85358 -252.6779 -312.2883
114.85358 -260.33481 -312.2883
114.85358 -267.99173 -312.2883
114.85358 -275.64862 -312.28827
114.85358 -283.30557 -312.2883
114.85358 -290.96246 -312.2883
114.85358 -298.61935 -312.28827
114.85358 -306.27628 -312.28827
114.85358 -313.93317 -312.28824
114.85358 -321.59003 -312.28833
114.85358 -329.24695 -312.28833
114.85358 -336.90384 -312.28833
114.85358 -344.56079 -312.28833
114.85358 -352.21768 -312.2883
114.85358 -359.8746 -312.2883
114.85358 -367.53149 -312.2883
114.85358 -375.18842 -312.2883
118.65377 311.46613 -341.38498
118.65337 304.04929 -341.38794
118.80045 297.0011 -340.27844
118.90723 289.83633 -339.47275
121.16923 287.77686 -322.40732
122.51048 283.30545 -312.28827
122.51048 275.64859 -312.28833
122.51048 267.99167 -312.28833
122.51048 260.33475 -312.2883
122.51048 252.67786 -312.2883
122.51048 245.02095 -312.2883
122.51048 237.36404 -312.28827
122.51048 229.70717 -312.28833
122.51048 222.05022 -312.28833
122.51048 214.39331 -312.28833
122.51048 206.7364 -312.28833
122.51048 199.0795 -312.2883
122.51048 191.42259 -312.2883
122.51048 183.76569 -312.2883
122.51048 176.10881 -312.28833
122.51048 168.4519 -312.28833
122.51048 160.795 -312.2883
122.51048 153.13808 -312.2883
122.51048 145.48117 -312.2883
122.51048 137.82426 -312.28827
122.51048 130.16736 -312.28827
122.51048 122.51049 -312.2883
122.51048 114.85354 -312.28833
122.51048 107.19663 -312.28833
122.51048 99.539726 -312.2883
122.51048 91.882812 -312.2883
122.51048 84.225906 -312.2883
122.51048 76.569 -312.28827
122.51048 68.912125 -312.28833
122.51048 61.255219 -312.28833
122.51048 53.598316 -312.2883
122.51048 45.941406 -312.2883
122.51048 38.284496 -312.2883
122.51048 30.627588 -312.28827
122.51048 22.97068 -312.28827
122.51048 15.313815 -312.2883
122.51048 7.6568542 -312.28833
122.51048 -4.1690044e-05 -312.2883
122.51048 -7.656951 -312.2883
122.51048 -15.31386 -312.2883
122.51048 -22.97076 -312.2883
122.51048 -30.627645 -312.28833
122.51048 -38.284554 -312.28833
122.51048 -45.941463 -312.2883
122.51048 -53.598358 -312.2883
122.51048 -61.255268 -312.2883
122.51048 -68.91217 -312.2883
122.51048 -76.569077 -312.28827
122.51048 -84.22599 -312.28827
122.51048 -91.882896 -312.28827
122.51048 -99.539818 -312.28827
122.51048 -107.19673 -312.28827
122.51048 -114.85358 -312.28833
122.51048 -122.51051 -312.28833
122.51048 -130.16742 -312.28833
122.51048 -137.82433 -312.28833
122.51048 -145.48122 -312.2883
122.51048 -153.13814 -312.2883
122.51048 -160.79503 -312.2883
122.51048 -168.45195 -312.2883
122.51048 -176.10887 -312.2883
122.51048 -183.76576 -312.2883
122.51048 -191.42268 -312.2883
122.51048 -199.07959 -312.28827
122.51048 -206.73651 -312.28827
122.51048 -214.39334 -312.28833
122.51048 -222.05026 -312.28833
122.51048 -229.70718 -312.28833
122.51048 -237.36409 -312.28833
122.51048 -245.02101 -312.28833
122.51048 -252.6779 -312.2883
122.51048 -260.33481 -312.2883
122.51048 -267.99173 -312.2883
122.51048 -275.64862 -312.28827
122.51048 -283.30557 -312.2883
122.51048 -290.96246 -312.2883
122.51048 -298.61935 -312.28827
122.51048 -306.27628 -312.28827
122.51048 -313.93317 -312.28824
122.51048 -321.59003 -312.28833
122.51048 -329.24695 -312.28833
122.51048 -336.90384 -312.28833
122.51048 -344.56079 -312.28833
122.51048 -352.21768 -312.2883
122.51048 -359.8746 -312.2883
122.51048 -367.53149 -312.2883
122.51048 -375.18842 -312.2883
126.33097 312.11179 -339.52927
126.33097 304.68057 -339.5293
126.32888 297.24438 -339.54416
126.55722 290.33713 -337.92273
128.79237 287.88879 -322.05185
130.3313 283.6622 -311.12445
130.27513 275.87671 -311.52325
130.27513 268.2135 -311.52325
130.27513 260.55023 -311.52328
130.27513 252.88699 -311.52328
130.27513 245.22375 -311.52325
130.27513 237.56053 -311.52325
130.27513 229.89726 -311.52328
130.27513 222.23402 -311.52328
130.27513 214.57082 -311.52328
130.27513 206.90752 -311.52328
130.27513 199.24429 -311.52325
130.27513 191.58107 -311.52328
130.27513 183.9178 -311.52328
130.27513 176.25455 -311.52325
130.27513 168.59131 -311.52325
130.27513 160.9281 -311.52325
130.27513 153.26482 -311.52328
130.27513 145.60161 -311.52328
130.27513 137.93835 -311.52325
130.27513 130.27509 -311.52328
130.27513 122.61185 -311.52325
130.27513 114.94863 -311.52328
130.27513 107.2854 -311.52325
130.27513 99.622108 -311.52325
130.27513 91.958893 -311.52325
130.27513 84.295662 -311.52325
130.27513 76.632401 -311.52332
130.27513 68.96917 -311.52328
130.27513 61.305916 -311.52325
130.27513 53.642643 -311.52325
130.27513 45.979427 -311.52328
130.27513 38.316193 -311.52328
130.27513 30.652952 -311.52322
130.27513 22.989672 -311.52325
130.27513 15.326448 -311.52328
130.27513 7.6632223 -311.52325
130.27513 -4.0535913e-05 -311.52332
130.27513 -7.6632833 -311.52325
130.27513 -15.326523 -311.52325
130.27513 -22.989742 -311.52325
130.27513 -30.653013 -311.52328
130.27513 -38.316254 -311.52325
130.27513 -45.979462 -311.52328
130.27513 -53.642754 -311.52325
130.27513 -61.306007 -311.52322
130.27513 -68.9692 -311.52325
130.27513 -76.6325 -311.52325
130.27513 -84.295692 -311.52328
130.27513 -91.958946 -311.52325
130.27513 -99.622223 -311.52322
130.27513 -107.28542 -311.52325
130.27513 -114.9487 -311.52325
130.27513 -122.61191 -311.52328
130.27513 -130.27516 -311.52325
130.27513 -137.93845 -311.52325
130.27513 -145.60162 -311.52328
130.27513 -153.26492 -311.52325
130.28093 -160.93532 -311.48212
130.28093 -168.59886 -311.48215
130.28093 -176.26248 -311.48209
130.28093 -183.92604 -311.48215
130.28093 -191.58963 -311.48209
130.28093 -199.2532 -311.48212
130.28093 -206.91682 -311.48209
130.28093 -214.58038 -311.48215
130.28093 -222.24396 -311.48218
130.28093 -229.90758 -311.48215
130.28093 -237.57112 -311.48218
130.28093 -245.23474 -311.48212
130.28093 -252.89828 -311.48215
130.28093 -260.56189 -311.48212
130.28093 -268.22546 -311.48215
130.28093 -275.88907 -311.48209
130.28093 -283.55264 -311.48215
130.28093 -291.21625 -311.48212
130.28093 -298.87979 -311.48212
130.28093 -306.5434 -311.48209
130.28093 -314.20697 -311.48215
130.28093 -321.87057 -311.48209
130.28093 -329.53415 -311.48212
130.28093 -337.19769 -311.48218
130.28093 -344.86133 -311.48212
130.28093 -352.52487 -311.48215
130.28093 -360.18848 -311.48212
130.28093 -367.85205 -311.48215
130.28093 -375.51566 -311.48212
134.24487 313.23801 -336.29245
134.2261 305.73721 -336.4183
134.05745 297.90543 -337.54935
134.3607 291.11484 -335.51566
136.40529 287.96671 -321.80441
137.86388 283.38681 -312.02289
137.8243 275.64859 -312.28833
137.8243 267.99167 -312.28833
137.8243 260.33475 -312.2883
137.8243 252.67786 -312.2883
137.8243 245.02095 -312.2883
137.8243 237.36404 -312.28827
137.8243 229.70717 -312.28833
137.8243 222.05022 -312.28833
137.8243 214.39331 -312.28833
137.8243 206.7364 -312.28833
137.8243 199.0795 -312.2883
137.8243 191.42259 -312.2883
137.8243 183.76569 -312.2883
137.8243 176.10881 -312.28833
137.8243 168.4519 -312.28833
137.8243 160.795 -312.2883
137.8243 153.13808 -312.2883
137.8243 145.48117 -312.2883
137.8243 137.82426 -312.28827
137.8243 130.16736 -312.28827
137.8243 122.51049 -312.2883
137.8243 114.85354 -312.28833
137.8243 107.19663 -312.28833
137.8243 99.539726 -312.2883
137.8243 91.882812 -312.2883
137.8243 84.225906 -312.2883
137.8243 76.569 -312.28827
137.8243 68.912125 -312.28833
137.8243 61.255219 -312.28833
137.8243 53.598316 -312.2883
137.8243 45.941406 -312.2883
137.8243 38.284496 -312.2883
137.8243 30.627588 -312.28827
137.8243 22.97068 -312.28827
