# .PCD v0.7 - Point Cloud Data file format
VERSION 0.7
FIELDS x y z
SIZE 4 4 4
TYPE F F F
COUNT 1 1 1
WIDTH 1479
HEIGHT 1
VIEWPOINT 0 0 0 1 0 0 0
POINTS 1479
DATA ascii
-10.253735 5.3319426 -1.7136474
-10.198139 5.0990696 -1.847864
-10.143103 4.8686891 -1.9807346
-10.088657 4.6407828 -2.1121805
-10.034834 4.4153271 -2.2421215
-9.9815397 4.1922479 -2.3707826
-9.9288511 3.9715405 -2.497988
-9.8766747 3.7531364 -2.6239514
-9.8250427 3.5370152 -2.7485983
-9.7739887 3.3231564 -2.8718569
-9.723423 3.1114957 -2.9939313
-9.6734161 2.902025 -3.1146595
-9.6238832 2.6946876 -3.2342429
-9.5748558 2.4894624 -3.3526058
-9.5263615 2.2863274 -3.4696817
-9.4783192 2.0852304 -3.5856647
-9.4307594 1.8861521 -3.7004848
-9.3837099 1.6890682 -3.8140721
-9.3370924 1.493935 -3.926616
-9.2909708 1.3007363 -4.0379634
-9.2452679 1.1094315 -4.1482997
-9.2000132 0.9200018 -4.2575569
-9.1552324 0.73241824 -4.3656654
-9.1108522 0.54665196 -4.4728103
-9.0669327 0.36267769 -4.5788398
-9.0234032 0.18046778 -4.6839309
-8.9802885 5.2098187e-07 -4.7880192
-8.9376163 -0.17875244 -4.8910379
-8.8953152 -0.35581273 -4.9931607
-8.8534451 -0.53120744 -5.094243
-8.8119364 -0.70495468 -5.1944566
-8.7708139 -0.87708104 -5.2937336
-8.7301054 -1.0476123 -5.392014
-8.6897421 -1.2165636 -5.48946
-8.6497803 -1.3839653 -5.5859361
-8.6101542 -1.5498282 -5.6816006
-8.5708895 -1.714178 -5.7763939
-8.532012 -1.8770424 -5.8702545
-8.4934549 -2.0384285 -5.9633384
-8.455245 -2.1983631 -6.0555849
-8.417407 -2.3568742 -6.146934
-8.3798771 -2.513963 -6.2375412
-8.3427076 -2.6696668 -6.3272719
-8.3058395 -2.8239851 -6.4162812
-8.2692957 -2.9769464 -6.5045061
-8.2330723 -3.128567 -6.5919576
-8.1971912 -3.2788763 -6.6785808
-8.1615953 -3.42787 -6.7645178
-8.1263075 -3.5755756 -6.8497109
-8.00982 -3.6845171 -7.1309361
-7.9751072 -3.8280518 -7.2147398
-7.941154 -3.9705768 -7.2967114
-7.9075394 -4.1119204 -7.3778634
-7.874208 -4.2520728 -7.4583311
-8.4815645 -4.7496758 -5.992043
-10.733407 8.5429153 -0.026783273
-10.670986 8.2754583 -0.18055648
-10.60952 8.0112696 -0.33197719
-10.548759 7.7501087 -0.4816632
-10.488733 7.4919529 -0.62953395
-10.429343 7.2366867 -0.7758407
-10.370666 6.9843259 -0.92039138
-10.312601 6.7347612 -1.0634327
-10.255183 6.4879732 -1.2048793
-10.198444 6.2439456 -1.3446547
-10.142286 6.0025773 -1.4829986
-10.086787 5.7638788 -1.6197217
-10.03185 5.5277538 -1.7550609
-9.9775066 5.2941871 -1.8889308
-9.9237909 5.0631595 -2.0212617
-9.8706093 4.8345852 -2.1522722
-9.8180351 4.6084661 -2.2817879
-9.7659788 4.3847251 -2.4100282
-9.7144709 4.1633444 -2.5369158
-9.6635418 3.9443033 -2.6623778
-9.6131067 3.7275307 -2.7866244
-9.5631943 3.5130103 -2.9095809
-9.5138369 3.3007193 -3.0311768
-9.4649467 3.0905948 -3.151613
-9.4165945 2.8826311 -3.2707286
-9.3686981 2.6767716 -3.3887227
-9.3212862 2.4729943 -3.5055218
-9.2743864 2.2712784 -3.6210566
-9.2279205 2.071574 -3.735523
-9.1819544 1.8738686 -3.8487606
-9.1364088 1.6781154 -3.9609611
-9.0913134 1.4842968 -4.0720558
-9.0466938 1.2923856 -4.1819739
-9.0024767 1.1023439 -4.2909007
-8.9587231 0.91415548 -4.3986864
-8.9153595 0.72778404 -4.5055122
-8.8724146 0.54320937 -4.6113081
-8.8299131 0.36040488 -4.7160082
-8.7877855 0.17934301 -4.8197904
-8.746089 -1.7348796e-08 -4.9225101
-8.7047548 -0.17764857 -5.0243349
-8.6638098 -0.35362467 -5.1252027
-8.6232481 -0.52795392 -5.2251244
-8.5830946 -0.70066142 -5.3240418
-8.5432835 -0.87176394 -5.4221163
-8.5038404 -1.0412873 -5.5192847
-8.4647894 -1.2092558 -5.6154861
-8.4260654 -1.3756831 -5.7108831
-8.3876934 -1.5405971 -5.8054085
-8.3496714 -1.7040142 -5.8990788
-8.3120193 -1.8659637 -5.9918318
-8.2746773 -2.0264513 -6.0838232
-8.2376699 -2.1855044 -6.1749907
-8.2010193 -2.3431487 -6.2652769
-8.1646662 -2.4993873 -6.3548341
-8.1286345 -2.6542475 -6.4435987
-8.0929451 -2.8077569 -6.5315156
-8.0575418 -2.959914 -6.618732
-8.0224476 -3.1107452 -6.7051878
-7.9876566 -3.2602677 -6.7908945
-7.9531922 -3.4085104 -6.8757958
-7.9189987 -3.5554688 -6.9600325
-7.8057089 -3.6639042 -7.2391195
-7.772069 -3.8067272 -7.3219914
-7.7391143 -3.9485273 -7.4031744
-7.7065358 -4.0891819 -7.4834304
-7.6742306 -4.2286577 -7.5630131
-7.6421952 -4.3669686 -7.6419325
-10.619876 9.2923918 0.23857188
-10.556417 9.0169401 0.078984797
-10.495292 8.7460766 -0.074730754
-10.434596 8.4781103 -0.22736955
-10.374643 8.2132607 -0.37813985
-10.315331 7.9514008 -0.52729791
-10.256737 7.6925526 -0.67465174
-10.198761 7.4365964 -0.82044965
-10.141437 7.1835179 -0.96460849
-10.084797 6.9332981 -1.1070474
-10.028743 6.6858296 -1.2480129
-9.9733505 6.441123 -1.3873128
-9.9185257 6.1990786 -1.5251867
-9.8642998 5.9596806 -1.6615543
-9.8107042 5.7229109 -1.7963369
-9.7576485 5.488677 -1.9297614
-9.705163 5.2569633 -2.0617526
-9.6532784 5.0277491 -2.1922319
-9.6019068 4.8009539 -2.3214221
-9.5511169 4.5765772 -2.4491472
-9.500824 4.3545451 -2.5756247
-9.4510584 4.1348376 -2.7007749
-9.4018478 3.9174368 -2.8245299
-9.3531113 3.7022731 -2.947093
-9.3049126 3.4893422 -3.0683012
-9.2571726 3.2785826 -3.1883593
-9.2099209 3.0699739 -3.3071895
-9.1631842 2.8634946 -3.4247239
-9.1168833 2.659091 -3.5411615
-9.0710487 2.4567423 -3.6564264
-9.0257072 2.2564263 -3.7704525
-8.9807825 2.0580966 -3.8834302
-8.9363022 1.8617305 -3.9952886
-8.8922939 1.6673057 -4.1059594
-8.8486843 1.474781 -4.2156301
-8.8055 1.2841353 -4.3242288
-8.7627678 1.0953466 -4.4316926
-8.7204161 0.90837705 -4.5381985
-8.6784725 0.72320616 -4.6436796
-8.6369295 0.53980857 -4.7481518
-8.5958138 0.35815915 -4.8515491
-8.5550575 0.17822996 -4.9540443
-8.5146856 4.6917364e-08 -5.0555739
-8.4747229 -0.17655623 -5.1560721
-8.4351025 -0.35146207 -5.2557063
-8.3958521 -0.52474022 -5.3544145
-8.3569651 -0.69641346 -5.4522076
-8.3184662 -0.86650705 -5.5490241
-8.2802916 -1.0350363 -5.6450291
-8.242465 -1.2020258 -5.7401538
-8.2050114 -1.3675019 -5.8343425
-8.1678677 -1.5314754 -5.9277501
-8.1310596 -1.6939708 -6.0203161
-8.0945816 -1.8550076 -6.1120529
-8.0584564 -2.0146146 -6.2028985
-8.0226259 -2.1727948 -6.2930064
-7.9871116 -2.3295741 -6.3823185
-7.9519377 -2.4849806 -6.4707737
-7.9170456 -2.6390147 -6.5585213
-7.8824577 -2.7917039 -6.6455011
-7.8481717 -2.943064 -6.7317252
-7.814208 -3.0931246 -6.8171353
-7.7805119 -3.2418799 -6.901876
-7.7471046 -3.389358 -6.985889
-7.7140083 -3.5355878 -7.0691185
-7.6038685 -3.6435201 -7.3460999
-7.57128 -3.7856405 -7.4280529
-7.5392818 -3.9267094 -7.5085225
-7.5077195 -4.0666809 -7.5878963
-7.4764204 -4.2054868 -7.6666069
-7.4453812 -4.3431392 -7.7446647
-10.504043 10.057062 0.50931013
-10.440173 9.7737799 0.34527215
-10.378794 9.495492 0.18763044
-10.318177 9.220499 0.031950586
-10.258311 8.94874 -0.12180398
-10.199091 8.6800785 -0.2739006
-10.140551 8.4144993 -0.42425188
-10.082722 8.151988 -0.57277369
-10.025506 7.8924189 -0.71972299
-9.9689779 7.6358128 -0.86490309
-9.9130421 7.3820524 -1.0085657
-9.8577299 7.131124 -1.1506226
-9.8030739 6.8830094 -1.2909973
-9.7489786 6.6376033 -1.429929
-9.6955185 6.3949161 -1.5672333
-9.642601 6.1548514 -1.7031423
-9.5902576 5.9173932 -1.8375752
-9.5385189 5.6825223 -1.970456
-9.4872971 5.4501505 -2.1020112
-9.4366217 5.2202592 -2.2321603
-9.3865232 4.9928322 -2.3608286
-9.3369169 4.7677879 -2.4882355
-9.2878313 4.5451088 -2.6143022
-9.239296 4.3247776 -2.7389557
-9.1912289 4.1067195 -2.8624053
-9.1436596 3.8909194 -2.9845788
-9.0965796 3.6773403 -3.1054943
-9.0500174 3.4659638 -3.22508
-9.0038958 3.2567284 -3.3435373
-8.9582405 3.0496132 -3.4607933
-8.9130802 2.8446012 -3.5767794
-8.8683395 2.6416323 -3.6916864
-8.8240452 2.4406941 -3.8054478
-8.7801924 2.2417517 -3.9180779
-8.736805 2.044785 -4.0295095
-8.6938114 1.8497466 -4.1399283
-8.6512403 1.6566204 -4.2492666
-8.6091146 1.4653814 -4.3574572
-8.5673666 1.2759914 -4.4646802
-8.526021 1.0884273 -4.5708675
-8.4850721 0.90266812 -4.6760364
-8.4445457 0.71868449 -4.7801199
-8.4043751 0.53644913 -4.8832922
-8.364584 0.35593897 -4.9854875
-8.3251982 0.17713128 -5.0866432
-8.2861519 -1.4091985e-07 -5.1869273
-8.2474699 -0.17547791 -5.286274
-8.2091475 -0.34932476 -5.3846993
-8.1712084 -0.52156657 -5.4821377
-8.1335897 -0.69222033 -5.5787539
-8.0963154 -0.86130995 -5.6744857
-8.0594091 -1.0288612 -5.7692709
-8.0228109 -1.1948869 -5.8632679
-7.9865437 -1.359412 -5.9564147
-7.9506297 -1.5224613 -6.0486517
-7.91501 -1.6840444 -6.1401343
-7.8797083 -1.8441868 -6.2308011
-7.8447199 -2.0029075 -6.3206615
-7.8100677 -2.1602309 -6.4096603
-7.7756934 -2.3161643 -6.497942
-7.741621 -2.4707305 -6.5854511
-7.7078714 -2.623956 -6.6721315
-7.6743894 -2.7758429 -6.7581234
-7.6411967 -2.9264154 -6.8433733
-7.6082902 -3.0756924 -6.9278865
-7.5756903 -3.2236974 -7.0116138
-7.5433445 -3.3704309 -7.094687
-7.5112739 -3.5159156 -7.1770554
-7.4042621 -3.6233628 -7.4518948
-7.3727036 -3.7647851 -7.5329461
-7.3416457 -3.9051309 -7.6127129
-7.3110785 -4.0444264 -7.6912189
-7.2807655 -4.1825681 -7.7690721
-7.2507029 -4.3195677 -7.846283
-10.324107 -6.3701925 0.047176637
-10.259955 10.259954 0.45525908
-10.199436 9.9777088 0.29644772
-10.139671 9.6988163 0.13961689
-10.080558 9.4231319 -0.015503747
-10.02213 9.1506414 -0.16882753
-9.9644203 8.8813305 -0.32026836
-9.9073267 8.6150675 -0.47008741
-9.8508844 8.3518362 -0.61820173
-9.7951241 8.0916233 -0.76452672
-9.7399483 7.8343067 -0.90931356
-9.6853924 7.5798726 -1.0524772
-9.631443 7.3282723 -1.1940467
-9.5781326 7.0794892 -1.3339432
-9.5253687 6.8334165 -1.4724036
-9.4731827 6.5900402 -1.6093462
-9.4216042 6.3493433 -1.7446942
-9.3705463 6.111227 -1.8786774
-9.3200388 5.8756766 -2.0112171
-9.2700729 5.6426535 -2.1423359
-9.2206774 5.4121366 -2.2719574
-9.1717672 5.1840429 -2.4003017
-9.1233749 4.9583564 -2.5272927
-9.0755262 4.7350574 -2.6528554
-9.0281401 4.51407 -2.7772
-8.9812469 4.2953792 -2.9002552
-8.9348383 4.0789485 -3.0220377
-8.8889418 3.8647575 -3.1424758
-8.8434801 3.6527424 -3.261776
-8.798481 3.4428837 -3.3798592
-8.7539711 3.2351637 -3.4966612
-8.7098761 3.0295219 -3.6123729
-8.6662226 2.825943 -3.7269261
-8.6230383 2.624403 -3.8402493
-8.5802488 2.4248528 -3.9525335
-8.5378819 2.2272735 -4.0637102
-8.4959316 2.0316362 -4.1737952
-8.454423 1.8379179 -4.2827187
-8.4132862 1.6460776 -4.390666
-8.3725491 1.4560957 -4.4975696
-8.3322344 1.267949 -4.6033607
-8.2922754 1.081601 -4.7082171
-8.2526989 0.8970322 -4.8120737
-8.2134972 0.71421736 -4.9149423
-8.174696 0.53313237 -5.0167623
-8.1362305 0.35374957 -5.117702
-8.0981264 0.17604679 -5.2176948
-8.0604048 -4.1918662e-07 -5.3166795
-8.0230055 -0.17441286 -5.4148231
-7.9859509 -0.34721512 -5.5120583
-7.9492373 -0.51842839 -5.6083989
-7.9128876 -0.68807715 -5.7037873
-7.8768411 -0.85617864 -5.7983785
-7.8411217 -1.0227543 -5.8921108
-7.8057513 -1.1878315 -5.9849277
-7.7706723 -1.351422 -6.0769796
-7.7359071 -1.5135472 -6.1682081
-7.7014518 -1.6742278 -6.2586255
-7.6673279 -1.8334907 -6.3481717
-7.6334791 -1.9913423 -6.4369955
-7.5999279 -2.1478057 -6.5250378
-7.5666957 -2.3029075 -6.6122437
-7.5337276 -2.4566505 -6.6987562
-7.5010462 -2.6090589 -6.7845192
-7.4686708 -2.7601616 -6.8694744
-7.4365501 -2.9099543 -6.9537644
-7.4047046 -3.0584643 -7.037334
-7.3731303 -3.2057085 -7.1201887
-7.3418479 -3.3517125 -7.2022786
-7.3108058 -3.4964721 -7.2837367
-7.2068515 -3.6034253 -7.5565281
-7.1763029 -3.7441587 -7.6366906
-7.1461926 -3.8837998 -7.7157063
-7.1166015 -4.0224266 -7.7933569
-7.087254 -4.1599107 -7.870368
-7.0581479 -4.2962632 -7.9467473
-8.8594017 -5.5852752 -3.219996
-10.018608 10.46388 0.4061572
-9.9596195 10.180944 0.24792171
-9.9013205 9.9013205 0.091539323
-9.8437014 9.6249523 -0.063024208
-9.7867908 9.3518219 -0.21568203
-9.7304926 9.0817947 -0.36669934
-9.6748381 8.8148537 -0.51598936
-9.6198587 8.5509853 -0.6634711
-9.5654593 8.2900648 -0.80939484
-9.511672 8.0320787 -0.95367759
-9.4585257 7.7770104 -1.0962387
-9.4059315 7.524745 -1.2373229
-9.3539181 7.2752695 -1.376847
-9.3024769 7.0285378 -1.5148369
-9.2516356 6.7845335 -1.6512129
-9.2013102 6.5431538 -1.7862093
-9.1515293 6.3043876 -1.9197438
-9.1023216 6.0682139 -2.051743
-9.0536032 5.8345447 -2.1824276
-9.0054035 5.6033626 -2.3117211
-8.9577141 5.3746281 -2.4396458
-8.9105635 5.1483259 -2.5661273
-8.8638706 4.9243727 -2.6913776
-8.8176651 4.702755 -2.8153234
-8.7719736 4.4834533 -2.9378893
-8.7267179 4.2663956 -3.0592849
-8.6819267 4.0515661 -3.1794341
-8.6375942 3.8389316 -3.2983558
-8.5937443 3.6284702 -3.4159803
-8.5503054 3.4201224 -3.532505
-8.5073032 3.2138703 -3.6478565
-8.4647627 3.0096939 -3.7619684
-8.4226141 2.8075383 -3.8750293
-8.3808832 2.6073856 -3.9869704
-8.3395643 2.4092076 -4.0978079
-8.2986822 2.2129827 -4.2074752
-8.2581673 2.0186634 -4.3161545
-8.2180452 1.8262334 -4.4237776
-8.1783428 1.6356683 -4.5302782
-8.1389923 1.4469324 -4.6358366
-8.1000175 1.2600031 -4.7403831
-8.0614443 1.074859 -4.8438544
-8.0232077 0.89146817 -4.9464226
-7.985332 0.70980674 -5.0480223
-7.9478126 0.52985394 -5.1486669
-7.9106717 0.35158587 -5.2482963
-7.8738484 0.17497496 -5.3470726
-7.8373661 3.0339382e-07 -5.4449344
-7.8012486 -0.17336074 -5.5418186
-7.7654347 -0.34513047 -5.6378865
-7.7299485 -0.51532966 -5.733078
-7.6947851 -0.6839813 -5.8274026
-7.6599665 -0.85110754 -5.9208021
-7.6254354 -1.0167235 -6.013432
-7.5912137 -1.1808548 -6.1052284
-7.5573239 -1.3435237 -6.1961365
-7.5237103 -1.5047419 -6.286305
-7.4903936 -1.6645316 -6.3756742
-7.4573712 -1.8229133 -6.4642558
-7.4246635 -1.9799097 -6.5519938
-7.3922167 -2.135529 -6.63903
-7.3600521 -2.2897933 -6.7253103
-7.3281908 -2.4427297 -6.8107777
-7.2965798 -2.5943396 -6.8955717
-7.2652407 -2.7446468 -6.9796376
-7.2341695 -2.8936675 -7.0629859
-7.2033863 -3.0414293 -7.1455612
-7.1728411 -3.1879292 -7.2274981
-7.1425529 -3.3331919 -7.3087425
-7.1125431 -3.4772437 -7.3892431
-7.0116239 -3.5837195 -7.6599536
-6.9820433 -3.7237568 -7.7393041
-6.9528627 -3.8627024 -7.8175788
-6.9242063 -4.0006533 -7.8944483
-6.8958063 -4.1374841 -7.9706306
-6.8676391 -4.2731977 -8.0461903
-7.8139114 -5.0356321 -5.5078511
-9.7206697 10.383445 0.1995718
-9.6638718 10.10314 0.043753203
-9.6077356 9.8260927 -0.11025658
-9.5522461 9.552247 -0.26248497
-9.4973946 9.2815456 -0.41296694
-9.4432106 9.0139732 -0.56161743
-9.3896008 8.7494011 -0.70869178
-9.3365955 8.4878149 -0.85410678
-9.2842255 8.2292013 -0.99778032
-9.2324009 7.9734373 -1.1399589
-9.1811504 7.7205138 -1.2805582
-9.1304665 7.4703832 -1.4196057
-9.0803776 7.2230287 -1.5570219
-9.030797 6.978344 -1.6930419
-8.9817553 6.7363162 -1.8275846
-8.93328 6.4969306 -1.9605728
-8.8852882 6.2600908 -2.0922327
-8.8378105 6.0257802 -2.2224865
-8.7908716 5.7939839 -2.3512578
-8.7443953 5.5646157 -2.4787648
-8.6984062 5.3376589 -2.6049314
-8.6528988 5.1130772 -2.7297759
-8.6078997 4.8908525 -2.8532288
-8.5633316 4.6709085 -2.975497
-8.5192232 4.4532309 -3.0965061
-8.4756002 4.2378001 -3.2161829
-8.4323883 4.024549 -3.3347306
-8.3896151 3.8134615 -3.4520762
-8.3472738 3.6045046 -3.5682368
-8.3053894 3.3976595 -3.6831439
-8.2638912 3.1928675 -3.7969899
-8.222806 2.9901116 -3.909703
-8.1821585 2.7893722 -4.0212178
-8.14188 2.5905981 -4.1317182
-8.1019964 2.3937716 -4.2411366
-8.0625019 2.198864 -4.3494873
-8.0234194 2.0058551 -4.4567065
-7.9846854 1.8147017 -4.5629711
-7.9463229 1.6253839 -4.6682158
-7.9083562 1.4378834 -4.7723732
-7.8707223 1.2521605 -4.8756199
-7.8334446 1.0681973 -4.9778876
-7.7965183 0.88596815 -5.0791922
-7.7599673 0.70545119 -5.1794691
-7.7237287 0.52661765 -5.2788854
-7.6878271 0.34944722 -5.3773785
-7.6522851 0.17391559 -5.4748859
-7.6170435 -1.7959981e-07 -5.571569
-7.5821252 -0.17232044 -5.6673656
-7.5475512 -0.34307009 -5.7622151
-7.5132656 -0.51226753 -5.856276
-7.4792895 -0.67993528 -5.9494848
-7.4456201 -0.84609324 -6.0418558
-7.4122772 -1.0107644 -6.1333299
-7.3792062 -1.1739644 -6.2240562
-7.3464298 -1.3357146 -6.3139768
-7.3139677 -1.4960384 -6.4030352
-7.2817669 -1.6549464 -6.4913745
-7.2498479 -1.8124619 -6.5789413
-7.2182078 -1.9686019 -6.6657443
-7.1868663 -2.1233926 -6.7517262
-7.1557727 -2.2768369 -6.8370299
-7.1249466 -2.4289591 -6.9215989
-7.094408 -2.5797849 -7.0053787
-7.0641074 -2.7293143 -7.0885067
-7.0340643 -2.8775713 -7.170928
-7.0042758 -3.0245733 -7.2526507
-6.9747605 -3.1703455 -7.3336229
-6.9454718 -3.3148842 -7.4139752
-6.9164267 -3.458214 -7.4936566
-6.8184986 -3.5642149 -7.7623158
-6.7898884 -3.7035761 -7.8408055
-6.7616434 -3.8418431 -7.918293
-6.7339039 -3.9791248 -7.9943957
-6.7064323 -4.1153111 -8.0697603
-6.6791849 -4.2503896 -8.1445141
-6.9585676 -4.586329 -7.378047
-9.4827118 10.585352 0.1517534
-9.4272366 10.30419 -0.0039794142
-9.372612 10.026515 -0.15731996
-9.3185778 9.7519989 -0.30900788
-9.2651625 9.4806318 -0.45895615
-9.2123556 9.2123566 -0.60719621
-9.1601477 8.9471207 -0.75375682
-9.1085672 8.6849127 -0.89855415
-9.0575256 8.4256058 -1.0418396
-9.0070534 8.1691885 -1.1835271
-8.9571781 7.9156456 -1.3235395
-8.907814 7.6648636 -1.462113
-8.8589916 7.416831 -1.5991684
-8.8107014 7.1715007 -1.7347312
-8.7629709 6.9288602 -1.8687203
-8.7157192 6.6888084 -2.0013659
-8.6689749 6.4513307 -2.1325898
-8.6227627 6.2164106 -2.262316
-8.5770073 5.9839592 -2.3907614
-8.5317345 5.7539601 -2.5178528
-8.4869375 5.5263782 -2.64361
-8.4426413 5.3011932 -2.7679572
-8.3987722 5.0783281 -2.8911073
-8.3553572 4.8577652 -3.0129848
-8.3124208 4.6394906 -3.1335173
-8.2698908 4.4234304 -3.2529068
-8.2277946 4.2095695 -3.3710809
-8.1861238 3.997875 -3.4880595
-8.1449051 3.7883279 -3.6037703
-8.1040678 3.580868 -3.7184086
-8.0636387 3.3754773 -3.8319032
-8.0236416 3.172137 -3.9441862
-7.9840078 2.9707942 -4.0554442
-7.9447646 2.7714295 -4.1656094
-7.9059353 2.5740259 -4.2746143
-7.8674531 2.3785331 -4.3826399
-7.8293447 2.1849337 -4.4896193
-7.7916031 1.9932016 -4.5955677
-7.7542524 1.8033143 -4.7004194
-7.7172298 1.6152345 -4.8043499
-7.6805596 1.4289411 -4.9072928
-7.6442633 1.2444158 -5.0091844
-7.6082811 1.0616201 -5.1101937
-7.5726361 0.88053882 -5.2102575
-7.537324 0.70114654 -5.3093877
-7.5023661 0.52342075 -5.4075227
-7.4677043 0.34733501 -5.5048256
-7.4333611 0.17286901 -5.6012335
-7.3993587 -3.7126887e-07 -5.6966867
-7.3656406 -0.17129403 -5.7913427
-7.3322277 -0.34103411 -5.8851385
-7.2991171 -0.50924098 -5.9780884
-7.2663288 -0.67593759 -6.0701332
-7.233809 -0.84114075 -6.1614223
-7.2015791 -1.0048717 -6.2518992
-7.1696596 -1.1671534 -6.3415051
-7.1379972 -1.3279998 -6.430388
-7.1066136 -1.4874303 -6.5184889
-7.0755281 -1.6454719 -6.605751
-7.0446906 -1.8021303 -6.6923203
-7.0141201 -1.9574285 -6.7781386
-6.9838142 -2.1113851 -6.863215
-6.9537921 -2.2640252 -6.947494
-6.9240036 -2.4153507 -7.0311155
-6.8944697 -2.5653839 -7.1140251
-6.8652086 -2.7141528 -7.196166
-6.8361731 -2.861654 -7.2776752
-6.8073821 -3.0079134 -7.3584986
-6.7788324 -3.1529455 -7.438643
-6.7505426 -3.2967768 -7.5180583
-6.7224669 -3.4394014 -7.5968742
-6.6946244 -3.5808458 -7.675035
-6.5998049 -3.6836123 -7.9412127
-6.5724573 -3.8211963 -8.0179844
-6.5456185 -3.9578159 -8.0933285
-6.5190578 -4.0933623 -8.1678905
-6.4927115 -4.2278123 -8.2418489
-6.4665775 -4.3611808 -8.3152122
-9.1916122 10.504701 -0.051071141
-9.1382875 10.226179 -0.20433131
-9.0856972 9.9510012 -0.35547942
-9.0337486 9.6790152 -0.50478441
-8.9823503 9.4100819 -0.65250379
-8.9315348 9.1441917 -0.79855192
-8.8812914 8.8812904 -0.94295669
-8.8316088 8.6213322 -1.0857463
-8.7825165 8.3643026 -1.2268392
-8.7339306 8.1100779 -1.3664792
-8.6858788 7.8586526 -1.5045826
-8.6383896 7.6100106 -1.6410702
-8.5913811 7.3640399 -1.7761766
-8.5448809 7.1207337 -1.9098204
-8.4988813 6.8800478 -2.0420249
-8.4534092 6.6419644 -2.1727145
-8.4083872 6.4063911 -2.3021111
-8.363842 6.1733122 -2.4301372
-8.3197994 5.9427137 -2.5567176
-8.276185 5.714509 -2.6820679
-8.2330265 5.4886842 -2.8061097
-8.1903143 5.265203 -2.9288647
-8.148077 5.0440478 -3.0502605
-8.1062393 4.8251433 -3.1705027
-8.0648308 4.6084752 -3.2895153
-8.0238733 4.3940263 -3.4072287
-7.9832988 4.1817284 -3.5238411
-7.9431329 3.9715664 -3.6392808
-7.9033694 3.7635098 -3.7535648
-7.8640318 3.5575387 -3.8666236
-7.8250542 3.353595 -3.9786479
-7.7864609 3.1516631 -4.0895667
-7.7482758 2.9517238 -4.1993146
-7.710434 2.7537267 -4.3080735
-7.6729608 2.5576539 -4.4157739
-7.6358495 2.3634775 -4.5224338
-7.5991235 2.1711781 -4.6279869
-7.5627217 1.980713 -4.7326078
-7.5266671 1.7920636 -4.8362322
-7.4909811 1.6052103 -4.9387941
-7.455605 1.4201157 -5.0404668
-7.4205623 1.2367612 -5.1411829
-7.3858733 1.0551244 -5.240881
-7.3514814 0.87517661 -5.3397255
-7.3174076 0.69689614 -5.437655
-7.283649 0.52026051 -5.5346804
-7.2502251 0.34524903 -5.6307425
-7.217082 0.17183492 -5.7259984
-7.1842403 1.3808091e-07 -5.8203874
-7.151721 -0.17027891 -5.9138508
-7.1194701 -0.33902279 -6.0065417
-7.0875092 -0.50625092 -6.0984001
-7.0558333 -0.67198336 -6.1894379
-7.0244637 -0.83624524 -6.2795973
-6.9933476 -0.99904954 -6.3690267
-6.9625063 -1.1604182 -6.4576659
-6.9319587 -1.3203727 -6.5454607
-6.9016552 -1.4789261 -6.632555
-6.8716154 -1.6360986 -6.7188911
-6.8418365 -1.7919091 -6.8044791
-6.8123364 -1.9463818 -6.8892636
-6.7830672 -2.0995207 -6.9733839
-6.7540488 -2.2513499 -7.0567846
-6.7252998 -2.4018929 -7.1394119
-6.6967726 -2.5511515 -7.2214007
-6.6684866 -2.6991491 -7.3026972
-6.6404591 -2.8459108 -7.3832493
-6.6126456 -2.9914351 -7.4631872
-6.5850644 -3.1357446 -7.5424585
-6.5577116 -3.2788558 -7.6210709
-6.5306063 -3.4207935 -7.6989746
-6.5037031 -3.561552 -7.7762938
-6.4117603 -3.6638634 -8.0405436
-6.3852944 -3.8007703 -8.1166086
-6.3593583 -3.9367456 -8.1911497
-6.3336902 -4.0716581 -8.2649221
-6.3082285 -4.2054858 -8.3381014
-6.2829709 -4.3382411 -8.4106932
-9.4942398 -6.7815995 0.81869668
-8.9049549 10.425314 -0.25071335
-8.8536816 10.149343 -0.40167177
-8.8031101 9.8766594 -0.55056435
-8.7531118 9.6070757 -0.69776452
-8.7037172 9.3405752 -0.8431921
-8.6548395 9.0770264 -0.98709643
-8.6065073 8.8164225 -1.1293929
-8.558712 8.5587111 -1.2701108
-8.5114441 8.3038483 -1.4092733
-8.4647322 8.0518188 -1.5468018
-8.4184942 7.8025074 -1.6829337
-8.3727589 7.5559049 -1.8175855
-8.3275185 7.3119674 -1.9507828
-8.2827978 7.0706806 -2.0824487
-8.2385206 6.831944 -2.2128055
-8.1947145 6.5957475 -2.3417771
-8.1514053 6.3620734 -2.4692874
-8.1085186 6.1308308 -2.5955534
-8.066081 5.9020114 -2.7204967
-8.0241165 5.6755943 -2.8440454
-7.9825554 5.4515018 -2.9664087
-7.9414225 5.2297177 -3.0875103
-7.9007115 5.0102077 -3.2073698
-7.8604465 4.7929554 -3.3259182
-7.820559 4.5778885 -3.4433525
-7.781075 4.3649931 -3.5596008
-7.7420168 4.154253 -3.6745946
-7.7033195 3.9456027 -3.7885253
-7.6650066 3.7390282 -3.9013238
-7.6270738 3.5344977 -4.0130043
-7.5895429 3.331995 -4.1235023
-7.552351 3.1314626 -4.2330003
-7.515522 2.9328868 -4.3414302
-7.4790783 2.7362483 -4.4487286
-7.4429588 2.5414982 -4.5550694
-7.4071865 2.3486207 -4.6603889
-7.3717566 2.1575871 -4.7647018
-7.3366899 1.9683806 -4.8679419
-7.3019295 1.7809579 -4.9702821
-7.2674966 1.5953044 -5.0716577
-7.2334127 1.4113976 -5.1720057
-7.1996222 1.2292038 -5.271492
-7.1661453 1.0487043 -5.3700533
-7.1329784 0.86987555 -5.4677019
-7.100142 0.69269729 -5.5643773
-7.0675817 0.51714069 -5.6602397
-7.0353189 0.34318656 -5.7552271
-7.0033736 0.17081419 -5.8492799
-6.971693 7.4298839e-08 -5.942553
-6.9402981 -0.16927521 -6.0349855
-6.9092073 -0.33703443 -6.1265197
-6.8783712 -0.50329584 -6.2173071
-6.8478088 -0.6680783 -6.3072872
-6.8175168 -0.83140481 -6.396472
-6.7875147 -0.99329543 -6.4848032
-6.7577529 -1.1537623 -6.5724273
-6.7282505 -1.3128295 -6.659287
-6.6990271 -1.470518 -6.7453251
-6.6700344 -1.6268378 -6.8306847
-6.6412916 -1.7818097 -6.9153075
-6.6127958 -1.9354522 -6.9992051
-6.5845642 -2.0877888 -7.0823226
-6.5565519 -2.2388227 -7.1647954
-6.5287766 -2.3885767 -7.2465701
-6.5012569 -2.5370758 -7.3275933
-6.473947 -2.6843197 -7.4079971
-6.446866 -2.8303313 -7.4877281
-6.420011 -2.9751265 -7.5667949
-6.3933983 -3.118731 -7.6451459
-6.3669858 -3.2611384 -7.7229104
-6.3407903 -3.402375 -7.8000336
-6.3148289 -3.5424652 -7.8764663
-6.2257404 -3.6443362 -8.1387587
-6.200141 -3.7805734 -8.2141285
-6.1750712 -3.9158988 -8.2879372
-6.1502595 -4.0501714 -8.3609858
-6.1256652 -4.1833811 -8.4333963
-6.1012669 -4.3155298 -8.505229
-8.1331749 -5.9511037 -2.5229588
-8.6225977 10.347118 -0.44736025
-8.5733204 10.073653 -0.59606934
-8.5247126 9.8034201 -0.74275613
-8.4766541 9.5362368 -0.88778645
-8.4291697 9.2720861 -1.0310839
-8.3821783 9.0108423 -1.1728914
-8.3357086 8.7524948 -1.3131262
-8.2897511 8.4969959 -1.4518154
-8.244298 8.244298 -1.5889832
-8.1993399 7.9943566 -1.7246556
-8.1549034 7.747159 -1.8587538
-8.1109123 7.5025945 -1.9915079
-8.0673943 7.2606544 -2.1228368
-8.0243397 7.0212975 -2.2527647
-7.9817748 6.7845097 -2.3812146
-7.9396276 6.5501933 -2.5084059
-7.897923 6.3183389 -2.6342611
-7.8566856 6.0889311 -2.7587073
-7.815845 5.8618836 -2.8819535
-7.7754273 5.6371851 -3.0039253
-7.7354255 5.4147983 -3.1246414
-7.6958632 5.1947079 -3.2440312
-7.6566734 4.9768381 -3.3622966
-7.6178813 4.7611761 -3.4793622
-7.5795088 4.5477052 -3.5951612
-7.5414925 4.336359 -3.7098854
-7.5038557 4.1271205 -3.8234646
-7.4666204 3.919976 -3.9358311
-7.4297256 3.7148626 -4.0471716
-7.3931932 3.5117671 -4.1574187
-7.3570185 3.3106582 -4.2665854
-7.3212233 3.1115205 -4.3746071
-7.2857475 2.9142995 -4.4816647
-7.2506137 2.7189808 -4.5876889
-7.2158437 2.5255463 -4.6926165
-7.1813803 2.3339481 -4.7966208
-7.1472435 2.1441731 -4.8996372
-7.11343 1.9561934 -5.001678
-7.0799599 1.7699897 -5.1026821
-7.0467792 1.5855252 -5.2028151
-7.013907 1.4027821 -5.3020148
-6.9813652 1.2217396 -5.4002185
-6.9491 1.0423648 -5.4975886
-6.9171305 0.86464137 -5.5940638
-6.8854547 0.68854582 -5.6896539
-6.8540916 0.5140565 -5.7843022
-6.822989 0.3411499 -5.8781619
-6.7921667 0.16980393 -5.9711742
-6.7616458 3.5975776e-07 -6.0632806
-6.7313747 -0.16828448 -6.1546326
-6.7013736 -0.33506885 -6.2451692
-6.671638 -0.50037336 -6.3349023
-6.6421885 -0.6642192 -6.4237752
-6.6129751 -0.82662177 -6.5119348
-6.5840178 -0.98760289 -6.5993218
-6.5553346 -1.1471828 -6.6858807
-6.5268784 -1.3053756 -6.7717533
-6.4986687 -1.4622 -6.856885
-6.4707232 -1.61768 -6.9412189
-6.4429951 -1.7718239 -7.0248942
-6.415504 -1.9246514 -7.1078563
-6.388247 -2.07618 -7.1901126
-6.3612404 -2.2264342 -7.2716107
-6.3344412 -2.3754156 -7.3524847
-6.3078666 -2.5231469 -7.4326806
-6.2815347 -2.669652 -7.512145
-6.2554011 -2.8149307 -7.5910087
-6.2294846 -2.9590046 -7.6692204
-6.2037816 -3.101891 -7.7467852
-6.1783094 -3.2436123 -7.8236542
-6.1530261 -3.3841648 -7.8999524
-6.1279492 -3.523571 -7.9756293
-6.0416741 -3.6250048 -8.2359877
-6.0169625 -3.7606015 -8.3105621
-5.9927254 -3.8952711 -8.3837042
-5.9687548 -4.0289097 -8.4560413
-5.9450111 -4.1615076 -8.5276947
-5.9214549 -4.2930551 -8.5987806
-7.1155086 -5.3366318 -4.9954057
-8.3923969 10.544293 -0.49266258
-8.344409 10.270043 -0.64119154
-8.2971096 9.9990816 -0.78758854
-8.2504148 9.7312593 -0.93211681
-8.2042427 9.4664326 -1.0750277
-8.1585836 9.2045565 -1.2163471
-8.1134653 8.9456158 -1.355996
-8.0688086 8.6894875 -1.4942139
-8.024642 8.436161 -1.6309189
-7.9809551 8.1855955 -1.7661359
-7.9377413 7.9377408 -1.8998878
-7.8949933 7.6925588 -2.0321982
-7.852735 7.4500308 -2.1629941
-7.8108954 7.2100582 -2.2924941
-7.7694993 6.9726281 -2.4206212
-7.7285395 6.7377014 -2.5473981
-7.6880398 6.5052643 -2.6727502
-7.6479321 6.2752256 -2.7968891
-7.6082406 6.047576 -2.9197388
-7.5689888 5.822299 -3.0412295
-7.5301108 5.5993133 -3.1615636
-7.4916301 5.3786063 -3.2806671
-7.4535398 5.1601434 -3.3985608
-7.4158645 4.9439092 -3.5151718
-7.3785396 4.7298326 -3.6306984
-7.3415885 4.5179005 -3.7450678
-7.3050332 4.3080969 -3.8582106
-7.2688127 4.1003561 -3.970319
-7.2329497 3.894666 -4.0813203
-7.1974392 3.690995 -4.1912313
-7.1623015 3.4893265 -4.2999854
-7.1274796 3.2896059 -4.4077659
-7.0929942 3.0918183 -4.514502
-7.058867 2.895946 -4.6201315
-7.0250406 2.7019389 -4.7248287
-6.9915376 2.5097828 -4.8285255
-6.9583774 2.3194597 -4.9311619
-6.9255052 2.1309247 -5.0329056
-6.8929424 1.944163 -5.1336927
-6.8606839 1.7591503 -5.2335362
-6.8287506 1.5758659 -5.3323746
-6.7970891 1.3942744 -5.4303718
-6.7657199 1.2143602 -5.5274649
-6.7346621 1.0361019 -5.6235919
-6.7038651 0.85946989 -5.7189131
-6.6733489 0.68444633 -5.8133669
-6.6431084 0.51100862 -5.9069648
-6.6131644 0.3391366 -5.9996467
-6.5834661 0.16880691 -6.0915675
-6.5540328 1.6201375e-07 -6.1826663
-6.5248847 -0.16730487 -6.2728858
-6.4959722 -0.33312657 -6.3623729
-6.4673147 -0.49748525 -6.4510717
-6.4389091 -0.66040152 -6.5389915
-6.4107733 -0.82189405 -6.6260757
-6.3828611 -0.98197889 -6.7124677
-6.3551908 -1.1406752 -6.798111
-6.3277802 -1.2980061 -6.8829503
-6.3005848 -1.4539809 -6.9671254
-6.2736216 -1.6086205 -7.05058
-6.2468882 -1.7619431 -7.1333218
-6.2204027 -1.9139701 -7.215301
-6.1941199 -2.0647063 -7.296649
-6.1680589 -2.2141747 -7.3773127
-6.1422353 -2.3623981 -7.4572387
-6.1166081 -2.5093777 -7.5365591
-6.0911937 -2.6551359 -7.615221
-6.0660086 -2.7996969 -7.6931725
-6.0410118 -2.9430573 -7.7705412
-6.0162206 -3.0852416 -7.8472733
-5.991632 -3.2262633 -7.9233794
-5.9672618 -3.3661478 -7.9988084
-5.9430704 -3.5048878 -8.0736828
-5.85955 -3.6058774 -8.3321905
-5.8357096 -3.7408397 -8.4059811
-5.8122902 -3.8748603 -8.478467
-5.7891631 -4.0078821 -8.5500507
-5.7662535 -4.139874 -8.6209593
-5.7435241 -4.2708259 -8.691308
-6.3035789 -4.8489065 -6.9578586
-8.2802849 10.895112 -0.16522458
-8.1163998 10.465886 -0.68582183
-8.0703678 10.194149 -0.83204681
-8.0249586 9.9256067 -0.97629464
-7.9801254 9.6601524 -1.1187115
-7.9357905 9.3976479 -1.2595462
-7.8919449 9.1380415 -1.3988262
-7.8485813 8.8812895 -1.5365741
-7.8057241 8.6273794 -1.6727134
-7.7633009 8.376194 -1.8074756
-7.7213359 8.1277218 -1.9407823
-7.679822 7.8819237 -2.0726547
-7.638752 7.6387515 -2.2031174
-7.5981193 7.39817 -2.3321905
-7.5579467 7.160161 -2.4598024
-7.518167 6.9246278 -2.5861671
-7.4788036 6.6915617 -2.7112091
-7.4398503 6.4609227 -2.8349478
-7.4013295 6.2326989 -2.9573126
-7.3631773 6.006803 -3.0785079
-7.3254161 5.7832227 -3.1984599
-7.2880683 5.5619469 -3.3170979
-7.2510719 5.3428955 -3.4346216
-7.2144485 5.1260552 -3.5509586
-7.178194 4.9113965 -3.6661258
-7.1423283 4.6989012 -3.7800548
-7.1067934 4.4885006 -3.8929365
-7.071609 4.2801847 -4.0047011
-7.036799 4.0739365 -4.1152802
-7.0023026 3.8696933 -4.2248583
-6.9681439 3.667444 -4.3333688
-6.9343162 3.4671586 -4.440825
-6.9008412 3.2688196 -4.5471621
-6.8676624 3.0723751 -4.6525574
-6.8348012 2.8778112 -4.7569447
-6.802278 2.6851099 -4.8602586
-6.7700381 2.494225 -4.9626713
-6.738102 2.30514 -5.0641189
-6.7064662 2.1178319 -5.1646132
-6.6751494 1.9322799 -5.2640934
-6.6441007 1.7484474 -5.3627229
-6.6133394 1.5663174 -5.4604402
-6.5828848 1.3858702 -5.5571814
-6.5526862 1.2070742 -5.65311
-6.5227637 1.0299103 -5.7481618
-6.4931359 0.85436004 -5.8422785
-6.4637532 0.68039525 -5.9356151
-6.4346352 0.50799763 -6.02811
-6.4057789 0.33714709 -6.1197758
-6.377202 0.16782153 -6.2105536
-6.3488564 8.6873104e-07 -6.3005943
-6.3207631 -0.16633642 -6.3898373
-6.2929373 -0.33120686 -6.4782271
-6.2653351 -0.49463165 -6.5659089
-6.2379737 -0.65662861 -6.6528254
-6.2108502 -0.81721729 -6.7389846
-6.1839824 -0.97641832 -6.8243341
-6.1573253 -1.1342447 -6.9090118
-6.1308975 -1.290715 -6.9929628
-6.1047153 -1.4458537 -7.0761337
-6.0787358 -1.5996672 -7.1586599
-6.0529766 -1.7521774 -7.2404861
-6.0274348 -1.9034009 -7.3216214
-6.0021272 -2.053359 -7.4020147
-5.9770122 -2.2020569 -7.4817958
-5.9521055 -2.3495159 -7.5609117
-5.9274254 -2.4957583 -7.6393113
-5.9029303 -2.6407845 -7.717123
-5.8786368 -2.7846169 -7.7942948
-5.8545418 -2.9272707 -7.8708339
-5.8306623 -3.0687695 -7.9466896
-5.8069582 -3.2091088 -8.021986
-5.7834468 -3.3483114 -8.096673
-5.7601428 -3.4864016 -8.1707029
-5.6793385 -3.5869503 -8.4273834
-5.6563687 -3.7212946 -8.50035
-5.6337366 -3.8546622 -8.5722427
-5.6114187 -3.9870603 -8.643137
-5.5893278 -4.1184516 -8.7133112
-5.5674095 -4.2488132 -8.7829361
-5.6286774 -4.4436932 -8.5883141
-8.0083876 10.822145 -0.34138346
-7.844511 10.388679 -0.87601954
-7.8003149 10.119327 -1.0202107
-7.7567782 9.8532038 -1.162246
-7.713757 9.5900764 -1.3025994
-7.6712112 9.3298521 -1.4414032
-7.6291318 9.0724821 -1.5786853
-7.5875115 8.8179188 -1.7144706
-7.5463428 8.5661182 -1.8487808
-7.5056496 8.3170719 -1.9815402
-7.4653621 8.0706625 -2.1129758
-7.4255047 7.8268843 -2.2430086
-7.3860707 7.5856938 -2.3716605
-7.3470535 7.347054 -2.4989517
-7.3084459 7.1109204 -2.6249073
-7.2702713 6.877284 -2.749449
-7.2324648 6.6460495 -2.8727913
-7.1950498 6.4172058 -2.9948573
-7.1580191 6.1907196 -3.1156669
-7.1213961 5.9665751 -3.2351482
-7.0851178 5.7446899 -3.3535044
-7.0492077 5.5250549 -3.470659
-7.0136595 5.3076353 -3.5866332
-6.9784951 5.0924153 -3.7013557
-6.943655 4.8793249 -3.8150198
-6.9091611 4.6683526 -3.9275553
-6.8750339 4.4594817 -4.0388932
-6.8412166 4.2526479 -4.1492205
-6.8077302 4.0478396 -4.2584682
-6.7745953 3.8450406 -4.366569
-6.7417569 3.6441929 -4.4737029
-6.7092342 3.4452827 -4.5798059
-6.6770248 3.2482827 -4.6848874
-6.6451473 3.0531754 -4.7888865
-6.6135488 2.8599129 -4.8919759
-6.5822487 2.6684797 -4.9940891
-6.5512676 2.4788578 -5.0951643
-6.5205531 2.2910058 -5.1953688
-6.4901257 2.1049058 -5.2946377
-6.4599805 1.9205351 -5.3929834
-6.4301367 1.7378753 -5.4903469
-6.4005451 1.5568894 -5.5868878
-6.3712249 1.3775622 -5.6825447
-6.3421941 1.1998751 -5.777257
-6.3134046 1.0237955 -5.8711805
-6.2848754 0.84930784 -5.9642563
-6.2566023 0.6763894 -6.0564942
-6.2286043 0.50502175 -6.1478367
-6.2008352 0.33518058 -6.2384338
-6.1733112 0.16684668 -6.328227
-6.1460524 4.8977944e-07 -6.4171596
-6.1190124 -0.16537847 -6.5053763
-6.0922089 -0.32930812 -6.5928202
-6.0656595 -0.49181029 -6.6794362
-6.0393209 -0.65289962 -6.7653651
-6.0132098 -0.81259584 -6.8505511
-5.9873238 -0.97091758 -6.9350042
-5.9616785 -1.1278851 -7.0186691
-5.9362335 -1.2835094 -7.1016841
-5.9110041 -1.437812 -7.1839929
-5.8860073 -1.5908128 -7.265543
-5.8612022 -1.7425197 -7.3464675
-5.836606 -1.8929533 -7.426713
-5.8122144 -2.042129 -7.5062885
-5.7880449 -2.1900709 -7.5851412
-5.7640567 -2.3367798 -7.6634002
-5.7402673 -2.4822776 -7.7410135
-5.7166905 -2.6265879 -7.8179297
-5.6932898 -2.7697091 -7.8942752
-5.6700788 -2.9116621 -7.9699984
-5.6470571 -3.0524631 -8.0451059
-5.6242385 -3.1921353 -8.1195498
-5.6015868 -3.3306732 -8.1934509
-5.5791163 -3.4680996 -8.2667589
-5.501008 -3.568222 -8.5215826
-5.4788756 -3.7019432 -8.5937901
-5.4570508 -3.8346839 -8.6649933
-5.4355288 -3.9664669 -8.7352076
-5.4142404 -4.0972624 -8.8046618
-5.3931174 -4.2270379 -8.8735733
-5.3721585 -4.3558044 -8.9419479
-8.6146317 -7.2176638 1.6364585
-7.6194282 10.582541 -0.91984266
-7.5766048 10.312601 -1.0634321
-7.5342283 10.045637 -1.2055234
-7.4924817 9.7818518 -1.3455042
-7.4512258 9.5210114 -1.4838374
-7.4104223 9.2630281 -1.6206555
-7.3700628 9.0078545 -1.7559838
-7.3301406 8.7554455 -1.8898455
-7.2906485 8.5057564 -2.022265
-7.2515798 8.2587452 -2.1532648
-7.2129569 8.0143976 -2.2827699
-7.1747146 7.7726083 -2.4110005
-7.1368752 7.5333676 -2.537879
-7.0994329 7.2966404 -2.6634254
-7.0623817 7.0623822 -2.7876606
-7.0257149 6.8305573 -2.9106071
-6.9894543 6.6011519 -3.032191
-6.9535394 6.3740778 -3.1526182
-6.9179912 6.1493263 -3.2718129
-6.8828049 5.9268603 -3.3897963
-6.848001 5.7066674 -3.5064957
-6.8135209 5.4886708 -3.6221092
-6.7793865 5.2728567 -3.7365642
-6.7455926 5.0591941 -3.8498783
-6.7121592 4.847671 -3.9619834
-6.6790304 4.6382155 -4.0730662
-6.6462269 4.4308181 -4.1830587
-6.6137691 4.2254634 -4.2918935
-6.5816021 4.02209 -4.3997512
-6.5497465 3.8206856 -4.5065656
-6.5181975 3.6212211 -4.6123505
-6.4869747 3.4236817 -4.7170424
-6.4560266 3.2280135 -4.8208141
-6.4253721 3.0342038 -4.9236012
-6.3950305 2.842236 -5.0253386
-6.3649516 2.6520638 -5.1261973
-6.3351536 2.463671 -5.2261114
-6.305656 2.2770426 -5.3250184
-6.2764096 2.0921364 -5.4230833
-6.2474337 1.9089386 -5.5202436
-6.2187233 1.7274234 -5.6165094
-6.1902976 1.5475749 -5.7118239
-6.1621094 1.3693575 -5.8063416
-6.1341767 1.1927561 -5.9000025
-6.1065168 1.0177531 -5.9927478
-6.0790844 0.84431732 -6.0847297
-6.0518975 0.67243326 -6.175889
-6.0249524 0.50207967 -6.2662368
-5.9982672 0.33323723 -6.3557167
-5.9717965 0.16588314 -6.4444733
-5.945559 8.8495554e-08 -6.5324516
-5.91957 -0.1644327 -6.6195922
-5.8937883 -0.3274326 -6.7060404
-5.8682299 -0.48901919 -6.7917399
-5.8428926 -0.64921039 -6.8766985
-5.8177919 -0.80802625 -6.9608626
-5.7928872 -0.96548152 -7.0443707
-5.7681947 -1.1215934 -7.1271672
-5.7437305 -1.2763845 -7.209197
-5.7194543 -1.4298635 -7.290597
-5.6953826 -1.5820508 -7.3713107
-5.6715307 -1.7329674 -7.4512882
-5.6478596 -1.8826199 -7.5306582
-5.6243858 -2.0310283 -7.6093678
-5.6011057 -2.1782079 -7.687427
-5.5780358 -2.3241813 -7.7647834
-5.5551372 -2.4689496 -7.8415642
-5.5324259 -2.6125345 -7.917716
-5.5099168 -2.7549584 -7.9931908
-5.4875736 -2.896219 -8.0681114
-5.4654102 -3.0363388 -8.1424265
-5.4434252 -3.1753316 -8.2161436
-5.4216332 -3.3132198 -8.2892141
-5.3999982 -3.4499986 -8.3617582
-5.3785353 -3.5856898 -8.4337244
-5.3032193 -3.682791 -8.686264
-5.2821712 -3.8149021 -8.7568378
-5.2614617 -3.9460962 -8.8262796
-5.2409296 -4.0762787 -8.8951273
-5.2205873 -4.2054729 -8.963335
-5.2004018 -4.3336687 -9.0310173
-7.3620253 -6.3395219 -1.7829336
-7.3536229 10.505177 -1.1066163
-7.3125629 10.237589 -1.2482264
-7.2719593 9.9729729 -1.3882638
-7.2319551 9.711482 -1.5262331
-7.1924486 9.4529324 -1.6624843
-7.1533418 9.197155 -1.7973579
-7.1146588 8.9441423 -1.9307735
-7.0763912 8.6938534 -2.0627537
-7.0385332 8.4462404 -2.19332
-7.0010777 8.2012634 -2.3224993
-6.9640474 7.9589119 -2.4502127
-6.9273787 7.71908 -2.5766778
-6.8910942 7.48176 -2.7018199
-6.8551874 7.2469134 -2.8256552
-6.8196535 7.0145006 -2.9482095
-6.7844858 6.7844853 -3.0694983
-6.7496796 6.5568314 -3.1895425
-6.7152534 6.3315253 -3.3082707
-6.6811519 6.1084819 -3.4258847
-6.6473942 5.8876929 -3.542309
-6.613977 5.6691232 -3.6575634
-6.5809183 5.4527607 -3.7715776
-6.5481639 5.2385311 -3.8845429
-6.5157337 5.0264239 -3.9963906
-6.4836235 4.8164062 -4.1071358
-6.4518523 4.6084657 -4.2167106
-6.4203668 4.4025369 -4.3252997
-6.3891873 4.1986094 -4.4328346
-6.3583326 3.996666 -4.5392489
-6.3277512 3.7966506 -4.6447201
-6.2974625 3.5985501 -4.7491817
-6.2674627 3.4023366 -4.8526483
-6.2377696 3.2079957 -4.9550552
-6.208334 3.0154772 -5.0565743
-6.1791754 2.8247664 -5.1571393
-6.150311 2.6358473 -5.2566886
-6.1216936 2.4486775 -5.3553872
-6.0933409 2.2632413 -5.4531717
-6.0652499 2.079515 -5.5500546
-6.0374374 1.8974807 -5.6459756
-6.0098586 1.7171023 -5.7410917
-5.9825301 1.5383652 -5.8353443
-5.9554696 1.36125 -5.9286723
-5.9286327 1.1857269 -6.0212297
-5.9020367 1.0117781 -6.112957
-5.8756981 0.83938539 -6.2037969
-5.8495731 0.66852278 -6.2938962
-5.8236799 0.49917293 -6.3831983
-5.7980151 0.33131498 -6.4717145
-5.7725945 0.16493151 -6.5593863
-5.7473774 -7.9870219e-08 -6.6463594
-5.7223787 -0.16349667 -6.7325749
-5.6976156 -0.32557791 -6.8179793
-5.6730475 -0.48626134 -6.9027128
-5.6486902 -0.64556503 -6.9867172
-5.6245413 -0.80350614 -7.070004
-5.600616 -0.96010518 -7.1525192
-5.5768752 -1.1153753 -7.2343974
-5.5533352 -1.269333 -7.3155847
-5.5300107 -1.4220028 -7.396028
-5.5068636 -1.5733898 -7.4758592
-5.4839096 -1.7235141 -7.5550256
-5.4611464 -1.8723928 -7.633533
-5.4385881 -2.0200469 -7.7113338
-5.4161987 -2.1664796 -7.7885523
-5.3939924 -2.3117108 -7.8651381
-5.371985 -2.4557645 -7.9410405
-5.3501391 -2.5986392 -8.0163832
-5.3284702 -2.7403562 -8.091116
-5.306993 -2.8809385 -8.1651888
-5.2856717 -3.0203841 -8.2387228
-5.2645206 -3.1587126 -8.3116693
-5.2435389 -3.295939 -8.3840332
-5.2227392 -3.432086 -8.4557695
-5.2020884 -3.5671463 -8.5269918
-5.1293707 -3.663836 -8.7777863
-5.1090875 -3.7953222 -8.8477411
-5.0891585 -3.9259226 -8.9164724
-5.0693846 -4.0555081 -8.9846706
-5.049808 -4.1841269 -9.052187
-5.0303822 -4.3117566 -9.1191845
-6.3834219 -5.6538887 -4.4527178
-7.0916452 10.428891 -1.2907845
-7.0523634 10.163701 -1.4302461
-7.0134859 9.901392 -1.568275
-6.9751787 9.6421604 -1.704276
-6.9373174 9.3857841 -1.8386966
-6.8998933 9.1322126 -1.9715654
-6.8628421 8.8813248 -2.1031082
-6.8261867 8.6331186 -2.2332458
-6.7899208 8.3875494 -2.3620009
-6.7540388 8.144577 -2.4893942
-6.7185335 7.9041576 -2.6154482
-6.6834264 7.6662822 -2.7400904
-6.6486578 7.4308534 -2.863529
-6.6142492 7.1978593 -2.9856911
-6.5801945 6.9672656 -3.1065946
-6.5464888 6.7390337 -3.226259
-6.5131273 6.5131273 -3.3447053
-6.4801035 6.2895131 -3.4619493
-6.4474378 6.0681767 -3.5779226
-6.4150758 5.8490396 -3.6928198
-6.3830361 5.632091 -3.8065698
-6.3513155 5.4172993 -3.9191885
-6.319932 5.2046509 -4.0306091
-6.2888341 4.9940743 -4.1410174
-6.25804 4.7855597 -4.2503448
-6.2275467 4.5790787 -4.3586073
-6.1973715 4.3746147 -4.4657369
-6.1674647 4.1721087 -4.5719151
-6.1378455 3.9715471 -4.6770735
-6.1085315 3.7729168 -4.781147
-6.079474 3.5761616 -4.8843102
-6.0506916 3.3812692 -4.9864964
-6.022181 3.1882136 -5.087718
-5.993959 2.9969795 -5.1879168
-5.9659786 2.8075194 -5.2872543
-5.9382586 2.6198196 -5.3856692
-5.9108157 2.4338653 -5.4831004
-5.8836045 2.249614 -5.5797081
-5.8566432 2.0670512 -5.6754298
-5.8299274 1.8861527 -5.7702785
-5.8034744 1.7069043 -5.8641939
-5.7772412 1.5292693 -5.9573331
-5.7512426 1.3532344 -6.0496335
-5.7254977 1.1787786 -6.141037
-5.6999631 1.0058758 -6.2316952
-5.674654 0.83450741 -6.3215475
-5.6495695 0.66465509 -6.4106059
-5.6247244 0.49629912 -6.4988132
-5.6000786 0.32941639 -6.5863147
-5.5756474 0.16398942 -6.6730537
-5.5514469 -3.1247851e-07 -6.7589722
-5.5274372 -0.16257143 -6.844213
-5.5036345 -0.32374319 -6.9287214
-5.4800534 -0.48353422 -7.0124407
-5.4566569 -0.64195961 -7.0955071
-5.4334583 -0.79903793 -7.1778688
-5.4104567 -0.95478606 -7.2595325
-5.3876657 -1.109226 -7.3404465
-5.3650494 -1.2623641 -7.420743
-5.3426218 -1.4142231 -7.5003676
-5.3203979 -1.5648228 -7.5792689
-5.2983413 -1.7141689 -7.657577
-5.2764668 -1.8622828 -7.7352381
-5.2547722 -2.0091772 -7.8122606
-5.2332716 -2.1548767 -7.8885942
-5.2119303 -2.299381 -7.9643636
-5.190762 -2.4427116 -8.0395164
-5.1697812 -2.5848908 -8.114006
-5.1489534 -2.7259161 -8.1879511
-5.1282921 -2.8658106 -8.2613039
-5.1077967 -3.0045867 -8.3340693
-5.0874796 -3.142267 -8.4062004
-5.0673089 -3.2788465 -8.4778156
-5.0472965 -3.4143479 -8.5488634
-5.0274572 -3.5487936 -8.6192999
-4.9573026 -3.6450756 -8.868371
-4.9377704 -3.7759416 -8.9377165
-4.9186077 -3.9059534 -9.0057487
-4.8995938 -4.0349598 -9.0732565
-4.8807683 -4.1630087 -9.1400919
-4.8620868 -4.2900767 -9.2064161
-5.6198606 -5.123991 -6.5160809
-6.8334737 10.353748 -1.472194
-6.7958655 10.090831 -1.6097608
-6.7586966 9.8308306 -1.7457209
-6.722043 9.5738201 -1.879795
-6.685813 9.3196173 -2.0123227
-6.6499705 9.0681419 -2.1434295
-6.6145377 8.8193836 -2.2730389
-6.5794539 8.5732279 -2.4013729
-6.5447402 8.32967 -2.5283508
-6.5103908 8.0886669 -2.6539981
-6.4763999 7.850183 -2.7783318
-6.4427629 7.6141744 -2.9013758
-6.4094977 7.3806348 -3.0230532
-6.3765502 7.1494665 -3.1435738
-6.3439393 6.9206614 -3.2628615
-6.3116603 6.6941853 -3.3809342
-6.2797079 6.4700027 -3.497813
-6.2480774 6.2480779 -3.6135142
-6.2167878 6.0284004 -3.7279677
-6.1857867 5.8108907 -3.8413668
-6.1550932 5.5955391 -3.9536412
-6.1247025 5.3823147 -4.0648074
-6.0946102 5.171185 -4.17488
-6.0648131 4.9621196 -4.2838774
-6.0353274 4.7551074 -4.3917313
-6.0061054 4.5500803 -4.4986229
-5.9771647 4.3470292 -4.6044846
-5.948524 4.1459403 -4.7092509
-5.9201345 3.9467561 -4.8130975
-5.8920145 3.749464 -4.915957
-5.8641815 3.5540493 -5.017767
-5.8365889 3.3604605 -5.1186957
-5.8092556 3.1686854 -5.2186804
-5.782177 2.9786978 -5.3177319
-5.7553697 2.790482 -5.4157901
-5.7287893 2.6039951 -5.5130172
-5.7024536 2.4192228 -5.6093497
-5.6763792 2.2361498 -5.7047281
-5.6505222 2.0547354 -5.7993116
-5.6248994 1.8749669 -5.8930349
-5.5995083 1.696821 -5.9859142
-5.5743647 1.5202814 -6.0778875
-5.5494266 1.345315 -6.1691084
-5.5247107 1.1719087 -6.2595172
-5.5002327 1.0000427 -6.3490548
-5.4759521 0.82969016 -6.437871
-5.4518847 0.66083503 -6.5259066
-5.4280281 0.49345696 -6.6131716
-5.4043975 0.32753953 -6.6996098
-5.3809538 0.16305947 -6.7853646
-5.3577132 -3.9381138e-07 -6.870378
-5.3346891 -0.16165717 -6.9545965
-5.3118453 -0.32192957 -7.0381584
-5.2891955 -0.48083547 -7.121006
-5.2667389 -0.63839215 -7.2031517
-5.2444887 -0.79461956 -7.2845402
-5.2224092 -0.94952822 -7.3653054
-5.2005148 -1.1031402 -7.4453931
-5.1788192 -1.2554716 -7.5247521
-5.1572881 -1.4065329 -7.6035113
-5.1359353 -1.5563438 -7.6816192
-5.1147738 -1.7049248 -7.7590232
-5.0937715 -1.8522799 -7.8358512
-5.0729394 -1.9984303 -7.9120498
-5.052278 -2.1433909 -7.9876275
-5.0317998 -2.2871819 -8.0625353
-5.0114713 -2.4298041 -8.1368961
-4.9913058 -2.5712788 -8.2106571
-4.9713182 -2.7116282 -8.2837725
-4.9514737 -2.8508492 -8.3563585
-4.931788 -2.9889627 -8.4283686
-4.9122581 -3.1259825 -8.4998074
-4.8928967 -3.2619309 -8.5706291
-4.873673 -3.3968024 -8.6409473
-4.8545995 -3.530618 -8.7107162
-4.7869878 -3.6265063 -8.9580326
-4.7682085 -3.7567706 -9.0267258
-4.7497835 -3.8861868 -9.094121
-4.7315145 -4.0146184 -9.1609488
-4.7134128 -4.1420898 -9.2271633
-4.6954622 -4.2686024 -9.2928238
-4.9886899 -4.6863451 -8.2202272
-6.5789685 10.279638 -1.6511099
-6.543046 10.019038 -1.7866187
-6.5074863 9.7612295 -1.9207566
-6.4724698 9.5064411 -2.0528438
-6.437829 9.2543802 -2.1835175
-6.4035568 9.0050011 -2.3128002
-6.369647 8.7582655 -2.4407134
-6.3361206 8.5141621 -2.5671828
-6.3029203 8.272584 -2.6924217
-6.2700653 8.0335217 -2.8163564
-6.2375512 7.7969389 -2.9390063
-6.2053733 7.562798 -3.0603898
-6.1735249 7.3310614 -3.1805267
-6.1420264 7.101717 -3.2993481
-6.1108232 6.8746772 -3.4170513
-6.0799356 6.6499305 -3.5335646
-6.0493593 6.4274445 -3.6489067
-6.0190887 6.2071853 -3.7630944
-5.9891191 5.9891195 -3.8761449
-5.9594693 5.7732358 -3.9879897
-5.9300895 5.5594592 -4.0988169
-5.9009976 5.3477798 -4.2085576
-5.87219 5.1381669 -4.3172255
-5.8436627 4.9305906 -4.424839
-5.8154101 4.7250209 -4.5314107
-5.7874517 4.5214472 -4.6368766
-5.7597389 4.3198051 -4.7414131
-5.7322912 4.1200843 -4.8449535
-5.7051239 3.9222732 -4.9474335
-5.6781926 3.7263141 -5.0490246
-5.6515145 3.5321963 -5.1496601
-5.6250858 3.3398948 -5.2493548
-5.5989232 3.1493943 -5.3480468
-5.5729823 2.9606469 -5.4458985
-5.5472813 2.7736409 -5.5428491
-5.5218358 2.5883613 -5.6388354
-5.496603 2.4047639 -5.7340174
-5.4716001 2.2228379 -5.8283339
-5.4468427 2.0425665 -5.9217248
-5.4222894 1.8639123 -6.0143452
-5.3979564 1.6868616 -6.1061344
-5.3738408 1.5113931 -6.1971021
-5.3499579 1.3374898 -6.2871938
-5.3262687 1.1651213 -6.3765554
-5.3027878 0.99427307 -6.4651294
-5.2795315 0.82492727 -6.5528593
-5.2564597 0.6570577 -6.6398883
-5.2335896 0.49064851 -6.7261605
-5.210917 0.32568228 -6.811686
-5.188457 0.16213895 -6.8964076
-5.1661735 3.2570122e-07 -6.9804683
-5.1440806 -0.16075222 -7.063808
-5.1221914 -0.32013723 -7.1463761
-5.1004725 -0.47816962 -7.2283063
-5.0789366 -0.63486695 -7.3095441
-5.0575814 -0.79024708 -7.3900995
-5.0364213 -0.94432878 -7.4699202
-5.0154219 -1.0971236 -7.5491347
-4.9945965 -1.248649 -7.6276922
-4.973959 -1.398926 -7.7055397
-4.9534764 -1.5479611 -7.7828069
-4.9331608 -1.6957742 -7.8594389
-4.913012 -1.8423797 -7.9354453
-4.8930421 -1.9877985 -8.0107775
-4.8732185 -2.1320331 -8.0855541
-4.8535552 -2.2751038 -8.159729
-4.834065 -2.417032 -8.2332516
-4.8147154 -2.5578172 -8.306241
-4.7955208 -2.6974804 -8.3786478
-4.7764921 -2.8360422 -8.4504271
-4.7576003 -2.9735003 -8.5216913
-4.7388573 -3.1098747 -8.5923948
-4.7202606 -3.2451794 -8.6625433
-4.7018242 -3.379436 -8.73209
-4.683517 -3.5126376 -8.8011494
-4.6183996 -3.608125 -9.0467854
-4.6003594 -3.737792 -9.1148357
-4.5826597 -3.8666196 -9.1816044
-4.5651217 -3.9944813 -9.2477608
-4.5477438 -4.1213923 -9.3133144
-4.5305104 -4.2473536 -9.3783207
-4.5134072 -4.372364 -9.4428377
-7.6806726 -7.6806726 2.5047495
-6.3281074 10.206625 -1.8273808
-6.2937722 9.9482203 -1.9610775
-6.2598333 9.6926451 -2.0932314
-6.2263856 9.4400043 -2.2234747
-6.1932931 9.1900482 -2.3523326
-6.1605506 8.9427357 -2.4798286
-6.1281528 8.6980228 -2.6059837
-6.096118 8.455905 -2.7307234
-6.0643916 8.2162743 -2.854259
-6.0329947 7.9791226 -2.9765167
-6.0019212 7.7444153 -3.0975144
