# .PCD v0.7 - Point Cloud Data file format
VERSION 0.7
FIELDS x y z
SIZE 4 4 4
TYPE F F F
COUNT 1 1 1
WIDTH 1496
HEIGHT 1
VIEWPOINT 0 0 0 1 0 0 0
POINTS 1496
DATA ascii
-68.284096 76.81958 -206.23119
-68.283829 68.283806 -206.23512
-68.283829 59.74836 -206.23512
-68.283569 51.212654 -206.239
-68.28331 42.677059 -206.24294
-68.283051 34.141495 -206.24686
-68.283051 25.606138 -206.2469
-68.282791 17.070652 -206.25076
-68.282532 8.5352669 -206.25468
-68.282272 -3.8940903e-05 -206.25865
-68.282005 -8.5352583 -206.26259
-68.282005 -17.070524 -206.26259
-68.281754 -25.605705 -206.26648
-68.281494 -34.140747 -206.27042
-67.909218 -42.443264 -211.88757
-66.717628 -50.038265 -229.86717
-66.658333 -58.326046 -230.76198
-66.658333 -66.658379 -230.76192
-66.658577 -74.990952 -230.75819
-66.658829 -83.32357 -230.75449
-66.658829 -91.65593 -230.75447
-66.659073 -99.988678 -230.75072
-66.659325 -108.32146 -230.74701
-66.659325 -116.65387 -230.74702
-66.659576 -124.98675 -230.74324
-66.659821 -133.31967 -230.7395
-66.659821 -141.65215 -230.73955
-66.660065 -149.9852 -230.73578
-66.660065 -158.31767 -230.73581
-66.660316 -166.6508 -230.73209
-66.660568 -174.98402 -230.7283
-66.660568 -183.31659 -230.72829
-66.660812 -191.64987 -230.72453
-66.661057 -199.98322 -230.72083
-66.661057 -208.31581 -230.72084
-66.661308 -216.64929 -230.7171
-65.176132 -219.9695 -253.12656
-65.152916 -228.03526 -253.47693
-64.993454 -235.60129 -255.8831
-65.149132 -244.30928 -253.53406
-65.144867 -252.43639 -253.5984
-65.160973 -260.64389 -253.35541
-65.411133 -269.82095 -249.58075
-66.110306 -280.96881 -239.03105
-67.061859 -293.39566 -224.6732
-68.041466 -306.18668 -209.89207
-69.053574 -319.3728 -194.62062
-70.031609 -332.65021 -179.86314
-71.133881 -346.77771 -163.23117
-72.222778 -361.11395 -146.80093
-73.314331 -375.73596 -130.3307
-74.491043 -391.078 -112.57548
-75.706146 -406.92062 -94.240898
-76.961227 -423.28674 -75.30336
-78.258957 -440.20667 -55.722107
-60.098423 394.93246 -200.19835
-60.09819 386.34549 -200.20233
-60.09819 377.76001 -200.20232
-60.09819 369.17456 -200.20235
-60.097961 360.5878 -200.20628
-60.097961 352.00232 -200.2063
-60.097961 343.41693 -200.20628
-60.097733 334.8302 -200.2103
-60.097733 326.24481 -200.21025
-60.097733 317.65945 -200.21027
-60.0975 309.07281 -200.21422
-60.0975 300.48746 -200.21423
-60.0975 291.90213 -200.21422
-60.097271 283.31567 -200.21822
-60.097271 274.73035 -200.2182
-60.097271 266.14505 -200.21822
-60.097042 257.55869 -200.22218
-60.097042 248.97345 -200.2222
-60.097042 240.38814 -200.22218
-60.096809 231.80194 -200.22615
-60.096809 223.21667 -200.22614
-60.096809 214.63144 -200.22615
-60.096581 206.04538 -200.23015
-60.096581 197.46017 -200.23013
-60.096581 188.87491 -200.23012
-60.096352 180.289 -200.23409
-60.096352 171.70381 -200.2341
-60.096352 163.11862 -200.23412
-60.096352 154.53342 -200.2341
-60.096119 145.94768 -200.23807
-60.096119 137.36255 -200.23807
-60.09589 128.77684 -200.242
-60.095661 120.19128 -200.24599
-60.095428 111.60577 -200.24994
-60.095428 103.02071 -200.24998
-60.0952 94.435318 -200.25398
-60.094963 85.84993 -200.25795
-60.094738 77.264618 -200.26189
-60.094738 68.679642 -200.26189
-60.094509 60.094475 -200.26585
-60.094273 51.509335 -200.26979
-60.094048 42.92429 -200.27377
-60.093819 34.339291 -200.27776
-60.093819 25.75445 -200.27779
-60.093582 17.169582 -200.2818
-60.093357 8.5846977 -200.28568
-60.093128 -3.549816e-05 -200.2897
-60.092892 -8.5847473 -200.29361
-60.092892 -17.169409 -200.29366
-60.092667 -25.754028 -200.29761
-60.092438 -34.338543 -200.30162
-58.828362 -42.020313 -222.09975
-58.663765 -50.28326 -224.93813
-58.663982 -58.664021 -224.93436
-58.664204 -67.044785 -224.93059
-58.664204 -75.425438 -224.9306
-58.664425 -83.806328 -224.92679
-58.664642 -92.187309 -224.92303
-58.664642 -100.56801 -224.92296
-58.664864 -108.94903 -224.91924
-58.665081 -117.33022 -224.91539
-58.665081 -125.71092 -224.91542
-58.665302 -134.09216 -224.91161
-58.66552 -142.47345 -224.90782
-58.66552 -150.85422 -224.90788
-58.665741 -159.23561 -224.90407
-58.665741 -167.61644 -224.90405
-58.665958 -175.99791 -224.90028
-58.66618 -184.37944 -224.89653
-58.66618 -192.76036 -224.89647
-58.666397 -201.14194 -224.89275
-58.666618 -209.52368 -224.88892
-58.666618 -217.90462 -224.88898
-58.66684 -226.28642 -224.88516
-58.667057 -234.66826 -224.88138
-57.33622 -237.53583 -247.83078
-57.172359 -245.02443 -250.65649
-57.266087 -253.60701 -249.04015
-57.335384 -262.10464 -247.84523
-57.330563 -270.27267 -247.92833
-57.380905 -278.70731 -247.06023
-57.66806 -288.34036 -242.10837
-58.420116 -300.44629 -229.13974
-59.26944 -313.28137 -214.49361
-60.145672 -326.5051 -199.38364
-61.025867 -340.00131 -184.20509
-61.957409 -354.04236 -168.14127
-62.915058 -368.5025 -151.62723
-63.836964 -383.02182 -135.72954
-64.856483 -398.40417 -118.14845
-65.909103 -414.2858 -99.996803
-66.996445 -430.69147 -81.246216
-68.182167 -448.05426 -60.79921
-51.813137 405.86957 -194.15877
-51.812939 397.23245 -194.16278
-51.812939 388.59695 -194.1628
-51.812939 379.96155 -194.16277
-51.812733 371.32455 -194.16681
-51.812733 362.68915 -194.16679
-51.812733 354.05365 -194.16681
-51.812534 345.4169 -194.17084
-51.812534 336.78146 -194.17084
-51.812534 328.14603 -194.17079
-51.812534 319.51062 -194.17078
-51.812336 310.87399 -194.17482
-51.812336 302.23862 -194.17485
-51.812336 293.60321 -194.17484
-51.812138 284.96671 -194.17883
-51.812138 276.33136 -194.17885
-51.812138 267.69601 -194.17886
-51.811935 259.05969 -194.18291
-51.811935 250.42432 -194.18289
-51.811935 241.78902 -194.18288
-51.811737 233.15277 -194.18689
-51.811737 224.51747 -194.18689
-51.811737 215.88225 -194.18689
-51.811539 207.24612 -194.19095
-51.811539 198.61087 -194.1909
-51.811539 189.97562 -194.19089
-51.81134 181.33966 -194.19492
-51.81134 172.70441 -194.1949
-51.81134 164.06921 -194.19496
-51.811134 155.43338 -194.19893
-51.811134 146.79819 -194.19891
-51.811134 138.16304 -194.19896
-51.810936 129.52736 -194.20297
-51.810741 120.8917 -194.20697
-51.810741 112.2566 -194.20699
-51.810543 103.62108 -194.21101
-51.810337 94.985596 -194.215
-51.810139 86.350212 -194.21904
-51.80994 77.714912 -194.22305
-51.80994 69.079887 -194.22302
-51.809742 60.444675 -194.22708
-51.80954 51.809536 -194.23108
-51.809341 43.174408 -194.23509
-51.809143 34.53941 -194.23912
-51.809143 25.904552 -194.23911
-51.808945 17.269594 -194.24312
-51.808739 8.6347761 -194.24716
-51.80854 -1.0685536e-05 -194.25117
-51.808342 -8.6347589 -194.25516
-51.808342 -17.269474 -194.25519
-51.808144 -25.904089 -194.2592
-50.955273 -33.970177 -211.4176
-50.576271 -42.146954 -219.0426
-50.576454 -50.576485 -219.03882
-50.576454 -59.00592 -219.0388
-50.576649 -67.435577 -219.03499
-50.576839 -75.865273 -219.03119
-50.576839 -84.294807 -219.03111
-50.577026 -92.724541 -219.02734
-50.577217 -101.15449 -219.02348
-50.577217 -109.58398 -219.0235
-50.577412 -118.01398 -219.01967
-50.577595 -126.44402 -219.01585
-50.577595 -134.87363 -219.01584
-50.577789 -143.30377 -219.01198
-50.577789 -151.73341 -219.01199
-50.57798 -160.16364 -219.00816
-50.578167 -168.59395 -219.0043
-50.578167 -177.02364 -219.00433
-50.578358 -185.45403 -219.00052
-50.578552 -193.88445 -218.99672
-50.578552 -202.31424 -218.9967
-50.578743 -210.74477 -218.99286
-50.57893 -219.17535 -218.98904
-50.57893 -227.60521 -218.98907
-50.579121 -236.0359 -218.98521
-50.579315 -244.46669 -218.9814
-50.579315 -252.89661 -218.98137
-49.430313 -255.38997 -242.09741
-49.257881 -262.70874 -245.56647
-49.478706 -272.1329 -241.12381
-49.429768 -280.10208 -242.10837
-49.42577 -288.31702 -242.18883
-49.516434 -297.09866 -240.36478
-49.840462 -307.34955 -233.8459
-50.575886 -320.31396 -219.05029
-51.319035 -333.57376 -204.09929
-52.08152 -347.21017 -188.75926
-52.834801 -361.03787 -173.60442
-53.675476 -375.72839 -156.69125
-54.44857 -390.21478 -141.13794
-55.316994 -405.65802 -123.66653
-56.210289 -421.57715 -105.69496
-57.132896 -438.01889 -87.133415
-43.430714 408.24866 -188.04836
-43.430546 399.561 -188.05244
-43.430546 390.87488 -188.05241
-43.430546 382.18878 -188.05244
-43.430378 373.50122 -188.0565
-43.430378 364.81519 -188.05649
-43.430378 356.12906 -188.05649
-43.43021 347.44162 -188.06058
-43.43021 338.75562 -188.06055
-43.43021 330.06958 -188.06053
-43.430042 321.38226 -188.06461
-43.430042 312.69629 -188.06465
-43.430042 304.01025 -188.06462
-43.429871 295.32312 -188.06871
-43.429871 286.63715 -188.06868
-43.429871 277.95114 -188.0687
-43.429703 269.26413 -188.07275
-43.429703 260.57819 -188.07277
-43.429703 251.89226 -188.07277
-43.429703 243.2063 -188.07277
-43.429535 234.51945 -188.07681
-43.429535 225.83357 -188.07681
-43.429535 217.14763 -188.07683
-43.429367 208.46094 -188.08092
-43.429367 199.77505 -188.08087
-43.429367 191.08917 -188.08087
-43.429199 182.40262 -188.08492
-43.429199 173.71677 -188.08498
-43.429199 165.03091 -188.08498
-43.429028 156.34447 -188.089
-43.429028 147.65866 -188.08897
-43.429028 138.97287 -188.08905
-43.42886 130.28653 -188.09306
-43.428692 121.60032 -188.09712
-43.428692 112.91457 -188.09717
-43.428524 104.22844 -188.10118
-43.428356 95.542358 -188.10527
-43.428188 86.856323 -188.10933
-43.42802 78.170425 -188.11343
-43.42802 69.484795 -188.1134
-43.427853 60.798965 -188.11745
-43.427685 52.113197 -188.12157
-43.427513 43.427452 -188.12556
-43.427345 34.741852 -188.1297
-43.427345 26.056395 -188.12967
-43.427177 17.370878 -188.13374
-43.42701 8.6854 -188.1378
-43.426842 -3.2808148e-05 -188.14183
-43.426842 -8.6853933 -188.14188
-43.426674 -17.370701 -188.14592
-42.926788 -25.756062 -200.21426
-42.393951 -33.915207 -213.07802
-42.393951 -42.394005 -213.07802
-42.394112 -50.872929 -213.07416
-42.394272 -59.351986 -213.07025
-42.394272 -67.830864 -213.07031
-42.394432 -76.310005 -213.06636
-42.394592 -84.789192 -213.06253
-42.394592 -93.268127 -213.0625
-42.394753 -101.74744 -213.05864
-42.394917 -110.2268 -213.05481
-42.394917 -118.70582 -213.05473
-42.395073 -127.18526 -213.05084
-42.395233 -135.66479 -213.04701
-42.395233 -144.1438 -213.04703
-42.395397 -152.62346 -213.04315
-42.395397 -161.10254 -213.04312
-42.395554 -169.58223 -213.03926
-42.395718 -178.06206 -213.03539
-42.395718 -186.54118 -213.03537
-42.395878 -195.02107 -213.03152
-42.396038 -203.50105 -213.02762
-42.396038 -211.98024 -213.02763
-42.396198 -220.46024 -213.02376
-42.396358 -228.94035 -213.01994
-42.396358 -237.41963 -213.01991
-42.396519 -245.89983 -213.01604
-42.396679 -254.3801 -213.01219
-42.396679 -262.85944 -213.01219
-41.496025 -265.57462 -234.75586
-41.434631 -273.4686 -236.23802
-41.302338 -280.85596 -239.43185
-41.434479 -290.04138 -236.2417
-41.431873 -298.30951 -236.30466
-41.434021 -306.61179 -236.25281
-41.557137 -315.83426 -233.28052
-41.959347 -327.28296 -223.57028
-42.572945 -340.58359 -208.75668
-43.206257 -354.29132 -193.46727
-43.849937 -368.33951 -177.92743
-44.481094 -382.53748 -162.68991
-45.172546 -397.51843 -145.9968
-45.871178 -412.84064 -129.13034
-46.608234 -428.79578 -111.33623
-47.369366 -445.27206 -92.960915
-34.963074 419.55692 -181.45444
-34.949436 410.65588 -181.86592
-34.949303 401.91693 -181.87001
-34.949303 393.17966 -181.87
-34.949303 384.44226 -181.87003
-34.949169 375.70355 -181.87413
-34.949169 366.96625 -181.87411
-34.949169 358.22888 -181.87416
-34.949028 349.4903 -181.87825
-34.949028 340.75302 -181.87823
-34.949028 332.01575 -181.87828
-34.948895 323.27725 -181.88239
-34.948895 314.54004 -181.88232
-34.948895 305.8028 -181.88237
-34.948757 297.06442 -181.88646
-34.948757 288.32724 -181.88647
-34.948757 279.59003 -181.88649
-34.94862 270.85178 -181.89056
-34.94862 262.11465 -181.89058
-34.94862 253.37749 -181.89059
-34.948486 244.63937 -181.89473
-34.948486 235.90225 -181.89471
-34.948486 227.16513 -181.89471
-34.948349 218.42715 -181.89882
-34.948349 209.69008 -181.8988
-34.948349 200.95297 -181.89882
-34.948212 192.21512 -181.90292
-34.948212 183.47812 -181.90292
-34.948212 174.74106 -181.90292
-34.948078 166.00333 -181.90704
-34.948078 157.26631 -181.90703
-34.948078 148.5293 -181.90701
-34.948078 139.79228 -181.907
-34.947941 131.05475 -181.91116
-34.947803 122.31728 -181.91527
-34.947803 113.58031 -181.91522
-34.947666 104.84298 -181.91936
-34.947533 96.10569 -181.92348
-34.947395 87.368446 -181.92757
-34.947395 78.631607 -181.92755
-34.947258 69.894455 -181.9317
-34.947124 61.157475 -181.93585
-34.946983 52.420437 -181.93991
-34.94685 43.68354 -181.94402
-34.94685 34.946835 -181.94403
-34.946716 26.210026 -181.9482
-34.946575 17.473303 -181.9523
-34.946442 8.7365713 -181.95641
-34.946308 -2.6583466e-05 -181.96054
-34.946308 -8.7366114 -181.96048
-34.720879 -17.360456 -188.76332
-34.13216 -25.599173 -206.52936
-34.115143 -34.115181 -207.04301
-34.115273 -42.644115 -207.03911
-34.115273 -51.172951 -207.03909
-34.115402 -59.701973 -207.03523
-33.898487 -67.797005 -213.58127
-34.115532 -76.759972 -207.03133
-34.115662 -85.289177 -207.02734
-34.115791 -93.818451 -207.02342
-34.115791 -102.34737 -207.02347
-34.115921 -110.87679 -207.01952
-34.116055 -119.40623 -207.01558
-34.116055 -127.93522 -207.01564
-34.11618 -136.46477 -207.01166
-34.11631 -144.99434 -207.0078
-34.11631 -153.52344 -207.00772
-34.11644 -162.05316 -207.00385
-34.11644 -170.58223 -207.00386
-34.116573 -179.11203 -206.99991
-34.116703 -187.64189 -206.996
-34.116703 -196.17107 -206.99597
-34.116829 -204.701 -206.99211
-34.116959 -213.23102 -206.98819
-34.116959 -221.76025 -206.98819
-34.117092 -230.29039 -206.98424
-34.117222 -238.82059 -206.98032
-34.117222 -247.34987 -206.98035
-34.117352 -255.88019 -206.97638
-34.117477 -264.41049 -206.97252
-34.117477 -272.93988 -206.9725
-34.117611 -281.47031 -206.96861
-33.358566 -283.54788 -229.87468
-33.344669 -291.7659 -230.2942
-33.267307 -299.40576 -232.62877
-33.342808 -308.42099 -230.35033
-33.340076 -316.73077 -230.43269
-33.353851 -325.20007 -230.01704
-33.501976 -335.01981 -225.54698
-33.90554 -347.5318 -213.36842
-34.406956 -361.27307 -198.23676
-34.886177 -375.02643 -183.77502
-35.444839 -389.89328 -166.91582
-35.997383 -404.97058 -150.24149
-36.517654 -419.95306 -134.54082
-37.101505 -435.94272 -116.92154
-26.367554 421.88086 -175.61009
-26.367449 413.09006 -175.61432
-26.367449 404.30087 -175.61426
-26.367449 395.51175 -175.61427
-26.367348 386.72104 -175.61848
-26.367348 377.93201 -175.61844
-26.367348 369.14285 -175.61844
-26.367243 360.35236 -175.62259
-26.367243 351.5632 -175.62259
-26.367243 342.77411 -175.62265
-26.36714 333.9838 -175.62672
-26.36714 325.19467 -175.62677
-26.36714 316.40567 -175.62677
-26.36714 307.61664 -175.62677
-26.367035 298.82635 -175.63094
-26.367035 290.03738 -175.63094
-26.367035 281.24835 -175.63094
-26.366934 272.45831 -175.63509
-26.366934 263.66928 -175.63507
-26.366934 254.88033 -175.6351
-26.366831 246.09039 -175.63928
-26.366831 237.30145 -175.63922
-26.366831 228.51248 -175.63922
-26.366726 219.72269 -175.64343
-26.366726 210.93378 -175.64343
-26.366726 202.14485 -175.64342
-26.366623 193.35519 -175.64758
-26.366623 184.56631 -175.64755
-26.366623 175.77747 -175.64761
-26.366518 166.98793 -175.65172
-26.366518 158.19911 -175.65176
-26.366518 149.41023 -175.65172
-26.366417 140.62088 -175.65593
-26.366417 131.83205 -175.65587
-26.366417 123.04326 -175.65588
-26.366312 114.25399 -175.66005
-26.366209 105.46481 -175.66426
-26.366104 96.675667 -175.66835
-26.366003 87.886658 -175.67258
-26.366003 79.097961 -175.67255
-26.3659 70.309036 -175.67671
-26.365795 61.520149 -175.68086
-26.365692 52.731358 -175.68507
-26.365587 43.942642 -175.68921
-26.365587 35.154118 -175.68919
-26.365486 26.365452 -175.69333
-26.365381 17.57687 -175.69751
-26.365278 8.7883692 -175.70163
-26.365173 -2.8313896e-05 -175.70583
-26.365173 -8.7884274 -175.70584
-25.786804 -17.191256 -198.97769
-25.738123 -25.73814 -200.93646
-25.738218 -34.317642 -200.93253
-25.738218 -42.897095 -200.93251
-25.738317 -51.476631 -200.92857
-25.738317 -60.056095 -200.92854
-25.738417 -68.635811 -200.92462
-25.738516 -77.215576 -200.92062
-25.738516 -85.795074 -200.92062
-25.738615 -94.374962 -200.91669
-25.738714 -102.9549 -200.91267
-25.738714 -111.53443 -200.91269
-25.73881 -120.11446 -200.90874
-25.738909 -128.69461 -200.90474
-25.738909 -137.27419 -200.90479
-25.739008 -145.85439 -200.90082
-25.739107 -154.43472 -200.89682
-25.739107 -163.01439 -200.8968
-25.739206 -171.59474 -200.89284
-25.739206 -180.17448 -200.89287
-25.739305 -188.75491 -200.88893
-25.739403 -197.33543 -200.88493
-25.739403 -205.91527 -200.88492
-25.739502 -214.49588 -200.88098
-25.739599 -223.07658 -200.87698
-25.739599 -231.65645 -200.87698
-25.739698 -240.23723 -200.87305
-25.739798 -248.8181 -200.86903
-25.739798 -257.39801 -200.86906
-25.739897 -265.97897 -200.86513
-25.739994 -274.56 -200.8611
-25.739994 -283.13995 -200.86116
-25.740093 -291.72107 -200.85719
-25.740093 -300.30112 -200.85719
-25.156199 -301.87442 -224.35127
-25.083723 -309.36597 -227.26749
-25.128736 -318.29736 -225.45625
-25.154787 -327.01224 -224.40813
-25.152716 -335.36957 -224.49142
-25.182589 -344.16208 -223.28944
-25.327774 -354.58887 -217.44756
-25.687857 -368.19263 -202.95898
-26.063581 -382.26587 -187.84103
-26.457747 -396.86624 -171.981
-26.864986 -411.92978 -155.595
-27.254641 -426.98941 -139.91647
-27.688692 -443.0191 -122.45161
-17.700579 433.66418 -168.23415
-17.683256 424.39813 -169.27969
-17.683186 415.55487 -169.28389
-17.683186 406.71323 -169.28387
-17.683186 397.87167 -169.28386
-17.683117 389.02856 -169.28809
-17.683117 380.18692 -169.28813
-17.683117 371.3454 -169.28812
-17.683046 362.50238 -169.29233
-17.683046 353.66092 -169.29227
-17.683046 344.8194 -169.2923
-17.682976 335.9765 -169.29649
-17.682976 327.13507 -169.29648
-17.682976 318.29352 -169.29651
-17.682907 309.45087 -169.3007
-17.682907 300.60944 -169.30072
-17.682907 291.76791 -169.30074
-17.682837 282.92535 -169.30496
-17.682837 274.08395 -169.3049
-17.682837 265.24255 -169.30495
-17.682766 256.40012 -169.30914
-17.682766 247.55873 -169.30914
-17.682766 238.71732 -169.30916
-17.682766 229.87593 -169.30914
-17.682697 221.03371 -169.31332
-17.682697 212.19235 -169.31337
-17.682697 203.35098 -169.31337
-17.682627 194.50888 -169.31758
-17.682627 185.66754 -169.31755
-17.682627 176.82626 -169.3176
-17.682558 167.98427 -169.32181
-17.682558 159.14297 -169.32175
-17.682558 150.30173 -169.32178
-17.682487 141.45987 -169.32602
-17.682487 132.61862 -169.32593
-17.682487 123.77738 -169.32597
-17.682419 114.9357 -169.33022
-17.682348 106.09406 -169.33443
-17.682278 97.252495 -169.33861
-17.682207 88.411026 -169.34283
-17.682207 79.569901 -169.34277
-17.682138 70.728523 -169.34708
-17.68207 61.88718 -169.35123
-17.681999 53.046017 -169.3555
-17.681931 44.2048 -169.35968
-17.681931 35.363815 -169.35966
-17.68186 26.522724 -169.36388
-17.681791 17.68178 -169.36812
-17.681721 8.8408194 -169.37227
-17.681721 -3.4939825e-05 -169.37227
-17.365419 -8.6827297 -188.46281
-17.261131 -17.261148 -194.75708
-17.261131 -25.891731 -194.75703
-17.2612 -34.522408 -194.75308
-17.2612 -43.15303 -194.75305
-17.261265 -51.783829 -194.74907
-16.98123 -59.434353 -211.65063
-17.261332 -69.045341 -194.74501
-17.261398 -77.676323 -194.74101
-17.261465 -86.30735 -194.73694
-17.261465 -94.938095 -194.737
-17.261532 -103.56921 -194.73299
-17.261597 -112.20045 -194.72893
-17.261597 -120.83118 -194.72897
-17.261665 -129.46251 -194.72498
-17.26173 -138.09389 -194.7209
-17.26173 -146.72476 -194.72092
-17.261797 -155.35622 -194.71689
-17.261864 -163.98775 -194.71292
-17.261864 -172.61865 -194.71294
-17.26193 -181.25029 -194.70891
-17.26193 -189.88129 -194.70889
-17.261997 -198.51297 -194.7049
-17.262062 -207.14479 -194.70087
-17.262062 -215.77583 -194.70087
-17.262131 -224.40771 -194.69687
-17.262196 -233.03969 -194.69283
-17.262196 -241.67076 -194.69284
-17.262262 -250.30281 -194.68884
-17.262329 -258.93497 -194.6848
-17.262329 -267.56613 -194.68477
-17.262396 -276.19836 -194.68077
-17.262463 -284.83066 -194.6768
-17.262463 -293.46188 -194.6768
-17.262527 -302.09427 -194.67279
-17.262527 -310.72556 -194.67273
-17.262596 -319.35803 -194.66876
-16.869989 -320.52985 -218.36459
-16.810562 -327.806 -221.95134
-16.891802 -337.83609 -217.04811
-16.869482 -345.82443 -218.39522
-16.868084 -354.22983 -218.47954
-16.905951 -363.47797 -216.19414
-17.039797 -374.87564 -208.11569
-17.297112 -389.18503 -192.58549
-17.549248 -403.63275 -177.36769
-17.826414 -418.92078 -160.63925
-18.082434 -433.97849 -145.18701
-8.8947001 435.8403 -162.87321
-8.8946648 426.94391 -162.8775
-8.8946648 418.04926 -162.87747
-8.8946648 409.1546 -162.87746
-8.8946648 400.25989 -162.87752
-8.8946295 391.36371 -162.88173
-8.8946295 382.46906 -162.88173
-8.8946295 373.57443 -162.88173
-8.8945942 364.67838 -162.886
-8.8945942 355.78372 -162.88597
-8.8945942 346.88913 -162.886
-8.8945589 337.99319 -162.89029
-8.8945589 329.09866 -162.89027
-8.8945589 320.20413 -162.89026
-8.8945236 311.30829 -162.89452
-8.8945236 302.41382 -162.89455
-8.8945236 293.51926 -162.8945
-8.8944883 284.62366 -162.89877
-8.8944883 275.72916 -162.8988
-8.8944883 266.83463 -162.89876
-8.894453 257.93915 -162.90305
-8.894453 249.04468 -162.90306
-8.894453 240.15021 -162.90305
-8.8944178 231.25484 -162.90732
-8.8944178 222.36044 -162.90732
-8.8944178 213.46602 -162.90729
-8.8943825 204.57076 -162.91156
-8.8943825 195.67642 -162.91158
-8.8943825 186.78201 -162.91159
-8.8943472 177.88693 -162.91586
-8.8943472 168.99257 -162.91585
-8.8943472 160.09821 -162.91583
-8.8943119 151.20329 -162.92012
-8.8943119 142.30898 -162.92007
-8.8943119 133.41467 -162.92014
-8.8943119 124.52036 -162.92009
-8.8942766 115.62561 -162.92438
-8.8942413 106.7309 -162.92863
-8.894206 97.836235 -162.93288
-8.894206 88.942047 -162.93286
-8.8941708 80.047516 -162.93713
-8.8941355 71.153023 -162.94138
-8.8941002 62.258663 -162.94565
-8.8940649 53.364353 -162.94991
-8.8940649 44.470295 -162.94991
-8.8940296 35.576111 -162.95419
-8.8939943 26.681961 -162.95845
-8.893959 17.787857 -162.96268
-8.8939238 8.8938894 -162.96695
-8.7813644 3.269879e-07 -176.55408
-8.6823397 -8.6823692 -188.50754
-8.6823721 -17.364737 -188.50348
-8.6824064 -26.047237 -188.49936
-8.6824064 -34.729675 -188.49939
-8.6824398 -43.412212 -188.49532
-8.5270004 -51.162014 -207.25858
-8.6824741 -60.777367 -188.49124
-8.6825075 -69.460114 -188.48718
-8.6825075 -78.142593 -188.48724
-8.6825409 -86.825432 -188.48311
-8.6825743 -95.508362 -188.47905
-8.6825743 -104.19093 -188.47905
-8.6826077 -112.87394 -188.47502
-8.682642 -121.55701 -188.47093
-8.682642 -130.23965 -188.47096
-8.6826754 -138.92285 -188.46684
-8.6827097 -147.60608 -188.46284
-8.6827097 -156.28882 -188.46283
-8.6827421 -164.97212 -188.45879
-8.6827421 -173.65486 -188.45877
-8.6827765 -182.33833 -188.4547
-8.6828098 -191.02185 -188.45065
-8.6828098 -199.70464 -188.45067
-8.6828442 -208.38826 -188.44658
-8.6828775 -217.07196 -188.44254
-8.6828775 -225.75487 -188.4425
-8.6829109 -234.43864 -188.4384
-8.6829443 -243.1225 -188.43434
-8.6829443 -251.80544 -188.43434
-8.6829786 -260.48938 -188.43034
-8.683012 -269.1734 -188.42627
-8.683012 -277.85641 -188.42632
-8.6830454 -286.54056 -188.4222
-8.6830454 -295.2236 -188.42216
-8.6830797 -303.90784 -188.41811
-8.6831131 -312.5921 -188.41406
-8.6831131 -321.27521 -188.41406
-8.6831465 -329.95959 -188.41
-8.5006981 -331.52722 -210.43353
-8.4858875 -339.43555 -212.22128
-8.4589748 -346.81802 -215.46994
-8.4858875 -356.40729 -212.22134
-8.4851809 -364.86279 -212.3067
-8.4864016 -373.40173 -212.15918
-8.5172758 -383.27744 -208.43239
-8.611227 -396.11652 -197.09143
-8.7387571 -410.72165 -181.69724
-8.8656635 -425.55191 -166.37823
-9.0041199 -441.20187 -149.66521
4.8005314e-22 438.47229 -156.3894
4.5069095e-22 429.52213 -156.39369
2.685334e-22 420.57373 -156.39374
2.1337892e-22 411.62546 -156.39369
1.2064488e-22 402.67545 -156.39801
3.8312775e-22 393.72705 -156.39803
3.0684932e-22 384.77875 -156.39801
2.7774649e-22 375.82883 -156.40233
2.8622322e-22 366.88055 -156.40234
5.2758215e-22 357.93228 -156.40233
4.3510745e-22 348.98257 -156.40662
3.1658111e-22 340.03433 -156.40665
2.4030268e-22 331.08603 -156.40663
8.445613e-23 322.13647 -156.41096
1.9881198e-22 313.1882 -156.41098
2.0728872e-22 304.23999 -156.41093
4.0639973e-22 295.29175 -156.41098
4.2006351e-22 286.34238 -156.41524
3.0153717e-22 277.39417 -156.41525
1.6188688e-22 268.44595 -156.4153
4.2981615e-22 259.49673 -156.4196
3.1128981e-22 250.54855 -156.41959
4.8927688e-22 241.60039 -156.4196
5.0320001e-22 232.65131 -156.42387
5.1180639e-22 223.70319 -156.42387
2.0277547e-22 214.75505 -156.4239
1.3220279e-22 205.80611 -156.42824
1.408092e-22 196.85803 -156.42821
2.5529473e-22 187.90993 -156.42821
3.3297874e-22 178.96107 -156.4325
3.8409241e-22 170.01306 -156.43256
4.5620036e-22 161.06497 -156.43251
5.128901e-22 152.1163 -156.43683
2.0398883e-22 143.16832 -156.43684
6.3611169e-22 134.22029 -156.43678
5.7649006e-22 125.27175 -156.44112
2.5702679e-22 116.32377 -156.44115
2.5047434e-22 107.37539 -156.44548
1.8042037e-22 98.427025 -156.44981
1.7859447e-22 89.479126 -156.4498
4.2617785e-22 80.530884 -156.45406
2.9275201e-22 71.58268 -156.45839
1.4889387e-22 62.634659 -156.46274
3.3310539e-22 53.686584 -156.467
3.208472e-22 44.738815 -156.46701
-2.8238948e-24 35.790924 -156.47139
5.4153224e-22 26.843061 -156.47563
5.8843803e-22 17.895296 -156.47993
2.296652e-22 8.8806009 -164.57127
2.3302694e-22 -4.6954709e-05 -181.87415
2.8394802e-22 -8.7348022 -182.17432
8.0785794e-23 -17.469616 -182.1743
3.7980043e-22 -26.20454 -182.17017
2.4473661e-22 -34.939495 -182.16608
4.1574383e-23 -43.674397 -182.16611
3.8277207e-22 -52.409496 -182.16197
1.4785909e-22 -61.144344 -182.16199
5.5242866e-22 -69.87957 -182.15782
2.0541208e-22 -78.614799 -182.15376
3.8325907e-22 -87.349777 -182.15373
1.2608414e-22 -96.085136 -182.14966
2.4991843e-22 -104.82058 -182.14551
4.2776542e-22 -113.5556 -182.14551
2.3924334e-22 -122.29112 -182.14142
4.3173047e-22 -131.02675 -182.13727
2.6547032e-22 -139.7618 -182.1373
1.403201e-22 -148.4975 -182.13319
4.0146007e-22 -157.23329 -182.12904
2.6166973e-22 -165.96844 -182.12912
1.6282718e-22 -174.70427 -182.12498
9.1689663e-23 -183.43948 -182.125
4.3207686e-22 -192.17549 -182.12085
4.1248161e-22 -200.91151 -182.11673
1.0471832e-23 -209.64679 -182.11678
3.8776113e-22 -218.38293 -182.11263
4.500536e-22 -227.11914 -182.10849
4.0106127e-23 -235.85445 -182.10855
1.6179348e-22 -244.59079 -182.1044
2.9009828e-22 -253.32716 -182.10027
2.7703543e-22 -262.06259 -182.1003
6.7850532e-23 -270.79904 -182.09621
2.5555024e-22 -279.53561 -182.09207
-8.3755893e-23 -288.27106 -182.09212
5.0463223e-22 -297.00772 -182.08794
5.6568446e-22 -305.74329 -182.08794
8.5022223e-23 -314.47995 -182.08386
4.0937562e-22 -323.21683 -182.0797
4.7423162e-22 -331.95242 -182.07971
5.9581768e-23 -340.68927 -182.07565
4.4663881e-22 -349.42633 -182.07149
1.4844557e-22 -350.20547 -205.49663
3.2553556e-22 -358.57349 -205.99562
5.3100674e-22 -366.30972 -208.24474
1.2352466e-22 -375.62408 -206.06236
3.1708129e-22 -384.12875 -206.14874
1.1114356e-22 -392.92844 -205.45734
4.9048665e-22 -403.46701 -200.32936
3.3004648e-22 -417.08853 -187.66205
3.9865178e-22 -432.71387 -170.57529
9.00278 450.13904 -149.82678
9.00278 441.13623 -149.82681
9.0027447 432.13177 -149.83113
9.0027447 423.12894 -149.83118
9.0027447 414.12619 -149.83116
9.0027084 405.12189 -149.83549
9.0027084 396.11917 -149.83553
9.0027084 387.11642 -149.83551
9.0026722 378.11221 -149.83986
9.0026722 369.1095 -149.83986
9.0026722 360.10687 -149.83984
9.002636 351.10278 -149.84422
9.002636 342.10019 -149.84424
9.002636 333.09747 -149.84427
9.0025997 324.0936 -149.84862
9.0025997 315.09097 -149.84857
9.0025997 306.08838 -149.8486
9.0025635 297.08459 -149.85294
9.0025635 288.08203 -149.85298
9.0025635 279.07944 -149.853
9.0025272 270.07581 -149.85733
9.0025272 261.07327 -149.85733
9.0025272 252.07077 -149.85735
9.002491 243.06725 -149.86171
9.002491 234.06476 -149.86172
9.002491 225.06224 -149.86168
9.002491 216.05975 -149.86174
9.0024557 207.05643 -149.86604
9.0024557 198.05399 -149.86604
9.0024557 189.05156 -149.86607
9.0024185 180.04837 -149.87042
9.0024185 171.04593 -149.87042
9.0024185 162.0435 -149.87045
9.0023823 153.04047 -149.8748
9.0023823 144.03807 -149.87479
9.0023823 135.03569 -149.87479
9.002347 126.03283 -149.87914
9.002347 117.03049 -149.87921
9.0023108 108.02767 -149.88353
9.0022745 99.024979 -149.88788
9.0022745 90.022728 -149.88791
9.0022383 81.020081 -149.89224
9.002202 72.01757 -149.89661
9.0021658 63.015152 -149.90103
9.0021296 54.012711 -149.90533
9.0021296 45.010635 -149.90538
9.0020933 36.008335 -149.90971
9.0020571 27.006126 -149.91411
9.0020208 18.004004 -149.91847
8.7998514 8.7998343 -174.32253
8.7878408 -3.2599655e-05 -175.77235
8.7878742 -8.787941 -175.7682
8.7879086 -17.575842 -175.76408
8.7879086 -26.363718 -175.76411
8.7879429 -35.151802 -175.75995
8.581378 -42.906948 -200.6945
8.7879782 -52.72789 -175.75581
8.7880125 -61.516094 -175.75163
8.7880125 -70.304108 -175.75162
8.7880468 -79.092445 -175.74742
8.7880812 -87.880875 -175.74326
8.7880812 -96.668922 -175.74329
8.7881155 -105.45738 -175.73915
8.7881508 -114.24599 -175.73499
8.7881508 -123.03413 -175.73494
8.7881851 -131.8228 -175.73083
8.7882195 -140.61153 -175.72664
8.7882195 -149.39975 -175.72665
8.7882538 -158.18861 -175.72243
8.7882881 -166.97751 -175.71832
8.7882881 -175.76582 -175.71829
8.7883224 -184.55479 -175.71414
8.7883224 -193.34315 -175.71411
8.7883568 -202.13223 -175.71002
8.7883911 -210.92145 -175.7058
8.7883911 -219.70982 -175.70578
8.7884264 -228.4991 -175.70169
8.7884607 -237.2885 -175.69746
8.7884607 -246.07692 -175.69749
8.7884951 -254.86642 -175.69333
8.7885294 -263.65594 -175.68916
8.7885294 -272.44446 -175.68913
8.7885637 -281.23407 -175.68503
8.788599 -290.02377 -175.68088
8.788599 -298.81235 -175.68088
8.7886333 -307.6022 -175.6767
8.7886333 -316.39081 -175.67671
8.7886677 -325.18076 -175.6725
8.788702 -333.9707 -175.66838
8.788702 -342.7594 -175.66835
8.7887363 -351.5495 -175.6642
8.7887707 -360.33963 -175.66008
8.7887707 -369.12839 -175.6601
8.5893726 -369.34308 -199.72954
8.5644522 -376.83591 -202.73772
8.5811815 -386.15317 -200.71834
8.5885496 -395.07333 -199.82884
8.5902948 -403.7439 -199.61821
8.6132803 -413.4375 -196.84366
8.6916695 -425.89178 -187.3813
18.115623 452.89062 -143.18393
18.115549 443.83099 -143.18835
18.115549 434.77316 -143.18839
18.115549 425.71542 -143.18835
18.115477 416.65601 -143.19276
18.115477 407.59824 -143.19275
18.115477 398.54044 -143.19279
18.115477 389.4827 -143.19283
18.115404 380.42349 -143.19717
18.115404 371.36575 -143.19717
18.115404 362.30804 -143.1972
18.115332 353.2489 -143.20166
18.115332 344.19125 -143.20161
18.115332 335.13361 -143.20158
18.115257 326.07458 -143.20605
18.115257 317.01697 -143.20605
18.115257 307.95932 -143.20602
18.115183 298.90048 -143.21046
18.115183 289.8429 -143.21046
18.115183 280.78537 -143.21043
18.115112 271.72662 -143.21486
18.115112 262.6691 -143.21489
18.115112 253.61153 -143.21487
18.115038 244.55301 -143.21928
18.115038 235.49545 -143.21931
18.115038 226.43793 -143.21927
18.114964 217.37956 -143.22372
18.114964 208.32208 -143.22375
18.114964 199.26459 -143.22369
18.114891 190.20634 -143.22816
18.114891 181.1489 -143.22818
18.114891 172.09142 -143.22812
18.114817 163.03334 -143.23259
18.114817 153.97594 -143.23257
18.114817 144.91855 -143.23257
18.114746 135.86055 -143.237
18.114746 126.8032 -143.23695
18.114746 117.7458 -143.23697
18.114672 108.68799 -143.24139
18.114672 99.630676 -143.24144
18.114597 90.572945 -143.24582
18.114525 81.515343 -143.25023
18.114452 72.457779 -143.25461
18.11438 63.400311 -143.25906
18.11438 54.34309 -143.25906
18.114305 45.285751 -143.26353
18.114231 36.228436 -143.26787
18.114159 27.171181 -143.27229
17.760139 17.760113 -164.63921
17.683117 8.8415623 -169.2881
17.683186 -3.5268386e-05 -169.28383
17.683186 -8.8416224 -169.28384
17.683256 -17.68329 -169.27962
17.683325 -26.525043 -169.27542
17.292574 -34.585213 -192.85941
17.683395 -44.208523 -169.27122
17.683395 -53.05024 -169.27121
17.683464 -61.892166 -169.26703
17.683535 -70.734184 -169.26279
17.683535 -79.575951 -169.26279
17.683605 -88.418045 -169.25859
17.683676 -97.260231 -169.25435
17.683676 -106.10209 -169.25441
17.683744 -114.94435 -169.25021
17.683815 -123.78672 -169.24596
17.683815 -132.62865 -169.24596
17.683884 -141.4711 -169.24176
17.683954 -150.31364 -169.23749
17.683954 -159.15561 -169.23752
17.684023 -167.99823 -169.23331
17.684092 -176.84099 -169.22906
17.684092 -185.683 -169.22911
17.684162 -194.52582 -169.22491
17.684162 -203.36789 -169.2249
17.684233 -212.21086 -169.22067
17.684303 -221.05385 -169.21646
17.684303 -229.89595 -169.21646
17.684372 -238.73906 -169.21222
17.684443 -247.58223 -169.20801
17.684443 -256.42441 -169.20805
17.684511 -265.2677 -169.20381
17.684582 -274.11105 -169.1996
17.684582 -282.95334 -169.19958
17.68465 -291.79678 -169.19543
17.684721 -300.64029 -169.19119
17.684721 -309.48264 -169.19124
17.68479 -318.32626 -169.18698
17.68479 -327.16864 -169.18701
17.68486 -336.01236 -169.1828
17.684931 -344.85617 -169.17856
17.684931 -353.69867 -169.17854
17.685001 -362.54254 -169.17433
17.68507 -371.38647 -169.17015
17.68507 -380.22906 -169.1701
17.685141 -389.07315 -169.16589
17.282503 -388.85635 -193.46725
17.22464 -396.16672 -196.95959
17.326204 -407.16589 -190.82953
17.371613 -416.9187 -188.08899
17.551105 -430.00208 -177.25572
27.340338 455.67224 -136.46835
27.340448 446.56067 -136.46382
27.340448 437.44717 -136.46388
27.340448 428.33365 -136.4639
27.340338 419.21848 -136.46835
27.340338 410.10504 -136.46834
27.340338 400.99161 -136.46829
27.340227 391.87656 -136.47282
27.340227 382.76315 -136.47279
27.340227 373.64972 -136.47281
27.340115 364.53482 -136.47733
27.340115 355.42148 -136.47728
27.340115 346.30807 -136.47731
27.340004 337.19336 -136.48178
27.340004 328.08005 -136.48177
27.340004 318.96674 -136.48175
27.340004 309.85333 -136.48178
27.339893 300.7388 -136.48621
27.339893 291.62552 -136.48624
27.339893 282.51221 -136.48622
27.339783 273.39783 -136.49071
27.339783 264.28452 -136.49068
27.339783 255.17128 -136.49069
27.33967 246.05701 -136.49516
27.33967 236.94379 -136.49521
27.33967 227.83055 -136.49513
27.33956 218.71645 -136.49968
27.33956 209.60327 -136.49971
27.33956 200.49004 -136.49963
27.339445 191.37614 -136.50415
27.339445 182.26295 -136.50418
27.339445 173.14983 -136.50418
27.339334 164.03601 -136.50865
27.339334 154.92291 -136.50862
27.339334 145.80977 -136.50861
27.339224 136.69614 -136.51309
27.339224 127.58304 -136.51306
27.339224 118.46998 -136.51309
27.339113 109.35642 -136.51753
27.339113 100.24342 -136.51756
27.339001 91.12999 -136.52202
27.33889 82.016655 -136.52654
27.338779 72.903397 -136.53101
27.338669 63.790184 -136.53545
27.338669 54.677303 -136.53539
27.338556 45.564274 -136.53995
27.338446 36.451237 -136.5444
26.959595 26.95957 -151.78828
26.687811 17.79188 -162.72401
26.687811 8.8958797 -162.72398
26.687916 -2.0529986e-05 -162.71974
26.688021 -8.8960619 -162.71545
26.688021 -17.792013 -162.7155
26.221691 -26.22172 -181.47913
26.688234 -35.584339 -162.70697
26.688234 -44.480377 -162.70697
26.688339 -53.376713 -162.70264
26.688339 -62.272793 -162.70268
26.688446 -71.169228 -162.69839
26.688551 -80.065689 -162.69415
26.688551 -88.961861 -162.69412
26.688658 -97.858406 -162.68991
26.688763 -106.7551 -162.68559
26.688763 -115.65135 -162.68561
26.688869 -124.54807 -162.6814
26.688974 -133.44493 -162.67705
26.688974 -142.34123 -162.67711
26.689081 -151.23817 -162.67281
26.689188 -160.13515 -162.66853
26.689188 -169.03159 -162.66855
26.689293 -177.92865 -162.66434
26.689293 -186.82512 -162.66428
26.689398 -195.72231 -162.66002
26.689507 -204.61955 -162.65579
26.689507 -213.51607 -162.65576
26.689611 -222.41344 -162.6515
26.689716 -231.31094 -162.64722
26.689716 -240.2075 -162.6472
26.689821 -249.10509 -162.64296
26.68993 -258.00269 -162.63873
26.68993 -266.89929 -162.63876
26.690035 -275.79709 -162.63441
26.69014 -284.69485 -162.63019
26.69014 -293.59158 -162.63016
26.690248 -302.48953 -162.62592
26.690353 -311.38745 -162.62167
26.690353 -320.28427 -162.62169
26.690458 -329.18234 -162.61743
26.690458 -338.07919 -162.61737
26.690567 -346.97736 -162.61316
26.690672 -355.87564 -162.60889
26.690672 -364.77255 -162.60886
26.690777 -373.67093 -162.60455
26.690882 -382.56937 -162.60028
26.690882 -391.46634 -162.6003
26.69099 -400.36484 -162.59607
26.699791 -409.39682 -162.24194
26.228241 -410.90915 -181.21561
26.523314 -424.37305 -169.34285
36.679218 458.49023 -129.66521
36.679367 449.32227 -129.66069
36.679367 440.1524 -129.66064
36.67952 430.98434 -129.65614
36.679367 421.81268 -129.66064
36.679367 412.64294 -129.66064
36.679367 403.47305 -129.66068
36.679218 394.30154 -129.66522
36.679218 385.13177 -129.66519
36.679218 375.96198 -129.66521
36.679066 366.79071 -129.66972
36.679066 357.62091 -129.66971
36.679066 348.45114 -129.66974
36.678917 339.27997 -129.67424
36.678917 330.11023 -129.67427
36.678917 320.94055 -129.67426
36.678768 311.7695 -129.6788
36.678768 302.59982 -129.67879
36.678768 293.43015 -129.67877
36.678616 284.25925 -129.68333
36.678616 275.08957 -129.68335
36.678616 265.91998 -129.68327
36.678467 256.74924 -129.68787
36.678467 247.57964 -129.68785
36.678467 238.41002 -129.68785
36.678318 229.23947 -129.69237
36.678318 220.06985 -129.69237
36.678318 210.90034 -129.69241
36.678318 201.73073 -129.6924
36.678165 192.56035 -129.69693
36.678165 183.39081 -129.69687
36.678165 174.2213 -129.69693
36.678017 165.05106 -129.70148
36.678017 155.88153 -129.70142
36.678017 146.71204 -129.70145
36.677868 137.54202 -129.70599
36.677868 128.3725 -129.70593
36.677868 119.20305 -129.70593
36.677715 110.03315 -129.71049
36.677715 100.86371 -129.71049
36.677567 91.693901 -129.71503
36.677418 82.524132 -129.71951
36.677265 73.354492 -129.72404
36.67712 64.184944 -129.72862
36.67712 55.015682 -129.72864
36.676968 45.846218 -129.73317
36.362083 36.362045 -139.2357
35.806385 26.854757 -156.00529
35.803951 17.901957 -156.07867
35.804096 8.9509964 -156.07434
35.804096 -6.1395884e-05 -156.07433
35.804237 -8.9511003 -156.07004
35.502548 -17.751291 -165.17427
35.804382 -26.853325 -156.06572
35.804527 -35.804546 -156.06143
35.804668 -44.755859 -156.05708
35.804668 -53.707039 -156.05705
35.80481 -62.658474 -156.05276
35.80481 -71.609642 -156.05273
35.804955 -80.561211 -156.04843
35.805096 -89.512779 -156.04413
35.805096 -98.464043 -156.04414
35.805241 -107.41574 -156.03981
35.805386 -116.36752 -156.03552
35.805386 -125.31887 -156.03548
35.805527 -134.27078 -156.03116
35.805672 -143.22273 -156.02686
35.805672 -152.17412 -156.02686
35.805813 -161.12621 -156.02252
35.805954 -170.07834 -156.01823
35.805954 -179.02982 -156.01826
35.806099 -187.98203 -156.0139
35.806099 -196.93359 -156.0139
35.80624 -205.88593 -156.00961
35.806385 -214.83835 -156.00526
35.806385 -223.78995 -156.00526
35.80653 -232.74246 -156.00098
35.806671 -241.69507 -155.99663
35.806671 -250.64671 -155.99667
35.806812 -259.59946 -155.99229
35.806957 -268.55219 -155.98804
35.806957 -277.50394 -155.98802
35.807098 -286.45682 -155.98372
35.807243 -295.40979 -155.97939
35.807243 -304.3616 -155.9794
35.807388 -313.3147 -155.97502
35.807388 -322.26651 -155.97505
35.807529 -331.2197 -155.97072
35.807674 -340.17294 -155.96643
35.807674 -349.12485 -155.9664
35.807816 -358.07822 -155.96208
35.807957 -367.03162 -155.95778
35.807957 -375.98358 -155.95779
35.808102 -384.93713 -155.95346
35.808247 -393.89072 -155.94916
35.820698 -402.98288 -155.57338
46.134323 461.3432 -122.7774
46.134323 452.11639 -122.7774
46.134518 442.89133 -122.77278
46.134518 433.66443 -122.7728
46.134705 424.4393 -122.76823
46.134705 415.21234 -122.7682
46.134518 405.98373 -122.77278
46.134518 396.75681 -122.7728
46.134518 387.52988 -122.7728
46.134518 378.30307 -122.7728
46.134323 369.07455 -122.77739
46.134323 359.84772 -122.77739
46.134323 350.62088 -122.77736
46.134136 341.39264 -122.78197
46.134136 332.1658 -122.78197
46.134136 322.93896 -122.78197
46.133945 313.71082 -122.78656
46.133945 304.48398 -122.78655
46.133945 295.2572 -122.78661
46.133759 286.02924 -122.79118
46.133759 276.80252 -122.79111
46.133759 267.57571 -122.79117
46.133564 258.34793 -122.79572
46.133564 249.12123 -122.79573
46.133564 239.89455 -122.79576
46.133377 230.66689 -122.80035
46.133377 221.44019 -122.80037
46.133377 212.21349 -122.80029
46.133186 202.98599 -122.80488
46.133186 193.75935 -122.80489
46.133186 184.5327 -122.80489
46.132996 175.30534 -122.8095
46.132996 166.07874 -122.80948
46.132996 156.85217 -122.80954
46.132805 147.62494 -122.81408
46.132805 138.39844 -122.81412
46.132805 129.17181 -122.81409
46.132618 119.94476 -122.81863
46.132618 110.71824 -122.81867
46.132618 101.49177 -122.81869
46.132427 92.264832 -122.82326
46.132236 83.037987 -122.82778
46.132046 73.811287 -122.83246
46.132046 64.584846 -122.83244
46.131855 55.358177 -122.83697
46.131668 46.131649 -122.84164
45.073853 36.059063 -148.37949
45.033627 27.020161 -149.35062
45.033627 18.013412 -149.35059
45.03381 9.0067444 -149.34622
45.033989 -4.9520546e-05 -149.34183
45.033989 -9.0068398 -149.34183
45.034172 -18.013718 -149.33748
45.034351 -27.020649 -149.33305
45.034351 -36.027515 -149.33311
45.034531 -45.034569 -149.32875
45.034714 -54.041714 -149.32434
45.034714 -63.048637 -149.32433
45.034897 -72.05587 -149.31996
45.034897 -81.062866 -149.31998
45.035076 -90.070168 -149.31567
45.035255 -99.077614 -149.31122
45.035255 -108.08466 -149.31126
45.035439 -117.0922 -149.30687
45.035618 -126.09976 -149.30251
45.035618 -135.1069 -149.30249
45.035801 -144.11455 -149.29817
45.035984 -153.12239 -149.29373
45.035984 -162.12956 -149.29375
45.036163 -171.13748 -149.28937
45.036343 -180.1454 -149.28499
45.036343 -189.15266 -149.28505
45.036526 -198.16075 -149.28067
45.036526 -207.16806 -149.28065
45.036705 -216.17621 -149.27629
45.036884 -225.18448 -149.27191
45.036884 -234.19185 -149.27193
45.037067 -243.20018 -149.26758
45.037251 -252.20863 -149.26318
45.037251 -261.21609 -149.26315
45.03743 -270.22461 -149.25879
45.037609 -279.23325 -149.25439
45.037609 -288.24075 -149.25439
45.037792 -297.24945 -149.25005
45.037971 -306.25824 -149.24564
45.037971 -315.26584 -149.24568
45.038155 -324.27472 -149.24133
45.038155 -333.28238 -149.2413
45.038338 -342.29138 -149.23692
45.038517 -351.30045 -149.23257
45.038517 -360.30817 -149.23257
45.038696 -369.31735 -149.22818
45.038876 -378.3266 -149.22383
45.038876 -387.33438 -149.22379
55.70784 464.23199 -115.80334
55.70784 454.94733 -115.80336
55.708069 445.66455 -115.79867
55.708069 436.37991 -115.79866
55.708305 427.09698 -115.79401
55.708305 417.81226 -115.79407
55.708305 408.5275 -115.79405
55.708305 399.24283 -115.79404
55.708305 389.95807 -115.79404
55.708069 380.67178 -115.79871
55.708069 371.38712 -115.79869
55.708069 362.10248 -115.7987
55.70784 352.81628 -115.80334
55.70784 343.53165 -115.80334
55.70784 334.24698 -115.80332
55.707615 324.961 -115.80798
55.707615 315.67645 -115.80795
55.707615 306.39182 -115.80799
55.707615 297.10727 -115.80796
55.707378 287.82144 -115.81264
55.707378 278.53687 -115.81258
55.707378 269.25232 -115.81256
55.70715 259.96664 -115.8173
55.70715 250.68213 -115.81726
55.70715 241.39758 -115.81724
55.706917 232.11215 -115.82194
55.706917 222.82765 -115.82188
55.706917 213.5432 -115.82193
55.706688 204.25786 -115.82658
55.706688 194.97334 -115.82653
55.706688 185.68893 -115.82655
55.706455 176.40376 -115.8312
55.706455 167.11934 -115.8312
55.706455 157.83493 -115.83123
55.706226 148.54988 -115.8358
55.706226 139.26556 -115.83587
55.706226 129.98119 -115.83586
55.705994 120.69627 -115.84046
55.705994 111.41198 -115.84051
55.705994 102.12765 -115.84048
55.705765 92.842911 -115.84509
55.705536 83.558266 -115.84976
55.705299 74.273697 -115.85438
55.705299 64.989494 -115.85437
55.705074 55.705025 -115.85905
54.546219 45.455147 -139.17332
54.378746 36.25248 -142.54265
54.378971 27.18947 -142.53822
54.379185 18.126358 -142.53372
54.379185 9.0631819 -142.53378
54.37941 -7.729961e-06 -142.52934
54.379631 -9.0632792 -142.52493
54.379631 -18.126541 -142.52493
54.379845 -27.189945 -142.52051
54.38007 -36.253391 -142.5161
54.38007 -45.31675 -142.51605
54.380283 -54.380329 -142.51163
54.380508 -63.443947 -142.50722
54.380508 -72.507385 -142.50722
54.38073 -81.571136 -142.50278
54.38073 -90.634575 -142.50278
54.380947 -99.698402 -142.49838
54.381168 -108.76237 -142.49396
54.381168 -117.8259 -142.4939
54.38139 -126.88995 -142.48953
54.381607 -135.95404 -142.48508
54.381607 -145.01765 -142.48508
54.381828 -154.08186 -142.4807
54.38205 -163.14615 -142.47624
54.38205 -172.20988 -142.4762
54.382267 -181.27423 -142.47179
54.382488 -190.33876 -142.46738
54.382488 -199.40251 -142.46733
54.382706 -208.46707 -142.46295
54.382706 -217.53087 -142.46294
54.382927 -226.59555 -142.45851
54.383148 -235.66037 -142.45406
54.383148 -244.72421 -142.45409
54.383366 -253.78908 -142.44965
54.383587 -262.85403 -142.44527
54.383587 -271.91797 -142.44525
54.383808 -280.98303 -142.44083
54.384026 -290.04819 -142.43636
54.384026 -299.11221 -142.43637
54.384247 -308.17743 -142.43195
54.384472 -317.24274 -142.42757
54.384472 -326.30685 -142.42752
54.384686 -335.37228 -142.4231
54.384686 -344.43643 -142.42308
54.384911 -353.50195 -142.41872
54.385124 -362.56754 -142.41429
54.385124 -371.63174 -142.41431
54.385345 -380.69748 -142.40985
65.402 467.15717 -108.74138
65.402 457.814 -108.74139
65.402275 448.47269 -108.73669
65.402275 439.12955 -108.73669
65.40255 429.78818 -108.73195
65.40255 420.44492 -108.73196
65.402817 411.10349 -108.72723
65.402817 401.76019 -108.72724
65.402817 392.41693 -108.72727
65.40255 383.07205 -108.73199
65.40255 373.72888 -108.73197
65.40255 364.38559 -108.73197
65.402275 355.04095 -108.73666
65.402275 345.69769 -108.73669
65.402275 336.35452 -108.73669
65.402 327.00998 -108.74139
65.402 317.66681 -108.74139
65.402 308.32373 -108.74135
65.401733 298.97931 -108.74608
65.401733 289.6362 -108.74613
65.401733 280.29315 -108.74612
65.401459 270.94891 -108.75079
65.401459 261.60587 -108.75077
65.401459 252.26273 -108.75083
65.401184 242.91866 -108.7555
65.401184 233.57567 -108.75547
65.401184 224.2326 -108.75546
65.400917 214.88869 -108.76017
65.400917 205.54572 -108.76022
65.400917 196.2027 -108.76019
65.400917 186.8597 -108.76016
65.400642 177.51599 -108.76485
65.400642 168.17302 -108.76489
65.400642 158.83011 -108.76492
65.400368 149.48653 -108.76965
65.400368 140.1436 -108.76956
65.400368 130.80067 -108.76958
65.400093 121.45728 -108.77431
65.400093 112.11444 -108.77428
65.400093 102.77156 -108.77428
65.399818 93.428291 -108.77905
65.399544 84.085144 -108.78372
65.399277 74.741989 -108.7884
65.399277 65.399246 -108.78844
64.397903 55.198193 -126.0565
63.8419 45.601349 -135.64438
63.842159 36.481201 -135.63988
63.842159 27.360901 -135.63989
63.842422 18.240623 -135.63538
63.842682 9.1203585 -135.63097
63.842682 -2.9899318e-05 -135.63092
63.842941 -9.1204348 -135.62648
63.843197 -18.240919 -135.62198
63.843197 -27.361399 -135.62198
63.843464 -36.482018 -135.61745
63.843719 -45.602722 -135.61298
63.843719 -54.723236 -135.61299
63.843979 -63.843979 -135.60854
63.843979 -72.964584 -135.60852
63.844242 -82.085457 -135.60402
63.844501 -91.206474 -135.5995
63.844501 -100.32712 -135.59952
63.844761 -109.4482 -135.59505
63.845016 -118.56934 -135.59061
63.845016 -127.69009 -135.59055
63.845284 -136.81134 -135.58607
63.845539 -145.93269 -135.58165
63.845539 -155.05347 -135.58162
63.845798 -164.17494 -135.57716
63.846058 -173.29648 -135.57262
63.846058 -182.41734 -135.57265
63.846321 -191.53899 -135.56818
63.846581 -200.66074 -135.56367
63.846581 -209.78163 -135.56372
63.846836 -218.90352 -135.55917
63.846836 -228.02444 -135.55923
63.847103 -237.14639 -135.55473
63.847359 -246.2684 -135.55026
63.847359 -255.38948 -135.5502
63.847618 -264.5116 -135.54579
63.847878 -273.63385 -135.54124
63.847878 -282.75491 -135.54129
63.848141 -291.87726 -135.5368
63.8484 -300.99963 -135.53233
63.8484 -310.12082 -135.53232
63.848656 -319.24332 -135.52782
63.848923 -328.36591 -135.52338
63.848923 -337.48718 -135.52333
