# .PCD v0.7 - Point Cloud Data file format
VERSION 0.7
FIELDS x y z
SIZE 4 4 4
TYPE F F F
COUNT 1 1 1
WIDTH 1479
HEIGHT 1
VIEWPOINT 0 0 0 1 0 0 0
POINTS 1479
DATA ascii
-5.9067559 -0.63856828 -7.1978502
-5.9067559 -0.79820979 -7.1978507
-5.918097 -0.95969135 -7.1608515
-5.9286146 -1.1216295 -7.1265378
-5.9391699 -1.2841452 -7.092103
-5.9497628 -1.4472394 -7.0575438
-5.9603934 -1.6109171 -7.022862
-5.9747767 -1.7762849 -6.9759378
-6.0153708 -1.9509315 -6.8435016
-6.0153708 -2.1135082 -6.8435025
-6.0153708 -2.2760856 -6.8435025
-6.0153708 -2.4386635 -6.843503
-6.0153708 -2.6012406 -6.8435025
-6.0153708 -2.7638185 -6.8435025
-6.0153708 -2.9263959 -6.8435025
-6.0153708 -3.0889738 -6.8435025
-6.0153708 -3.2515514 -6.8435035
-6.0153708 -3.4141285 -6.843503
-6.0153708 -3.5767064 -6.843503
-6.0153708 -3.7392838 -6.843503
-6.0153708 -3.9018624 -6.8435011
-6.0153708 -4.0644398 -6.8435011
-6.0153708 -4.2270179 -6.8435011
-6.0153708 -4.389595 -6.8435011
-6.0153708 -4.5521727 -6.8435011
-6.0153708 -4.7147503 -6.8435016
-6.0153708 -4.8773279 -6.8435016
-5.965343 -4.9979897 -7.0067158
-5.9554329 -5.1506448 -7.0390463
-5.9455752 -5.3028102 -7.0712061
-5.9357505 -5.4544735 -7.1032591
-5.9259391 -5.6056166 -7.1352692
-5.9159098 -5.756021 -7.1679864
-5.9067373 -5.9067378 -7.1979132
-5.9067373 -6.0663786 -7.1979132
-5.9067373 -6.2260199 -7.1979132
-5.9067373 -6.3856616 -7.1979136
-5.9067373 -6.5453043 -7.1979127
-5.9067373 -6.7049456 -7.1979127
-5.9067373 -6.8645864 -7.1979127
-5.9389191 -7.0624981 -7.0929227
-5.8996139 -7.1752067 -7.2211523
-5.8915181 -7.3245912 -7.2475629
-5.8915181 -7.4838204 -7.2475624
-5.8915181 -7.6430511 -7.2475624
-5.8915181 -7.8022814 -7.2475624
-5.7480822 7.8237777 -7.1946068
-5.7470956 7.6627941 -7.1979132
-5.7470956 7.5031528 -7.1979136
-5.7470956 7.3435116 -7.1979141
-5.7470956 7.1838698 -7.1979132
-5.7470956 7.0242281 -7.1979141
-5.7470956 6.8645864 -7.1979122
-5.7470956 6.7049446 -7.1979132
-5.760428 6.5604877 -7.1532092
-5.7699566 6.4110632 -7.1212578
-5.7794981 6.2611232 -7.0892649
-5.7890716 6.1106873 -7.0571647
-5.7986956 5.9597707 -7.0248952
-5.808713 5.808713 -6.9913063
-5.8527927 5.6902156 -6.843502
-5.8527927 5.5276384 -6.843502
-5.8527927 5.3650603 -6.8435025
-5.8527927 5.2024827 -6.8435025
-5.8527927 5.0399055 -6.843502
-5.8527927 4.8773274 -6.8435025
-5.8527927 4.7147498 -6.8435025
-5.8527927 4.5521727 -6.843502
-5.8527927 4.389595 -6.843502
-5.8527927 4.2270169 -6.8435025
-5.8527927 4.0644398 -6.843502
-5.8527927 3.9018624 -6.843502
-5.8527927 3.7392843 -6.843503
-5.8527927 3.5767069 -6.8435025
-5.8527927 3.4141297 -6.8435025
-5.8527927 3.2515523 -6.843502
-5.8527927 3.088974 -6.8435025
-5.8527927 2.9263966 -6.8435025
-5.8527927 2.7638195 -6.843502
-5.8057685 2.5803418 -7.0011787
-5.7952509 2.4146879 -7.0364461
-5.78479 2.2496402 -7.0715213
-5.7743669 2.0851879 -7.1064711
-5.7639813 1.921327 -7.141294
-5.7470956 1.756057 -7.1979127
-5.7470956 1.5964153 -7.1979132
-5.7470956 1.4367744 -7.1979132
-5.7470956 1.2771322 -7.1979132
-5.7470956 1.1174914 -7.1979132
-5.7470956 0.95784891 -7.1979132
-5.7470956 0.798208 -7.1979132
-5.7471142 0.63856858 -7.1978512
-5.7827172 0.48189318 -7.0784707
-5.7685695 0.32047668 -7.1259098
-5.7471142 0.15964206 -7.1978512
-5.7471142 -1.5199248e-07 -7.1978507
-5.7471142 -0.15964235 -7.1978507
-5.7471142 -0.31928405 -7.1978512
-5.7471142 -0.47892672 -7.1978507
-5.7471142 -0.63856828 -7.1978502
-5.7471142 -0.79820979 -7.1978507
-5.7581487 -0.95969135 -7.1608515
-5.7683821 -1.1216295 -7.1265378
-5.7786517 -1.2841452 -7.092103
-5.7889585 -1.4472394 -7.0575438
-5.7993016 -1.6109171 -7.022862
-5.8132963 -1.7762849 -6.9759378
-5.8527927 -1.9509315 -6.8435016
-5.8527927 -2.1135082 -6.8435025
-5.8527927 -2.2760856 -6.8435025
-5.8527927 -2.4386635 -6.843503
-5.8527927 -2.6012406 -6.8435025
-5.8527927 -2.7638185 -6.8435025
-5.8527927 -2.9263959 -6.8435025
-5.8527927 -3.0889738 -6.8435025
-5.8527927 -3.2515514 -6.8435035
-5.8527927 -3.4141285 -6.843503
-5.8527927 -3.5767064 -6.843503
-5.8527927 -3.7392838 -6.843503
-5.8527927 -3.9018624 -6.8435011
-5.8527927 -4.0644398 -6.8435011
-5.8527927 -4.2270179 -6.8435011
-5.8527927 -4.389595 -6.8435011
-5.8527927 -4.5521727 -6.8435011
-5.8527927 -4.7147503 -6.8435016
-5.8527927 -4.8773279 -6.8435016
-5.8041177 -4.9979897 -7.0067158
-5.7944756 -5.1506448 -7.0390463
-5.784884 -5.3028102 -7.0712061
-5.7753248 -5.4544735 -7.1032591
-5.7657785 -5.6056166 -7.1352692
-5.7560205 -5.756021 -7.1679864
-5.7470956 -5.9067378 -7.1979132
-5.7470956 -6.0663786 -7.1979132
-5.7470956 -6.2260199 -7.1979132
-5.7470956 -6.3856616 -7.1979136
-5.7470956 -6.5453043 -7.1979127
-5.7470956 -6.7049456 -7.1979127
-5.7470956 -6.8645864 -7.1979127
-5.7784076 -7.0624981 -7.0929227
-5.7401652 -7.1752067 -7.2211523
-5.7322884 -7.3245912 -7.2475629
-5.7322884 -7.4838204 -7.2475624
-5.7322884 -7.6430511 -7.2475624
-5.7322884 -7.8022814 -7.2475624
-5.5884128 7.8237777 -7.1946068
-5.5874543 7.6627941 -7.1979132
-5.5874543 7.5031528 -7.1979136
-5.5874543 7.3435116 -7.1979141
-5.5874543 7.1838698 -7.1979132
-5.5874543 7.0242281 -7.1979141
-5.5874543 6.8645864 -7.1979122
-5.5874543 6.7049446 -7.1979132
-5.6004162 6.5604877 -7.1532092
-5.6096802 6.4110632 -7.1212578
-5.6189566 6.2611232 -7.0892649
-5.628264 6.1106873 -7.0571647
-5.6376204 5.9597707 -7.0248952
-5.6473594 5.808713 -6.9913063
-5.6902156 5.6902156 -6.843502
-5.6902156 5.5276384 -6.843502
-5.6902156 5.3650603 -6.8435025
-5.6902156 5.2024827 -6.8435025
-5.6902156 5.0399055 -6.843502
-5.6902156 4.8773274 -6.8435025
-5.6902156 4.7147498 -6.8435025
-5.6902156 4.5521727 -6.843502
-5.6902156 4.389595 -6.843502
-5.6902156 4.2270169 -6.8435025
-5.6902156 4.0644398 -6.843502
-5.6902156 3.9018624 -6.843502
-5.6902156 3.7392843 -6.843503
-5.6902156 3.5767069 -6.8435025
-5.6902156 3.4141297 -6.8435025
-5.6902156 3.2515523 -6.843502
-5.6902156 3.088974 -6.8435025
-5.6902156 2.9263966 -6.8435025
-5.6902156 2.7638195 -6.843502
-5.6444969 2.5803418 -7.0011787
-5.6342716 2.4146879 -7.0364461
-5.6241012 2.2496402 -7.0715213
-5.6139679 2.0851879 -7.1064711
-5.6038704 1.921327 -7.141294
-5.5874543 1.756057 -7.1979127
-5.5874543 1.5964153 -7.1979132
-5.5874543 1.4367744 -7.1979132
-5.5874543 1.2771322 -7.1979132
-5.5874543 1.1174914 -7.1979132
-5.5874543 0.95784891 -7.1979132
-5.5874543 0.798208 -7.1979132
-5.587472 0.63856858 -7.1978512
-5.622086 0.48189318 -7.0784707
-5.6083317 0.32047668 -7.1259098
-5.587472 0.15964206 -7.1978512
-5.587472 -1.5199248e-07 -7.1978507
-5.587472 -0.15964235 -7.1978507
-5.587472 -0.31928405 -7.1978512
-5.587472 -0.47892672 -7.1978507
-5.587472 -0.63856828 -7.1978502
-5.587472 -0.79820979 -7.1978507
-5.5982003 -0.95969135 -7.1608515
-5.6081491 -1.1216295 -7.1265378
-5.618134 -1.2841452 -7.092103
-5.6281538 -1.4472394 -7.0575438
-5.6382103 -1.6109171 -7.022862
-5.6518159 -1.7762849 -6.9759378
-5.6902156 -1.9509315 -6.8435016
-5.6902156 -2.1135082 -6.8435025
-5.6902156 -2.2760856 -6.8435025
-5.6902156 -2.4386635 -6.843503
-5.6902156 -2.6012406 -6.8435025
-5.6902156 -2.7638185 -6.8435025
-5.6902156 -2.9263959 -6.8435025
-5.6902156 -3.0889738 -6.8435025
-5.6902156 -3.2515514 -6.8435035
-5.6902156 -3.4141285 -6.843503
-5.6902156 -3.5767064 -6.843503
-5.6902156 -3.7392838 -6.843503
-5.6902156 -3.9018624 -6.8435011
-5.6902156 -4.0644398 -6.8435011
-5.6902156 -4.2270179 -6.8435011
-5.6902156 -4.389595 -6.8435011
-5.6902156 -4.5521727 -6.8435011
-5.6902156 -4.7147503 -6.8435016
-5.6902156 -4.8773279 -6.8435016
-5.6428914 -4.9979897 -7.0067158
-5.6335177 -5.1506448 -7.0390463
-5.6241932 -5.3028102 -7.0712061
-5.6148992 -5.4544735 -7.1032591
-5.6056175 -5.6056166 -7.1352692
-5.5961308 -5.756021 -7.1679864
-5.5874543 -5.9067378 -7.1979132
-5.5874543 -6.0663786 -7.1979132
-5.5874543 -6.2260199 -7.1979132
-5.5874543 -6.3856616 -7.1979136
-5.5874543 -6.5453043 -7.1979127
-5.5874543 -6.7049456 -7.1979127
-5.5874543 -6.8645864 -7.1979127
-5.6178961 -7.0624981 -7.0929227
-5.5807161 -7.1752067 -7.2211523
-5.5730581 -7.3245912 -7.2475629
-5.5730581 -7.4838204 -7.2475624
-5.5730581 -7.6430511 -7.2475624
-5.5730581 -7.8022814 -7.2475624
-5.4287443 7.8237777 -7.1946068
-5.4278126 7.6627941 -7.1979132
-5.4278126 7.5031528 -7.1979136
-5.4278126 7.3435116 -7.1979141
-5.4278126 7.1838698 -7.1979132
-5.4278126 7.0242281 -7.1979141
-5.4278126 6.8645864 -7.1979122
-5.4278126 6.7049446 -7.1979132
-5.4404044 6.5604877 -7.1532092
-5.4494038 6.4110632 -7.1212578
-5.458415 6.2611232 -7.0892649
-5.4674563 6.1106873 -7.0571647
-5.4765458 5.9597707 -7.0248952
-5.4860063 5.808713 -6.9913063
-5.5276375 5.6902156 -6.843502
-5.5276375 5.5276384 -6.843502
-5.5276375 5.3650603 -6.8435025
-5.5276375 5.2024827 -6.8435025
-5.5276375 5.0399055 -6.843502
-5.5276375 4.8773274 -6.8435025
-5.5276375 4.7147498 -6.8435025
-5.5276375 4.5521727 -6.843502
-5.5276375 4.389595 -6.843502
-5.5276375 4.2270169 -6.8435025
-5.5276375 4.0644398 -6.843502
-5.5276375 3.9018624 -6.843502
-5.5276375 3.7392843 -6.843503
-5.5276375 3.5767069 -6.8435025
-5.5276375 3.4141297 -6.8435025
-5.5276375 3.2515523 -6.843502
-5.5276375 3.088974 -6.8435025
-5.5276375 2.9263966 -6.8435025
-5.5276375 2.7638195 -6.843502
-5.4832253 2.5803418 -7.0011787
-5.4732928 2.4146879 -7.0364461
-5.4634128 2.2496402 -7.0715213
-5.4535685 2.0851879 -7.1064711
-5.4437599 1.921327 -7.141294
-5.4278126 1.756057 -7.1979127
-5.4278126 1.5964153 -7.1979132
-5.4278126 1.4367744 -7.1979132
-5.4278126 1.2771322 -7.1979132
-5.4278126 1.1174914 -7.1979132
-5.4278126 0.95784891 -7.1979132
-5.4278126 0.798208 -7.1979132
-5.4278297 0.63856858 -7.1978512
-5.4614553 0.48189318 -7.0784707
-5.4480934 0.32047668 -7.1259098
-5.4278297 0.15964206 -7.1978512
-5.4278297 -1.5199248e-07 -7.1978507
-5.4278297 -0.15964235 -7.1978507
-5.4278297 -0.31928405 -7.1978512
-5.4278297 -0.47892672 -7.1978507
-5.4278297 -0.63856828 -7.1978502
-5.4278297 -0.79820979 -7.1978507
-5.4382515 -0.95969135 -7.1608515
-5.447916 -1.1216295 -7.1265378
-5.4576154 -1.2841452 -7.092103
-5.4673495 -1.4472394 -7.0575438
-5.477118 -1.6109171 -7.022862
-5.4903355 -1.7762849 -6.9759378
-5.5276375 -1.9509315 -6.8435016
-5.5276375 -2.1135082 -6.8435025
-5.5276375 -2.2760856 -6.8435025
-5.5276375 -2.4386635 -6.843503
-5.5276375 -2.6012406 -6.8435025
-5.5276375 -2.7638185 -6.8435025
-5.5276375 -2.9263959 -6.8435025
-5.5276375 -3.0889738 -6.8435025
-5.5276375 -3.2515514 -6.8435035
-5.5276375 -3.4141285 -6.843503
-5.5276375 -3.5767064 -6.843503
-5.5276375 -3.7392838 -6.843503
-5.5276375 -3.9018624 -6.8435011
-5.5276375 -4.0644398 -6.8435011
-5.5276375 -4.2270179 -6.8435011
-5.5276375 -4.389595 -6.8435011
-5.5276375 -4.5521727 -6.8435011
-5.5276375 -4.7147503 -6.8435016
-5.5276375 -4.8773279 -6.8435016
-5.4816661 -4.9979897 -7.0067158
-5.4725599 -5.1506448 -7.0390463
-5.4635019 -5.3028102 -7.0712061
-5.454473 -5.4544735 -7.1032591
-5.445457 -5.6056166 -7.1352692
-5.4362416 -5.756021 -7.1679864
-5.4278126 -5.9067378 -7.1979132
-5.4278126 -6.0663786 -7.1979132
-5.4278126 -6.2260199 -7.1979132
-5.4278126 -6.3856616 -7.1979136
-5.4278126 -6.5453043 -7.1979127
-5.4278126 -6.7049456 -7.1979127
-5.4278126 -6.8645864 -7.1979127
-5.4573851 -7.0624981 -7.0929227
-5.4212666 -7.1752067 -7.2211523
-5.4138279 -7.3245912 -7.2475629
-5.4138279 -7.4838204 -7.2475624
-5.4138279 -7.6430511 -7.2475624
-5.4138279 -7.8022814 -7.2475624
-5.2690749 7.8237777 -7.1946068
-5.2681713 7.6627941 -7.1979132
-5.2681713 7.5031528 -7.1979136
-5.2681713 7.3435116 -7.1979141
-5.2681713 7.1838698 -7.1979132
-5.2681713 7.0242281 -7.1979141
-5.2681713 6.8645864 -7.1979122
-5.2681713 6.7049446 -7.1979132
-5.2803922 6.5604877 -7.1532092
-5.2891269 6.4110632 -7.1212578
-5.297874 6.2611232 -7.0892649
-5.3066487 6.1106873 -7.0571647
-5.3154707 5.9597707 -7.0248952
-5.3246536 5.808713 -6.9913063
-5.3650603 5.6902156 -6.843502
-5.3650603 5.5276384 -6.843502
-5.3650603 5.3650603 -6.8435025
-5.3650603 5.2024827 -6.8435025
-5.3650603 5.0399055 -6.843502
-5.3650603 4.8773274 -6.8435025
-5.3650603 4.7147498 -6.8435025
-5.3650603 4.5521727 -6.843502
-5.3650603 4.389595 -6.843502
-5.3650603 4.2270169 -6.8435025
-5.3650603 4.0644398 -6.843502
-5.3650603 3.9018624 -6.843502
-5.3650603 3.7392843 -6.843503
-5.3650603 3.5767069 -6.8435025
-5.3650603 3.4141297 -6.8435025
-5.3650603 3.2515523 -6.843502
-5.3650603 3.088974 -6.8435025
-5.3650603 2.9263966 -6.8435025
-5.3650603 2.7638195 -6.843502
-5.3219543 2.5803418 -7.0011787
-5.3123131 2.4146879 -7.0364461
-5.3027239 2.2496402 -7.0715213
-5.2931695 2.0851879 -7.1064711
-5.2836494 1.921327 -7.141294
-5.2681713 1.756057 -7.1979127
-5.2681713 1.5964153 -7.1979132
-5.2681713 1.4367744 -7.1979132
-5.2681713 1.2771322 -7.1979132
-5.2681713 1.1174914 -7.1979132
-5.2681713 0.95784891 -7.1979132
-5.2681713 0.798208 -7.1979132
-5.268188 0.63856858 -7.1978512
-5.3008242 0.48189318 -7.0784707
-5.2878551 0.32047668 -7.1259098
-5.268188 0.15964206 -7.1978512
-5.268188 -1.5199248e-07 -7.1978507
-5.268188 -0.15964235 -7.1978507
-5.268188 -0.31928405 -7.1978512
-5.268188 -0.47892672 -7.1978507
-5.268188 -0.63856828 -7.1978502
-5.268188 -0.79820979 -7.1978507
-5.2783031 -0.95969135 -7.1608515
-5.2876835 -1.1216295 -7.1265378
-5.2970977 -1.2841452 -7.092103
-5.3065453 -1.4472394 -7.0575438
-5.3160267 -1.6109171 -7.022862
-5.328855 -1.7762849 -6.9759378
-5.3650603 -1.9509315 -6.8435016
-5.3650603 -2.1135082 -6.8435025
-5.3650603 -2.2760856 -6.8435025
-5.3650603 -2.4386635 -6.843503
-5.3650603 -2.6012406 -6.8435025
-5.3650603 -2.7638185 -6.8435025
-5.3650603 -2.9263959 -6.8435025
-5.3650603 -3.0889738 -6.8435025
-5.3650603 -3.2515514 -6.8435035
-5.3650603 -3.4141285 -6.843503
-5.3650603 -3.5767064 -6.843503
-5.3650603 -3.7392838 -6.843503
-5.3650603 -3.9018624 -6.8435011
-5.3650603 -4.0644398 -6.8435011
-5.3650603 -4.2270179 -6.8435011
-5.3650603 -4.389595 -6.8435011
-5.3650603 -4.5521727 -6.8435011
-5.3650603 -4.7147503 -6.8435016
-5.3650603 -4.8773279 -6.8435016
-5.3204408 -4.9979897 -7.0067158
-5.3116026 -5.1506448 -7.0390463
-5.3028107 -5.3028102 -7.0712061
-5.2940478 -5.4544735 -7.1032591
-5.2852964 -5.6056166 -7.1352692
-5.2763519 -5.756021 -7.1679864
-5.2681713 -5.9067378 -7.1979132
-5.2681713 -6.0663786 -7.1979132
-5.2681713 -6.2260199 -7.1979132
-5.2681713 -6.3856616 -7.1979136
-5.2681713 -6.5453043 -7.1979127
-5.2681713 -6.7049456 -7.1979127
-5.2681713 -6.8645864 -7.1979127
-5.2968736 -7.0624981 -7.0929227
-5.2618179 -7.1752067 -7.2211523
-5.2545972 -7.3245912 -7.2475629
-5.2545972 -7.4838204 -7.2475624
-5.2545972 -7.6430511 -7.2475624
-5.2545972 -7.8022814 -7.2475624
-5.109406 7.8237777 -7.1946068
-5.1085296 7.6627941 -7.1979132
-5.1085296 7.5031528 -7.1979136
-5.1085296 7.3435116 -7.1979141
-5.1085296 7.1838698 -7.1979132
-5.1085296 7.0242281 -7.1979141
-5.1085296 6.8645864 -7.1979122
-5.1085296 6.7049446 -7.1979132
-5.1203804 6.5604877 -7.1532092
-5.1288505 6.4110632 -7.1212578
-5.137332 6.2611232 -7.0892649
-5.1458416 6.1106873 -7.0571647
-5.1543961 5.9597707 -7.0248952
-5.1633 5.808713 -6.9913063
-5.2024827 5.6902156 -6.843502
-5.2024827 5.5276384 -6.843502
-5.2024827 5.3650603 -6.8435025
-5.2024827 5.2024827 -6.8435025
-5.2024827 5.0399055 -6.843502
-5.2024827 4.8773274 -6.8435025
-5.2024827 4.7147498 -6.8435025
-5.2024827 4.5521727 -6.843502
-5.2024827 4.389595 -6.843502
-5.2024827 4.2270169 -6.8435025
-5.2024827 4.0644398 -6.843502
-5.2024827 3.9018624 -6.843502
-5.2024827 3.7392843 -6.843503
-5.2024827 3.5767069 -6.8435025
-5.2024827 3.4141297 -6.8435025
-5.2024827 3.2515523 -6.843502
-5.2024827 3.088974 -6.8435025
-5.2024827 2.9263966 -6.8435025
-5.2024827 2.7638195 -6.843502
-5.1606832 2.5803418 -7.0011787
-5.1513338 2.4146879 -7.0364461
-5.1420355 2.2496402 -7.0715213
-5.1327705 2.0851879 -7.1064711
-5.123539 1.921327 -7.141294
-5.1085296 1.756057 -7.1979127
-5.1085296 1.5964153 -7.1979132
-5.1085296 1.4367744 -7.1979132
-5.1085296 1.2771322 -7.1979132
-5.1085296 1.1174914 -7.1979132
-5.1085296 0.95784891 -7.1979132
-5.1085296 0.798208 -7.1979132
-5.1085458 0.63856858 -7.1978512
-5.140193 0.48189318 -7.0784707
-5.1276174 0.32047668 -7.1259098
-5.1085458 0.15964206 -7.1978512
-5.1085458 -1.5199248e-07 -7.1978507
-5.1085458 -0.15964235 -7.1978507
-5.1085458 -0.31928405 -7.1978512
-5.1085458 -0.47892672 -7.1978507
-5.1085458 -0.63856828 -7.1978502
-5.1085458 -0.79820979 -7.1978507
-5.1183548 -0.95969135 -7.1608515
-5.1274505 -1.1216295 -7.1265378
-5.136579 -1.2841452 -7.092103
-5.1457405 -1.4472394 -7.0575438
-5.1549349 -1.6109171 -7.022862
-5.1673746 -1.7762849 -6.9759378
-5.2024827 -1.9509315 -6.8435016
-5.2024827 -2.1135082 -6.8435025
-5.2024827 -2.2760856 -6.8435025
-5.2024827 -2.4386635 -6.843503
-5.2024827 -2.6012406 -6.8435025
-5.2024827 -2.7638185 -6.8435025
-5.2024827 -2.9263959 -6.8435025
-5.2024827 -3.0889738 -6.8435025
-5.2024827 -3.2515514 -6.8435035
-5.2024827 -3.4141285 -6.843503
-5.2024827 -3.5767064 -6.843503
-5.2024827 -3.7392838 -6.843503
-5.2024827 -3.9018624 -6.8435011
-5.2024827 -4.0644398 -6.8435011
-5.2024827 -4.2270179 -6.8435011
-5.2024827 -4.389595 -6.8435011
-5.2024827 -4.5521727 -6.8435011
-5.2024827 -4.7147503 -6.8435016
-5.2024827 -4.8773279 -6.8435016
-5.159215 -4.9979897 -7.0067158
-5.1506448 -5.1506448 -7.0390463
-5.1421194 -5.3028102 -7.0712061
-5.1336222 -5.4544735 -7.1032591
-5.1251364 -5.6056166 -7.1352692
-5.1164627 -5.756021 -7.1679864
-5.1085296 -5.9067378 -7.1979132
-5.1085296 -6.0663786 -7.1979132
-5.1085296 -6.2260199 -7.1979132
-5.1085296 -6.3856616 -7.1979136
-5.1085296 -6.5453043 -7.1979127
-5.1085296 -6.7049456 -7.1979127
-5.1085296 -6.8645864 -7.1979127
-5.1363621 -7.0624981 -7.0929227
-5.1023688 -7.1752067 -7.2211523
-5.0953674 -7.3245912 -7.2475629
-5.0953674 -7.4838204 -7.2475624
-5.0953674 -7.6430511 -7.2475624
-5.0953674 -7.8022814 -7.2475624
-4.9497371 7.8237777 -7.1946068
-4.9488878 7.6627941 -7.1979132
-4.9488878 7.5031528 -7.1979136
-4.9488878 7.3435116 -7.1979141
-4.9488878 7.1838698 -7.1979132
-4.9488878 7.0242281 -7.1979141
-4.9488878 6.8645864 -7.1979122
-4.9488878 6.7049446 -7.1979132
-4.9603682 6.5604877 -7.1532092
-4.968574 6.4110632 -7.1212578
-4.9767904 6.2611232 -7.0892649
-4.985034 6.1106873 -7.0571647
-4.9933209 5.9597707 -7.0248952
-5.0019469 5.808713 -6.9913063
-5.0399051 5.6902156 -6.843502
-5.0399051 5.5276384 -6.843502
-5.0399051 5.3650603 -6.8435025
-5.0399051 5.2024827 -6.8435025
-5.0399051 5.0399055 -6.843502
-5.0399051 4.8773274 -6.8435025
-5.0399051 4.7147498 -6.8435025
-5.0399051 4.5521727 -6.843502
-5.0399051 4.389595 -6.843502
-5.0399051 4.2270169 -6.8435025
-5.0399051 4.0644398 -6.843502
-5.0399051 3.9018624 -6.843502
-5.0399051 3.7392843 -6.843503
-5.0399051 3.5767069 -6.8435025
-5.0399051 3.4141297 -6.8435025
-5.0399051 3.2515523 -6.843502
-5.0399051 3.088974 -6.8435025
-5.0399051 2.9263966 -6.8435025
-5.0399051 2.7638195 -6.843502
-4.9994116 2.5803418 -7.0011787
-4.990355 2.4146879 -7.0364461
-4.9813466 2.2496402 -7.0715213
-4.9723711 2.0851879 -7.1064711
-4.963428 1.921327 -7.141294
-4.9488878 1.756057 -7.1979127
-4.9488878 1.5964153 -7.1979132
-4.9488878 1.4367744 -7.1979132
-4.9488878 1.2771322 -7.1979132
-4.9488878 1.1174914 -7.1979132
-4.9488878 0.95784891 -7.1979132
-4.9488878 0.798208 -7.1979132
-4.948904 0.63856858 -7.1978512
-4.9795623 0.48189318 -7.0784707
-4.9673796 0.32047668 -7.1259098
-4.948904 0.15964206 -7.1978512
-4.948904 -1.5199248e-07 -7.1978507
-4.948904 -0.15964235 -7.1978507
-4.948904 -0.31928405 -7.1978512
-4.948904 -0.47892672 -7.1978507
-4.948904 -0.63856828 -7.1978502
-4.948904 -0.79820979 -7.1978507
-4.9584055 -0.95969135 -7.1608515
-4.9672174 -1.1216295 -7.1265378
-4.9760613 -1.2841452 -7.092103
-4.9849362 -1.4472394 -7.0575438
-4.9938431 -1.6109171 -7.022862
-5.0058942 -1.7762849 -6.9759378
-5.0399051 -1.9509315 -6.8435016
-5.0399051 -2.1135082 -6.8435025
-5.0399051 -2.2760856 -6.8435025
-5.0399051 -2.4386635 -6.843503
-5.0399051 -2.6012406 -6.8435025
-5.0399051 -2.7638185 -6.8435025
-5.0399051 -2.9263959 -6.8435025
-5.0399051 -3.0889738 -6.8435025
-5.0399051 -3.2515514 -6.8435035
-5.0399051 -3.4141285 -6.843503
-5.0399051 -3.5767064 -6.843503
-5.0399051 -3.7392838 -6.843503
-5.0399051 -3.9018624 -6.8435011
-5.0399051 -4.0644398 -6.8435011
-5.0399051 -4.2270179 -6.8435011
-5.0399051 -4.389595 -6.8435011
-5.0399051 -4.5521727 -6.8435011
-5.0399051 -4.7147503 -6.8435016
-5.0399051 -4.8773279 -6.8435016
-4.9979897 -4.9979897 -7.0067158
-4.989687 -5.1506448 -7.0390463
-4.9814281 -5.3028102 -7.0712061
-4.973196 -5.4544735 -7.1032591
-4.9649758 -5.6056166 -7.1352692
-4.956573 -5.756021 -7.1679864
-4.9488878 -5.9067378 -7.1979132
-4.9488878 -6.0663786 -7.1979132
-4.9488878 -6.2260199 -7.1979132
-4.9488878 -6.3856616 -7.1979136
-4.9488878 -6.5453043 -7.1979127
-4.9488878 -6.7049456 -7.1979127
-4.9488878 -6.8645864 -7.1979127
-4.9758511 -7.0624981 -7.0929227
-4.9429197 -7.1752067 -7.2211523
-4.9361372 -7.3245912 -7.2475629
-4.9361372 -7.4838204 -7.2475624
-4.9361372 -7.6430511 -7.2475624
-4.9361372 -7.8022814 -7.2475624
-4.7900681 7.8237777 -7.1946068
-4.7892466 7.6627941 -7.1979132
-4.7892466 7.5031528 -7.1979136
-4.7892466 7.3435116 -7.1979141
-4.7892466 7.1838698 -7.1979132
-4.7892466 7.0242281 -7.1979141
-4.7892466 6.8645864 -7.1979122
-4.7892466 6.7049446 -7.1979132
-4.8003564 6.5604877 -7.1532092
-4.8082972 6.4110632 -7.1212578
-4.8162489 6.2611232 -7.0892649
-4.8242264 6.1106873 -7.0571647
-4.8322463 5.9597707 -7.0248952
-4.8405938 5.808713 -6.9913063
-4.8773274 5.6902156 -6.843502
-4.8773274 5.5276384 -6.843502
-4.8773274 5.3650603 -6.8435025
-4.8773274 5.2024827 -6.8435025
-4.8773274 5.0399055 -6.843502
-4.8773274 4.8773274 -6.8435025
-4.8773274 4.7147498 -6.8435025
-4.8773274 4.5521727 -6.843502
-4.8773274 4.389595 -6.843502
-4.8773274 4.2270169 -6.8435025
-4.8773274 4.0644398 -6.843502
-4.8773274 3.9018624 -6.843502
-4.8773274 3.7392843 -6.843503
-4.8773274 3.5767069 -6.8435025
-4.8773274 3.4141297 -6.8435025
-4.8773274 3.2515523 -6.843502
-4.8773274 3.088974 -6.8435025
-4.8773274 2.9263966 -6.8435025
-4.8773274 2.7638195 -6.843502
-4.8381405 2.5803418 -7.0011787
-4.8293753 2.4146879 -7.0364461
-4.8206582 2.2496402 -7.0715213
-4.8119726 2.0851879 -7.1064711
-4.8033175 1.921327 -7.141294
-4.7892466 1.756057 -7.1979127
-4.7892466 1.5964153 -7.1979132
-4.7892466 1.4367744 -7.1979132
-4.7892466 1.2771322 -7.1979132
-4.7892466 1.1174914 -7.1979132
-4.7892466 0.95784891 -7.1979132
-4.7892466 0.798208 -7.1979132
-4.7892618 0.63856858 -7.1978512
-4.8189311 0.48189318 -7.0784707
-4.8071413 0.32047668 -7.1259098
-4.7892618 0.15964206 -7.1978512
-4.7892618 -1.5199248e-07 -7.1978507
-4.7892618 -0.15964235 -7.1978507
-4.7892618 -0.31928405 -7.1978512
-4.7892618 -0.47892672 -7.1978507
-4.7892618 -0.63856828 -7.1978502
-4.7892618 -0.79820979 -7.1978507
-4.7984571 -0.95969135 -7.1608515
-4.8069854 -1.1216295 -7.1265378
-4.8155437 -1.2841452 -7.092103
-4.824132 -1.4472394 -7.0575438
-4.8327513 -1.6109171 -7.022862
-4.8444138 -1.7762849 -6.9759378
-4.8773274 -1.9509315 -6.8435016
-4.8773274 -2.1135082 -6.8435025
-4.8773274 -2.2760856 -6.8435025
-4.8773274 -2.4386635 -6.843503
-4.8773274 -2.6012406 -6.8435025
-4.8773274 -2.7638185 -6.8435025
-4.8773274 -2.9263959 -6.8435025
-4.8773274 -3.0889738 -6.8435025
-4.8773274 -3.2515514 -6.8435035
-4.8773274 -3.4141285 -6.843503
-4.8773274 -3.5767064 -6.843503
-4.8773274 -3.7392838 -6.843503
-4.8773274 -3.9018624 -6.8435011
-4.8773274 -4.0644398 -6.8435011
-4.8773274 -4.2270179 -6.8435011
-4.8773274 -4.389595 -6.8435011
-4.8773274 -4.5521727 -6.8435011
-4.8773274 -4.7147503 -6.8435016
-4.8773274 -4.8773279 -6.8435016
-4.8367643 -4.9979897 -7.0067158
-4.8287292 -5.1506448 -7.0390463
-4.8207369 -5.3028102 -7.0712061
-4.8127708 -5.4544735 -7.1032591
-4.8048153 -5.6056166 -7.1352692
-4.7966838 -5.756021 -7.1679864
-4.7892466 -5.9067378 -7.1979132
-4.7892466 -6.0663786 -7.1979132
-4.7892466 -6.2260199 -7.1979132
-4.7892466 -6.3856616 -7.1979136
-4.7892466 -6.5453043 -7.1979127
-4.7892466 -6.7049456 -7.1979127
-4.7892466 -6.8645864 -7.1979127
-4.8153396 -7.0624981 -7.0929227
-4.7834706 -7.1752067 -7.2211523
-4.776907 -7.3245912 -7.2475629
-4.776907 -7.4838204 -7.2475624
-4.776907 -7.6430511 -7.2475624
-4.776907 -7.8022814 -7.2475624
-4.6303992 7.8237777 -7.1946068
-4.6296048 7.6627941 -7.1979132
-4.6296048 7.5031528 -7.1979136
-4.6296048 7.3435116 -7.1979141
-4.6296048 7.1838698 -7.1979132
-4.6296048 7.0242281 -7.1979141
-4.6296048 6.8645864 -7.1979122
-4.6296048 6.7049446 -7.1979132
-4.6403446 6.5604877 -7.1532092
-4.6480207 6.4110632 -7.1212578
-4.6557074 6.2611232 -7.0892649
-4.6634188 6.1106873 -7.0571647
-4.6711712 5.9597707 -7.0248952
-4.6792412 5.808713 -6.9913063
-4.7147498 5.6902156 -6.843502
-4.7147498 5.5276384 -6.843502
-4.7147498 5.3650603 -6.8435025
-4.7147498 5.2024827 -6.8435025
-4.7147498 5.0399055 -6.843502
-4.7147498 4.8773274 -6.8435025
-4.7147498 4.7147498 -6.8435025
-4.7147498 4.5521727 -6.843502
-4.7147498 4.389595 -6.843502
-4.7147498 4.2270169 -6.8435025
-4.7147498 4.0644398 -6.843502
-4.7147498 3.9018624 -6.843502
-4.7147498 3.7392843 -6.843503
-4.7147498 3.5767069 -6.8435025
-4.7147498 3.4141297 -6.8435025
-4.7147498 3.2515523 -6.843502
-4.7147498 3.088974 -6.8435025
-4.7147498 2.9263966 -6.8435025
-4.7147498 2.7638195 -6.843502
-4.6768689 2.5803418 -7.0011787
-4.6683965 2.4146879 -7.0364461
-4.6599698 2.2496402 -7.0715213
-4.6515737 2.0851879 -7.1064711
-4.6432071 1.921327 -7.141294
-4.6296048 1.756057 -7.1979127
-4.6296048 1.5964153 -7.1979132
-4.6296048 1.4367744 -7.1979132
-4.6296048 1.2771322 -7.1979132
-4.6296048 1.1174914 -7.1979132
-4.6296048 0.95784891 -7.1979132
-4.6296048 0.798208 -7.1979132
-4.6296196 0.63856858 -7.1978512
-4.6583004 0.48189318 -7.0784707
-4.646903 0.32047668 -7.1259098
-4.6296196 0.15964206 -7.1978512
-4.6296196 -1.5199248e-07 -7.1978507
-4.6296196 -0.15964235 -7.1978507
-4.6296196 -0.31928405 -7.1978512
-4.6296196 -0.47892672 -7.1978507
-4.6296196 -0.63856828 -7.1978502
-4.6296196 -0.79820979 -7.1978507
-4.6385088 -0.95969135 -7.1608515
-4.6467524 -1.1216295 -7.1265378
-4.655025 -1.2841452 -7.092103
-4.6633272 -1.4472394 -7.0575438
-4.6716599 -1.6109171 -7.022862
-4.6829333 -1.7762849 -6.9759378
-4.7147498 -1.9509315 -6.8435016
-4.7147498 -2.1135082 -6.8435025
-4.7147498 -2.2760856 -6.8435025
-4.7147498 -2.4386635 -6.843503
-4.7147498 -2.6012406 -6.8435025
-4.7147498 -2.7638185 -6.8435025
-4.7147498 -2.9263959 -6.8435025
-4.7147498 -3.0889738 -6.8435025
-4.7147498 -3.2515514 -6.8435035
-4.7147498 -3.4141285 -6.843503
-4.7147498 -3.5767064 -6.843503
-4.7147498 -3.7392838 -6.843503
-4.7147498 -3.9018624 -6.8435011
-4.7147498 -4.0644398 -6.8435011
-4.7147498 -4.2270179 -6.8435011
-4.7147498 -4.389595 -6.8435011
-4.7147498 -4.5521727 -6.8435011
-4.7147498 -4.7147503 -6.8435016
-4.7147498 -4.8773279 -6.8435016
-4.6755385 -4.9979897 -7.0067158
-4.6677713 -5.1506448 -7.0390463
-4.6600456 -5.3028102 -7.0712061
-4.6523452 -5.4544735 -7.1032591
-4.6446543 -5.6056166 -7.1352692
-4.6367941 -5.756021 -7.1679864
-4.6296048 -5.9067378 -7.1979132
-4.6296048 -6.0663786 -7.1979132
-4.6296048 -6.2260199 -7.1979132
-4.6296048 -6.3856616 -7.1979136
-4.6296048 -6.5453043 -7.1979127
-4.6296048 -6.7049456 -7.1979127
-4.6296048 -6.8645864 -7.1979127
-4.6548285 -7.0624981 -7.0929227
-4.624022 -7.1752067 -7.2211523
-4.6176763 -7.3245912 -7.2475629
-4.6176763 -7.4838204 -7.2475624
-4.6176763 -7.6430511 -7.2475624
-4.6176763 -7.8022814 -7.2475624
-4.4707303 7.8237777 -7.1946068
-4.4699631 7.6627941 -7.1979132
-4.4699631 7.5031528 -7.1979136
-4.4699631 7.3435116 -7.1979141
-4.4699631 7.1838698 -7.1979132
-4.4699631 7.0242281 -7.1979141
-4.4699631 6.8645864 -7.1979122
-4.4699631 6.7049446 -7.1979132
-4.4803329 6.5604877 -7.1532092
-4.4877443 6.4110632 -7.1212578
-4.4951653 6.2611232 -7.0892649
-4.5026112 6.1106873 -7.0571647
-4.5100965 5.9597707 -7.0248952
-4.5178876 5.808713 -6.9913063
-4.5521722 5.6902156 -6.843502
-4.5521722 5.5276384 -6.843502
-4.5521722 5.3650603 -6.8435025
-4.5521722 5.2024827 -6.8435025
-4.5521722 5.0399055 -6.843502
-4.5521722 4.8773274 -6.8435025
-4.5521722 4.7147498 -6.8435025
-4.5521722 4.5521727 -6.843502
-4.5521722 4.389595 -6.843502
-4.5521722 4.2270169 -6.8435025
-4.5521722 4.0644398 -6.843502
-4.5521722 3.9018624 -6.843502
-4.5521722 3.7392843 -6.843503
-4.5521722 3.5767069 -6.8435025
-4.5521722 3.4141297 -6.8435025
-4.5521722 3.2515523 -6.843502
-4.5521722 3.088974 -6.8435025
-4.5521722 2.9263966 -6.8435025
-4.5521722 2.7638195 -6.843502
-4.5155978 2.5803418 -7.0011787
-4.5074172 2.4146879 -7.0364461
-4.4992814 2.2496402 -7.0715213
-4.4911742 2.0851879 -7.1064711
-4.4830966 1.921327 -7.141294
-4.4699631 1.756057 -7.1979127
-4.4699631 1.5964153 -7.1979132
-4.4699631 1.4367744 -7.1979132
-4.4699631 1.2771322 -7.1979132
-4.4699631 1.1174914 -7.1979132
-4.4699631 0.95784891 -7.1979132
-4.4699631 0.798208 -7.1979132
-4.4699779 0.63856858 -7.1978512
-4.4976692 0.48189318 -7.0784707
-4.4866648 0.32047668 -7.1259098
-4.4699779 0.15964206 -7.1978512
-4.4699779 -1.5199248e-07 -7.1978507
-4.4699779 -0.15964235 -7.1978507
-4.4699779 -0.31928405 -7.1978512
-4.4699779 -0.47892672 -7.1978507
-4.4699779 -0.63856828 -7.1978502
-4.4699779 -0.79820979 -7.1978507
-4.47856 -0.95969135 -7.1608515
-4.4865198 -1.1216295 -7.1265378
-4.4945073 -1.2841452 -7.092103
-4.5025229 -1.4472394 -7.0575438
-4.5105677 -1.6109171 -7.022862
-4.5214524 -1.7762849 -6.9759378
-4.5521722 -1.9509315 -6.8435016
-4.5521722 -2.1135082 -6.8435025
-4.5521722 -2.2760856 -6.8435025
-4.5521722 -2.4386635 -6.843503
-4.5521722 -2.6012406 -6.8435025
-4.5521722 -2.7638185 -6.8435025
-4.5521722 -2.9263959 -6.8435025
-4.5521722 -3.0889738 -6.8435025
-4.5521722 -3.2515514 -6.8435035
-4.5521722 -3.4141285 -6.843503
-4.5521722 -3.5767064 -6.843503
-4.5521722 -3.7392838 -6.843503
-4.5521722 -3.9018624 -6.8435011
-4.5521722 -4.0644398 -6.8435011
-4.5521722 -4.2270179 -6.8435011
-4.5521722 -4.389595 -6.8435011
-4.5521722 -4.5521727 -6.8435011
-4.5521722 -4.7147503 -6.8435016
-4.5521722 -4.8773279 -6.8435016
-4.5143132 -4.9979897 -7.0067158
-4.5068145 -5.1506448 -7.0390463
-4.4993544 -5.3028102 -7.0712061
-4.491919 -5.4544735 -7.1032591
-4.4844942 -5.6056166 -7.1352692
-4.4769049 -5.756021 -7.1679864
-4.4699631 -5.9067378 -7.1979132
-4.4699631 -6.0663786 -7.1979132
-4.4699631 -6.2260199 -7.1979132
-4.4699631 -6.3856616 -7.1979136
-4.4699631 -6.5453043 -7.1979127
-4.4699631 -6.7049456 -7.1979127
-4.4699631 -6.8645864 -7.1979127
-4.4943171 -7.0624981 -7.0929227
-4.4645724 -7.1752067 -7.2211523
-4.4584465 -7.3245912 -7.2475629
-4.4584465 -7.4838204 -7.2475624
-4.4584465 -7.6430511 -7.2475624
-4.4584465 -7.8022814 -7.2475624
-4.3110614 7.8237777 -7.1946068
-4.3103218 7.6627941 -7.1979132
-4.3103218 7.5031528 -7.1979136
-4.3103218 7.3435116 -7.1979141
-4.3103218 7.1838698 -7.1979132
-4.3103218 7.0242281 -7.1979141
-4.3103218 6.8645864 -7.1979122
-4.3103218 6.7049446 -7.1979132
-4.3203211 6.5604877 -7.1532092
-4.3274674 6.4110632 -7.1212578
-4.3346238 6.2611232 -7.0892649
-4.3418036 6.1106873 -7.0571647
-4.3490219 5.9597707 -7.0248952
-4.3565345 5.808713 -6.9913063
-4.3895946 5.6902156 -6.843502
-4.3895946 5.5276384 -6.843502
-4.3895946 5.3650603 -6.8435025
-4.3895946 5.2024827 -6.8435025
-4.3895946 5.0399055 -6.843502
-4.3895946 4.8773274 -6.8435025
-4.3895946 4.7147498 -6.8435025
-4.3895946 4.5521727 -6.843502
-4.3895946 4.389595 -6.843502
-4.3895946 4.2270169 -6.8435025
-4.3895946 4.0644398 -6.843502
-4.3895946 3.9018624 -6.843502
-4.3895946 3.7392843 -6.843503
-4.3895946 3.5767069 -6.8435025
-4.3895946 3.4141297 -6.8435025
-4.3895946 3.2515523 -6.843502
-4.3895946 3.088974 -6.8435025
-4.3895946 2.9263966 -6.8435025
-4.3895946 2.7638195 -6.843502
-4.3543262 2.5803418 -7.0011787
-4.3464379 2.4146879 -7.0364461
-4.3385925 2.2496402 -7.0715213
-4.3307753 2.0851879 -7.1064711
-4.3229856 1.921327 -7.141294
-4.3103218 1.756057 -7.1979127
-4.3103218 1.5964153 -7.1979132
-4.3103218 1.4367744 -7.1979132
-4.3103218 1.2771322 -7.1979132
-4.3103218 1.1174914 -7.1979132
-4.3103218 0.95784891 -7.1979132
-4.3103218 0.798208 -7.1979132
-4.3103356 0.63856858 -7.1978512
-4.337038 0.48189318 -7.0784707
-4.326427 0.32047668 -7.1259098
-4.3103356 0.15964206 -7.1978512
-4.3103356 -1.5199248e-07 -7.1978507
-4.3103356 -0.15964235 -7.1978507
-4.3103356 -0.31928405 -7.1978512
-4.3103356 -0.47892672 -7.1978507
-4.3103356 -0.63856828 -7.1978502
-4.3103356 -0.79820979 -7.1978507
-4.3186116 -0.95969135 -7.1608515
-4.3262863 -1.1216295 -7.1265378
-4.3339891 -1.2841452 -7.092103
-4.3417187 -1.4472394 -7.0575438
-4.3494763 -1.6109171 -7.022862
-4.3599725 -1.7762849 -6.9759378
-4.3895946 -1.9509315 -6.8435016
-4.3895946 -2.1135082 -6.8435025
-4.3895946 -2.2760856 -6.8435025
-4.3895946 -2.4386635 -6.843503
-4.3895946 -2.6012406 -6.8435025
-4.3895946 -2.7638185 -6.8435025
-4.3895946 -2.9263959 -6.8435025
-4.3895946 -3.0889738 -6.8435025
-4.3895946 -3.2515514 -6.8435035
-4.3895946 -3.4141285 -6.843503
-4.3895946 -3.5767064 -6.843503
-4.3895946 -3.7392838 -6.843503
-4.3895946 -3.9018624 -6.8435011
-4.3895946 -4.0644398 -6.8435011
-4.3895946 -4.2270179 -6.8435011
-4.3895946 -4.389595 -6.8435011
-4.3895946 -4.5521727 -6.8435011
-4.3895946 -4.7147503 -6.8435016
-4.3895946 -4.8773279 -6.8435016
-4.3530879 -4.9979897 -7.0067158
-4.3458567 -5.1506448 -7.0390463
-4.3386631 -5.3028102 -7.0712061
-4.3314934 -5.4544735 -7.1032591
-4.3243337 -5.6056166 -7.1352692
-4.3170152 -5.756021 -7.1679864
-4.3103218 -5.9067378 -7.1979132
-4.3103218 -6.0663786 -7.1979132
-4.3103218 -6.2260199 -7.1979132
-4.3103218 -6.3856616 -7.1979136
-4.3103218 -6.5453043 -7.1979127
-4.3103218 -6.7049456 -7.1979127
-4.3103218 -6.8645864 -7.1979127
-4.3338056 -7.0624981 -7.0929227
-4.3051238 -7.1752067 -7.2211523
-4.2992163 -7.3245912 -7.2475629
-4.2992163 -7.4838204 -7.2475624
-4.2992163 -7.6430511 -7.2475624
-4.2992163 -7.8022814 -7.2475624
-4.1513925 7.8237777 -7.1946068
-4.1506801 7.6627941 -7.1979132
-4.1506801 7.5031528 -7.1979136
-4.1506801 7.3435116 -7.1979141
-4.1506801 7.1838698 -7.1979132
-4.1506801 7.0242281 -7.1979141
-4.1506801 6.8645864 -7.1979122
-4.1506801 6.7049446 -7.1979132
-4.1603093 6.5604877 -7.1532092
-4.167191 6.4110632 -7.1212578
-4.1740823 6.2611232 -7.0892649
-4.1809959 6.1106873 -7.0571647
-4.1879468 5.9597707 -7.0248952
-4.1951814 5.808713 -6.9913063
-4.2270174 5.6902156 -6.843502
-4.2270174 5.5276384 -6.843502
-4.2270174 5.3650603 -6.8435025
-4.2270174 5.2024827 -6.8435025
-4.2270174 5.0399055 -6.843502
-4.2270174 4.8773274 -6.8435025
-4.2270174 4.7147498 -6.8435025
-4.2270174 4.5521727 -6.843502
-4.2270174 4.389595 -6.843502
-4.2270174 4.2270169 -6.8435025
-4.2270174 4.0644398 -6.843502
-4.2270174 3.9018624 -6.843502
-4.2270174 3.7392843 -6.843503
-4.2270174 3.5767069 -6.8435025
-4.2270174 3.4141297 -6.8435025
-4.2270174 3.2515523 -6.843502
-4.2270174 3.088974 -6.8435025
-4.2270174 2.9263966 -6.8435025
-4.2270174 2.7638195 -6.843502
-4.1930552 2.5803418 -7.0011787
-4.1854591 2.4146879 -7.0364461
-4.1779037 2.2496402 -7.0715213
-4.1703763 2.0851879 -7.1064711
-4.1628752 1.921327 -7.141294
-4.1506801 1.756057 -7.1979127
-4.1506801 1.5964153 -7.1979132
-4.1506801 1.4367744 -7.1979132
-4.1506801 1.2771322 -7.1979132
-4.1506801 1.1174914 -7.1979132
-4.1506801 0.95784891 -7.1979132
-4.1506801 0.798208 -7.1979132
-4.1506939 0.63856858 -7.1978512
-4.1764069 0.48189318 -7.0784707
-4.1661892 0.32047668 -7.1259098
-4.1506939 0.15964206 -7.1978512
-4.1506939 -1.5199248e-07 -7.1978507
-4.1506939 -0.15964235 -7.1978507
-4.1506939 -0.31928405 -7.1978512
-4.1506939 -0.47892672 -7.1978507
-4.1506939 -0.63856828 -7.1978502
-4.1506939 -0.79820979 -7.1978507
-4.1586628 -0.95969135 -7.1608515
-4.1660538 -1.1216295 -7.1265378
-4.173471 -1.2841452 -7.092103
-4.1809144 -1.4472394 -7.0575438
-4.1883845 -1.6109171 -7.022862
-4.1984921 -1.7762849 -6.9759378
-4.2270174 -1.9509315 -6.8435016
-4.2270174 -2.1135082 -6.8435025
-4.2270174 -2.2760856 -6.8435025
-4.2270174 -2.4386635 -6.843503
-4.2270174 -2.6012406 -6.8435025
-4.2270174 -2.7638185 -6.8435025
-4.2270174 -2.9263959 -6.8435025
-4.2270174 -3.0889738 -6.8435025
-4.2270174 -3.2515514 -6.8435035
-4.2270174 -3.4141285 -6.843503
-4.2270174 -3.5767064 -6.843503
-4.2270174 -3.7392838 -6.843503
-4.2270174 -3.9018624 -6.8435011
-4.2270174 -4.0644398 -6.8435011
-4.2270174 -4.2270179 -6.8435011
-4.2270174 -4.389595 -6.8435011
-4.2270174 -4.5521727 -6.8435011
-4.2270174 -4.7147503 -6.8435016
-4.2270174 -4.8773279 -6.8435016
-4.1918626 -4.9979897 -7.0067158
-4.1848989 -5.1506448 -7.0390463
-4.1779718 -5.3028102 -7.0712061
-4.1710677 -5.4544735 -7.1032591
-4.1641731 -5.6056166 -7.1352692
-4.1571259 -5.756021 -7.1679864
-4.1506801 -5.9067378 -7.1979132
-4.1506801 -6.0663786 -7.1979132
-4.1506801 -6.2260199 -7.1979132
-4.1506801 -6.3856616 -7.1979136
-4.1506801 -6.5453043 -7.1979127
-4.1506801 -6.7049456 -7.1979127
-4.1506801 -6.8645864 -7.1979127
-4.1732941 -7.0624981 -7.0929227
-4.1456747 -7.1752067 -7.2211523
-4.139986 -7.3245912 -7.2475629
-4.139986 -7.4838204 -7.2475624
-4.139986 -7.6430511 -7.2475624
-4.139986 -7.8022814 -7.2475624
-3.9917235 7.8237777 -7.1946068
-3.9910388 7.6627941 -7.1979132
-3.9910388 7.5031528 -7.1979136
-3.9910388 7.3435116 -7.1979141
-3.9910388 7.1838698 -7.1979132
-3.9910388 7.0242281 -7.1979141
-3.9910388 6.8645864 -7.1979122
-3.9910388 6.7049446 -7.1979132
-4.0002971 6.5604877 -7.1532092
-4.0069146 6.4110632 -7.1212578
-4.0135407 6.2611232 -7.0892649
-4.0201888 6.1106873 -7.0571647
-4.0268722 5.9597707 -7.0248952
-4.0338283 5.808713 -6.9913063
-4.0644398 5.6902156 -6.843502
-4.0644398 5.5276384 -6.843502
-4.0644398 5.3650603 -6.8435025
-4.0644398 5.2024827 -6.8435025
-4.0644398 5.0399055 -6.843502
-4.0644398 4.8773274 -6.8435025
-4.0644398 4.7147498 -6.8435025
-4.0644398 4.5521727 -6.843502
-4.0644398 4.389595 -6.843502
-4.0644398 4.2270169 -6.8435025
-4.0644398 4.0644398 -6.843502
-4.0644398 3.9018624 -6.843502
-4.0644398 3.7392843 -6.843503
-4.0644398 3.5767069 -6.8435025
-4.0644398 3.4141297 -6.8435025
-4.0644398 3.2515523 -6.843502
-4.0644398 3.088974 -6.8435025
-4.0644398 2.9263966 -6.8435025
-4.0644398 2.7638195 -6.843502
-4.0317836 2.5803418 -7.0011787
-4.0244799 2.4146879 -7.0364461
-4.0172153 2.2496402 -7.0715213
-4.0099769 2.0851879 -7.1064711
-4.0027647 1.921327 -7.141294
-3.9910388 1.756057 -7.1979127
-3.9910388 1.5964153 -7.1979132
-3.9910388 1.4367744 -7.1979132
-3.9910388 1.2771322 -7.1979132
-3.9910388 1.1174914 -7.1979132
-3.9910388 0.95784891 -7.1979132
-3.9910388 0.798208 -7.1979132
-3.9910514 0.63856858 -7.1978512
-4.0157628 0.48189139 -7.0785336
-4.0059509 0.32047668 -7.1259098
-3.9910514 0.15964206 -7.1978512
-3.9910514 -1.5199248e-07 -7.1978507
-3.9910514 -0.15964235 -7.1978507
-3.9910514 -0.31928405 -7.1978512
-3.9910514 -0.47892672 -7.1978507
-3.9910514 -0.63856828 -7.1978502
-3.9910514 -0.79820979 -7.1978507
-3.9987144 -0.95969135 -7.1608515
-4.0058212 -1.1216295 -7.1265378
-4.0129528 -1.2841452 -7.092103
-4.0201101 -1.4472394 -7.0575438
-4.0272927 -1.6109171 -7.022862
-4.0370116 -1.7762849 -6.9759378
-4.0644398 -1.9509315 -6.8435016
-4.0644398 -2.1135082 -6.8435025
-4.0644398 -2.2760856 -6.8435025
-4.0644398 -2.4386635 -6.843503
-4.0644398 -2.6012406 -6.8435025
-4.0644398 -2.7638185 -6.8435025
-4.0644398 -2.9263959 -6.8435025
-4.0644398 -3.0889738 -6.8435025
-4.0644398 -3.2515514 -6.8435035
-4.0644398 -3.4141285 -6.843503
-4.0644398 -3.5767064 -6.843503
-4.0644398 -3.7392838 -6.843503
-4.0644398 -3.9018624 -6.8435011
-4.0644398 -4.0644398 -6.8435011
-4.0644398 -4.2270179 -6.8435011
-4.0644398 -4.389595 -6.8435011
-4.0644398 -4.5521727 -6.8435011
-4.0644398 -4.7147503 -6.8435016
-4.0644398 -4.8773279 -6.8435016
-4.0306368 -4.9979897 -7.0067158
-4.023941 -5.1506448 -7.0390463
-4.0172806 -5.3028102 -7.0712061
-4.0106425 -5.4544735 -7.1032591
-4.0040126 -5.6056166 -7.1352692
-3.9972365 -5.756021 -7.1679864
-3.9910388 -5.9067378 -7.1979132
-3.9910388 -6.0663786 -7.1979132
-3.9910388 -6.2260199 -7.1979132
-3.9910388 -6.3856616 -7.1979136
-3.9910388 -6.5453043 -7.1979127
-3.9910388 -6.7049456 -7.1979127
-3.9910388 -6.8645864 -7.1979127
-4.0127831 -7.0624981 -7.0929227
-3.9862256 -7.1752067 -7.2211523
-3.9807558 -7.3245912 -7.2475629
-3.9807558 -7.4838204 -7.2475624
-3.9807558 -7.6430511 -7.2475624
-3.9807558 -7.8022814 -7.2475624
-3.8320544 7.8237777 -7.1946068
-3.8313971 7.6627941 -7.1979132
-3.8313971 7.5031528 -7.1979136
-3.8313971 7.3435116 -7.1979141
-3.8313971 7.1838698 -7.1979132
-3.8313971 7.0242281 -7.1979141
-3.8313971 6.8645864 -7.1979122
-3.8313971 6.7049446 -7.1979132
-3.8402853 6.5604877 -7.1532092
-3.846638 6.4110632 -7.1212578
-3.852999 6.2611232 -7.0892649
-3.8593812 6.1106873 -7.0571647
-3.865797 5.9597707 -7.0248952
-3.8724751 5.808713 -6.9913063
-3.9018621 5.6902156 -6.843502
-3.9018621 5.5276384 -6.843502
-3.9018621 5.3650603 -6.8435025
-3.9018621 5.2024827 -6.8435025
-3.9018621 5.0399055 -6.843502
-3.9018621 4.8773274 -6.8435025
-3.9018621 4.7147498 -6.8435025
-3.9018621 4.5521727 -6.843502
-3.9018621 4.389595 -6.843502
-3.9018621 4.2270169 -6.8435025
-3.9018621 4.0644398 -6.843502
-3.9018621 3.9018624 -6.843502
-3.9018621 3.7392843 -6.843503
-3.9018621 3.5767069 -6.8435025
-3.9018621 3.4141297 -6.8435025
-3.9018621 3.2515523 -6.843502
-3.9018621 3.088974 -6.8435025
-3.9018621 2.9263966 -6.8435025
-3.9018621 2.7638195 -6.843502
-3.8705122 2.5803418 -7.0011787
-3.8635006 2.4146879 -7.0364461
-3.8565269 2.2496402 -7.0715213
-3.8495777 2.0851879 -7.1064711
-3.8426542 1.921327 -7.141294
-3.8313971 1.756057 -7.1979127
-3.8313971 1.5964153 -7.1979132
-3.8313971 1.4367744 -7.1979132
-3.8313971 1.2771322 -7.1979132
-3.8313971 1.1174914 -7.1979132
-3.8313971 0.95784891 -7.1979132
-3.8313971 0.798208 -7.1979132
-3.8314095 0.63856858 -7.1978512
-3.8551323 0.48189139 -7.0785336
-3.8457129 0.32047668 -7.1259098
-3.8314095 0.15964206 -7.1978512
-3.8314095 -1.5199248e-07 -7.1978507
-3.8314095 -0.15964235 -7.1978507
-3.8314095 -0.31928405 -7.1978512
-3.8314095 -0.47892672 -7.1978507
-3.8314095 -0.63856828 -7.1978502
-3.8314095 -0.79820979 -7.1978507
-3.8387659 -0.95969135 -7.1608515
-3.8455882 -1.1216295 -7.1265378
-3.8524346 -1.2841452 -7.092103
-3.8593056 -1.4472394 -7.0575438
-3.8662012 -1.6109171 -7.022862
-3.875531 -1.7762849 -6.9759378
-3.9018621 -1.9509315 -6.8435016
-3.9018621 -2.1135082 -6.8435025
-3.9018621 -2.2760856 -6.8435025
-3.9018621 -2.4386635 -6.843503
-3.9018621 -2.6012406 -6.8435025
-3.9018621 -2.7638185 -6.8435025
-3.9018621 -2.9263959 -6.8435025
-3.9018621 -3.0889738 -6.8435025
-3.9018621 -3.2515514 -6.8435035
-3.9018621 -3.4141285 -6.843503
-3.9018621 -3.5767064 -6.843503
-3.9018621 -3.7392838 -6.843503
-3.9018621 -3.9018624 -6.8435011
-3.9018621 -4.0644398 -6.8435011
-3.9018621 -4.2270179 -6.8435011
-3.9018621 -4.389595 -6.8435011
-3.9018621 -4.5521727 -6.8435011
-3.9018621 -4.7147503 -6.8435016
-3.9018621 -4.8773279 -6.8435016
-3.8694115 -4.9979897 -7.0067158
-3.8629835 -5.1506448 -7.0390463
-3.8565893 -5.3028102 -7.0712061
-3.8502164 -5.4544735 -7.1032591
-3.843852 -5.6056166 -7.1352692
-3.837347 -5.756021 -7.1679864
-3.8313971 -5.9067378 -7.1979132
-3.8313971 -6.0663786 -7.1979132
-3.8313971 -6.2260199 -7.1979132
-3.8313971 -6.3856616 -7.1979136
-3.8313971 -6.5453043 -7.1979127
-3.8313971 -6.7049456 -7.1979127
-3.8313971 -6.8645864 -7.1979127
-3.8522718 -7.0624981 -7.0929227
-3.8267765 -7.1752067 -7.2211523
-3.8215256 -7.3245912 -7.2475629
-3.8215256 -7.4838204 -7.2475624
-3.8215256 -7.6430511 -7.2475624
-3.8215256 -7.8022814 -7.2475624
-3.6723855 7.8237777 -7.1946068
-3.6717556 7.6627941 -7.1979132
-3.6717556 7.5031528 -7.1979136
-3.6717556 7.3435116 -7.1979141
-3.6717556 7.1838698 -7.1979132
-3.6717556 7.0242281 -7.1979141
-3.6717556 6.8645864 -7.1979122
-3.6717556 6.7049446 -7.1979132
-3.6802733 6.5604877 -7.1532092
-3.6863613 6.4110632 -7.1212578
-3.6924574 6.2611232 -7.0892649
-3.6985736 6.1106873 -7.0571647
-3.7047222 5.9597707 -7.0248952
-3.7111218 5.808713 -6.9913063
-3.7392845 5.6902156 -6.843502
-3.7392845 5.5276384 -6.843502
-3.7392845 5.3650603 -6.8435025
-3.7392845 5.2024827 -6.8435025
-3.7392845 5.0399055 -6.843502
-3.7392845 4.8773274 -6.8435025
-3.7392845 4.7147498 -6.8435025
-3.7392845 4.5521727 -6.843502
-3.7392845 4.389595 -6.843502
-3.7392845 4.2270169 -6.8435025
-3.7392845 4.0644398 -6.843502
-3.7392845 3.9018624 -6.843502
-3.7392845 3.7392843 -6.843503
-3.7392845 3.5767069 -6.8435025
-3.7392845 3.4141297 -6.8435025
-3.7392845 3.2515523 -6.843502
-3.7392845 3.088974 -6.8435025
-3.7392845 2.9263966 -6.8435025
-3.7392845 2.7638195 -6.843502
-3.7092409 2.5803418 -7.0011787
-3.7025213 2.4146879 -7.0364461
-3.6958382 2.2496402 -7.0715213
-3.6891789 2.0851879 -7.1064711
-3.6825435 1.921327 -7.141294
-3.6717556 1.756057 -7.1979127
-3.6717556 1.5964153 -7.1979132
-3.6717556 1.4367744 -7.1979132
-3.6717556 1.2771322 -7.1979132
-3.6717556 1.1174914 -7.1979132
-3.6717556 0.95784891 -7.1979132
-3.6717556 0.798208 -7.1979132
-3.6717675 0.63856858 -7.1978512
-3.6945016 0.48189139 -7.0785336
-3.6854751 0.32047668 -7.1259098
-3.6717675 0.15964206 -7.1978512
-3.6717675 -1.5199248e-07 -7.1978507
-3.6717675 -0.15964235 -7.1978507
-3.6717675 -0.31928405 -7.1978512
-3.6717675 -0.47892672 -7.1978507
-3.6717675 -0.63856828 -7.1978502
-3.6717675 -0.79820979 -7.1978507
-3.678817 -0.95969135 -7.1608515
-3.6853552 -1.1216295 -7.1265378
-3.6919165 -1.2841452 -7.092103
-3.6985011 -1.4472394 -7.0575438
-3.7051094 -1.6109171 -7.022862
-3.7140503 -1.7762849 -6.9759378
-3.7392845 -1.9509315 -6.8435016
-3.7392845 -2.1135082 -6.8435025
-3.7392845 -2.2760856 -6.8435025
-3.7392845 -2.4386635 -6.843503
-3.7392845 -2.6012406 -6.8435025
-3.7392845 -2.7638185 -6.8435025
-3.7392845 -2.9263959 -6.8435025
-3.7392845 -3.0889738 -6.8435025
-3.7392845 -3.2515514 -6.8435035
-3.7392845 -3.4141285 -6.843503
-3.7392845 -3.5767064 -6.843503
-3.7392845 -3.7392838 -6.843503
-3.7392845 -3.9018624 -6.8435011
-3.7392845 -4.0644398 -6.8435011
-3.7392845 -4.2270179 -6.8435011
-3.7392845 -4.389595 -6.8435011
-3.7392845 -4.5521727 -6.8435011
-3.7392845 -4.7147503 -6.8435016
-3.7392845 -4.8773279 -6.8435016
-3.7081861 -4.9979897 -7.0067158
-3.7020259 -5.1506448 -7.0390463
-3.6958981 -5.3028102 -7.0712061
-3.689791 -5.4544735 -7.1032591
-3.6836915 -5.6056166 -7.1352692
-3.6774576 -5.756021 -7.1679864
-3.6717556 -5.9067378 -7.1979132
-3.6717556 -6.0663786 -7.1979132
-3.6717556 -6.2260199 -7.1979132
-3.6717556 -6.3856616 -7.1979136
-3.6717556 -6.5453043 -7.1979127
-3.6717556 -6.7049456 -7.1979127
-3.6717556 -6.8645864 -7.1979127
-3.6917603 -7.0624981 -7.0929227
-3.6673276 -7.1752067 -7.2211523
-3.6622953 -7.3245912 -7.2475629
-3.6622953 -7.4838204 -7.2475624
-3.6622953 -7.6430511 -7.2475624
-3.6622953 -7.8022814 -7.2475624
-3.5127165 7.8237777 -7.1946068
-3.512114 7.6627941 -7.1979132
-3.512114 7.5031528 -7.1979136
-3.512114 7.3435116 -7.1979141
-3.512114 7.1838698 -7.1979132
-3.512114 7.0242281 -7.1979141
-3.512114 6.8645864 -7.1979122
-3.512114 6.7049446 -7.1979132
-3.5202615 6.5604877 -7.1532092
-3.5260847 6.4110632 -7.1212578
-3.5319157 6.2611232 -7.0892649
-3.537766 6.1106873 -7.0571647
-3.5436473 5.9597707 -7.0248952
-3.5497689 5.808713 -6.9913063
-3.5767066 5.6902156 -6.843502
-3.5767066 5.5276384 -6.843502
-3.5767066 5.3650603 -6.8435025
-3.5767066 5.2024827 -6.8435025
-3.5767066 5.0399055 -6.843502
-3.5767066 4.8773274 -6.8435025
-3.5767066 4.7147498 -6.8435025
-3.5767066 4.5521727 -6.843502
-3.5767066 4.389595 -6.843502
-3.5767066 4.2270169 -6.8435025
-3.5767066 4.0644398 -6.843502
-3.5767066 3.9018624 -6.843502
-3.5767066 3.7392843 -6.843503
-3.5767066 3.5767069 -6.8435025
-3.5767066 3.4141297 -6.8435025
-3.5767066 3.2515523 -6.843502
-3.5767066 3.088974 -6.8435025
-3.5767066 2.9263966 -6.8435025
-3.5767066 2.7638195 -6.843502
-3.5479696 2.5803418 -7.0011787
-3.5415423 2.4146879 -7.0364461
-3.5351496 2.2496402 -7.0715213
-3.5287797 2.0851879 -7.1064711
-3.522433 1.921327 -7.141294
-3.512114 1.756057 -7.1979127
-3.512114 1.5964153 -7.1979132
-3.512114 1.4367744 -7.1979132
-3.512114 1.2771322 -7.1979132
-3.512114 1.1174914 -7.1979132
-3.512114 0.95784891 -7.1979132
-3.512114 0.798208 -7.1979132
-3.5121255 0.63856858 -7.1978512
-3.5338712 0.48189139 -7.0785336
