# .PCD v0.7 - Point Cloud Data file format
VERSION 0.7
FIELDS x y z
SIZE 4 4 4
TYPE F F F
COUNT 1 1 1
WIDTH 1541
HEIGHT 1
VIEWPOINT 0 0 0 1 0 0 0
POINTS 1541
DATA ascii
23.705452 -35.558155 -414.4762
23.705452 -41.484547 -414.4762
23.705452 -47.41087 -414.47623
23.705452 -53.337265 -414.47623
23.705452 -59.263592 -414.47623
23.705452 -65.189987 -414.4762
23.705452 -71.116341 -414.47623
23.705452 -77.042709 -414.4762
23.705452 -82.969055 -414.4762
23.705452 -88.895424 -414.4762
23.705452 -94.821785 -414.47623
23.705452 -100.74815 -414.47623
23.705452 -106.67451 -414.47623
23.705452 -112.60088 -414.4762
23.705452 -118.52725 -414.47623
23.705452 -124.4536 -414.4762
23.705452 -130.37997 -414.47623
23.705452 -136.30634 -414.4762
23.705452 -142.2327 -414.4762
24.510401 -153.19 -390.18475
24.480286 -159.12184 -391.09357
23.588757 -159.22408 -417.99786
23.206329 -162.44431 -429.53857
23.206329 -168.24588 -429.5386
23.206329 -174.04747 -429.5386
23.206329 -179.84903 -429.53857
30.991413 241.73302 -381.65265
30.991413 235.53474 -381.65265
30.991413 229.33647 -381.65268
30.991413 223.13817 -381.65265
30.991413 216.93991 -381.65268
30.991413 210.74162 -381.65265
30.991413 204.54335 -381.65268
30.991413 198.34505 -381.65265
30.991413 192.14677 -381.65268
30.991413 185.9485 -381.65271
30.991413 179.7502 -381.65265
30.991413 173.55193 -381.65268
29.428047 158.91148 -419.39557
29.428047 153.02589 -419.3956
29.428047 147.14027 -419.3956
29.428047 141.25464 -419.39563
30.505697 140.32622 -393.37881
31.410604 138.20668 -371.53244
29.539293 124.06507 -416.70987
29.539293 118.1572 -416.70984
29.539293 112.24936 -416.70984
29.539293 106.34148 -416.7099
29.539293 100.43363 -416.7099
29.539293 94.525764 -416.70987
29.539293 88.617928 -416.70987
29.539293 82.710075 -416.70987
29.539293 76.802162 -416.70987
29.539293 70.894325 -416.70987
29.539293 64.986473 -416.70987
29.539293 59.078632 -416.70987
29.539293 53.170738 -416.70987
29.539293 47.262871 -416.70987
29.539293 41.35503 -416.70987
29.539293 35.447193 -416.70987
29.539293 29.53932 -416.70984
29.539293 23.631443 -416.70987
29.539293 17.723591 -416.7099
29.539293 11.815721 -416.70984
29.539293 5.9078817 -416.70987
29.539293 4.2918597e-05 -416.70987
29.539293 -5.907835 -416.7099
29.539293 -11.815705 -416.70987
29.539293 -17.723557 -416.70987
29.539293 -23.631413 -416.70987
29.539293 -29.539276 -416.70987
29.539293 -35.447132 -416.70987
29.539293 -41.355 -416.70987
29.539293 -47.262836 -416.70987
29.539293 -53.170692 -416.70984
29.539293 -59.078575 -416.70984
29.539293 -64.986412 -416.70987
29.539293 -70.894279 -416.70987
29.539293 -76.802147 -416.70984
29.539293 -82.710014 -416.70987
29.539293 -88.617851 -416.70987
29.539293 -94.525719 -416.70984
29.539293 -100.43359 -416.70987
29.539293 -106.34142 -416.70987
29.539293 -112.24931 -416.70987
29.539293 -118.15716 -416.70984
29.539293 -124.065 -416.70987
29.539293 -129.97289 -416.70987
29.539293 -135.88072 -416.70987
29.539293 -141.7886 -416.70987
31.802811 -159.01401 -362.06381
30.600815 -159.12424 -391.08249
29.486368 -159.22636 -417.98758
29.428047 -164.79704 -419.39563
29.428047 -170.68265 -419.3956
29.428047 -176.56827 -419.39557
37.734524 238.98535 -370.69153
37.734524 232.69624 -370.69153
37.734524 226.40717 -370.6915
37.734524 220.11807 -370.6915
37.734524 213.82901 -370.6915
37.734524 207.5399 -370.6915
37.734524 201.25082 -370.69147
37.734524 194.96172 -370.6915
37.734524 188.67267 -370.6915
37.734524 182.38356 -370.69153
37.734524 176.09447 -370.69153
37.734524 169.8054 -370.69153
35.832745 155.27525 -408.95239
35.832745 149.3031 -408.95239
35.832745 143.33099 -408.95236
36.606728 140.32584 -393.38101
38.311085 140.47398 -359.09204
35.88068 125.58242 -407.98795
35.88068 119.60227 -407.98795
35.88068 113.62219 -407.98798
35.88068 107.64208 -407.98795
35.88068 101.66195 -407.98795
35.88068 95.681839 -407.98795
35.88068 89.701729 -407.98792
35.88068 83.721611 -407.98798
35.88068 77.741493 -407.98795
35.88068 71.761398 -407.98795
35.88068 65.781258 -407.98795
35.88068 59.801163 -407.98795
35.88068 53.821068 -407.98795
35.88068 47.840916 -407.98795
35.88068 41.860802 -407.98792
35.88068 35.880722 -407.98795
35.88068 29.90057 -407.98795
35.88068 23.920486 -407.98795
35.88068 17.940372 -407.98792
35.88068 11.960238 -407.98795
35.88068 5.9801412 -407.98795
35.88068 2.8506551e-05 -407.98792
35.88068 -5.9800911 -407.98798
35.88068 -11.960204 -407.98795
35.88068 -17.940329 -407.98792
35.88068 -23.920439 -407.98795
35.88068 -29.900551 -407.98792
35.88068 -35.880646 -407.98795
35.88068 -41.860783 -407.98795
35.88068 -47.840897 -407.98792
35.88068 -53.820992 -407.98795
35.88068 -59.801128 -407.98795
35.88068 -65.781227 -407.98795
35.88068 -71.761337 -407.98792
35.88068 -77.741478 -407.98792
35.88068 -83.721581 -407.98795
35.88068 -89.701698 -407.98795
35.88068 -95.681793 -407.98795
35.88068 -101.66192 -407.98795
35.88068 -107.64203 -407.98795
35.88068 -113.62215 -407.98795
35.88068 -119.60226 -407.98792
35.88068 -125.58237 -407.98792
35.88068 -131.56248 -407.98795
35.88068 -137.54259 -407.98792
35.88068 -143.52269 -407.98792
38.163845 -159.01604 -362.0542
36.721416 -159.12613 -391.0737
35.832745 -161.24734 -408.95239
35.832745 -167.21948 -408.95236
35.832745 -173.19159 -408.95236
35.832745 -179.16371 -408.95236
44.678009 236.15521 -359.40683
44.678009 229.77264 -359.40683
44.678009 223.39008 -359.40683
44.678009 217.00751 -359.40683
44.678009 210.62494 -359.40683
44.678009 204.24237 -359.40683
44.678009 197.8598 -359.40683
44.678009 191.47722 -359.4068
44.678009 185.09468 -359.40683
44.678009 178.71205 -359.40683
44.678009 172.3295 -359.40686
42.428413 157.59129 -398.19971
42.428413 151.53008 -398.19971
42.428413 145.46886 -398.19974
42.707596 140.32498 -393.38538
44.695988 140.47313 -359.09683
44.267845 132.80354 -366.47983
42.484009 121.38291 -397.24103
42.484009 115.31375 -397.24106
42.484009 109.24461 -397.24103
42.484009 103.17545 -397.24103
42.484009 97.106331 -397.24103
42.484009 91.037186 -397.24106
42.484009 84.968056 -397.24103
42.484009 78.898888 -397.24103
42.484009 72.829765 -397.24103
42.484009 66.76059 -397.241
42.484009 60.691441 -397.24103
42.484009 54.62233 -397.24103
42.484009 48.553173 -397.24106
42.484009 42.484047 -397.24103
42.484009 36.414879 -397.24103
42.484009 30.345751 -397.24103
42.484009 24.276596 -397.24103
42.484009 18.207453 -397.241
42.484009 12.138303 -397.24103
42.484009 6.0691495 -397.24103
42.484009 2.2163869e-05 -397.24103
42.484009 -6.0691471 -397.24103
42.484009 -12.138275 -397.241
42.484009 -18.207428 -397.24103
42.484009 -24.276552 -397.24106
42.484009 -30.345694 -397.24106
42.484009 -36.414848 -397.24103
42.484009 -42.48399 -397.24103
42.484009 -48.553131 -397.24103
42.484009 -54.622288 -397.241
42.484009 -60.691425 -397.241
42.484009 -66.760551 -397.24103
42.484009 -72.829689 -397.24103
42.484009 -78.898857 -397.24106
42.484009 -84.968018 -397.24103
42.484009 -91.037155 -397.24103
42.484009 -97.106293 -397.24103
42.484009 -103.17542 -397.24106
42.484009 -109.24458 -397.24103
42.484009 -115.31371 -397.24103
42.484009 -121.38286 -397.24103
42.484009 -127.45201 -397.241
42.484009 -133.52118 -397.24103
42.484009 -139.5903 -397.24106
45.118561 -154.69218 -351.80975
44.52504 -159.01797 -362.04468
42.842167 -159.12801 -391.06485
42.428413 -163.65242 -398.19974
42.428413 -169.71364 -398.19974
42.428413 -175.77483 -398.19971
51.8312 239.71933 -347.77908
51.8312 233.24042 -347.77908
51.8312 226.76151 -347.77908
51.8312 220.28262 -347.77908
51.8312 213.80374 -347.77911
51.8312 207.32483 -347.77911
51.8312 200.84595 -347.77911
51.8312 194.36703 -347.77911
51.8312 187.88812 -347.77908
51.8312 181.40921 -347.77911
51.8312 174.93033 -347.77908
49.22382 159.97743 -387.12143
49.22382 153.82446 -387.12146
49.22382 147.67148 -387.12143
49.22382 141.51851 -387.12143
51.080967 140.47266 -359.09924
52.331509 137.37027 -340.23001
49.286922 123.21733 -386.16928
49.286922 117.05647 -386.16928
49.286922 110.89561 -386.16928
49.286922 104.73472 -386.16925
49.286922 98.57386 -386.16928
49.286922 92.413002 -386.16931
49.286922 86.252136 -386.16931
49.286922 80.091263 -386.16928
49.286922 73.930389 -386.16931
49.286922 67.769562 -386.16928
49.286922 61.608677 -386.16928
49.286922 55.447823 -386.16928
49.286922 49.286968 -386.16931
49.286922 43.126068 -386.16925
49.286922 36.965214 -386.16928
49.286922 30.804358 -386.16928
49.286922 24.643473 -386.16928
49.286922 18.482603 -386.16928
49.286922 12.321733 -386.16931
49.286922 6.1608615 -386.16928
49.286922 -7.9392457e-06 -386.16928
49.286922 -6.1608224 -386.16928
49.286922 -12.321692 -386.16931
49.286922 -18.482563 -386.16928
49.286922 -24.643433 -386.16928
49.286922 -30.804302 -386.16928
49.286922 -36.965187 -386.16928
49.286922 -43.126045 -386.16928
49.286922 -49.286896 -386.16931
49.286922 -55.447773 -386.16925
49.286922 -61.608624 -386.16928
49.286922 -67.769493 -386.16931
49.286922 -73.930382 -386.16928
49.286922 -80.091248 -386.16928
49.286922 -86.25209 -386.16928
49.286922 -92.412964 -386.16928
49.286922 -98.573822 -386.16925
49.286922 -104.73467 -386.16928
49.286922 -110.89555 -386.16931
49.286922 -117.05643 -386.16928
49.286922 -123.21727 -386.16928
49.286922 -129.37814 -386.16928
49.286922 -135.53903 -386.16928
49.286922 -141.69989 -386.16928
52.967007 -158.90099 -330.64111
50.886395 -159.01994 -362.03516
49.22382 -159.97739 -387.12143
49.22382 -166.13039 -387.12146
49.22382 -172.28336 -387.12143
49.22382 -178.43634 -387.12143
56.228344 156.18985 -375.70023
56.228344 149.94228 -375.70023
56.228344 143.69466 -375.7002
57.465729 140.4718 -359.10403
60.271851 140.63434 -321.46747
56.298786 125.10846 -374.75546
56.298786 118.853 -374.75546
56.298786 112.59758 -374.75546
56.298786 106.34217 -374.75546
56.298786 100.08675 -374.75546
56.298786 93.831329 -374.75543
56.298786 87.57592 -374.75543
56.298786 81.320488 -374.75549
56.298786 75.065056 -374.75546
56.298786 68.809654 -374.75543
56.298786 62.554245 -374.75546
56.298786 56.29882 -374.75543
56.298786 50.043373 -374.75546
56.298786 43.787945 -374.75543
56.298786 37.532539 -374.75546
56.298786 31.277132 -374.75546
56.298786 25.021706 -374.75543
56.298786 18.766314 -374.75546
56.298786 12.510849 -374.75546
56.298786 6.2554274 -374.75546
56.298786 2.1036794e-06 -374.75543
56.298786 -6.2553911 -374.75546
56.298786 -12.5108 -374.75543
56.298786 -18.766264 -374.75543
56.298786 -25.021669 -374.75546
56.298786 -31.277079 -374.75546
56.298786 -37.532505 -374.75543
56.298786 -43.787937 -374.75546
56.298786 -50.043331 -374.75546
56.298786 -56.298756 -374.75543
56.298786 -62.554192 -374.75546
56.298786 -68.809586 -374.75549
56.298786 -75.06501 -374.75546
56.298786 -81.320457 -374.75543
56.298786 -87.575867 -374.75543
56.298786 -93.831261 -374.75546
56.298786 -100.08672 -374.75543
56.298786 -106.34212 -374.75543
56.298786 -112.59754 -374.75549
56.298786 -118.85297 -374.75546
56.298786 -125.10838 -374.75543
56.298786 -131.36383 -374.75543
56.298786 -137.61922 -374.75546
56.298786 -143.87463 -374.75543
59.588844 -158.90356 -330.62817
57.248081 -159.02243 -362.02319
56.228344 -162.43742 -375.7002
56.228344 -168.68501 -375.7002
56.228344 -174.93262 -375.70023
63.451462 158.62868 -363.92462
63.451462 152.28352 -363.92462
63.451462 145.93839 -363.92465
63.850613 140.47137 -359.10645
66.968292 140.63344 -321.47278
65.868355 131.73674 -334.75015
63.529037 120.70521 -362.98819
63.529037 114.35229 -362.98819
63.529037 107.99937 -362.98822
63.529037 101.64647 -362.98819
63.529037 95.293579 -362.98819
63.529037 88.940689 -362.98819
63.529037 82.587769 -362.98816
63.529037 76.234879 -362.98816
63.529037 69.88195 -362.98819
63.529037 63.529068 -362.98819
63.529037 57.176174 -362.98822
63.529037 50.82325 -362.98816
63.529037 44.47036 -362.98819
63.529037 38.117439 -362.98822
63.529037 31.76453 -362.98819
63.529037 25.411638 -362.98819
63.529037 19.058744 -362.98822
63.529037 12.705833 -362.98816
63.529037 6.3529015 -362.98819
63.529037 8.6623077e-06 -362.98819
63.529037 -6.3528709 -362.98819
63.529037 -12.705764 -362.98822
63.529037 -19.058689 -362.98816
63.529037 -25.411608 -362.98819
63.529037 -31.7645 -362.98822
63.529037 -38.117409 -362.98819
63.529037 -44.470303 -362.98819
63.529037 -50.823223 -362.98819
63.529037 -57.176132 -362.98819
63.529037 -63.529011 -362.98819
63.529037 -69.88192 -362.98819
63.529037 -76.23481 -362.98822
63.529037 -82.587723 -362.98816
63.529037 -88.940651 -362.98819
63.529037 -95.293533 -362.98819
63.529037 -101.64645 -362.98819
63.529037 -107.99933 -362.98819
63.529037 -114.35224 -362.98819
63.529037 -120.70517 -362.98819
63.529037 -127.05805 -362.98819
63.529037 -133.41096 -362.98819
63.529037 -139.76387 -362.98822
68.062561 -156.54388 -308.2637
66.210686 -158.90567 -330.61783
63.609772 -159.02441 -362.01367
63.451462 -164.97377 -363.92462
63.451462 -171.31892 -363.92465
63.451462 -177.66406 -363.92465
70.903725 154.69905 -351.77548
70.903725 148.25325 -351.77548
70.903725 141.80746 -351.77548
73.664871 140.63295 -321.4754
75.053711 136.46132 -306.23474
70.988205 122.61604 -350.84836
70.988205 116.16255 -350.84833
70.988205 109.70909 -350.84836
70.988205 103.25558 -350.84839
70.988205 96.802094 -350.84836
70.988205 90.34864 -350.84839
70.988205 83.895164 -350.84839
70.988205 77.441673 -350.84836
70.988205 70.988213 -350.84839
70.988205 64.534729 -350.84836
70.988205 58.081272 -350.84839
70.988205 51.627796 -350.84839
70.988205 45.174305 -350.84836
70.988205 38.720856 -350.84839
70.988205 32.267384 -350.84839
70.988205 25.81389 -350.84836
70.988205 19.360432 -350.84839
70.988205 12.90694 -350.84836
70.988205 6.4534802 -350.84839
70.988205 4.8264783e-06 -350.84839
70.988205 -6.4534736 -350.84836
70.988205 -12.906933 -350.84839
70.988205 -19.360409 -350.84839
70.988205 -25.813868 -350.84839
70.988205 -32.267361 -350.84839
70.988205 -38.720852 -350.84836
70.988205 -45.174297 -350.84836
70.988205 -51.627758 -350.84836
70.988205 -58.081249 -350.84833
70.988205 -64.534714 -350.84836
70.988205 -70.988174 -350.84836
70.988205 -77.441635 -350.84839
70.988205 -83.895126 -350.84836
70.988205 -90.348595 -350.84833
70.988205 -96.802055 -350.84836
70.988205 -103.25554 -350.84836
70.988205 -109.70902 -350.84833
70.988205 -116.16249 -350.84836
70.988205 -122.616 -350.84836
70.988205 -129.06946 -350.84839
70.988205 -135.52293 -350.84839
70.988205 -141.97643 -350.84836
75.937729 -158.77887 -296.53378
72.832695 -158.9077 -330.60751
70.903725 -161.14484 -351.77545
70.903725 -167.59061 -351.77545
70.903725 -174.03638 -351.77551
70.903725 -180.48218 -351.77548
78.596466 157.19295 -339.23215
78.596466 150.64323 -339.23215
78.596466 144.09354 -339.23218
80.36116 140.63205 -321.48071
84.486679 140.81116 -279.98114
78.68734 124.58833 -338.31799
78.68734 118.03104 -338.31802
78.68734 111.47373 -338.31799
78.68734 104.91648 -338.31799
78.68734 98.359169 -338.31799
78.68734 91.801918 -338.31799
78.68734 85.244637 -338.31802
78.68734 78.68737 -338.31799
78.68734 72.130058 -338.31799
78.68734 65.572807 -338.31799
78.68734 59.015499 -338.31796
78.68734 52.458263 -338.31799
78.68734 45.900974 -338.31802
78.68734 39.343693 -338.31799
78.68734 32.786404 -338.31799
78.68734 26.229136 -338.31796
78.68734 19.671862 -338.31802
78.68734 13.114583 -338.31799
78.68734 6.5572929 -338.31799
78.68734 2.6031341e-05 -338.31796
78.68734 -6.5572639 -338.31799
78.68734 -13.114511 -338.31799
78.68734 -19.671818 -338.31799
78.68734 -26.229069 -338.31799
78.68734 -32.786388 -338.31799
78.68734 -39.343639 -338.31799
78.68734 -45.900928 -338.31799
78.68734 -52.458179 -338.31799
78.68734 -59.015499 -338.31799
78.68734 -65.572762 -338.31799
78.68734 -72.130043 -338.31799
78.68734 -78.687317 -338.31799
78.68734 -85.244598 -338.31799
78.68734 -91.801872 -338.31799
78.68734 -98.359154 -338.31799
78.68734 -104.91643 -338.31796
78.68734 -111.4737 -338.31802
78.68734 -118.03098 -338.31799
78.68734 -124.58827 -338.31799
78.68734 -131.14552 -338.31802
78.68734 -137.70282 -338.31796
82.307167 -150.89644 -301.90536
82.842278 -158.78101 -296.52261
79.45488 -158.90977 -330.59714
78.596466 -163.74263 -339.23212
78.596466 -170.29236 -339.23212
78.596466 -176.84204 -339.23212
86.541016 159.76808 -326.28043
86.541016 153.11108 -326.28043
86.541016 146.45406 -326.28036
87.05764 140.63162 -321.48334
91.526604 140.81018 -279.98697
86.638489 126.62551 -325.37534
86.638489 119.96103 -325.37534
86.638489 113.29652 -325.37531
86.638489 106.632 -325.37534
86.638489 99.967506 -325.37531
86.638489 93.303009 -325.37531
86.638489 86.638512 -325.37531
86.638489 79.97403 -325.37531
86.638489 73.309502 -325.37534
86.638489 66.64502 -325.37534
86.638489 59.980518 -325.37531
86.638489 53.316036 -325.37531
86.638489 46.651497 -325.37531
86.638489 39.987019 -325.37531
86.638489 33.32251 -325.37531
86.638489 26.658018 -325.37531
86.638489 19.993525 -325.37527
86.638489 13.329011 -325.37534
86.638489 6.6645327 -325.37534
86.638489 2.5744095e-05 -325.37531
86.638489 -6.6644521 -325.37531
86.638489 -13.328999 -325.37534
86.638489 -19.993477 -325.37534
86.638489 -26.657984 -325.37531
86.638489 -33.32246 -325.37531
86.638489 -39.986969 -325.37527
86.638489 -46.651493 -325.37531
86.638489 -53.315968 -325.37534
86.638489 -59.980453 -325.37531
86.638489 -66.644966 -325.37534
86.638489 -73.309464 -325.37531
86.638489 -79.973969 -325.37531
86.638489 -86.638474 -325.37531
86.638489 -93.302971 -325.37531
86.638489 -99.967461 -325.37534
86.638489 -106.63198 -325.37527
86.638489 -113.29646 -325.37534
86.638489 -119.96098 -325.37527
86.638489 -126.62546 -325.37531
86.638489 -133.28998 -325.37527
86.638489 -139.95445 -325.37531
93.74395 -158.64359 -259.39795
89.747314 -158.78369 -296.50851
86.541016 -159.76796 -326.28043
86.541016 -166.42502 -326.2804
86.541016 -173.08203 -326.28036
86.541016 -179.739 -326.28043
94.750191 155.66109 -312.89725
94.750191 148.89317 -312.89725
94.750191 142.12532 -312.89725
98.56678 140.80972 -279.9899
99.820778 135.4711 -269.17767
94.853668 121.95473 -312.00504
94.853668 115.17949 -312.005
94.853668 108.40422 -312.00504
94.853668 101.62895 -312.00507
94.853668 94.853699 -312.00504
94.853668 88.07843 -312.00507
94.853668 81.303177 -312.00504
94.853668 74.527908 -312.00507
94.853668 67.75264 -312.005
94.853668 60.977371 -312.00504
94.853668 54.202103 -312.00504
94.853668 47.426853 -312.00504
94.853668 40.651585 -312.00504
94.853668 33.876328 -312.00504
94.853668 27.101061 -312.00504
94.853668 20.325832 -312.00504
94.853668 13.550537 -312.00504
94.853668 6.7753096 -312.00504
94.853668 1.033553e-05 -312.005
94.853668 -6.7752695 -312.00504
94.853668 -13.550482 -312.00507
94.853668 -20.325781 -312.00504
94.853668 -27.101021 -312.00504
94.853668 -33.876305 -312.00504
94.853668 -40.651546 -312.00504
94.853668 -47.426811 -312.00507
94.853668 -54.202065 -312.005
94.853668 -60.977337 -312.00507
94.853668 -67.752625 -312.00504
94.853668 -74.527855 -312.00504
94.853668 -81.303108 -312.00504
94.853668 -88.078384 -312.005
94.853668 -94.853668 -312.005
94.853668 -101.6289 -312.00507
94.853668 -108.40417 -312.00504
94.853668 -115.17944 -312.005
94.853668 -121.95469 -312.00507
94.853668 -128.72995 -312.00504
94.853668 -135.50523 -312.00504
94.853668 -142.2805 -312.00497
100.95646 -158.64584 -259.38562
96.652252 -158.7858 -296.49731
94.750191 -162.42888 -312.89722
94.750191 -169.19673 -312.89728
94.750191 -175.96461 -312.89722
103.23744 158.29747 -299.06076
103.23744 151.41493 -299.06073
103.23744 144.53242 -299.06073
105.60653 140.80873 -279.99573
111.32137 141.00711 -234.00626
103.34654 124.01588 -298.1828
103.34654 117.12608 -298.1828
103.34654 110.23634 -298.18283
103.34654 103.34655 -298.18283
103.34654 96.456787 -298.1828
103.34654 89.567001 -298.18283
103.34654 82.677261 -298.18283
103.34654 75.787491 -298.1828
103.34654 68.897705 -298.18283
103.34654 62.007946 -298.1828
103.34654 55.118168 -298.18283
103.34654 48.22842 -298.18283
103.34654 41.338615 -298.1828
103.34654 34.448868 -298.1828
103.34654 27.559097 -298.18283
103.34654 20.669321 -298.18283
103.34654 13.779536 -298.18283
103.34654 6.8897901 -298.18283
103.34654 5.1302777e-05 -298.18283
103.34654 -6.8897552 -298.18283
103.34654 -13.77951 -298.1828
103.34654 -20.669304 -298.1828
103.34654 -27.559034 -298.18283
103.34654 -34.448826 -298.18283
103.34654 -41.338596 -298.18283
103.34654 -48.22839 -298.18283
103.34654 -55.118118 -298.18283
103.34654 -62.007885 -298.18283
103.34654 -68.897659 -298.18286
103.34654 -75.787437 -298.1828
103.34654 -82.677208 -298.18283
103.34654 -89.566986 -298.18277
103.34654 -96.456741 -298.1828
103.34654 -103.3465 -298.18283
103.34654 -110.2363 -298.1828
103.34654 -117.12605 -298.18283
103.34654 -124.01582 -298.18286
103.34654 -130.90561 -298.1828
103.34654 -137.79535 -298.18283
108.89603 -152.45442 -253.524
108.16915 -158.64807 -259.37338
103.55738 -158.78795 -296.48605
103.23744 -165.17992 -299.0607
103.23744 -172.06239 -299.06076
103.23744 -178.94489 -299.06073
112.01752 161.02522 -284.7446
112.01752 154.02414 -284.74463
112.01752 147.02303 -284.74463
112.64658 140.80826 -279.99863
118.74237 141.00659 -234.00951
112.1314 126.14785 -283.88538
112.1314 119.13963 -283.88538
112.1314 112.13145 -283.88538
112.1314 105.12321 -283.88538
112.1314 98.115021 -283.88535
112.1314 91.106789 -283.88535
112.1314 84.098572 -283.88538
112.1314 77.090393 -283.88538
112.1314 70.082138 -283.88535
112.1314 63.073925 -283.88538
112.1314 56.065742 -283.88538
112.1314 49.057526 -283.88541
112.1314 42.049274 -283.88538
112.1314 35.041096 -283.88538
112.1314 28.032875 -283.88541
112.1314 21.02466 -283.88535
112.1314 14.016452 -283.88538
112.1314 7.0082226 -283.88538
112.1314 3.9765466e-05 -283.88538
112.1314 -7.0082011 -283.88535
112.1314 -14.016422 -283.88538
112.1314 -21.024605 -283.88538
112.1314 -28.032835 -283.88538
112.1314 -35.041019 -283.88538
112.1314 -42.049259 -283.88535
112.1314 -49.057503 -283.88535
112.1314 -56.065662 -283.88538
112.1314 -63.073902 -283.88535
112.1314 -70.0821 -283.88541
112.1314 -77.090317 -283.88538
112.1314 -84.098564 -283.88535
112.1314 -91.106743 -283.88538
112.1314 -98.11496 -283.88535
112.1314 -105.12318 -283.88531
112.1314 -112.13139 -283.88538
112.1314 -119.1396 -283.88535
112.1314 -126.14779 -283.88538
112.1314 -133.15605 -283.88538
112.1314 -140.16425 -283.88535
120.76044 -158.49805 -218.78438
115.38247 -158.65086 -259.35806
112.01714 -161.02463 -284.7475
112.01752 -168.02623 -284.7446
112.01752 -175.02734 -284.74463
121.10509 156.72424 -269.92941
121.10509 149.6004 -269.92938
121.10509 142.47658 -269.92938
126.16286 141.00554 -234.01601
126.92154 134.38756 -228.62886
121.22403 121.22407 -269.08475
121.22403 114.09322 -269.08475
121.22403 106.9624 -269.08472
121.22403 99.831573 -269.08475
121.22403 92.700768 -269.08472
121.22403 85.569923 -269.08472
121.22403 78.439095 -269.08475
121.22403 71.308289 -269.08475
121.22403 64.177429 -269.08472
121.22403 57.046642 -269.08472
121.22403 49.915794 -269.08475
121.22403 42.784992 -269.08472
121.22403 35.654163 -269.08475
121.22403 28.523314 -269.08475
121.22403 21.392506 -269.08472
121.22403 14.261682 -269.08475
121.22403 7.1308594 -269.08472
121.22403 1.906613e-05 -269.08472
121.22403 -7.130805 -269.08475
121.22403 -14.261652 -269.08469
121.22403 -21.392445 -269.08478
121.22403 -28.523252 -269.08475
121.22403 -35.654102 -269.08475
121.22403 -42.784954 -269.08475
121.22403 -49.915764 -269.08472
121.22403 -57.046604 -269.08472
121.22403 -64.177376 -269.08478
121.22403 -71.308228 -269.08475
121.22403 -78.439034 -269.08472
121.22403 -85.569878 -269.08472
121.22403 -92.700737 -269.08472
121.22403 -99.831543 -269.08472
121.22403 -106.96234 -269.08478
121.22403 -114.09318 -269.08475
121.22403 -121.22401 -269.08475
121.22403 -128.35484 -269.08475
121.22403 -135.48567 -269.08472
121.22403 -142.61652 -269.08472
128.30986 -158.50037 -218.77097
122.5956 -158.65308 -259.34583
121.10509 -163.84804 -269.92935
121.10509 -170.97186 -269.92935
121.10509 -178.0957 -269.92935
130.51695 159.52075 -254.58546
130.51695 152.26981 -254.58546
130.51695 145.01884 -254.58548
133.58371 141.00507 -234.01924
139.87671 139.87672 -191.81746
130.64001 123.38226 -253.76009
130.64001 116.12447 -253.7601
130.64001 108.86672 -253.7601
130.64001 101.60893 -253.7601
130.64001 94.351135 -253.76012
130.64001 87.093384 -253.76009
130.64001 79.835602 -253.76013
130.64001 72.577812 -253.76013
130.64001 65.320053 -253.76012
130.64001 58.062244 -253.76009
130.64001 50.804451 -253.7601
130.64001 43.546703 -253.76009
130.64001 36.28891 -253.7601
130.64001 29.031124 -253.76012
130.64001 21.773369 -253.7601
130.64001 14.515558 -253.76007
130.64001 7.2577648 -253.76007
130.64001 1.1253396e-05 -253.76007
130.64001 -7.2577763 -253.76007
130.64001 -14.515564 -253.76009
130.64001 -21.773317 -253.76007
130.64001 -29.031116 -253.76009
130.64001 -36.288898 -253.7601
130.64001 -43.546658 -253.76009
130.64001 -50.804436 -253.7601
130.64001 -58.062199 -253.76009
130.64001 -65.319977 -253.7601
130.64001 -72.577782 -253.7601
130.64001 -79.835518 -253.7601
130.64001 -87.093323 -253.7601
130.64001 -94.351097 -253.76012
130.64001 -101.60886 -253.7601
130.64001 -108.86664 -253.76012
130.64001 -116.12443 -253.76012
130.64001 -123.38222 -253.76012
130.64001 -130.63998 -253.76013
130.64001 -137.89777 -253.76013
139.0208 -154.46756 -197.55731
135.8595 -158.50275 -218.75748
130.51695 -159.52069 -254.58546
130.51695 -166.77164 -254.58546
130.51695 -174.02258 -254.58548
140.27129 155.03674 -238.68082
140.27129 147.65401 -238.68083
141.00401 141.00404 -234.02576
149.07071 141.22493 -182.77643
140.39735 125.61871 -237.87988
140.39735 118.2294 -237.87991
140.39735 110.84005 -237.8799
140.39735 103.4507 -237.87988
140.39735 96.061378 -237.87991
140.39735 88.672028 -237.8799
140.39735 81.282715 -237.87993
140.39735 73.893364 -237.87991
140.39735 66.504021 -237.8799
140.39735 59.114697 -237.87993
140.39735 51.72538 -237.87988
140.39735 44.336033 -237.87988
140.39735 36.946712 -237.8799
140.39735 29.557371 -237.8799
140.39735 22.168018 -237.87988
140.39735 14.778719 -237.87993
140.39735 7.3893733 -237.87993
140.39735 2.583397e-05 -237.87991
140.39735 -7.3893199 -237.87991
140.39735 -14.778661 -237.87988
140.39735 -22.168007 -237.87988
140.39735 -29.557312 -237.87994
140.39735 -36.946667 -237.87993
140.39735 -44.33596 -237.87988
140.39735 -51.725315 -237.87987
140.39735 -59.114658 -237.87987
140.39735 -66.503967 -237.87993
140.39735 -73.893303 -237.87991
140.39735 -81.282654 -237.8799
140.39735 -88.672005 -237.87988
140.39735 -96.06134 -237.87988
140.39735 -103.45065 -237.87994
140.39735 -110.84 -237.87993
140.39735 -118.22935 -237.87991
140.39735 -125.61868 -237.87988
140.39735 -133.00801 -237.87988
140.39735 -140.39731 -237.87994
150.42079 -158.33763 -174.19916
143.40936 -158.50508 -218.74405
140.27078 -162.41879 -238.68405
140.27129 -169.80208 -238.68082
140.27129 -177.1848 -238.68083
150.38615 157.90547 -222.19083
150.38615 150.38618 -222.19081
150.38615 142.86685 -222.19081
156.91534 141.22383 -182.78366
156.70215 133.19687 -184.07039
150.51497 120.41199 -221.41338
150.51497 112.88625 -221.41338
150.51497 105.36049 -221.41342
150.51497 97.834732 -221.41338
150.51497 90.309006 -221.41339
150.51497 82.783272 -221.41339
150.51497 75.257484 -221.41339
150.51497 67.731781 -221.41342
150.51497 60.206032 -221.41339
150.51497 52.680233 -221.41338
150.51497 45.15453 -221.41341
150.51497 37.62878 -221.41339
150.51497 30.102991 -221.41339
150.51497 22.577282 -221.41342
150.51497 15.051531 -221.41338
150.51497 7.5257416 -221.41338
150.51497 3.1651838e-05 -221.41342
150.51497 -7.5257182 -221.41339
150.51497 -15.051476 -221.41335
150.51497 -22.577211 -221.41342
150.51497 -30.102962 -221.41338
150.51497 -37.628719 -221.41336
150.51497 -45.154461 -221.41342
150.51497 -52.680206 -221.41339
150.51497 -60.205971 -221.41335
150.51497 -67.731705 -221.41342
150.51497 -75.257469 -221.41339
150.51497 -82.783211 -221.41336
150.51497 -90.308952 -221.41342
150.51497 -97.834709 -221.41339
150.51497 -105.36046 -221.41335
150.51497 -112.88615 -221.41339
150.51497 -120.41196 -221.41339
150.51497 -127.93771 -221.41336
150.51497 -135.46344 -221.41341
150.51497 -142.98918 -221.41338
158.34074 -158.34073 -174.18062
150.96001 -158.508 -218.72726
150.38615 -165.42474 -222.19081
150.38615 -172.94405 -222.19083
150.38615 -180.46335 -222.19083
160.88239 160.88242 -205.07899
160.88239 153.22136 -205.07904
160.88239 145.5603 -205.07903
164.76047 141.2233 -182.78729
171.60451 138.91794 -143.44688
161.01375 122.67718 -204.32401
161.01375 115.00984 -204.32401
161.01375 107.3425 -204.32401
161.01375 99.675201 -204.32397
161.01375 92.007866 -204.32397
161.01375 84.340546 -204.32402
161.01375 76.673225 -204.32396
161.01375 69.005913 -204.32401
161.01375 61.3386 -204.32404
161.01375 53.671272 -204.32397
161.01375 46.00396 -204.32401
161.01375 38.336601 -204.32397
161.01375 30.669329 -204.32399
161.01375 23.002008 -204.32404
161.01375 15.334648 -204.32399
159.42967 7.5919328 -213.42946
159.42967 2.4170402e-05 -213.42944
159.42967 -7.5918779 -213.42941
159.42967 -15.183732 -213.42947
159.42967 -22.77564 -213.42946
159.42967 -30.367537 -213.42943
161.01375 -38.336613 -204.32397
161.01375 -46.003891 -204.32399
161.01375 -53.671211 -204.32404
161.01375 -61.338558 -204.32401
161.01375 -69.005836 -204.32402
161.01375 -76.673203 -204.32397
161.01375 -84.340523 -204.32402
161.01375 -92.007835 -204.32396
161.01375 -99.675156 -204.32399
161.01375 -107.34248 -204.32404
161.01375 -115.00979 -204.32396
161.01375 -122.6771 -204.32401
161.01375 -130.34447 -204.32397
161.01375 -138.01175 -204.32399
174.80713 -158.1588 -125.03781
166.26035 -158.34319 -174.16583
160.88239 -160.88235 -205.07904
160.88239 -168.54343 -205.07904
160.88239 -176.2045 -205.07904
171.78265 156.16608 -187.30605
171.78265 148.35777 -187.30606
172.60489 141.22221 -182.79457
183.07843 141.46974 -125.32785
171.91444 125.02872 -186.58293
171.91444 117.21439 -186.5829
171.91444 109.40015 -186.58293
171.91444 101.58582 -186.5829
171.91444 93.771538 -186.58295
171.91444 85.957253 -186.5829
171.91444 78.14296 -186.58293
171.91444 70.328629 -186.5829
171.91444 62.514389 -186.58292
171.91444 54.700062 -186.58289
171.91444 46.88578 -186.58295
171.91444 39.071484 -186.58287
171.91444 31.257196 -186.58292
171.91444 23.442871 -186.58289
171.91444 15.628631 -186.58292
166.25093 7.55689 -217.65779
166.25093 3.4713754e-05 -217.65778
166.25093 -7.5568595 -217.65779
166.25093 -15.113707 -217.65779
166.25093 -22.670563 -217.65778
166.25093 -30.22743 -217.65778
171.91444 -39.071419 -186.58295
171.91444 -46.885746 -186.58292
171.91444 -54.699997 -186.58295
171.91444 -62.514324 -186.58292
171.91444 -70.328606 -186.58296
171.91444 -78.142899 -186.5829
171.91444 -85.957176 -186.58295
171.91444 -93.7715 -186.58292
171.91444 -101.58576 -186.58293
171.91444 -109.40009 -186.5829
171.91444 -117.21437 -186.58295
171.91444 -125.02866 -186.58289
171.91444 -132.84294 -186.58293
171.91444 -140.65726 -186.5829
183.13426 -158.16142 -125.02147
174.18019 -158.34563 -174.15105
171.782 -163.97369 -187.30963
171.78265 -171.78262 -187.30606
171.78265 -179.59094 -187.30603
183.10939 159.22559 -168.84026
183.10939 151.26433 -168.8403
183.10939 143.30304 -168.84029
191.39862 141.46858 -125.33601
183.24123 127.47216 -168.14839
183.24123 119.50515 -168.14838
183.24123 111.53814 -168.14838
183.24123 103.57113 -168.14838
183.24123 95.604156 -168.14844
183.24123 87.637146 -168.14844
183.24123 79.670135 -168.14844
183.24123 71.703117 -168.14844
183.24123 63.736111 -168.14844
183.24123 55.769096 -168.14844
183.24123 47.802086 -168.14844
183.24123 39.835075 -168.14842
183.24123 31.868063 -168.14842
183.24123 23.901049 -168.14842
183.24123 15.934036 -168.14842
175.35999 7.6243582 -209.51144
175.35999 1.6522496e-05 -209.51146
175.35999 -7.6242929 -209.51144
175.35999 -15.248643 -209.51144
175.35999 -22.872992 -209.51144
175.35999 -30.497334 -209.51146
183.24123 -39.835011 -168.14838
183.24123 -47.802029 -168.14838
183.24123 -55.769043 -168.14838
183.24123 -63.736053 -168.14838
183.24123 -71.703064 -168.14838
183.24123 -79.670067 -168.14836
183.24123 -87.637077 -168.14836
183.24123 -95.604095 -168.14836
183.24123 -103.57111 -168.14836
183.24123 -111.53808 -168.14844
183.24123 -119.50509 -168.14842
183.24123 -127.4721 -168.14842
183.24123 -135.43912 -168.14842
191.11742 -149.5701 -126.81194
191.46165 -158.16396 -125.00518
183.10867 -159.22491 -168.84396
183.10939 -167.1868 -168.84027
183.10939 -175.1481 -168.84024
254.03981 243.45491 147.87004
254.03981 232.86989 147.87006
254.03981 222.28487 147.87007
254.03981 211.69987 147.87003
194.88882 154.28699 -149.63646
194.88882 146.16663 -149.63649
199.7195 141.468 -125.34008
206.78235 137.85493 -89.816544
195.01955 121.88725 -148.97899
195.01955 113.76141 -148.97899
195.01955 105.63559 -148.97897
195.01955 97.509781 -148.97896
195.01955 89.383972 -148.97894
195.01955 81.258125 -148.97896
195.01955 73.132362 -148.97902
195.01955 65.006554 -148.979
195.01955 56.880745 -148.97899
195.01955 48.754898 -148.97899
195.01955 40.629089 -148.97897
195.01955 32.503277 -148.97897
195.01955 24.377468 -148.97896
195.01955 16.251629 -148.97897
186.62199 7.7759547 -191.21536
186.62199 3.2401353e-05 -191.21533
186.62199 -7.7758498 -191.21539
186.62199 -15.551787 -191.21536
186.62199 -23.327717 -191.21533
186.62199 -31.10364 -191.21532
195.01955 -40.62907 -148.97899
195.01955 -48.754875 -148.97897
195.01955 -56.880692 -148.97896
195.01955 -65.0065 -148.97896
195.01955 -73.132301 -148.97903
195.01955 -81.25811 -148.97902
195.01955 -89.383919 -148.979
195.01955 -97.509727 -148.97899
195.01955 -105.63557 -148.979
195.01955 -113.76138 -148.97899
195.01955 -121.8872 -148.97897
195.01955 -130.013 -148.97896
195.01955 -138.13885 -148.97897
210.61774 -157.96327 -70.526115
199.79015 -158.16719 -124.98468
194.88882 -162.4073 -149.63654
194.88882 -170.52768 -149.63646
194.88882 -178.64804 -149.63649
263.42761 242.35347 142.08945
263.42761 231.81638 142.08946
263.42761 221.27925 142.08946
263.42761 210.74211 142.08946
207.14862 157.43297 -129.64954
207.14862 149.14702 -129.64961
208.03944 141.46684 -125.34823
221.47832 141.74617 -60.459625
207.2778 124.36674 -129.02579
207.2778 116.07559 -129.02577
207.2778 107.78448 -129.02576
207.2778 99.493378 -129.02582
207.2778 91.202263 -129.02579
207.2778 82.911156 -129.02576
207.2778 74.620003 -129.02576
207.2778 66.328934 -129.02579
207.2778 58.037827 -129.02576
207.2778 49.746677 -129.02576
207.2778 41.455608 -129.0258
207.2778 33.164497 -129.02577
207.2778 24.873352 -129.02577
207.2778 16.582237 -129.02573
198.3401 7.933629 -172.18076
198.3401 1.1431576e-05 -172.18077
198.3401 -7.9336061 -172.18077
198.3401 -15.867151 -172.18082
198.3401 -23.800768 -172.18083
198.34087 -31.734524 -172.17709
207.2778 -41.455563 -129.02574
207.2778 -49.746628 -129.02579
207.2778 -58.037781 -129.02577
207.2778 -66.328896 -129.02574
207.2778 -74.619957 -129.02579
207.2778 -82.91111 -129.02579
207.2778 -91.202225 -129.02576
207.2778 -99.493286 -129.0258
207.2778 -107.78443 -129.02579
207.2778 -116.07554 -129.02576
207.2778 -124.36665 -129.02573
207.2778 -132.65776 -129.02579
207.2778 -140.94887 -129.02576
219.39723 -157.96602 -70.507896
208.1181 -158.16972 -124.96838
207.14862 -165.71884 -129.64958
207.14862 -174.00479 -129.64957
272.73083 241.26193 136.36101
272.73083 230.77234 136.36098
272.73083 220.28259 136.36095
272.73083 209.79294 136.36098
219.91966 160.71054 -108.82637
219.91966 152.25212 -108.82642
219.91966 143.79366 -108.8264
230.33644 141.74553 -60.464256
220.04424 126.94862 -108.24812
220.04424 118.4854 -108.24817
220.04424 110.02212 -108.24812
220.04424 101.55889 -108.24815
220.04424 93.095657 -108.2481
220.04424 84.632431 -108.24813
220.04424 76.169205 -108.24818
220.04424 67.705925 -108.24813
220.04424 59.242702 -108.24817
220.04424 50.779465 -108.2481
220.04424 42.316242 -108.24814
220.04424 33.852966 -108.2481
220.04424 25.389742 -108.24814
220.04424 16.92651 -108.24817
210.54414 8.0978804 -152.3544
210.54414 1.80855e-05 -152.35434
210.54414 -8.0978327 -152.35439
210.54414 -16.195648 -152.35442
210.54498 -24.293619 -152.35051
210.54498 -32.391521 -152.35048
220.04424 -42.316143 -108.24815
220.04424 -50.779415 -108.24811
220.04424 -59.242645 -108.24815
220.04424 -67.705917 -108.24811
220.04424 -76.169144 -108.24814
220.04424 -84.63237 -108.24818
220.04424 -93.095604 -108.24811
220.04424 -101.55884 -108.24815
220.04424 -110.0221 -108.24811
220.04424 -118.48533 -108.24814
220.04424 -126.94861 -108.24811
220.04424 -135.41179 -108.24812
232.07986 -151.74452 -52.370037
228.17705 -157.9687 -70.489746
219.91878 -160.70985 -108.83057
219.91966 -169.16893 -108.8264
219.91966 -177.6274 -108.82638
281.95065 240.18022 130.68385
281.95065 229.73764 130.68387
281.95065 219.29497 130.68382
281.95065 208.85239 130.68384
281.95065 198.40973 130.68381
233.23282 155.4886 -87.122162
233.23282 146.85033 -87.122108
239.19348 141.74431 -60.473469
246.00536 136.66969 -30.019228
233.35196 120.99734 -86.589478
233.35196 112.35465 -86.589478
233.35196 103.71205 -86.589523
233.35196 95.069366 -86.589516
233.35196 86.426682 -86.589508
233.35196 77.783997 -86.589508
233.35196 69.14135 -86.589478
233.35196 60.498661 -86.58947
233.35196 51.856022 -86.589539
233.35196 43.213375 -86.589508
233.35196 34.570694 -86.589508
233.35196 25.928009 -86.5895
233.35196 17.285357 -86.58947
223.26418 8.2690573 -131.6897
223.26418 2.6407508e-05 -131.68974
223.26418 -8.2690067 -131.6897
223.26418 -16.538082 -131.68967
223.26506 -24.807203 -131.68565
223.26506 -33.076263 -131.68571
233.35196 -43.213314 -86.589462
233.35196 -51.855949 -86.589523
233.35196 -60.498634 -86.589523
233.35196 -69.141281 -86.589493
233.35196 -77.783966 -86.589485
233.35196 -86.426659 -86.589485
233.35196 -95.069305 -86.589455
233.35196 -103.71194 -86.589523
233.35196 -112.35462 -86.589516
233.35196 -120.99731 -86.589508
233.35196 -129.63995 -86.589485
233.35196 -138.28264 -86.589478
250.53558 -157.74461 -9.7655754
236.95715 -157.97142 -70.471603
233.23282 -164.12679 -87.122086
233.23282 -172.76501 -87.122116
291.08817 239.10815 125.05734
291.08817 228.7122 125.05739
291.08817 218.31618 125.05738
291.08817 207.92015 125.05737
291.08817 197.52412 125.05737
247.12427 158.86563 -64.475105
247.12427 150.03976 -64.475082
248.05142 141.74371 -60.478176
265.17999 142.06073 13.364782
247.23619 123.61813 -63.992626
247.23619 114.78826 -63.992599
247.23619 105.95839 -63.992584
247.23619 97.12854 -63.992664
247.23619 88.298668 -63.992638
247.23619 79.468803 -63.992619
247.23619 70.638931 -63.992603
247.23619 61.809071 -63.99258
247.23619 52.97921 -63.992657
247.23619 44.149345 -63.992638
247.23619 35.319477 -63.992619
247.23619 26.489609 -63.992596
247.23619 17.659788 -63.992649
236.53362 8.4476185 -110.13241
236.53362 4.5002213e-05 -110.13247
236.53362 -8.4475756 -110.13245
236.53461 -16.89534 -110.1282
236.53461 -25.343 -110.12821
236.53461 -33.790657 -110.12822
247.23619 -44.149311 -63.992634
247.23619 -52.979172 -63.992611
247.23619 -61.80904 -63.992588
247.23619 -70.638863 -63.992645
247.23619 -79.468727 -63.992626
247.23619 -88.298637 -63.99263
247.23619 -97.128502 -63.992611
247.23619 -105.95837 -63.992592
247.23619 -114.78819 -63.992641
247.23619 -123.61805 -63.992622
247.23619 -132.44795 -63.992626
247.23619 -141.27783 -63.992607
259.82056 -157.74815 -9.7402077
247.12427 -158.86559 -64.475075
247.12427 -167.69148 -64.475075
247.12427 -176.51735 -64.475067
300.14444 238.04568 119.48094
300.14444 227.69583 119.48089
300.14444 217.34599 119.48094
300.14444 206.99622 119.48093
300.14444 196.64642 119.48091
300.14444 186.29662 119.48097
261.6337 153.37154 -40.817699
261.6337 144.34964 -40.817665
274.64944 142.06007 13.359519
261.73636 126.35551 -40.390373
261.73636 117.33011 -40.390343
261.73636 108.30475 -40.390388
261.73636 99.279343 -40.390354
261.73636 90.253975 -40.390404
261.73636 81.228539 -40.390392
261.73636 72.203133 -40.390369
261.73636 63.177773 -40.390411
261.73636 54.152363 -40.390381
261.73636 45.126957 -40.390347
261.73636 36.101597 -40.390392
261.73636 27.076191 -40.390366
261.73636 18.050831 -40.390408
250.3889 8.6341181 -87.623451
250.3889 3.2338259e-05 -87.623497
250.38995 -8.6341076 -87.619041
250.38995 -17.268276 -87.619034
250.38995 -25.902361 -87.619087
250.39101 -34.536697 -87.614639
261.73636 -45.126957 -40.390366
261.73636 -54.152321 -40.390411
261.73636 -63.177723 -40.390381
261.73636 -72.203133 -40.39035
261.73636 -81.228485 -40.390396
261.73636 -90.253899 -40.390369
261.73636 -99.279259 -40.390411
261.73636 -108.30466 -40.390381
261.73636 -117.33007 -40.39035
261.73636 -126.35544 -40.390396
261.73636 -135.38083 -40.390362
279.66656 -154.29875 34.242874
269.10477 -157.75102 -9.7198906
261.63257 -162.39262 -40.822437
261.6337 -171.41519 -40.817654
309.11908 236.99132 113.94754
309.11908 226.68733 113.94755
309.11908 216.38336 113.94756
309.11908 206.07939 113.94758
309.11908 195.77542 113.94759
309.11908 185.47148 113.94753
276.8009 156.85388 -16.090771
276.8009 147.6272 -16.09078
284.11749 142.05878 13.348916
289.71692 135.20123 35.879318
276.892 119.98654 -15.724168
276.892 110.75681 -15.724191
276.892 101.52708 -15.724216
276.892 92.297379 -15.724217
276.892 83.06765 -15.724236
276.892 73.837868 -15.724184
276.892 64.608139 -15.724206
276.892 55.378448 -15.724205
276.892 46.148716 -15.724229
276.892 36.918938 -15.724177
276.892 27.689205 -15.724199
276.892 18.459513 -15.724199
264.86966 8.829011 -64.098366
264.86966 8.5342917e-06 -64.098328
264.87079 -8.8290081 -64.093758
264.87079 -17.658047 -64.093742
264.87079 -26.487083 -64.093727
264.87195 -35.316223 -64.089127
276.892 -46.148663 -15.724185
276.892 -55.378357 -15.724185
276.892 -64.608086 -15.724208
276.892 -73.837822 -15.724231
276.892 -83.067596 -15.724178
276.892 -92.297295 -15.724178
276.892 -101.52702 -15.724199
276.892 -110.75675 -15.724221
276.892 -119.98653 -15.724173
276.892 -129.21626 -15.724194
276.892 -138.44595 -15.724192
295.31268 -157.50008 58.394985
278.38928 -157.75388 -9.6995659
276.8009 -166.08051 -16.090736
276.8009 -175.30719 -16.09074
318.01614 235.94748 108.46924
318.01614 225.68884 108.46921
318.01614 215.43028 108.46922
318.01614 205.17174 108.46923
318.01614 194.91316 108.46924
318.01614 184.65454 108.4692
292.67285 160.49806 9.7851124
292.67285 151.05699 9.7851315
293.5867 142.05811 13.343652
315.36292 142.42201 98.137878
292.74979 122.76605 10.084763
292.74979 113.32249 10.084795
292.74979 103.87901 10.084776
292.74979 94.43544 10.084811
292.74979 84.991913 10.084768
292.74979 75.548355 10.084802
292.74979 66.104836 10.08476
292.74979 56.661263 10.084793
292.74979 47.217743 10.08475
292.74979 37.774174 10.084784
292.74979 28.330654 10.084742
292.74979 18.887087 10.084774
292.74979 9.4436035 10.084756
292.74979 3.597117e-05 10.084789
292.74979 -9.4434853 10.084747
292.74979 -18.887053 10.084781
292.74979 -28.33062 10.084812
292.74979 -37.774143 10.084771
292.74979 -47.217709 10.084803
292.74979 -56.661232 10.084762
292.74979 -66.104797 10.084795
292.74979 -75.548279 10.084775
292.74979 -84.991844 10.08481
292.74979 -94.435371 10.084767
292.74979 -103.87894 10.084804
292.74979 -113.32246 10.08476
292.74979 -122.76602 10.084796
292.74979 -132.20955 10.084749
292.74979 -141.65311 10.084785
305.16379 -157.50385 58.423527
292.67148 -160.49727 9.7799015
292.67285 -169.93906 9.7851601
292.67285 -179.38008 9.7851086
326.83517 234.9128 103.03893
326.83517 224.69919 103.03886
326.83517 214.48561 103.03889
326.83517 204.27194 103.03889
326.83517 194.05843 103.03886
326.83517 183.84483 103.03891
326.83517 173.6312 103.03891
309.29984 154.64998 36.891953
309.29984 144.98425 36.89196
325.53427 142.42126 98.131744
309.35971 125.67741 37.117821
309.35971 116.00993 37.11787
309.35971 106.34244 37.117817
309.35971 96.67495 37.117867
309.35971 87.007469 37.117813
309.35971 77.339935 37.117832
309.35971 67.672447 37.117882
309.35971 58.004963 37.117828
309.35971 48.337471 37.117874
309.35971 38.669987 37.117825
309.35971 29.002499 37.11787
309.35971 19.335012 37.117817
309.35971 9.6675224 37.117863
309.35971 4.0004295e-05 37.117813
309.35971 -9.6674509 37.117855
309.35971 -19.334934 37.117809
309.35971 -29.002426 37.117851
309.35971 -38.669956 37.117874
309.35971 -48.337399 37.117844
309.35971 -58.004929 37.11787
309.35971 -67.672409 37.117821
309.35971 -77.339905 37.117863
309.35971 -87.007385 37.117809
309.35971 -96.674881 37.117859
309.35971 -106.34235 37.117805
309.35971 -116.00986 37.117851
309.35971 -125.67738 37.11787
309.35971 -135.34483 37.117851
335.40408 -157.22063 135.36266
315.01382 -157.5069 58.446415
309.29984 -164.31554 36.891975
309.29984 -173.98112 36.891964
344.09036 239.82057 128.79637
344.09036 229.39359 128.79633
344.09036 218.96658 128.79637
344.09036 208.5396 128.79633
344.09036 198.1127 128.79634
344.09036 187.6857 128.79637
344.09036 177.25873 128.79634
326.73862 158.41875 65.3255
326.73862 148.51764 65.325455
335.70389 142.41983 98.119507
326.77814 128.73082 65.469978
326.77814 118.82845 65.469978
326.77814 108.92606 65.469971
326.77814 99.023705 65.469971
326.77814 89.121368 65.469994
326.77814 79.219002 65.469986
326.77814 69.316628 65.469986
326.77814 59.414253 65.469986
326.77814 49.51189 65.469986
326.77814 39.60952 65.469978
326.77814 29.707148 65.469978
326.77814 19.804775 65.469978
326.77814 9.9024067 65.469971
326.77814 3.7355854e-05 65.469971
326.77814 -9.9023323 65.469971
326.77814 -19.804703 65.469963
326.77814 -29.707075 65.469971
326.77814 -39.609444 65.469963
326.77814 -49.511776 65.469978
326.77814 -59.414146 65.469978
326.77814 -69.316513 65.469978
326.77814 -79.218887 65.469978
326.77814 -89.121254 65.469971
326.77814 -99.023628 65.469971
326.77814 -108.92599 65.469971
326.77814 -118.82836 65.469963
326.77814 -128.73074 65.469963
326.77814 -138.6331 65.469963
345.89255 -157.22383 135.38855
326.73706 -158.41795 65.319695
326.73706 -168.31902 65.319672
326.73862 -178.22104 65.325455
363.42606 235.15805 160.42502
363.42606 224.46907 160.42509
363.42606 213.78008 160.42505
363.42792 203.0921 160.43184
363.42792 192.40308 160.43178
363.42792 181.71402 160.43181
345.04691 162.37505 95.173355
345.04691 152.22659 95.173393
345.87503 142.41917 98.113419
369.63257 141.33015 182.46011
345.06232 121.78676 95.228035
345.06232 111.63783 95.227989
345.06232 101.48892 95.228058
345.06232 91.340034 95.228035
345.06232 81.191147 95.22802
345.06232 71.042274 95.228012
345.06232 60.893391 95.227997
345.06232 50.744461 95.22805
345.06232 40.595577 95.228043
345.06232 30.446695 95.228027
345.06232 20.297815 95.228004
345.06232 10.148887 95.228073
345.06232 7.4242066e-06 95.22805
345.06232 -10.148872 95.228035
345.06232 -20.297756 95.22802
345.06232 -30.446638 95.228012
345.06232 -40.595566 95.228065
345.06232 -50.744446 95.22805
345.06232 -60.893326 95.228035
345.06232 -71.042206 95.22802
345.06232 -81.191093 95.228004
345.06232 -91.340019 95.228073
345.06232 -101.48889 95.228043
345.06232 -111.63778 95.228027
345.06232 -121.78666 95.22802
345.06232 -131.93555 95.228004
345.06232 -142.08447 95.228065
356.38144 -157.22707 135.41452
345.0452 -162.37421 95.167358
345.04691 -172.52344 95.173424
364.29309 156.1256 126.55032
364.29309 145.71725 126.55033
378.8544 140.71741 176.77058
364.28012 124.8961 126.50559
364.28012 114.48808 126.50562
364.28012 104.08007 126.50562
364.28012 93.672104 126.50557
364.28012 83.264046 126.50555
364.28012 72.856033 126.50557
364.28012 62.448029 126.50559
364.28012 52.040012 126.50562
364.28012 41.632046 126.50555
364.28012 31.224041 126.50557
364.28012 20.816027 126.50558
364.28012 10.408012 126.50561
364.28012 1.2689488e-06 126.50562
364.28012 -10.407962 126.50556
364.28012 -20.815977 126.50558
364.28012 -31.223991 126.5056
364.28012 -41.632004 126.50562
364.28012 -52.03997 126.50555
364.28012 -62.447983 126.50558
364.28012 -72.855988 126.50558
364.28012 -83.264 126.5056
364.28012 -93.67202 126.50562
364.28012 -104.07999 126.50556
364.28012 -114.488 126.50558
364.28012 -124.89601 126.5056
364.28012 -135.30402 126.50562
378.85641 -151.54254 176.7775
366.87262 -157.23114 135.4469
364.29309 -166.53398 126.55031
