# .PCD v0.7 - Point Cloud Data file format
VERSION 0.7
FIELDS x y z
SIZE 4 4 4
TYPE F F F
COUNT 1 1 1
WIDTH 1528
HEIGHT 1
VIEWPOINT 0 0 0 1 0 0 0
POINTS 1528
DATA ascii
3.3669858 -4.7137799 -6.1467953
3.3669858 -4.8821292 -6.1467967
3.3669972 -5.0504956 -6.1467276
3.3669972 -5.2188454 -6.1467271
3.3670087 -5.3872132 -6.1466584
3.3670087 -5.5555644 -6.146656
3.3670087 -5.7239156 -6.146657
3.3670201 -5.8922849 -6.1465888
3.3670201 -6.0606365 -6.1465874
3.3670316 -6.2290082 -6.1465182
3.3670316 -6.3973594 -6.1465187
3.367043 -6.5657339 -6.1464491
3.367043 -6.7340856 -6.14645
3.3669167 -6.9021802 -6.147212
3.3667903 -7.07026 -6.1479745
3.3295357 -7.1585031 -6.3728251
3.3251474 -7.3153234 -6.3993134
3.3205686 -7.4712801 -6.4269466
3.3156574 -7.6260118 -6.4565902
3.3107717 -7.7803135 -6.4860768
3.3058891 -7.9341345 -6.5155454
3.3010211 -8.0875015 -6.5449276
3.4721146 8.2669392 -6.5101948
3.4721379 8.101655 -6.5100608
3.4721494 7.9363418 -6.5099936
3.4730227 7.7729564 -6.5049744
3.4847083 7.6331706 -6.4378037
3.4925468 7.4840283 -6.3927493
3.5001717 7.333693 -6.3489194
3.5078182 7.1826749 -6.3049655
3.5155101 7.0310202 -6.2607522
3.5206368 6.8736248 -6.2312827
3.5145557 6.6943917 -6.2662373
3.5084956 6.5157776 -6.3010731
3.5024562 6.3377781 -6.3357878
3.4964492 6.1604114 -6.3703156
3.4904513 5.9836311 -6.4047923
3.4844739 5.8074565 -6.4391518
3.4726617 5.6224051 -6.50705
3.4723592 5.4565644 -6.5087895
3.4723706 5.2912326 -6.5087228
3.4723823 5.1258974 -6.5086555
3.472394 4.9605627 -6.5085893
3.4724057 4.7952271 -6.5085225
3.4724057 4.6298747 -6.508522
3.4724174 4.4645371 -6.5084548
3.4724288 4.2991977 -6.5083885
3.4724405 4.1338577 -6.5083213
3.4724174 3.9684765 -6.5084553
3.4723125 3.803009 -6.5090566
3.4722075 3.6375513 -6.5096598
3.4721029 3.4721026 -6.510262
3.4786921 3.313041 -6.4723859
3.4910398 3.1585598 -6.4014111
3.4995449 2.9996097 -6.3525224
3.5178864 2.8478129 -6.2470918
3.4715908 2.6450219 -6.513206
3.4716489 2.4797492 -6.5128713
3.4717071 2.3144712 -6.5125365
3.471777 2.1491959 -6.5121355
3.4718351 1.9839056 -6.5118003
3.4718935 1.8186103 -6.511466
3.4719517 1.6533102 -6.5111313
3.4720099 1.4880041 -6.510797
3.4720681 1.3226926 -6.5104623
3.472033 1.157344 -6.510663
3.4719982 0.99199945 -6.5108638
3.4719634 0.82665807 -6.5110641
3.47194 0.66132218 -6.5111985
3.4758668 0.49655244 -6.488627
3.4818733 0.33160704 -6.4541001
3.4857054 0.16598548 -6.4320731
3.4895458 -1.6713926e-07 -6.4099975
3.4933949 -0.16635208 -6.3878732
3.4972522 -0.33307171 -6.3657002
3.5011184 -0.50015974 -6.3434787
3.5050404 -0.6676265 -6.3209338
3.5089948 -0.83547503 -6.2982025
3.5129464 -1.0036992 -6.2754879
3.5169067 -1.1723027 -6.2527232
3.5208764 -1.3412869 -6.2299056
3.5277724 -1.5119026 -6.1902671
3.5471771 -1.6891325 -6.0787253
3.5596738 -1.8645906 -6.0068932
3.5596859 -2.034106 -6.0068226
3.5596859 -2.2036147 -6.0068221
3.5596859 -2.3731244 -6.0068226
3.5596983 -2.5426409 -6.006753
3.5596983 -2.7121503 -6.0067534
3.5597105 -2.88167 -6.0066829
3.5597105 -3.0511808 -6.0066814
3.5597227 -3.2207017 -6.0066118
3.5597227 -3.3902121 -6.0066123
3.5597227 -3.5597229 -6.0066109
3.5597351 -3.7292464 -6.0065403
3.5597351 -3.8987572 -6.0065417
3.5597472 -4.0682831 -6.0064702
3.5597472 -4.2377944 -6.0064716
3.5597472 -4.4073062 -6.0064707
3.5597594 -4.5768337 -6.0064001
3.5597594 -4.746346 -6.0064001
3.5597715 -4.9158754 -6.0063305
3.5597715 -5.0853882 -6.00633
3.5597839 -5.2549195 -6.0062599
3.5597839 -5.4244328 -6.0062599
3.5597839 -5.5939465 -6.0062599
3.5597961 -5.7634788 -6.0061898
3.5597961 -5.9329944 -6.0061893
3.5598083 -6.1025281 -6.0061197
3.5598083 -6.2720442 -6.0061193
3.5598083 -6.4415579 -6.0061197
3.5598204 -6.6110964 -6.0060482
3.5598204 -6.780611 -6.0060496
3.559833 -6.95015 -6.0059786
3.559833 -7.1196656 -6.0059776
3.5598452 -7.2892075 -6.0059085
3.5598452 -7.4587231 -6.0059075
3.5200627 -7.5429912 -6.2345843
3.5153909 -7.7003803 -6.2614369
3.5105529 -7.8569522 -6.2892466
3.5053251 -8.0121708 -6.3192978
3.5001125 -8.1669292 -6.3492584
3.6627493 8.3244305 -6.3714013
3.6627738 8.1579971 -6.3712654
3.6627862 7.9915342 -6.3711977
3.6730657 7.8470039 -6.3147955
3.6807415 7.6960964 -6.2726798
3.6890137 7.5457106 -6.2272916
3.6971216 7.3942437 -6.1828046
3.7052779 7.2421341 -6.1380525
3.7134702 7.0893526 -6.0931025
3.7551765 6.9982839 -5.8642659
3.7551765 6.8275938 -5.8642659
3.7551765 6.6569042 -5.8642659
3.7112601 6.4103589 -6.1052284
3.7048099 6.2308168 -6.1406207
3.6983819 6.051898 -6.1758904
3.6919761 5.8735986 -6.2110362
3.6855927 5.6959157 -6.2460618
3.6792312 5.518847 -6.2809658
3.6728916 5.3423882 -6.3157511
3.6630459 5.1615648 -6.369772
3.6630459 4.9950624 -6.3697729
3.6630583 4.8285766 -6.3697042
3.6630707 4.6620903 -6.3696365
3.6630831 4.4956021 -6.3695683
3.6630952 4.3291135 -6.3695011
3.6631076 4.1626229 -6.3694324
3.66312 3.9961314 -6.3693652
3.66312 3.8296258 -6.3693652
3.66312 3.6631203 -6.3693652
3.6630089 3.4965086 -6.369976
3.6628976 3.3299072 -6.3705873
3.6627862 3.1633148 -6.3711972
3.6643326 2.9980898 -6.3627129
3.6775849 2.8417706 -6.289999
3.6880984 2.6822534 -6.2323136
3.7014351 2.5237062 -6.1591368
3.6621928 2.3304858 -6.3744531
3.6622546 2.1640594 -6.3741145
3.662329 1.9976337 -6.3737068
3.6623905 1.8311949 -6.3733683
3.6624525 1.6647509 -6.3730292
3.6625142 1.4983015 -6.3726897
3.662576 1.3318459 -6.3723502
3.6626379 1.1653849 -6.3720121
3.6626997 0.99891788 -6.3716717
3.6626625 0.83242333 -6.3718753
3.6626379 0.66593391 -6.3720117
3.6626008 0.49944556 -6.3722148
3.6625636 0.33296028 -6.3724184
3.6633551 0.16651602 -6.3680763
3.6718228 6.2148058e-07 -6.3216162
3.6758904 -0.16708599 -6.2992959
3.6799674 -0.33454254 -6.2769265
3.6840532 -0.50237083 -6.2545071
3.6881483 -0.6705724 -6.232039
3.692265 -0.83915067 -6.2094512
3.6963911 -1.0081061 -6.1868129
3.7005768 -1.1774563 -6.163846
3.7047718 -1.3471889 -6.1408291
3.7089765 -1.5173079 -6.1177583
3.7131906 -1.6878136 -6.0946355
3.7185483 -1.8592731 -6.0652394
3.7364123 -2.038043 -5.9672222
3.7551374 -2.2189448 -5.8644791
3.7551503 -2.3896415 -5.8644075
3.7551503 -2.5603299 -5.864408
3.7551634 -2.7310276 -5.8643374
3.7551634 -2.9017165 -5.8643379
3.7551634 -3.0724068 -5.864337
3.7551765 -3.2431073 -5.8642654
3.7551765 -3.4137969 -5.8642664
3.7551897 -3.5844991 -5.8641934
3.7551897 -3.7551892 -5.8641949
3.7552025 -3.9258935 -5.8641233
3.7552025 -4.0965848 -5.8641229
3.7552025 -4.2672758 -5.8641224
3.7552154 -4.4379821 -5.8640523
3.7552154 -4.6086731 -5.8640518
3.7552285 -4.7793818 -5.8639798
3.7552285 -4.9500742 -5.8639803
3.7552285 -5.1207662 -5.8639808
3.7552414 -5.2914762 -5.8639102
3.7552414 -5.4621696 -5.8639088
3.7552545 -5.6328812 -5.8638387
3.7552545 -5.8035755 -5.8638377
3.7552676 -5.9742885 -5.8637667
3.7552676 -6.1449838 -5.8637662
3.7552676 -6.3156767 -5.8637671
3.7552805 -6.4863935 -5.8636956
3.7552805 -6.6570888 -5.8636951
3.7552934 -6.827806 -5.8636241
3.7552934 -6.9985018 -5.8636241
3.7552934 -7.1691971 -5.8636236
3.7553065 -7.3399181 -5.8635521
3.7553065 -7.510613 -5.8635516
3.7553194 -7.6813359 -5.8634815
3.7553194 -7.8520317 -5.8634815
3.7132416 -7.9328337 -6.0943575
3.7082791 -8.0907917 -6.1215839
3.703166 -8.2479601 -6.1496406
3.8560538 8.3827257 -6.2306633
3.8560801 8.215127 -6.2305264
3.8607655 8.05725 -6.2059345
3.8713462 7.9110122 -6.150403
3.8800333 7.7600665 -6.1048102
3.8887329 7.6083908 -6.0591531
3.8973644 7.4558268 -6.0138531
3.906034 7.3025856 -5.9683518
3.9249427 7.1672869 -5.8691134
3.9533963 7.047358 -5.7197814
3.9533963 6.8754725 -5.7197819
3.9534101 6.703609 -5.7197089
3.9534101 6.5317211 -5.719708
3.9534101 6.3598332 -5.7197089
3.9111116 6.1217403 -5.9417033
3.9042594 5.9412642 -5.9776654
3.8974311 5.7614198 -6.0135026
3.8906269 5.5822043 -6.0492134
3.8838463 5.4036126 -6.0847993
3.8771024 5.2256603 -6.1201935
3.870369 5.0483074 -6.1555328
3.8619878 4.869463 -6.1995182
3.8564079 4.6947575 -6.2288051
3.8564208 4.5271029 -6.2287364
3.8564208 4.3594327 -6.2287364
3.8564339 4.1917763 -6.2286682
3.856447 4.0241189 -6.2285991
3.8564601 3.8564603 -6.2285295
3.8564734 3.6888008 -6.2284603
3.8564863 3.5211394 -6.2283926
3.8564863 3.3534667 -6.2283931
3.8563683 3.1856954 -6.229012
3.8562503 3.017935 -6.2296309
3.8561323 2.8501849 -6.2302504
3.8560145 2.6824446 -6.2308693
3.8654227 2.5209284 -6.1814909
3.8786139 2.3608959 -6.1122608
3.8889463 2.1980999 -6.0580344
3.8575878 2.0126545 -6.2226105
3.8555424 1.8439552 -6.233346
3.855608 1.676352 -6.2330022
3.8556736 1.5087422 -6.2326574
3.8557391 1.3411264 -6.2323136
3.8558047 1.1735058 -6.2319698
3.85587 1.0058789 -6.231626
3.8559356 0.83824742 -6.2312827
3.8560011 0.67060918 -6.230938
3.8559749 0.50295293 -6.2310758
3.8559356 0.33529922 -6.2312818
3.8558965 0.16764733 -6.2314887
3.8558571 -1.5448155e-07 -6.2316952
3.8558309 -0.16764528 -6.2318325
3.8639743 -0.33599719 -6.1890926
3.8686264 -0.50460362 -6.1646776
3.8729458 -0.67355531 -6.1420088
3.8772748 -0.84288621 -6.1192884
3.8816135 -1.0125948 -6.096518
3.8859618 -1.1826839 -6.0736966
3.8903198 -1.3531544 -6.0508232
3.8947279 -1.524024 -6.0276885
3.8991728 -1.6952927 -6.0043607
3.9036279 -1.8669528 -5.9809794
3.908093 -2.0390058 -5.9575443
3.9130006 -2.2116959 -5.9317908
3.9272392 -2.3904936 -5.85706
3.9533548 -2.5782747 -5.7199984
3.9533548 -2.7501605 -5.7199979
3.9533548 -2.9220452 -5.7199969
3.9533687 -3.0939407 -5.7199254
3.9533687 -3.2658269 -5.7199254
3.9533823 -3.4377246 -5.7198524
3.9533823 -3.6096096 -5.7198539
3.9533823 -3.7814958 -5.7198539
3.9533963 -3.9533963 -5.7197804
3.9533963 -4.1252832 -5.7197809
3.9534101 -4.2971849 -5.7197084
3.9534101 -4.4690723 -5.7197089
3.9534237 -4.6409755 -5.7196369
3.9534237 -4.8128643 -5.719636
3.9534237 -4.9847517 -5.7196364
3.9534376 -5.1566577 -5.719564
3.9534376 -5.328547 -5.719563
3.9534514 -5.5004544 -5.7194915
3.9534514 -5.6723433 -5.7194905
3.9534514 -5.8442326 -5.7194924
3.953465 -6.0161428 -5.71942
3.953465 -6.1880322 -5.719419
3.9534788 -6.3599439 -5.719348
3.9534788 -6.5318341 -5.7193475
3.9534926 -6.7037482 -5.719275
3.9534926 -6.8756394 -5.7192755
3.9534926 -7.0475292 -5.719275
3.9535062 -7.2194467 -5.719202
3.9535062 -7.3913383 -5.719203
3.9535203 -7.5632563 -5.71913
3.9535203 -7.7351489 -5.7191291
3.9315133 -7.8630271 -5.8346286
3.9111385 -7.9923267 -5.9415612
3.9043131 -8.1481323 -5.9773831
3.8978331 -8.30408 -6.0113926
4.0520849 8.4418421 -6.0879397
4.0521126 8.2730637 -6.0878
4.0648732 8.1297474 -6.0236177
4.0731826 7.9766493 -5.9818263
4.0826659 7.8251104 -5.9341273
4.0918121 7.6721482 -5.8881283
4.1009703 7.5184455 -5.8420634
4.1101556 7.3640289 -5.795866
4.1544156 7.270227 -5.573256
4.1544156 7.0971265 -5.5732555
4.1544304 6.9240503 -5.5731826
4.1544304 6.7509489 -5.5731831
4.1544304 6.577848 -5.5731821
4.1544447 6.4047694 -5.5731087
4.1544447 6.2316675 -5.5731087
4.1544447 6.0585651 -5.5731096
4.1544595 5.8854842 -5.5730362
4.1069465 5.6470518 -5.812005
4.0997062 5.4662752 -5.848423
4.0924911 5.2861342 -5.8847122
4.0853009 5.1066265 -5.9208736
4.0781364 4.9277487 -5.9569087
4.0709972 4.7494969 -5.9928174
4.0638828 4.5718679 -6.0286012
4.0524874 4.3901939 -6.0859165
4.0525007 4.2213554 -6.0858464
4.052515 4.052515 -6.0857763
4.0525289 3.8836732 -6.0857072
4.0525427 3.7148309 -6.0856371
4.0525427 3.5459745 -6.0856371
4.0525565 3.3771307 -6.085567
4.0525703 3.2082851 -6.0854979
4.0525842 3.0394378 -6.0854282
4.0524731 2.8705025 -6.0859861
4.0523481 2.701566 -6.0866146
4.0522237 2.53264 -6.0872426
4.0520988 2.3637242 -6.0878706
4.0553474 2.1966465 -6.0715308
4.070745 2.0353727 -5.9940848
4.0818496 1.8708473 -5.9382348
4.0994935 1.7081223 -5.8494935
4.0515437 1.5193293 -6.0906601
4.0516133 1.3505375 -6.090312
4.0516825 1.1817411 -6.0899625
4.0517521 1.0129384 -6.0896149
4.0518212 0.8441295 -6.0892649
4.0519047 0.67531765 -6.0888467
4.0519738 0.50649738 -6.0884981
4.052043 0.33766994 -6.0881491
4.0520015 0.16883381 -6.0883589
4.05196 -2.4436704e-07 -6.0885677
4.051918 -0.16883041 -6.0887771
4.0518904 -0.33765769 -6.0889163
4.0518489 -0.50648081 -6.0891256
4.0572934 -0.67621571 -6.0617418
4.0639524 -0.84665632 -6.0282507
4.0685201 -1.0171309 -6.0052748
4.0730987 -1.1879866 -5.9822488
4.0776868 -1.3592287 -5.9591708
4.0822859 -1.5308566 -5.9360399
4.0868955 -1.7028733 -5.9128561
4.0915151 -1.8752779 -5.8896213
4.0962157 -2.0481079 -5.8659778
4.1009278 -2.2213361 -5.8422775
4.1056504 -2.394963 -5.8185253
4.110384 -2.5689902 -5.7947168
4.1220074 -2.7480049 -5.7362561
4.1492162 -2.939028 -5.5994058
4.1543574 -3.1157677 -5.5735493
4.1543717 -3.288878 -5.5734749
4.1543717 -3.4619761 -5.5734758
4.1543717 -3.635076 -5.5734749
4.1543865 -3.808188 -5.5734015
4.1543865 -3.981287 -5.5734024
4.1544008 -4.1544013 -5.5733285
4.1544008 -4.3275013 -5.573328
4.1544008 -4.5006013 -5.5733294
4.1544156 -4.673717 -5.573256
4.1544156 -4.846818 -5.573256
4.1544304 -5.0199366 -5.5731816
4.1544304 -5.193038 -5.5731821
4.1544447 -5.3661575 -5.5731087
4.1544447 -5.5392599 -5.5731091
4.1544447 -5.7123613 -5.5731091
4.1544595 -5.8854842 -5.5730357
4.1544595 -6.0585861 -5.5730357
4.1544738 -6.2317104 -5.5729628
4.1544738 -6.4048142 -5.5729618
4.1544738 -6.5779166 -5.5729623
4.1544886 -6.7510438 -5.5728889
4.1544886 -6.9241476 -5.5728879
4.1545029 -7.0972762 -5.5728149
4.1545029 -7.2703805 -5.5728145
4.1545177 -7.4435101 -5.5727425
4.1545177 -7.6166158 -5.5727425
4.1250815 -7.7345281 -5.7207942
4.1084008 -7.8744354 -5.8046908
4.1011124 -8.0313454 -5.8413491
4.0937934 -8.1875877 -5.8781614
4.0868387 -8.3439617 -5.9131413
4.2509151 8.5018311 -5.9431181
4.2593002 8.3482285 -5.9026322
4.2692852 8.1970282 -5.8544197
4.2786636 8.0438881 -5.8091378
4.2886648 7.8911438 -5.7608471
4.2983232 7.7369828 -5.714211
4.3080106 7.5820985 -5.667438
4.3582945 7.4962673 -5.4246459
4.3582945 7.3219347 -5.4246459
4.3583097 7.1476283 -5.4245715
4.3583097 6.9732957 -5.424572
4.3583097 6.7989635 -5.4245715
4.3583255 6.6246548 -5.4244967
4.3583255 6.4503212 -5.4244976
4.3583255 6.2759881 -5.4244967
4.3583407 6.1016769 -5.4244227
4.3583407 5.9273434 -5.4244223
4.3583407 5.7530103 -5.4244227
4.358356 5.5786963 -5.4243484
4.358356 5.4043612 -5.4243479
4.3052578 5.1663094 -5.6807303
4.2976193 4.9852386 -5.7176113
4.2900076 4.8048081 -5.7543621
4.2824235 4.6250176 -5.7909832
4.2748656 4.4458609 -5.8274751
4.2673492 4.2673497 -5.8637671
4.2595358 4.0891542 -5.9014945
4.2513695 3.9112597 -5.9409246
4.2513843 3.7412186 -5.9408541
4.2513986 3.5711749 -5.9407835
4.2514133 3.4011309 -5.9407125
4.2514281 3.2310855 -5.9406414
4.2514424 3.0610383 -5.9405708
4.2514572 2.8909905 -5.9404998
4.2514572 2.7209322 -5.9405003
4.2513695 2.550822 -5.9409251
4.2512374 2.3806934 -5.9415617
4.2511058 2.2105746 -5.9421983
4.2509737 2.0404673 -5.9428358
4.2508416 1.8703701 -5.9434729
4.263557 1.705423 -5.8820786
4.2775354 1.5399122 -5.8145847
4.2900376 1.3728119 -5.7542186
4.250329 1.1900923 -5.9459481
4.250402 1.0200968 -5.9455953
4.2504754 0.85009557 -5.9452415
4.2505484 0.68008792 -5.9448872
4.2506366 0.51007676 -5.9444633
4.25071 0.34005719 -5.9441094
4.250783 0.17003092 -5.9437556
4.2508564 2.0466786e-07 -5.9434023
4.2508125 -0.17003305 -5.943614
4.250783 -0.34006262 -5.9437551
4.2507391 -0.51008868 -5.9439683
4.2506952 -0.68011057 -5.9441805
4.2506509 -0.85013038 -5.9443922
4.2518387 -1.0204412 -5.9386597
4.2619209 -1.193337 -5.8899775
4.2667437 -1.3653579 -5.8666897
4.2715778 -1.5377674 -5.8433509
4.2764225 -1.7105688 -5.8199582
4.2812786 -1.8837616 -5.7965121
4.2861452 -2.0573502 -5.7730117
4.2910233 -2.2313313 -5.7494607
4.295927 -2.4057195 -5.725781
4.3009024 -2.5805418 -5.7017579
4.3058891 -2.7557685 -5.6776814
4.3108873 -2.9314034 -5.6535463
4.3202529 -3.1105816 -5.6083269
4.3460503 -3.3029985 -5.4837651
4.3582172 -3.4865735 -5.4250178
4.358233 -3.6609149 -5.4249439
4.358233 -3.8352451 -5.4249425
4.3582482 -4.0095882 -5.4248691
4.3582482 -4.183919 -5.4248681
4.3582482 -4.3582482 -5.4248691
4.3582635 -4.5325937 -5.4247952
4.3582635 -4.7069249 -5.4247942
4.3582792 -4.8812733 -5.4247193
4.3582792 -5.0556035 -5.4247208
4.3582792 -5.2299352 -5.4247198
4.3582945 -5.4042845 -5.4246459
4.3582945 -5.5786161 -5.4246454
4.3583097 -5.7529688 -5.424571
4.3583097 -5.9273009 -5.424571
4.3583255 -6.1016555 -5.4244976
4.3583255 -6.2759881 -5.4244976
4.3583255 -6.4503207 -5.4244976
4.3583407 -6.6246772 -5.4244232
4.3583407 -6.7990117 -5.4244218
4.358356 -6.9733691 -5.4243479
4.358356 -7.1477036 -5.4243488
4.358356 -7.3220382 -5.4243479
4.3583713 -7.4963989 -5.4242735
4.3204951 -7.6040707 -5.6071568
4.3083115 -7.7549605 -5.6659842
4.3006473 -7.9131908 -5.702991
4.2929206 -8.0706911 -5.7402978
4.2852364 -8.2276535 -5.777401
4.277669 -8.3842306 -5.8139405
4.4525762 8.5626459 -5.7962956
4.4681535 8.4207506 -5.7239747
4.4771085 8.2654305 -5.6823993
4.4876537 8.1122971 -5.6334405
4.498138 7.9582443 -5.5847635
4.5083389 7.8028946 -5.5374036
4.5202904 7.6497226 -5.4819169
4.5650935 7.549963 -5.2739072
4.5651102 7.3744087 -5.2738314
4.5651102 7.1988277 -5.2738323
4.5651102 7.0232463 -5.2738314
4.5651264 6.8476906 -5.273756
4.5651264 6.6721087 -5.273756
4.5651264 6.4965267 -5.273756
4.5651426 6.3209667 -5.2736807
4.5651426 6.1453853 -5.2736807
4.5651426 5.9698019 -5.2736802
4.5651588 5.7942405 -5.2736049
4.5651588 5.6186581 -5.2736053
4.5651588 5.4430747 -5.2736053
4.5651751 5.2675099 -5.27353
4.5651751 5.0919271 -5.27353
4.5141954 4.8614411 -5.5102129
4.5061212 4.6794338 -5.5477023
4.498075 4.498075 -5.5850568
4.4900579 4.3173633 -5.6222777
4.482069 4.1372952 -5.6593671
4.4741092 3.9578655 -5.6963243
4.466177 3.7790728 -5.7331505
4.4531016 3.596736 -5.7938561
4.4531169 3.4254754 -5.7937841
4.4531169 3.2542009 -5.7937837
4.4531326 3.082938 -5.7937112
4.4531479 2.9116743 -5.7936401
4.4531636 2.7404079 -5.7935686
4.4531789 2.5691419 -5.7934971
4.4531946 2.3978736 -5.7934246
4.4531016 2.2265511 -5.7938552
4.4529624 2.0552139 -5.7945018
4.4528236 1.8838867 -5.7951484
4.4526839 1.7125711 -5.7957935
4.4525447 1.5412654 -5.7964406
4.45818 1.3717481 -5.7702785
4.4755616 1.2049587 -5.6895823
4.4868999 1.0354381 -5.63694
4.5098772 0.86728448 -5.5302629
4.4520345 0.68492812 -5.7988091
4.4521275 0.51370698 -5.798378
4.4522047 0.34247702 -5.7980194
4.452282 0.17124185 -5.7976604
4.4523592 -3.5979659e-07 -5.7973013
4.4524369 -0.17124793 -5.7969427
4.4525142 -0.342502 -5.7965827
4.4524832 -0.51374811 -5.7967272
4.4524369 -0.68498993 -5.7969427
4.4523902 -0.85622871 -5.7971587
4.4523439 -1.027464 -5.7973728
4.4523134 -1.1986988 -5.7975168
4.4522667 -1.3699279 -5.7977324
4.4624467 -1.5446931 -5.7504697
4.4676704 -1.718335 -5.7262139
4.4727664 -1.8923241 -5.7025561
4.4778743 -2.0667109 -5.6788435
4.4829941 -2.2414973 -5.6550736
4.4881248 -2.4166825 -5.6312528
4.4932675 -2.5922699 -5.6073766
4.4984221 -2.76826 -5.5834441
4.5036201 -2.944675 -5.5593109
4.5088778 -3.1215308 -5.5349011
4.514164 -3.2988117 -5.5103612
4.5215654 -3.478128 -5.475996
4.5453353 -3.6712325 -5.3656402
4.5649962 -3.862689 -5.2743602
4.5650129 -4.03828 -5.2742848
4.5650129 -4.2138577 -5.2742839
4.5650287 -4.389451 -5.2742081
4.5650287 -4.5650282 -5.274209
4.5650449 -4.740623 -5.2741337
4.5650449 -4.9162021 -5.2741337
4.5650449 -5.0917807 -5.2741332
4.5650616 -5.2673788 -5.2740574
4.5650616 -5.4429579 -5.2740574
4.5650778 -5.6185575 -5.2739825
4.5650778 -5.794137 -5.2739825
4.5650778 -5.969717 -5.2739825
4.5650935 -6.145319 -5.2739072
4.5650935 -6.3208995 -5.2739077
4.5651102 -6.4965029 -5.2738304
4.5651102 -6.6720839 -5.2738314
4.5651102 -6.8476653 -5.2738304
4.5651264 -7.0232716 -5.2737546
4.5651264 -7.1988525 -5.2737556
4.556221 -7.3600488 -5.3151016
4.5207529 -7.4766302 -5.4797697
4.5109081 -7.6338449 -5.525475
4.5028768 -7.7934418 -5.5627618
4.4947324 -7.952219 -5.6005745
4.4866328 -8.1104517 -5.6381793
4.4785466 -8.2680855 -5.6757207
4.4704905 -8.4251547 -5.7131257
4.6695709 8.6473541 -5.5917945
4.6789727 8.4914694 -5.5497608
4.6890564 8.3360996 -5.5046782
4.7002287 8.18188 -5.4547296
4.7111878 8.0264692 -5.4057341
4.7219801 7.8699675 -5.3574839
4.7748775 7.7812815 -5.1209931
4.7748942 7.6044621 -5.1209159
4.7748942 7.4276137 -5.1209164
4.7748942 7.2507668 -5.1209164
4.7749119 7.0739427 -5.1208396
4.7749119 6.8970942 -5.1208401
4.7749119 6.7202458 -5.1208396
4.7749286 6.5434213 -5.1207643
4.7749286 6.3665719 -5.1207628
4.7749286 6.1897225 -5.1207633
4.7749457 6.0128951 -5.120687
4.7749457 5.8360453 -5.1206861
4.7749457 5.6591959 -5.120687
4.7749634 5.4823656 -5.1206102
4.7749634 5.3055148 -5.1206107
4.7749634 5.128665 -5.1206102
4.7749801 4.9518309 -5.1205335
4.7749801 4.7749801 -5.1205339
4.7749801 4.5981293 -5.1205339
4.7180653 4.3685789 -5.3749866
4.7095547 4.1862717 -5.4130354
4.7010918 4.0046339 -5.4508715
4.6926589 3.8236487 -5.4885731
4.6842566 3.6433108 -5.5261388
4.6758838 3.463618 -5.56357
4.6675572 3.2845774 -5.6007953
4.6577449 3.1051633 -5.6446638
4.6577616 2.9326646 -5.6445913
4.6577778 2.760164 -5.6445179
4.657794 2.5876639 -5.6444454
4.657794 2.4151528 -5.6444459
4.6578107 2.24265 -5.6443729
4.6578269 2.0701449 -5.6443
4.6577616 1.8976071 -5.6445909
4.6576147 1.7250427 -5.645247
4.6574683 1.5524896 -5.6459012
4.6573215 1.3799478 -5.6465578
4.6571751 1.2074159 -5.6472125
4.6575661 1.0350144 -5.6454649
4.673636 0.86548799 -5.5736217
4.6882811 0.69456041 -5.5081468
4.7044301 0.52271444 -5.435946
4.6565886 0.34493259 -5.6498342
4.6566701 0.17247012 -5.6494703
4.6567516 -3.0559255e-07 -5.649106
4.6568327 -0.1724757 -5.6487417
4.6569142 -0.34495655 -5.6483784
4.6569958 -0.51744431 -5.6480141
4.6570773 -0.68993676 -5.6476498
4.6570449 -0.86241567 -5.6477947
4.6569958 -1.0348876 -5.648015
4.6569471 -1.2073563 -5.6482325
4.6569142 -1.3798267 -5.6483774
4.6568656 -1.5522882 -5.6485963
4.6568165 -1.7247462 -5.6488152
4.6640429 -1.9001656 -5.6165085
4.67134 -2.0761511 -5.5838833
4.6767049 -2.2517467 -5.5598984
4.6820822 -2.4277465 -5.5358596
4.6874719 -2.604151 -5.5117626
4.692874 -2.7809625 -5.4876113
4.6982884 -2.9581819 -5.4634037
4.7037158 -3.1358106 -5.4391408
4.7091551 -3.3138499 -5.4148211
4.7146912 -3.4923635 -5.3900738
4.7202396 -3.6712971 -5.3652673
4.7266397 -3.8513362 -5.3366513
4.7465887 -4.0433908 -5.2474642
4.774775 -4.2442441 -5.1214523
4.774775 -4.4210868 -5.1214528
4.774775 -4.5979314 -5.1214514
4.7747917 -4.7747922 -5.1213756
4.7747917 -4.9516358 -5.121376
4.7748089 -5.1284986 -5.1212988
4.7748089 -5.3053427 -5.1212997
4.7748089 -5.4821877 -5.1212988
4.774826 -5.6590528 -5.121223
4.774826 -5.8358989 -5.1212225
4.7748432 -6.0127659 -5.1211452
4.7748432 -6.1896124 -5.1211452
4.7748604 -6.3664804 -5.121069
4.7748604 -6.5433278 -5.1210694
4.7748604 -6.7201743 -5.1210694
4.7748775 -6.8970456 -5.1209927
4.7748775 -7.0738931 -5.1209927
4.7550807 -7.2206783 -5.2094984
4.7252307 -7.3503599 -5.3429499
4.7162771 -7.5111079 -5.3829818
4.7078567 -7.6720624 -5.4206281
4.6992836 -7.8321395 -5.4589553
4.6907415 -7.9916329 -5.4971457
4.6822467 -8.1505785 -5.5351219
4.6737671 -8.308919 -5.5730343
4.6635361 -8.4634552 -5.6187725
4.8834476 8.7204418 -5.4153438
4.893363 8.5633869 -5.3725948
4.904695 8.4080486 -5.3237414
4.9164824 8.2526674 -5.2729263
4.9279394 8.0959015 -5.2235332
4.9520087 7.9585848 -5.1197681
4.98771 7.837831 -4.9658561
4.9877281 7.6597252 -4.9657793
4.9877281 7.4815927 -4.9657793
4.9877281 7.3034592 -4.9657784
4.9877462 7.1253524 -4.9657016
4.9877462 6.9472184 -4.9657011
4.9877462 6.7690845 -4.9657011
4.9877639 6.5909748 -4.9656239
4.9877639 6.4128389 -4.9656234
4.9877825 6.2347283 -4.9655461
4.9877825 6.0565929 -4.9655457
4.9877825 5.878458 -4.9655461
4.9878006 5.7003431 -4.9654679
4.9878006 5.5222077 -4.9654675
4.9878006 5.3440719 -4.9654689
4.9878182 5.1659551 -4.9653897
4.9878182 4.9878187 -4.9653897
4.9878182 4.8096824 -4.9653902
4.9878364 4.6315627 -4.965313
4.9878364 4.4534249 -4.9653125
4.9878364 4.2752886 -4.965313
4.9335384 4.0525489 -5.1993966
4.9245653 3.8693013 -5.23808
4.9156427 3.6867323 -5.2765474
4.9067521 3.504823 -5.3148761
4.8978934 3.3235705 -5.353066
4.8890667 3.142971 -5.391118
4.8802719 2.9630218 -5.4290333
4.8653469 2.7801986 -5.4933777
4.8653636 2.6064453 -5.4933028
4.8653812 2.4326904 -5.4932299
4.8653979 2.2589347 -5.493155
4.8654156 2.0851786 -5.4930816
4.8654323 1.9114197 -5.4930081
4.8654499 1.737661 -5.4929347
4.8653979 1.5638779 -5.4931555
4.8652434 1.3900698 -5.4938211
4.8650899 1.2162727 -5.4944859
4.8649354 1.0424862 -5.4951501
4.8647809 0.8687107 -5.4958158
4.8646269 0.69494736 -5.4964809
4.8737092 0.52218306 -5.457325
4.8918033 0.34941444 -5.3793206
4.9046607 0.17516671 -5.3238912
4.8686914 4.8649133e-07 -5.4789567
4.8641815 -0.17372009 -5.4984016
4.8642669 -0.34744757 -5.498033
4.8643527 -0.52118075 -5.4976625
4.8644385 -0.69491982 -5.497293
4.8645239 -0.8686654 -5.4969234
4.8646269 -1.0424194 -5.4964814
4.8645754 -1.2161442 -5.4967022
4.8645411 -1.3898686 -5.496851
4.8644896 -1.5635855 -5.4970722
4.8644385 -1.7372987 -5.4972939
4.864387 -1.9110081 -5.4975152
4.8643355 -2.0847158 -5.497736
4.8667183 -2.2595482 -5.4874635
4.8778415 -2.4389203 -5.4395123
4.883482 -2.6161511 -5.4151945
4.8891358 -2.7937913 -5.39082
4.894803 -2.9718444 -5.3663893
4.9004831 -3.1503105 -5.3419008
4.9061766 -3.3291919 -5.3173552
4.9118834 -3.5084887 -5.2927537
4.917603 -3.6882017 -5.268096
4.9233537 -3.8683488 -5.2433033
4.9291883 -4.0489759 -5.2181487
4.9350896 -4.2300768 -5.192708
4.9506421 -4.4202161 -5.1256609
4.9853692 -4.629272 -4.9759474
4.9875841 -4.8094563 -4.9663992
4.9876022 -4.9876022 -4.9663219
4.9876022 -5.1657305 -4.9663234
4.9876022 -5.3438592 -4.9663224
4.9876204 -5.5220079 -4.9662447
4.9876204 -5.7001376 -4.9662442
4.987638 -5.8782878 -4.966167
4.987638 -6.0564175 -4.966167
4.987638 -6.2345476 -4.966167
4.9876561 -6.4127011 -4.9660897
4.9876561 -6.5908308 -4.9660897
4.9876742 -6.7689862 -4.9660106
4.9876742 -6.9471178 -4.9660115
4.957449 -7.0820699 -5.0963154
4.9333267 -7.2237997 -5.2003088
4.9244599 -7.3866897 -5.2385345
4.9156246 -7.548995 -5.2766232
4.9066296 -7.7104187 -5.315402
4.8976502 -7.871223 -5.3541141
4.888721 -8.0314693 -5.3926105
4.879806 -8.191102 -5.4310417
4.8658781 -8.341506 -5.4910851
4.8638558 -8.5117474 -5.4998045
5.1009703 8.794776 -5.2358847
5.1117082 8.6370249 -5.1911879
5.1240702 8.4812212 -5.1397309
5.1365104 8.3246899 -5.0879493
5.1484551 8.1665173 -5.0382295
5.2036591 8.0746431 -4.8084497
5.2036781 7.895236 -4.8083696
5.2036781 7.7157979 -4.8083706
5.2036781 7.5363622 -4.8083696
5.2036972 7.3569512 -4.8082914
5.2036972 7.1775131 -4.8082905
5.2036972 6.9980755 -4.808291
5.2037158 6.8186622 -4.8082128
5.2037158 6.6392241 -4.8082128
5.2037158 6.459785 -4.8082123
5.2037344 6.2803702 -4.8081336
5.2037344 6.1009307 -4.8081336
5.2037344 5.9214916 -4.8081336
5.2037535 5.7420735 -4.8080544
5.2037535 5.562633 -4.8080549
5.2037535 5.3831935 -4.8080549
5.2037725 5.203773 -4.8079762
5.2037725 5.024332 -4.8079758
5.2037916 4.8449092 -4.8078971
5.2037916 4.6654682 -4.8078971
5.2037916 4.4860268 -4.8078971
5.2038102 4.306602 -4.8078184
5.2038102 4.1271605 -4.8078184
5.2038102 3.9477189 -4.8078184
5.2038293 3.7682903 -4.8077393
5.1431789 3.5470202 -5.060194
5.1337638 3.3635006 -5.0993848
5.1244006 3.1806631 -5.1383553
5.1150723 2.9984908 -5.1771855
5.1057777 2.8169806 -5.2158737
5.0965171 2.6361291 -5.2544212
5.0872893 2.4559329 -5.2928295
5.0760231 2.2754591 -5.3397264
5.0760231 2.1004231 -5.3397264
5.0760412 1.9253951 -5.3396511
5.0760589 1.750365 -5.3395762
5.076077 1.5753336 -5.3395009
5.0760951 1.4003023 -5.339426
5.0760589 1.2252557 -5.3395762
5.0758967 1.0501857 -5.3402514
5.0757341 0.87512684 -5.3409262
5.0755725 0.70007885 -5.3416009
5.0754104 0.52504241 -5.3422761
5.0752482 0.35001814 -5.3429508
5.0769958 0.17506872 -5.3356767
5.0960994 3.1935238e-07 -5.2561603
5.1113796 -0.17625423 -5.1925559
5.1327314 -0.35398152 -5.1036782
5.0747261 -0.52497113 -5.3451242
5.0748158 -0.69997472 -5.344748
5.0749059 -0.87498277 -5.3443756
5.074996 -1.0499986 -5.3439994
5.0751042 -1.2250249 -5.3435507
5.0751939 -1.4000533 -5.3431749
5.0751581 -1.575049 -5.3433242
5.0751042 -1.7500366 -5.3435502
5.0750504 -1.9250189 -5.3437753
5.074996 -2.0999978 -5.3440003
5.0749421 -2.2749739 -5.344224
5.0749059 -2.4499545 -5.3443737
5.074852 -2.6249228 -5.3446002
5.0872169 -2.8067408 -5.2931309
5.0931411 -2.9856346 -5.2684717
5.0990787 -3.1649454 -5.2437568
5.1050305 -3.3446758 -5.2189827
5.1109962 -3.5248249 -5.1941519
5.1169758 -3.7053959 -5.1692634
5.1229687 -3.8863912 -5.1443143
5.1289768 -4.0678096 -5.119308
5.1349983 -4.2496538 -5.0942445
5.1410899 -4.4319739 -5.0688882
5.147233 -4.6147604 -5.0433202
5.1595435 -4.8037128 -4.9920759
5.1929464 -5.0138788 -4.8530412
5.2035074 -5.2035074 -4.8090792
5.2035265 -5.3829584 -4.8090005
5.2035265 -5.5623903 -4.8089995
5.2035456 -5.7418432 -4.8089218
5.2035456 -5.9212756 -4.8089213
5.2035456 -6.1007085 -4.8089209
5.2035642 -6.2801638 -4.8088427
5.2035642 -6.4595966 -4.8088422
5.2035832 -6.6390548 -4.808763
5.2035832 -6.8184886 -4.808763
5.1630831 -6.9434552 -4.9773455
5.1448255 -7.0963106 -5.0533395
5.1355147 -7.2605553 -5.0920944
5.1262193 -7.4241796 -5.1307864
5.1168294 -7.5870228 -5.1698713
5.1074004 -7.7491598 -5.2091184
5.0980244 -7.910728 -5.2481437
5.088665 -8.0716753 -5.2871037
5.0743122 -8.2238846 -5.346848
5.074492 -8.3991594 -5.3460979
5.0746722 -8.5744457 -5.3453498
5.3222332 8.870389 -5.0533385
5.3343029 8.7126942 -5.0047746
5.3473163 8.555707 -4.9524121
5.3602962 8.3977995 -4.9001846
5.4227924 8.31495 -4.6487198
5.4228125 8.1342201 -4.6486402
5.4228125 7.9534593 -4.6486397
5.4228125 7.7726984 -4.6486397
5.422832 7.5919652 -4.6485596
5.422832 7.4112048 -4.6485596
5.422832 7.230444 -4.6485596
5.4228525 7.0497079 -4.648479
5.4228525 6.8689466 -4.6484799
5.4228525 6.6881847 -4.6484799
5.4228725 6.5074463 -4.6483998
5.4228725 6.3266845 -4.6483994
5.4228725 6.1459222 -4.6483989
5.4228921 5.9651814 -4.6483188
5.4228921 5.7844186 -4.6483192
5.4228921 5.6036553 -4.6483192
5.4229121 5.4229126 -4.6482396
5.4229121 5.2421479 -4.6482391
5.4229121 5.0613847 -4.6482396
5.4229317 4.8806391 -4.648159
5.4229317 4.6998749 -4.6481595
5.4229317 4.5191102 -4.6481595
5.4229517 4.3383613 -4.6480799
5.4229517 4.1575966 -4.6480794
5.4229717 3.9768465 -4.6479998
5.4229717 3.7960804 -4.6479993
5.4229717 3.615315 -4.6479993
5.4229913 3.4345622 -4.6479197
5.3658371 3.2195029 -4.8778906
5.3556013 3.0348406 -4.9190779
5.3457322 2.8510568 -4.9587865
5.3359189 2.6679592 -4.9982719
5.3261418 2.485533 -5.0376124
5.3164005 2.3037736 -5.0768089
5.306694 2.1226783 -5.1158624
5.2897701 1.9395825 -5.1839595
5.2897892 1.7632625 -5.1838837
5.2898083 1.5869428 -5.1838078
5.2898269 1.4106201 -5.1837316
5.2898269 1.2342929 -5.183732
5.2898459 1.0579687 -5.1836553
5.2898459 0.88164115 -5.1836553
5.2896757 0.70529068 -5.1843405
5.2895055 0.52895117 -5.1850252
5.2893357 0.3526223 -5.1857095
5.2891655 0.17630507 -5.1863942
5.2889953 4.6231918e-07 -5.187079
5.288825 -0.17629404 -5.1877642
5.3017125 -0.35344648 -5.13591
5.3206444 -0.53206474 -5.0597315
5.3364196 -0.71152222 -4.9962587
5.2890143 -0.88150144 -5.1870041
5.288466 -1.0576929 -5.1892095
5.288579 -1.234002 -5.1887531
5.2886739 -1.4103128 -5.1883721
5.2887683 -1.5866301 -5.1879926
5.2888632 -1.7629541 -5.1876125
5.288825 -1.9392368 -5.1877632
5.2887683 -2.1155076 -5.1879916
5.2887111 -2.291775 -5.1882205
5.2886739 -2.4680471 -5.1883726
5.2886171 -2.6443086 -5.1886001
5.2885599 -2.8205647 -5.1888294
5.2885036 -2.996819 -5.1890574
5.2978773 -3.178726 -5.15134
5.3057432 -3.3603034 -5.1196918
5.3119721 -3.5413144 -5.0946279
5.3182154 -3.7227509 -5.0695038
5.3244743 -3.904614 -5.0443225
5.3307471 -4.086906 -5.0190806
5.3370357 -4.2696285 -4.9937792
5.343338 -4.4527826 -4.9684186
5.3496561 -4.6363678 -4.9429989
5.355989 -4.8203893 -4.9175181
5.3624139 -5.00492 -4.8916631
5.3723645 -5.1932855 -4.8516273
5.4031672 -5.4031663 -4.7276869
5.4226141 -5.6033678 -4.6494393
5.4226341 -5.784143 -4.6493587
5.4226341 -5.9648972 -4.6493597
5.4226537 -6.1456742 -4.6492796
5.4226537 -6.3264298 -4.6492791
5.4226737 -6.5072083 -4.6491981
5.4208059 -6.6856604 -4.656714
5.3735352 -6.8064785 -4.8469167
5.3592482 -6.9670229 -4.9044037
5.3494821 -7.1326427 -4.9436975
5.3397512 -7.2976604 -4.9828506
5.3299408 -7.4619169 -5.0223265
5.3200517 -7.6254072 -5.0621166
5.3101988 -7.7882924 -5.1017618
5.3003063 -7.95046 -5.1415648
5.2880497 -8.1083431 -5.1908832
5.288239 -8.2849073 -5.1901221
5.2884278 -8.4614849 -5.1893616
5.2886171 -8.6380739 -5.1886005
5.5473337 8.9473133 -4.8676291
5.5608325 8.7897034 -4.8150673
5.5745192 8.6315136 -4.7617731
5.5887012 8.4731941 -4.7065468
5.6452031 8.3767538 -4.4865346
5.6452031 8.1946507 -4.4865355
5.6452031 8.0125475 -4.4865355
5.6452241 7.8304729 -4.4864535
5.6452241 7.6483684 -4.486455
5.6452241 7.4662647 -4.4864545
5.6452451 7.2841873 -4.4863725
5.6452451 7.1020823 -4.4863734
5.6452451 6.9199777 -4.4863729
5.6452656 6.7378974 -4.4862919
5.6452656 6.5557928 -4.4862919
5.6452656 6.3736873 -4.4862924
5.645287 6.1916051 -4.4862118
5.645287 6.0094991 -4.4862108
5.645287 5.8273931 -4.4862108
5.6453075 5.6453085 -4.4861302
5.6453075 5.463201 -4.4861302
5.6453075 5.2810941 -4.4861302
5.6453285 5.0990067 -4.4860492
5.6453285 4.9168992 -4.4860482
5.6453285 4.7347922 -4.4860482
5.645349 4.552701 -4.4859676
5.645349 4.3705931 -4.4859676
5.645349 4.1884851 -4.4859667
5.64537 4.006392 -4.4858866
5.64537 3.8242836 -4.4858861
5.64537 3.6421742 -4.4858866
5.645391 3.460079 -4.485805
5.645391 3.2779691 -4.4858046
5.645391 3.0958598 -4.485805
5.6454115 2.9137611 -4.485724
5.5811939 2.7005777 -4.7357812
5.5708222 2.5158546 -4.7761683
5.5604882 2.3318183 -4.8164053
5.5502138 2.1484702 -4.8564143
5.5399771 1.9657984 -4.8962765
5.5297775 1.7838 -4.9359913
5.5196157 1.6024694 -4.9755602
5.5067129 1.4210874 -5.0258021
5.5067329 1.2434564 -5.0257249
5.5067525 1.0658232 -5.0256481
5.5067725 0.88818985 -5.0255713
5.5067921 0.71055418 -5.0254946
5.5068121 0.53291726 -5.0254159
5.5066333 0.35526687 -5.0261116
5.5064554 0.17762868 -5.0268073
5.5062766 -2.1237939e-07 -5.0275016
5.5060978 -0.17761667 -5.0281959
5.5059195 -0.35522071 -5.0288906
5.5057411 -0.53281426 -5.0295858
5.5098486 -0.71094769 -5.0135937
5.5315785 -0.89218998 -4.9289789
5.5474348 -1.0736976 -4.8672361
5.5747828 -1.2588214 -4.7607446
5.5053048 -1.4207232 -5.0312853
5.505404 -1.5983433 -5.0308981
5.5055032 -1.7759689 -5.0305114
5.5056024 -1.9536008 -5.0301266
5.5057011 -2.1312385 -5.0297403
5.5056615 -2.308826 -5.0298948
5.5056024 -2.4864018 -5.0301266
5.5055628 -2.6639812 -5.0302811
5.5055032 -2.8415494 -5.0305133
5.5054436 -3.019115 -5.0307436
5.505384 -3.1966746 -5.0309753
5.5053444 -3.374243 -5.0311303
5.5092335 -3.5543442 -5.0159888
5.5213299 -3.7402563 -4.9688845
5.5278583 -3.9229963 -4.9434648
5.5344014 -4.1061683 -4.9179859
5.5409603 -4.2897758 -4.8924456
5.5475354 -4.4738188 -4.8668442
5.5541458 -4.6583152 -4.8411045
5.5607519 -4.8432355 -4.8153815
5.5673733 -5.0285959 -4.7895966
5.5740108 -5.2143974 -4.7637515
5.5806642 -5.4006424 -4.7378449
5.5888448 -5.5888448 -4.7059898
5.6158409 -5.7969971 -4.6008692
5.6449947 -6.0091882 -4.4873471
5.6449947 -6.1912847 -4.4873471
5.6449947 -6.3733811 -4.4873471
5.6305041 -6.5386505 -4.5437713
5.5887222 -6.6704102 -4.7064676
5.5766945 -6.835948 -4.7533016
5.5664611 -7.0029669 -4.793149
5.5562654 -7.1693745 -4.8328505
5.5460258 -7.3350663 -4.8727212
5.5356641 -7.4999313 -4.9130702
5.525341 -7.6641831 -4.9532661
5.5113583 -7.8225732 -5.0077138
5.5049481 -7.9910531 -5.0326743
5.5051465 -8.1689272 -5.0319018
5.5053644 -8.3468428 -5.0310535
5.5055032 -8.5246496 -5.0305133
5.5055628 -8.7023411 -5.0302815
5.777071 9.0266743 -4.6760364
5.7913804 8.8680525 -4.6220551
5.7979126 8.6968689 -4.5974154
5.8044376 8.5252686 -4.5728011
5.811492 8.3540192 -4.5461936
5.8276725 8.1951656 -4.4851561
5.8552179 8.0509253 -4.381247
5.870945 7.8890834 -4.3219223
5.870945 7.7056155 -4.3219228
5.8709669 7.5221758 -4.3218408
5.8709669 7.3387098 -4.3218403
5.8709669 7.1552415 -4.3218403
5.8709888 6.9717994 -4.3217578
5.8709888 6.788331 -4.3217578
5.8709888 6.6048627 -4.3217578
5.8710108 6.4214182 -4.3216758
5.8710108 6.2379484 -4.3216753
5.8710108 6.0544801 -4.3216753
5.8710322 5.8710318 -4.3215933
5.8710322 5.6875629 -4.3215938
5.8710322 5.5040932 -4.3215933
5.8710542 5.3206434 -4.3215108
5.8710542 5.1371727 -4.3215108
5.8710542 4.953702 -4.3215108
5.8710761 4.7702494 -4.3214273
5.8710761 4.5867777 -4.3214283
5.8710761 4.403307 -4.3214283
5.871098 4.2198515 -4.3213463
5.871098 4.0363803 -4.3213453
5.871098 3.8529086 -4.3213463
5.8711195 3.6694498 -4.3212628
5.8711195 3.4859779 -4.3212628
5.8711195 3.3025048 -4.3212633
5.8711419 3.1190441 -4.3211813
5.8711419 2.9355707 -4.3211808
5.8711419 2.7520976 -4.3211808
5.8711634 2.568634 -4.3210983
5.8711634 2.3851602 -4.3210993
5.7997665 2.1749127 -4.5904231
5.7889166 1.9899405 -4.631351
5.7781072 1.8056587 -4.6721263
5.7673798 1.622076 -4.7125902
5.7566719 1.4391685 -4.7529845
5.7460036 1.2569391 -4.7932286
5.7269449 1.0738029 -4.8651204
5.7269039 0.89482832 -4.8652768
5.7269244 0.71586496 -4.8651977
5.7269449 0.53690046 -4.8651195
5.7269659 0.35793522 -4.8650413
5.7269869 0.17896898 -4.864964
5.7268205 -4.7873351e-07 -4.8655896
5.7266335 -0.17895681 -4.8662963
5.7264466 -0.35790265 -4.8670025
5.7262592 -0.53683722 -4.8677058
5.7260728 -0.71575946 -4.8684115
5.7258854 -0.89466935 -4.8691177
5.7256985 -1.0735688 -4.8698215
5.7430134 -1.2562847 -4.8045068
5.7626839 -1.4406705 -4.7303061
5.7820659 -1.6262059 -4.6571937
5.7253661 -1.7891769 -4.8710761
5.7254701 -1.9681296 -4.8706846
5.725574 -2.14709 -4.8702931
5.7256775 -2.3260572 -4.8699002
5.7257819 -2.5050297 -4.8695087
5.7257605 -2.6839504 -4.8695869
5.7256985 -2.8628488 -4.869823
5.725636 -3.041744 -4.8700571
5.725574 -3.2206347 -4.8702936
5.7255116 -3.3995223 -4.8705282
5.7254701 -3.578419 -4.8706837
5.7254076 -3.757298 -4.8709202
5.72574 -3.9364464 -4.8696651
5.7400055 -4.1256294 -4.8158531
5.7468405 -4.3101301 -4.790072
5.7536912 -4.4950709 -4.7642269
5.7605591 -4.6804547 -4.7383199
5.7674437 -4.8662806 -4.7123528
5.774344 -5.0525503 -4.6863227
5.781261 -5.2392673 -4.6602302
5.7881942 -5.4264326 -4.6340742
5.7951446 -5.6140471 -4.6078553
5.8021121 -5.8021121 -4.5815744
5.8095231 -5.9910707 -4.553618
5.8299761 -6.1943493 -4.4764667
5.8423862 -6.3901091 -4.4296532
5.8079624 -6.5339575 -4.5595055
5.7972102 -6.7030239 -4.6000667
5.7864966 -6.8714657 -4.6404781
5.7758021 -7.039258 -4.6808214
5.7651467 -7.2064342 -4.721015
5.7543001 -7.3726964 -4.7619319
5.743494 -7.5383353 -4.8026948
5.7258024 -7.6940475 -4.8694301
5.7251167 -7.872036 -4.8720155
5.7253246 -8.0512381 -4.8712335
5.7255116 -8.230423 -4.8705277
5.725574 -8.4094362 -4.8702927
5.725657 -8.5884857 -4.8699784
5.7257195 -8.7675076 -4.8697438
5.9914899 9.0780153 -4.5520854
5.9980702 8.9062262 -4.5280151
6.0047979 8.734251 -4.503406
6.0115852 8.5619555 -4.4785781
6.0184102 8.3892994 -4.4536147
6.0252285 8.2162218 -4.4286737
6.0320621 8.0427494 -4.4036775
6.0399642 7.8702569 -4.3747711
6.0588975 7.7113247 -4.3055153
6.089252 7.5654345 -4.1944828
6.1000247 7.3939691 -4.155077
6.10007 7.2091737 -4.1549096
6.1001163 7.0243759 -4.1547418
6.1001163 6.8395243 -4.1547422
6.1001391 6.6546979 -4.1546583
6.1001391 6.4698448 -4.1546588
6.1001391 6.2849913 -4.1546583
6.1001616 6.100162 -4.1545739
6.1001616 5.9153085 -4.1545753
6.1001616 5.7304549 -4.1545749
6.1001844 5.5456223 -4.1544919
6.1001844 5.3607693 -4.1544909
6.1001844 5.1759148 -4.1544909
6.1002078 4.9910793 -4.154407
6.1002078 4.8062239 -4.1544075
6.1002078 4.6213694 -4.1544075
6.1002302 4.4365311 -4.1543231
6.1002302 4.2516761 -4.1543241
6.1002302 4.0668201 -4.1543231
6.1002531 3.8819792 -4.1542406
6.1002531 3.6971235 -4.1542401
6.1002531 3.5122669 -4.1542406
6.100276 3.3274238 -4.1541567
6.100276 3.1425672 -4.1541567
6.100276 2.9577098 -4.1541557
6.1002994 2.7728636 -4.1540728
6.1002994 2.5880053 -4.1540723
6.1002994 2.4031487 -4.1540728
6.1003218 2.2182987 -4.1539893
6.1003218 2.0334411 -4.1539903
6.0326881 1.8280873 -4.4013867
6.0213046 1.642175 -4.4430256
6.0099649 1.4569615 -4.4845061
5.9986672 1.2724456 -4.5258317
5.9874339 1.0886253 -4.5669212
5.9762435 0.90549076 -4.6078553
5.9650936 0.72304189 -4.6486397
5.9504161 0.54094762 -4.7023296
5.9504375 0.36063272 -4.7022505
5.950459 0.1803176 -4.7021708
5.950459 3.6014853e-07 -4.7021704
5.9504814 -0.1803176 -4.7020903
5.9503508 -0.3606278 -4.7025676
5.9501548 -0.54092336 -4.7032843
5.9499593 -0.72120726 -4.7040014
5.9497633 -0.90148008 -4.7047167
5.9495678 -1.0817392 -4.7054334
5.9493718 -1.2619883 -4.7061486
5.9491758 -1.4422238 -4.7068658
5.9561872 -1.6244147 -4.6812205
5.9806571 -1.8123208 -4.5917096
5.9967003 -1.9988999 -4.5330262
6.0312796 -2.1931922 -4.4065399
5.9488497 -2.3434863 -4.7080588
5.9489589 -2.5238001 -4.7076607
5.9490676 -2.7041211 -4.707262
5.9491978 -2.88446 -4.7067847
5.9491544 -3.0647154 -4.7069449
5.9490891 -3.2449572 -4.7071834
5.9490237 -3.4251957 -4.7074223
5.9489803 -3.605442 -4.7075815
5.9489155 -3.7856739 -4.7078185
5.9488497 -3.9659002 -4.7080574
5.9487848 -4.1461229 -4.7082968
5.9487195 -4.3263412 -4.7085357
5.9603095 -4.5153861 -4.6661396
5.968966 -4.7028217 -4.6344748
5.9761333 -4.8895631 -4.6082582
5.9833179 -5.0767546 -4.5819769
5.99052 -5.2643962 -4.5556331
5.9977388 -5.4524894 -4.5292277
6.0049758 -5.641037 -4.5027575
6.0122294 -5.8300414 -4.4762216
6.0195012 -6.0195007 -4.4496241
6.0267897 -6.2094207 -4.4229598
6.0321064 -6.3976889 -4.4035125
6.0208373 -6.5681858 -4.444737
6.0096316 -6.7380724 -4.485723
5.9984684 -6.9073267 -4.5265594
5.9873462 -7.0759549 -4.5672426
5.9760237 -7.2436647 -4.6086588
5.9647222 -7.4107156 -4.6499982
5.9483933 -7.570682 -4.7097287
5.9486108 -7.7512202 -4.7089324
5.9488282 -7.9317703 -4.708138
5.9489155 -8.1121569 -4.7078195
5.9489803 -8.2925177 -4.7075801
5.9490452 -8.4728832 -4.7073426
5.9491324 -8.6532841 -4.7070231
5.9491978 -8.8336573 -4.7067857
6.2002587 9.1180286 -4.4554858
6.2070985 8.9455242 -4.4312038
6.213953 8.7726412 -4.4068661
6.2208228 8.5993748 -4.3824759
6.2277083 8.425724 -4.3580317
6.2347016 8.251811 -4.3332038
6.2418036 8.0776281 -4.3079901
6.2489448 7.9030776 -4.2826371
6.2560792 7.728097 -4.257308
6.2632527 7.5527458 -4.2318377
6.2734461 7.3805256 -4.1956487
6.2968874 7.2228999 -4.1124263
6.3272772 7.0716629 -4.0045314
6.332582 6.8913393 -3.9856973
6.3326297 6.7051373 -3.9855282
6.332654 6.518909 -3.9854426
6.3327017 6.3327017 -3.9852731
6.3327494 6.146493 -3.9851034
6.3327732 5.9602571 -3.9850187
6.3327971 5.7740211 -3.9849334
6.3327971 5.5877624 -3.9849339
6.3327971 5.4015036 -3.9849327
6.3328209 5.2152648 -3.984849
6.3328209 5.0290055 -3.9848483
6.3328209 4.8427463 -3.9848478
6.3328452 4.6565042 -3.9847631
6.3328452 4.4702439 -3.9847631
6.3060751 4.2658749 -4.0798044
6.2780967 4.0622978 -4.1791368
6.311677 3.8983889 -4.0599155
6.3328691 3.7252169 -3.9846783
6.3328929 3.5389705 -3.9845941
6.3328929 3.3527083 -3.9845934
6.3328929 3.1664467 -3.9845932
6.3329167 2.9801962 -3.9845088
6.3329167 2.7939343 -3.9845085
6.3329167 2.6076717 -3.9845088
6.3329411 2.4214189 -3.9844246
6.3329411 2.2351556 -3.9844239
6.3329411 2.0488925 -3.9844234
6.3329649 1.8626367 -3.9843383
6.3329649 1.6763726 -3.9843383
6.3329649 1.4901102 -3.984339
6.2577133 1.2883531 -4.2515063
6.2458258 1.1022038 -4.2937093
6.233983 0.91676223 -4.3357539
6.2221851 0.73202217 -4.3776407
6.2104783 0.54798383 -4.4192057
6.198792 0.36463532 -4.4606948
6.1775079 0.18169184 -4.5362592
6.1773257 8.1382501e-07 -4.5369062
6.1773481 -0.18168662 -4.5368252
6.177371 -0.36337489 -4.5367441
6.1773939 -0.54506415 -4.536664
6.1772799 -0.72673923 -4.5370674
6.1770754 -0.90839368 -4.5377932
6.1768708 -1.0900356 -4.5385218
6.1766658 -1.2716663 -4.539248
6.1764612 -1.4532856 -4.5399752
6.1762567 -1.6348904 -4.5407033
6.1760511 -1.8164852 -4.5414295
6.1763701 -1.9982365 -4.5402989
6.1981273 -2.1875746 -4.4630523
6.2185392 -2.377677 -4.3905845
6.2435231 -2.5708621 -4.3018847
6.1756196 -2.7245381 -4.5429635
6.1757331 -2.9062271 -4.5425596
6.1758695 -3.0879347 -4.5420761
6.175983 -3.2696385 -4.5416713
6.1759377 -3.4512596 -4.5418324
6.1758695 -3.6328642 -4.5420752
6.1758242 -3.8144789 -4.5422373
6.175756 -3.9960773 -4.542479
6.1756878 -4.1776714 -4.5427203
6.1756196 -4.3592606 -4.5429635
6.1755738 -4.540863 -4.5431256
6.1755056 -4.7224455 -4.5433674
6.1812882 -4.9086699 -4.5228386
6.1943035 -5.101191 -4.4766288
6.2017951 -5.2897663 -4.4500313
6.2093048 -5.4787984 -4.4233685
6.2168331 -5.6682897 -4.3966413
6.2243795 -5.8582397 -4.3698497
6.2319441 -6.0486522 -4.3429928
6.2395272 -6.2395272 -4.3160715
6.2471285 -6.4308681 -4.289083
6.2359767 -6.6027989 -4.3286767
6.2243099 -6.7735147 -4.3700957
6.2126875 -6.9435916 -4.4113612
6.200901 -7.1127992 -4.4532056
6.187789 -7.2797518 -4.4997578
6.1752558 -7.446631 -4.5442557
6.1755056 -7.6285658 -4.5433679
6.1756196 -7.8103428 -4.5429635
6.1756878 -7.9920669 -4.5427208
6.1757784 -8.1738253 -4.5423975
6.1758466 -8.3555574 -4.5421553
6.1759377 -8.5373268 -4.5418329
6.4065928 9.152277 -4.3728037
6.4147601 8.9806633 -4.3446393
6.4250746 8.811532 -4.309062
6.4322338 8.6375713 -4.2843733
6.4393845 8.463191 -4.2597113
6.4465275 8.2883921 -4.2350774
6.4537096 8.1132355 -4.2103047
6.4609084 7.9376879 -4.1854782
6.4681954 7.7618356 -4.1603436
6.4756212 7.5857277 -4.1347356
6.4830875 7.4092431 -4.108984
6.4905477 7.2323251 -4.0832553
6.4980488 7.0550251 -4.0573845
6.5107942 6.8828392 -4.0134277
6.5374503 6.7242351 -3.9214942
6.5686221 6.5686226 -3.8139853
6.5686722 6.3809958 -3.8138139
6.5687218 6.1933665 -3.8136406
6.5687723 6.0057344 -3.8134692
6.5688219 5.8181 -3.8132968
6.568872 5.6304617 -3.8131235
6.5688968 5.4428005 -3.8130372
6.5689473 5.2551579 -3.8128645
6.5689969 5.067512 -3.8126929
6.5690222 4.8798447 -3.8126066
6.5690222 4.6921582 -3.8126063
6.5690222 4.5044723 -3.8126063
6.569047 4.316802 -3.8125203
6.4504538 4.0545716 -4.2215338
6.4457326 3.8674397 -4.2378168
6.5690718 3.7537558 -3.8124337
6.5690718 3.5660682 -3.8124337
6.5690718 3.3783801 -3.8124344
6.569097 3.1907051 -3.8123481
6.569097 3.0030162 -3.8123481
6.569097 2.8153269 -3.8123472
6.5691223 2.6276486 -3.8122616
6.5691223 2.43996 -3.8122616
6.5691223 2.2522712 -3.8122616
6.5691471 2.064589 -3.8121758
6.5691471 1.8768992 -3.8121741
6.5691471 1.6892098 -3.812175
6.5691719 1.5015246 -3.8120883
6.5691719 1.313835 -3.812089
6.5691719 1.1261435 -3.8120885
6.4982686 0.92832392 -4.0566258
6.485816 0.74123609 -4.0995731
6.4734111 0.55486393 -4.1423569
6.4610534 0.36920333 -4.1849766
6.4487672 0.18425123 -4.2273521
6.4365273 4.6485329e-07 -4.2695656
6.4243336 -0.1835525 -4.3116188
6.4076877 -0.36615279 -4.3690305
6.4077115 -0.54923159 -4.3689485
6.4077344 -0.7323122 -4.3688655
6.4077582 -0.91539383 -4.368783
6.4076638 -1.0984565 -4.3691115
6.4074497 -1.2814897 -4.3698497
6.4072356 -1.4645116 -4.3705883
6.4070215 -1.6475191 -4.3713274
6.4068069 -1.8305163 -4.3720655
6.4065928 -2.0135002 -4.3728032
6.4063792 -2.1964726 -4.3735409
6.4061651 -2.3794329 -4.3742781
6.4179082 -2.567163 -4.3337798
6.4429173 -2.7612503 -4.2475247
6.4613919 -2.9537792 -4.1838088
6.4074974 -3.1122122 -4.3696856
6.4059987 -3.2945137 -4.3748522
6.4061179 -3.4776063 -4.3744435
6.4062366 -3.6607075 -4.3740325
6.4062128 -3.8437274 -4.3741155
6.4061413 -4.0267167 -4.3743615
6.4060702 -4.2097039 -4.3746061
6.4059987 -4.3926849 -4.3748522
6.4059272 -4.5756631 -4.3750987
6.40588 -4.7586536 -4.3752627
6.4058089 -4.9416237 -4.3755093
6.4057374 -5.1245894 -4.3757558
6.4066882 -5.3083987 -4.3724756
6.4228992 -5.5053425 -4.3165655
6.430748 -5.6958055 -4.2894964
6.438592 -5.886713 -4.262444
6.446455 -6.0780859 -4.2353253
6.4543371 -6.269927 -4.2081409
6.4622388 -6.4622383 -4.1808891
6.4533963 -6.6377788 -4.2113867
6.4412346 -6.8093052 -4.2533288
6.4289994 -6.9800572 -4.295526
6.4104476 -7.1430702 -4.359509
6.4056187 -7.3207068 -4.3761654
6.4057851 -7.5039201 -4.3755903
6.40588 -7.6870561 -4.3752632
6.405951 -7.8701696 -4.3750162
6.4060464 -8.0533142 -4.3746896
6.4061179 -8.2364368 -4.3744431
6.4062128 -8.4195938 -4.3741145
6.6404104 9.2227926 -4.2025614
6.6403108 9.0382013 -4.2028956
6.6402116 8.8536158 -4.2032294
6.6409321 8.6701059 -4.2008128
6.6505342 8.4979057 -4.1686163
6.6603389 8.3254242 -4.1357408
6.6678181 8.1495562 -4.110662
6.6752887 7.9732618 -4.0856133
6.682776 7.7965732 -4.0605059
6.6902804 7.6194854 -4.0353441
6.6978021 7.4420023 -4.0101252
