# .PCD v0.7 - Point Cloud Data file format
VERSION 0.7
FIELDS x y z
SIZE 4 4 4
TYPE F F F
COUNT 1 1 1
WIDTH 1493
HEIGHT 1
VIEWPOINT 0 0 0 1 0 0 0
POINTS 1493
DATA ascii
-312.36752 169.571 -52.534473
-310.89029 159.88644 -57.629349
-309.42828 150.29379 -62.671673
-307.97861 140.79022 -67.671303
-306.54248 131.3754 -72.624359
-305.12097 122.04843 -77.526939
-303.7113 112.8071 -82.388649
-302.31589 103.65119 -87.201294
-300.93198 94.578636 -91.974289
-299.56067 85.588806 -96.703796
-298.20303 76.680786 -101.38605
-296.85641 67.852959 -106.0304
-295.52191 59.104382 -110.63288
-294.20059 50.434433 -115.19009
-292.88977 41.841419 -119.71078
-291.59183 33.32481 -124.18735
-290.30414 24.883211 -128.62839
-289.02777 16.515915 -133.03043
-287.76373 8.2218199 -137.38992
-286.50955 2.9567867e-05 -141.71545
-285.26627 -8.1504316 -146.0034
-284.03485 -16.230507 -150.25043
-282.8129 -24.241081 -154.46472
-281.60254 -32.183094 -158.63922
-280.40137 -40.057304 -162.78183
-281.96155 -48.336243 -157.40091
-284.46109 -56.892204 -148.78038
-276.67474 -63.239933 -175.63449
-275.50351 -70.843735 -179.67397
-274.32745 -78.379257 -183.72997
-284.68146 -89.471313 -148.02031
-298.31848 -102.28059 -100.98786
-313.32913 -116.37939 -49.21801
-329.92889 -131.97156 8.0325146
-348.3876 -149.30894 71.694344
-328.37372 299.3996 35.97823
-326.74136 288.30121 30.182932
-325.12363 277.3114 24.439486
-323.52335 266.43103 18.757984
-321.93726 255.65605 13.126876
-311.81473 238.44659 -22.811222
-310.2858 228.15134 -28.239574
-311.0192 219.543 -25.635675
-307.37552 207.93051 -38.571873
-305.90176 197.93649 -43.804131
-304.44211 188.03783 -48.986439
-302.99631 178.23317 -54.119522
-301.56284 168.52043 -59.208702
-300.14548 158.90056 -64.240807
-298.74265 149.37138 -69.221275
-297.35162 139.93018 -74.159874
-295.97348 130.57654 -79.052711
-294.60931 121.30975 -83.896019
-293.25641 112.12748 -88.699249
-291.91708 103.02956 -93.45417
-290.58875 94.014038 -98.170235
-289.27243 85.080132 -102.84351
-287.96918 76.227165 -107.47047
-286.67645 67.4533 -112.0601
-285.39526 58.757862 -116.6087
-284.12665 50.140038 -121.11272
-282.8681 41.598267 -125.58089
-281.6218 33.13203 -130.00571
-280.38528 24.739908 -134.39563
-279.15961 16.421169 -138.74722
-277.94571 8.1748991 -143.05693
-276.74121 5.1538984e-05 -147.33331
-275.54709 -8.1042919 -151.57274
-274.36435 -16.13905 -155.77194
-273.19061 -24.105034 -159.93896
-272.02798 -32.003284 -164.0668
-270.87411 -39.834408 -168.16338
-272.25461 -48.044899 -163.26221
-274.65338 -56.546261 -154.74571
-267.29489 -62.892906 -180.8707
-266.16956 -70.456612 -184.86598
-265.03952 -77.952782 -188.87796
-274.15363 -88.696732 -156.52002
-287.16846 -101.35353 -110.31336
-301.47925 -115.27144 -59.50552
-317.29263 -130.64989 -3.3629882
-334.85678 -147.73091 58.995197
-354.4776 -166.81296 128.65533
-318.23074 308.58743 34.204571
-316.64972 297.45886 28.421293
-315.08435 286.44034 22.69529
-313.5358 275.53152 17.030903
-312.00098 264.72815 11.416699
-310.48254 254.03117 5.8622861
-300.71603 236.92783 -29.862534
-299.24951 226.70418 -35.22691
-300.87003 218.81459 -29.299232
-296.46429 206.62668 -45.414909
-295.05176 196.70119 -50.581913
-293.65131 186.86906 -55.70462
-292.26538 177.13054 -60.774212
-290.89246 167.48358 -65.796227
-289.53238 157.92679 -70.771263
-288.18741 148.46019 -75.690994
-286.85367 139.0806 -80.569733
-285.53223 129.7874 -85.403442
-284.22406 120.57995 -90.188477
-282.92667 111.45598 -94.934227
-281.64227 102.4154 -99.632538
-280.36826 93.4561 -104.29261
-279.10574 84.577538 -108.91072
-277.85571 75.778839 -113.4833
-276.61566 67.058357 -118.01919
-275.38666 58.415382 -122.51482
-274.16965 49.849064 -126.96658
-272.96222 41.357964 -131.38322
-271.76648 32.941406 -135.75708
-270.58008 24.598225 -140.09685
-269.40399 16.32756 -144.3988
-268.23917 8.1284828 -148.65962
-267.08331 1.3526495e-05 -152.88763
-265.93735 -8.0586767 -157.07944
-264.80225 -16.048594 -161.23154
-263.67575 -23.97052 -165.35213
-262.55981 -31.825432 -169.4341
-261.4523 -39.613968 -173.48535
-262.66394 -47.757057 -169.05321
-264.96426 -56.204506 -160.63892
-258.01743 -62.549656 -186.04977
-256.9361 -70.073441 -190.00522
-255.85213 -77.530945 -193.97018
-263.82092 -87.940262 -164.82109
-276.21759 -100.44271 -119.4754
-289.8541 -114.18492 -69.594376
-304.90558 -129.35385 -14.537566
-321.60742 -146.18517 46.556015
-340.24503 -164.96724 114.73055
-306.58868 306.58875 26.665089
-305.07675 295.54315 20.961674
-303.57825 284.60461 15.308947
-302.09439 273.77313 9.7115364
-301.72845 264.01248 8.3312511
-301.73123 254.58574 8.3416977
-289.75653 235.4272 -36.829483
-288.35236 225.27531 -42.126278
-290.78671 218.09007 -32.943356
-285.68906 205.33904 -52.172699
-284.33505 195.48041 -57.280315
-282.99506 185.71556 -62.335125
-281.6676 176.04228 -67.342529
-280.35257 166.4594 -72.303146
-279.04974 156.96552 -77.217636
-277.76016 147.56013 -82.082291
-276.48242 138.24127 -86.902122
-275.2164 129.00772 -91.677811
-273.96304 119.85887 -96.405685
-272.71994 110.79253 -101.09496
-271.4892 101.80847 -105.73762
-270.26837 92.90477 -110.34277
-269.0585 84.080811 -114.9067
-267.8605 75.335793 -119.42577
-266.67203 66.668037 -123.90895
-265.49408 58.076813 -128.35246
-264.32751 49.561424 -132.75294
-263.17014 41.120346 -137.11885
-262.0239 32.753025 -141.44276
-260.88654 24.458164 -145.73305
-259.75903 16.234951 -149.9863
-258.64224 8.0825891 -154.19904
-257.53397 2.7733104e-05 -158.37959
-256.43521 -8.0135708 -162.52443
-255.34674 -15.959138 -166.63033
-254.26649 -23.837471 -170.7052
-253.19635 -31.6495 -174.74208
-252.13419 -39.395939 -178.74875
-253.18755 -47.47263 -174.77531
-255.39154 -55.866867 -166.46136
-248.83974 -62.209908 -191.17612
-247.80342 -69.694695 -195.08527
-246.76268 -77.113319 -199.01112
-253.66693 -87.197983 -172.96693
-265.46179 -99.548187 -128.47421
-278.44485 -113.1182 -79.499374
-292.76321 -128.08386 -25.487656
-308.63248 -144.67143 34.374561
-326.32233 -163.16115 101.10443
-295.21866 304.74191 19.698353
-295.22141 295.22144 19.709045
-295.22415 285.70084 19.719698
-295.22556 276.17877 19.72509
-295.2283 266.6579 19.735756
-295.23102 257.13675 19.746475
-278.93619 233.94655 -43.703857
-277.59171 223.8643 -48.939144
-280.76993 217.37025 -36.563511
-275.04611 204.06653 -58.851463
-273.75177 194.27548 -63.891506
-272.46954 184.57617 -68.884346
-271.19928 174.96733 -73.830574
-269.9408 165.44763 -78.730965
-268.69281 156.01518 -83.590462
-267.45859 146.67088 -88.396515
-266.23563 137.41197 -93.158569
-265.0249 128.23785 -97.872955
-263.82404 119.14638 -102.54895
-262.63403 110.13686 -107.18278
-261.45575 101.2087 -111.77075
-260.28696 92.359901 -116.32197
-259.12857 83.589874 -120.83264
-257.98151 74.897873 -125.29922
-256.84348 66.282211 -129.73048
-255.71547 57.742245 -134.12292
-254.59834 49.2771 -138.47285
-253.48991 40.885498 -142.78897
-252.39211 32.566727 -147.06369
-251.30278 24.319653 -151.30547
-250.22279 16.14344 -155.51076
-249.15303 8.0372438 -159.6763
-248.09142 1.2886163e-05 -163.81004
-247.03882 -7.9689684 -167.90884
-245.99606 -15.870655 -171.96924
-244.96112 -23.70586 -175.99919
-243.93579 -31.475563 -179.99165
-242.91808 -39.18034 -183.9545
-243.81772 -47.190495 -180.45145
-245.93314 -55.533268 -172.21419
-239.7621 -61.874077 -196.24358
-238.76897 -69.32 -200.11076
-237.77155 -76.700493 -203.99457
-243.68198 -86.467743 -180.98006
-254.89693 -98.669762 -137.3102
-267.24683 -112.07122 -89.220978
-280.85568 -126.83804 -36.229637
-295.92484 -143.18942 22.448065
-312.7012 -161.39417 87.773483
-331.49576 -181.78796 160.95746
-288.58704 298.20657 31.333
-288.59109 288.59116 31.349339
-288.59381 278.974 31.360279
-288.5965 269.35678 31.371166
-288.59924 259.73932 31.382105
-268.24997 232.48335 -50.497086
-266.965 222.47089 -55.667252
-270.81906 216.6553 -40.159817
-264.5354 202.81053 -65.443344
-263.29813 193.08534 -70.421631
-262.07239 183.45071 -75.353645
-260.85693 173.90463 -80.244362
-259.65375 164.44742 -85.08551
-258.46164 155.077 -89.88221
-257.28043 145.7923 -94.635109
-256.11102 136.59253 -99.340363
-254.95325 127.47665 -103.99885
-253.80487 118.44229 -108.61963
-252.66676 109.48896 -113.19902
-251.53987 100.61597 -117.73329
-250.42195 91.821434 -122.23145
-249.31392 83.104683 -126.68979
-248.21666 74.465004 -131.10475
-247.12802 65.900841 -135.48509
-246.04988 57.411682 -139.82323
-244.98013 48.99604 -144.12758
-243.91963 40.65332 -148.3947
-242.86926 32.382622 -152.62112
-241.82692 24.18273 -156.81516
-240.79349 16.052931 -160.97331
-239.76981 7.9923744 -165.09236
-238.75385 1.6288865e-05 -169.18022
-237.74739 -7.924911 -173.2299
-236.74846 -15.783229 -177.24925
-235.75789 -23.575781 -181.23499
-234.77649 -31.30353 -185.18387
-233.80232 -38.967018 -189.10365
-234.37958 -46.875896 -186.78088
-236.58705 -55.203621 -177.89874
-230.78108 -61.541588 -201.26016
-229.83113 -68.949326 -205.08246
-228.87616 -76.292046 -208.92497
-233.86375 -85.750053 -188.85645
-244.51588 -97.806328 -145.99557
-256.25525 -111.04394 -98.759903
-269.17755 -125.61615 -46.764721
-283.4736 -141.73679 10.758233
-299.37338 -159.66576 74.733994
-317.16113 -179.72461 146.3063
-281.81708 291.53491 43.194405
-281.82245 281.82248 43.216732
-281.82645 272.10831 43.233429
-281.83047 262.39389 43.250095
-257.69656 231.03831 -57.205791
-256.50528 221.12527 -62.164436
-260.93344 215.94496 -43.73251
-254.15326 201.56987 -71.954529
-252.9718 191.90968 -76.872314
-251.8002 182.3381 -81.74894
-250.64047 172.85551 -86.576263
-249.49138 163.4599 -91.359329
-248.35277 154.15002 -96.098785
-247.22449 144.92473 -100.79506
-246.10643 135.78288 -105.44893
-245.00046 126.72443 -110.05251
-243.9034 117.74651 -114.61902
-242.8161 108.84863 -119.14482
-241.73943 100.03013 -123.62634
-240.6713 91.289169 -128.07239
-239.61256 82.625069 -132.47931
-238.56407 74.037148 -136.8436
-237.52374 65.523819 -141.17384
-236.49341 57.084652 -145.4626
-235.47104 48.71814 -149.71811
-234.45746 40.423706 -153.93703
-233.45351 32.200535 -158.11603
-232.45718 24.047346 -162.26312
-231.46935 15.963431 -166.37494
-230.49074 7.9479942 -170.44826
-229.51952 5.1177212e-05 -174.49101
-228.55731 -7.8812723 -178.49611
-227.60226 -15.696684 -182.47141
-226.65515 -23.447025 -186.41371
-225.71677 -31.133352 -190.31964
-224.78526 -38.756073 -194.19699
-225.06645 -46.565472 -193.0265
-227.35124 -54.877884 -183.51625
-221.8969 -61.212898 -206.21962
-220.98753 -68.582321 -210.00473
-220.07419 -75.887634 -213.80647
-224.20717 -85.044067 -196.6032
-234.31589 -96.958267 -154.52635
-245.46236 -110.03482 -108.12984
-257.72339 -124.41813 -57.094093
-271.27249 -140.31337 -0.69678843
-286.32663 -157.97331 61.965092
-303.14978 -177.70844 131.99042
-274.90347 294.53949 55.283665
-274.90744 284.72559 55.300667
-274.91269 274.91275 55.323486
-248.44814 239.57498 -58.767868
-247.27353 229.61116 -63.831715
-246.86461 220.41486 -65.594559
-251.11351 215.24017 -47.277122
-243.89635 200.34344 -78.39106
-242.76944 190.74742 -83.24926
-241.65288 181.23967 -88.062813
-240.54655 171.819 -92.832268
-239.45032 162.48415 -97.558266
-238.36304 153.23341 -102.24569
-237.28656 144.06686 -106.88647
-236.21977 134.98276 -111.48546
-235.16446 125.98096 -116.03503
-234.11757 117.05881 -120.54829
-233.07997 108.2157 -125.02145
-232.05246 99.451065 -129.45117
-231.03304 90.763008 -133.84598
-230.02255 82.150925 -138.20239
-229.02176 73.614182 -142.51686
-228.02873 65.151093 -146.7979
-227.04517 56.761318 -151.03806
-226.06918 48.443432 -155.24567
-225.10155 40.196724 -159.41722
-224.14304 32.020473 -163.54948
-223.19177 23.913424 -167.65042
-222.24857 15.874913 -171.71663
-221.31415 7.9040804 -175.74506
-220.3867 2.7309663e-05 -179.74335
-219.46785 -7.8380942 -183.70468
-218.55577 -15.611091 -187.63664
-217.65128 -23.319715 -191.53613
-216.75502 -30.964989 -195.39987
-215.86531 -38.547352 -199.23546
-215.83849 -46.25108 -199.35112
-218.22382 -54.555958 -189.06779
-213.10712 -60.88773 -211.12637
-212.2384 -68.219444 -214.87146
-211.36583 -75.487762 -218.63321
-214.7075 -84.34938 -204.2269
-224.29037 -96.124428 -162.91431
-234.86481 -109.04436 -117.32687
-246.48459 -123.24231 -67.232826
-259.31516 -138.91885 -11.918982
-273.55356 -156.31633 49.464085
-289.44785 -175.73615 117.98583
-307.3031 -197.55196 194.96147
-267.84976 287.69052 67.642044
-267.85495 277.77557 67.66523
-238.09927 238.0993 -65.365379
-236.97849 228.20151 -70.376244
-237.28569 219.70905 -69.002747
-241.35645 214.53914 -50.803421
-233.76448 199.13275 -84.745316
-232.69087 189.59999 -89.545128
-231.62709 180.1544 -94.301056
-230.57298 170.79486 -99.013741
-229.52748 161.51935 -103.68788
-228.49236 152.32828 -108.31573
-227.46652 143.21968 -112.9019
-226.44986 134.19255 -117.44721
-225.44316 125.24624 -121.94785
-224.4454 116.37912 -126.40871
-223.45642 107.59018 -130.83025
-222.47701 98.8787 -135.20895
-221.50525 90.24292 -139.55348
-220.54195 81.682243 -143.86014
-214.62483 71.541626 -170.31412
-213.6881 63.315002 -174.50206
-217.70338 56.441624 -156.5507
-216.77278 48.171768 -160.7112
-215.85013 39.972263 -164.83614
-214.93613 31.842409 -168.92245
-214.02899 23.781027 -172.97806
-213.12949 15.787399 -176.99948
-212.23833 7.860713 -180.98369
-211.35378 2.0204636e-05 -184.93825
-210.47737 -7.7954636 -188.85645
-209.60742 -15.526446 -192.7459
-208.74463 -23.193821 -196.6032
-207.88968 -30.798431 -200.42549
-207.04094 -38.340897 -204.22002
-206.72037 -45.937851 -205.65311
-209.20284 -54.237751 -194.55464
-204.40947 -60.56572 -215.9847
-203.58136 -67.860413 -219.68698
-202.74876 -75.092117 -223.40927
-205.36255 -83.666237 -211.72365
-214.43584 -95.304787 -171.1591
-224.45541 -108.07113 -126.36385
-235.45726 -122.08894 -77.177261
-247.59207 -137.55115 -22.92531
-261.04691 -154.69443 37.228107
-276.04672 -173.80721 104.28877
-292.87695 -195.25127 179.53284
-260.6474 280.69724 80.260902
-227.87619 236.64066 -71.886597
-226.80907 226.80905 -76.840858
-227.76796 219.00768 -72.389076
-224.78522 207.49406 -86.237022
-223.75432 197.93654 -91.023232
-222.73285 188.46625 -95.765648
-221.72064 179.08208 -100.46504
-220.71669 169.78209 -105.12614
-219.72267 160.56664 -109.74098
-218.73759 151.43375 -114.31441
-217.76131 142.38242 -118.84711
-216.7937 133.41154 -123.33949
-215.83463 124.52003 -127.79212
-214.88489 115.70728 -132.20143
-213.94347 106.97176 -136.57219
-208.22888 96.105652 -163.10339
-207.31328 87.709473 -167.35432
-206.40489 79.38652 -171.57176
-205.50519 71.136436 -175.74872
-204.6149 62.958477 -179.88213
-208.00514 56.001419 -164.14229
-207.58006 47.903111 -166.11569
-206.70145 39.750309 -170.19496
-205.83101 31.66633 -174.23611
-204.96709 23.650074 -178.24699
-204.1104 15.700813 -182.2244
-203.26163 7.8177819 -186.1651
-202.41908 1.3712515e-05 -190.07672
-201.58427 -7.7532115 -193.95248
-200.75555 -15.442722 -197.79991
-199.93365 -23.069235 -201.61594
-199.11916 -30.633652 -205.39729
-198.31056 -38.136635 -209.15143
-197.72421 -45.628616 -211.87376
-200.28723 -53.923462 -199.97438
-195.80403 -60.24736 -220.78851
-195.00636 -67.50219 -224.49185
-194.22084 -74.70031 -228.1389
-196.16701 -82.993713 -219.10335
-204.7487 -94.499374 -179.26097
-214.23021 -107.11508 -135.24094
-224.63344 -120.95645 -86.941704
-236.09862 -136.21072 -33.712139
-248.79594 -153.10516 25.237953
-262.9379 -171.92091 90.895111
-278.78299 -193.00359 164.45943
-217.77757 235.19983 -78.328384
-216.76302 225.43356 -83.227089
-218.31076 218.31081 -75.753952
-214.84314 206.24942 -92.497078
-213.86371 196.75465 -97.226135
-212.8923 187.34528 -101.91655
-211.93056 178.02173 -106.56033
-210.97745 168.78201 -111.16228
-210.03288 159.62503 -115.72305
-209.09673 150.54965 -120.24315
-208.16806 141.55431 -124.72723
-207.24841 132.63902 -129.1676
-206.33687 123.80213 -133.56892
-205.43414 115.04317 -137.92775
-199.9557 103.97701 -164.37997
-199.07761 95.55732 -168.61975
-198.20721 87.211197 -172.82242
-197.34441 78.937782 -176.98849
-196.48904 70.736053 -181.11844
-195.64558 62.606586 -185.19112
-199.33194 55.812954 -167.39183
-198.48933 47.637451 -171.46025
-197.65382 39.530769 -175.49448
-196.82605 31.492229 -179.49126
-196.00446 23.520546 -183.45827
-195.1897 15.615196 -187.39233
-194.38242 7.7752957 -191.29019
-193.58104 4.2905594e-07 -195.15956
-192.78699 -7.7114501 -198.99361
-191.99869 -15.359859 -202.79984
-191.21681 -22.946012 -206.57501
-190.44199 -30.470701 -210.31613
-189.67274 -37.93449 -214.03056
-188.90965 -45.338291 -217.71504
-191.47362 -53.612606 -205.33501
-187.2886 -59.932346 -225.54207
-186.5296 -67.150627 -229.20692
-185.7821 -74.312859 -232.8161
-187.1188 -82.332268 -226.36198
-195.22319 -93.707115 -187.2305
-204.18513 -106.17626 -143.95847
-214.00858 -119.84479 -96.526627
-224.82602 -134.89558 -44.295479
-236.79523 -151.54892 13.497065
-250.10933 -170.07433 77.783127
-265.0112 -190.80801 149.73569
-281.8013 -214.16895 230.80556
-207.80118 233.77637 -84.692261
-206.83807 224.0746 -89.536331
-208.91446 217.6192 -79.092957
-205.01961 205.01962 -98.682518
-204.08968 195.58595 -103.35967
-203.16898 186.2383 -107.99049
-202.25655 176.9745 -112.57957
-201.35229 167.79361 -117.12774
-200.45605 158.69441 -121.63534
-199.56699 149.67526 -126.10707
-198.68654 140.73633 -130.53532
-197.81384 131.87593 -134.92465
-196.94879 123.09301 -139.27559
-196.09126 114.38661 -143.58861
-190.86433 103.38486 -169.87802
-190.03093 95.015472 -174.06978
-189.20404 86.718544 -178.22871
-188.38503 78.493767 -182.34792
-187.5731 70.339958 -186.43172
-186.77594 62.258675 -190.44109
-190.29881 55.503883 -172.72235
-189.49884 47.374718 -176.74591
-188.70555 39.313679 -180.73584
-187.9196 31.31996 -184.68892
-187.13947 23.392439 -188.61275
-186.36646 15.530592 -192.50063
-185.59914 7.7333026 -196.35995
-184.83809 2.7572081e-05 -200.18768
-184.08395 -7.6701527 -203.98073
-183.33527 -15.277901 -207.74634
-182.59265 -22.824078 -211.48145
-181.85667 -30.309437 -215.183
-181.12598 -37.734577 -218.85825
-180.40111 -45.100235 -222.50407
-182.76108 -53.305321 -210.63426
-178.86113 -59.620354 -230.24948
-178.14003 -66.802475 -233.87633
-177.4305 -73.929367 -237.44507
-178.2137 -81.681236 -233.50591
-185.85608 -92.928032 -195.0676
-194.31384 -105.25332 -152.52832
-203.57808 -118.75388 -105.93282
-213.769 -133.60559 -54.676491
-225.035 -150.02335 1.9872121
-237.55457 -168.26778 64.955627
-251.5479 -188.66089 135.33673
-267.29446 -211.60808 214.53586
-197.944 232.36905 -90.983902
-197.03206 222.73193 -95.769981
-199.57664 216.93117 -82.415321
-195.31174 203.8036 -104.79886
-194.43185 194.43192 -109.41666
-193.55989 185.14427 -113.99303
-192.69571 175.93961 -118.52854
-191.83919 166.81673 -123.02374
-190.98949 157.77397 -127.48323
-190.14806 148.81155 -131.89928
-189.31401 139.92781 -136.2767
-188.48723 131.12158 -140.61583
-187.66765 122.39194 -144.91721
-186.8544 113.73751 -149.18532
-181.87521 102.79905 -175.31755
-181.08554 94.479446 -179.46201
-180.3027 86.231758 -183.5706
-179.52591 78.054764 -187.64746
-178.75645 69.948212 -191.68575
-178.00435 61.914597 -195.63304
-181.36523 55.198151 -177.99413
-180.60698 47.114914 -181.97362
-179.85506 39.098953 -185.92001
-179.11003 31.149618 -189.83006
-178.37048 23.26577 -193.71143
-177.6377 15.446771 -197.55734
-176.91022 7.6917562 -201.37526
-176.18871 1.1028332e-05 -205.16205
-175.47369 -7.6292677 -208.91464
-174.76379 -15.196819 -212.64035
-174.05963 -22.703381 -216.33601
-173.36177 -30.14983 -219.99864
-172.66884 -37.536652 -223.63536
-171.98206 -44.864845 -227.23976
-174.14784 -53.001503 -215.87312
-170.52155 -59.311836 -234.90488
-169.83762 -66.458168 -238.49443
-169.16461 -73.549797 -242.02652
-169.44769 -81.040161 -240.54086
-176.6441 -92.162132 -202.77196
-184.6127 -104.34629 -160.95052
-193.33498 -117.68214 -115.17344
-202.92233 -132.34065 -64.856133
-213.5092 -148.52814 -9.2931948
-225.26262 -166.49844 52.392151
-238.38545 -186.56248 121.26456
-253.13045 -209.10773 198.65067
-188.20558 230.97964 -97.195953
-187.34288 221.40526 -101.92941
-190.2977 216.24742 -85.716774
-185.71912 202.60269 -110.83879
-184.88737 193.29135 -115.40246
-184.06303 184.06305 -119.92544
-183.24529 174.91597 -124.41236
-182.43549 165.85045 -128.85548
-181.63283 156.86476 -133.25958
-180.8372 147.95778 -137.62506
-180.04852 139.12845 -141.95244
-179.26598 130.37529 -146.24617
-178.49091 121.69839 -150.49886
-177.7225 113.09615 -154.71489
-172.9874 102.21986 -180.69579
-172.24052 93.949409 -184.79378
-171.50008 85.750084 -188.85646
-170.76598 77.620918 -192.88438
-170.04068 69.562141 -196.86394
-169.3298 61.57452 -200.76442
-172.52953 54.895763 -183.20811
-171.81215 46.857857 -187.14421
-171.10071 38.88652 -191.04774
-170.39578 30.981112 -194.91559
-169.69601 23.140371 -198.75513
-169.00259 15.363901 -202.5598
-168.31419 7.6506639 -206.33694
-167.63138 1.9740903e-05 -210.08344
-166.9547 -7.58884 -213.79631
-166.28284 -15.116609 -217.48268
-165.61638 -22.584023 -221.13947
-164.95583 -29.99194 -224.76373
-164.29994 -37.340874 -228.36259
-163.64984 -44.631744 -231.92958
-165.63222 -52.701111 -221.05257
-167.02032 -60.73465 -213.43626
-161.61977 -66.117188 -243.06824
-160.9826 -73.173866 -246.56429
-160.81879 -80.409401 -247.46312
-167.58209 -91.408432 -210.35382
-175.07799 -103.45515 -169.22502
-183.2751 -116.62958 -124.2487
-192.27832 -131.09882 -74.849419
-202.21178 -147.06308 -20.346075
-213.2265 -164.7659 40.090092
-225.51144 -184.50932 107.49576
-239.29854 -206.6669 183.1434
-254.87976 -231.7088 268.63519
-179.3974 239.19661 -98.65239
-178.58218 229.60568 -103.33838
-178.12935 220.54111 -105.94128
-181.07707 215.56793 -88.997414
-176.23886 201.41586 -116.80807
-175.45418 192.16411 -121.31851
-174.67574 182.99364 -125.79306
-173.90488 173.90492 -130.22409
-173.14081 164.89601 -134.61612
-172.38341 155.96597 -138.96974
-171.6326 147.11371 -143.28549
-170.88762 138.33759 -147.5676
-170.14978 129.63797 -151.80893
-169.41826 121.01305 -156.01372
-168.69301 112.46207 -160.1826
-164.1998 101.64751 -186.01013
-163.49481 93.425659 -190.06241
-162.79526 85.273727 -194.08363
-162.10226 77.191559 -198.06702
-161.4212 69.180557 -201.98186
-160.74945 61.2379 -205.8432
-163.79007 54.596725 -188.36533
-163.11273 46.603661 -192.25874
-162.44096 38.676468 -196.12015
-161.77533 30.814373 -199.94633
-161.11452 23.016403 -203.74478
-160.45967 15.281886 -207.50888
-159.80954 7.6100106 -211.2459
-159.16466 -1.0178492e-06 -214.95274
-158.52554 -7.5487909 -218.62651
-157.89096 -15.037245 -222.27412
-157.26144 -22.465918 -225.89273
-156.63748 -29.835693 -229.47928
-156.0179 -37.147102 -233.04071
-155.40376 -44.401012 -236.57092
-157.21255 -52.404179 -226.17369
-158.52203 -60.389328 -218.64667
-153.48637 -65.779861 -247.59229
-152.88435 -72.802055 -251.05278
-152.32263 -79.788033 -254.28159
-158.66771 -90.667244 -217.80925
-165.70412 -102.5787 -177.36308
-173.39429 -115.59617 -133.15909
-181.83296 -129.88065 -84.652451
-191.13419 -145.62601 -31.187841
-201.43922 -163.06981 28.046848
-212.91772 -182.50087 94.026787
-225.78461 -204.28128 167.98723
-240.30664 -228.86345 251.46173
-169.84052 237.77679 -104.77332
-169.07259 228.24803 -109.40819
-169.12427 219.86154 -109.09627
-171.9142 214.89276 -92.257545
-166.86836 200.24205 -122.71183
-166.1297 191.04922 -127.17007
-165.39757 181.93736 -131.58887
-164.67186 172.90547 -135.96901
-163.95247 163.95251 -140.31085
-163.23935 155.07739 -144.61484
-162.53177 146.27864 -148.88554
-161.83092 137.55627 -153.11546
-161.13609 128.90894 -157.30911
-160.44722 120.33543 -161.46683
-159.76421 111.83498 -165.5892
-155.50948 101.0812 -191.26884
-154.8455 92.907326 -195.27618
-154.18719 84.803001 -199.24953
-153.53445 76.767265 -203.18915
-152.8952 68.802841 -207.04733
-152.26239 60.904972 -210.86674
-155.14532 54.300896 -193.46667
-154.50719 46.352184 -197.31815
-153.8743 38.46859 -201.13803
-153.24713 30.649441 -204.92325
-152.6245 22.893715 -208.68123
-152.00745 15.200768 -212.40536
-151.39482 7.5697641 -216.10291
-150.78712 3.6803347e-05 -219.77081
-150.18481 -7.5092163 -223.40601
-149.58676 -14.958643 -227.01556
-148.99345 -22.349003 -230.59647
-148.40536 -29.681051 -234.14586
-147.82138 -36.955334 -237.67061
-147.24249 -44.172737 -241.16443
-148.88727 -52.110516 -231.23738
-150.11984 -60.047928 -223.79813
-145.43553 -65.445961 -252.07037
-144.86798 -72.43399 -255.49591
-144.29872 -79.364326 -258.93161
-149.89616 -89.937714 -225.1481
-156.48834 -101.71739 -185.36084
-163.68637 -114.58042 -141.91692
-171.57921 -128.6844 -94.279335
-180.2718 -144.21739 -41.814964
-189.89127 -161.40755 16.243711
-200.59621 -180.53656 80.853722
-212.57912 -201.95016 153.17696
-226.08586 -226.08582 234.69736
-160.39641 236.37372 -110.82196
-159.67479 226.9063 -115.40665
-160.17516 219.18712 -112.22775
-162.80923 214.2227 -95.493027
-157.60709 199.08264 -128.54321
-156.91345 189.94786 -132.94998
-156.22589 180.89317 -137.31818
-155.54433 171.91743 -141.64824
-154.86807 163.01904 -145.9446
-154.19829 154.19832 -150.19989
-153.53427 145.45357 -154.41855
-152.87595 136.78377 -158.601
-152.22324 128.18802 -162.74779
-151.5755 119.66489 -166.86304
-150.93382 111.2144 -170.93967
-146.91544 100.52114 -196.4693
-146.29163 92.39473 -200.43246
-145.6731 84.337051 -204.36211
-145.0614 76.348152 -208.24841
-144.46179 68.429321 -212.05788
-143.87776 60.580132 -215.76836
-146.59377 54.008259 -198.513
-145.99403 46.103401 -202.32312
-145.3992 38.262966 -206.10219
-144.80974 30.486279 -209.84723
-144.2245 22.772339 -213.56537
-143.6445 15.12047 -217.25018
-143.06862 7.529964 -220.90886
-142.49734 5.2070005e-05 -224.53833
-141.93114 -7.4700384 -228.13559
-141.36888 -14.880903 -231.70769
-140.81107 -22.233284 -235.25159
-140.25815 -29.527983 -238.76439
-139.70905 -36.765518 -242.2529
-139.16473 -43.946712 -245.71104
-140.65475 -51.820126 -236.24467
-141.81262 -59.710529 -228.88844
-137.46553 -65.115242 -256.50635
-136.93178 -72.069344 -259.8974
-136.39642 -78.966331 -263.29868
-141.26466 -89.219788 -232.36978
-147.42548 -100.87003 -193.22891
-154.14818 -113.58284 -150.51826
-161.51263 -127.50994 -103.73049
-169.61679 -142.83514 -52.243202
-178.57719 -159.77959 4.6840129
-188.53619 -178.61319 67.955452
-199.67264 -199.67264 138.70738
-212.20612 -223.37483 218.33496
-151.06375 234.98807 -116.79564
-150.38684 225.58029 -121.33501
-151.28018 218.51581 -115.34418
-149.10777 207.09418 -129.91266
-148.45244 197.93658 -134.30742
-147.80283 188.85922 -138.66373
-147.15889 179.8609 -142.98212
-146.51996 170.93999 -147.26692
-145.88712 162.09683 -151.5108
-145.25972 153.32973 -155.71819
-144.63771 144.63773 -159.8895
-144.021 136.01985 -164.0253
-143.40897 127.47466 -168.12971
-142.80266 119.00223 -172.19565
-142.20146 110.6012 -176.22737
-138.41664 99.967628 -201.60896
-137.83214 91.888115 -205.52867
-137.25204 83.876312 -209.41891
-136.68137 75.934143 -213.2459
-136.11945 68.059784 -217.01425
-135.70691 60.314201 -219.78082
-138.13387 53.718761 -203.50526
-137.57178 45.857307 -207.27473
-137.01474 38.05965 -211.01022
-136.4617 30.324833 -214.71896
-135.91312 22.652225 -218.39793
-135.36942 15.04107 -222.04408
-134.82954 7.4905553 -225.66452
-134.29398 4.9281243e-06 -229.25613
-133.76312 -7.4312716 -232.81609
-133.23598 -14.803984 -236.35129
-132.71295 -22.11882 -239.85867
-132.1945 -29.376511 -243.33549
-131.67963 -36.577625 -246.78841
-131.1692 -43.723061 -250.21132
-132.51347 -51.533024 -241.19641
-133.59776 -59.376766 -233.92506
-129.57614 -64.788033 -260.89462
-129.07553 -71.708618 -264.25174
-128.57339 -78.572647 -267.61914
-132.77034 -88.513527 -239.47389
-138.51237 -100.03667 -200.96693
-144.77408 -112.60207 -158.97496
-151.62875 -126.35728 -113.00655
-159.16409 -141.47919 -62.473419
-167.48831 -158.1834 -6.6499949
-176.73128 -176.73128 55.33482
-187.05307 -197.44489 124.55415
-198.65637 -220.72925 202.36757
-211.78709 -247.08495 290.42432
-141.83926 233.61765 -122.70367
-141.2068 224.26968 -127.19444
-142.4395 217.84868 -118.44163
-140.01443 205.90361 -135.66112
-139.40257 196.80363 -140.0056
-138.7955 187.78217 -144.31624
-138.19423 178.83963 -148.5856
-137.59816 169.97424 -152.81813
-137.0072 161.185 -157.01431
-136.4213 152.4709 -161.17461
-135.84039 143.83104 -165.29945
-135.26387 135.26389 -169.39307
-134.69276 126.76965 -173.44833
-134.12643 118.34689 -177.46954
-133.56487 109.99464 -181.45706
-130.01044 99.419769 -206.69572
-129.46443 91.386688 -210.57275
-128.92299 83.420799 -214.41728
-128.39174 75.524605 -218.18947
-127.86674 67.69416 -221.91733
-127.60748 60.050636 -223.7583
-129.76419 53.432331 -208.44424
-129.23895 45.6138 -212.17375
-128.71843 37.858395 -215.86974
-128.20163 30.165113 -219.53947
-127.68894 22.533377 -223.17986
-127.18081 14.962466 -226.78793
-126.67623 7.45156 -230.37067
-126.17567 3.8412723e-05 -233.92506
-125.67948 -7.3928833 -237.4483
-125.18674 -14.727826 -240.94707
-124.69828 -22.005541 -244.41541
-124.21318 -29.22662 -247.85989
-123.73183 -36.391705 -251.27773
-123.25465 -43.501587 -254.66609
-124.46193 -51.249027 -246.0936
-125.47467 -59.04689 -238.9025
-121.76563 -64.464149 -265.23904
-121.29755 -71.351471 -268.56271
-120.82801 -78.182785 -271.89679
-124.40899 -87.818077 -246.46959
-129.7458 -99.217354 -208.5748
-135.5605 -111.63804 -167.2869
-141.9214 -125.2247 -122.12051
-148.90863 -140.14926 -72.506699
-156.61879 -156.61879 -17.759726
-165.17177 -174.88773 42.971729
-174.71286 -195.26727 110.71952
-185.42282 -218.14445 186.76691
-197.52484 -244.00124 272.69894
-132.72229 232.26402 -128.53917
-132.13284 222.9742 -132.98624
-133.65265 217.18561 -121.52016
-131.02505 204.72665 -141.34387
-130.45522 195.68285 -145.64293
-129.89084 186.71808 -149.90079
-129.33133 177.8306 -154.12206
-128.77661 169.0193 -158.30702
-128.22664 160.28331 -162.45627
-127.68083 151.62105 -166.57399
-127.14016 143.03268 -170.65308
-126.60404 134.51683 -174.69775
-126.07243 126.07246 -178.70847
-125.54527 117.69872 -182.68565
-125.022 109.39428 -186.6333
-121.69587 98.877937 -211.7271
-121.18755 90.890671 -215.56203
-120.68391 82.97023 -219.36171
-120.19106 75.119446 -223.08003
-119.70264 67.332756 -226.7648
-119.57854 59.789284 -227.7011
-121.48329 53.148952 -213.33086
-120.99418 45.372833 -217.02095
-120.50942 37.659184 -220.67812
-120.02811 30.007074 -224.30942
-119.55061 22.415783 -227.9118
-119.07734 14.884657 -231.48238
-118.60736 7.412993 -235.02806
-118.14108 3.0917534e-05 -238.54582
-117.67888 -7.3549047 -242.0329
-117.21987 -14.652493 -245.49586
-116.76483 -21.8934 -248.92888
-116.3129 -29.078201 -252.33847
-115.86446 -36.207619 -255.72166
-115.41987 -43.282463 -259.07587
-116.49864 -50.968113 -250.93718
-117.44093 -58.720428 -243.82814
-114.03244 -64.14325 -269.54318
-113.59626 -70.997635 -272.83401
-113.1587 -77.79657 -276.13507
-116.17842 -87.133759 -253.35307
-121.12123 -98.410957 -216.06238
-126.50381 -110.69082 -175.45396
-132.38651 -124.11232 -131.07251
-138.84358 -138.84357 -82.357605
-145.96283 -155.08548 -28.646978
-153.85091 -173.08226 30.863968
-162.64107 -193.13623 97.180595
-172.49654 -215.62062 171.53432
-183.61522 -240.99493 255.41829
-123.70936 230.92416 -134.31544
-123.1631 221.69359 -138.71144
-124.91912 216.5265 -124.58002
-122.13735 203.56229 -146.96599
-121.60967 194.57552 -151.21246
-121.08652 185.66603 -155.42241
-120.56786 176.83292 -159.59628
-120.05363 168.07513 -163.73456
-119.54328 159.39108 -167.84143
-119.03773 150.78114 -171.90982
-118.53644 142.24371 -175.94389
-118.03934 133.77795 -179.9442
-117.54641 125.38285 -183.91106
-117.05712 117.05713 -187.84856
-116.57234 108.80088 -191.74983
-113.47186 98.342293 -216.70053
-113.00045 90.400391 -220.49413
-112.535 82.525688 -224.23972
-112.07788 74.718613 -227.91838
-111.62486 66.97493 -231.56401
-111.61918 59.530231 -231.60973
-113.28976 52.86858 -218.16597
-112.83603 45.13446 -221.81731
-112.38633 37.462101 -225.43614
-111.93979 29.850651 -229.02963
-111.49679 22.299397 -232.59468
-111.05769 14.807712 -236.12828
-110.62162 7.3747754 -239.63744
-110.18897 4.6427776e-05 -243.1192
-109.76008 -7.3173547 -246.57057
-109.33413 -14.577895 -249.99838
-108.91187 -21.78236 -253.39658
-108.49245 -28.931276 -256.7717
-108.07626 -36.025406 -260.12091
-107.66364 -43.065418 -263.44153
-108.62215 -50.690327 -255.72787
-109.49552 -58.397587 -248.69957
-106.37622 -63.825726 -273.80173
-105.96803 -70.64537 -277.08658
-105.56515 -77.414406 -280.3288
-108.07475 -86.459793 -260.13312
-112.63614 -97.617958 -223.4259
-117.59908 -109.75909 -183.48727
-123.02001 -123.01999 -139.86288
-128.96434 -137.56195 -92.026581
-135.51289 -153.58127 -39.327942
-142.76208 -171.31448 19.009007
-150.82993 -191.05121 83.934006
-159.86427 -213.15231 156.63676
-170.04323 -238.06052 238.55078
-115.30414 238.84433 -135.67709
-114.79983 229.59969 -140.02544
-114.41579 220.65907 -143.33665
-116.23892 215.87233 -127.61734
-113.35063 202.41188 -152.5206
-112.86367 193.48061 -156.71935
-112.38087 184.62573 -160.88214
-111.90175 175.84561 -165.01326
-111.42712 167.14073 -169.10553
-110.95651 158.50934 -173.16324
-110.48985 149.95052 -177.18683
-110.02711 141.46346 -181.17674
-109.56822 133.04716 -185.13335
-109.11273 124.70028 -189.06065
-108.66142 116.42297 -192.9519
-108.21384 108.21384 -196.8111
-105.33607 97.812088 -221.62373
-104.90081 89.915009 -225.37662
-104.47295 82.085907 -229.06573
-104.05121 74.322311 -232.70212
-103.63247 66.620888 -236.3125
-103.72736 59.272793 -235.4944
-105.18222 52.591148 -222.95024
-104.76317 44.898537 -226.56345
-104.34782 37.267094 -230.1447
-103.93537 29.695847 -233.70085
-103.52616 22.184202 -237.22914
-103.12054 14.73156 -240.72644
-102.71772 7.3369679 -244.19962
-102.31804 3.4726647e-05 -247.64584
-101.92181 -7.2800779 -251.06221
-101.52829 -14.50401 -254.45529
-101.13814 -21.672428 -257.81915
-100.75063 -28.785847 -261.16037
-100.36607 -35.845001 -264.47607
-99.984795 -42.85059 -267.76355
-100.83109 -50.415512 -260.46664
-101.63737 -58.078445 -253.51469
-98.79509 -63.511131 -278.02133
-98.418198 -70.298683 -281.27097
-98.045837 -77.036018 -284.48151
-100.09548 -85.796074 -266.80917
-104.2863 -96.837242 -230.67503
-108.84341 -108.8434 -191.38289
-113.81651 -121.94624 -148.50374
-119.26632 -136.30435 -101.5145
-125.26373 -152.10594 -49.803623
-131.89685 -169.58163 7.3884192
-139.27176 -189.01163 70.976189
-147.51794 -210.73987 142.07637
-156.79779 -235.19666 222.08907
-106.45529 237.47722 -141.36763
-105.99233 228.29118 -145.66643
-105.92779 220.00391 -146.26576
-107.61057 215.22119 -130.64041
-104.66267 201.27443 -158.01283
-104.21555 192.39796 -162.16458
-103.77183 183.59636 -166.28479
-103.33226 174.87 -170.3663
-102.89641 166.2173 -174.41341
-102.46422 157.6373 -178.42653
-102.03564 149.12903 -182.40608
-101.61024 140.69112 -186.35603
-101.18877 132.32381 -190.26965
-100.77077 124.02558 -194.15094
-100.35622 115.79565 -198.00027
-99.945053 107.63314 -201.8181
-97.28791 97.287926 -226.49083
-96.887703 89.434837 -230.20692
-96.496361 81.650787 -233.84059
-96.108871 73.929955 -237.43863
-95.724144 66.270599 -241.01105
-95.901428 59.016281 -239.36479
-97.159332 52.316601 -227.68465
-96.774261 44.665051 -231.26027
-96.392563 37.074116 -234.80444
-96.013527 29.542606 -238.32394
-95.637459 22.070194 -241.8159
-95.264664 14.656114 -245.2775
-94.894424 7.2995725 -248.7153
-94.527054 3.8797432e-05 -252.12654
-94.162849 -7.2432909 -255.50829
-93.801117 -14.430916 -258.86719
-93.442467 -21.563631 -262.1973
-93.086235 -28.641897 -265.50513
-92.732712 -35.666416 -268.78778
-92.382172 -42.637878 -272.04269
-93.124023 -50.1437 -265.15433
-93.864296 -57.762653 -258.28046
-91.288643 -63.199799 -282.19659
-90.941772 -69.955208 -285.41739
-90.599693 -76.661263 -288.59384
-92.239372 -85.14402 -273.36859
-96.068977 -96.068962 -237.80904
-100.23225 -107.94242 -199.15137
-104.77268 -120.89155 -156.99135
-109.74356 -135.06897 -110.8346
-115.2101 -150.65936 -60.075359
-121.24924 -167.88354 -3.9993389
-127.95715 -187.01424 58.286438
-135.44864 -208.38252 127.8483
-143.86803 -232.40211 206.02588
-97.70755 236.12663 -146.98943
-97.284271 226.99664 -151.24733
-97.490028 219.3526 -149.17749
-99.034119 214.57397 -133.64525
-96.071823 200.14966 -163.44366
-95.663307 191.32664 -167.55299
-95.258614 182.57904 -171.62381
-94.857346 173.90517 -175.66031
-94.459442 165.30405 -179.66298
-94.06485 156.7748 -183.63219
-93.673187 148.3159 -187.57199
-93.285141 139.92772 -191.47554
-92.900284 131.60873 -195.34689
-92.518585 123.35813 -199.1864
-92.140022 115.17503 -202.99452
-91.764191 107.05827 -206.77505
-89.325211 96.769005 -231.30928
-88.960999 88.961029 -234.97296
-88.604218 81.220558 -238.56192
-88.249969 73.541664 -242.12535
-87.898544 65.923935 -245.6604
-88.142952 58.761993 -243.20189
-89.21978 52.044895 -232.3698
-88.867996 44.434059 -235.90849
-88.519295 36.883034 -239.41612
-88.173004 29.391006 -242.89957
-87.829414 21.957401 -246.35588
-87.4888 14.581499 -249.78223
-87.150505 7.262569 -253.1851
-86.814819 4.0873085e-05 -256.56192
-86.48201 -7.2067881 -259.90967
-86.151443 -14.358576 -263.23486
-85.8237 -21.455936 -266.53177
-85.498138 -28.499353 -269.8067
-85.175034 -35.489594 -273.05679
-84.85466 -42.427341 -276.27954
-85.499626 -49.874763 -269.79175
-86.175621 -57.45039 -262.99173
-83.855423 -62.891529 -286.33115
-83.538345 -69.61525 -289.52069
-83.225349 -76.289886 -292.66913
-84.505569 -84.505585 -279.79111
-87.981339 -95.313095 -244.82767
-91.762482 -107.0562 -206.7923
-95.883583 -119.85446 -165.33708
-100.39227 -133.85637 -119.98321
-105.34545 -149.23935 -70.158134
-110.81325 -166.21986 -15.156326
-116.87971 -185.05954 45.867676
-123.64576 -206.07622 113.92879
-131.2412 -229.67206 190.33295
-89.058403 234.79033 -152.55154
-88.674408 225.71671 -156.76534
-89.102089 218.70515 -152.07208
-87.949242 207.88005 -164.7231
-87.576096 199.03662 -168.81786
-87.206108 190.26791 -172.87798
-86.839233 181.57297 -176.90396
-86.475433 172.95088 -180.89622
-86.114334 164.40013 -184.8588
-85.756569 155.92105 -188.78482
-85.401764 147.51218 -192.67834
-85.049881 139.17256 -196.53978
-84.70089 130.9014 -200.36955
-84.354431 122.69737 -204.17148
-84.011108 114.56062 -207.93896
-83.67057 106.48987 -211.67595
-81.447014 96.2556 -236.07661
-81.118141 88.492538 -239.68555
-80.794518 80.794556 -243.23689
-80.473183 73.157455 -246.76315
-80.154678 65.581116 -250.25829
-80.451042 58.509872 -247.00607
-81.362267 51.776028 -237.00661
-81.043114 44.205368 -240.50887
-80.726746 36.693977 -243.98059
-80.412552 29.240969 -247.42847
-80.100792 21.845709 -250.84962
-79.791725 14.507577 -254.24121
-79.484749 7.2258859 -257.60983
-79.180412 2.0439147e-05 -260.94965
-78.878113 -7.1707063 -264.26691
-78.578117 -14.286934 -267.55899
-78.280663 -21.349272 -270.82309
-77.985184 -28.358259 -274.06561
-77.691933 -35.31448 -277.28375
-77.401146 -42.218765 -280.47476
-77.956573 -49.608696 -274.37967
-78.569344 -57.141315 -267.65524
-76.494102 -62.586029 -290.42838
-76.206261 -69.278381 -293.58707
-75.922363 -75.922333 -296.70242
-76.886627 -83.876274 -286.12088
-80.019676 -94.56868 -251.73975
-83.430954 -106.18483 -214.30536
-87.145706 -118.83501 -173.54085
-91.207031 -132.66476 -128.97304
-95.665413 -147.84651 -80.048172
-100.58161 -164.58807 -26.09923
-106.03096 -183.14438 33.700348
-112.10183 -203.8215 100.32016
-118.90759 -227.00536 175.00439
-80.506905 233.47006 -158.04721
-80.161102 224.45111 -162.22142
-80.76384 218.06238 -154.94574
-79.510124 206.72638 -170.07938
-79.174652 197.93665 -174.12891
-78.841995 189.22084 -178.14441
-78.512131 180.57793 -182.12627
-78.184708 172.00638 -186.07858
-77.860298 163.50667 -189.99449
-77.538582 155.07716 -193.87805
-77.219505 146.71709 -197.72964
-76.903046 138.42552 -201.54964
-76.588882 130.20111 -205.34195
-76.277557 122.04411 -209.09998
-75.96875 113.95319 -212.82755
-73.952606 103.53367 -237.16461
-73.652229 95.74794 -240.79039
-73.357712 88.029274 -244.34566
-73.066315 80.372971 -247.86307
-72.777222 72.777237 -251.35272
-72.490669 65.241615 -254.81171
-72.8246 58.259678 -250.78081
-73.585526 51.50988 -241.59569
-73.298355 43.979065 -245.06213
-73.01368 36.506855 -248.49849
-72.730942 29.092421 -251.91133
-72.450394 21.735123 -255.2979
-72.172256 14.434484 -258.6553
-71.895988 7.1896024 -261.99014
-71.622086 1.7590035e-05 -265.29651
-71.350006 -7.1349754 -268.58078
-71.079987 -14.215978 -271.84018
-70.812248 -21.24365 -275.07205
-70.54628 -28.218491 -278.28259
-70.282303 -35.141148 -281.46906
-70.020531 -42.012287 -284.62894
-70.493813 -49.345661 -278.91589
-71.044464 -56.835579 -272.26892
-69.204178 -62.283764 -294.48312
-68.945023 -68.944992 -297.61145
-68.689415 -75.558327 -300.69693
-69.380547 -83.256622 -292.35428
-72.181412 -93.835823 -258.54471
-75.233696 -105.32716 -221.70044
-78.555504 -117.83327 -181.60262
-82.183884 -131.4942 -137.80426
-86.164032 -146.47884 -89.759636
-90.549309 -162.98874 -36.824619
-95.404457 -181.26842 21.782198
-100.80728 -201.61453 87
-106.85766 -224.40105 160.03447
-72.050766 232.16362 -163.48521
-71.742729 223.19963 -167.61667
-72.474167 217.42256 -157.80641
-71.164169 205.5854 -175.37656
-70.865555 196.8488 -179.38159
-70.569443 188.18521 -183.35316
-70.27552 179.59305 -187.29524
-69.984314 171.07277 -191.2011
-69.695503 162.62288 -195.07471
-69.409065 154.24239 -198.91647
-69.124977 145.93054 -202.72681
-68.842941 137.68588 -206.50948
-68.563461 129.50877 -210.25801
-68.286232 121.39776 -213.97627
-68.011238 113.3521 -217.66451
-66.206505 102.98792 -241.87019
-65.939476 95.245941 -245.45161
-65.677879 87.570534 -248.9603
-65.418343 79.955788 -252.44125
-65.161079 72.40123 -255.89172
-64.905609 64.905624 -259.31818
-65.263329 58.011879 -254.52036
-65.888313 51.246468 -246.13788
-65.632492 43.755032 -249.569
-65.378883 36.321609 -252.9705
-65.126991 28.945337 -256.34891
-64.877045 21.62569 -259.70135
-64.629227 14.362059 -263.02512
-64.383064 7.1537137 -266.32663
-64.139 2.8578677e-05 -269.6001
-63.896564 -7.0996037 -272.85181
-63.655945 -14.145735 -276.07904
-63.417355 -21.139076 -279.27911
-63.180325 -28.080112 -282.45819
-62.945065 -34.969475 -285.61362
-62.711761 -41.807838 -288.74271
-63.109562 -49.085205 -283.40726
-63.599915 -56.533272 -276.83051
-61.984348 -61.984348 -298.49896
-61.753342 -68.614807 -301.59732
-61.52528 -75.197548 -304.65616
-61.984348 -82.645782 -298.49896
-64.463936 -93.114525 -265.24207
-67.167793 -104.48322 -228.97707
-70.108673 -116.84773 -189.53319
-73.318863 -130.34465 -146.47711
-76.836823 -145.13618 -99.293144
-80.709755 -161.41949 -47.348244
-84.993835 -179.4314 10.111026
-89.754707 -199.45488 73.965286
-95.080574 -221.85466 145.39749
-101.07838 -247.08047 225.84178
-63.959839 239.84941 -164.77208
-63.68874 230.8717 -168.8627
-63.417717 221.96202 -172.9521
-64.233002 216.78641 -160.65031
-62.909824 204.45695 -180.61557
-62.647057 195.77206 -184.58047
-62.386711 187.16016 -188.5088
-62.128517 178.61952 -192.40459
-61.872452 170.14926 -196.2683
-61.618492 161.74858 -200.10028
-61.366379 153.41599 -203.9044
-61.116543 145.15182 -207.67406
-60.868736 136.95471 -211.41318
-60.622932 128.82376 -215.12209
-60.379105 120.75825 -218.80118
-60.137012 112.75692 -222.45412
-58.541641 102.44788 -246.52638
-58.3078 94.750221 -250.05478
-58.077675 87.116524 -253.52708
-57.849361 79.542908 -256.97211
-57.623032 72.028816 -260.38712
-57.398266 64.573074 -263.77856
-57.766113 57.766117 -258.22821
-58.269421 50.985752 -250.63382
-58.044327 43.533287 -254.03021
-57.821171 36.138248 -257.39737
-57.599525 28.799778 -260.74182
-57.379566 21.517368 -264.0607
-57.161484 14.290387 -267.35135
-56.944851 7.1181159 -270.62003
-56.730053 2.8786397e-05 -273.86108
-56.516674 -7.0645795 -277.08072
-56.304897 -14.076214 -280.27625
-56.094891 -21.035561 -283.44498
-55.886257 -27.943113 -286.59305
-55.679169 -34.799461 -289.7178
-55.473793 -41.605301 -292.81662
-55.802856 -48.82745 -287.85147
-56.233948 -56.233932 -281.34674
-54.83342 -61.687553 -302.47913
-54.630032 -68.287514 -305.54794
-54.429424 -74.840408 -308.57504
-54.696075 -82.044083 -304.55145
-56.863991 -92.403984 -271.84015
-59.230331 -103.65307 -236.13477
-61.801941 -115.87862 -197.33221
-64.607246 -129.21448 -155.00342
-67.679337 -143.81856 -108.64922
-71.057861 -159.88014 -57.67123
-74.791756 -177.6304 -1.3310024
-78.936783 -197.34195 61.212582
-83.567787 -219.3654 131.089
-88.776512 -244.13538 209.68262
-55.653851 238.51651 -170.13527
-55.419472 229.59497 -174.17693
-55.191952 220.76782 -178.10042
-56.039925 216.15402 -163.47766
-54.745396 203.34007 -185.80098
-54.518181 194.70781 -189.71918
-54.292839 186.14691 -193.605
-54.069359 177.65649 -197.45886
-53.847706 169.23567 -201.28107
-53.627666 160.88303 -205.07556
-53.409611 152.59892 -208.83574
-53.193325 144.38191 -212.56546
-52.978786 136.23119 -216.26506
-52.765968 128.14597 -219.93497
-52.554661 120.12498 -223.57881
-52.345234 112.16839 -227.19032
-50.956917 101.91389 -251.13091
-50.75515 94.259583 -254.61031
-50.555866 86.667229 -258.04681
-50.358322 79.134529 -261.4534
-50.162132 71.660217 -264.83652
-49.967468 64.243912 -268.19339
-50.332142 57.522453 -261.90479
-50.727844 50.727859 -255.08121
-50.532688 43.313763 -258.44641
-50.33939 35.95673 -261.77982
-50.147388 28.655666 -265.09079
-49.956844 21.41012 -268.37659
-49.767918 14.219419 -271.63458
-49.580235 7.0829043 -274.87097
-49.394138 3.938585e-05 -278.08008
-49.209267 -7.0298581 -281.2681
-49.025772 -14.00736 -284.43237
-48.843807 -20.933046 -287.57022
-48.663025 -27.807421 -290.68774
-48.483574 -34.631104 -293.78226
-48.305599 -41.40477 -296.85123
-48.572472 -48.572479 -292.24921
-48.945572 -55.937756 -285.81543
-47.75079 -61.393875 -306.41864
-47.574516 -67.963554 -309.45837
-47.400639 -74.486687 -312.45679
-47.513161 -81.451088 -310.51645
-49.379333 -91.70446 -278.33536
-51.417828 -102.83561 -243.18282
-53.63208 -114.92587 -204.99942
-56.04562 -128.10425 -163.37939
-58.686382 -142.52406 -117.84103
-61.588573 -158.37062 -67.794563
-64.792152 -175.8644 -12.550767
-68.345337 -195.27237 48.721657
-72.310844 -216.93253 117.10436
-76.76445 -241.25969 193.90411
-47.439842 237.19926 -175.43555
-47.240799 228.33054 -179.44008
-47.17186 220.13538 -180.827
-47.894505 215.52528 -166.28854
-46.669857 202.23607 -190.92651
-46.477203 193.65506 -194.80238
-46.286137 185.14456 -198.64633
-46.096458 176.70309 -202.46236
-45.908501 168.33118 -206.24376
-45.722073 160.0273 -209.99449
-45.537151 151.79053 -213.71478
-45.353718 143.62013 -217.4052
-45.171757 135.51532 -221.06596
-44.991085 127.47477 -224.70076
-44.812019 119.49872 -228.30334
-44.634369 111.58595 -231.87735
-43.450706 101.38501 -255.69077
-43.280315 93.774025 -259.11884
-43.111401 86.222824 -262.51706
-42.943653 78.730072 -265.89194
-42.777203 71.295372 -269.2406
-42.61219 63.91832 -272.56049
-42.961529 57.282078 -265.53235
-43.262024 50.472389 -259.48685
-43.096428 43.096443 -262.81836
-42.932396 35.777016 -266.11841
-42.769459 28.512981 -269.39642
-42.607754 21.303915 -272.64969
-42.447414 14.149137 -275.87546
-42.288136 7.0480528 -279.07999
-42.130184 4.1439591e-05 -282.25763
-41.97327 -6.9955344 -285.41452
-41.81752 -13.93915 -288.548
-41.663063 -20.831518 -291.65546
-41.509598 -27.673044 -294.74289
-41.357262 -34.464359 -297.80762
-41.206181 -41.20615 -300.84714
-41.417225 -48.320087 -296.60126
-41.733692 -55.644905 -290.23444
-40.735287 -61.102928 -310.3208
-40.585625 -67.64267 -313.33182
-40.437851 -74.136055 -316.30472
-40.433193 -80.866371 -316.39847
-42.007 -91.015144 -284.7359
-43.727737 -102.03138 -250.11739
-45.595295 -113.98821 -212.545
-47.629681 -127.01246 -171.61638
-49.854084 -141.25325 -126.8648
-52.296207 -156.8886 -77.733009
-54.989426 -174.13316 -23.549673
-57.973736 -193.24574 36.489967
-61.300552 -214.55191 103.42037
-65.032433 -238.45222 178.5
-39.315922 235.89558 -180.68118
-39.151714 227.07996 -184.64555
-39.197742 219.50739 -183.53438
-39.796486 214.90103 -169.07936
-38.681538 201.14401 -195.99663
-38.522717 192.61365 -199.83087
-38.365055 184.1523 -203.63719
-38.20882 175.76059 -207.40904
-38.053852 167.43697 -211.15028
-37.900135 159.18059 -214.86131
-37.747654 150.99065 -218.54248
-37.59626 142.86581 -222.19748
-37.446213 134.8064 -225.81996
-37.297359 126.81104 -229.41367
-37.149681 118.879 -232.9789
-37.00317 111.00951 -236.51601
-36.022633 100.86339 -260.18823
-35.882092 93.293465 -263.58121
-35.742767 85.782661 -266.94476
