# .PCD v0.7 - Point Cloud Data file format
VERSION 0.7
FIELDS x y z
SIZE 4 4 4
TYPE F F F
COUNT 1 1 1
WIDTH 1482
HEIGHT 1
VIEWPOINT 0 0 0 1 0 0 0
POINTS 1482
DATA ascii
-269.41266 209.54321 -226.49078
-269.41266 202.05952 -226.49084
-269.41266 194.57582 -226.4908
-269.41266 187.09218 -226.49083
-269.41266 179.60847 -226.4908
-269.41266 172.12479 -226.49078
-263.94684 161.30089 -244.81813
-263.94684 153.96899 -244.81816
-263.94684 146.63713 -244.81813
-266.92358 140.87636 -234.83685
-268.75934 134.37968 -228.68144
-264.0556 124.69295 -244.45352
-264.0556 117.35808 -244.45348
-264.0556 110.02319 -244.45349
-264.0556 102.68829 -244.45348
-264.0556 95.353455 -244.45349
-264.0556 88.01857 -244.45351
-264.0556 80.683662 -244.45349
-264.0556 73.348824 -244.45349
-264.0556 66.013916 -244.45348
-264.0556 58.679047 -244.45351
-264.0556 51.344177 -244.45348
-264.0556 44.009296 -244.45349
-264.0556 36.674393 -244.45348
-264.0556 29.339569 -244.45352
-264.0556 22.004663 -244.45351
-264.0556 14.669761 -244.45349
-264.0556 7.3349032 -244.45346
-264.0556 4.7362078e-05 -244.45352
-264.0556 -7.3348632 -244.45351
-264.0556 -14.669722 -244.45346
-264.0556 -22.004583 -244.45352
-264.0556 -29.339495 -244.45352
-264.0556 -36.674355 -244.45348
-264.0556 -44.009262 -244.45346
-264.0556 -51.344112 -244.45352
-264.0556 -58.678978 -244.45349
-264.0556 -66.013885 -244.45348
-264.0556 -73.34874 -244.45354
-264.0556 -80.683609 -244.45349
-264.0556 -88.018509 -244.45348
-264.0556 -95.353416 -244.45346
-264.0556 -102.68824 -244.45351
-264.0556 -110.02314 -244.45349
-264.0556 -117.35802 -244.45348
-264.0556 -124.69288 -244.45354
-264.0556 -132.02776 -244.45351
-264.0556 -139.36264 -244.45348
-268.01462 -148.89699 -231.1786
-271.61386 -158.44141 -219.11
-263.94778 -161.30139 -244.81499
-263.94778 -168.63329 -244.81497
-263.94778 -175.96518 -244.81496
-263.36053 240.78679 -221.55365
-263.36053 233.26219 -221.55363
-263.36053 225.73764 -221.55362
-263.36053 218.21303 -221.5536
-263.36053 210.68845 -221.55362
-263.36053 203.16386 -221.55365
-263.36053 195.63924 -221.55362
-263.36053 188.1147 -221.55363
-263.36053 180.5901 -221.55362
-263.36053 173.06551 -221.55362
-256.61499 161.30089 -244.81813
-256.61499 153.96899 -244.81816
-256.61499 146.63713 -244.81813
-259.50903 140.87636 -234.83685
-261.29382 134.37968 -228.68144
-256.7207 124.69295 -244.45352
-256.7207 117.35808 -244.45348
-256.7207 110.02319 -244.45349
-256.7207 102.68829 -244.45348
-256.7207 95.353455 -244.45349
-256.7207 88.01857 -244.45351
-256.7207 80.683662 -244.45349
-256.7207 73.348824 -244.45349
-256.7207 66.013916 -244.45348
-256.7207 58.679047 -244.45351
-256.7207 51.344177 -244.45348
-256.7207 44.009296 -244.45349
-256.7207 36.674393 -244.45348
-256.7207 29.339569 -244.45352
-256.7207 22.004663 -244.45351
-256.7207 14.669761 -244.45349
-256.7207 7.3349032 -244.45346
-256.7207 4.7362078e-05 -244.45352
-256.7207 -7.3348632 -244.45351
-256.7207 -14.669722 -244.45346
-256.7207 -22.004583 -244.45352
-256.7207 -29.339495 -244.45352
-256.7207 -36.674355 -244.45348
-256.7207 -44.009262 -244.45346
-256.7207 -51.344112 -244.45352
-256.7207 -58.678978 -244.45349
-256.7207 -66.013885 -244.45348
-256.7207 -73.34874 -244.45354
-256.7207 -80.683609 -244.45349
-256.7207 -88.018509 -244.45348
-256.7207 -95.353416 -244.45346
-256.7207 -102.68824 -244.45351
-256.7207 -110.02314 -244.45349
-256.7207 -117.35802 -244.45348
-256.7207 -124.69288 -244.45354
-256.7207 -132.02776 -244.45351
-256.7207 -139.36264 -244.45348
-260.56976 -148.89699 -231.1786
-264.06903 -158.44141 -219.11
-256.61588 -161.30139 -244.81499
-256.61588 -168.63329 -244.81497
-256.61588 -175.96518 -244.81496
-263.5174 240.2659 -194.282
-263.5174 232.51538 -194.28201
-263.5174 224.76486 -194.28203
-263.5174 217.01437 -194.282
-263.5174 209.26384 -194.28198
-263.5174 201.51332 -194.282
-263.5174 193.7628 -194.28201
-263.5174 186.01231 -194.282
-263.5174 178.2618 -194.28201
-249.28313 161.30089 -244.81813
-249.28313 153.96899 -244.81816
-249.28313 146.63713 -244.81813
-252.0936 140.87589 -234.84009
-253.82828 134.37968 -228.68144
-249.38582 124.69295 -244.45352
-249.38582 117.35808 -244.45348
-249.38582 110.02319 -244.45349
-249.38582 102.68829 -244.45348
-249.38582 95.353455 -244.45349
-249.38582 88.01857 -244.45351
-249.38582 80.683662 -244.45349
-249.38582 73.348824 -244.45349
-249.38582 66.013916 -244.45348
-249.38582 58.679047 -244.45351
-249.38582 51.344177 -244.45348
-249.38582 44.009296 -244.45349
-249.38582 36.674393 -244.45348
-249.38582 29.339569 -244.45352
-249.38582 22.004663 -244.45351
-249.38582 14.669761 -244.45349
-249.38582 7.3349032 -244.45346
-249.38582 4.7362078e-05 -244.45352
-249.38582 -7.3348632 -244.45351
-249.38582 -14.669722 -244.45346
-249.38582 -22.004583 -244.45352
-249.38582 -29.339495 -244.45352
-249.38582 -36.674355 -244.45348
-249.38582 -44.009262 -244.45346
-249.38582 -51.344112 -244.45352
-249.38582 -58.678978 -244.45349
-249.38582 -66.013885 -244.45348
-249.38582 -73.34874 -244.45354
-249.38582 -80.683609 -244.45349
-249.38582 -88.018509 -244.45348
-249.38582 -95.353416 -244.45346
-249.38582 -102.68824 -244.45351
-249.38582 -110.02314 -244.45349
-249.38582 -117.35802 -244.45348
-249.38582 -124.69288 -244.45354
-249.38582 -132.02776 -244.45351
-249.38582 -139.36264 -244.45348
-253.12492 -148.89699 -231.1786
-256.5242 -158.44141 -219.11
-249.28403 -161.30139 -244.81499
-249.28403 -168.63329 -244.81497
-249.28403 -175.96518 -244.81496
-263.68503 239.71367 -165.31824
-263.68503 231.72324 -165.3183
-263.68503 223.73277 -165.31825
-263.68503 215.74232 -165.31824
-263.68503 207.75186 -165.3183
-263.68503 199.7614 -165.31827
-263.68503 191.77095 -165.31825
-263.68503 183.7805 -165.31824
-241.95126 161.30089 -244.81813
-241.95126 153.96899 -244.81816
-241.95126 146.63713 -244.81813
-244.67819 140.87534 -234.84329
-246.36273 134.37968 -228.68144
-242.05095 124.69295 -244.45352
-242.05095 117.35808 -244.45348
-242.05095 110.02319 -244.45349
-242.05095 102.68829 -244.45348
-242.05095 95.353455 -244.45349
-242.05095 88.01857 -244.45351
-242.05095 80.683662 -244.45349
-242.05095 73.348824 -244.45349
-242.05095 66.013916 -244.45348
-242.05095 58.679047 -244.45351
-242.05095 51.344177 -244.45348
-242.05095 44.009296 -244.45349
-242.05095 36.674393 -244.45348
-242.05095 29.339569 -244.45352
-242.05095 22.004663 -244.45351
-242.05095 14.669761 -244.45349
-242.05095 7.3349032 -244.45346
-242.05095 4.7362078e-05 -244.45352
-242.05095 -7.3348632 -244.45351
-242.05095 -14.669722 -244.45346
-242.05095 -22.004583 -244.45352
-242.05095 -29.339495 -244.45352
-242.05095 -36.674355 -244.45348
-242.05095 -44.009262 -244.45346
-242.05095 -51.344112 -244.45352
-242.05095 -58.678978 -244.45349
-242.05095 -66.013885 -244.45348
-242.05095 -73.34874 -244.45354
-242.05095 -80.683609 -244.45349
-242.05095 -88.018509 -244.45348
-242.05095 -95.353416 -244.45346
-242.05095 -102.68824 -244.45351
-242.05095 -110.02314 -244.45349
-242.05095 -117.35802 -244.45348
-242.05095 -124.69288 -244.45354
-242.05095 -132.02776 -244.45351
-242.05095 -139.36264 -244.45348
-245.68007 -148.89699 -231.1786
-248.97937 -158.44141 -219.11
-241.95213 -161.30139 -244.81499
-241.95213 -168.63329 -244.81497
-241.95213 -175.96518 -244.81496
-331.90027 238.55339 122.14557
-234.61942 161.30089 -244.81813
-234.61942 153.96899 -244.81816
-234.61942 146.63713 -244.81813
-237.26283 140.87482 -234.84656
-238.89719 134.37968 -228.68144
-234.71608 124.69295 -244.45352
-234.71608 117.35808 -244.45348
-234.71608 110.02319 -244.45349
-234.71608 102.68829 -244.45348
-234.71608 95.353455 -244.45349
-234.71608 88.01857 -244.45351
-234.71608 80.683662 -244.45349
-234.71608 73.348824 -244.45349
-234.71608 66.013916 -244.45348
-234.71608 58.679047 -244.45351
-234.71608 51.344177 -244.45348
-234.71608 44.009296 -244.45349
-234.71608 36.674393 -244.45348
-234.71608 29.339569 -244.45352
-234.71608 22.004663 -244.45351
-234.71608 14.669761 -244.45349
-234.71608 7.3349032 -244.45346
-234.71608 4.7362078e-05 -244.45352
-234.71608 -7.3348632 -244.45351
-234.71608 -14.669722 -244.45346
-234.71608 -22.004583 -244.45352
-234.71608 -29.339495 -244.45352
-234.71608 -36.674355 -244.45348
-234.71608 -44.009262 -244.45346
-234.71608 -51.344112 -244.45352
-234.71608 -58.678978 -244.45349
-234.71608 -66.013885 -244.45348
-234.71608 -73.34874 -244.45354
-234.71608 -80.683609 -244.45349
-234.71608 -88.018509 -244.45348
-234.71608 -95.353416 -244.45346
-234.71608 -102.68824 -244.45351
-234.71608 -110.02314 -244.45349
-234.71608 -117.35802 -244.45348
-234.71608 -124.69288 -244.45354
-234.71608 -132.02776 -244.45351
-234.71608 -139.36264 -244.45348
-238.2352 -148.89699 -231.1786
-241.43454 -158.44141 -219.11
-234.62025 -161.30139 -244.81499
-234.62025 -168.63329 -244.81497
-234.62025 -175.96518 -244.81496
-321.52838 238.55339 122.14557
-227.28755 161.30089 -244.81813
-227.28755 153.96899 -244.81816
-227.28755 146.63713 -244.81813
-229.84755 140.87431 -234.84982
-231.43166 134.37968 -228.68144
-227.38121 124.69295 -244.45352
-227.38121 117.35808 -244.45348
-227.38121 110.02319 -244.45349
-227.38121 102.68829 -244.45348
-227.38121 95.353455 -244.45349
-227.38121 88.01857 -244.45351
-227.38121 80.683662 -244.45349
-227.38121 73.348824 -244.45349
-227.38121 66.013916 -244.45348
-227.38121 58.679047 -244.45351
-227.38121 51.344177 -244.45348
-227.38121 44.009296 -244.45349
-227.38121 36.674393 -244.45348
-227.38121 29.339569 -244.45352
-227.38121 22.004663 -244.45351
-227.38121 14.669761 -244.45349
-227.38121 7.3349032 -244.45346
-227.38121 4.7362078e-05 -244.45352
-227.38121 -7.3348632 -244.45351
-227.38121 -14.669722 -244.45346
-227.38121 -22.004583 -244.45352
-227.38121 -29.339495 -244.45352
-227.38121 -36.674355 -244.45348
-227.38121 -44.009262 -244.45346
-227.38121 -51.344112 -244.45352
-227.38121 -58.678978 -244.45349
-227.38121 -66.013885 -244.45348
-227.38121 -73.34874 -244.45354
-227.38121 -80.683609 -244.45349
-227.38121 -88.018509 -244.45348
-227.38121 -95.353416 -244.45346
-227.38121 -102.68824 -244.45351
-227.38121 -110.02314 -244.45349
-227.38121 -117.35802 -244.45348
-227.38121 -124.69288 -244.45354
-227.38121 -132.02776 -244.45351
-227.38121 -139.36264 -244.45348
-230.79037 -148.89699 -231.1786
-233.88972 -158.44141 -219.11
-227.28836 -161.30139 -244.81499
-227.28836 -168.63329 -244.81497
-227.28836 -175.96518 -244.81496
-311.15649 238.55339 122.14557
-219.95569 161.30089 -244.81813
-219.95569 153.96899 -244.81816
-219.95569 146.63713 -244.81813
-222.43311 140.87431 -234.84982
-223.96613 134.37968 -228.68144
-220.04631 124.69295 -244.45352
-220.04631 117.35808 -244.45348
-220.04631 110.02319 -244.45349
-220.04631 102.68829 -244.45348
-220.04631 95.353455 -244.45349
-220.04631 88.01857 -244.45351
-220.04631 80.683662 -244.45349
-220.04631 73.348824 -244.45349
-220.04631 66.013916 -244.45348
-220.04631 58.679047 -244.45351
-220.04631 51.344177 -244.45348
-220.04631 44.009296 -244.45349
-220.04631 36.674393 -244.45348
-220.04631 29.339569 -244.45352
-220.04631 22.004663 -244.45351
-220.04631 14.669761 -244.45349
-220.04631 7.3349032 -244.45346
-220.04631 4.7362078e-05 -244.45352
-220.04631 -7.3348632 -244.45351
-220.04631 -14.669722 -244.45346
-220.04631 -22.004583 -244.45352
-220.04631 -29.339495 -244.45352
-220.04631 -36.674355 -244.45348
-220.04631 -44.009262 -244.45346
-220.04631 -51.344112 -244.45352
-220.04631 -58.678978 -244.45349
-220.04631 -66.013885 -244.45348
-220.04631 -73.34874 -244.45354
-220.04631 -80.683609 -244.45349
-220.04631 -88.018509 -244.45348
-220.04631 -95.353416 -244.45346
-220.04631 -102.68824 -244.45351
-220.04631 -110.02314 -244.45349
-220.04631 -117.35802 -244.45348
-220.04631 -124.69288 -244.45354
-220.04631 -132.02776 -244.45351
-220.04631 -139.36264 -244.45348
-223.3455 -148.89699 -231.1786
-226.34488 -158.44141 -219.11
-219.95648 -161.30139 -244.81499
-219.95648 -168.63329 -244.81497
-219.95648 -175.96518 -244.81496
-300.78461 238.55339 122.14557
-212.62384 161.30089 -244.81813
-212.62384 153.96899 -244.81816
-212.62384 146.63713 -244.81813
-215.0179 140.87383 -234.85306
-216.5006 134.37968 -228.68144
-212.71144 124.69295 -244.45352
-212.71144 117.35808 -244.45348
-212.71144 110.02319 -244.45349
-212.71144 102.68829 -244.45348
-212.71144 95.353455 -244.45349
-212.71144 88.01857 -244.45351
-212.71144 80.683662 -244.45349
-212.71144 73.348824 -244.45349
-212.71144 66.013916 -244.45348
-212.71144 58.679047 -244.45351
-212.71144 51.344177 -244.45348
-212.71144 44.009296 -244.45349
-212.71144 36.674393 -244.45348
-212.71144 29.339569 -244.45352
-212.71144 22.004663 -244.45351
-212.71144 14.669761 -244.45349
-212.71144 7.3349032 -244.45346
-212.71144 4.7362078e-05 -244.45352
-212.71144 -7.3348632 -244.45351
-212.71144 -14.669722 -244.45346
-212.71144 -22.004583 -244.45352
-212.71144 -29.339495 -244.45352
-212.71144 -36.674355 -244.45348
-212.71144 -44.009262 -244.45346
-212.71144 -51.344112 -244.45352
-212.71144 -58.678978 -244.45349
-212.71144 -66.013885 -244.45348
-212.71144 -73.34874 -244.45354
-212.71144 -80.683609 -244.45349
-212.71144 -88.018509 -244.45348
-212.71144 -95.353416 -244.45346
-212.71144 -102.68824 -244.45351
-212.71144 -110.02314 -244.45349
-212.71144 -117.35802 -244.45348
-212.71144 -124.69288 -244.45354
-212.71144 -132.02776 -244.45351
-212.71144 -139.36264 -244.45348
-215.90068 -148.89699 -231.1786
-218.80005 -158.44141 -219.11
-212.62459 -161.30139 -244.81499
-212.62459 -168.63329 -244.81497
-212.62459 -175.96518 -244.81496
-290.41275 238.55339 122.14557
-205.29198 161.30089 -244.81813
-205.29198 153.96899 -244.81816
-205.29198 146.63713 -244.81813
-207.60272 140.87331 -234.85629
-209.03505 134.37968 -228.68144
-205.37657 124.69295 -244.45352
-205.37657 117.35808 -244.45348
-205.37657 110.02319 -244.45349
-205.37657 102.68829 -244.45348
-205.37657 95.353455 -244.45349
-205.37657 88.01857 -244.45351
-205.37657 80.683662 -244.45349
-205.37657 73.348824 -244.45349
-205.37657 66.013916 -244.45348
-205.37657 58.679047 -244.45351
-205.37657 51.344177 -244.45348
-205.37657 44.009296 -244.45349
-205.37657 36.674393 -244.45348
-205.37657 29.339569 -244.45352
-205.37657 22.004663 -244.45351
-205.37657 14.669761 -244.45349
-205.37657 7.3349032 -244.45346
-205.37657 4.7362078e-05 -244.45352
-205.37657 -7.3348632 -244.45351
-205.37657 -14.669722 -244.45346
-205.37657 -22.004583 -244.45352
-205.37657 -29.339495 -244.45352
-205.37657 -36.674355 -244.45348
-205.37657 -44.009262 -244.45346
-205.37657 -51.344112 -244.45352
-205.37657 -58.678978 -244.45349
-205.37657 -66.013885 -244.45348
-205.37657 -73.34874 -244.45354
-205.37657 -80.683609 -244.45349
-205.37657 -88.018509 -244.45348
-205.37657 -95.353416 -244.45346
-205.37657 -102.68824 -244.45351
-205.37657 -110.02314 -244.45349
-205.37657 -117.35802 -244.45348
-205.37657 -124.69288 -244.45354
-205.37657 -132.02776 -244.45351
-205.37657 -139.36264 -244.45348
-208.45581 -148.89699 -231.1786
-211.25523 -158.44141 -219.11
-205.29272 -161.30139 -244.81499
-205.29272 -168.63329 -244.81497
-205.29272 -175.96518 -244.81496
-280.04086 238.55339 122.14557
-197.96011 161.30089 -244.81813
-197.96011 153.96899 -244.81816
-197.96011 146.63713 -244.81813
-200.18762 140.87279 -234.85954
-201.56952 134.37968 -228.68144
-198.04169 124.69295 -244.45352
-198.04169 117.35808 -244.45348
-198.04169 110.02319 -244.45349
-198.04169 102.68829 -244.45348
-198.04169 95.353455 -244.45349
-198.04169 88.01857 -244.45351
-198.04169 80.683662 -244.45349
-198.04169 73.348824 -244.45349
-198.04169 66.013916 -244.45348
-198.04169 58.679047 -244.45351
-198.04169 51.344177 -244.45348
-198.04169 44.009296 -244.45349
-198.04169 36.674393 -244.45348
-198.04169 29.339569 -244.45352
-198.04169 22.004663 -244.45351
-198.04169 14.669761 -244.45349
-198.04169 7.3349032 -244.45346
-198.04169 4.7362078e-05 -244.45352
-198.04169 -7.3348632 -244.45351
-198.04169 -14.669722 -244.45346
-198.04169 -22.004583 -244.45352
-198.04169 -29.339495 -244.45352
-198.04169 -36.674355 -244.45348
-198.04169 -44.009262 -244.45346
-198.04169 -51.344112 -244.45352
-198.04169 -58.678978 -244.45349
-198.04169 -66.013885 -244.45348
-198.04169 -73.34874 -244.45354
-198.04169 -80.683609 -244.45349
-198.04169 -88.018509 -244.45348
-198.04169 -95.353416 -244.45346
-198.04169 -102.68824 -244.45351
-198.04169 -110.02314 -244.45349
-198.04169 -117.35802 -244.45348
-198.04169 -124.69288 -244.45354
-198.04169 -132.02776 -244.45351
-198.04169 -139.36264 -244.45348
-201.01096 -148.89699 -231.1786
-203.71039 -158.44141 -219.11
-197.96085 -161.30139 -244.81499
-197.96085 -168.63329 -244.81497
-197.96085 -175.96518 -244.81496
-269.66898 238.55339 122.14557
-190.62828 161.30089 -244.81813
-190.62828 153.96899 -244.81816
-190.62828 146.63713 -244.81813
-192.77257 140.87231 -234.86278
-194.10396 134.37968 -228.68144
-190.7068 124.69295 -244.45352
-190.7068 117.35808 -244.45348
-190.7068 110.02319 -244.45349
-190.7068 102.68829 -244.45348
-190.7068 95.353455 -244.45349
-190.7068 88.01857 -244.45351
-190.7068 80.683662 -244.45349
-190.7068 73.348824 -244.45349
-190.7068 66.013916 -244.45348
-190.7068 58.679047 -244.45351
-190.7068 51.344177 -244.45348
-190.7068 44.009296 -244.45349
-190.7068 36.674393 -244.45348
-190.7068 29.339569 -244.45352
-190.7068 22.004663 -244.45351
-190.7068 14.669761 -244.45349
-190.7068 7.3349032 -244.45346
-190.7068 4.7362078e-05 -244.45352
-190.7068 -7.3348632 -244.45351
-190.7068 -14.669722 -244.45346
-190.7068 -22.004583 -244.45352
-190.7068 -29.339495 -244.45352
-190.7068 -36.674355 -244.45348
-190.7068 -44.009262 -244.45346
-190.7068 -51.344112 -244.45352
-190.7068 -58.678978 -244.45349
-190.7068 -66.013885 -244.45348
-190.7068 -73.34874 -244.45354
-190.7068 -80.683609 -244.45349
-190.7068 -88.018509 -244.45348
-190.7068 -95.353416 -244.45346
-190.7068 -102.68824 -244.45351
-190.7068 -110.02314 -244.45349
-190.7068 -117.35802 -244.45348
-190.7068 -124.69288 -244.45354
-190.7068 -132.02776 -244.45351
-190.7068 -139.36264 -244.45348
-193.56612 -148.89699 -231.1786
-196.16556 -158.44141 -219.11
-190.62895 -161.30139 -244.81499
-190.62895 -168.63329 -244.81497
-190.62895 -175.96518 -244.81496
-265.22543 244.0074 150.7701
-183.29642 161.30089 -244.81813
-183.29642 153.96899 -244.81816
-183.29642 146.63713 -244.81813
-185.35825 140.87231 -234.86278
-186.63843 134.37968 -228.68144
-183.37193 124.69295 -244.45352
-183.37193 117.35808 -244.45348
-183.37193 110.02319 -244.45349
-183.37193 102.68829 -244.45348
-183.37193 95.353455 -244.45349
-183.37193 88.01857 -244.45351
-183.37193 80.683662 -244.45349
-183.37193 73.348824 -244.45349
-183.37193 66.013916 -244.45348
-183.37193 58.679047 -244.45351
-183.37193 51.344177 -244.45348
-183.37193 44.009296 -244.45349
-183.37193 36.674393 -244.45348
-183.37193 29.339569 -244.45352
-183.37193 22.004663 -244.45351
-183.37193 14.669761 -244.45349
-183.37193 7.3349032 -244.45346
-183.37193 4.7362078e-05 -244.45352
-183.37193 -7.3348632 -244.45351
-183.37193 -14.669722 -244.45346
-183.37193 -22.004583 -244.45352
-183.37193 -29.339495 -244.45352
-183.37193 -36.674355 -244.45348
-183.37193 -44.009262 -244.45346
-183.37193 -51.344112 -244.45352
-183.37193 -58.678978 -244.45349
-183.37193 -66.013885 -244.45348
-183.37193 -73.34874 -244.45354
-183.37193 -80.683609 -244.45349
-183.37193 -88.018509 -244.45348
-183.37193 -95.353416 -244.45346
-183.37193 -102.68824 -244.45351
-183.37193 -110.02314 -244.45349
-183.37193 -117.35802 -244.45348
-183.37193 -124.69288 -244.45354
-183.37193 -132.02776 -244.45351
-183.37193 -139.36264 -244.45348
-186.12126 -148.89699 -231.1786
-188.62074 -158.44141 -219.11
-183.29707 -161.30139 -244.81499
-183.29707 -168.63329 -244.81497
-183.29707 -175.96518 -244.81496
-175.96455 161.30089 -244.81813
-175.96455 153.96899 -244.81816
-175.96455 146.63713 -244.81813
-177.94325 140.87177 -234.866
-179.1729 134.37968 -228.68144
-176.03705 124.69295 -244.45352
-176.03705 117.35808 -244.45348
-176.03705 110.02319 -244.45349
-176.03705 102.68829 -244.45348
-176.03705 95.353455 -244.45349
-176.03705 88.01857 -244.45351
-176.03705 80.683662 -244.45349
-176.03705 73.348824 -244.45349
-176.03705 66.013916 -244.45348
-176.03705 58.679047 -244.45351
-176.03705 51.344177 -244.45348
-176.03705 44.009296 -244.45349
-176.03705 36.674393 -244.45348
-176.03705 29.339569 -244.45352
-176.03705 22.004663 -244.45351
-176.03705 14.669761 -244.45349
-176.03705 7.3349032 -244.45346
-176.03705 4.7362078e-05 -244.45352
-176.03705 -7.3348632 -244.45351
-176.03705 -14.669722 -244.45346
-176.03705 -22.004583 -244.45352
-176.03705 -29.339495 -244.45352
-176.03705 -36.674355 -244.45348
-176.03705 -44.009262 -244.45346
-176.03705 -51.344112 -244.45352
-176.03705 -58.678978 -244.45349
-176.03705 -66.013885 -244.45348
-176.03705 -73.34874 -244.45354
-176.03705 -80.683609 -244.45349
-176.03705 -88.018509 -244.45348
-176.03705 -95.353416 -244.45346
-176.03705 -102.68824 -244.45351
-176.03705 -110.02314 -244.45349
-176.03705 -117.35802 -244.45348
-176.03705 -124.69288 -244.45354
-176.03705 -132.02776 -244.45351
-176.03705 -139.36264 -244.45348
-178.67642 -148.89699 -231.1786
-181.07591 -158.44141 -219.11
-175.96518 -161.30139 -244.81499
-175.96518 -168.63329 -244.81497
-175.96518 -175.96518 -244.81496
-168.63271 161.30089 -244.81813
-168.63271 153.96899 -244.81816
-168.63271 146.63713 -244.81813
-170.52834 140.87125 -234.86925
-171.70737 134.37968 -228.68144
-168.70218 124.69295 -244.45352
-168.70218 117.35808 -244.45348
-168.70218 110.02319 -244.45349
-168.70218 102.68829 -244.45348
-168.70218 95.353455 -244.45349
-168.70218 88.01857 -244.45351
-168.70218 80.683662 -244.45349
-168.70218 73.348824 -244.45349
-168.70218 66.013916 -244.45348
-168.70218 58.679047 -244.45351
-168.70218 51.344177 -244.45348
-168.70218 44.009296 -244.45349
-168.70218 36.674393 -244.45348
-168.70218 29.339569 -244.45352
-168.70218 22.004663 -244.45351
-168.70218 14.669761 -244.45349
-168.70218 7.3349032 -244.45346
-168.70218 4.7362078e-05 -244.45352
-168.70218 -7.3348632 -244.45351
-168.70218 -14.669722 -244.45346
-168.70218 -22.004583 -244.45352
-168.70218 -29.339495 -244.45352
-168.70218 -36.674355 -244.45348
-168.70218 -44.009262 -244.45346
-168.70218 -51.344112 -244.45352
-168.70218 -58.678978 -244.45349
-168.70218 -66.013885 -244.45348
-168.70218 -73.34874 -244.45354
-168.70218 -80.683609 -244.45349
-168.70218 -88.018509 -244.45348
-168.70218 -95.353416 -244.45346
-168.70218 -102.68824 -244.45351
-168.70218 -110.02314 -244.45349
-168.70218 -117.35802 -244.45348
-168.70218 -124.69288 -244.45354
-168.70218 -132.02776 -244.45351
-168.70218 -139.36264 -244.45348
-171.23155 -148.89699 -231.1786
-173.53108 -158.44141 -219.11
-168.6333 -161.30139 -244.81499
-168.6333 -168.63329 -244.81497
-168.6333 -175.96518 -244.81496
-161.30084 161.30089 -244.81813
-161.30084 153.96899 -244.81816
-161.30084 146.63713 -244.81813
-163.11348 140.87077 -234.87248
-164.24182 134.37968 -228.68144
-161.36729 124.69295 -244.45352
-161.36729 117.35808 -244.45348
-161.36729 110.02319 -244.45349
-161.36729 102.68829 -244.45348
-161.36729 95.353455 -244.45349
-161.36729 88.01857 -244.45351
-161.36729 80.683662 -244.45349
-161.36729 73.348824 -244.45349
-161.36729 66.013916 -244.45348
-161.36729 58.679047 -244.45351
-161.36729 51.344177 -244.45348
-161.36729 44.009296 -244.45349
-161.36729 36.674393 -244.45348
-161.36729 29.339569 -244.45352
-161.36729 22.004663 -244.45351
-161.36729 14.669761 -244.45349
-161.36729 7.3349032 -244.45346
-161.36729 4.7362078e-05 -244.45352
-161.36729 -7.3348632 -244.45351
-161.36729 -14.669722 -244.45346
-161.36729 -22.004583 -244.45352
-161.36729 -29.339495 -244.45352
-161.36729 -36.674355 -244.45348
-161.36729 -44.009262 -244.45346
-161.36729 -51.344112 -244.45352
-161.36729 -58.678978 -244.45349
-161.36729 -66.013885 -244.45348
-161.36729 -73.34874 -244.45354
-161.36729 -80.683609 -244.45349
-161.36729 -88.018509 -244.45348
-161.36729 -95.353416 -244.45346
-161.36729 -102.68824 -244.45351
-161.36729 -110.02314 -244.45349
-161.36729 -117.35802 -244.45348
-161.36729 -124.69288 -244.45354
-161.36729 -132.02776 -244.45351
-161.36729 -139.36264 -244.45348
-163.78671 -148.89699 -231.1786
-165.98624 -158.44141 -219.11
-161.30142 -161.30139 -244.81499
-161.30142 -168.63329 -244.81497
-161.30142 -175.96518 -244.81496
-153.96898 161.30089 -244.81813
-153.96898 153.96899 -244.81816
-153.96898 146.63713 -244.81813
-155.69867 140.87024 -234.87572
-156.77629 134.37968 -228.68144
-154.03242 124.69295 -244.45352
-154.03242 117.35808 -244.45348
-154.03242 110.02319 -244.45349
-154.03242 102.68829 -244.45348
-154.03242 95.353455 -244.45349
-154.03242 88.01857 -244.45351
-154.03242 80.683662 -244.45349
-154.03242 73.348824 -244.45349
-154.03242 66.013916 -244.45348
-154.03242 58.679047 -244.45351
-154.03242 51.344177 -244.45348
-154.03242 44.009296 -244.45349
-154.03242 36.674393 -244.45348
-154.03242 29.339569 -244.45352
-154.03242 22.004663 -244.45351
-154.03242 14.669761 -244.45349
-154.03242 7.3349032 -244.45346
-154.03242 4.7362078e-05 -244.45352
-154.03242 -7.3348632 -244.45351
-154.03242 -14.669722 -244.45346
-154.03242 -22.004583 -244.45352
-154.03242 -29.339495 -244.45352
-154.03242 -36.674355 -244.45348
-154.03242 -44.009262 -244.45346
-154.03242 -51.344112 -244.45352
-154.03242 -58.678978 -244.45349
-154.03242 -66.013885 -244.45348
-154.03242 -73.34874 -244.45354
-154.03242 -80.683609 -244.45349
-154.03242 -88.018509 -244.45348
-154.03242 -95.353416 -244.45346
-154.03242 -102.68824 -244.45351
-154.03242 -110.02314 -244.45349
-154.03242 -117.35802 -244.45348
-154.03242 -124.69288 -244.45354
-154.03242 -132.02776 -244.45351
-154.03242 -139.36264 -244.45348
-156.34186 -148.89699 -231.1786
-158.44142 -158.44141 -219.11
-153.96953 -161.30139 -244.81499
-153.96953 -168.63329 -244.81497
-153.96953 -175.96518 -244.81496
-146.63713 161.30089 -244.81813
-146.63713 153.96899 -244.81816
-146.63713 146.63713 -244.81813
-148.28445 140.87024 -234.87572
-149.31075 134.37968 -228.68144
-146.69754 124.69295 -244.45352
-146.69754 117.35808 -244.45348
-146.69754 110.02319 -244.45349
-146.69754 102.68829 -244.45348
-146.69754 95.353455 -244.45349
-146.69754 88.01857 -244.45351
-146.69754 80.683662 -244.45349
-146.69754 73.348824 -244.45349
-146.69754 66.013916 -244.45348
-146.69754 58.679047 -244.45351
-146.69754 51.344177 -244.45348
-146.69754 44.009296 -244.45349
-146.69754 36.674393 -244.45348
-146.69754 29.339569 -244.45352
-146.69754 22.004663 -244.45351
-146.69754 14.669761 -244.45349
-146.69754 7.3349032 -244.45346
-146.69754 4.7362078e-05 -244.45352
-146.69754 -7.3348632 -244.45351
-146.69754 -14.669722 -244.45346
-146.69754 -22.004583 -244.45352
-146.69754 -29.339495 -244.45352
-146.69754 -36.674355 -244.45348
-146.69754 -44.009262 -244.45346
-146.69754 -51.344112 -244.45352
-146.69754 -58.678978 -244.45349
-146.69754 -66.013885 -244.45348
-146.69754 -73.34874 -244.45354
-146.69754 -80.683609 -244.45349
-146.69754 -88.018509 -244.45348
-146.69754 -95.353416 -244.45346
-146.69754 -102.68824 -244.45351
-146.69754 -110.02314 -244.45349
-146.69754 -117.35802 -244.45348
-146.69754 -124.69288 -244.45354
-146.69754 -132.02776 -244.45351
-146.69754 -139.36264 -244.45348
-148.89702 -148.89699 -231.1786
-150.89659 -158.44141 -219.11
-146.63766 -161.30139 -244.81499
-146.63766 -168.63329 -244.81497
-146.63766 -175.96518 -244.81496
-139.30528 161.30089 -244.81813
-139.30528 153.96899 -244.81816
-139.30528 146.63713 -244.81813
-140.86972 140.86972 -234.87898
-141.84521 134.37968 -228.68144
-139.36267 124.69295 -244.45352
-139.36267 117.35808 -244.45348
-139.36267 110.02319 -244.45349
-139.36267 102.68829 -244.45348
-139.36267 95.353455 -244.45349
-139.36267 88.01857 -244.45351
-139.36267 80.683662 -244.45349
-139.36267 73.348824 -244.45349
-139.36267 66.013916 -244.45348
-139.36267 58.679047 -244.45351
-139.36267 51.344177 -244.45348
-139.36267 44.009296 -244.45349
-139.36267 36.674393 -244.45348
-139.36267 29.339569 -244.45352
-139.36267 22.004663 -244.45351
-139.36267 14.669761 -244.45349
-139.36267 7.3349032 -244.45346
-139.36267 4.7362078e-05 -244.45352
-139.36267 -7.3348632 -244.45351
-139.36267 -14.669722 -244.45346
-139.36267 -22.004583 -244.45352
-139.36267 -29.339495 -244.45352
-139.36267 -36.674355 -244.45348
-139.36267 -44.009262 -244.45346
-139.36267 -51.344112 -244.45352
-139.36267 -58.678978 -244.45349
-139.36267 -66.013885 -244.45348
-139.36267 -73.34874 -244.45354
-139.36267 -80.683609 -244.45349
-139.36267 -88.018509 -244.45348
-139.36267 -95.353416 -244.45346
-139.36267 -102.68824 -244.45351
-139.36267 -110.02314 -244.45349
-139.36267 -117.35802 -244.45348
-139.36267 -124.69288 -244.45354
-139.36267 -132.02776 -244.45351
-139.36267 -139.36264 -244.45348
-141.45216 -148.89699 -231.1786
-143.35176 -158.44141 -219.11
-139.30577 -161.30139 -244.81499
-139.30577 -168.63329 -244.81497
-139.30577 -175.96518 -244.81496
-131.97342 161.30089 -244.81813
-131.97342 153.96899 -244.81816
-131.97342 146.63713 -244.81813
-133.45503 140.86922 -234.88225
-134.37967 134.37968 -228.68144
-132.0278 124.69295 -244.45352
-132.0278 117.35808 -244.45348
-132.0278 110.02319 -244.45349
-132.0278 102.68829 -244.45348
-132.0278 95.353455 -244.45349
-132.0278 88.01857 -244.45351
-132.0278 80.683662 -244.45349
-132.0278 73.348824 -244.45349
-132.0278 66.013916 -244.45348
-132.0278 58.679047 -244.45351
-132.0278 51.344177 -244.45348
-132.0278 44.009296 -244.45349
-132.0278 36.674393 -244.45348
-132.0278 29.339569 -244.45352
-132.0278 22.004663 -244.45351
-132.0278 14.669761 -244.45349
-132.0278 7.3349032 -244.45346
-132.0278 4.7362078e-05 -244.45352
-132.0278 -7.3348632 -244.45351
-132.0278 -14.669722 -244.45346
-132.0278 -22.004583 -244.45352
-132.0278 -29.339495 -244.45352
-132.0278 -36.674355 -244.45348
-132.0278 -44.009262 -244.45346
-132.0278 -51.344112 -244.45352
-132.0278 -58.678978 -244.45349
-132.0278 -66.013885 -244.45348
-132.0278 -73.34874 -244.45354
-132.0278 -80.683609 -244.45349
-132.0278 -88.018509 -244.45348
-132.0278 -95.353416 -244.45346
-132.0278 -102.68824 -244.45351
-132.0278 -110.02314 -244.45349
-132.0278 -117.35802 -244.45348
-132.0278 -124.69288 -244.45354
-132.0278 -132.02776 -244.45351
-132.0278 -139.36264 -244.45348
-134.00731 -148.89699 -231.1786
-135.80693 -158.44141 -219.11
-131.97389 -161.30139 -244.81499
-131.97389 -168.63329 -244.81497
-131.97389 -175.96518 -244.81496
-124.64156 161.30089 -244.81813
-124.64156 153.96899 -244.81816
-124.64156 146.63713 -244.81813
-126.04041 140.86874 -234.88548
-126.91414 134.37968 -228.68144
-124.69291 124.69295 -244.45352
-124.69291 117.35808 -244.45348
-124.69291 110.02319 -244.45349
-124.69291 102.68829 -244.45348
-124.69291 95.353455 -244.45349
-124.69291 88.01857 -244.45351
-124.69291 80.683662 -244.45349
-124.69291 73.348824 -244.45349
-124.69291 66.013916 -244.45348
-124.69291 58.679047 -244.45351
-124.69291 51.344177 -244.45348
-124.69291 44.009296 -244.45349
-124.69291 36.674393 -244.45348
-124.69291 29.339569 -244.45352
-124.69291 22.004663 -244.45351
-124.69291 14.669761 -244.45349
-124.69291 7.3349032 -244.45346
-124.69291 4.7362078e-05 -244.45352
-124.69291 -7.3348632 -244.45351
-124.69291 -14.669722 -244.45346
-124.69291 -22.004583 -244.45352
-124.69291 -29.339495 -244.45352
-124.69291 -36.674355 -244.45348
-124.69291 -44.009262 -244.45346
-124.69291 -51.344112 -244.45352
-124.69291 -58.678978 -244.45349
-124.69291 -66.013885 -244.45348
-124.69291 -73.34874 -244.45354
-124.69291 -80.683609 -244.45349
-124.69291 -88.018509 -244.45348
-124.69291 -95.353416 -244.45346
-124.69291 -102.68824 -244.45351
-124.69291 -110.02314 -244.45349
-124.69291 -117.35802 -244.45348
-124.69291 -124.69288 -244.45354
-124.69291 -132.02776 -244.45351
-124.69291 -139.36264 -244.45348
-126.56246 -148.89699 -231.1786
-128.2621 -158.44141 -219.11
-124.64201 -161.30139 -244.81499
-124.64201 -168.63329 -244.81497
-124.64201 -175.96518 -244.81496
-117.30971 161.30089 -244.81813
-117.30971 153.96899 -244.81816
-117.30971 146.63713 -244.81813
-118.62583 140.86819 -234.88869
-119.44859 134.37968 -228.68144
-117.35804 124.69295 -244.45352
-117.35804 117.35808 -244.45348
-117.35804 110.02319 -244.45349
-117.35804 102.68829 -244.45348
-117.35804 95.353455 -244.45349
-117.35804 88.01857 -244.45351
-117.35804 80.683662 -244.45349
-117.35804 73.348824 -244.45349
-117.35804 66.013916 -244.45348
-117.35804 58.679047 -244.45351
-117.35804 51.344177 -244.45348
-117.35804 44.009296 -244.45349
-117.35804 36.674393 -244.45348
-117.35804 29.339569 -244.45352
-117.35804 22.004663 -244.45351
-117.35804 14.669761 -244.45349
-117.35804 7.3349032 -244.45346
-117.35804 4.7362078e-05 -244.45352
-117.35804 -7.3348632 -244.45351
-117.35804 -14.669722 -244.45346
-117.35804 -22.004583 -244.45352
-117.35804 -29.339495 -244.45352
-117.35804 -36.674355 -244.45348
-117.35804 -44.009262 -244.45346
-117.35804 -51.344112 -244.45352
-117.35804 -58.678978 -244.45349
-117.35804 -66.013885 -244.45348
-117.35804 -73.34874 -244.45354
-117.35804 -80.683609 -244.45349
-117.35804 -88.018509 -244.45348
-117.35804 -95.353416 -244.45346
-117.35804 -102.68824 -244.45351
-117.35804 -110.02314 -244.45349
-117.35804 -117.35802 -244.45348
-117.35804 -124.69288 -244.45354
-117.35804 -132.02776 -244.45351
-117.35804 -139.36264 -244.45348
-119.1176 -148.89699 -231.1786
-120.71727 -158.44141 -219.11
-117.31013 -161.30139 -244.81499
-117.31013 -168.63329 -244.81497
-117.31013 -175.96518 -244.81496
-109.97784 161.30089 -244.81813
-109.97784 153.96899 -244.81816
-109.97784 146.63713 -244.81813
-111.21132 140.86768 -234.89194
-111.98306 134.37968 -228.68144
-110.02316 124.69295 -244.45352
-110.02316 117.35808 -244.45348
-110.02316 110.02319 -244.45349
-110.02316 102.68829 -244.45348
-110.02316 95.353455 -244.45349
-110.02316 88.01857 -244.45351
-110.02316 80.683662 -244.45349
-110.02316 73.348824 -244.45349
-110.02316 66.013916 -244.45348
-110.02316 58.679047 -244.45351
-110.02316 51.344177 -244.45348
-110.02316 44.009296 -244.45349
-110.02316 36.674393 -244.45348
-110.02316 29.339569 -244.45352
-110.02316 22.004663 -244.45351
-110.02316 14.669761 -244.45349
-110.02316 7.3349032 -244.45346
-110.02316 4.7362078e-05 -244.45352
-110.02316 -7.3348632 -244.45351
-110.02316 -14.669722 -244.45346
-110.02316 -22.004583 -244.45352
-110.02316 -29.339495 -244.45352
-110.02316 -36.674355 -244.45348
-110.02316 -44.009262 -244.45346
-110.02316 -51.344112 -244.45352
-110.02316 -58.678978 -244.45349
-110.02316 -66.013885 -244.45348
-110.02316 -73.34874 -244.45354
-110.02316 -80.683609 -244.45349
-110.02316 -88.018509 -244.45348
-110.02316 -95.353416 -244.45346
-110.02316 -102.68824 -244.45351
-110.02316 -110.02314 -244.45349
-110.02316 -117.35802 -244.45348
-110.02316 -124.69288 -244.45354
-110.02316 -132.02776 -244.45351
-110.02316 -139.36264 -244.45348
-111.67275 -148.89699 -231.1786
-113.17244 -158.44141 -219.11
-109.97824 -161.30139 -244.81499
-109.97824 -168.63329 -244.81497
-109.97824 -175.96518 -244.81496
-102.64599 161.30089 -244.81813
-102.64599 153.96899 -244.81816
-102.64599 146.63713 -244.81813
-103.79723 140.86768 -234.89194
-104.51752 134.37968 -228.68144
-102.68829 124.69295 -244.45352
-102.68829 117.35808 -244.45348
-102.68829 110.02319 -244.45349
-102.68829 102.68829 -244.45348
-102.68829 95.353455 -244.45349
-102.68829 88.01857 -244.45351
-102.68829 80.683662 -244.45349
-102.68829 73.348824 -244.45349
-102.68829 66.013916 -244.45348
-102.68829 58.679047 -244.45351
-102.68829 51.344177 -244.45348
-102.68829 44.009296 -244.45349
-102.68829 36.674393 -244.45348
-102.68829 29.339569 -244.45352
-102.68829 22.004663 -244.45351
-102.68829 14.669761 -244.45349
-102.68829 7.3349032 -244.45346
-102.68829 4.7362078e-05 -244.45352
-102.68829 -7.3348632 -244.45351
-102.68829 -14.669722 -244.45346
-102.68829 -22.004583 -244.45352
-102.68829 -29.339495 -244.45352
-102.68829 -36.674355 -244.45348
-102.68829 -44.009262 -244.45346
-102.68829 -51.344112 -244.45352
-102.68829 -58.678978 -244.45349
-102.68829 -66.013885 -244.45348
-102.68829 -73.34874 -244.45354
-102.68829 -80.683609 -244.45349
-102.68829 -88.018509 -244.45348
-102.68829 -95.353416 -244.45346
-102.68829 -102.68824 -244.45351
-102.68829 -110.02314 -244.45349
-102.68829 -117.35802 -244.45348
-102.68829 -124.69288 -244.45354
-102.68829 -132.02776 -244.45351
-102.68829 -139.36264 -244.45348
-104.22791 -148.89699 -231.1786
-105.62762 -158.44141 -219.11
-102.64636 -161.30139 -244.81499
-102.64636 -168.63329 -244.81497
-102.64636 -175.96518 -244.81496
-95.31414 161.30089 -244.81813
-95.31414 153.96899 -244.81816
-95.31414 146.63713 -244.81813
-96.382797 140.8672 -234.89519
-97.051979 134.37968 -228.68144
-95.353401 124.69295 -244.45352
-95.353401 117.35808 -244.45348
-95.353401 110.02319 -244.45349
-95.353401 102.68829 -244.45348
-95.353401 95.353455 -244.45349
-95.353401 88.01857 -244.45351
-95.353401 80.683662 -244.45349
-95.353401 73.348824 -244.45349
-95.353401 66.013916 -244.45348
-95.353401 58.679047 -244.45351
-95.353401 51.344177 -244.45348
-95.353401 44.009296 -244.45349
-95.353401 36.674393 -244.45348
-95.353401 29.339569 -244.45352
-95.353401 22.004663 -244.45351
-95.353401 14.669761 -244.45349
-93.726128 7.2097349 -259.56348
-93.726128 4.6996378e-05 -259.56351
-93.726128 -7.2096891 -259.56345
-93.726128 -14.419385 -259.56345
-93.726128 -21.629072 -259.56345
-93.726128 -28.838781 -259.56348
-93.726128 -36.04847 -259.56348
-95.353401 -44.009262 -244.45346
-95.353401 -51.344112 -244.45352
-95.353401 -58.678978 -244.45349
-95.353401 -66.013885 -244.45348
-95.353401 -73.34874 -244.45354
-95.353401 -80.683609 -244.45349
-95.353401 -88.018509 -244.45348
-95.353401 -95.353416 -244.45346
-95.353401 -102.68824 -244.45351
-95.353401 -110.02314 -244.45349
-95.353401 -117.35802 -244.45348
-95.353401 -124.69288 -244.45354
-95.353401 -132.02776 -244.45351
-95.353401 -139.36264 -244.45348
-96.783058 -148.89699 -231.1786
-98.082779 -158.44141 -219.11
-95.314476 -161.30139 -244.81499
-95.314476 -168.63329 -244.81497
-95.314476 -175.96518 -244.81496
-87.982277 161.30089 -244.81813
-87.982277 153.96899 -244.81816
-87.982277 146.63713 -244.81813
-88.968407 140.86667 -234.89841
-89.586449 134.37968 -228.68144
-88.018524 124.69295 -244.45352
-88.018524 117.35808 -244.45348
-88.018524 110.02319 -244.45349
-88.018524 102.68829 -244.45348
-88.018524 95.353455 -244.45349
-88.018524 88.01857 -244.45351
-88.018524 80.683662 -244.45349
-88.018524 73.348824 -244.45349
-88.018524 66.013916 -244.45348
-88.018524 58.679047 -244.45351
-88.018524 51.344177 -244.45348
-88.018524 44.009296 -244.45349
-88.018524 36.674393 -244.45348
-88.018524 29.339569 -244.45352
-88.018524 22.004663 -244.45351
-88.018524 14.669761 -244.45349
-86.516426 7.2097349 -259.56348
-86.516426 4.6996378e-05 -259.56351
-86.516426 -7.2096891 -259.56345
-86.516426 -14.419385 -259.56345
-86.516426 -21.629072 -259.56345
-86.516426 -28.838781 -259.56348
-86.516426 -36.04847 -259.56348
-88.018524 -44.009262 -244.45346
-88.018524 -51.344112 -244.45352
-88.018524 -58.678978 -244.45349
-88.018524 -66.013885 -244.45348
-88.018524 -73.34874 -244.45354
-88.018524 -80.683609 -244.45349
-88.018524 -88.018509 -244.45348
-88.018524 -95.353416 -244.45346
-88.018524 -102.68824 -244.45351
-88.018524 -110.02314 -244.45349
-88.018524 -117.35802 -244.45348
-88.018524 -124.69288 -244.45354
-88.018524 -132.02776 -244.45351
-88.018524 -139.36264 -244.45348
-89.338211 -148.89699 -231.1786
-90.537956 -158.44141 -219.11
-87.98259 -161.30139 -244.81499
-87.98259 -168.63329 -244.81497
-87.98259 -175.96518 -244.81496
-80.650421 161.30089 -244.81813
-80.650421 153.96899 -244.81816
-80.650421 146.63713 -244.81813
-81.554085 140.86615 -234.90167
-82.120911 134.37968 -228.68144
-80.683647 124.69295 -244.45352
-80.683647 117.35808 -244.45348
-80.683647 110.02319 -244.45349
-80.683647 102.68829 -244.45348
-80.683647 95.353455 -244.45349
-80.683647 88.01857 -244.45351
-80.683647 80.683662 -244.45349
-80.683647 73.348824 -244.45349
-80.683647 66.013916 -244.45348
-80.683647 58.679047 -244.45351
-80.683647 51.344177 -244.45348
-80.683647 44.009296 -244.45349
-80.683647 36.674393 -244.45348
-80.683647 29.339569 -244.45352
-80.683647 22.004663 -244.45351
-80.683647 14.669761 -244.45349
-79.306725 7.2097349 -259.56348
-79.306725 4.6996378e-05 -259.56351
-79.306725 -7.2096891 -259.56345
-79.306725 -14.419385 -259.56345
-79.306725 -21.629072 -259.56345
-79.306725 -28.838781 -259.56348
-79.306725 -36.04847 -259.56348
-80.683647 -44.009262 -244.45346
-80.683647 -51.344112 -244.45352
-80.683647 -58.678978 -244.45349
-80.683647 -66.013885 -244.45348
-80.683647 -73.34874 -244.45354
-80.683647 -80.683609 -244.45349
-80.683647 -88.018509 -244.45348
-80.683647 -95.353416 -244.45346
-80.683647 -102.68824 -244.45351
-80.683647 -110.02314 -244.45349
-80.683647 -117.35802 -244.45348
-80.683647 -124.69288 -244.45354
-80.683647 -132.02776 -244.45351
-80.683647 -139.36264 -244.45348
-81.893356 -148.89699 -231.1786
-82.993118 -158.44141 -219.11
-80.650711 -161.30139 -244.81499
-80.650711 -168.63329 -244.81497
-80.650711 -175.96518 -244.81496
-73.318565 161.30089 -244.81813
-73.318565 153.96899 -244.81816
-73.318565 146.63713 -244.81813
-74.139801 140.86568 -234.90491
-74.655373 134.37968 -228.68144
-73.34877 124.69295 -244.45352
-73.34877 117.35808 -244.45348
-73.34877 110.02319 -244.45349
-73.34877 102.68829 -244.45348
-73.34877 95.353455 -244.45349
-73.34877 88.01857 -244.45351
-73.34877 80.683662 -244.45349
-73.34877 73.348824 -244.45349
-73.34877 66.013916 -244.45348
-73.34877 58.679047 -244.45351
-73.34877 51.344177 -244.45348
-73.34877 44.009296 -244.45349
-73.34877 36.674393 -244.45348
-73.34877 29.339569 -244.45352
-73.34877 22.004663 -244.45351
-73.34877 14.669761 -244.45349
-72.097023 7.2097349 -259.56348
-72.097023 4.6996378e-05 -259.56351
-72.097023 -7.2096891 -259.56345
-72.097023 -14.419385 -259.56345
-72.097023 -21.629072 -259.56345
-72.097023 -28.838781 -259.56348
-72.097023 -36.04847 -259.56348
-73.34877 -44.009262 -244.45346
-73.34877 -51.344112 -244.45352
-73.34877 -58.678978 -244.45349
-73.34877 -66.013885 -244.45348
-73.34877 -73.34874 -244.45354
-73.34877 -80.683609 -244.45349
-73.34877 -88.018509 -244.45348
-73.34877 -95.353416 -244.45346
-73.34877 -102.68824 -244.45351
-73.34877 -110.02314 -244.45349
-73.34877 -117.35802 -244.45348
-73.34877 -124.69288 -244.45354
-73.34877 -132.02776 -244.45351
-73.34877 -139.36264 -244.45348
-74.448509 -148.89699 -231.1786
-75.448296 -158.44141 -219.11
-73.318832 -161.30139 -244.81499
-73.318832 -168.63329 -244.81497
-73.318832 -175.96518 -244.81496
-65.98671 161.30089 -244.81813
-65.98671 153.96899 -244.81816
-65.98671 146.63713 -244.81813
-66.725822 140.86568 -234.90491
-67.189835 134.37968 -228.68144
-66.013901 124.69295 -244.45352
-66.013901 117.35808 -244.45348
-66.013901 110.02319 -244.45349
-66.013901 102.68829 -244.45348
-66.013901 95.353455 -244.45349
-66.013901 88.01857 -244.45351
-66.013901 80.683662 -244.45349
-66.013901 73.348824 -244.45349
-66.013901 66.013916 -244.45348
-66.013901 58.679047 -244.45351
-66.013901 51.344177 -244.45348
-66.013901 44.009296 -244.45349
-66.013901 36.674393 -244.45348
-66.013901 29.339569 -244.45352
-66.013901 22.004663 -244.45351
-66.013901 14.669761 -244.45349
-64.887321 7.2097349 -259.56348
-64.887321 4.6996378e-05 -259.56351
-64.887321 -7.2096891 -259.56345
-64.887321 -14.419385 -259.56345
-64.887321 -21.629072 -259.56345
-64.887321 -28.838781 -259.56348
-64.887321 -36.04847 -259.56348
-66.013901 -44.009262 -244.45346
-66.013901 -51.344112 -244.45352
-66.013901 -58.678978 -244.45349
-66.013901 -66.013885 -244.45348
-66.013901 -73.34874 -244.45354
-66.013901 -80.683609 -244.45349
-66.013901 -88.018509 -244.45348
-66.013901 -95.353416 -244.45346
-66.013901 -102.68824 -244.45351
-66.013901 -110.02314 -244.45349
-66.013901 -117.35802 -244.45348
-66.013901 -124.69288 -244.45354
-66.013901 -132.02776 -244.45351
-66.013901 -139.36264 -244.45348
-67.003654 -148.89699 -231.1786
-67.903465 -158.44141 -219.11
-65.986946 -161.30139 -244.81499
-65.986946 -168.63329 -244.81497
-65.986946 -175.96518 -244.81496
-58.654854 161.30089 -244.81813
-58.654854 153.96899 -244.81816
-58.654854 146.63713 -244.81813
-59.311626 140.86514 -234.90814
-59.724297 134.37968 -228.68144
-58.67902 124.69295 -244.45352
-58.67902 117.35808 -244.45348
-58.67902 110.02319 -244.45349
-58.67902 102.68829 -244.45348
-58.67902 95.353455 -244.45349
-58.67902 88.01857 -244.45351
-58.67902 80.683662 -244.45349
-58.67902 73.348824 -244.45349
-58.67902 66.013916 -244.45348
-58.67902 58.679047 -244.45351
-58.67902 51.344177 -244.45348
-58.67902 44.009296 -244.45349
-58.67902 36.674393 -244.45348
-58.67902 29.339569 -244.45352
-58.67902 22.004663 -244.45351
-58.67902 14.669761 -244.45349
-57.67762 7.2097349 -259.56348
-57.67762 4.6996378e-05 -259.56351
-57.67762 -7.2096891 -259.56345
-57.67762 -14.419385 -259.56345
-57.67762 -21.629072 -259.56345
-57.67762 -28.838781 -259.56348
-57.67762 -36.04847 -259.56348
-58.67902 -44.009262 -244.45346
-58.67902 -51.344112 -244.45352
-58.67902 -58.678978 -244.45349
-58.67902 -66.013885 -244.45348
-58.67902 -73.34874 -244.45354
-58.67902 -80.683609 -244.45349
-58.67902 -88.018509 -244.45348
-58.67902 -95.353416 -244.45346
-58.67902 -102.68824 -244.45351
-58.67902 -110.02314 -244.45349
-58.67902 -117.35802 -244.45348
-58.67902 -124.69288 -244.45354
-58.67902 -132.02776 -244.45351
-58.67902 -139.36264 -244.45348
-59.5588 -148.89699 -231.1786
-60.358635 -158.44141 -219.11
-58.655064 -161.30139 -244.81499
-58.655064 -168.63329 -244.81497
-58.655064 -175.96518 -244.81496
-51.322994 161.30089 -244.81813
-51.322994 153.96899 -244.81816
-51.322994 146.63713 -244.81813
-51.897488 140.86464 -234.91141
-52.258762 134.37968 -228.68144
-51.344143 124.69295 -244.45352
-51.344143 117.35808 -244.45348
-51.344143 110.02319 -244.45349
-51.344143 102.68829 -244.45348
-51.344143 95.353455 -244.45349
-51.344143 88.01857 -244.45351
-51.344143 80.683662 -244.45349
-51.344143 73.348824 -244.45349
-51.344143 66.013916 -244.45348
-51.344143 58.679047 -244.45351
-51.344143 51.344177 -244.45348
-51.344143 44.009296 -244.45349
-51.344143 36.674393 -244.45348
-51.344143 29.339569 -244.45352
-51.344143 22.004663 -244.45351
-51.344143 14.669761 -244.45349
-50.467918 7.2097349 -259.56348
-50.467918 4.6996378e-05 -259.56351
-50.467918 -7.2096891 -259.56345
-50.467918 -14.419385 -259.56345
-50.467918 -21.629072 -259.56345
-50.467918 -28.838781 -259.56348
-50.467918 -36.04847 -259.56348
-51.344143 -44.009262 -244.45346
-51.344143 -51.344112 -244.45352
-51.344143 -58.678978 -244.45349
-51.344143 -66.013885 -244.45348
-51.344143 -73.34874 -244.45354
-51.344143 -80.683609 -244.45349
-51.344143 -88.018509 -244.45348
-51.344143 -95.353416 -244.45346
-51.344143 -102.68824 -244.45351
-51.344143 -110.02314 -244.45349
-51.344143 -117.35802 -244.45348
-51.344143 -124.69288 -244.45354
-51.344143 -132.02776 -244.45351
-51.344143 -139.36264 -244.45348
-52.113953 -148.89699 -231.1786
-52.813808 -158.44141 -219.11
-51.323181 -161.30139 -244.81499
-51.323181 -168.63329 -244.81497
-51.323181 -175.96518 -244.81496
-43.991138 161.30089 -244.81813
-43.991138 153.96899 -244.81816
-43.991138 146.63713 -244.81813
-44.483402 140.86412 -234.91466
-44.793224 134.37968 -228.68144
-44.009262 124.69295 -244.45352
-44.009262 117.35808 -244.45348
-44.009262 110.02319 -244.45349
-44.009262 102.68829 -244.45348
-44.009262 95.353455 -244.45349
-44.009262 88.01857 -244.45351
-44.009262 80.683662 -244.45349
-44.009262 73.348824 -244.45349
-44.009262 66.013916 -244.45348
-44.009262 58.679047 -244.45351
-44.009262 51.344177 -244.45348
-44.009262 44.009296 -244.45349
-44.009262 36.674393 -244.45348
-44.009262 29.339569 -244.45352
-44.009262 22.004663 -244.45351
-44.009262 14.669761 -244.45349
-43.258213 7.2097349 -259.56348
-43.258213 4.6996378e-05 -259.56351
-43.258213 -7.2096891 -259.56345
-43.258213 -14.419385 -259.56345
-43.258213 -21.629072 -259.56345
-43.258213 -28.838781 -259.56348
-43.258213 -36.04847 -259.56348
-44.009262 -44.009262 -244.45346
-44.009262 -51.344112 -244.45352
-44.009262 -58.678978 -244.45349
