# .PCD v0.7 - Point Cloud Data file format
VERSION 0.7
FIELDS x y z
SIZE 4 4 4
TYPE F F F
COUNT 1 1 1
WIDTH 1520
HEIGHT 1
VIEWPOINT 0 0 0 1 0 0 0
POINTS 1520
DATA ascii
4.3630457 -8.3466959 -3.5698225
4.3851418 -8.5796251 -3.4538562
4.4074798 -8.8149605 -3.3366177
4.4300466 -9.0527048 -3.2181799
4.4528456 -9.2928953 -3.0985243
4.4764638 -9.5368147 -2.9745698
4.6265244 6.5542421 -3.1987333
3.2670925 4.4922523 -10.036146
3.2790852 4.3721142 -9.9758272
3.2911663 4.2510896 -9.9150648
3.3032906 4.1291137 -9.8540831
3.3154118 4.0061221 -9.7931194
3.3277812 3.8824108 -9.7309055
3.3402433 3.7577739 -9.6682253
3.3822408 3.6640944 -9.456995
3.3949394 3.5363955 -9.3931255
3.4077437 3.4077435 -9.3287239
3.4206352 3.2781091 -9.2638865
3.4336245 3.1474898 -9.198555
3.446723 3.015882 -9.1326742
3.4599118 2.8832598 -9.0663404
3.4732118 2.7496257 -8.9994469
3.4866042 2.6149535 -8.9320879
3.5001106 2.4792447 -8.8641548
3.5137119 2.3424747 -8.7957468
3.5274296 2.2046435 -8.7267513
3.5412443 2.0657258 -8.6572685
3.5551782 1.9257221 -8.5871868
3.5692115 1.7846065 -8.5166044
3.5833669 1.6423764 -8.4454079
3.5976243 1.4990097 -8.3737001
3.6120062 1.3545022 -8.301363
3.6264927 1.2088313 -8.2285023
3.6411071 1.0619897 -8.1549978
3.6558282 0.91395706 -8.0809555
3.6706805 0.76472503 -8.0062542
3.6856425 0.61427367 -7.9310026
3.7007384 0.46259245 -7.8550763
3.7159469 0.30966207 -7.7785826
3.731281 0.15546973 -7.7014594
3.7467537 -1.6126856e-07 -7.6236367
3.7623434 -0.15676394 -7.5452251
3.7780757 -0.31483978 -7.4660988
3.7939277 -0.4742406 -7.3863692
3.8099256 -0.63498759 -7.3059049
3.8260467 -0.79709321 -7.2248225
3.8423173 -0.96057934 -7.1429887
3.8587141 -1.125458 -7.0605187
3.8752646 -1.2917539 -6.9772773
3.8919444 -1.4594793 -6.893384
3.9087815 -1.6286585 -6.8087001
3.9257519 -1.7993032 -6.7233448
3.9428835 -1.971441 -6.6371818
3.9601519 -2.1450818 -6.5503278
3.9775856 -2.3202574 -6.4626431
3.9951596 -2.4969747 -6.3742499
4.0129037 -2.6752696 -6.2850041
4.0307922 -2.8551443 -6.1950321
4.0488548 -3.0366414 -6.1041832
4.0670662 -3.2197604 -6.012589
4.0854421 -3.4045353 -5.9201651
4.1039991 -3.5909989 -5.8268313
4.1227107 -3.7791519 -5.7327166
4.1416087 -3.9690418 -5.6376686
4.160666 -4.160666 -5.5418181
4.179914 -4.3540769 -5.4450083
4.199326 -4.5492697 -5.3473725
4.2189498 -4.7463188 -5.2486739
4.2387571 -4.9452171 -5.1490493
4.2587361 -5.1459732 -5.048562
4.2789202 -5.3486509 -4.9470439
4.2992964 -5.5532579 -4.8445606
4.3198519 -5.7598023 -4.7411761
4.3406205 -5.9683528 -4.6367168
4.3615899 -6.1789193 -4.5312481
4.3827634 -6.39153 -4.4247556
4.4041262 -6.6061897 -4.317307
4.425715 -6.8229775 -4.208724
4.4475169 -7.0419011 -4.0990696
4.4695349 -7.2629933 -3.9883289
4.4917541 -7.4862566 -3.8765728
4.5142131 -7.7117805 -3.7636132
4.5368977 -7.9395714 -3.6495187
4.5597939 -8.169631 -3.5343597
4.5829401 -8.4020567 -3.4179435
4.6063223 -8.6368542 -3.3003397
4.6299448 -8.8740597 -3.1815298
4.6537919 -9.1136751 -3.0615859
4.6779046 -9.3558102 -2.9403071
4.7029228 -9.6018009 -2.8144777
5.4451504 7.405405 -0.1768402
3.4195507 4.5138068 -9.9573021
3.4321539 4.393157 -9.8964481
3.4448597 4.2716265 -9.8350973
3.4576218 4.1491466 -9.7734785
3.470361 4.0256195 -9.7119665
3.483372 3.9013767 -9.6491442
3.4964805 3.7761996 -9.5858507
3.5405183 3.6821392 -9.3732176
3.5538771 3.5538771 -9.3087158
3.5673475 3.4246535 -9.2436752
3.58091 3.2944376 -9.1781902
3.5945864 3.1632359 -9.112154
3.6083572 3.0310206 -9.0456638
3.6222441 2.8977954 -8.97861
3.6362281 2.7635331 -8.9110899
3.6503313 2.6282392 -8.8429937
3.6645331 2.491883 -8.7744207
3.6788461 2.354461 -8.7053118
3.6932824 2.21597 -8.6356077
3.7078211 2.0763803 -8.5654087
3.722486 1.935693 -8.4945984
3.7372563 1.7938828 -8.4232836
3.7521553 1.6509479 -8.3513432
3.7671623 1.5068651 -8.278882
3.7823017 1.3616285 -8.2057838
3.7975512 1.2152162 -8.1321535
3.8129361 1.0676228 -8.057869
3.8284342 0.91882461 -7.9830375
3.8440707 0.76881421 -7.9075375
3.8598235 0.61757147 -7.8314753
3.8757181 0.4650858 -7.7547297
3.891732 0.3113389 -7.6774082
3.9078908 0.15631576 -7.5993853
3.9241724 -4.4457425e-07 -7.5207725
3.9406023 -0.15762353 -7.4414411
3.9571579 -0.3165727 -7.3615036
3.973866 -0.47686389 -7.2808299
3.9907026 -0.63851255 -7.1995349
4.0076828 -0.80153698 -7.117547
4.0248213 -0.96595728 -7.0347967
4.0420938 -1.1317865 -6.9513984
4.0595284 -1.2990493 -6.8672166
4.0771003 -1.4677563 -6.7823696
4.0948386 -1.6379356 -6.6967216
4.1127186 -1.8095961 -6.6103892
4.1307693 -1.9827689 -6.5232344
4.1489649 -2.1574616 -6.4353776
4.167336 -2.3337076 -6.3466763
4.1858559 -2.5115135 -6.2572527
4.2045555 -2.6909151 -6.1669631
4.2234087 -2.8719172 -6.0759325
4.2424459 -3.0545604 -5.9840117
4.261641 -3.2388468 -5.8913288
4.2810259 -3.4248209 -5.7977319
4.3005724 -3.6124806 -5.703352
4.3203135 -3.8018761 -5.6080332
4.3402214 -3.9930034 -5.5119104
4.3603292 -4.1859155 -5.4148221
4.3806081 -4.3806081 -5.3169045
4.4010925 -4.577136 -5.217998
4.4217534 -4.7754941 -5.1182361
4.4426255 -4.9757404 -5.0174584
4.4637117 -5.177906 -4.9156442
4.4849987 -5.381999 -4.8128605
4.5064735 -5.5880275 -4.7091718
4.5281715 -5.7960596 -4.6044044
4.5500803 -6.0061059 -4.4986224
4.5721841 -6.2181706 -4.3918939
4.5945215 -6.4323301 -4.2840414
4.6170774 -6.648591 -4.1751308
4.6398559 -6.8669877 -4.0651431
4.6628437 -7.087522 -3.9541521
4.6860776 -7.3102808 -3.84197
4.7095442 -7.5352702 -3.7286623
4.7332287 -7.7624946 -3.6143024
4.7571712 -7.9920478 -3.4986987
4.7813568 -8.2239342 -3.3819191
4.8057899 -8.45819 -3.2639461
4.8304553 -8.6948185 -3.1448538
4.8553939 -8.9339247 -3.0244384
4.8805909 -9.1755114 -2.9027741
4.9060316 -9.4195814 -2.7799346
4.9324694 -9.6676407 -2.6522825
6.4856796 8.4812727 3.6428311
3.6825936 4.6740613 -9.3711071
3.5867128 4.4144163 -9.8162546
3.6000557 4.2923741 -9.7543068
3.6134574 4.169374 -9.6920872
3.626826 4.0453062 -9.6300211
3.6404798 3.920517 -9.5666304
3.654247 3.794795 -9.5027122
3.7003624 3.7003629 -9.2886105
3.7143941 3.571533 -9.2234669
3.7285428 3.4417319 -9.1577778
3.742789 3.3109288 -9.0916367
3.7571557 3.179132 -9.0249367
3.7716217 3.0463092 -8.9577742
3.7862108 2.9124701 -8.8900414
3.8009021 2.7775824 -8.8218346
3.8157191 2.6416514 -8.7530441
3.8306403 2.5046492 -8.6837673
3.8456907 2.3665788 -8.6138926
3.8608479 2.2274122 -8.5435219
3.876137 2.0871508 -8.4725399
3.8915358 1.9457674 -8.4010477
3.9070692 1.8032627 -8.3289309
3.9227152 1.6596109 -8.2562904
3.9384868 1.5148026 -8.1830673
3.9543984 1.3688304 -8.1091948
3.9704263 1.2216702 -8.0347805
3.9865973 1.0733149 -7.9597039
4.0028882 0.92374378 -7.8840699
4.0193253 0.77294695 -7.8077579
4.0358849 0.62090558 -7.7308745
4.0525947 0.46760729 -7.6532974
4.0694304 0.3130329 -7.5751333
4.0864196 0.15717016 -7.4962568
4.103538 -2.6799998e-07 -7.4167809
4.1208138 -0.15849282 -7.3365741
4.1382222 -0.31832477 -7.2557507
4.1557922 -0.4795143 -7.1741805
4.1734982 -0.64207649 -7.0919766
4.1913691 -0.80603254 -7.009006
4.2093801 -0.97139484 -6.925385
4.2275605 -1.1381891 -6.8409781
4.2458849 -1.3064258 -6.7559047
4.2643824 -1.4761324 -6.6700249
4.2830281 -1.6473186 -6.5834594
4.3018513 -1.8200146 -6.4960666
4.320827 -1.9942273 -6.4079709
4.3399701 -2.1699853 -6.3190918
4.3592987 -2.3473144 -6.2293563
4.3787856 -2.5262218 -6.138886
4.3984618 -2.7067454 -6.0475321
4.4183011 -2.8888893 -5.9554243
4.4383354 -3.0726941 -5.862411
4.4585366 -3.2581613 -5.7686229
4.4789381 -3.4453368 -5.6739044
4.4995112 -3.6342204 -5.5783887
4.5202904 -3.8248615 -5.4819155
4.5412464 -4.0172563 -5.384624
4.5624142 -4.2114596 -5.2863498
4.5837631 -4.4074645 -5.187232
4.6053295 -4.605329 -5.0871053
4.6270833 -4.8050475 -4.9861083
4.6490602 -5.0066805 -4.8840742
4.6712298 -5.2102189 -4.7811465
4.6936464 -5.4157457 -4.6770735
4.716279 -5.6232557 -4.5719957
4.7391138 -5.832756 -4.4659801
4.7621884 -6.0443158 -4.3588529
4.7854886 -6.257947 -4.2506762
4.8090177 -6.4736781 -4.1414361
4.8327613 -6.6915164 -4.0311999
4.8567595 -6.9115429 -3.9197855
4.8809962 -7.1337643 -3.8072588
4.905458 -7.3581877 -3.6936913
4.9301853 -7.5848999 -3.5788906
4.955163 -7.813911 -3.4629269
4.9803944 -8.0452528 -3.3457835
5.0058651 -8.2789307 -3.2275305
5.0316172 -8.5150452 -3.1079686
5.0576363 -8.7536011 -2.9871731
5.0839052 -8.9946012 -2.8652136
5.1104684 -9.2381535 -2.7418873
5.137311 -9.4842663 -2.6172643
5.1651859 -9.7343893 -2.4878473
4.1596761 5.0840487 -7.8714147
3.7427647 4.4358697 -9.7353277
3.7567561 4.3133125 -9.6727772
3.7708201 4.1898003 -9.6098976
3.7848394 4.0651979 -9.5472212
3.7991476 3.9398563 -9.4832535
3.813586 3.8135862 -9.4187012
3.8617969 3.7187674 -9.2031622
3.8765137 3.5893641 -9.1373682
3.8913541 3.4589815 -9.0710201
3.9062972 3.3275867 -9.0042124
3.9213672 3.1951878 -8.9368391
3.936542 3.0617552 -8.8689947
3.9518466 2.9272933 -8.8005724
3.9672587 2.7917743 -8.7316675
3.9828036 2.6552024 -8.6621695
3.9984586 2.5175483 -8.5921803
4.0142493 2.3788152 -8.5215836
4.0301533 2.2389739 -8.4504805
4.0461955 2.0980275 -8.3787584
4.0623541 1.9559491 -8.3065186
4.0786548 1.8127358 -8.2336426
4.0950737 1.6683639 -8.1602364
4.1116385 1.5228295 -8.0861797
4.128325 1.3761083 -8.0115786
4.1451602 1.2281959 -7.9363108
4.1621203 1.0790685 -7.860486
4.1792331 0.92871815 -7.7839789
4.1964741 0.7771253 -7.7069001
4.213871 0.62427789 -7.6291227
4.2313991 0.47015595 -7.5507579
4.249074 0.31474692 -7.4717383
4.2669106 0.15803389 -7.391995
4.2848835 -3.1200713e-08 -7.3116407
4.3030229 -0.15937084 -7.2305436
4.3213024 -0.3200964 -7.1488214
4.3397517 -0.48219463 -7.0663371
4.3583455 -0.6456815 -6.9832101
4.3771133 -0.8105765 -6.8993034
4.396029 -0.97689533 -6.8147364
4.4151235 -1.1446614 -6.7293682
4.43437 -1.3138874 -6.643322
4.4538002 -1.4845994 -6.5564561
4.4733858 -1.6568096 -6.4688916
4.4931593 -1.830546 -6.3804889
4.5130939 -2.0058188 -6.2913675
4.5332212 -2.182662 -6.2013812
4.5535131 -2.3610806 -6.1106606
4.5740037 -2.5411127 -6.019053
4.5946636 -2.7227635 -5.9266877
4.6155267 -2.9060726 -5.8334131
4.6365643 -3.0910425 -5.7393599
4.657794 -3.2777073 -5.6444445
4.6792355 -3.4661012 -5.548584
4.7008595 -3.6562243 -5.45191
4.7227001 -3.8481259 -5.3542643
4.7447286 -4.0418062 -5.2557812
4.7669802 -4.2373157 -5.1562996
4.7894244 -4.4346519 -5.0559587
4.8120975 -4.633872 -4.9545889
4.83497 -4.83497 -4.8523335
4.858078 -5.0380063 -4.7490234
4.8813901 -5.2429748 -4.6447992
4.9049454 -5.4499388 -4.5394912
4.9287286 -5.6589103 -4.4331613
4.9527626 -5.8699408 -4.3257117
4.9770317 -6.0830379 -4.2172103
5.0015206 -6.2982106 -4.1077237
5.0262718 -6.5155368 -3.9970696
5.0512686 -6.735024 -3.8853145
5.0764956 -6.9566784 -3.7725294
5.1019959 -7.1805863 -3.6585238
5.1277528 -7.406754 -3.5433691
5.1537724 -7.6352186 -3.427043
5.1800365 -7.8659806 -3.309623
5.2065897 -8.0991392 -3.1909075
5.233417 -8.3347006 -3.0709691
5.2605014 -8.572669 -2.9498806
5.2878885 -8.8131485 -2.8274391
5.3155622 -9.0561438 -2.7037165
5.3435273 -9.3016958 -2.5786927
5.37181 -9.5498848 -2.4522474
5.4011602 -9.8021049 -2.3210289
4.7284842 5.5728569 -6.0834036
3.9003406 4.4575324 -9.6536102
3.9149926 4.3344555 -9.5904455
3.9297435 4.2104397 -9.5268517
3.9444146 4.0852871 -9.463604
3.9593885 3.9593883 -9.3990488
3.9745111 3.8325648 -9.3338556
4.0248456 3.7373567 -9.1168594
4.0402718 3.6073856 -9.0503521
4.0558057 3.4764044 -8.983387
4.0714707 3.3444228 -8.9158516
4.0872455 3.2114069 -8.847846
4.1031551 3.0773664 -8.7792578
4.1191769 2.9422688 -8.710186
4.135324 2.8061137 -8.6405745
4.1516109 2.6688931 -8.5703592
4.168014 2.5305803 -8.4996443
4.1845603 2.3911777 -8.4283133
4.2012253 2.2506566 -8.3564692
4.2180362 2.1090178 -8.2839947
4.2349696 1.9662354 -8.2109938
4.2520528 1.8223083 -8.1373472
4.2692604 1.6772094 -8.0631618
4.2866216 1.530936 -7.9883161
4.3041115 1.3834642 -7.9129171
4.3217573 1.2347879 -7.8368421
4.3395357 1.0848844 -7.7601995
4.3574743 0.93374479 -7.6828642
4.3755479 0.78134739 -7.6049461
4.3937864 0.62768358 -7.526319
4.4121628 0.47273138 -7.4470949
4.4307084 0.31647927 -7.3671441
4.4493961 0.15890732 -7.2865796
4.4682565 -1.8641245e-07 -7.2052708
4.4872632 -0.16025923 -7.123332
4.5064464 -0.32188949 -7.0406308
4.5257797 -0.48490512 -6.957283
4.5452795 -0.64932567 -6.8732166
4.5649638 -0.81517261 -6.7883573
4.5848036 -0.98245776 -6.702826
4.6048317 -1.1512079 -6.6164818
4.6250205 -1.321434 -6.5294466
4.6454024 -1.4931656 -6.441577
4.6659493 -1.6664106 -6.3529973
4.6866946 -1.8412014 -6.2635627
4.7076092 -2.0175474 -6.1733985
4.7287273 -2.1954806 -6.082356
4.7500191 -2.3750093 -5.9905639
4.7715206 -2.5561719 -5.8978696
4.793201 -2.7389719 -5.8044047
4.8150959 -2.9234512 -5.7100134
4.8371749 -3.1096125 -5.6148291
4.8594742 -3.2974997 -5.5186954
4.8819628 -3.4871166 -5.4217434
4.9046779 -3.678508 -5.3238173
4.927588 -3.8716762 -5.2250495
4.9507303 -4.0666714 -5.125278
4.9740739 -4.2634921 -5.0246429
4.9976382 -4.4621773 -4.9230547
5.0214453 -4.6627712 -4.8204203
5.0454617 -4.8652668 -4.7168832
5.0697279 -5.0697279 -4.6122708
5.0942097 -5.2761459 -4.5067272
5.118948 -5.4845862 -4.4000788
5.1439085 -5.6950421 -4.2924705
5.1691327 -5.9075804 -4.1837258
5.1946254 -6.1222377 -4.0738239
5.2203708 -6.3390212 -3.9628341
5.2463527 -6.5579414 -3.8508232
5.272615 -6.7790766 -3.7376051
5.2991405 -7.0024366 -3.6232486
5.3259354 -7.2280555 -3.5077345
5.3529811 -7.4559374 -3.3911381
5.3803248 -7.6861782 -3.2732592
5.407948 -7.9187818 -3.1541705
5.4358573 -8.1537867 -3.0338507
5.4640346 -8.3911943 -2.9123788
5.4925265 -8.6311131 -2.7895441
5.5213175 -8.8735456 -2.6654239
5.5503898 -9.1184978 -2.5400908
5.579792 -9.3660803 -2.4133329
5.6095533 -9.6163769 -2.2850306
5.6404171 -9.8707314 -2.151973
5.4505997 6.2024074 -3.7805734
4.0594635 4.4794073 -9.5710917
4.0747881 4.3558073 -9.5073032
4.0902286 4.2312708 -9.4430323
4.1055865 4.105587 -9.3791075
4.1212144 3.9791038 -9.3140564
4.1370335 3.851721 -9.248209
4.1529751 3.7233572 -9.1818552
4.2056708 3.6255779 -8.962512
4.2219219 3.4940047 -8.8948669
4.2383118 3.3614202 -8.8266459
4.254817 3.2277918 -8.7579441
4.2714634 3.0931287 -8.6886549
4.288228 2.9573994 -8.6188726
4.3051381 2.8206074 -8.5484858
4.3221684 2.6827247 -8.4775982
4.3393474 2.5437553 -8.4060917
4.3566504 2.4036689 -8.3340693
4.374105 2.2624686 -8.2614155
4.3916869 2.1201243 -8.1882324
4.4094238 1.9766386 -8.1144028
4.4272914 1.8319824 -8.0400305
4.4453044 1.6861497 -7.9650531
4.4634776 1.5391301 -7.8894057
4.4817867 1.3909 -7.8131962
4.5002608 1.241451 -7.7362995
4.5188732 1.0907626 -7.6588254
4.5376554 0.93882537 -7.5806484
4.5565786 0.78561723 -7.5018787
4.575676 0.63112789 -7.4223886
4.5949187 0.47533655 -7.3422899
4.6143394 0.31823087 -7.2614546
4.6339097 0.15979037 -7.1799936
4.6536622 -4.5360233e-07 -7.0977769
4.6735682 -0.16115764 -7.0149198
4.6936603 -0.32370099 -6.9312863
4.7139106 -0.48764607 -6.8469958
4.7343521 -0.65301424 -6.761909
4.7549562 -0.81981993 -6.6761456
4.7757559 -0.98808753 -6.5895681
4.7967224 -1.1578296 -6.5022964
4.8178902 -1.3290731 -6.4141865
4.8392291 -1.5018303 -6.3253646
4.8607578 -1.6761235 -6.2357521
4.8824959 -1.851981 -6.1452689
4.9044123 -2.029412 -6.0540452
4.9265432 -2.2084506 -5.961925
4.9488578 -2.3891034 -5.8690424
4.9713926 -2.5714099 -5.7752428
4.9941163 -2.7553742 -5.6806574
5.0170665 -2.9410391 -5.5851293
5.0402102 -3.1284068 -5.4887938
5.0635867 -3.317522 -5.3914919
5.0871625 -3.5083878 -5.2933574
5.1109776 -3.7010529 -5.1942272
5.1349983 -3.8955162 -5.0942435
5.1592646 -4.0918298 -4.993238
5.1837425 -4.2899938 -4.8913498
5.2084723 -4.4900622 -4.788413
5.2334204 -4.6920319 -4.6845684
5.2586279 -4.8959641 -4.5796437
5.28406 -5.1018515 -4.4737849
5.3097587 -5.3097587 -4.3668146
5.3356891 -5.5196781 -4.2588825
5.3618736 -5.7316585 -4.1498895
5.3883367 -5.9457512 -4.0397382
5.4150424 -6.1619439 -3.92858
5.4420547 -6.3803401 -3.8161404
5.4693384 -6.6009254 -3.7025752
5.4968967 -6.8237348 -3.5878634
5.524713 -7.0487723 -3.4720795
5.552834 -7.2761269 -3.3550301
5.5812426 -7.5058093 -3.2367816
5.6099429 -7.7378526 -3.1173167
5.6389189 -7.9722643 -2.9967079
5.6682167 -8.2091417 -2.8747556
5.6978216 -8.448493 -2.7515285
5.7277141 -8.6903248 -2.6271014
5.7579451 -8.934742 -2.5012689
5.788497 -9.1817532 -2.3740983
5.8193741 -9.4314003 -2.2455709
5.8506312 -9.6838036 -2.1154671
5.8830724 -9.9403639 -1.9804317
6.3538589 6.9892464 -0.90239745
4.2201672 4.5015116 -9.48771
4.2361655 4.3773704 -9.4233389
4.2522974 4.2522969 -9.358429
4.2683558 4.1260772 -9.2938147
4.2846723 3.999028 -9.2281618
4.3012018 3.8710818 -9.1616526
4.3178592 3.7421453 -9.0946283
4.372746 3.6439552 -8.8737812
4.389729 3.5117836 -8.8054476
4.4068575 3.3785906 -8.7365274
4.4241066 3.2443452 -8.6671228
4.4415045 3.1090529 -8.5971165
4.4590273 2.9726846 -8.5266132
4.4767013 2.8352444 -8.4554968
4.494503 2.696702 -8.3838692
4.5124602 2.5570605 -8.311614
4.5305481 2.4162917 -8.2388353
4.5487952 2.2743974 -8.1654148
4.5671759 2.1313491 -8.0914555
4.5857201 1.9871458 -8.0168409
4.6044006 1.8417604 -7.9416742
4.6232491 1.6951915 -7.8658352
4.6422377 1.5474123 -7.7894316
4.661397 1.3984188 -7.7123384
4.6807013 1.2481872 -7.634666
4.7001801 1.0967091 -7.5562868
4.7198076 0.94396162 -7.477313
4.7395992 0.78993368 -7.3976784
4.759573 0.63460982 -7.3173099
4.7797003 0.47797045 -7.2363243
4.800014 0.32000095 -7.1545873
4.8204856 0.16068289 -7.072216
4.8411484 -3.1882865e-07 -6.9890757
4.8619728 -0.16206615 -6.9052839
4.8829932 -0.32553297 -6.820703
4.9041805 -0.49041802 -6.7354531
4.9255686 -0.65674245 -6.649395
4.9471278 -0.82452148 -6.5626483
4.9688926 -0.99377888 -6.4750724
4.9908333 -1.1645271 -6.3867893
5.0129857 -1.3367959 -6.2976561
5.0353184 -1.5105959 -6.2077956
5.057868 -1.6859567 -6.1170626
5.0806036 -1.862888 -6.0255823
5.1035614 -2.0414248 -5.9332066
5.1267104 -2.2215745 -5.8400631
5.1500878 -2.4033747 -5.7459974
5.1736622 -2.5868306 -5.651145
5.1974525 -2.7719741 -5.555419
5.2214813 -2.9588397 -5.4587336
5.2457147 -3.1474292 -5.3612261
5.2701931 -3.3377886 -5.2627339
5.2948818 -3.5299206 -5.163393
5.3198218 -3.7238758 -5.0630412
5.3449793 -3.9196515 -4.9618173
5.3703947 -4.1173024 -4.8595524
5.3960333 -4.3168273 -4.7563896
5.4219379 -4.5182824 -4.6521568
5.4480729 -4.7216625 -4.5470009
5.4744806 -4.9270329 -4.4407425
5.5011253 -5.1343837 -4.3335328
5.5280514 -5.3437824 -4.2251916
5.5552216 -5.555222 -4.1158671
5.5826807 -5.7687697 -4.0053787
5.6103921 -5.9844179 -3.8938789
5.638401 -6.2022414 -3.7811778
5.6666698 -6.4222255 -3.6674347
5.6952443 -6.6444521 -3.5524573
5.7241316 -6.8689575 -3.4362254
5.7533131 -7.0957527 -3.3188081
5.7827935 -7.3248715 -3.2001884
5.8125553 -7.5563216 -3.0804369
5.8426476 -7.7901969 -2.9593544
5.8730531 -8.0265055 -2.8370113
5.9037528 -8.265254 -2.7134836
5.9347997 -8.506546 -2.5885613
5.9661746 -8.7503891 -2.4623194
5.9978828 -8.9968243 -2.3347354
6.0299058 -9.2458553 -2.2058866
6.0622969 -9.4975977 -2.0755537
6.0951385 -9.7522221 -1.9434091
6.1291499 -10.010945 -1.8065553
7.4908161 7.9740953 2.7000833
4.382453 4.5238218 -9.4035511
4.3991613 4.3991609 -9.3384886
4.415998 4.2735467 -9.2729301
4.4327579 4.1467733 -9.2076674
4.4497623 4.0191407 -9.1414537
4.4670153 3.8906269 -9.0742731
4.4844027 3.7611117 -9.0065689
4.5415239 3.6625195 -8.7841454
4.5592661 3.5297546 -8.7150593
4.5771337 3.3959372 -8.645484
4.5951557 3.2610784 -8.5753088
4.613306 3.1251433 -8.5046329
4.6316004 2.9881291 -8.4333954
4.6500549 2.8500333 -8.361537
4.6686425 2.7108243 -8.2891588
4.6873937 2.5705063 -8.2161436
4.7062817 2.4290493 -8.1425953
4.725337 2.2864532 -8.0683956
4.7445331 2.1426921 -7.9936495
4.7638998 1.9977649 -7.9182367
4.783411 1.8516431 -7.8422632
4.8030972 1.7043251 -7.7656069
4.8229313 1.5557841 -7.688375
4.8429451 1.4060168 -7.6104441
4.8631101 1.2549959 -7.5319238
4.8834591 1.1027163 -7.4526854
4.903964 0.94915426 -7.3728423
4.9246573 0.79429942 -7.292264
4.9455104 0.63813072 -7.2110658
4.9665561 0.48063475 -7.1291142
4.9877663 0.32179171 -7.0465255
5.0091743 0.1615857 -6.9631639
5.0307508 -8.5992113e-08 -6.8791485
5.0525136 -0.16298436 -6.7944055
5.0744824 -0.32738617 -6.7088609
5.0966258 -0.49322158 -6.6226363
5.1189814 -0.6605131 -6.5355883
5.1415157 -0.8292768 -6.4478402
5.1642671 -0.9995352 -6.3592496
5.1872029 -1.171304 -6.2699375
5.210362 -1.34461 -6.1797619
5.2337098 -1.5194638 -6.0888476
5.2572865 -1.6958984 -5.9970427
5.2810583 -1.8739241 -5.9044781
5.3050642 -2.0535729 -5.8110023
5.3292704 -2.2348549 -5.7167435
5.3537178 -2.4178083 -5.6215482
5.3783722 -2.6024377 -5.5255494
5.4032726 -2.788785 -5.4285879
5.4283862 -2.9768572 -5.3307981
5.4537535 -3.1666956 -5.2320213
5.4793391 -3.3583052 -5.1323924
5.5051861 -3.5517333 -5.0317469
5.5312581 -3.7469807 -4.9302268
5.5575781 -3.9440875 -4.8277397
5.5841703 -4.1430941 -4.7241917
5.6109972 -4.3439975 -4.6197305
5.6381044 -4.5468578 -4.5141783
5.6654534 -4.7516699 -4.4076843
5.6930904 -4.9584975 -4.3000693
5.7209773 -5.1673346 -4.1914806
5.7491598 -5.3782463 -4.0817404
5.7775993 -5.5912261 -3.9709978
5.8063445 -5.8063445 -3.8590689
5.8353543 -6.0235915 -3.7461081
5.8646779 -6.2430439 -3.6319246
5.8942752 -6.4646883 -3.5166769
5.9241958 -6.6886077 -3.4001696
5.9544215 -6.9148111 -3.2824736
5.9849567 -7.1433363 -3.1635695
6.015831 -7.3742452 -3.0433488
6.0470257 -7.6075487 -2.921881
6.0785213 -7.8432536 -2.7992415
6.1103711 -8.0814581 -2.6752231
6.1425562 -8.3221722 -2.5498967
6.1750822 -8.5654364 -2.4232445
6.2079291 -8.8112555 -2.2953398
6.2411532 -9.0597382 -2.165971
6.2747345 -9.3108969 -2.0352073
6.3086534 -9.5647335 -1.9031302
6.3430986 -9.8215714 -1.7690052
6.3787737 -10.082579 -1.6300894
4.8321557 4.8321557 -8.2404537
4.5637751 4.4211578 -9.25284
4.5813293 4.2949967 -9.1866226
4.5988178 4.1676788 -9.1206512
4.6165357 4.0394683 -9.0538177
4.6345258 3.9103816 -8.9859543
4.652657 3.7802832 -8.9175596
4.7120304 3.6812742 -8.6935911
4.7305331 3.5479004 -8.6237946
4.7491674 3.4134638 -8.5535021
4.7679639 3.2779746 -8.4825983
4.7868948 3.1414001 -8.4111872
4.8059912 3.0037448 -8.3391504
4.8252263 2.8649778 -8.266592
4.8446307 2.7251043 -8.1933956
4.8641768 2.584094 -8.1196632
4.8838959 2.4419475 -8.0452766
4.9037609 2.2986383 -7.9703431
4.9237881 2.1541576 -7.8947973
4.943995 2.0084982 -7.818573
4.9643526 1.8616327 -7.7417793
4.9848938 1.7135577 -7.6642919
5.0055904 1.5642471 -7.5862188
5.0264759 1.4136957 -7.5074358
5.0475202 1.2618802 -7.4280539
5.0687571 1.1087905 -7.3479414
5.090158 0.95440412 -7.2672153
5.1117558 0.79871172 -7.1857424
5.133522 0.64169043 -7.1036367
5.1554909 0.4833279 -7.0207658
5.1776314 0.32360125 -6.9372468
5.1999803 0.16249941 -6.8529425
5.2225051 9.5940436e-08 -6.7679739
5.245244 -0.16391321 -6.682198
5.2681637 -0.32926029 -6.5957398
5.2913027 -0.49605957 -6.5084543
5.3146276 -0.66432875 -6.4204679
5.3381772 -0.83408952 -6.3316331
5.3619184 -1.0053594 -6.2420764
5.3858714 -1.1781592 -6.15172
5.4100585 -1.3525143 -6.0604815
5.4344449 -1.5284375 -5.968493
5.4590707 -1.7059604 -5.8755975
5.483902 -1.8850909 -5.7819309
5.5089788 -2.0658674 -5.6873326
5.5342674 -2.2482965 -5.5919399
5.5598083 -2.4324162 -5.4955935
5.5855665 -2.6182339 -5.3984294
5.6115847 -2.8057919 -5.3002844
5.637826 -2.995095 -5.2012959
5.6643343 -3.186188 -5.1013007
5.691072 -3.3790741 -5.0004392
5.7180848 -3.5738025 -4.8985438
5.7453341 -3.770375 -4.795754
5.7728653 -3.9688449 -4.6918993
5.8006406 -4.1692109 -4.5871253
5.8287053 -4.3715291 -4.4812584
5.8570218 -4.575798 -4.3744435
5.8856368 -4.7820797 -4.2665033
5.9145103 -4.9903679 -4.1575856
5.9436688 -5.2007098 -4.0475945
5.9731383 -5.413156 -3.9364283
6.0028791 -5.6276989 -3.8242404
6.0329404 -5.8444109 -3.7108424
6.0632811 -6.0632806 -3.5963907
6.0939517 -6.2843881 -3.4806941
6.1249108 -6.5077181 -3.3639097
6.1562099 -6.7333546 -3.2458432
6.1878061 -6.9612823 -3.1266544
6.2197533 -7.1915898 -3.0061443
6.2520318 -7.4242883 -2.884382
6.2846723 -7.6594443 -2.7612567
6.3176556 -7.8970685 -2.6368375
6.3509865 -8.1372013 -2.5111067
6.384645 -8.3798466 -2.3841372
6.4186883 -8.6251125 -2.2557187
6.4530973 -8.8730087 -2.1259227
6.4878502 -9.1235399 -1.9948283
6.523006 -9.3768215 -1.8622122
6.5585446 -9.6328621 -1.7281512
6.5946388 -9.8919582 -1.5919975
6.631968 -10.155201 -1.4511843
5.4518847 5.2866764 -6.5259066
4.7300429 4.4433742 -9.1663294
4.7483282 4.3166623 -9.0994444
4.7665749 4.1888075 -9.0327024
4.7850037 4.0600033 -8.965291
4.8037457 3.9303365 -8.8967342
4.8226352 3.7996519 -8.8276386
4.8842916 3.7002213 -8.6021051
4.9035697 3.5662324 -8.5315866
4.9229865 3.4311719 -8.4605637
4.9425721 3.295048 -8.3889227
4.9622989 3.1578267 -8.3167629
4.9821992 3.0195148 -8.2439699
5.002244 2.8800797 -8.1706457
5.0224667 2.7395279 -8.096674
5.0428381 2.5978262 -8.0221586
5.0633907 2.454977 -7.9469771
5.0840964 2.3109529 -7.8712406
5.1049876 2.1657522 -7.7948217
5.1260352 2.0193474 -7.7178321
5.1472731 1.871735 -7.6401453
5.1686711 1.7228905 -7.5618734
5.1902652 1.5728078 -7.4828854
5.2120233 1.4214607 -7.4032974
5.2339644 1.2688394 -7.3230376
5.2561078 1.1149319 -7.2420387
5.2784228 0.95971352 -7.1604133
5.3009453 0.80317324 -7.0780287
5.3236432 0.64528996 -6.9950013
5.3465538 0.48605052 -6.9111962
5.3696446 0.32543269 -6.8267322
5.3929543 0.16342267 -6.7414694
5.4164486 4.4704927e-07 -6.6555285
5.440167 -0.16485392 -6.568769
5.4640751 -0.33115584 -6.4813147
5.4882135 -0.49892825 -6.3930202
5.512547 -0.66818738 -6.3040094
5.5371165 -0.83895677 -6.214138
5.5618863 -1.0112518 -6.1235318
5.5868983 -1.1850989 -6.0320396
5.6121173 -1.360513 -5.9397926
5.6375842 -1.5375234 -5.8466363
5.6632633 -1.7161403 -5.7527041
5.6891975 -1.8963989 -5.6578403
5.7153502 -2.0783098 -5.5621748
5.741745 -2.2618995 -5.4656277
5.7684045 -2.447201 -5.3681092
5.7952924 -2.6342237 -5.2697554
5.822453 -2.8230071 -5.1704063
5.8498483 -3.0135579 -5.0701976
5.8775234 -3.2059224 -4.9689617
5.9054408 -3.4001026 -4.8668442
5.9336457 -3.5961492 -4.7636719
5.9621 -3.7940631 -4.6595907
5.9908504 -3.9938998 -4.5544248
6.0198569 -4.1956577 -4.4483209
6.0491691 -4.399395 -4.3411031
6.0787444 -4.6051092 -4.2329168
6.1086335 -4.8128624 -4.1235862
6.1387949 -5.0226507 -4.013258
6.1692786 -5.23454 -3.9017501
6.2000437 -5.4485235 -3.7892165
6.2311411 -5.6646738 -3.6754661
6.262527 -5.8829799 -3.5606587
6.2942557 -6.1035204 -3.4445992
6.3262825 -6.326283 -3.3274467
6.3586373 -6.5513234 -3.2090967
6.3913498 -6.7787042 -3.089438
6.4243751 -7.008409 -2.9686348
6.4577694 -7.2405291 -2.8464828
6.4914861 -7.4750447 -2.7231483
6.52561 -7.7120843 -2.5983279
6.5600677 -7.9515972 -2.4722862
6.5949173 -8.1936855 -2.3448079
6.6301398 -8.4383602 -2.2159669
6.6657133 -8.685627 -2.085844
6.7016983 -8.9355974 -1.9542148
6.7380733 -9.188282 -1.8211572
6.7748461 -9.4437246 -1.6866466
6.8119936 -9.70193 -1.5507658
6.849781 -9.9633179 -1.4125407
6.888865 -10.228922 -1.269576
6.2344465 5.8677149 -4.3341093
4.8979907 4.4658146 -9.0789471
4.9170218 4.3385487 -9.0113821
4.9360261 4.2101398 -8.9439087
4.9551787 4.0807347 -8.8759127
4.9746866 3.9504869 -8.8066521
4.994349 3.8192081 -8.736845
5.058351 3.7193758 -8.5096188
5.0784044 3.5847561 -8.4384222
5.0986176 3.4490647 -8.3666573
5.1190085 3.3122995 -8.2942648
5.1395469 3.1744261 -8.2213459
5.1602669 3.0354512 -8.1477842
5.1811385 2.8953426 -8.0736828
5.2021961 2.7541039 -7.9989233
5.2234087 2.6117043 -7.9236112
5.244812 2.4681468 -7.8476233
5.2663746 2.323401 -7.7710695
5.2881317 2.1774662 -7.6938243
5.3100529 2.0303142 -7.6159978
5.3321733 1.8819437 -7.5374627
5.3544617 1.7323259 -7.4583321
5.3769546 1.5814568 -7.3784757
5.3996196 1.4293108 -7.298007
5.4224939 1.2758807 -7.2167954
5.4455452 1.1211417 -7.1349559
5.4688115 0.96508443 -7.0523529
5.4922595 0.80768502 -6.9691052
5.5159278 0.64893264 -6.8850765
5.5397825 0.48880449 -6.800386
5.5638437 0.32728454 -6.7149591
5.5881343 0.16435707 -6.6287208
5.6126184 5.5637707e-07 -6.5417933
5.6373377 -0.16580388 -6.4540339
5.6622562 -0.33307394 -6.3655639
5.6874151 -0.50183082 -6.2762413
5.7127795 -0.67209202 -6.1861906
5.7383909 -0.84388065 -6.0952635
5.7642126 -1.0172144 -6.0035858
5.7902884 -1.1921173 -5.9110112
5.8165803 -1.3686062 -5.8176665
5.8431325 -1.5467117 -5.7233953
5.8699083 -1.7264432 -5.628335
5.8969507 -1.907837 -5.5323253
5.9242229 -2.0909019 -5.4355011
5.9517694 -2.2756758 -5.3377018
5.9795523 -2.4621687 -5.2390652
6.0076165 -2.6504188 -5.1394258
6.0359249 -2.8404353 -5.0389242
6.0645223 -3.0322614 -4.9373932
6.09337 -3.2259018 -4.8349743
6.1224937 -3.4213936 -4.731576
6.1519198 -3.6187766 -4.6271043
6.1816068 -3.8180513 -4.5217056
6.2116055 -4.0192742 -4.4152017
6.2418728 -4.2224441 -4.3077421
6.2724605 -4.427619 -4.1991477
6.3033257 -4.6347985 -4.0895672
6.3345199 -4.8440447 -3.9788175
6.3660002 -5.0553532 -3.8670521
6.397819 -5.2687917 -3.7540848
6.4299335 -5.484355 -3.6400685
6.4623971 -5.7021141 -3.5248139
6.4951639 -5.922061 -3.4084797
6.5282912 -6.1442742 -3.2908683
6.5617318 -6.3687401 -3.172143
6.5955429 -6.5955434 -3.0521026
6.6296782 -6.8246689 -2.9309115
6.6641951 -7.0562067 -2.808367
6.6990466 -7.2901387 -2.6846323
6.7342916 -7.5265613 -2.5595026
6.7698817 -7.7654519 -2.4331462
6.8058777 -8.0069151 -2.3053486
6.8422866 -8.2509937 -2.1760843
6.8790593 -8.4976606 -2.0455315
6.9162569 -8.7470312 -1.9134665
6.9538603 -8.9991131 -1.7799642
6.9918447 -9.253912 -1.6451061
7.0302763 -9.5115499 -1.5086629
7.0691323 -9.7720366 -1.370711
7.1086617 -10.035758 -1.2303698
7.1494889 -10.303675 -1.0854213
7.2106261 6.5925741 -1.5997918
5.0676584 4.4884973 -8.9906244
5.0874486 4.3606701 -8.9223719
5.107213 4.2316909 -8.8542061
5.1271157 4.1016927 -8.7855635
5.1474047 3.9708555 -8.7155886
5.1678553 3.8389778 -8.6450577
5.2342052 3.7387187 -8.4162235
5.255065 3.6034737 -8.3442831
5.2761073 3.4671564 -8.2717113
5.2973022 3.3297327 -8.1986113
5.3186851 3.1912115 -8.1248646
5.3402243 3.0515566 -8.0505781
5.3619556 2.9107757 -7.9756298
5.3838477 2.7688365 -7.9001269
5.4059196 2.6257324 -7.8240047
5.4281893 2.4814582 -7.7471976
5.4506264 2.3359835 -7.6698136
5.4732676 2.1893072 -7.5917273
5.4960804 2.0414016 -7.5130515
5.5191011 1.8922635 -7.4336543
5.5422983 1.7418652 -7.3536506
5.5657086 1.5902023 -7.2729106
5.5892997 1.4372491 -7.1915488
5.6131096 1.2829965 -7.1094303
5.637105 1.1274217 -7.0266724
5.661325 0.97051263 -6.9431405
5.6857357 0.81224841 -6.858952
5.7103763 0.65261412 -6.7739687
5.7352123 0.49159011 -6.6883121
5.7602849 0.32915869 -6.6018405
5.7855582 0.1653014 -6.5146766
5.8110738 -1.2673421e-07 -6.4266768
5.8367953 -0.1667652 -6.337966
5.8627658 -0.33501518 -6.2483978
5.888948 -0.5047673 -6.1580968
5.9153657 -0.67604172 -6.0669861
5.9420419 -0.84886265 -5.9749856
5.9689384 -1.0232463 -5.8822212
5.9961009 -1.1992204 -5.7885408
6.0234904 -1.3767972 -5.694078
6.0511527 -1.5560101 -5.5986743
6.0790491 -1.7368718 -5.5024624
6.1072249 -1.9194136 -5.4052873
6.1356416 -2.1036487 -5.307282
6.1643462 -2.2896135 -5.2082839
6.1932983 -2.47732 -5.1084309
6.2225456 -2.666806 -5.0075593
6.2520485 -2.8580797 -4.9058084
6.2818551 -3.0511863 -4.8030095
6.311924 -3.2461324 -4.6993046
6.3423057 -3.4429662 -4.594523
6.3729577 -3.6416898 -4.4888086
6.4039311 -3.8423584 -4.3819842
6.435183 -4.0449729 -4.274199
6.4667659 -4.249589 -4.1652741
6.4986358 -4.4562073 -4.0553594
6.5308213 -4.6648722 -3.9443569
6.5633521 -4.8756332 -3.8321614
6.5961833 -5.0884843 -3.7189305
6.6293702 -5.3034968 -3.6044722
6.6628671 -5.5206609 -3.4889464
6.6967301 -5.7400546 -3.3721559
6.7309127 -5.9616661 -3.2542646
6.7654729 -6.185575 -3.135071
6.8003631 -6.4117708 -3.0147395
6.8356414 -6.6403375 -2.893069
6.8712606 -6.8712606 -2.7702217
6.9072814 -7.1046314 -2.6459932
6.9436526 -7.3404331 -2.5205498
6.9804378 -7.5787611 -2.3936837
7.0175867 -7.8195963 -2.2655628
7.055161 -8.0630417 -2.1359718
7.0931115 -8.3090734 -2.0050859
7.1315308 -8.5578375 -1.8725816
7.1703396 -8.8092737 -1.7387377
7.2096028 -9.0635004 -1.6033237
7.2492981 -9.3205261 -1.4664179
7.289433 -9.5803976 -1.3279986
7.3299832 -9.8431196 -1.1881446
7.3713026 -10.109215 -1.0456405
8.4349651 7.4977479 1.8147134
5.2390423 4.5113974 -8.901454
5.2596068 4.3830056 -8.8324995
5.2801762 4.2534757 -8.7635279
5.3008127 4.1228542 -8.6943331
5.3218975 3.9914234 -8.6236334
5.3431511 3.8589425 -8.5523701
5.3645749 3.725399 -8.4805326
5.4335794 3.6223862 -8.249157
5.4554515 3.4854276 -8.1758194
5.4774828 3.3473504 -8.101944
5.4997101 3.2081649 -8.0274153
5.5221019 3.0678341 -7.9523349
5.5446935 2.9263659 -7.8765836
5.5674529 2.7837265 -7.8002682
5.5904183 2.6399195 -7.7232637
5.6135559 2.4949141 -7.6456819
5.6369038 2.3487093 -7.5673947
5.6604285 2.201278 -7.4885149
5.6841683 2.0526168 -7.4089117
5.7080903 1.902697 -7.328701
5.7322145 1.7515098 -7.2478108
5.7565618 1.5990448 -7.166173
5.7810984 1.4452752 -7.0839005
5.8058634 1.2901918 -7.0008602
5.8308225 1.1337713 -6.9171705
5.8560166 0.97600317 -6.8326926
5.8814096 0.81686229 -6.7475467
5.9070444 0.65633839 -6.661593
5.9328828 0.49440688 -6.5749545
5.9589686 0.33105353 -6.4874859
5.9852648 0.16625741 -6.3993139
6.0118141 5.6489426e-07 -6.3102913
6.0385799 -0.16773811 -6.2205448
6.0656056 -0.33697781 -6.1299257
6.0928535 -0.5077377 -6.0385618
6.120368 -0.6800406 -5.9463034
6.1481109 -0.8539046 -5.8532772
6.1761284 -1.0293543 -5.759335
6.20438 -1.2064073 -5.6646032
6.2329144 -1.385092 -5.5689278
6.2616897 -1.5654219 -5.4724417
6.2907314 -1.7474259 -5.375061
6.3200665 -1.931131 -5.2766986
6.3496542 -2.1165514 -5.1774883
6.3795428 -2.3037243 -5.077271
6.4096909 -2.4926572 -4.9761815
6.4401488 -2.6833961 -4.874053
6.4708743 -2.8759441 -4.771028
6.5019178 -3.0703504 -4.6669374
6.5332365 -3.2666185 -4.561923
6.5648828 -3.4647994 -4.455811
6.5968127 -3.6648962 -4.3487473
6.6290793 -3.8669634 -4.2405548
6.6616383 -4.0710015 -4.131382
6.6945438 -4.27707 -4.0210476
6.7277508 -4.4851665 -3.909704
6.7613144 -4.6953568 -3.797163
6.7951884 -4.9076366 -3.6835792
6.8294301 -5.1220732 -3.5687644
6.8639917 -5.3386598 -3.4528773
6.898932 -5.5574727 -3.3357203
6.9342027 -5.778502 -3.2174544
6.9698362 -6.0018024 -3.0979741
7.0058651 -6.2274356 -2.9771657
7.0422401 -6.4553866 -2.8551965
7.0790238 -6.6857452 -2.7318587
7.1161652 -6.9184933 -2.6073225
7.1537266 -7.1537275 -2.4813738
7.1916575 -7.3914261 -2.3541887
7.2300234 -7.6316915 -2.2255466
7.2687697 -7.8745003 -2.0956271
7.3079643 -8.1199608 -1.9642037
7.3475533 -8.3680477 -1.8314598
7.3876042 -8.6188717 -1.6971654
7.4280944 -8.872447 -1.5613989
7.4690623 -9.1288538 -1.4240309
7.5104527 -9.3880653 -1.2852463
7.5523362 -9.6502075 -1.1448064
7.5946898 -9.9152889 -1.0027928
7.6378169 -10.183755 -0.85818374
5.4784808 4.5900788 -8.5950775
5.433538 4.4055715 -8.741703
5.4549136 4.2754726 -8.6719646
5.4763269 4.144248 -8.6021042
5.4982238 4.012217 -8.5306683
5.5202961 3.8791273 -8.4586582
5.5425467 3.7449641 -8.3860664
5.6139779 3.641499 -8.1530266
5.6366954 3.5038917 -8.0789108
5.6595802 3.3651562 -8.0042505
5.6826692 3.2252991 -7.9289241
5.7059298 3.0842865 -7.8530383
5.7293987 2.9421244 -7.7764707
5.7530441 2.7987785 -7.6993294
5.7769036 2.6542535 -7.621489
5.8009434 2.5085166 -7.5430593
5.8252025 2.3615685 -7.4639158
5.849647 2.2133803 -7.3841672
5.8743162 2.0639491 -7.3036847
5.8991752 1.9132458 -7.2225842
5.9242649 1.7612675 -7.1407299
5.9495492 1.6079867 -7.0582404
5.97507 1.4533954 -6.9749804
6.0007911 1.2974687 -6.8910661
6.0267544 1.140197 -6.8063617
6.0529232 0.98155516 -6.7209873
6.0793209 0.82152987 -6.6348686
6.1059694 0.66010505 -6.5479274
6.1328321 0.49725711 -6.460289
6.1599531 0.33297071 -6.3718076
6.1872945 0.16722411 -6.282609
6.2149 -1.503162e-07 -6.1925459
6.2427325 -0.16872226 -6.1017451
6.2708364 -0.33896443 -6.0100574
6.2991729 -0.51074368 -5.9176106
6.3277884 -0.68408465 -5.8242545
6.3566432 -0.85900605 -5.7301168
6.3857846 -1.0355324 -5.6350441
6.4151716 -1.2136813 -5.5391703
6.4448538 -1.3934822 -5.4423347
6.4747887 -1.5749485 -5.3446741
6.5050254 -1.7581139 -5.2460275
6.5355234 -1.9429927 -5.1465302
6.5663314 -2.129621 -5.0460176
6.5974083 -2.3180077 -4.9446335
6.6288042 -2.5081968 -4.8422046
6.6604767 -2.7001927 -4.7388763
6.6924524 -2.8940337 -4.6345549
6.7247624 -3.0897558 -4.5291462
6.7573605 -3.2873642 -4.4227972
6.7903008 -3.4869113 -4.3153296
6.8235393 -3.6883993 -4.206893
6.8571296 -3.8918843 -4.0973039
6.891027 -4.0973668 -3.9867167
6.9252868 -4.3049083 -3.8749433
6.9598627 -4.5145059 -3.7621405
6.9948125 -4.7262244 -3.6481202
7.0300889 -4.940062 -3.5330348
7.0657492 -5.1560874 -3.4166937
7.1017451 -5.3742943 -3.2992566
7.1381388 -5.5947576 -3.1805265
7.1748781 -5.8174691 -3.0606647
7.2120266 -6.0425096 -2.9394701
7.2495327 -6.269866 -2.8171086
7.2874603 -6.4996266 -2.6933715
7.3257575 -6.7317777 -2.568429
7.3644891 -6.9664083 -2.4420702
7.4036021 -7.203505 -2.3144655
7.4431329 -7.4431324 -2.1854987
7.4831181 -7.6853652 -2.0550466
7.5235052 -7.9301805 -1.9232873
7.5643616 -8.1776886 -1.7899941
7.6056328 -8.4278631 -1.6553502
7.6473885 -8.6808195 -1.519124
7.6895728 -8.9365301 -1.3815
7.7322578 -9.195118 -1.2422404
7.7754531 -9.4566317 -1.1013207
7.8190994 -9.7210436 -0.95892471
7.8632727 -9.9884815 -0.81481212
7.9083252 -10.259448 -0.66783249
6.144526 5.0126395 -6.9496703
5.6092696 4.4283705 -8.6499662
5.6314683 4.297699 -8.5794497
5.6536894 4.1658764 -8.5088606
5.6763968 4.0332294 -8.4367285
5.6993046 3.8995242 -8.3639603
5.7223978 3.7647359 -8.2906017
5.796308 3.6608257 -8.0558176
5.8198705 3.5225534 -7.9809704
5.8436437 3.3831627 -7.9054537
5.8675928 3.2426176 -7.8293762
5.8917398 3.1009159 -7.7526708
5.9161048 2.9580524 -7.6752739
5.9406533 2.8139937 -7.5972929
5.965425 2.6687427 -7.5186019
5.9903855 2.5222678 -7.4393125
6.0155749 2.3745692 -7.3592958
6.0409575 2.2256162 -7.278666
6.0665751 2.0754077 -7.1972899
6.092391 1.9239132 -7.115283
6.1184473 1.7711294 -7.0325117
6.1447077 1.617029 -6.9490943
6.1712146 1.461603 -6.8648925
6.1979303 1.3048272 -6.7800269
6.2248998 1.1466919 -6.6943569
6.2520833 0.98717129 -6.608005
6.2795267 0.82625318 -6.5208282
6.3071909 0.66391486 -6.4329505
6.3351212 0.50014126 -6.3442264
6.3632784 0.33490905 -6.2547817
6.3917089 0.16820318 -6.1644692
6.4203725 7.2788873e-07 -6.0734172
6.4492946 -0.16971815 -5.9815445
6.4785008 -0.34097412 -5.8887677
6.5079498 -0.51378524 -5.7952209
6.5376906 -0.68817794 -5.7007442
6.5676818 -0.86416888 -5.6054749
6.5979724 -1.0417854 -5.509254
6.6285205 -1.2210432 -5.4122152
6.6593761 -1.4019744 -5.314199
6.6904969 -1.5845913 -5.2153425
6.7219338 -1.768929 -5.1154809
6.753643 -1.9550012 -5.0147519
6.785677 -2.1428449 -4.9129915
6.8179922 -2.3324714 -4.8103399
6.8506413 -2.5239201 -4.7066259
6.8835797 -2.7172031 -4.6019945
6.916862 -2.9123631 -4.4962707
6.9504414 -3.1094091 -4.3896017
6.984375 -3.308388 -4.2818098
7.0186143 -3.5093076 -4.1730423
7.0532184 -3.7122197 -4.0631213
7.0881386 -3.9171288 -3.9521947
7.1234064 -4.1240768 -3.8401635
7.1590533 -4.3331113 -3.7269258
7.1950321 -4.5442305 -3.6126368
7.2314019 -4.7575011 -3.4971044
7.2681131 -4.9729195 -3.3804874
7.3052278 -5.1905565 -3.262589
7.3426943 -5.4104061 -3.143574
7.3805757 -5.632544 -3.0232387
7.4188213 -5.8569646 -2.9017477
7.4574947 -6.083746 -2.7788968
7.4965439 -6.3128796 -2.6548538
7.5360341 -6.5444503 -2.5294111
7.5759125 -6.7784476 -2.4027331
7.6162453 -7.0149622 -2.2746119
7.6569791 -7.2539792 -2.1452184
7.6981821 -7.4955974 -2.0143318
7.7397995 -7.739799 -1.8821304
7.7819014 -7.9866881 -1.7483901
7.8244314 -8.2362432 -1.6132894
7.8674612 -8.4885759 -1.4766005
7.910934 -8.7436647 -1.3385046
7.9548898 -9.001585 -1.1988751
7.9993711 -9.2624292 -1.0575763
8.0443172 -9.526166 -0.9147979
8.0898418 -9.7929678 -0.7701847
8.1358852 -10.062805 -0.62392461
8.182848 -10.336229 -0.47474203
6.9809809 5.548985 -4.8611999
5.7868285 4.451407 -8.5572748
5.809885 4.3201704 -8.4859114
5.8329134 4.1877322 -8.4146366
5.8564281 4.0544505 -8.341855
5.880187 3.9201252 -8.2683172
5.90414 3.7847052 -8.1941805
5.9805651 3.6803484 -7.9576321
6.0050068 3.5414147 -7.8819814
6.0296679 3.4013512 -7.8056512
6.0545135 3.2601225 -7.7287521
6.0795836 3.1177347 -7.6511555
6.1048431 2.974154 -7.5729742
6.1303325 2.8293843 -7.4940801
6.1560163 2.6833918 -7.4145856
6.1819363 2.5361791 -7.3343596
6.208055 2.3877132 -7.2535181
6.2343955 2.237988 -7.1719909
6.2609806 2.0869937 -7.089705
6.2877731 1.9346999 -7.0067792
6.314817 1.7811023 -6.9230752
6.342073 1.6261731 -6.8387136
6.3695865 1.4699049 -6.7535548
6.3973184 1.3122705 -6.6677203
6.4253149 1.1532617 -6.581068
6.4535351 0.99285156 -6.4937215
6.4820266 0.83102936 -6.4055357
6.5107489 0.66776955 -6.3166375
6.5397487 0.50305796 -6.2268786
6.5689859 0.33687171 -6.1363854
6.5985079 0.16919272 -6.0450096
6.6282735 -1.6052616e-07 -5.9528794
6.6583323 -0.17072667 -5.8598433
6.688642 -0.34300804 -5.7660308
6.7192521 -0.51686609 -5.6712885
6.7501197 -0.69231933 -5.5757494
6.7812963 -0.86939657 -5.4792523
6.8127379 -1.0481136 -5.3819361
6.8444729 -1.2284945 -5.2837119
6.8765297 -1.4105693 -5.1844931
6.9088626 -1.5943531 -5.0844159
6.9415269 -1.7798785 -4.9833164
6.9744754 -1.9671599 -4.8813357
7.0077643 -2.156235 -4.7783031
7.0413461 -2.3471155 -4.6743603
7.0752778 -2.5398426 -4.5693378
7.1095114 -2.7344277 -4.463378
7.144105 -2.9309151 -4.3563066
7.1790099 -3.1293113 -4.2482715
7.2142844 -3.3296702 -4.1390901
7.2498808 -3.5319932 -4.0289168
7.2858567 -3.7363362 -3.9175661
7.3221636 -3.9427037 -3.8051887
7.3588629 -4.1511536 -3.6915994
7.3959036 -4.3616872 -3.5769536
7.4333472 -4.574367 -3.461061
7.4711432 -4.7891946 -3.3440764
7.5093551 -5.0062366 -3.2258053
7.5479298 -5.2254891 -3.1064115
7.5869026 -5.4470062 -2.9857841
7.6263108 -5.6708465 -2.8638103
7.6660995 -5.8969994 -2.7406578
7.706337 -6.1255498 -2.616118
7.7469673 -6.3564863 -2.49036
7.7880602 -6.5898976 -2.3631706
7.8295593 -6.8257699 -2.234725
7.8715358 -7.0641985 -2.1048033
7.9139318 -7.3051682 -1.9735807
7.95682 -7.5487776 -1.8408366
8.0001421 -7.7950101 -1.7067479
8.043972 -8.043973 -1.5710869
8.0882511 -8.2956429 -1.4340358
8.1330557 -8.5501347 -1.2953626
8.1783228 -8.8074245 -1.1552514
8.2241325 -9.0676346 -1.0134631
8.2704229 -9.3307343 -0.87018687
8.3172741 -9.5968552 -0.72517776
8.3646212 -9.8659649 -0.57862943
8.412549 -10.1382 -0.43028814
8.0218601 6.2169409 -2.2602489
5.9662633 4.4746976 -8.4635592
5.990159 4.3428659 -8.3914471
6.0140276 4.2098193 -8.319418
6.0383825 4.0759077 -8.2459221
6.0630097 3.9409566 -8.1716022
6.0878386 3.8048992 -8.096673
6.1667986 3.7000792 -7.8583922
6.1921368 3.5604787 -7.7819262
6.2177038 3.4197376 -7.7047715
6.243463 3.2778182 -7.6270356
6.2694569 3.1347287 -7.5485935
6.2956471 2.990433 -7.4695554
6.3220782 2.8449354 -7.3897939
6.348711 2.6982028 -7.3094215
6.3755903 2.5502365 -7.2283058
6.4026775 2.4010041 -7.146564
6.430017 2.2505057 -7.0640607
6.4575691 2.0987105 -6.9809141
6.4853797 1.9456142 -6.8969874
6.5134096 1.791188 -6.8123994
6.5417047 1.6354262 -6.7270122
6.5702248 1.4783008 -6.640945
6.5989947 1.3197986 -6.5541248
6.6280394 1.1599075 -6.4664736
6.6573191 0.99859768 -6.3781157
6.6868806 0.83586031 -6.2889042
6.7166839 0.67166805 -6.198966
6.7467766 0.50600845 -6.1081538
6.7771168 0.33885613 -6.0165939
6.8077545 0.17019351 -5.9241352
6.8386469 1.8469339e-07 -5.8309097
6.8698449 -0.1717456 -5.7367611
6.9013047 -0.34506533 -5.6418219
6.9330783 -0.51998079 -5.545938
6.9651213 -0.69651109 -5.4492397
6.9974866 -0.87468576 -5.3515682
7.0301294 -1.0545197 -5.2530603
7.0631032 -1.2360429 -5.153553
7.0963621 -1.4192727 -5.0531855
7.1299615 -1.6042416 -4.9517899
7.1638551 -1.7909642 -4.8495083
7.1980977 -1.9794769 -4.7461705
7.2326436 -2.1697936 -4.6419187
7.2675223 -2.3619449 -4.5366626
7.3027663 -2.555968 -4.4303055
7.3383265 -2.7518728 -4.3229933
7.3742623 -2.9497051 -4.2145476
7.4105239 -3.149472 -4.1051197
7.4471712 -3.3512273 -3.9945238
7.4841552 -3.5549736 -3.8829157
7.5215373 -3.7607679 -3.7701073
7.5592651 -3.9686141 -3.6562517
7.597403 -4.1785717 -3.5411603
7.6358976 -4.3906412 -3.4249923
7.6748142 -4.6048889 -3.3075502
7.7140999 -4.8213124 -3.1889961
7.7538199 -5.0399828 -3.0691304
7.7939205 -5.2608967 -2.9481153
7.8344693 -5.4841275 -2.8257504
7.8754101 -5.709672 -2.7021995
7.9168134 -5.9376106 -2.5772538
7.9586225 -6.167933 -2.4510844
8.0009079 -6.4007263 -2.323478
8.0436115 -6.6359797 -2.1946073
8.0867739 -6.8737578 -2.0643535
8.130435 -7.114131 -1.9325931
8.1745367 -7.3570828 -1.799505
8.2191534 -7.6027179 -1.6648605
8.264226 -7.8510141 -1.528845
8.3098297 -8.1020842 -1.3912214
8.3559046 -8.3559046 -1.2521782
8.4025288 -8.6125917 -1.1114779
8.4496403 -8.8721228 -0.96930504
8.4973202 -9.1346188 -0.8254196
8.5455036 -9.400054 -0.68001425
8.5942736 -9.6685591 -0.53283578
8.6435661 -9.9401007 -0.38408339
8.6935034 -10.214867 -0.23338383
6.1475668 4.49822 -8.3689137
6.172338 4.3657999 -8.2959843
6.1970811 4.2321529 -8.223135
6.2222538 4.0975823 -8.149025
6.2477665 3.9619982 -8.0739107
6.2734895 3.8252988 -7.9981785
6.3550391 3.7200227 -7.7580829
6.3812923 3.5797486 -7.6807885
6.407783 3.4383235 -7.6027946
6.4344749 3.2957067 -7.5242105
6.461411 3.1519074 -7.4449067
6.4885516 3.0068901 -7.3649988
6.5159431 2.8606582 -7.2843542
6.5435452 2.7131774 -7.2030897
6.5714035 2.5644505 -7.121069
6.5994787 2.4144437 -7.0384121
6.6278167 2.2631571 -6.9549799
6.6563773 2.110559 -6.8708935
6.6852069 1.9566455 -6.786015
6.7142649 1.8013881 -6.7004623
6.7435989 1.64478 -6.6140981
6.7731681 1.4867933 -6.5270414
6.8030205 1.3274187 -6.4391518
6.8331141 1.1666287 -6.3505511
6.8634987 1.004415 -6.2610946
6.8941307 0.84074783 -6.1709075
6.9250617 0.67561626 -6.0798435
6.9562469 0.50899351 -5.988028
6.9877148 0.34086379 -5.8953819
7.0194926 0.17120734 -5.8018222
7.0515366 -2.187727e-08 -5.7074804
7.083899 -0.17277831 -5.6121988
7.1165347 -0.34714767 -5.5161142
7.149498 -0.52313411 -5.4190645
7.1827426 -0.70075536 -5.3211884
7.2163234 -0.88003868 -5.2223201
7.2501941 -1.0610039 -5.1225996
7.28441 -1.2436799 -5.0218625
7.318924 -1.428082 -4.920248
7.3537936 -1.6142468 -4.8175874
7.3889694 -1.8021873 -4.7140226
7.4245114 -1.991942 -4.6093812
7.4603691 -2.1835234 -4.5038099
7.4966025 -2.3769717 -4.3971324
7.5331621 -2.5722992 -4.2894959
7.5701079 -2.7695522 -4.1807222
7.607389 -2.9687371 -4.0709591
7.6450686 -3.1699066 -3.960026
7.6830935 -3.3730662 -3.848073
7.721499 -3.5782554 -3.735002
7.7603197 -3.7855217 -3.6207063
7.7995033 -3.994868 -3.5053442
7.8391147 -4.2063546 -3.3887215
7.8790998 -4.4199834 -3.2709985
7.9195256 -4.6358204 -3.1519775
7.9603376 -4.8538642 -3.0318217
8.0016041 -5.0741873 -2.9103274
8.0432682 -5.2967863 -2.7876608
8.0854006 -5.5217361 -2.6636159
8.127944 -5.7490339 -2.5383589
8.1709709 -5.9787598 -2.4116814
8.2144232 -6.2109056 -2.283752
8.2583723 -6.4455595 -2.154357
8.302762 -6.6827102 -2.0236704
8.3476648 -6.9224534 -1.8914683
8.3930206 -7.1647735 -1.7579329
8.4389076 -7.4097724 -1.6228327
8.4852638 -7.657433 -1.4863545
8.5321684 -7.9078627 -1.3482609
8.5795574 -8.1610422 -1.2087392
8.6275492 -8.4171209 -1.0674421
8.6760807 -8.6760817 -0.92455596
8.7251997 -8.9380102 -0.77994186
8.7748394 -9.2028799 -0.63379443
8.8250475 -9.4707832 -0.48597336
8.9026022 -9.7711496 -0.25763994
8.9549227 -10.046987 -0.10360127
6.3307867 4.5219908 -8.2732677
6.3564506 4.3889775 -8.1995077
6.3820677 4.2547121 -8.1258831
6.4081106 4.1194997 -8.0510349
6.4345264 3.9832785 -7.9751124
6.4611611 3.8459299 -7.8985629
6.54532 3.7401834 -7.6566863
6.5725274 3.5992415 -7.5784907
6.5999403 3.4571121 -7.4997029
6.6276045 3.3138025 -7.4201951
6.6554799 3.1692762 -7.3400774
6.6836128 3.0235395 -7.2592225
6.7119627 2.8765559 -7.1777439
6.7405539 2.7283199 -7.095571
6.769412 2.5788238 -7.01263
6.7984958 2.4280341 -6.9290419
6.8278532 2.2759509 -6.844667
6.8574424 2.1225421 -6.7596254
6.8873124 1.9678036 -6.6737776
6.9174204 1.8117052 -6.587244
6.9478159 1.6542424 -6.4998851
6.9784565 1.4953836 -6.4118218
7.0093927 1.3351227 -6.3229103
7.0405798 1.17343 -6.2332773
7.0720701 1.0102961 -6.1427722
7.1038189 0.84569317 -6.0515242
7.1358786 0.67960733 -5.9593825
7.1682043 0.51201433 -5.8664765
7.2008486 0.34289721 -5.7726531
7.233767 0.17223313 -5.6780438
7.2670135 9.8180874e-07 -5.5824928
7.3005409 -0.17382181 -5.4861321
7.3344049 -0.34925753 -5.3888049
7.3685584 -0.52632511 -5.2906461
7.4030318 -0.70504993 -5.1915669
7.4378557 -0.88545942 -5.0914803
7.4729819 -1.0675693 -4.9905252
7.5084686 -1.2514114 -4.888535
7.5442667 -1.4370031 -4.7856493
7.5804353 -1.6243793 -4.6816983
7.6169243 -1.8135527 -4.576827
7.6537943 -2.0045645 -4.4708591
7.6909947 -2.1974277 -4.3639421
7.7285872 -2.3921816 -4.2558985
