# .PCD v0.7 - Point Cloud Data file format
VERSION 0.7
FIELDS x y z
SIZE 4 4 4
TYPE F F F
COUNT 1 1 1
WIDTH 1476
HEIGHT 1
VIEWPOINT 0 0 0 1 0 0 0
POINTS 1476
DATA ascii
-3.8049777 -6.1830897 -7.330792
-3.8049777 -6.3416295 -7.3307929
-3.8049777 -6.5001712 -7.3307924
-3.8049777 -6.6587105 -7.3307924
-3.8049898 -6.8172736 -7.3307309
-3.8050387 -6.9759049 -7.3304849
-3.8050876 -7.1345396 -7.3302383
-3.8050754 -7.2930613 -7.3303003
-3.805002 -7.4514623 -7.3306704
-3.8049166 -7.6098323 -7.3311009
-3.8047819 -7.7680969 -7.3317766
-3.6253195 7.8811293 -7.4416232
-3.6253195 7.7235065 -7.4416242
-3.6253078 7.5658598 -7.4416852
-3.6252961 7.4082141 -7.4417453
-3.6252844 7.2505693 -7.4418073
-3.6252728 7.0929255 -7.4418669
-3.6252615 6.9352832 -7.4419279
-3.6252499 6.7776413 -7.4419885
-3.6252382 6.6200008 -7.4420495
-3.6252382 6.4623818 -7.44205
-3.6252265 6.3047423 -7.4421105
-3.6252151 6.1471043 -7.4421706
-3.6252036 5.9894662 -7.4422321
-3.6251919 5.831831 -7.4422932
-3.6251802 5.6741953 -7.4423532
-3.6251802 5.5165787 -7.4423537
-3.6251802 5.3589625 -7.4423537
-3.6251802 5.2013454 -7.4423537
-3.6251802 5.0437293 -7.4423528
-3.6251802 4.8861127 -7.4423542
-3.6251802 4.728497 -7.4423537
-3.6251802 4.5708795 -7.4423532
-3.6251802 4.4132628 -7.4423547
-3.6251802 4.2556467 -7.4423532
-3.6251802 4.0980296 -7.4423537
-3.6251802 3.9404137 -7.4423537
-3.6251802 3.7827969 -7.4423537
-3.6251802 3.625181 -7.4423537
-3.6251802 3.4675639 -7.4423542
-3.6251802 3.3099475 -7.4423528
-3.6251802 3.1523311 -7.4423542
-3.6251802 2.994714 -7.4423542
-3.6251802 2.8370979 -7.4423532
-3.6251802 2.679481 -7.4423542
-3.6251802 2.5218649 -7.4423532
-3.6251802 2.3642478 -7.4423532
-3.6251802 2.2066321 -7.4423537
-3.6251802 2.049015 -7.4423532
-3.6251802 1.8913993 -7.4423537
-3.6251802 1.7337822 -7.4423537
-3.6251802 1.576165 -7.4423532
-3.6251802 1.4185492 -7.4423537
-3.6251802 1.2609321 -7.4423537
-3.6251802 1.1033158 -7.4423532
-3.6251802 0.94569921 -7.4423537
-3.6251802 0.7880829 -7.4423532
-3.6251802 0.63046581 -7.4423532
-3.6251802 0.47284922 -7.4423537
-3.6251802 0.31523311 -7.4423532
-3.6251802 0.15761657 -7.4423542
-3.6251802 4.7264925e-07 -7.4423537
-3.6251802 -0.15761684 -7.4423537
-3.6251919 -0.31523409 -7.4422927
-3.6252499 -0.47285888 -7.4419889
-3.6253078 -0.63048863 -7.4416842
-3.6253541 -0.78812039 -7.4414411
-3.6253541 -0.94574493 -7.4414415
-3.6253541 -1.1033688 -7.4414406
-3.6253541 -1.2609926 -7.4414415
-3.6253541 -1.4186168 -7.441442
-3.6253541 -1.576241 -7.4414411
-3.6253541 -1.7338651 -7.4414415
-3.6253541 -1.8914891 -7.4414411
-3.6253541 -2.0491133 -7.4414415
-3.6253541 -2.206737 -7.4414415
-3.6253541 -2.3643615 -7.4414411
-3.6253541 -2.5219855 -7.4414415
-3.6253541 -2.6796098 -7.4414411
-3.6253541 -2.8372338 -7.4414415
-3.6253541 -2.994858 -7.4414406
-3.6253541 -3.1524816 -7.441442
-3.6253541 -3.3101058 -7.4414415
-3.6253541 -3.4677303 -7.4414411
-3.6253541 -3.6253541 -7.441442
-3.6253541 -3.7829781 -7.4414415
-3.6253541 -3.9406021 -7.4414411
-3.6253541 -4.098227 -7.4414406
-3.6253541 -4.2558503 -7.4414415
-3.6253541 -4.4134746 -7.4414411
-3.6253541 -4.5710993 -7.4414406
-3.6253541 -4.7287226 -7.441442
-3.6253541 -4.8863463 -7.4414411
-3.6253541 -5.0439715 -7.4414406
-3.6253541 -5.2015948 -7.441442
-3.6253541 -5.3592186 -7.4414415
-3.6253541 -5.5168428 -7.4414406
-3.6253541 -5.6744671 -7.441442
-3.6253541 -5.8320913 -7.4414415
-3.6253541 -5.9897156 -7.4414406
-3.6253541 -6.1473403 -7.4414406
-3.6253541 -6.3049636 -7.441442
-3.6253424 -6.4625664 -7.4415026
-3.6253424 -6.6201906 -7.4415016
-3.6253541 -6.7778358 -7.441442
-3.6253889 -6.9355268 -7.4412589
-3.6254351 -7.0932422 -7.4410162
-3.6254585 -7.2509165 -7.4408946
-3.6253889 -7.4084034 -7.4412594
-3.6253078 -7.5658598 -7.4416842
-3.6252499 -7.7233582 -7.4419889
-3.4477518 7.8358006 -7.5510588
-3.4477408 7.6790595 -7.5511189
-3.4477301 7.5223203 -7.5511789
-3.4477189 7.3655815 -7.5512385
-3.4477081 7.2088447 -7.5512991
-3.4476969 7.0521073 -7.5513587
-3.4476862 6.8953729 -7.5514193
-3.4476862 6.7386599 -7.5514193
-3.447675 6.5819254 -7.5514798
-3.4476643 6.4251928 -7.5515389
-3.4476531 6.2684612 -7.5516
-3.4476423 6.1117306 -7.5516601
-3.4476314 5.954999 -7.5517197
-3.4476204 5.7982707 -7.5517797
-3.4476204 5.641561 -7.5517797
-3.4476204 5.4848504 -7.5517797
-3.4476204 5.3281407 -7.5517797
-3.4476204 5.1714306 -7.5517793
-3.4476204 5.0147204 -7.5517797
-3.4476204 4.8580108 -7.5517797
-3.4476204 4.7013006 -7.5517793
-3.4476204 4.5445905 -7.5517797
-3.4476204 4.3878803 -7.5517793
-3.4476204 4.2311707 -7.5517793
-3.4476204 4.074461 -7.5517807
-3.4476204 3.9177508 -7.5517797
-3.4476204 3.7610404 -7.5517807
-3.4476204 3.6043305 -7.5517797
-3.4476204 3.4476209 -7.5517802
-3.4476204 3.2909105 -7.5517807
-3.4476204 3.1342006 -7.5517797
-3.4476204 2.9774907 -7.5517797
-3.4476204 2.82078 -7.5517797
-3.4476204 2.6640704 -7.5517802
-3.4476204 2.5073607 -7.5517797
-3.4476204 2.3506501 -7.5517802
-3.4476204 2.1939404 -7.5517797
-3.4476204 2.0372305 -7.5517793
-3.4476204 1.8805199 -7.5517797
-3.4476204 1.7238104 -7.5517797
-3.4476204 1.5671005 -7.5517797
-3.4476204 1.4103899 -7.5517797
-3.4476204 1.25368 -7.5517797
-3.4476204 1.0969703 -7.5517793
-3.4476204 0.94025981 -7.5517793
-3.4476204 0.78355014 -7.5517797
-3.4476204 0.62684041 -7.5517793
-3.4476204 0.4701297 -7.5517797
-3.4476204 0.31342047 -7.5517802
-3.4476204 0.15670975 -7.5517802
-3.4476204 2.7942519e-08 -7.5517797
-3.4476204 -0.15670943 -7.5517802
-3.4476204 -0.31341997 -7.5517802
-3.4476204 -0.47013009 -7.5517802
-3.447675 -0.62685019 -7.5514789
-3.4477301 -0.783575 -7.5511785
-3.4477849 -0.94030535 -7.550878
-3.4477849 -1.0970221 -7.5508785
-3.4477849 -1.2537394 -7.5508776
-3.4477849 -1.4104575 -7.550878
-3.4477849 -1.5671747 -7.5508785
-3.4477849 -1.7238923 -7.550878
-3.4477849 -1.8806101 -7.550878
-3.4477849 -2.0373268 -7.550878
-3.4477849 -2.1940446 -7.5508785
-3.4477849 -2.3507624 -7.550878
-3.4477849 -2.5074799 -7.5508785
-3.4477849 -2.664197 -7.550878
-3.4477849 -2.820915 -7.550878
-3.4477849 -2.977632 -7.550878
-3.4477849 -3.1343496 -7.550878
-3.4477849 -3.2910666 -7.5508785
-3.4477849 -3.4477851 -7.5508776
-3.4477849 -3.6045022 -7.550878
-3.4477849 -3.7612193 -7.5508785
-3.4477849 -3.9179375 -7.5508771
-3.4477849 -4.0746546 -7.5508785
-3.4477849 -4.2313714 -7.5508785
-3.4477849 -4.3880901 -7.5508776
-3.4477849 -4.544807 -7.550878
-3.4477849 -4.7015243 -7.550879
-3.4477849 -4.8582425 -7.5508776
-3.4477849 -5.0149593 -7.550878
-3.4477849 -5.1716766 -7.5508785
-3.4477849 -5.3283944 -7.5508771
-3.4477849 -5.4851117 -7.550878
-3.4477849 -5.641829 -7.5508785
-3.4477849 -5.7985477 -7.5508776
-3.4477849 -5.9552641 -7.550878
-3.4477849 -6.1119819 -7.550879
-3.4477849 -6.2687001 -7.5508776
-3.4477849 -6.4254169 -7.550878
-3.4477849 -6.5821342 -7.550879
-3.4477737 -6.7388301 -7.5509386
-3.4478176 -6.8956351 -7.5506973
-3.4478614 -7.0524449 -7.550457
-3.4478943 -7.2092342 -7.5502758
-3.4478395 -7.3658385 -7.5505772
-3.447763 -7.5223913 -7.5509987
-3.4476969 -7.6789622 -7.5513587
-3.2722049 7.7909641 -7.6593008
-3.2721946 7.6351209 -7.6593609
-3.2721844 7.479279 -7.65942
-3.2721741 7.3234367 -7.6594796
-3.2721636 7.1675968 -7.6595387
-3.2721636 7.0117798 -7.6595387
-3.2721534 6.8559399 -7.6595979
-3.2721429 6.7001023 -7.6596575
-3.2721326 6.5442653 -7.6597171
-3.2721221 6.3884296 -7.6597757
-3.2721119 6.232595 -7.6598353
-3.2721016 6.0767598 -7.6598949
-3.2720914 5.9209275 -7.6599545
-3.2720809 5.7650948 -7.6600137
-3.2720809 5.6092815 -7.6600137
-3.2720809 5.4534683 -7.6600137
-3.2720809 5.2976551 -7.6600137
-3.2720809 5.1418419 -7.6600137
-3.2720809 4.9860282 -7.6600132
-3.2720809 4.830215 -7.6600132
-3.2720809 4.6744022 -7.6600142
-3.2720809 4.5185881 -7.6600146
-3.2720809 4.3627744 -7.6600146
-3.2720809 4.2069607 -7.6600137
-3.2720809 4.0511475 -7.6600137
-3.2720809 3.8953342 -7.6600137
-3.2720809 3.739521 -7.6600137
-3.2720809 3.5837078 -7.6600137
-3.2720809 3.4278951 -7.6600146
-3.2720809 3.2720811 -7.6600137
-3.2720809 3.1162679 -7.6600137
-3.2720809 2.9604547 -7.6600142
-3.2720809 2.8046415 -7.6600142
-3.2720809 2.6488283 -7.6600142
-3.2720809 2.4930136 -7.6600137
-3.2720809 2.3372002 -7.6600137
-3.2720809 2.1813872 -7.6600142
-3.2720809 2.025574 -7.6600142
-3.2720809 1.8697606 -7.6600142
-3.2720809 1.7139469 -7.6600132
-3.2720809 1.5581336 -7.6600137
-3.2720809 1.4023206 -7.6600137
-3.2720809 1.2465074 -7.6600137
-3.2720809 1.0906941 -7.6600142
-3.2720809 0.93488085 -7.6600142
-3.2720809 0.77906716 -7.6600132
-3.2720809 0.62325323 -7.6600142
-3.2720809 0.46744001 -7.6600142
-3.2720809 0.31162661 -7.6600142
-3.2720809 0.15581341 -7.6600142
-3.2720809 -2.8542581e-07 -7.6600132
-3.2720809 -0.15581323 -7.6600137
-3.2720809 -0.31162682 -7.6600142
-3.2720809 -0.46744004 -7.6600142
-3.2720809 -0.62325323 -7.6600142
-3.2721326 -0.7790789 -7.6597161
-3.2721844 -0.93490958 -7.6594205
-3.2722359 -1.0907456 -7.659122
-3.2722464 -1.2465699 -7.6590633
-3.2722464 -1.402391 -7.6590633
-3.2722464 -1.558213 -7.6590624
-3.2722464 -1.714034 -7.6590629
-3.2722464 -1.869855 -7.6590624
-3.2722464 -2.0256763 -7.6590629
-3.2722464 -2.1814976 -7.6590629
-3.2722464 -2.3373189 -7.6590629
-3.2722464 -2.49314 -7.6590633
-3.2722464 -2.6489611 -7.6590629
-3.2722464 -2.8047826 -7.6590633
-3.2722464 -2.9606035 -7.6590633
-3.2722464 -3.1164255 -7.6590629
-3.2722464 -3.2722466 -7.6590624
-3.2722464 -3.4280679 -7.6590629
-3.2722464 -3.5838881 -7.6590633
-3.2722464 -3.7397101 -7.6590629
-3.2722464 -3.8955319 -7.6590624
-3.2722464 -4.0513525 -7.6590629
-3.2722464 -4.2071748 -7.6590624
-3.2722464 -4.3629951 -7.6590633
-3.2722464 -4.5188165 -7.6590624
-3.2722464 -4.6746373 -7.6590638
-3.2722464 -4.8304591 -7.6590629
-3.2722464 -4.9862795 -7.6590633
-3.2722464 -5.1421018 -7.6590629
-3.2722464 -5.2979236 -7.6590624
-3.2722464 -5.4537439 -7.6590633
-3.2722464 -5.6095657 -7.6590624
-3.2722464 -5.7653861 -7.6590629
-3.2722464 -5.9212074 -7.6590624
-3.2722464 -6.0770288 -7.6590638
-3.2722464 -6.2328506 -7.6590629
-3.2722464 -6.3886709 -7.6590633
-3.2722464 -6.5444927 -7.6590629
-3.2722464 -6.700314 -7.6590619
-3.2722671 -6.8561792 -7.6589437
-3.2723083 -7.0120897 -7.6587067
-3.2723498 -7.1680036 -7.6584692
-3.2723083 -7.3237376 -7.6587052
-3.2722464 -7.4794197 -7.6590629
-3.2721844 -7.6350961 -7.65942
-3.0986555 7.7466393 -7.7663112
-3.0986459 7.5916829 -7.7663698
-3.0986362 7.436727 -7.7664299
-3.0986362 7.2817945 -7.7664289
-3.0986264 7.1268406 -7.7664876
-3.0986166 6.9718881 -7.7665467
-3.0986068 6.8169351 -7.7666059
-3.098597 6.661984 -7.766665
-3.0985875 6.5070338 -7.7667236
-3.0985777 6.3520842 -7.7667818
-3.098568 6.1971364 -7.76684
-3.0985582 6.0421886 -7.7668991
-3.0985484 5.8872418 -7.7669578
-3.0985484 5.7323151 -7.7669573
-3.0985484 5.5773873 -7.7669582
-3.0985484 5.4224601 -7.7669578
-3.0985484 5.2675328 -7.7669573
-3.0985484 5.1126051 -7.7669582
-3.0985484 4.9576778 -7.7669578
-3.0985484 4.8027496 -7.7669578
-3.0985484 4.6478229 -7.7669573
-3.0985484 4.4928961 -7.7669578
-3.0985484 4.3379679 -7.7669578
-3.0985484 4.1830406 -7.7669573
-3.0985484 4.0281129 -7.7669578
-3.0985484 3.8731863 -7.7669582
-3.0985484 3.7182581 -7.7669582
-3.0985484 3.5633309 -7.7669578
-3.0985484 3.4084036 -7.7669573
-3.0985484 3.2534761 -7.7669582
-3.0985484 3.0985489 -7.7669578
-3.0985484 2.9436207 -7.7669578
-3.0985484 2.7886937 -7.7669573
-3.0985484 2.6337669 -7.7669578
-3.0985484 2.4788387 -7.7669578
-3.0985484 2.3239117 -7.7669573
-3.0985484 2.1689839 -7.7669582
-3.0985484 2.0140567 -7.7669578
-3.0985484 1.8591295 -7.7669573
-3.0985484 1.7042013 -7.7669573
-3.0985484 1.5492748 -7.7669582
-3.0985484 1.3943467 -7.7669582
-3.0985484 1.2394196 -7.7669578
-3.0985484 1.0844915 -7.7669578
-3.0985484 0.92956477 -7.7669582
-3.0985484 0.77463752 -7.7669578
-3.0985484 0.61970949 -7.7669578
-3.0985484 0.46478224 -7.7669573
-3.0985484 0.30985448 -7.7669582
-3.0985484 0.15492725 -7.7669578
-3.0985484 2.6923394e-07 -7.7669578
-3.0985484 -0.15492727 -7.7669582
-3.0985484 -0.30985451 -7.7669578
-3.0985484 -0.46478257 -7.7669578
-3.0985484 -0.61970979 -7.7669573
-3.0985484 -0.77463651 -7.7669578
-3.0985875 -0.92957592 -7.7667227
-3.0986362 -1.0845224 -7.7664289
-3.0986848 -1.2394738 -7.7661352
-3.0987041 -1.3944168 -7.7660179
-3.0987041 -1.5493524 -7.7660174
-3.0987041 -1.7042876 -7.7660174
-3.0987041 -1.8592223 -7.7660179
-3.0987041 -2.014158 -7.7660174
-3.0987041 -2.1690927 -7.7660184
-3.0987041 -2.324028 -7.7660174
-3.0987041 -2.4789639 -7.7660174
-3.0987041 -2.6338985 -7.7660179
-3.0987041 -2.7888336 -7.766017
-3.0987041 -2.943769 -7.7660184
-3.0987041 -3.0987041 -7.7660174
-3.0987041 -3.2536397 -7.7660174
-3.0987041 -3.4085746 -7.7660179
-3.0987041 -3.5635097 -7.7660174
-3.0987041 -3.7184448 -7.7660179
-3.0987041 -3.8733809 -7.766017
-3.0987041 -4.028316 -7.7660174
-3.0987041 -4.1832504 -7.7660179
-3.0987041 -4.3381853 -7.7660184
-3.0987041 -4.4931216 -7.766017
-3.0987041 -4.6480565 -7.7660179
-3.0987041 -4.8029914 -7.7660184
-3.0987041 -4.9579277 -7.7660174
-3.0987041 -5.1128626 -7.7660179
-3.0987041 -5.2677965 -7.7660179
-3.0987041 -5.4227328 -7.7660165
-3.0987041 -5.5776677 -7.7660174
-3.0987041 -5.7326026 -7.7660179
-3.0987041 -5.8875375 -7.7660184
-3.0987041 -6.0424738 -7.7660174
-3.0987041 -6.1974087 -7.7660179
-3.0987041 -6.3523436 -7.7660184
-3.0987041 -6.5072789 -7.766017
-3.0987041 -6.6622138 -7.7660174
-3.0987236 -6.8171926 -7.7659006
-3.098753 -6.9721942 -7.7657237
-3.0987918 -7.1272216 -7.7654881
-3.0987821 -7.2821383 -7.7655473
-3.0987236 -7.4369364 -7.7659006
-3.0986652 -7.5917306 -7.7662516
-2.927079 7.7028399 -7.8720531
-2.9270697 7.5487595 -7.8721113
-2.9270606 7.39468 -7.87217
-2.9270515 7.2406011 -7.8722281
-2.9270422 7.0865235 -7.8722854
-2.9270332 6.932447 -7.8723435
-2.9270241 6.7783718 -7.8724027
-2.9270151 6.6242976 -7.8724604
-2.9270058 6.4702229 -7.8725181
-2.9269965 6.3161507 -7.8725753
-2.9269876 6.1620798 -7.8726344
-2.9269876 6.0080266 -7.8726339
-2.9269783 5.8539572 -7.8726921
-2.9269693 5.6998878 -7.8727498
-2.9269693 5.5458364 -7.8727508
-2.9269693 5.3917856 -7.8727503
-2.9269693 5.2377343 -7.8727508
-2.9269693 5.0836835 -7.8727503
-2.9269693 4.9296331 -7.8727503
-2.9269693 4.7755814 -7.8727503
-2.9269693 4.621531 -7.8727508
-2.9269693 4.4674792 -7.8727508
-2.9269693 4.3134289 -7.8727508
-2.9269693 4.1593781 -7.8727503
-2.9269693 4.0053267 -7.8727512
-2.9269693 3.8512757 -7.8727503
-2.9269693 3.6972244 -7.8727512
-2.9269693 3.5431736 -7.8727508
-2.9269693 3.3891222 -7.8727512
-2.9269693 3.2350714 -7.8727508
-2.9269693 3.0810211 -7.8727508
-2.9269693 2.9269693 -7.8727508
-2.9269693 2.772918 -7.8727493
-2.9269693 2.6188667 -7.8727503
-2.9269693 2.4648161 -7.8727503
-2.9269693 2.3107653 -7.8727498
-2.9269693 2.156714 -7.8727503
-2.9269693 2.0026634 -7.8727503
-2.9269693 1.8486118 -7.8727503
-2.9269693 1.6945612 -7.8727503
-2.9269693 1.5405107 -7.8727498
-2.9269693 1.3864588 -7.8727503
-2.9269693 1.232408 -7.8727498
-2.9269693 1.0783566 -7.8727503
-2.9269693 0.92430598 -7.8727498
-2.9269693 0.77025455 -7.8727503
-2.9269693 0.6162039 -7.8727503
-2.9269693 0.46215329 -7.8727498
-2.9269693 0.30810165 -7.8727503
-2.9269693 0.15405123 -7.8727503
-2.9269693 -4.1719906e-07 -7.8727503
-2.9269693 -0.15405084 -7.8727503
-2.9269693 -0.30810168 -7.8727503
-2.9269693 -0.46215332 -7.8727508
-2.9269693 -0.61620373 -7.8727503
-2.9269693 -0.77025539 -7.8727508
-2.9269693 -0.9243058 -7.8727503
-2.9270151 -1.0783737 -7.8724599
-2.9270515 -1.2324431 -7.8722272
-2.9270973 -1.3865198 -7.8719378
-2.9271247 -1.5405917 -7.8717632
-2.9271247 -1.6946509 -7.8717632
-2.9271247 -1.8487101 -7.8717632
-2.9271247 -2.0027692 -7.8717632
-2.9271247 -2.1568289 -7.8717623
-2.9271247 -2.3108881 -7.8717623
-2.9271247 -2.4649472 -7.8717623
-2.9271247 -2.6190064 -7.8717628
-2.9271247 -2.7730656 -7.8717628
-2.9271247 -2.9271247 -7.8717628
-2.9271247 -3.0811839 -7.8717628
-2.9271247 -3.2352428 -7.8717632
-2.9271247 -3.389302 -7.8717632
-2.9271247 -3.5433612 -7.8717632
-2.9271247 -3.6974208 -7.8717623
-2.9271247 -3.8514795 -7.8717632
-2.9271247 -4.0055394 -7.8717628
-2.9271247 -4.1595979 -7.8717632
-2.9271247 -4.3136578 -7.8717628
-2.9271247 -4.4677162 -7.8717637
-2.9271247 -4.6217756 -7.8717628
-2.9271247 -4.7758355 -7.8717618
-2.9271247 -4.929894 -7.8717628
-2.9271247 -5.0839539 -7.8717623
-2.9271247 -5.2380123 -7.8717628
-2.9271247 -5.3920722 -7.8717623
-2.9271247 -5.5461307 -7.8717632
-2.9271247 -5.7001905 -7.8717623
-2.9271247 -5.8542485 -7.8717632
-2.9271247 -6.0083089 -7.8717628
-2.9271247 -6.1623669 -7.8717632
-2.9271247 -6.3164272 -7.8717628
-2.9271247 -6.4704866 -7.8717618
-2.9271247 -6.6245456 -7.8717632
-2.9271338 -6.7786255 -7.8717051
-2.9271703 -6.9327722 -7.8714719
-2.927207 -7.0869231 -7.8712392
-2.9272161 -7.2410078 -7.871182
-2.9271612 -7.3949332 -7.8715305
-2.9271061 -7.5488539 -7.8718786
-2.7574229 7.6595082 -7.9766645
-2.7574146 7.5062947 -7.9767213
-2.7574058 7.3530822 -7.976778
-2.7573972 7.1998706 -7.9768362
-2.7573888 7.0466604 -7.9768934
-2.75738 6.8934503 -7.9769506
-2.7573717 6.7402411 -7.9770083
-2.7573628 6.5870342 -7.9770656
-2.7573545 6.4338274 -7.9771233
-2.7573545 6.2806406 -7.9771233
-2.7573459 6.1274352 -7.977181
-2.7573373 5.9742312 -7.9772387
-2.7573287 5.8210273 -7.9772954
-2.7573287 5.6678419 -7.9772954
-2.7573287 5.514658 -7.9772954
-2.7573287 5.3614726 -7.9772954
-2.7573287 5.2082877 -7.9772959
-2.7573287 5.0551023 -7.9772959
-2.7573287 4.9019184 -7.9772954
-2.7573287 4.7487326 -7.9772949
-2.7573287 4.5955482 -7.9772959
-2.7573287 4.4423633 -7.9772949
-2.7573287 4.2891784 -7.9772949
-2.7573287 4.135993 -7.9772954
-2.7573287 3.9828079 -7.9772954
-2.7573287 3.8296242 -7.9772959
-2.7573287 3.6764386 -7.9772954
-2.7573287 3.5232534 -7.9772959
-2.7573287 3.3700678 -7.9772954
-2.7573287 3.2168841 -7.9772959
-2.7573287 3.0636985 -7.9772949
-2.7573287 2.9105139 -7.9772964
-2.7573287 2.757329 -7.9772949
-2.7573287 2.6041441 -7.9772954
-2.7573287 2.450959 -7.9772954
-2.7573287 2.2977738 -7.9772959
-2.7573287 2.1445899 -7.9772959
-2.7573287 1.9914042 -7.9772949
-2.7573287 1.8382193 -7.9772959
-2.7573287 1.6850339 -7.9772959
-2.7573287 1.5318496 -7.9772954
-2.7573287 1.3786641 -7.9772954
-2.7573287 1.2254795 -7.9772959
-2.7573287 1.0722947 -7.9772949
-2.7573287 0.91910976 -7.9772954
-2.7573287 0.76592487 -7.9772959
-2.7573287 0.61273921 -7.9772954
-2.7573287 0.45955536 -7.9772954
-2.7573287 0.30636996 -7.9772954
-2.7573287 0.1531848 -7.9772954
-2.7573287 -5.939803e-07 -7.9772954
-2.7573287 -0.15318468 -7.9772954
-2.7573287 -0.30637032 -7.9772949
-2.7573287 -0.45955521 -7.9772954
-2.7573287 -0.61273891 -7.9772954
-2.7573287 -0.76592427 -7.9772954
-2.7573287 -0.91910946 -7.9772954
-2.7573287 -1.0722945 -7.9772954
-2.7573628 -1.225495 -7.9770656
-2.7573972 -1.3786982 -7.9768362
-2.7574401 -1.5319117 -7.9765482
-2.7574744 -1.6851231 -7.9763193
-2.7574744 -1.8383164 -7.9763188
-2.7574744 -1.9915088 -7.9763193
-2.7574744 -2.1447029 -7.9763188
-2.7574744 -2.2978952 -7.9763188
-2.7574744 -2.4510887 -7.9763188
-2.7574744 -2.6042809 -7.9763188
-2.7574744 -2.7574747 -7.9763188
-2.7574744 -2.9106672 -7.9763193
-2.7574744 -3.0638607 -7.9763184
-2.7574744 -3.2170537 -7.9763188
-2.7574744 -3.3702459 -7.9763193
-2.7574744 -3.5234394 -7.9763188
-2.7574744 -3.6766322 -7.9763193
-2.7574744 -3.8298249 -7.9763198
-2.7574744 -3.9830186 -7.9763179
-2.7574744 -4.1362119 -7.9763188
-2.7574744 -4.2894044 -7.9763193
-2.7574744 -4.4425974 -7.9763198
-2.7574744 -4.5957913 -7.9763184
-2.7574744 -4.7489839 -7.9763188
-2.7574744 -4.9021769 -7.9763193
-2.7574744 -5.0553699 -7.9763198
-2.7574744 -5.2085629 -7.9763179
-2.7574744 -5.3617563 -7.9763188
-2.7574744 -5.5149484 -7.9763188
-2.7574744 -5.6681414 -7.9763193
-2.7574744 -5.8213344 -7.9763198
-2.7574744 -5.9745283 -7.9763184
-2.7574744 -6.1277213 -7.9763188
-2.7574744 -6.2809138 -7.9763193
-2.7574744 -6.4341068 -7.9763198
-2.7574744 -6.5873008 -7.9763184
-2.7574744 -6.7404928 -7.9763184
-2.7575085 -6.8937716 -7.976089
-2.7575428 -7.0470543 -7.9758587
-2.7575769 -7.2003407 -7.9756289
-2.7575257 -7.3534026 -7.9759731
-2.7574658 -7.506434 -7.9763761
-2.5896649 7.6166625 -8.0801039
-2.5896571 7.4643068 -8.0801611
-2.5896492 7.3119512 -8.0802174
-2.5896409 7.1595964 -8.0802746
-2.589633 7.0072427 -8.0803299
-2.5896251 6.8548899 -8.0803881
-2.5896173 6.7025385 -8.0804443
-2.5896173 6.5502086 -8.0804443
-2.5896089 6.3978581 -8.0805016
-2.589601 6.2455087 -8.0805578
-2.5895932 6.0931597 -8.0806141
-2.5895853 5.9408131 -8.0806713
-2.589577 5.7884669 -8.0807285
-2.589577 5.6361384 -8.0807285
-2.589577 5.4838104 -8.0807276
-2.589577 5.3314824 -8.0807285
-2.589577 5.1791539 -8.0807276
-2.589577 5.0268259 -8.0807285
-2.589577 4.8744979 -8.0807285
-2.589577 4.7221708 -8.0807285
-2.589577 4.5698419 -8.0807285
-2.589577 4.4175143 -8.0807285
-2.589577 4.2651863 -8.0807285
-2.589577 4.1128578 -8.0807276
-2.589577 3.9605296 -8.0807285
-2.589577 3.8082018 -8.0807285
-2.589577 3.6558735 -8.0807295
-2.589577 3.5035455 -8.0807276
-2.589577 3.3512173 -8.0807285
-2.589577 3.1988895 -8.0807285
-2.589577 3.0465617 -8.0807276
-2.589577 2.8942335 -8.0807285
-2.589577 2.7419057 -8.0807285
-2.589577 2.5895774 -8.0807285
-2.589577 2.4372492 -8.0807276
-2.589577 2.2849209 -8.0807285
-2.589577 2.1325929 -8.0807276
-2.589577 1.9802648 -8.0807285
-2.589577 1.8279366 -8.0807276
-2.589577 1.6756084 -8.0807285
-2.589577 1.5232805 -8.0807276
-2.589577 1.3709531 -8.0807285
-2.589577 1.2186248 -8.0807285
-2.589577 1.0662967 -8.0807276
-2.589577 0.9139685 -8.0807285
-2.589577 0.76164055 -8.0807276
-2.589577 0.60931236 -8.0807285
-2.589577 0.45698422 -8.0807276
-2.589577 0.304656 -8.0807285
-2.589577 0.15232787 -8.0807276
-2.589577 -5.928091e-07 -8.0807285
-2.589577 -0.15232809 -8.0807276
-2.589577 -0.30465573 -8.0807276
-2.589577 -0.45698392 -8.0807285
-2.589577 -0.60931206 -8.0807276
-2.589577 -0.76164025 -8.0807285
-2.589577 -0.91396803 -8.0807276
-2.589577 -1.0662961 -8.0807285
-2.589577 -1.2186244 -8.0807276
-2.5896089 -1.3709692 -8.0805016
-2.5896492 -1.5233229 -8.0802174
-2.5896811 -1.6756757 -8.0799904
-2.589721 -1.8280382 -8.0797062
-2.589721 -1.9803751 -8.0797062
-2.589721 -2.1327116 -8.0797052
-2.589721 -2.285048 -8.0797062
-2.589721 -2.4373844 -8.0797062
-2.589721 -2.5897212 -8.0797052
-2.589721 -2.7420573 -8.0797062
-2.589721 -2.8943942 -8.0797062
-2.589721 -3.0467308 -8.0797052
-2.589721 -3.1990674 -8.0797062
-2.589721 -3.3514035 -8.0797062
-2.589721 -3.5037403 -8.0797052
-2.589721 -3.6560762 -8.0797062
-2.589721 -3.8084135 -8.0797062
-2.589721 -3.9607496 -8.0797052
-2.589721 -4.1130867 -8.0797052
-2.589721 -4.2654233 -8.0797062
-2.589721 -4.4177589 -8.0797062
-2.589721 -4.570096 -8.0797052
-2.589721 -4.7224326 -8.0797062
-2.589721 -4.8747687 -8.0797062
-2.589721 -5.0271063 -8.0797052
-2.589721 -5.1794424 -8.0797062
-2.589721 -5.3317785 -8.0797062
-2.589721 -5.4841161 -8.0797052
-2.589721 -5.6364512 -8.0797052
-2.589721 -5.7887883 -8.0797071
-2.589721 -5.9411249 -8.0797052
-2.589721 -6.093461 -8.0797052
-2.589721 -6.2457972 -8.0797062
-2.589721 -6.3981347 -8.0797052
-2.589721 -6.5504708 -8.0797062
-2.589721 -6.7028069 -8.0797062
-2.5897532 -6.8552284 -8.0794783
-2.5897772 -7.0076327 -8.0793076
-2.5898092 -7.1600599 -8.0790806
-2.5897851 -7.3123336 -8.0792522
-2.5897291 -7.4645138 -8.079648
-2.4237735 7.5742927 -8.1823931
-2.4237661 7.4227843 -8.1824484
-2.4237587 7.271276 -8.1825056
-2.4237514 7.1197701 -8.1825609
-2.4237437 6.9682636 -8.1826172
-2.4237437 6.8167796 -8.1826172
-2.4237363 6.6652751 -8.1826744
-2.4237289 6.5137715 -8.1827297
-2.4237216 6.3622689 -8.182785
-2.4237142 6.2107673 -8.1828423
-2.4237068 6.0592666 -8.1828985
-2.4236991 5.9077663 -8.1829538
-2.4236991 5.7562857 -8.1829538
-2.4236991 5.604805 -8.1829548
-2.4236991 5.4533224 -8.1829548
-2.4236991 5.3018422 -8.1829548
-2.4236991 5.1503606 -8.1829538
-2.4236991 4.9988799 -8.1829548
-2.4236991 4.8473983 -8.1829538
-2.4236991 4.6959171 -8.1829548
-2.4236991 4.544436 -8.1829548
-2.4236991 4.3929548 -8.1829538
-2.4236991 4.2414742 -8.1829548
-2.4236991 4.089992 -8.1829548
-2.4236991 3.9385114 -8.1829548
-2.4236991 3.7870297 -8.1829538
-2.4236991 3.6355493 -8.1829548
-2.4236991 3.4840682 -8.1829538
-2.4236991 3.3325863 -8.1829548
-2.4236991 3.1811051 -8.1829548
-2.4236991 3.029624 -8.1829538
-2.4236991 2.8781431 -8.1829538
-2.4236991 2.726661 -8.1829548
-2.4236991 2.5751801 -8.1829538
-2.4236991 2.4236994 -8.1829548
-2.4236991 2.2722185 -8.1829548
-2.4236991 2.1207373 -8.1829538
-2.4236991 1.9692552 -8.1829538
-2.4236991 1.8177744 -8.1829548
-2.4236991 1.666293 -8.1829538
-2.4236991 1.5148122 -8.1829538
-2.4236991 1.3633308 -8.1829548
-2.4236991 1.2118496 -8.1829548
-2.4236991 1.0603688 -8.1829548
-2.4236991 0.90888745 -8.1829538
-2.4236991 0.75740665 -8.1829538
-2.4236991 0.60592431 -8.1829538
-2.4236991 0.45444351 -8.1829548
-2.4236991 0.3029629 -8.1829548
-2.4236991 0.15148139 -8.1829538
-2.4236991 -4.4036241e-07 -8.1829548
-2.4236991 -0.15148155 -8.1829538
-2.4236991 -0.30296192 -8.1829548
-2.4236991 -0.45444366 -8.1829538
-2.4236991 -0.60592401 -8.1829538
-2.4236991 -0.75740582 -8.1829548
-2.4236991 -0.90888739 -8.1829548
-2.4236991 -1.0603679 -8.1829548
-2.4236991 -1.2118499 -8.1829538
-2.4236991 -1.3633305 -8.1829538
-2.4237216 -1.5148261 -8.182786
-2.4237587 -1.6663342 -8.1825047
-2.4237959 -1.8178465 -8.1822243
-2.4238257 -1.9693583 -8.1819992
-2.4238331 -2.1208541 -8.1819429
-2.4238331 -2.2723434 -8.1819439
-2.4238331 -2.4238334 -8.1819429
-2.4238331 -2.5753231 -8.1819429
-2.4238331 -2.7268124 -8.1819429
-2.4238331 -2.8783016 -8.1819429
-2.4238331 -3.0297911 -8.1819439
-2.4238331 -3.1812809 -8.1819429
-2.4238331 -3.3327708 -8.1819429
-2.4238331 -3.4842601 -8.1819429
-2.4238331 -3.6357498 -8.1819429
-2.4238331 -3.7872391 -8.1819439
-2.4238331 -3.9387288 -8.1819429
-2.4238331 -4.0902185 -8.1819429
-2.4238331 -4.2417088 -8.1819429
-2.4238331 -4.3931971 -8.1819439
-2.4238331 -4.5446873 -8.1819439
-2.4238331 -4.696177 -8.1819429
-2.4238331 -4.8476663 -8.1819429
-2.4238331 -4.9991565 -8.1819429
-2.4238331 -5.1506453 -8.1819439
-2.4238331 -5.302135 -8.1819439
-2.4238331 -5.4536247 -8.1819429
-2.4238331 -5.6051149 -8.1819429
-2.4238331 -5.7566042 -8.1819429
-2.4238331 -5.9080935 -8.1819439
-2.4238331 -6.0595827 -8.1819439
-2.4238331 -6.2110729 -8.1819429
-2.4238331 -6.3625627 -8.1819429
-2.4238331 -6.5140519 -8.181942
-2.4238331 -6.6655412 -8.1819439
-2.4238555 -6.8170938 -8.1817732
-2.4238851 -6.9686704 -8.181551
-2.4239149 -7.1202502 -8.181325
-2.4239075 -7.2717228 -8.1813812
-2.4238555 -7.4230571 -8.1817751
-2.2597175 7.532392 -8.2835503
-2.2597106 7.381721 -8.2836056
-2.2597106 7.2310748 -8.2836056
-2.2597036 7.0804052 -8.2836618
-2.2596967 6.9297371 -8.2837172
-2.2596898 6.7790694 -8.2837725
-2.2596831 6.6284037 -8.2838278
-2.2596762 6.4777384 -8.2838831
-2.2596693 6.3270745 -8.2839394
-2.2596624 6.1764102 -8.2839937
-2.2596552 6.0257478 -8.28405
-2.2596483 5.8750863 -8.2841053
-2.2596483 5.7244434 -8.2841063
-2.2596483 5.5737996 -8.2841063
-2.2596483 5.4231567 -8.2841063
-2.2596483 5.2725129 -8.2841053
-2.2596483 5.1218696 -8.2841053
-2.2596483 4.9712267 -8.2841053
-2.2596483 4.8205838 -8.2841053
-2.2596483 4.6699409 -8.2841053
-2.2596483 4.5192966 -8.2841063
-2.2596483 4.3686538 -8.2841063
-2.2596483 4.2180104 -8.2841053
-2.2596483 4.0673671 -8.2841043
-2.2596483 3.9167244 -8.2841053
-2.2596483 3.7660813 -8.2841053
-2.2596483 3.6154373 -8.2841053
-2.2596483 3.4647942 -8.2841053
-2.2596483 3.314151 -8.2841053
-2.2596483 3.1635079 -8.2841053
-2.2596483 3.0128653 -8.2841063
-2.2596483 2.8622222 -8.2841063
-2.2596483 2.7115788 -8.2841063
-2.2596483 2.5609343 -8.2841053
-2.2596483 2.4102914 -8.2841053
-2.2596483 2.2596481 -8.2841053
-2.2596483 2.1090057 -8.2841053
-2.2596483 1.9583625 -8.2841053
-2.2596483 1.8077193 -8.2841053
-2.2596483 1.657075 -8.2841053
-2.2596483 1.5064319 -8.2841053
-2.2596483 1.3557888 -8.2841053
-2.2596483 1.2051462 -8.2841063
-2.2596483 1.0545031 -8.2841063
-2.2596483 0.90385967 -8.2841053
-2.2596483 0.75321561 -8.2841053
-2.2596483 0.60257262 -8.2841053
-2.2596483 0.45192936 -8.2841053
-2.2596483 0.30128667 -8.2841063
-2.2596483 0.15064359 -8.2841053
-2.2596483 3.6550898e-07 -8.2841053
-2.2596483 -0.15064286 -8.2841053
-2.2596483 -0.30128688 -8.2841053
-2.2596483 -0.45193037 -8.2841053
-2.2596483 -0.60257268 -8.2841053
-2.2596483 -0.75321591 -8.2841053
-2.2596483 -0.90385914 -8.2841053
-2.2596483 -1.054503 -8.2841053
-2.2596483 -1.2051458 -8.2841053
-2.2596483 -1.3557891 -8.2841053
-2.2596483 -1.5064322 -8.2841063
-2.2596693 -1.6570907 -8.2839384
-2.2597036 -1.8077632 -8.2836609
-2.2597382 -1.9584398 -8.2833834
-2.2597725 -2.1091211 -8.2831049
-2.2597795 -2.2597799 -8.2830505
-2.2597795 -2.4104316 -8.2830496
-2.2597795 -2.5610836 -8.2830496
-2.2597795 -2.7117355 -8.2830505
-2.2597795 -2.8623877 -8.2830496
-2.2597795 -3.0130396 -8.2830496
-2.2597795 -3.1636915 -8.2830505
-2.2597795 -3.3143439 -8.2830496
-2.2597795 -3.4649954 -8.2830505
-2.2597795 -3.6156473 -8.2830505
-2.2597795 -3.7662997 -8.2830496
-2.2597795 -3.9169514 -8.2830496
-2.2597795 -4.0676031 -8.2830496
-2.2597795 -4.2182555 -8.2830496
-2.2597795 -4.3689079 -8.2830496
-2.2597795 -4.5195589 -8.2830505
-2.2597795 -4.6702113 -8.2830496
-2.2597795 -4.8208632 -8.2830505
-2.2597795 -4.9715152 -8.2830505
-2.2597795 -5.1221676 -8.2830486
-2.2597795 -5.2728195 -8.2830505
-2.2597795 -5.4234715 -8.2830496
-2.2597795 -5.5741224 -8.2830505
-2.2597795 -5.7247753 -8.2830505
-2.2597795 -5.8754272 -8.2830496
-2.2597795 -6.0260792 -8.2830505
-2.2597795 -6.1767316 -8.2830496
-2.2597795 -6.3273826 -8.2830505
-2.2597795 -6.4780354 -8.2830505
-2.2597795 -6.6286879 -8.2830496
-2.2597935 -6.7793803 -8.282939
-2.2598209 -6.9301176 -8.2827168
-2.2598488 -7.0808592 -8.2824955
-2.2598624 -7.2315598 -8.282383
-2.2598143 -7.3820596 -8.2827721
-2.0974729 7.4909744 -8.3835402
-2.0974667 7.3411336 -8.3835945
-2.0974603 7.1912928 -8.3836489
-2.0974538 7.0414519 -8.3837042
-2.0974474 6.8916135 -8.3837585
-2.0974412 6.7417755 -8.3838148
-2.0974348 6.5919385 -8.3838692
-2.0974283 6.442101 -8.3839235
-2.0974219 6.2922664 -8.3839788
-2.0974157 6.1424317 -8.3840342
-2.0974092 5.9925976 -8.3840895
-2.0974092 5.842783 -8.3840885
-2.0974092 5.6929679 -8.3840885
-2.0974092 5.5431533 -8.3840885
-2.0974092 5.3933377 -8.3840885
-2.0974092 5.2435226 -8.3840885
-2.0974092 5.093708 -8.3840885
-2.0974092 4.943893 -8.3840895
-2.0974092 4.7940784 -8.3840885
-2.0974092 4.6442637 -8.3840885
-2.0974092 4.4944487 -8.3840885
-2.0974092 4.3446336 -8.3840885
-2.0974092 4.1948185 -8.3840885
-2.0974092 4.0450034 -8.3840895
-2.0974092 3.8951886 -8.3840895
-2.0974092 3.7453732 -8.3840895
-2.0974092 3.5955594 -8.3840885
-2.0974092 3.4457445 -8.3840895
-2.0974092 3.295929 -8.3840885
-2.0974092 3.1461141 -8.3840895
-2.0974092 2.9962993 -8.3840895
-2.0974092 2.8464844 -8.3840895
-2.0974092 2.6966684 -8.3840885
-2.0974092 2.5468535 -8.3840885
-2.0974092 2.3970394 -8.3840885
-2.0974092 2.2472243 -8.3840876
-2.0974092 2.0974092 -8.3840885
-2.0974092 1.9475944 -8.3840885
-2.0974092 1.7977794 -8.3840895
-2.0974092 1.6479642 -8.3840895
-2.0974092 1.4981492 -8.3840885
-2.0974092 1.348334 -8.3840885
-2.0974092 1.1985199 -8.3840885
-2.0974092 1.048705 -8.3840885
-2.0974092 0.89888996 -8.3840895
-2.0974092 0.74907488 -8.3840885
-2.0974092 0.59925991 -8.3840895
-2.0974092 0.44944486 -8.3840895
-2.0974092 0.29962963 -8.3840895
-2.0974092 0.14981546 -8.3840895
-2.0974092 6.1783703e-07 -8.3840885
-2.0974092 -0.14981437 -8.3840895
-2.0974092 -0.2996296 -8.3840895
-2.0974092 -0.44944537 -8.3840885
-2.0974092 -0.59925991 -8.3840885
-2.0974092 -0.74907476 -8.3840885
-2.0974092 -0.89888978 -8.3840885
-2.0974092 -1.048705 -8.3840885
-2.0974092 -1.1985196 -8.3840885
-2.0974092 -1.3483344 -8.3840885
-2.0974092 -1.4981496 -8.3840885
-2.0974092 -1.6479642 -8.3840885
-2.0974219 -1.7977903 -8.3839788
-2.0974538 -1.947636 -8.3837042
-2.0974855 -2.0974858 -8.3834295
-2.0975175 -2.2473404 -8.3831549
-2.0975304 -2.3971775 -8.3830442
-2.0975304 -2.5470011 -8.3830452
-2.0975304 -2.6968248 -8.3830452
-2.0975304 -2.8466482 -8.3830442
-2.0975304 -2.9964716 -8.3830452
-2.0975304 -3.1462955 -8.3830452
-2.0975304 -3.2961192 -8.3830442
-2.0975304 -3.4459424 -8.3830452
-2.0975304 -3.5957665 -8.3830452
-2.0975304 -3.7455902 -8.3830442
-2.0975304 -3.8954134 -8.3830452
-2.0975304 -4.0452366 -8.3830452
-2.0975304 -4.1950607 -8.3830442
-2.0975304 -4.3448844 -8.3830452
-2.0975304 -4.4947076 -8.3830452
-2.0975304 -4.6445317 -8.3830442
-2.0975304 -4.7943554 -8.3830442
-2.0975304 -4.9441776 -8.3830452
-2.0975304 -5.0940022 -8.3830452
-2.0975304 -5.2438269 -8.3830442
-2.0975304 -5.3936491 -8.3830452
-2.0975304 -5.5434728 -8.3830442
-2.0975304 -5.6932969 -8.3830442
-2.0975304 -5.8431196 -8.3830452
-2.0975304 -5.9929438 -8.3830452
-2.0975304 -6.1427674 -8.3830442
-2.0975304 -6.2925911 -8.3830452
-2.0975304 -6.4424143 -8.3830452
-2.0975304 -6.5922389 -8.3830442
-2.097543 -6.7421031 -8.3829346
-2.0975621 -6.8919892 -8.3827705
-2.0975876 -7.0419011 -8.3825512
-2.0976131 -7.1918163 -8.3823309
-2.0975749 -7.3415117 -8.3826609
-1.9369969 7.4499884 -8.4824896
-1.9369911 7.3009663 -8.4825439
-1.9369853 7.1519461 -8.4825993
-1.9369794 7.0029249 -8.4826527
-1.9369736 6.8539071 -8.482707
-1.9369676 6.7048888 -8.4827614
-1.9369618 6.5558705 -8.4828167
-1.936956 6.4068546 -8.4828701
-1.9369502 6.2578392 -8.4829245
-1.9369502 6.1088428 -8.4829245
-1.9369442 5.9598284 -8.4829788
-1.9369384 5.8108158 -8.4830332
-1.9369384 5.6618204 -8.4830332
-1.9369384 5.5128245 -8.4830322
-1.9369384 5.3638301 -8.4830332
-1.9369384 5.2148342 -8.4830322
-1.9369384 5.0658393 -8.4830322
-1.9369384 4.9168434 -8.4830322
-1.9369384 4.7678494 -8.4830332
-1.9369384 4.6188536 -8.4830332
-1.9369384 4.4698582 -8.4830341
-1.9369384 4.3208628 -8.4830332
-1.9369384 4.1718674 -8.4830341
-1.9369384 4.0228724 -8.4830332
-1.9369384 3.8738768 -8.4830341
-1.9369384 3.7248819 -8.4830332
-1.9369384 3.5758858 -8.4830332
-1.9369384 3.4268911 -8.4830332
-1.9369384 3.2778952 -8.4830332
-1.9369384 3.1289008 -8.4830332
-1.9369384 2.9799047 -8.4830332
-1.9369384 2.8309102 -8.4830332
-1.9369384 2.6819143 -8.4830322
-1.9369384 2.5329201 -8.4830341
-1.9369384 2.3839242 -8.4830332
-1.9369384 2.2349296 -8.4830332
-1.9369384 2.0859337 -8.4830332
-1.9369384 1.9369385 -8.4830322
-1.9369384 1.787943 -8.4830332
-1.9369384 1.638948 -8.4830322
-1.9369384 1.4899524 -8.4830332
-1.9369384 1.3409574 -8.4830322
-1.9369384 1.191962 -8.4830332
-1.9369384 1.042967 -8.4830322
-1.9369384 0.89397168 -8.4830332
-1.9369384 0.74497664 -8.4830332
-1.9369384 0.59598112 -8.4830332
-1.9369384 0.44698587 -8.4830332
-1.9369384 0.2979905 -8.4830332
-1.9369384 0.14899547 -8.4830332
-1.9369384 -3.7548995e-07 -8.4830322
-1.9369384 -0.14899465 -8.4830332
-1.9369384 -0.29799092 -8.4830332
-1.9369384 -0.44698545 -8.4830332
-1.9369384 -0.5959813 -8.4830332
-1.9369384 -0.74497622 -8.4830332
-1.9369384 -0.89397168 -8.4830322
-1.9369384 -1.0429671 -8.4830332
-1.9369384 -1.1919625 -8.4830332
-1.9369384 -1.3409572 -8.4830332
-1.9369384 -1.4899526 -8.4830332
-1.9369384 -1.6389476 -8.4830332
-1.9369384 -1.7879434 -8.4830332
-1.9369502 -1.9369503 -8.4829245
-1.9369794 -2.0859778 -8.4826527
-1.9370086 -2.2350097 -8.4823818
-1.9370379 -2.3840463 -8.4821091
-1.9370555 -2.5330727 -8.481946
-1.9370555 -2.6820765 -8.481946
-1.9370555 -2.8310812 -8.481946
-1.9370555 -2.9800854 -8.481946
-1.9370555 -3.1290896 -8.4819469
-1.9370555 -3.2780938 -8.481946
-1.9370555 -3.427098 -8.481946
-1.9370555 -3.5761023 -8.481946
-1.9370555 -3.725107 -8.481946
-1.9370555 -3.8741109 -8.481946
-1.9370555 -4.0231152 -8.481946
-1.9370555 -4.1721196 -8.4819469
-1.9370555 -4.3211236 -8.481946
-1.9370555 -4.4701281 -8.481946
-1.9370555 -4.6191325 -8.481946
-1.9370555 -4.768137 -8.481945
-1.9370555 -4.9171414 -8.481945
-1.9370555 -5.0661454 -8.481945
-1.9370555 -5.2151494 -8.481946
-1.9370555 -5.3641543 -8.481946
-1.9370555 -5.5131588 -8.481946
-1.9370555 -5.6621628 -8.481945
-1.9370555 -5.8111672 -8.481946
-1.9370555 -5.9601707 -8.481945
-1.9370555 -6.1091752 -8.481946
-1.9370555 -6.2581797 -8.481946
-1.9370555 -6.4071836 -8.481945
-1.9370555 -6.5561881 -8.481946
-1.9370613 -6.7052131 -8.4818916
-1.9370848 -6.8543005 -8.4816742
-1.9371082 -7.0033913 -8.4814568
-1.9371315 -7.1524863 -8.4812393
-1.9371082 -7.3014083 -8.4814568
-1.7782675 7.4094486 -8.5803633
-1.7782621 7.2612371 -8.5804176
-1.7782568 7.1130271 -8.5804701
-1.7782515 6.964818 -8.5805244
-1.778246 6.8166099 -8.5805779
-1.7782408 6.6684031 -8.5806313
-1.7782354 6.5201964 -8.5806856
-1.7782354 6.3720107 -8.5806856
-1.7782301 6.2238054 -8.580739
-1.7782248 6.0756011 -8.5807934
-1.7782193 5.9273977 -8.5808458
-1.7782193 5.7792125 -8.5808468
-1.7782193 5.6310282 -8.5808458
-1.7782193 5.4828429 -8.5808458
-1.7782193 5.3346581 -8.5808468
-1.7782193 5.1864734 -8.5808468
-1.7782193 5.0382881 -8.5808468
-1.7782193 4.8901033 -8.5808468
-1.7782193 4.741919 -8.5808468
-1.7782193 4.5937333 -8.5808468
-1.7782193 4.4455485 -8.5808477
-1.7782193 4.2973642 -8.5808468
-1.7782193 4.149179 -8.5808468
-1.7782193 4.0009933 -8.5808458
-1.7782193 3.852809 -8.5808468
-1.7782193 3.7046237 -8.5808458
-1.7782193 3.5564384 -8.5808458
-1.7782193 3.4082544 -8.5808468
-1.7782193 3.2600691 -8.5808468
-1.7782193 3.1118836 -8.5808468
-1.7782193 2.9636989 -8.5808468
-1.7782193 2.8155143 -8.5808468
-1.7782193 2.6673291 -8.5808468
-1.7782193 2.5191443 -8.5808477
-1.7782193 2.3709598 -8.5808468
-1.7782193 2.222774 -8.5808458
-1.7782193 2.074589 -8.5808468
-1.7782193 1.9264047 -8.5808458
-1.7782193 1.7782193 -8.5808458
-1.7782193 1.6300339 -8.5808468
-1.7782193 1.48185 -8.5808468
-1.7782193 1.3336645 -8.5808468
-1.7782193 1.1854792 -8.5808468
-1.7782193 1.0372953 -8.5808468
-1.7782193 0.88910985 -8.5808468
-1.7782193 0.74092442 -8.5808458
-1.7782193 0.59274054 -8.5808468
-1.7782193 0.44455492 -8.5808468
-1.7782193 0.2963697 -8.5808468
-1.7782193 0.14818501 -8.5808468
-1.7782193 2.1217451e-07 -8.5808468
-1.7782193 -0.14818524 -8.5808468
-1.7782193 -0.29636994 -8.5808468
-1.7782193 -0.44455433 -8.5808468
-1.7782193 -0.59273994 -8.5808468
-1.7782193 -0.74092478 -8.5808458
-1.7782193 -0.88910943 -8.5808468
-1.7782193 -1.0372949 -8.5808468
-1.7782193 -1.1854798 -8.5808458
-1.7782193 -1.3336644 -8.5808468
-1.7782193 -1.4818497 -8.5808468
-1.7782193 -1.6300344 -8.5808468
-1.7782193 -1.7782191 -8.5808468
-1.7782193 -1.9264039 -8.5808468
-1.7782248 -2.0745955 -8.5807924
-1.7782515 -2.2228146 -8.5805235
-1.7782782 -2.371038 -8.5802555
-1.7783048 -2.5192654 -8.5799866
-1.7783263 -2.6674895 -8.579772
-1.7783263 -2.8156831 -8.579772
-1.7783263 -2.9638767 -8.579772
-1.7783263 -3.1120706 -8.579772
-1.7783263 -3.2602646 -8.579772
-1.7783263 -3.4084592 -8.579771
-1.7783263 -3.5566528 -8.579771
-1.7783263 -3.7048469 -8.579771
-1.7783263 -3.8530402 -8.579771
-1.7783263 -4.0012341 -8.579771
-1.7783263 -4.1494284 -8.579772
-1.7783263 -4.2976213 -8.579772
-1.7783263 -4.4458151 -8.579772
-1.7783263 -4.5940094 -8.579772
-1.7783263 -4.7422042 -8.579771
-1.7783263 -4.890398 -8.579771
-1.7783263 -5.0385904 -8.579772
-1.7783263 -5.1867852 -8.579771
-1.7783263 -5.3349795 -8.579771
-1.7783263 -5.4831719 -8.579771
-1.7783263 -5.6313667 -8.5797701
-1.7783263 -5.7795601 -8.579772
-1.7783263 -5.9277549 -8.579771
-1.7783263 -6.0759482 -8.579772
-1.7783263 -6.2241426 -8.579772
-1.7783263 -6.3723354 -8.579772
-1.7783263 -6.5205297 -8.579772
-1.7783263 -6.6687241 -8.579771
-1.7783476 -6.8169994 -8.5795565
-1.7783689 -6.9652786 -8.5793419
-1.7783904 -7.1135607 -8.5791273
-1.7783849 -7.2617388 -8.5791807
-1.6212562 7.3693461 -8.6771765
-1.6212513 7.2219381 -8.6772289
-1.6212465 7.0745306 -8.6772833
-1.6212417 6.927124 -8.6773367
-1.6212368 6.779717 -8.6773891
-1.6212368 6.6323328 -8.6773891
-1.6212319 6.4849281 -8.6774416
-1.6212271 6.3375244 -8.677496
-1.6212223 6.1901217 -8.6775494
-1.6212174 6.0427198 -8.6776018
-1.6212126 5.8953185 -8.6776552
-1.6212126 5.7479358 -8.6776552
-1.6212126 5.6005526 -8.6776552
-1.6212126 5.4531698 -8.6776552
-1.6212126 5.3057866 -8.6776552
-1.6212126 5.1584034 -8.6776562
-1.6212126 5.0110207 -8.6776552
-1.6212126 4.8636374 -8.6776552
-1.6212126 4.7162552 -8.6776552
-1.6212126 4.5688715 -8.6776552
-1.6212126 4.4214888 -8.6776543
-1.6212126 4.274106 -8.6776552
-1.6212126 4.1267233 -8.6776552
-1.6212126 3.9793396 -8.6776552
-1.6212126 3.8319569 -8.6776552
-1.6212126 3.6845741 -8.6776552
-1.6212126 3.5371907 -8.6776552
-1.6212126 3.3898084 -8.6776552
-1.6212126 3.242425 -8.6776552
-1.6212126 3.0950422 -8.6776543
-1.6212126 2.9476585 -8.6776543
-1.6212126 2.8002765 -8.6776552
-1.6212126 2.6528931 -8.6776552
-1.6212126 2.5055096 -8.6776552
-1.6212126 2.3581274 -8.6776552
-1.6212126 2.2107444 -8.6776562
-1.6212126 2.0633616 -8.6776552
-1.6212126 1.9159786 -8.6776562
-1.6212126 1.7685961 -8.6776552
-1.6212126 1.6212125 -8.6776552
-1.6212126 1.4738305 -8.6776552
-1.6212126 1.3264469 -8.6776552
-1.6212126 1.1790633 -8.6776552
-1.6212126 1.0316808 -8.6776552
-1.6212126 0.88429755 -8.6776562
-1.6212126 0.73691523 -8.6776552
-1.6212126 0.58953172 -8.6776552
-1.6212126 0.44214919 -8.6776552
-1.6212126 0.29476589 -8.6776562
-1.6212126 0.14738356 -8.6776552
-1.6212126 2.4376948e-07 -8.6776552
-1.6212126 -0.14738332 -8.6776552
-1.6212126 -0.2947658 -8.6776552
-1.6212126 -0.4421491 -8.6776552
-1.6212126 -0.58953184 -8.6776552
-1.6212126 -0.73691517 -8.6776552
-1.6212126 -0.88429767 -8.6776552
-1.6212126 -1.0316808 -8.6776552
-1.6212126 -1.1790637 -8.6776552
-1.6212126 -1.3264467 -8.6776552
-1.6212126 -1.4738297 -8.6776552
-1.6212126 -1.6212127 -8.6776552
-1.6212126 -1.7685955 -8.6776543
-1.6212126 -1.9159783 -8.6776552
-1.6212126 -2.0633616 -8.6776552
-1.6212174 -2.2107508 -8.6776018
-1.6212417 -2.3581696 -8.6773367
-1.6212659 -2.5055928 -8.6770706
-1.6212901 -2.6530201 -8.6768045
-1.6213143 -2.800452 -8.6765385
-1.6213143 -2.9478445 -8.6765385
-1.6213143 -3.0952363 -8.6765394
-1.6213143 -3.2426291 -8.6765385
-1.6213143 -3.3900211 -8.6765385
-1.6213143 -3.5374131 -8.6765394
-1.6213143 -3.6848056 -8.6765385
-1.6213143 -3.8321977 -8.6765394
-1.6213143 -3.9795902 -8.6765385
-1.6213143 -4.1269817 -8.6765385
-1.6213143 -4.2743745 -8.6765385
-1.6213143 -4.4217663 -8.6765375
-1.6213143 -4.5691586 -8.6765385
-1.6213143 -4.7165508 -8.6765385
-1.6213143 -4.8639421 -8.6765385
-1.6213143 -5.0113349 -8.6765385
-1.6213143 -5.1587272 -8.6765394
-1.6213143 -5.3061204 -8.6765375
-1.6213143 -5.4535117 -8.6765385
-1.6213143 -5.6009035 -8.6765385
-1.6213143 -5.7482958 -8.6765394
-1.6213143 -5.895689 -8.6765385
-1.6213143 -6.0430813 -8.6765385
-1.6213143 -6.1904726 -8.6765385
-1.6213143 -6.3378658 -8.6765375
-1.6213143 -6.4852576 -8.6765385
-1.6213143 -6.6326489 -8.6765385
-1.6213337 -6.7801228 -8.6763258
-1.6213483 -6.9275784 -8.6761675
-1.6213677 -7.0750589 -8.6759539
-1.6213773 -7.2224994 -8.675848
-1.4659352 7.3296766 -8.7729483
-1.4659308 7.1830611 -8.7730007
-1.4659308 7.0364685 -8.7730007
-1.4659265 6.8898549 -8.7730541
-1.4659221 6.7432423 -8.7731066
-1.4659178 6.5966306 -8.773159
-1.4659134 6.4500194 -8.7732115
-1.465909 6.3034091 -8.7732639
-1.4659048 6.1567998 -8.7733154
-1.4659004 6.0101914 -8.7733688
-1.4659004 5.8636017 -8.7733698
-1.4659004 5.7170119 -8.7733688
-1.4659004 5.5704222 -8.7733698
-1.4659004 5.4238315 -8.7733688
-1.4659004 5.2772417 -8.7733688
-1.4659004 5.130652 -8.7733688
-1.4659004 4.9840612 -8.7733688
-1.4659004 4.837471 -8.7733698
-1.4659004 4.6908817 -8.7733688
-1.4659004 4.5442915 -8.7733698
-1.4659004 4.3977013 -8.7733688
-1.4659004 4.251111 -8.7733698
-1.4659004 4.1045213 -8.7733688
-1.4659004 3.9579308 -8.7733688
-1.4659004 3.8113408 -8.7733688
-1.4659004 3.6647513 -8.7733688
-1.4659004 3.5181613 -8.7733688
-1.4659004 3.3715706 -8.7733688
-1.4659004 3.2249806 -8.7733698
-1.4659004 3.0783911 -8.7733688
-1.4659004 2.9318011 -8.7733688
-1.4659004 2.7852106 -8.7733688
-1.4659004 2.6386213 -8.7733688
-1.4659004 2.4920309 -8.7733688
-1.4659004 2.3454409 -8.7733698
-1.4659004 2.1988504 -8.7733688
-1.4659004 2.0522606 -8.7733688
-1.4659004 1.9056708 -8.7733688
-1.4659004 1.7590802 -8.7733688
-1.4659004 1.6124902 -8.7733698
-1.4659004 1.4659005 -8.7733688
-1.4659004 1.3193105 -8.7733698
-1.4659004 1.1727201 -8.7733688
-1.4659004 1.0261308 -8.7733688
-1.4659004 0.87954062 -8.7733698
-1.4659004 0.73295009 -8.7733688
-1.4659004 0.58635938 -8.7733688
-1.4659004 0.43977037 -8.7733688
-1.4659004 0.29318038 -8.7733688
-1.4659004 0.14658971 -8.7733698
-1.4659004 4.2207753e-07 -8.7733688
-1.4659004 -0.14658983 -8.7733688
-1.4659004 -0.29317984 -8.7733688
-1.4659004 -0.43977007 -8.7733698
-1.4659004 -0.58636016 -8.7733688
-1.4659004 -0.73295003 -8.7733688
-1.4659004 -0.8795405 -8.7733688
-1.4659004 -1.0261298 -8.7733698
-1.4659004 -1.17272 -8.7733688
-1.4659004 -1.3193104 -8.7733688
-1.4659004 -1.4659003 -8.7733688
-1.4659004 -1.6124903 -8.7733688
-1.4659004 -1.7590802 -8.7733688
-1.4659004 -1.9056706 -8.7733688
-1.4659004 -2.0522604 -8.7733688
-1.4659004 -2.1988504 -8.7733698
-1.4659004 -2.3454404 -8.7733688
-1.4659221 -2.4920678 -8.7731056
-1.4659439 -2.6386991 -8.7728434
-1.4659657 -2.7853353 -8.7725801
-1.4659876 -2.9319751 -8.7723169
-1.465992 -3.0785828 -8.7722645
-1.465992 -3.2251825 -8.7722635
-1.465992 -3.3717811 -8.7722645
-1.465992 -3.5183806 -8.7722645
-1.465992 -3.6649797 -8.7722654
-1.465992 -3.811579 -8.7722645
-1.465992 -3.9581783 -8.7722645
-1.465992 -4.1047773 -8.7722645
-1.465992 -4.2513766 -8.7722635
-1.465992 -4.3979759 -8.7722645
-1.465992 -4.5445747 -8.7722645
-1.465992 -4.691174 -8.7722645
-1.465992 -4.8377738 -8.7722645
-1.465992 -4.9843721 -8.7722645
-1.465992 -5.130971 -8.7722645
-1.465992 -5.2775717 -8.7722635
-1.465992 -5.4241705 -8.7722635
-1.465992 -5.5707698 -8.7722645
-1.465992 -5.7173686 -8.7722645
-1.465992 -5.8639669 -8.7722645
-1.465992 -6.0105667 -8.7722654
-1.465992 -6.1571655 -8.7722654
-1.465992 -6.3037653 -8.7722635
-1.465992 -6.4503651 -8.7722635
-1.465992 -6.5969634 -8.7722645
-1.4660051 -6.7436233 -8.7721052
-1.4660225 -6.8903055 -8.7718964
-1.4660398 -7.0369911 -8.7716866
-1.4660573 -7.1836815 -8.7714748
-1.3122815 7.2904534 -8.8676424
-1.3122777 7.1446228 -8.8676949
-1.3122737 6.9987941 -8.8677464
-1.3122698 6.8529658 -8.8677988
-1.312266 6.7071381 -8.8678503
-1.3122621 6.5613108 -8.8679028
-1.3122582 6.4154849 -8.8679543
-1.3122544 6.26966 -8.8680067
-1.3122504 6.1238356 -8.8680592
-1.3122466 5.978013 -8.8681107
-1.3122466 5.8322067 -8.8681107
-1.3122466 5.6864023 -8.8681107
-1.3122466 5.5405965 -8.8681107
-1.3122466 5.3947916 -8.8681107
-1.3122466 5.2489867 -8.8681107
-1.3122466 5.1031809 -8.8681107
-1.3122466 4.957376 -8.8681107
-1.3122466 4.8115711 -8.8681097
-1.3122466 4.6657658 -8.8681107
-1.3122466 4.5199609 -8.8681107
-1.3122466 4.374156 -8.8681107
-1.3122466 4.2283502 -8.8681107
-1.3122466 4.0825453 -8.8681107
-1.3122466 3.9367394 -8.8681107
-1.3122466 3.7909346 -8.8681107
-1.3122466 3.6451302 -8.8681107
-1.3122466 3.4993238 -8.8681107
-1.3122466 3.3535194 -8.8681107
-1.3122466 3.2077146 -8.8681107
-1.3122466 3.0619087 -8.8681107
-1.3122466 2.9161038 -8.8681107
-1.3122466 2.770298 -8.8681107
-1.3122466 2.6244936 -8.8681116
-1.3122466 2.4786882 -8.8681097
-1.3122466 2.3328824 -8.8681107
-1.3122466 2.187078 -8.8681107
-1.3122466 2.0412726 -8.8681097
-1.3122466 1.8954672 -8.8681107
-1.3122466 1.7496622 -8.8681107
-1.3122466 1.6038578 -8.8681107
-1.3122466 1.4580516 -8.8681107
-1.3122466 1.3122466 -8.8681097
-1.3122466 1.1664413 -8.8681107
-1.3122466 1.020636 -8.8681097
-1.3122466 0.8748315 -8.8681107
-1.3122466 0.7290253 -8.8681107
-1.3122466 0.58322108 -8.8681107
-1.3122466 0.43741572 -8.8681107
-1.3122466 0.29161018 -8.8681107
-1.3122466 0.1458053 -8.8681107
-1.3122466 -4.8296414e-07 -8.8681107
-1.3122466 -0.14580511 -8.8681107
-1.3122466 -0.29161009 -8.8681097
-1.3122466 -0.43741551 -8.8681116
-1.3122466 -0.5832209 -8.8681107
-1.3122466 -0.72902626 -8.8681097
-1.3122466 -0.8748309 -8.8681107
-1.3122466 -1.0206363 -8.8681097
-1.3122466 -1.1664413 -8.8681107
-1.3122466 -1.3122467 -8.8681107
-1.3122466 -1.4580513 -8.8681107
-1.3122466 -1.6038567 -8.8681107
-1.3122466 -1.7496625 -8.8681097
-1.3122466 -1.8954672 -8.8681107
-1.3122466 -2.0412724 -8.8681097
