# .PCD v0.7 - Point Cloud Data file format
VERSION 0.7
FIELDS x y z
SIZE 4 4 4
TYPE F F F
COUNT 1 1 1
WIDTH 1478
HEIGHT 1
VIEWPOINT 0 0 0 1 0 0 0
POINTS 1478
DATA ascii
-5.3209887 -1.4965278 -6.3964729
-5.3209887 -1.6628089 -6.396472
-5.3209887 -1.82909 -6.396471
-5.3209887 -1.9953704 -6.3964715
-5.3209887 -2.1616521 -6.3964715
-5.3209887 -2.3279321 -6.396472
-5.3209887 -2.4942136 -6.3964715
-5.3209887 -2.6604941 -6.3964729
-5.3209887 -2.8267753 -6.396472
-5.3209887 -2.9930568 -6.396471
-5.3209887 -3.1593366 -6.396472
-5.3209887 -3.3256185 -6.3964715
-5.3209887 -3.4918985 -6.3964725
-5.3209887 -3.6581798 -6.3964715
-5.3209887 -3.8244598 -6.3964725
-5.3209887 -3.9907417 -6.396472
-5.3209887 -4.157023 -6.396471
-5.3209887 -4.3233032 -6.396472
-5.3209887 -4.4895849 -6.3964715
-5.3209887 -4.6558647 -6.3964725
-5.3209887 -4.8221464 -6.396472
-5.3209887 -4.9884272 -6.3964705
-5.3209887 -5.1547079 -6.396472
-5.3209887 -5.3209891 -6.396471
-5.3209887 -5.4872699 -6.3964725
-5.3209887 -5.6535511 -6.396472
-5.3209887 -5.8198309 -6.3964725
-5.3209887 -5.9861131 -6.396472
-5.3209887 -6.1523938 -6.396471
-5.3209887 -6.3186741 -6.396472
-5.3209887 -6.4849553 -6.3964715
-5.3209887 -6.6512356 -6.3964725
-5.3209887 -6.8175173 -6.3964715
-5.3209887 -6.9837976 -6.3964725
-5.3209887 -7.1500788 -6.396472
-5.3209887 -7.3163605 -6.396471
-5.320971 -7.4826155 -6.3965387
-5.3209529 -7.6488705 -6.3966064
-5.1226516 8.0970945 -6.5212965
-5.1230292 7.9324327 -6.5198255
-5.1233554 7.7676678 -6.5185552
-5.1233554 7.6023993 -6.5185556
-5.1234412 7.4372535 -6.5182209
-5.1235619 7.2721515 -6.5177531
-5.1235442 7.1068525 -6.5178204
-5.1235271 6.9415526 -6.5178862
-5.1235099 6.7762561 -6.5179534
-5.1234927 6.6109591 -6.5180206
-5.1234756 6.445663 -6.5180869
-5.1234584 6.2803683 -6.5181537
-5.1234412 6.1150756 -6.5182209
-5.1234241 5.9497833 -6.5182872
-5.1234069 5.784492 -6.5183549
-5.1233897 5.6192021 -6.5184212
-5.123373 5.4539132 -6.5184889
-5.1233554 5.2886257 -6.5185552
-5.1233387 5.1233387 -6.5186219
-5.1233211 4.9580531 -6.5186892
-5.1233039 4.7927685 -6.5187554
-5.1232867 4.6274853 -6.5188227
-5.1232696 4.462203 -6.5188894
-5.1232524 4.2969213 -6.5189567
-5.1232352 4.1316419 -6.5190234
-5.1232181 3.9663625 -6.5190907
-5.1232181 3.8010969 -6.5190897
-5.1232009 3.6358202 -6.5191569
-5.1231837 3.4705443 -6.5192237
-5.1231666 3.3052688 -6.5192909
-5.1231494 3.1399951 -6.5193572
-5.1231322 2.9747221 -6.5194249
-5.1231155 2.8094499 -6.5194912
-5.1230979 2.6441801 -6.5195575
-5.1230812 2.4789104 -6.5196242
-5.1230812 2.3136492 -6.5196242
-5.1230812 2.1483886 -6.5196252
-5.1230812 1.9831285 -6.5196252
-5.1230812 1.8178675 -6.5196257
-5.1230812 1.6526072 -6.5196247
-5.1230812 1.4873463 -6.5196252
-5.1230812 1.3220851 -6.5196252
-5.1230812 1.1568248 -6.5196247
-5.1230812 0.99156386 -6.5196252
-5.1230812 0.82630378 -6.5196247
-5.1231322 0.66104919 -6.5194244
-5.1232352 0.49579769 -6.5190234
-5.1233387 0.33053824 -6.5186219
-5.1234241 0.16527177 -6.5182877
-5.1234241 -2.6169042e-07 -6.5182881
-5.1234241 -0.16527174 -6.5182877
-5.1234241 -0.33054379 -6.5182881
-5.1234412 -0.49581653 -6.5182209
-5.1234412 -0.66108906 -6.5182204
-5.1234412 -0.82636136 -6.5182204
-5.1234412 -0.99163359 -6.5182209
-5.1234412 -1.1569061 -6.5182214
-5.1234412 -1.3221785 -6.5182204
-5.1234412 -1.487451 -6.5182209
-5.1234412 -1.6527237 -6.5182204
-5.1234412 -1.817996 -6.5182199
-5.1234412 -1.9832671 -6.5182214
-5.1234412 -2.1485395 -6.5182214
-5.1234412 -2.313812 -6.5182209
-5.1234412 -2.4790845 -6.5182209
-5.1234412 -2.6443567 -6.5182204
-5.1234412 -2.8096294 -6.5182204
-5.1234412 -2.9749022 -6.5182199
-5.1234412 -3.1401732 -6.5182214
-5.1234412 -3.3054454 -6.5182214
-5.1234412 -3.4707179 -6.5182214
-5.1234412 -3.6359901 -6.5182209
-5.1234412 -3.8012629 -6.5182204
-5.1234412 -3.9665356 -6.5182204
-5.1234412 -4.1318078 -6.5182199
-5.1234412 -4.2970805 -6.5182199
-5.1234412 -4.4623518 -6.5182214
-5.1234412 -4.627624 -6.5182214
-5.1234412 -4.7928963 -6.5182209
-5.1234412 -4.9581685 -6.5182204
-5.1234412 -5.1234412 -6.5182204
-5.1234412 -5.2887139 -6.5182199
-5.1234412 -5.4539866 -6.5182199
-5.1234412 -5.6192579 -6.5182214
-5.1234412 -5.7845302 -6.5182209
-5.1234412 -5.9498029 -6.5182214
-5.1234412 -6.1150751 -6.5182209
-5.1234412 -6.2803473 -6.5182204
-5.1234412 -6.4456196 -6.5182199
-5.1234412 -6.6108918 -6.5182195
-5.1234412 -6.7761641 -6.5182214
-5.1234412 -6.9414363 -6.5182209
-5.1234412 -7.1067085 -6.5182209
-5.1234412 -7.2719812 -6.5182209
-5.1234241 -7.4372292 -6.5182877
-5.1234069 -7.6024742 -6.5183549
-4.9276028 8.048419 -6.6412101
-4.9279637 7.8847418 -6.6397567
-4.928194 7.7208371 -6.6388316
-4.9281774 7.5565386 -6.6388984
-4.9283414 7.3925123 -6.6382375
-4.9283905 7.2283068 -6.6380386
-4.9283743 7.064003 -6.6381054
-4.9283576 6.8997011 -6.6381712
-4.9283414 6.7354007 -6.638237
-4.9283252 6.5711002 -6.6383038
-4.9283085 6.4068012 -6.63837
-4.9282923 6.2425036 -6.6384363
-4.9282761 6.0782065 -6.6385021
-4.9282594 5.9139113 -6.6385684
-4.9282432 5.7496171 -6.6386347
-4.9282265 5.5853243 -6.6387005
-4.9282103 5.421031 -6.6387663
-4.928194 5.2567401 -6.6388316
-4.9281774 5.0924497 -6.6388979
-4.9281611 4.9281607 -6.6389637
-4.9281449 4.7638731 -6.6390305
-4.9281278 4.5995865 -6.6390967
-4.9281278 4.4353156 -6.6390967
-4.9281116 4.2710304 -6.6391625
-4.9280949 4.1067457 -6.6392279
-4.9280787 3.9424632 -6.6392951
-4.9280624 3.7781813 -6.6393609
-4.9280457 3.6139004 -6.6394267
-4.9280295 3.4496212 -6.639493
-4.9280133 3.2853417 -6.6395583
-4.9279966 3.1210649 -6.6396246
-4.9279804 2.9567885 -6.6396914
-4.9279637 2.7925129 -6.6397572
-4.9279475 2.6282384 -6.639823
-4.9279313 2.4639652 -6.6398888
-4.9279146 2.2996933 -6.6399546
-4.9279146 2.1354303 -6.639955
-4.9279146 1.9711658 -6.6399541
-4.9279146 1.8069021 -6.6399546
-4.9279146 1.6426383 -6.6399555
-4.9279146 1.4783746 -6.6399541
-4.9279146 1.3141109 -6.639955
-4.9279146 1.1498469 -6.6399555
-4.9279146 0.98558336 -6.6399541
-4.9279146 0.8213194 -6.639955
-4.9279146 0.65705538 -6.639955
-4.9279637 0.49279657 -6.6397567
-4.9280624 0.32853779 -6.6393609
-4.9281611 0.16427228 -6.6389647
-4.9282594 5.332025e-08 -6.6385674
-4.9282594 -0.16427533 -6.6385674
-4.9282594 -0.32855046 -6.6385674
-4.9282594 -0.49282584 -6.6385674
-4.9282761 -0.6571033 -6.6385021
-4.9282761 -0.82137865 -6.6385021
-4.9282761 -0.98565537 -6.6385016
-4.9282761 -1.1499307 -6.6385016
-4.9282761 -1.3142076 -6.6385016
-4.9282761 -1.478483 -6.6385016
-4.9282761 -1.6427584 -6.6385016
-4.9282761 -1.8070343 -6.6385026
-4.9282761 -1.9713097 -6.6385021
-4.9282761 -2.1355865 -6.6385007
-4.9282761 -2.2998624 -6.6385012
-4.9282761 -2.4641378 -6.6385016
-4.9282761 -2.6284139 -6.6385021
-4.9282761 -2.7926891 -6.6385021
-4.9282761 -2.956965 -6.6385026
-4.9282761 -3.1212418 -6.6385012
-4.9282761 -3.2855175 -6.6385016
-4.9282761 -3.4497931 -6.6385016
-4.9282761 -3.6140685 -6.6385016
-4.9282761 -3.7783444 -6.6385021
-4.9282761 -3.9426212 -6.6385007
-4.9282761 -4.1068969 -6.6385012
-4.9282761 -4.2711725 -6.6385012
-4.9282761 -4.4354482 -6.6385016
-4.9282761 -4.5997238 -6.6385016
-4.9282761 -4.7639999 -6.6385026
-4.9282761 -4.9282765 -6.6385012
-4.9282761 -5.0925522 -6.6385012
-4.9282761 -5.2568274 -6.6385012
-4.9282761 -5.4211035 -6.6385021
-4.9282761 -5.5853791 -6.6385021
-4.9282761 -5.7496552 -6.6385026
-4.9282761 -5.9139314 -6.6385007
-4.9282761 -6.0782065 -6.6385007
-4.9282761 -6.2424827 -6.6385016
-4.9282761 -6.4067588 -6.6385021
-4.9282761 -6.5710344 -6.6385021
-4.9282761 -6.7353096 -6.6385021
-4.9282761 -6.8995867 -6.6385007
-4.9282761 -7.0638618 -6.6385012
-4.9282761 -7.228138 -6.6385016
-4.9282594 -7.3923888 -6.6385684
-4.9282432 -7.5566401 -6.6386333
-4.9282265 -7.7208891 -6.6386991
-4.7345247 8.1629744 -6.7611914
-4.7348695 8.0002975 -6.7597561
-4.7352147 7.8375969 -6.7583194
-4.7353559 7.674542 -6.7577319
-4.7353711 7.5112782 -6.7576675
-4.7355595 7.3482814 -6.7568836
-4.7355595 7.1849871 -6.7568841
-4.7355433 7.0216684 -6.7569494
-4.735528 6.8583512 -6.7570152
-4.7355123 6.695035 -6.7570806
-4.7354965 6.5317197 -6.7571454
-4.7354808 6.3684053 -6.7572103
-4.735465 6.2050929 -6.7572756
-4.7354498 6.0417805 -6.7573409
-4.7354341 5.8784699 -6.7574058
-4.7354183 5.7151599 -6.7574716
-4.7354026 5.5518513 -6.7575369
-4.7353868 5.3885436 -6.7576022
-4.7353711 5.2252369 -6.7576671
-4.7353711 5.0619493 -6.7576675
-4.7353559 4.8986435 -6.7577319
-4.7353396 4.7353401 -6.7577982
-4.7353239 4.5720372 -6.757863
-4.7353086 4.4087353 -6.7579284
-4.7352929 4.2454352 -6.7579932
-4.7352767 4.0821357 -6.7580595
-4.7352614 3.9188373 -6.7581239
-4.7352457 3.7555401 -6.7581897
-4.73523 3.5922437 -6.758255
-4.7352147 3.4289486 -6.7583208
-4.7351985 3.2656543 -6.7583852
-4.7351828 3.1023617 -6.758451
-4.7351675 2.93907 -6.7585158
-4.7351518 2.7757785 -6.7585812
-4.7351356 2.6124895 -6.758646
-4.7351203 2.4492004 -6.7587113
-4.7351046 2.285913 -6.7587771
-4.7350893 2.1226265 -6.7588425
-4.7350893 1.9593478 -6.758842
-4.7350893 1.7960682 -6.758842
-4.7350893 1.6327895 -6.758841
-4.7350893 1.4695107 -6.7588425
-4.7350893 1.306232 -6.758842
-4.7350893 1.1429522 -6.758842
-4.7350893 0.97967392 -6.758842
-4.7350893 0.81639439 -6.758842
-4.7350893 0.65311593 -6.758842
-4.7350893 0.48983639 -6.758842
-4.7351203 0.3265605 -6.7587113
-4.73523 0.1632835 -6.758255
-4.7353239 5.1048164e-07 -6.757863
-4.7354183 -0.1632899 -6.7574716
-4.7354341 -0.32658136 -6.7574062
-4.7354341 -0.48987225 -6.7574058
-4.7354341 -0.6531629 -6.7574062
-4.7354498 -0.81645691 -6.7573404
-4.7354498 -0.97974801 -6.7573404
-4.7354498 -1.1430395 -6.7573414
-4.7354498 -1.3063304 -6.7573409
-4.7354498 -1.4696224 -6.7573409
-4.7354498 -1.6329135 -6.7573409
-4.7354498 -1.7962054 -6.7573414
-4.7354498 -1.959496 -6.7573409
-4.7354498 -2.122787 -6.7573414
-4.7354498 -2.2860794 -6.7573404
-4.7354498 -2.4493697 -6.7573414
-4.7354498 -2.6126621 -6.7573404
-4.7354498 -2.7759531 -6.7573414
-4.7354498 -2.939245 -6.7573404
-4.7354498 -3.1025357 -6.7573409
-4.7354498 -3.2658277 -6.7573404
-4.7354498 -3.4291189 -6.7573409
-4.7354498 -3.5924098 -6.7573419
-4.7354498 -3.7557015 -6.7573409
-4.7354498 -3.918992 -6.7573414
-4.7354498 -4.0822845 -6.7573404
-4.7354498 -4.2455754 -6.7573414
-4.7354498 -4.4088669 -6.75734
-4.7354498 -4.5721579 -6.7573409
-4.7354498 -4.7354498 -6.7573404
-4.7354498 -4.8987412 -6.7573409
-4.7354498 -5.0620317 -6.7573419
-4.7354498 -5.2253237 -6.7573409
-4.7354498 -5.3886147 -6.7573414
-4.7354498 -5.5519071 -6.7573404
-4.7354498 -5.7151976 -6.7573414
-4.7354498 -5.87849 -6.7573409
-4.7354498 -6.04178 -6.7573409
-4.7354498 -6.2050724 -6.75734
-4.7354498 -6.3683629 -6.7573409
-4.7354498 -6.5316548 -6.7573395
-4.7354498 -6.6949458 -6.7573409
-4.7354498 -6.8582368 -6.7573414
-4.7354498 -7.0215292 -6.7573409
-4.7354498 -7.1848197 -6.7573414
-4.7354341 -7.3480868 -6.7574072
-4.7354183 -7.5113525 -6.757472
-4.7354183 -7.6746435 -6.7574701
-4.5440979 8.1144609 -6.8783102
-4.5444422 7.952774 -6.8768282
-4.5447712 7.7910366 -6.8754086
-4.5448308 7.6288233 -6.8751512
-4.5449057 7.4666309 -6.8748288
-4.5450406 7.3045297 -6.8742485
-4.5450253 7.1421833 -6.8743129
-4.5450106 6.9798374 -6.8743773
-4.5449958 6.8174934 -6.8744426
-4.5449805 6.6551504 -6.874506
-4.5449657 6.4928083 -6.8745708
-4.544951 6.3304677 -6.8746357
-4.5449352 6.168128 -6.8747001
-4.5449204 6.0057878 -6.8747644
-4.5449204 5.8434696 -6.8747644
-4.5449057 5.6811323 -6.8748288
-4.5448909 5.5187964 -6.8748937
-4.5448756 5.3564615 -6.8749576
-4.5448608 5.1941266 -6.8750219
-4.5448461 5.0317945 -6.8750863
-4.5448308 4.8694615 -6.8751502
-4.544816 4.7071309 -6.8752155
-4.5448012 4.5448017 -6.8752804
-4.5447865 4.382473 -6.8753452
-4.5447712 4.2201447 -6.8754096
-4.5447564 4.0578179 -6.875473
-4.5447412 3.8954921 -6.8755379
-4.5447259 3.7331686 -6.8756022
-4.5447111 3.5708449 -6.8756666
-4.5446963 3.4085228 -6.8757315
-4.5446815 3.2462006 -6.8757963
-4.5446663 3.0838807 -6.8758607
-4.5446515 2.921562 -6.8759246
-4.5446367 2.7592435 -6.8759894
-4.5446215 2.5969267 -6.8760548
-4.5446067 2.4346108 -6.8761177
-4.5445919 2.2722962 -6.8761826
-4.5445771 2.1099818 -6.8762474
-4.5445614 1.9476689 -6.8763113
-4.5445614 1.7853638 -6.8763113
-4.5445614 1.6230584 -6.8763123
-4.5445614 1.460752 -6.8763123
-4.5445614 1.2984469 -6.8763123
-4.5445614 1.1361407 -6.8763118
-4.5445614 0.97383451 -6.8763123
-4.5445614 0.81152916 -6.8763118
-4.5445614 0.64922321 -6.8763118
-4.5445614 0.48691702 -6.8763118
-4.5445614 0.3246119 -6.8763113
-4.5445919 0.16230676 -6.876183
-4.5446815 -1.1802585e-07 -6.8757954
-4.5447865 -0.1623137 -6.8753452
-4.5448756 -0.32463446 -6.8749576
-4.5449057 -0.48695442 -6.8748288
-4.5449057 -0.64927197 -6.8748283
-4.5449057 -0.81159079 -6.8748288
-4.5449204 -0.97391129 -6.8747644
-4.5449204 -1.1362301 -6.8747649
-4.5449204 -1.2985489 -6.874764
-4.5449204 -1.4608678 -6.8747644
-4.5449204 -1.6231861 -6.8747644
-4.5449204 -1.7855046 -6.8747635
-4.5449204 -1.9478233 -6.874764
-4.5449204 -2.1101422 -6.874763
-4.5449204 -2.2724602 -6.8747649
-4.5449204 -2.4347792 -6.874764
-4.5449204 -2.5970979 -6.8747635
-4.5449204 -2.7594163 -6.8747644
-4.5449204 -2.921735 -6.874764
-4.5449204 -3.0840533 -6.8747654
-4.5449204 -3.2463717 -6.8747644
-4.5449204 -3.4086905 -6.8747635
-4.5449204 -3.5710087 -6.8747649
-4.5449204 -3.7333276 -6.874764
-4.5449204 -3.8956466 -6.8747635
-4.5449204 -4.0579648 -6.8747649
-4.5449204 -4.2202835 -6.874764
-4.5449204 -4.3826027 -6.8747635
-4.5449204 -4.5449204 -6.8747644
-4.5449204 -4.7072396 -6.874764
-4.5449204 -4.8695574 -6.8747654
-4.5449204 -5.0318761 -6.8747644
-4.5449204 -5.1941953 -6.874764
-4.5449204 -5.356513 -6.8747644
-4.5449204 -5.5188322 -6.874764
-4.5449204 -5.6811514 -6.8747635
-4.5449204 -5.8434696 -6.8747649
-4.5449204 -6.0057878 -6.874764
-4.5449204 -6.1681075 -6.8747635
-4.5449204 -6.3304253 -6.8747649
-4.5449204 -6.492744 -6.874764
-4.5449204 -6.6550632 -6.8747635
-4.5449204 -6.8173804 -6.8747644
-4.5449204 -6.9796996 -6.874764
-4.5449204 -7.1420178 -6.8747649
-4.5449057 -7.3043122 -6.8748288
-4.5449057 -7.4666314 -6.8748283
-4.5448909 -7.6289239 -6.8748932
-4.3559361 8.0665483 -6.9939833
-4.3562493 7.9057856 -6.9925809
-4.3565631 7.7450018 -6.9911799
-4.3565631 7.5836473 -6.9911795
-4.3566914 7.4225116 -6.9906054
-4.3567624 7.2612705 -6.9902873
-4.3567481 7.0998864 -6.9903512
-4.3567338 6.9385023 -6.9904151
-4.35672 6.7771201 -6.990478
-4.3567057 6.6157384 -6.9905415
-4.3567057 6.4543781 -6.9905415
-4.3566914 6.2929993 -6.9906058
-4.3566771 6.1316199 -6.9906693
-4.3566628 5.970242 -6.9907336
-4.3566484 5.8088655 -6.9907975
-4.3566341 5.6474886 -6.9908605
-4.3566203 5.4861145 -6.9909248
-4.356606 5.3247399 -6.9909883
-4.3565917 5.1633687 -6.9910522
-4.3565774 5.001996 -6.9911146
-4.3565631 4.8406258 -6.991179
-4.3565488 4.6792564 -6.9912429
-4.3565345 4.5178876 -6.9913073
-4.3565202 4.3565207 -6.9913707
-4.3565059 4.1951537 -6.9914341
-4.356492 4.0337892 -6.9914975
-4.3564777 3.8724253 -6.9915619
-4.3564634 3.7110622 -6.9916258
-4.3564491 3.5496991 -6.9916892
-4.3564348 3.3883383 -6.9917526
-4.3564205 3.2269781 -6.991817
-4.3564062 3.0656197 -6.9918799
-4.3563919 2.9042614 -6.9919438
-4.3563776 2.7429044 -6.9920073
-4.3563633 2.5815492 -6.9920712
-4.356349 2.4201944 -6.9921346
-4.3563352 2.2588403 -6.9921989
-4.3563209 2.0974882 -6.9922624
-4.3563066 1.9361365 -6.9923263
-4.3562922 1.7747859 -6.9923897
-4.3562922 1.6134415 -6.9923892
-4.3562922 1.4520975 -6.9923892
-4.3562922 1.2907538 -6.9923902
-4.3562922 1.1294096 -6.9923897
-4.3562922 0.96806461 -6.9923902
-4.3562922 0.80672044 -6.9923897
-4.3562922 0.64537627 -6.9923897
-4.3562922 0.4840323 -6.9923897
-4.3562922 0.3226884 -6.9923902
-4.3562922 0.16134442 -6.9923902
-4.3563209 -3.5741832e-07 -6.9922619
-4.3564062 -0.16134816 -6.9918799
-4.356492 -0.32270345 -6.9914975
-4.3565774 -0.48406363 -6.991116
-4.3566341 -0.64542717 -6.9908605
-4.3566341 -0.8067838 -6.9908605
-4.3566341 -0.9681412 -6.9908609
-4.3566341 -1.1294978 -6.9908605
-4.3566484 -1.2908591 -6.9907966
-4.3566484 -1.4522165 -6.990797
-4.3566484 -1.613574 -6.9907966
-4.3566484 -1.774931 -6.9907966
-4.3566484 -1.9362881 -6.990797
-4.3566484 -2.0976455 -6.9907966
-4.3566484 -2.2590027 -6.9907966
-4.3566484 -2.4203606 -6.9907961
-4.3566484 -2.5817168 -6.9907975
-4.3566484 -2.7430747 -6.990797
-4.3566484 -2.9044323 -6.9907966
-4.3566484 -3.0657904 -6.9907961
-4.3566484 -3.2271471 -6.990797
-4.3566484 -3.3885045 -6.9907966
-4.3566484 -3.5498624 -6.9907961
-4.3566484 -3.7112186 -6.9907975
-4.3566484 -3.8725767 -6.990797
-4.3566484 -4.0339341 -6.9907961
-4.3566484 -4.195291 -6.9907975
-4.3566484 -4.3566484 -6.990797
-4.3566484 -4.5180063 -6.9907966
-4.3566484 -4.6793637 -6.9907956
-4.3566484 -4.8407202 -6.990797
-4.3566484 -5.0020781 -6.9907966
-4.3566484 -5.1634355 -6.9907961
-4.3566484 -5.3247929 -6.9907975
-4.3566484 -5.4861503 -6.990797
-4.3566484 -5.6475077 -6.9907961
-4.3566484 -5.8088641 -6.990797
-4.3566484 -5.9702215 -6.9907966
-4.3566484 -6.1315799 -6.9907966
-4.3566484 -6.2929373 -6.9907961
-4.3566484 -6.4542937 -6.990797
-4.3566484 -6.6156511 -6.9907966
-4.3566484 -6.7770095 -6.9907961
-4.3566484 -6.9383659 -6.9907975
-4.3566484 -7.0997233 -6.9907966
-4.3566484 -7.2610807 -6.9907961
-4.3566341 -7.4224143 -6.99086
-4.3566203 -7.5837464 -6.9909234
-4.1699691 8.0191717 -7.1083603
-4.1702809 7.8593764 -7.1069117
-4.1705117 7.6994057 -7.1058412
-4.1705117 7.5390019 -7.1058416
-4.1706743 7.3788862 -7.1050849
-4.1707015 7.2185225 -7.10496
-4.1707015 7.0581102 -7.104959
-4.1706882 6.8976774 -7.1050229
-4.1706743 6.7372437 -7.1050858
-4.170661 6.5768118 -7.1051483
-4.1706471 6.4163809 -7.1052117
-4.1706338 6.2559505 -7.1052737
-4.17062 6.0955219 -7.1053371
-4.1706066 5.9350944 -7.1053996
-4.1705933 5.7746673 -7.105463
-4.1705794 5.6142421 -7.105526
-4.1705661 5.4538174 -7.1055889
-4.1705523 5.2933931 -7.1056514
-4.1705389 5.1329713 -7.1057153
-4.1705251 4.9725499 -7.1057782
-4.1705117 4.812129 -7.1058412
-4.1704984 4.6517096 -7.1059031
-4.1704845 4.491291 -7.1059666
-4.1704712 4.3308735 -7.1060295
-4.1704574 4.1704574 -7.1060929
-4.1704435 4.0100427 -7.1061563
-4.1704302 3.8496284 -7.1062188
-4.1704168 3.6892152 -7.1062822
-4.170403 3.5288026 -7.1063452
-4.1703897 3.368392 -7.1064072
-4.1703763 3.2079823 -7.1064711
-4.1703625 3.0475719 -7.1065335
-4.1703486 2.8871648 -7.1065969
-4.1703353 2.7267578 -7.1066589
-4.1703219 2.5663524 -7.1067228
-4.1703081 2.4059472 -7.1067863
-4.1703081 2.2455504 -7.1067858
-4.1702948 2.0851474 -7.1068482
-4.1702809 1.9247452 -7.1069121
-4.1702676 1.7643436 -7.1069746
-4.1702538 1.6039436 -7.1070375
-4.1702404 1.4435449 -7.1071005
-4.1702404 1.2831508 -7.107101
-4.1702404 1.1227571 -7.1071
-4.1702404 0.96236324 -7.1071005
-4.1702404 0.80196863 -7.1071
-4.1702404 0.64157581 -7.1071005
-4.1702404 0.48118168 -7.1071005
-4.1702404 0.32078731 -7.1071005
-4.1702404 0.16039422 -7.1071005
-4.1702404 -1.4599004e-07 -7.1071
-4.1702676 -0.16039515 -7.1069746
-4.1703486 -0.32079682 -7.1065965
-4.1704302 -0.48120323 -7.1062183
-4.1705117 -0.64161682 -7.1058412
-4.1705794 -0.80203444 -7.1055264
-4.1705794 -0.96244103 -7.105526
-4.1705794 -1.122848 -7.105526
-4.1705794 -1.2832558 -7.1055264
-4.1705933 -1.4436666 -7.105463
-4.1705933 -1.6040745 -7.105463
-4.1705933 -1.7644818 -7.1054635
-4.1705933 -1.9248888 -7.1054635
-4.1705933 -2.0852962 -7.1054635
-4.1705933 -2.2457042 -7.1054626
-4.1705933 -2.4061112 -7.1054626
-4.1705933 -2.566519 -7.105463
-4.1705933 -2.7269258 -7.105464
-4.1705933 -2.8873334 -7.105463
-4.1705933 -3.0477414 -7.1054626
-4.1705933 -3.2081482 -7.1054635
-4.1705933 -3.368556 -7.1054626
-4.1705933 -3.5289631 -7.1054635
-4.1705933 -3.6893709 -7.105463
-4.1705933 -3.8497779 -7.105464
-4.1705933 -4.0101852 -7.105463
-4.1705933 -4.1705933 -7.1054621
-4.1705933 -4.3310003 -7.1054635
-4.1705933 -4.4914088 -7.1054626
-4.1705933 -4.6518149 -7.1054635
-4.1705933 -4.812223 -7.1054626
-4.1705933 -4.97263 -7.105464
-4.1705933 -5.1330376 -7.1054626
-4.1705933 -5.2934461 -7.1054626
-4.1705933 -5.4538522 -7.1054635
-4.1705933 -5.6142602 -7.1054626
-4.1705933 -5.7746668 -7.1054635
-4.1705933 -5.9350748 -7.1054626
-4.1705933 -6.0954819 -7.105464
-4.1705933 -6.2558899 -7.105463
-4.1705933 -6.4162979 -7.1054621
-4.1705933 -6.5767045 -7.105463
-4.1705933 -6.7371125 -7.1054626
-4.1705933 -6.8975196 -7.1054635
-4.1705933 -7.0579271 -7.105463
-4.1705933 -7.2183332 -7.1054635
-4.1705794 -7.3787184 -7.1055255
-4.1705661 -7.5391002 -7.1055884
-4.1705523 -7.6994805 -7.1056523
-3.986187 7.9723744 -7.2213387
-3.9864705 7.8134828 -7.2199702
-3.9866254 7.6543207 -7.2192225
-3.9866896 7.4949765 -7.2189126
-3.9868443 7.335794 -7.2181654
-3.9868314 7.1762967 -7.2182269
-3.9868186 7.0168014 -7.2182894
-3.9868057 6.857306 -7.2183518
-3.9867926 6.6978121 -7.2184148
-3.9867799 6.5383191 -7.2184758
-3.9867671 6.3788276 -7.2185383
-3.9867542 6.219336 -7.2186007
-3.9867411 6.0598469 -7.2186627
-3.9867284 5.9003582 -7.2187247
-3.9867156 5.7408705 -7.2187872
-3.9867024 5.5813837 -7.2188501
-3.9866896 5.4218984 -7.2189121
-3.9866769 5.2624135 -7.2189736
-3.9866638 5.1029291 -7.2190361
-3.9866509 4.9434476 -7.2190986
-3.9866381 4.7839656 -7.2191606
-3.9866254 4.6244855 -7.2192235
-3.9866123 4.4650059 -7.2192855
-3.9865994 4.3055277 -7.2193475
-3.9865866 4.1460505 -7.2194095
-3.9865735 3.9865739 -7.2194724
-3.9865608 3.8270981 -7.2195344
-3.9865479 3.6676235 -7.2195964
-3.9865348 3.5081508 -7.2196593
-3.986522 3.3486784 -7.2197208
-3.9865093 3.1892078 -7.2197833
-3.9864962 3.0297372 -7.2198458
-3.9864962 2.8702779 -7.2198458
-3.9864833 2.7108083 -7.2199073
-3.9864705 2.5513411 -7.2199693
-3.9864578 2.3918746 -7.2200322
-3.9864447 2.2324085 -7.2200942
-3.9864318 2.0729442 -7.2201567
-3.986419 1.9134809 -7.2202182
-3.9864061 1.754019 -7.2202811
-3.9863932 1.594557 -7.2203431
-3.9863803 1.4350972 -7.2204051
-3.9863672 1.2756377 -7.2204676
-3.9863546 1.1161796 -7.2205296
-3.9863546 0.95672542 -7.22053
-3.9863546 0.79727125 -7.2205305
-3.9863546 0.63781637 -7.22053
-3.9863546 0.47836301 -7.2205296
-3.9863546 0.31890863 -7.2205296
-3.9863546 0.15945449 -7.2205305
-3.9863546 -1.8575055e-07 -7.22053
-3.9863546 -0.15945457 -7.22053
-3.9863803 -0.31891012 -7.2204056
-3.9864578 -0.47837508 -7.2200322
-3.9865479 -0.63784802 -7.2195964
-3.9866254 -0.79732555 -7.2192235
-3.9867024 -0.95680833 -7.2188492
-3.9867024 -1.1162761 -7.2188497
-3.9867024 -1.2757441 -7.2188497
-3.9867024 -1.4352131 -7.2188492
-3.9867156 -1.5946859 -7.2187877
-3.9867156 -1.7541549 -7.2187872
-3.9867156 -1.9136227 -7.2187872
-3.9867156 -2.0730922 -7.2187867
-3.9867156 -2.2325604 -7.2187872
-3.9867156 -2.3920288 -7.2187877
-3.9867156 -2.5514982 -7.2187872
-3.9867156 -2.7109668 -7.2187862
-3.9867156 -2.870435 -7.2187867
-3.9867156 -3.0299039 -7.2187877
-3.9867156 -3.1893721 -7.2187877
-3.9867156 -3.3488407 -7.2187881
-3.9867156 -3.5083096 -7.2187862
-3.9867156 -3.6677785 -7.2187867
-3.9867156 -3.8272467 -7.2187872
-3.9867156 -3.9867151 -7.2187877
-3.9867156 -4.146184 -7.2187881
-3.9867156 -4.3056531 -7.2187867
-3.9867156 -4.4651213 -7.2187867
-3.9867156 -4.6245899 -7.2187877
-3.9867156 -4.7840586 -7.2187877
-3.9867156 -4.9435272 -7.2187881
-3.9867156 -5.1029963 -7.2187867
-3.9867156 -5.262464 -7.2187867
-3.9867156 -5.4219327 -7.2187872
-3.9867156 -5.5814018 -7.2187877
-3.9867156 -5.7408695 -7.2187877
-3.9867156 -5.9003386 -7.2187862
-3.9867156 -6.0598073 -7.2187867
-3.9867156 -6.219276 -7.2187877
-3.9867156 -6.3787441 -7.2187877
-3.9867156 -6.5382128 -7.2187881
-3.9867156 -6.6976829 -7.2187867
-3.9867156 -6.857151 -7.2187867
-3.9867156 -7.0166197 -7.2187877
-3.9867156 -7.1760874 -7.2187877
-3.9867024 -7.3355331 -7.2188487
-3.9866896 -7.4949775 -7.2189112
-3.9866769 -7.6544194 -7.2189746
-3.8045251 7.926095 -7.3330693
-3.8048065 7.768146 -7.3316536
-3.8048921 7.6097846 -7.331223
-3.8049898 7.4514384 -7.3307314
-3.8051 7.2931085 -7.3301778
-3.8050876 7.1345401 -7.3302393
-3.8050754 6.9759722 -7.3303003
-3.8050632 6.8174052 -7.3303623
-3.8050508 6.6588387 -7.3304234
-3.8050387 6.5002756 -7.3304853
-3.8050265 6.3417106 -7.3305469
-3.8050144 6.1831479 -7.3306079
-3.805002 6.0245867 -7.3306694
-3.8049898 5.8660264 -7.3307319
-3.8049777 5.7074671 -7.3307929
-3.8049655 5.5489078 -7.3308535
-3.8049531 5.3903503 -7.330915
-3.8049409 5.2317939 -7.3309779
-3.8049288 5.0732388 -7.331039
-3.8049166 4.9146843 -7.3311009
-3.8049042 4.7561302 -7.3311625
-3.8048921 4.5975776 -7.3312235
-3.8048799 4.4390268 -7.331285
-3.8048675 4.2804766 -7.3313465
-3.8048553 4.1219263 -7.331408
-3.8048432 3.963378 -7.3314695
-3.804831 3.804831 -7.3315301
-3.8048186 3.6462843 -7.3315926
-3.8048186 3.4877508 -7.3315921
-3.8048065 3.329206 -7.3316541
-3.8047941 3.1706617 -7.3317146
-3.8047819 3.0121195 -7.3317771
-3.8047695 2.8535774 -7.3318391
-3.8047574 2.6950371 -7.3319001
-3.8047452 2.5364969 -7.3319612
-3.804733 2.3779581 -7.3320227
-3.8047206 2.2194207 -7.3320847
-3.8047085 2.0608845 -7.3321462
-3.8046963 1.9023484 -7.3322082
-3.8046842 1.7438134 -7.3322697
-3.8046718 1.5852804 -7.3323302
-3.8046596 1.4267477 -7.3323917
-3.8046474 1.2682155 -7.3324537
-3.804635 1.1096857 -7.3325157
-3.8046229 0.95115578 -7.3325772
-3.8046229 0.79262954 -7.3325768
-3.8046229 0.63410372 -7.3325768
-3.8046229 0.47557747 -7.3325763
-3.8046229 0.31705219 -7.3325768
-3.8046229 0.15852636 -7.3325768
-3.8046229 1.0316138e-07 -7.3325763
-3.8046229 -0.15852571 -7.3325763
-3.8046229 -0.3170512 -7.3325768
-3.8046474 -0.47558111 -7.3324533
-3.8047206 -0.63412005 -7.3320842
-3.8047941 -0.79266512 -7.3317156
-3.8048799 -0.95121926 -7.331285
-3.8049531 -1.1097782 -7.3309159
-3.8049655 -1.2683221 -7.3308544
-3.8049655 -1.4268616 -7.3308539
-3.8049655 -1.5854021 -7.3308544
-3.8049655 -1.7439425 -7.3308544
-3.8049777 -1.9024888 -7.3307929
-3.8049777 -2.0610297 -7.3307929
-3.8049777 -2.2195704 -7.3307929
-3.8049777 -2.3781111 -7.3307929
-3.8049777 -2.5366521 -7.3307924
-3.8049777 -2.6951928 -7.3307924
-3.8049777 -2.8537335 -7.3307924
-3.8049777 -3.0122736 -7.3307939
-3.8049777 -3.1708152 -7.3307929
-3.8049777 -3.329356 -7.330792
-3.8049777 -3.487896 -7.3307929
-3.8049777 -3.6464376 -7.330792
-3.8049777 -3.8049777 -7.3307934
-3.8049777 -3.9635191 -7.3307924
-3.8049777 -4.1220589 -7.3307934
-3.8049777 -4.2806001 -7.3307924
-3.8049777 -4.4391403 -7.3307934
-3.8049777 -4.5976815 -7.3307929
-3.8049777 -4.7562227 -7.330792
-3.8049777 -4.914763 -7.3307929
-3.8049777 -5.0733047 -7.3307924
-3.8049777 -5.2318444 -7.3307934
-3.8049777 -5.3903852 -7.330792
-3.8049777 -5.5489254 -7.3307929
-3.8049777 -5.7074666 -7.3307924
-3.8049777 -5.8660069 -7.3307934
-3.8049777 -6.0245481 -7.3307924
-3.8049777 -6.1830897 -7.330792
-3.8049777 -6.3416295 -7.3307929
-3.8049777 -6.5001712 -7.3307924
-3.8049777 -6.6587105 -7.3307924
-3.8049777 -6.8172517 -7.330792
-3.8049777 -6.9757919 -7.3307929
-3.8049777 -7.1343331 -7.3307924
-3.8049655 -7.2928505 -7.3308539
-3.8049531 -7.4513674 -7.3309145
-3.8049409 -7.6098819 -7.330977
-3.6249716 7.8803735 -7.4434481
-3.6252265 7.7233095 -7.4421101
-3.6252615 7.5657625 -7.4419284
-3.6254005 7.4084268 -7.4411988
-3.6254585 7.2509174 -7.4408937
-3.6254468 7.093266 -7.4409547
-3.6254351 6.9356151 -7.4410152
-3.6254234 6.777966 -7.4410758
-3.625412 6.6203179 -7.4411383
-3.6254005 6.4626708 -7.4411988
-3.6253889 6.3050241 -7.4412589
-3.6253772 6.1473784 -7.4413195
-3.6253657 5.9897351 -7.4413815
-3.6253541 5.8320918 -7.4414415
-3.6253424 5.674449 -7.4415026
-3.6253309 5.516808 -7.4415627
-3.6253195 5.3591681 -7.4416242
-3.6253078 5.2015285 -7.4416847
-3.6252961 5.0438905 -7.4417453
-3.6252844 4.8862529 -7.4418063
-3.6252728 4.7286177 -7.4418678
-3.6252615 4.570982 -7.4419279
-3.6252499 4.4133477 -7.4419885
-3.6252382 4.2557144 -7.442049
-3.6252382 4.0980954 -7.4420495
-3.6252265 3.9404638 -7.4421105
-3.6252151 3.7828331 -7.4421711
-3.6252036 3.6252038 -7.4422317
-3.6251919 3.4675746 -7.4422927
-3.6251802 3.3099475 -7.4423528
-3.6251688 3.1523213 -7.4424148
-3.6251571 2.9946954 -7.4424748
-3.6251454 2.8370705 -7.4425368
-3.625134 2.6794469 -7.4425964
-3.6251225 2.5218246 -7.4426579
-3.6251109 2.3642023 -7.4427185
-3.6250992 2.2065821 -7.4427795
-3.6250875 2.0489624 -7.4428396
-3.6250758 1.8913445 -7.4429011
-3.6250646 1.7337261 -7.4429612
-3.6250529 1.5761099 -7.4430227
-3.6250412 1.4184945 -7.4430838
-3.6250296 1.2608799 -7.4431443
-3.6250181 1.103267 -7.4432049
-3.6250067 0.94565386 -7.4432659
-3.624995 0.78804308 -7.4433265
-3.624995 0.6304335 -7.4433265
-3.624995 0.4728249 -7.443326
-3.624995 0.31521687 -7.443327
-3.624995 0.15760829 -7.4433265
-3.624995 -2.6929973e-07 -7.443326
-3.624995 -0.15760854 -7.4433265
-3.624995 -0.3152169 -7.443326
-3.624995 -0.47282517 -7.443327
-3.6250181 -0.63043803 -7.4432049
-3.6250875 -0.78806299 -7.4428401
-3.6251571 -0.94569308 -7.4424753
-3.6252265 -1.1033301 -7.442111
-3.6252961 -1.2609727 -7.4417458
-3.6253309 -1.4186076 -7.4415627
-3.6253309 -1.5762306 -7.4415631
-3.6253309 -1.7338539 -7.4415627
-3.6253309 -1.8914769 -7.4415627
-3.6253424 -2.0491068 -7.4415016
-3.6253424 -2.2067301 -7.4415021
-3.6253424 -2.3643534 -7.4415021
-3.6253424 -2.5219772 -7.4415021
-3.6253424 -2.679601 -7.4415021
-3.6253424 -2.837224 -7.4415026
-3.6253424 -2.9948483 -7.4415016
-3.6253424 -3.1524711 -7.4415026
-3.6253424 -3.3100955 -7.4415026
-3.6253424 -3.4677193 -7.4415016
-3.6253424 -3.6253426 -7.4415021
-3.6253424 -3.7829664 -7.4415011
-3.6253424 -3.9405894 -7.4415026
-3.6253424 -4.0982137 -7.4415021
-3.6253424 -4.255837 -7.4415026
-3.6253424 -4.4134603 -7.4415021
-3.6253424 -4.5710845 -7.4415011
-3.6253424 -4.7287073 -7.4415021
-3.6253424 -4.8863316 -7.4415016
-3.6253424 -5.0439548 -7.4415026
-3.6253424 -5.2015781 -7.4415016
-3.6253424 -5.3592019 -7.441503
-3.6253424 -5.5168252 -7.4415016
-3.6253424 -5.6744494 -7.4415011
-3.6253424 -5.8320727 -7.4415021
-3.6253424 -5.989697 -7.4415016
-3.6253424 -6.1473198 -7.4415026
-3.6253424 -6.304944 -7.4415021
-3.6253424 -6.4625664 -7.4415026
-3.6253424 -6.6201906 -7.4415016
-3.6253424 -6.7778149 -7.4415011
-3.6253424 -6.9354382 -7.4415021
-3.6253424 -7.0930619 -7.4415016
-3.6253309 -7.2506614 -7.4415627
-3.6253195 -7.4082613 -7.4416237
-3.6253078 -7.5658598 -7.4416842
-3.6252961 -7.7234578 -7.4417443
-3.4474671 7.8351526 -7.5526209
-3.4476862 7.6789374 -7.5514197
-3.4477408 7.5223436 -7.5511184
-3.4478614 7.3658857 -7.5504575
-3.4478834 7.2092104 -7.5503364
-3.4478724 7.0524664 -7.5503969
-3.4478614 6.8957233 -7.550457
-3.4478505 6.7389803 -7.5505176
-3.4478395 6.5822396 -7.5505781
-3.4478288 6.4254985 -7.5506382
-3.4478176 6.2687593 -7.5506983
-3.4478068 6.1120205 -7.5507579
-3.4477956 5.9552836 -7.5508184
-3.4477849 5.7985473 -7.5508776
-3.4477737 5.6418118 -7.5509386
-3.447763 5.4850769 -7.5509982
-3.4477518 5.3283439 -7.5510588
-3.4477408 5.1716113 -7.5511179
-3.4477301 5.0148797 -7.5511789
-3.4477189 4.85815 -7.5512385
-3.4477189 4.7014356 -7.5512385
-3.4477081 4.5447059 -7.5512991
-3.4476969 4.3879786 -7.5513587
-3.4476862 4.2312512 -7.5514188
-3.447675 4.0745258 -7.5514793
-3.4476643 3.9178002 -7.5515399
-3.4476531 3.7610762 -7.5515995
-3.4476423 3.604353 -7.5516596
-3.4476314 3.4476311 -7.5517201
-3.4476204 3.2909105 -7.5517807
-3.4476094 3.1341903 -7.5518398
-3.4475985 2.9774716 -7.5518999
-3.4475875 2.8207536 -7.5519605
-3.4475765 2.664036 -7.5520201
-3.4475656 2.5073204 -7.5520806
-3.4475548 2.3506055 -7.5521407
-3.4475436 2.1938918 -7.5521998
-3.4475329 2.0371785 -7.5522604
-3.4475217 1.8804666 -7.552321
-3.447511 1.7237551 -7.5523806
-3.4474998 1.5670458 -7.5524411
-3.447489 1.4103361 -7.5525012
-3.4474778 1.2536285 -7.5525608
-3.4474671 1.0969214 -7.5526209
-3.4474561 0.94021517 -7.552681
-3.4474452 0.78351051 -7.5527411
-3.4474342 0.62680632 -7.5528021
-3.4474342 0.47010493 -7.5528016
-3.4474342 0.31340295 -7.5528016
-3.4474342 0.15670158 -7.5528011
-3.4474342 9.9273549e-08 -7.5528016
-3.4474342 -0.15670107 -7.5528011
-3.4474342 -0.31340325 -7.5528011
-3.4474342 -0.4701044 -7.5528011
-3.4474342 -0.62680566 -7.5528021
-3.4474452 -0.78351051 -7.5527415
-3.4475217 -0.94023311 -7.55232
-3.4475875 -1.0969601 -7.55196
-3.4476531 -1.2536923 -7.5515995
-3.4477189 -1.4104302 -7.551239
-3.447763 -1.5671651 -7.5509982
-3.447763 -1.7238812 -7.5509982
-3.447763 -1.8805981 -7.5509982
-3.447763 -2.0373142 -7.5509987
-3.4477737 -2.1940377 -7.5509386
-3.4477737 -2.350755 -7.5509377
-3.4477737 -2.5074718 -7.5509386
-3.4477737 -2.6641889 -7.5509377
-3.4477737 -2.8209059 -7.5509381
-3.4477737 -2.9776225 -7.5509386
-3.4477737 -3.1343396 -7.5509377
-3.4477737 -3.2910573 -7.5509372
-3.4477737 -3.4477737 -7.5509377
-3.4477737 -3.604491 -7.5509381
-3.4477737 -3.7612073 -7.5509386
-3.4477737 -3.9179246 -7.5509391
-3.4477737 -4.0746422 -7.5509377
-3.4477737 -4.231359 -7.5509381
-3.4477737 -4.3880758 -7.5509386
-3.4477737 -4.5447922 -7.5509386
-3.4477737 -4.7015104 -7.5509372
-3.4477737 -4.8582268 -7.5509377
-3.4477737 -5.0149436 -7.5509377
-3.4477737 -5.1716609 -7.5509386
-3.4477737 -5.3283772 -7.5509386
-3.4477737 -5.485095 -7.5509372
-3.4477737 -5.6418118 -7.5509377
-3.4477737 -5.7985287 -7.5509377
-3.4477737 -5.955246 -7.5509386
-3.4477737 -6.1119623 -7.5509391
-3.4477737 -6.2686801 -7.5509377
-3.4477737 -6.4253969 -7.5509381
-3.4477737 -6.5821133 -7.5509381
-3.4477737 -6.7388301 -7.5509386
-3.4477737 -6.8955479 -7.5509372
-3.4477737 -7.0522652 -7.5509377
-3.447763 -7.2089591 -7.5509987
-3.4477518 -7.3656511 -7.5510583
-3.4477408 -7.5223441 -7.5511184
-3.4477408 -7.679059 -7.5511179
-3.2719982 7.7904716 -7.6604886
-3.2721534 7.6350245 -7.6595974
-3.2722359 7.4793968 -7.6591229
-3.2723498 7.3238301 -7.6584682
-3.2723393 7.1679811 -7.6585274
-3.2723289 7.0121346 -7.6585875
-3.2723186 6.856287 -7.6586471
-3.2723083 6.7004409 -7.6587062
-3.2722981 6.5445962 -7.6587663
-3.2722876 6.3887525 -7.6588254
-3.2722774 6.2329097 -7.658885
-3.2722671 6.0770674 -7.6589446
-3.2722569 5.9212265 -7.6590042
-3.2722464 5.7653861 -7.6590624
-3.2722359 5.6095471 -7.659122
-3.2722256 5.4537101 -7.6591816
-3.2722256 5.2978892 -7.6591821
-3.2722154 5.1420527 -7.6592412
-3.2722049 4.986217 -7.6593008
-3.2721946 4.8303828 -7.6593599
-3.2721844 4.6745491 -7.6594195
-3.2721741 4.5187173 -7.6594796
-3.2721636 4.3628845 -7.6595387
-3.2721534 4.2070546 -7.6595984
-3.2721429 4.0512247 -7.659658
-3.2721326 3.8953958 -7.6597171
-3.2721221 3.739568 -7.6597762
-3.2721119 3.5837419 -7.6598358
-3.2721016 3.4279158 -7.6598954
-3.2720914 3.2720919 -7.6599545
-3.2720809 3.1162679 -7.6600137
-3.2720706 2.9604449 -7.6600728
-3.2720604 2.8046234 -7.6601334
-3.2720501 2.6488032 -7.6601925
-3.2720394 2.4929826 -7.6602516
-3.2720292 2.3371639 -7.6603107
-3.2720189 2.1813459 -7.6603699
-3.2720084 2.0255289 -7.66043
-3.2719982 1.8697138 -7.6604896
-3.2719879 1.7138982 -7.6605482
-3.2719777 1.5580848 -7.6606083
-3.2719672 1.4022723 -7.6606679
-3.2719569 1.2464598 -7.660727
-3.2719467 1.0906491 -7.6607862
-3.2719362 0.93483889 -7.6608453
-3.2719362 0.77903193 -7.6608453
-3.2719257 0.62322408 -7.6609044
-3.2719154 0.46741694 -7.6609645
-3.2719052 0.31161037 -7.6610236
-3.2719052 0.15580469 -7.6610241
-3.2719052 -1.5758297e-07 -7.6610241
-3.2719052 -0.15580435 -7.6610241
-3.2719052 -0.31161001 -7.6610246
-3.2719052 -0.46741489 -7.6610241
-3.2719052 -0.62321931 -7.6610236
-3.2719052 -0.77902502 -7.6610241
-3.2719154 -0.93483335 -7.660964
-3.2719777 -1.0906591 -7.6606078
-3.2720394 -1.2464914 -7.6602516
-3.2721119 -1.4023333 -7.6598358
-3.2721741 -1.5581783 -7.6594787
-3.2722256 -1.7140232 -7.6591816
-3.2722256 -1.869843 -7.6591816
-3.2722256 -2.0256634 -7.6591816
-3.2722256 -2.1814837 -7.6591821
-3.2722256 -2.3373039 -7.6591821
-3.2722359 -2.4931316 -7.6591225
-3.2722359 -2.648953 -7.6591225
-3.2722359 -2.8047733 -7.6591225
-3.2722359 -2.9605944 -7.6591225
-3.2722359 -3.116415 -7.6591225
-3.2722359 -3.2722361 -7.659122
-3.2722359 -3.4280562 -7.6591225
-3.2722359 -3.5838776 -7.659122
-3.2722359 -3.7396979 -7.6591225
-3.2722359 -3.8955195 -7.6591215
-3.2722359 -4.0513396 -7.6591225
-3.2722359 -4.20716 -7.6591234
-3.2722359 -4.3629813 -7.6591225
-3.2722359 -4.5188022 -7.6591229
-3.2722359 -4.6746235 -7.6591225
-3.2722359 -4.8304434 -7.6591225
-3.2722359 -4.9862647 -7.659122
-3.2722359 -5.1420856 -7.6591225
-3.2722359 -5.2979059 -7.6591234
-3.2722359 -5.4537268 -7.659122
-3.2722359 -5.6095471 -7.6591229
-3.2722359 -5.7653685 -7.659122
-3.2722359 -5.9211893 -7.6591229
-3.2722359 -6.0770102 -7.6591215
-3.2722359 -6.2328305 -7.6591225
-3.2722359 -6.3886509 -7.6591234
-3.2722359 -6.5444727 -7.6591225
-3.2722359 -6.7002921 -7.6591229
-3.2722359 -6.8561139 -7.659122
-3.2722359 -7.0119343 -7.6591229
-3.2722256 -7.1677322 -7.6591816
-3.2722154 -7.3235302 -7.6592412
-3.2722154 -7.4793496 -7.6592412
-3.2722049 -7.6351452 -7.6593013
-3.0985096 7.7462745 -7.7671933
-3.0986166 7.59161 -7.7665462
-3.0987334 7.4369602 -7.765842
-3.0988016 7.2821841 -7.7654305
-3.0987918 7.1272216 -7.7654891
-3.0987821 6.97226 -7.7655478
-3.0987723 6.8172994 -7.7656059
-3.0987625 6.6623397 -7.7656651
-3.098753 6.5073819 -7.7657237
-3.0987432 6.3524246 -7.7657833
-3.0987334 6.1974678 -7.7658415
-3.0987334 6.0425305 -7.7658415
-3.0987236 5.8875751 -7.7658997
-3.0987139 5.7326212 -7.7659583
-3.0987041 5.5776677 -7.7660179
-3.0986946 5.4227161 -7.7660766
-3.0986848 5.2677646 -7.7661357
-3.098675 5.1128144 -7.7661943
-3.0986652 4.9578652 -7.766253
-3.0986555 4.8029165 -7.7663121
-3.0986459 4.6479683 -7.7663703
-3.0986362 4.4930229 -7.7664285
-3.0986264 4.3380766 -7.7664881
-3.0986166 4.1831322 -7.7665462
-3.0986068 4.0281897 -7.7666054
-3.098597 3.8732469 -7.766664
-3.0985875 3.7183053 -7.7667232
-3.0985777 3.5633647 -7.7667813
-3.098568 3.4084251 -7.7668409
-3.0985582 3.2534866 -7.7668991
-3.0985484 3.0985489 -7.7669578
-3.0985389 2.9436123 -7.7670169
-3.0985291 2.7886755 -7.7670751
-3.0985193 2.6337414 -7.7671337
-3.0985096 2.4788077 -7.7671933
-3.0984998 2.3238745 -7.7672515
-3.09849 2.1689432 -7.7673106
-3.0984805 2.0140128 -7.7673693
-3.0984707 1.8590823 -7.7674279
-3.0984609 1.7041541 -7.7674866
-3.0984511 1.549226 -7.7675447
-3.0984511 1.3943034 -7.7675457
-3.0984414 1.2393765 -7.7676044
-3.0984318 1.084451 -7.7676625
-3.0984221 0.92952675 -7.7677217
-3.0984123 0.77460319 -7.7677808
-3.0984025 0.61968106 -7.767839
-3.0983927 0.46475911 -7.7678976
-3.0983829 0.30983895 -7.7679563
-3.0983734 0.15491836 -7.7680154
-3.0983734 3.6253815e-07 -7.7680154
-3.0983734 -0.15491854 -7.7680144
-3.0983734 -0.30983734 -7.7680149
-3.0983734 -0.46475571 -7.7680154
-3.0983734 -0.61967504 -7.7680149
-3.0983734 -0.77459341 -7.7680154
-3.0983734 -0.92951143 -7.7680154
-3.0983829 -1.0844342 -7.7679558
-3.0984414 -1.239377 -7.7676034
-3.0984998 -1.3943248 -7.7672515
-3.0985582 -1.5492791 -7.7668986
-3.0986264 -1.7042441 -7.7664881
-3.0986848 -1.8592108 -7.7661352
-3.0986848 -2.0141451 -7.7661352
-3.0986848 -2.1690791 -7.7661352
-3.0986848 -2.3240135 -7.7661352
-3.0986848 -2.4789476 -7.7661352
-3.0986946 -2.6338906 -7.7660761
-3.0986946 -2.788825 -7.7660766
-3.0986946 -2.9437597 -7.7660756
-3.0986946 -3.0986948 -7.7660761
-3.0986946 -3.2536287 -7.7660766
-3.0986946 -3.4085639 -7.7660761
-3.0986946 -3.5634995 -7.7660756
-3.0986946 -3.7184339 -7.7660756
-3.0986946 -3.8733683 -7.7660761
-3.0986946 -4.0283027 -7.7660766
-3.0986946 -4.1832371 -7.766077
-3.0986946 -4.3381715 -7.766077
-3.0986946 -4.4931078 -7.7660756
-3.0986946 -4.6480417 -7.7660756
-3.0986946 -4.8029766 -7.7660766
-3.0986946 -4.957911 -7.7660766
-3.0986946 -5.1128449 -7.7660766
-3.0986946 -5.2677813 -7.7660756
-3.0986946 -5.4227152 -7.7660756
-3.0986946 -5.5776505 -7.7660761
-3.0986946 -5.7325845 -7.7660761
-3.0986946 -5.8875194 -7.766077
-3.0986946 -6.0424538 -7.766077
-3.0986946 -6.1973896 -7.7660761
-3.0986946 -6.352324 -7.7660756
-3.0986946 -6.5072589 -7.7660766
-3.0986946 -6.6621933 -7.7660766
-3.0986946 -6.8171282 -7.7660775
-3.0986946 -6.9720631 -7.7660756
-3.0986848 -7.1269755 -7.7661343
-3.098675 -7.2818866 -7.7661943
-3.098675 -7.4368196 -7.7661939
-3.0986652 -7.5917306 -7.7662516
-2.9269876 7.7025986 -7.8726354
-2.927079 7.5487828 -7.8720531
-2.9271796 7.3949804 -7.8714147
-2.9272161 7.2410083 -7.8711815
-2.927207 7.0869217 -7.8712401
-2.9271977 6.932837 -7.8712988
-2.9271886 6.7787523 -7.8713565
-2.9271886 6.6246901 -7.8713555
-2.9271796 6.4706073 -7.8714137
-2.9271703 6.3165259 -7.8714724
-2.9271612 6.1624455 -7.8715305
-2.9271519 6.0083647 -7.8715887
-2.9271431 5.8542857 -7.8716469
-2.9271338 5.7002077 -7.8717046
-2.9271247 5.5461307 -7.8717628
-2.9271154 5.3920555 -7.8718209
-2.9271061 5.2379799 -7.8718791
-2.9270973 5.0839057 -7.8719368
-2.927088 4.9298329 -7.8719959
-2.927079 4.7757607 -7.8720531
-2.9270697 4.6216888 -7.8721113
-2.9270606 4.4676189 -7.87217
-2.9270515 4.313549 -7.8722272
-2.9270422 4.1594815 -7.8722858
-2.9270332 4.0054145 -7.8723435
-2.9270241 3.8513477 -7.8724022
-2.9270151 3.6972818 -7.8724599
-2.9270058 3.5432177 -7.8725181
-2.9269965 3.3891542 -7.8725758
-2.9269876 3.2350914 -7.8726344
-2.9269783 3.0810299 -7.8726931
-2.9269693 2.9269693 -7.8727508
-2.92696 2.7729096 -7.8728085
-2.9269507 2.6188514 -7.8728662
-2.9269419 2.4647934 -7.8729243
-2.9269326 2.3107364 -7.8729825
-2.9269235 2.1566808 -7.8730402
-2.9269235 2.0026314 -7.8730407
-2.9269142 1.8485771 -7.8730989
-2.9269054 1.6945243 -7.873157
-2.9268961 1.5404723 -7.8732147
-2.9268868 1.3864201 -7.8732729
-2.9268777 1.2323694 -7.8733311
-2.9268687 1.0783203 -7.8733892
-2.9268596 0.92427129 -7.8734479
-2.9268503 0.77022392 -7.8735051
-2.926841 0.61617708 -7.8735638
-2.9268322 0.46213102 -7.8736215
-2.9268229 0.30808672 -7.8736796
-2.9268138 0.15404221 -7.8737378
-2.9268045 2.4529555e-07 -7.8737955
-2.9268045 -0.15404265 -7.8737955
-2.9268045 -0.30808425 -7.873796
-2.9268045 -0.46212715 -7.873796
-2.9268045 -0.61616921 -7.8737955
-2.9268045 -0.77021164 -7.8737965
-2.9268045 -0.9242537 -7.873796
-2.9268045 -1.0782964 -7.8737955
-2.9268138 -1.2323424 -7.8737383
-2.9268687 -1.3864112 -7.8733897
-2.9269235 -1.5404862 -7.8730402
-2.9269783 -1.6945667 -7.8726921
-2.9270332 -1.8486526 -7.872344
-2.927088 -2.0027447 -7.871995
-2.9271061 -2.1568151 -7.8718796
-2.9271061 -2.3108733 -7.8718791
-2.9271061 -2.4649322 -7.8718786
-2.9271061 -2.6189899 -7.8718791
-2.9271154 -2.7730572 -7.8718209
-2.9271154 -2.9271159 -7.8718204
-2.9271154 -3.0811741 -7.8718204
-2.9271154 -3.2352324 -7.8718209
-2.9271154 -3.3892915 -7.8718209
-2.9271154 -3.5433502 -7.8718209
-2.9271154 -3.6974084 -7.8718214
-2.9271154 -3.8514678 -7.8718204
-2.9271154 -4.0055261 -7.8718219
-2.9271154 -4.159586 -7.8718204
-2.9271154 -4.3136439 -7.8718214
-2.9271154 -4.4677029 -7.8718204
-2.9271154 -4.6217608 -7.8718209
-2.9271154 -4.7758198 -7.8718219
-2.9271154 -4.9298792 -7.8718209
-2.9271154 -5.0839376 -7.8718214
-2.9271154 -5.2379966 -7.8718204
-2.9271154 -5.392055 -7.8718214
-2.9271154 -5.546114 -7.8718204
-2.9271154 -5.7001724 -7.8718209
-2.9271154 -5.8542304 -7.8718219
-2.9271154 -6.0082898 -7.8718204
-2.9271154 -6.1623483 -7.8718214
-2.9271154 -6.3164072 -7.8718204
-2.9271154 -6.4704657 -7.8718209
-2.9271154 -6.6245251 -7.87182
-2.9271154 -6.778583 -7.8718204
-2.9271154 -6.932641 -7.8718214
-2.9271061 -7.086679 -7.8718791
-2.9271061 -7.2407365 -7.8718791
-2.9270973 -7.3947711 -7.8719378
-2.927088 -7.5488062 -7.8719959
-2.75738 7.659389 -7.9769502
-2.7574573 7.506412 -7.9764342
-2.7575603 7.3534932 -7.9757447
-2.7575686 7.2003183 -7.975687
-2.7575603 7.0470972 -7.9757442
-2.7575514 6.8938794 -7.9758019
-2.7575428 6.7406602 -7.9758601
-2.7575343 6.5874434 -7.9759169
-2.7575257 6.4342275 -7.9759746
-2.7575173 6.2810121 -7.9760323
-2.7575085 6.1277971 -7.976089
-2.7575002 5.9745841 -7.9761462
-2.7574914 5.8213711 -7.9762039
-2.757483 5.6681595 -7.9762621
-2.7574744 5.5149488 -7.9763193
-2.7574658 5.3617392 -7.9763765
-2.7574573 5.2085304 -7.9764338
-2.7574487 5.0553226 -7.9764915
-2.7574401 4.9021153 -7.9765482
-2.7574317 4.7489104 -7.9766068
-2.7574229 4.5957055 -7.9766641
-2.7574146 4.4425011 -7.9767208
-2.7574058 4.2892981 -7.9767795
-2.7573972 4.136096 -7.9768362
-2.7573888 3.9828954 -7.9768939
-2.75738 3.8296945 -7.9769511
-2.7573717 3.6764958 -7.9770079
-2.7573628 3.5232975 -7.9770656
-2.7573545 3.3700995 -7.9771233
-2.7573459 3.2169037 -7.9771805
-2.7573373 3.0637083 -7.9772387
-2.7573287 2.9105139 -7.9772964
-2.7573202 2.7573197 -7.9773521
-2.7573202 2.604136 -7.9773526
-2.7573116 2.4509439 -7.9774098
-2.7573032 2.2977533 -7.9774675
-2.7572944 2.1445625 -7.9775252
-2.7572861 1.9913729 -7.9775829
-2.7572773 1.8381848 -7.9776406
-2.7572689 1.6849973 -7.9776974
-2.7572603 1.5318116 -7.9777546
-2.7572517 1.3786258 -7.9778123
-2.7572432 1.2254413 -7.97787
-2.7572343 1.0722576 -7.9779267
-2.757226 0.91907555 -7.977984
-2.7572174 0.76589388 -7.9780421
-2.7572088 0.61271304 -7.9780998
-2.7572002 0.45953348 -7.978157
-2.7571917 0.30635497 -7.9782143
-2.7571831 0.15317671 -7.978272
-2.7571747 3.2783709e-07 -7.9783292
-2.7571659 -0.1531754 -7.9783864
-2.7571659 -0.30635196 -7.9783869
-2.7571659 -0.45952755 -7.9783859
-2.7571659 -0.61270368 -7.9783864
-2.7571659 -0.76587927 -7.9783859
-2.7571659 -0.91905582 -7.9783864
-2.7571659 -1.0722312 -7.9783859
-2.7571659 -1.2254071 -7.9783859
-2.7571659 -1.3785833 -7.9783859
-2.7572174 -1.5317875 -7.9780416
-2.7572773 -1.6850028 -7.9776397
-2.7573287 -1.8382196 -7.9772954
-2.75738 -1.9914411 -7.9769511
-2.7574317 -2.1446693 -7.9766064
-2.7574573 -2.2978811 -7.9764333
-2.7574573 -2.4510732 -7.9764333
-2.7574573 -2.6042652 -7.9764333
-2.7574573 -2.7574573 -7.9764338
-2.7574573 -2.9106491 -7.9764338
-2.7574658 -3.0638511 -7.9763756
-2.7574658 -3.2170436 -7.9763761
-2.7574658 -3.3702359 -7.9763761
-2.7574658 -3.5234284 -7.9763765
-2.7574658 -3.6766212 -7.9763761
-2.7574658 -3.8298132 -7.976377
-2.7574658 -3.983007 -7.9763751
-2.7574658 -4.136199 -7.9763751
-2.7574658 -4.2893915 -7.9763756
-2.7574658 -4.442584 -7.9763761
-2.7574658 -4.5957766 -7.9763765
-2.7574658 -4.7489686 -7.9763765
-2.7574658 -4.9021616 -7.976377
-2.7574658 -5.0553536 -7.976377
-2.7574658 -5.2085462 -7.9763775
-2.7574658 -5.3617396 -7.9763756
-2.7574658 -5.5149322 -7.9763761
-2.7574658 -5.6681242 -7.9763761
-2.7574658 -5.8213162 -7.9763761
-2.7574658 -5.9745092 -7.9763765
-2.7574658 -6.1277013 -7.9763761
-2.7574658 -6.2808943 -7.9763765
-2.7574658 -6.4340863 -7.9763765
-2.7574658 -6.5872788 -7.976377
-2.7574658 -6.7404723 -7.9763756
-2.7574658 -6.8936648 -7.9763761
-2.7574658 -7.0468569 -7.9763761
-2.7574573 -7.2000265 -7.9764342
-2.7574487 -7.3531971 -7.9764905
-2.7574401 -7.5063639 -7.9765491
-2.5896409 7.616591 -8.0802746
-2.5897372 7.4645362 -8.0795927
-2.589817 7.3124247 -8.0790253
-2.5898092 7.1600609 -8.0790815
-2.5898011 7.0076976 -8.0791378
-2.589793 6.8553343 -8.079195
-2.5897851 6.7029738 -8.0792513
-2.5897772 6.5506129 -8.0793085
-2.5897691 6.3982534 -8.0793648
-2.589761 6.245894 -8.079422
-2.5897532 6.0935369 -8.0794792
-2.589745 5.9411798 -8.0795355
-2.5897372 5.7888236 -8.0795918
-2.5897291 5.6364694 -8.079649
-2.589721 5.4841146 -8.0797062
-2.5897131 5.3317623 -8.0797625
-2.5897052 5.1794109 -8.0798197
-2.5896971 5.0270586 -8.0798759
-2.589689 4.8747096 -8.0799341
-2.5896811 4.7223592 -8.0799894
-2.589673 4.5700111 -8.0800467
-2.5896649 4.4176641 -8.0801029
-2.5896571 4.2653179 -8.0801601
-2.5896492 4.1129727 -8.0802174
-2.5896409 3.960628 -8.0802746
-2.589633 3.8082838 -8.0803299
-2.5896251 3.6559408 -8.0803871
-2.5896173 3.5036001 -8.0804443
-2.5896089 3.3512592 -8.0805006
-2.5896089 3.1989291 -8.0805006
-2.589601 3.0465896 -8.0805578
-2.5895932 2.8942511 -8.0806141
-2.5895853 2.741914 -8.0806713
-2.589577 2.5895774 -8.0807285
-2.5895691 2.4372413 -8.0807858
-2.5895612 2.2849066 -8.080842
-2.5895531 2.1325729 -8.0808983
-2.589545 1.9802405 -8.0809555
-2.5895371 1.8279088 -8.0810127
-2.589529 1.6755779 -8.081069
-2.5895212 1.5232478 -8.0811262
-2.5895131 1.3709188 -8.0811834
-2.5895052 1.2185911 -8.0812397
-2.5894971 1.066264 -8.081296
-2.5894892 0.91393787 -8.0813532
-2.5894811 0.76161164 -8.0814095
-2.589473 0.60928804 -8.0814657
-2.5894651 0.4569647 -8.0815229
-2.5894573 0.30464157 -8.0815802
-2.5894489 0.15232077 -8.0816374
-2.5894411 1.1769117e-08 -8.0816946
-2.5894332 -0.15231897 -8.0817499
-2.5894253 -0.30463865 -8.0818081
-2.5894253 -0.45695731 -8.0818081
-2.5894253 -0.60927618 -8.0818071
-2.5894253 -0.76159549 -8.0818071
