# .PCD v0.7 - Point Cloud Data file format
VERSION 0.7
FIELDS x y z
SIZE 4 4 4
TYPE F F F
COUNT 1 1 1
WIDTH 1504
HEIGHT 1
VIEWPOINT 0 0 0 1 0 0 0
POINTS 1504
DATA ascii
-48.077122 -78.125298 -404.4238
-48.077122 -84.134956 -404.4238
-48.077122 -90.144585 -404.4238
-48.077122 -96.154221 -404.42383
-48.077122 -102.16385 -404.42383
-48.077122 -108.17352 -404.4238
-48.077122 -114.18314 -404.4238
-48.077122 -120.19279 -404.4238
-48.077122 -126.20241 -404.42383
-48.077122 -132.2121 -404.42377
-48.092365 -138.26553 -404.19373
-48.092365 -144.27708 -404.19373
-48.092365 -150.28865 -404.19373
-49.585812 -161.15387 -381.65945
-49.585812 -167.35208 -381.65948
-49.585812 -173.55031 -381.65945
-49.585812 -179.74854 -381.65945
-49.585812 -185.94676 -381.65945
-49.585812 -192.145 -381.65948
-49.585812 -198.34325 -381.65942
-49.585812 -204.54143 -381.65945
-49.585812 -210.73965 -381.65948
-49.585812 -216.93791 -381.65942
-49.585812 -223.13611 -381.65945
-49.585812 -229.33432 -381.65948
-49.585812 -235.53256 -381.65942
-41.857983 185.37109 -408.03644
-41.857983 179.3914 -408.03641
-41.857983 173.41167 -408.03644
-41.857983 167.43193 -408.03644
-41.844906 161.40181 -408.26193
-41.844906 155.42395 -408.26196
-41.844906 149.44611 -408.26193
-41.844906 143.46829 -408.26193
-41.844906 137.49043 -408.26199
-41.844906 131.51257 -408.26193
-41.844906 125.53473 -408.26196
-41.844906 119.55689 -408.26193
-41.844906 113.57906 -408.26193
-41.844906 107.6012 -408.26196
-41.844906 101.62336 -408.26193
-41.844906 95.645538 -408.26196
-41.844906 89.667664 -408.26196
-41.844906 83.689842 -408.26196
-41.844906 77.71199 -408.26193
-41.844906 71.734131 -408.26196
-41.844906 65.756325 -408.26196
-41.844906 59.778484 -408.26193
-41.844906 53.80061 -408.26196
-41.844906 47.822773 -408.26193
-41.844906 41.84491 -408.26196
-41.844906 35.867073 -408.26193
-41.844906 29.889236 -408.26193
-41.844906 23.91139 -408.26196
-41.844906 17.933552 -408.26193
-41.844906 11.955729 -408.26193
-41.844906 5.977839 -408.26193
-41.844906 1.6647173e-05 -408.26193
-41.844906 -5.9777899 -408.26196
-41.844784 -11.955616 -408.26404
-41.844784 -17.933464 -408.26404
-41.844784 -23.911301 -408.26407
-41.844784 -29.889107 -408.26407
-41.844784 -35.866928 -408.26407
-41.844784 -41.844769 -408.26404
-41.844784 -47.822601 -408.26404
-41.844784 -53.800411 -408.26407
-41.844784 -59.778244 -408.26407
-41.844784 -65.756073 -408.26404
-41.844784 -71.733902 -408.26404
-41.844784 -77.711723 -408.26407
-41.844784 -83.689537 -408.26407
-41.844784 -89.667374 -408.26407
-41.844784 -95.645218 -408.26404
-41.844784 -101.62302 -408.26404
-41.844784 -107.60085 -408.26404
-41.844784 -113.57869 -408.26407
-41.844784 -119.55648 -408.26407
-41.844784 -125.53433 -408.26404
-41.844784 -131.51216 -408.26404
-41.857983 -137.53334 -408.03644
-41.857983 -143.51306 -408.03644
-41.857983 -149.49277 -408.03641
-43.158009 -160.30113 -385.61835
-43.158009 -166.4666 -385.61835
-43.158009 -172.63199 -385.61835
-43.158009 -178.79742 -385.61835
-43.158138 -184.96341 -385.61609
-43.158138 -191.12886 -385.61612
-43.158138 -197.2943 -385.61612
-43.158138 -203.45976 -385.61612
-43.158138 -209.62523 -385.61606
-43.158138 -215.7907 -385.61606
-43.158138 -221.95613 -385.61606
-43.158138 -228.12158 -385.61609
-43.158138 -234.28702 -385.61609
-35.689281 184.39465 -411.83865
-35.689281 178.44643 -411.83862
-35.689281 172.49821 -411.83862
-35.689384 166.55048 -411.83652
-35.678188 160.55188 -412.06177
-35.678188 154.6055 -412.06177
-35.678188 148.65915 -412.06177
-35.678188 142.7128 -412.06177
-35.678188 136.7664 -412.06177
-35.678188 130.82007 -412.0618
-35.678188 124.87366 -412.06177
-35.678188 118.92732 -412.0618
-35.678188 112.98096 -412.06177
-35.678188 107.03458 -412.0618
-35.678188 101.08822 -412.06177
-35.678188 95.141869 -412.06177
-35.678188 89.195503 -412.0618
-35.678188 83.249123 -412.06177
-35.678188 77.302795 -412.06177
-35.678188 71.356377 -412.06177
-35.678188 65.410049 -412.06177
-35.678188 59.463646 -412.06177
-35.678188 53.517303 -412.0618
-35.678188 47.570953 -412.06177
-35.678188 41.624569 -412.0618
-35.678188 35.678211 -412.06177
-35.678188 29.731846 -412.06174
-35.678085 23.785402 -412.06384
-35.678085 17.839071 -412.06384
-35.678085 11.892727 -412.06387
-35.678085 5.9463801 -412.06384
-35.678085 3.6476733e-05 -412.06387
-35.678085 -5.9463263 -412.06384
-35.678085 -11.892683 -412.06387
-35.678085 -17.839029 -412.06384
-35.678085 -23.785374 -412.06387
-35.678085 -29.731737 -412.06384
-35.678085 -35.678066 -412.06384
-35.678085 -41.624413 -412.06387
-35.678085 -47.57077 -412.06387
-35.678085 -53.517101 -412.06387
-35.678085 -59.463467 -412.06384
-35.678085 -65.409798 -412.06384
-35.678085 -71.35614 -412.06384
-35.678085 -77.302498 -412.06387
-35.678085 -83.248833 -412.06387
-35.678085 -89.19519 -412.06384
-35.678085 -95.141548 -412.06387
-35.678085 -101.0879 -412.06387
-35.678085 -107.03423 -412.06387
-35.678085 -112.98059 -412.06384
-35.678085 -118.92695 -412.06387
-35.678085 -124.87329 -412.06384
-35.678085 -130.81963 -412.06387
-35.689281 -136.8089 -411.83859
-35.689281 -142.75711 -411.83862
-35.689281 -148.70532 -411.83862
-35.689281 -154.65353 -411.83862
-36.797981 -165.5909 -389.53333
-36.797981 -171.72391 -389.53333
-36.797981 -177.85687 -389.53333
-36.797981 -183.98988 -389.53329
-36.797981 -190.12286 -389.53333
-36.797981 -196.25587 -389.53333
-36.797981 -202.38885 -389.53336
-36.797981 -208.52187 -389.53333
-36.797981 -214.65488 -389.53329
-36.797981 -220.78789 -389.53329
-36.797981 -226.92085 -389.53336
-36.797981 -233.05386 -389.53333
-29.585224 183.42844 -415.60098
-29.585314 177.5119 -415.59894
-29.585314 171.5948 -415.59891
-29.57608 165.62608 -415.82181
-29.57608 159.71083 -415.82178
-29.57608 153.79564 -415.82181
-29.57608 147.88046 -415.82181
-29.57608 141.96521 -415.82181
-29.57608 136.05 -415.82181
-29.57608 130.13475 -415.82178
-29.57608 124.21955 -415.82181
-29.57608 118.30436 -415.82181
-29.57608 112.38913 -415.82181
-29.57608 106.47391 -415.82181
-29.57608 100.55869 -415.82181
-29.57608 94.643494 -415.82178
-29.57608 88.728271 -415.82181
-29.57608 82.813042 -415.82178
-29.57608 76.89782 -415.82181
-29.57608 70.982635 -415.82181
-29.57608 65.067406 -415.82178
-29.575996 59.152023 -415.82388
-29.575996 53.236839 -415.82385
-29.575996 47.321598 -415.82385
-29.575996 41.406429 -415.82385
-29.575996 35.491203 -415.82385
-29.575996 29.576017 -415.82385
-29.575996 23.660824 -415.82388
-29.575996 17.745638 -415.82388
-29.575996 11.830382 -415.82385
-29.575996 5.915226 -415.82385
-29.575996 4.0738221e-05 -415.82385
-29.575996 -5.9151835 -415.82385
-29.575996 -11.830381 -415.82385
-29.575996 -17.745583 -415.82382
-29.575996 -23.66078 -415.82382
-29.575996 -29.575979 -415.82385
-29.575996 -35.491161 -415.82385
-29.575996 -41.406361 -415.82385
-29.575996 -47.321571 -415.82388
-29.575996 -53.236786 -415.82385
-29.575996 -59.151981 -415.82385
-29.575996 -65.067177 -415.82385
-29.575996 -70.982353 -415.82385
-29.575996 -76.89756 -415.82388
-29.575996 -82.812759 -415.82388
-29.575996 -88.727974 -415.82385
-29.575996 -94.643173 -415.82385
-29.575996 -100.55837 -415.82385
-29.575996 -106.47356 -415.82385
-29.575996 -112.38876 -415.82385
-29.575996 -118.30396 -415.82382
-29.575996 -124.21915 -415.82382
-29.575996 -130.13435 -415.82388
-29.575996 -136.04956 -415.82388
-29.585314 -142.00948 -415.59891
-29.585314 -147.92653 -415.59891
-29.585314 -153.84361 -415.59891
-30.504425 -164.72386 -393.40955
-30.504425 -170.82478 -393.40955
-30.504425 -176.92564 -393.40955
-30.504425 -183.02654 -393.40955
-30.504425 -189.12743 -393.40955
-30.504425 -195.22832 -393.40955
-30.504425 -201.32919 -393.40955
-30.504425 -207.43007 -393.40955
-30.504425 -213.53098 -393.40948
-30.504425 -219.63185 -393.40955
-30.504425 -225.73276 -393.40948
-30.504425 -231.83363 -393.40955
-23.544874 182.47282 -419.32208
-23.544874 176.58661 -419.32208
-23.544874 170.70038 -419.32205
-23.537565 164.76299 -419.54263
-23.537565 158.87862 -419.54263
-23.537565 152.99419 -419.5426
-23.537565 147.10982 -419.5426
-23.537565 141.2254 -419.54263
-23.537565 135.34103 -419.54263
-23.537565 129.45662 -419.54263
-23.537565 123.57225 -419.5426
-23.537565 117.68784 -419.54263
-23.537565 111.80347 -419.54263
-23.537565 105.91908 -419.54266
-23.537565 100.03468 -419.54263
-23.537565 94.150307 -419.54263
-23.5375 88.265648 -419.54465
-23.5375 82.381264 -419.54465
-23.5375 76.496864 -419.54465
-23.5375 70.612495 -419.54465
-23.5375 64.728127 -419.54465
-23.5375 58.843761 -419.54465
-23.5375 52.959385 -419.54465
-23.5375 47.075016 -419.54465
-23.5375 41.190651 -419.54465
-23.5375 35.306244 -419.54468
-23.5375 29.421879 -419.54465
-23.5375 23.5375 -419.54468
-23.5375 17.653133 -419.54465
-23.5375 11.768767 -419.54465
-23.5375 5.8844008 -419.54465
-23.5375 3.4796147e-05 -419.54465
-23.5375 -5.8843446 -419.54465
-23.5375 -11.768723 -419.54465
-23.5375 -17.653103 -419.54468
-23.5375 -23.537481 -419.54468
-23.5375 -29.421848 -419.54468
-23.5375 -35.306229 -419.54468
-23.5375 -41.190605 -419.54468
-23.5375 -47.074974 -419.54468
-23.5375 -52.959351 -419.54468
-23.5375 -58.843704 -419.54465
-23.5375 -64.728111 -419.54468
-23.5375 -70.612465 -419.54468
-23.5375 -76.496841 -419.54468
-23.5375 -82.381226 -419.54468
-23.5375 -88.265602 -419.54468
-23.5375 -94.149979 -419.54468
-23.5375 -100.03433 -419.54468
-23.5375 -105.91872 -419.54468
-23.5375 -111.80309 -419.54468
-23.5375 -117.68747 -419.54468
-23.5375 -123.57182 -419.54468
-23.5375 -129.45624 -419.54471
-23.5375 -135.34059 -419.54468
-23.544874 -141.26921 -419.32205
-23.544874 -147.15546 -419.32205
-23.544874 -153.04166 -419.32208
-24.27643 -163.86592 -397.24536
-24.27643 -169.93498 -397.24536
-24.27643 -176.00412 -397.24536
-24.27643 -182.07323 -397.24539
-24.27643 -188.14235 -397.24536
-24.27643 -194.21144 -397.24539
-24.27643 -200.28056 -397.24536
-24.27643 -206.34966 -397.24536
-24.27643 -212.41876 -397.24536
-24.276505 -218.48854 -397.24319
-24.276505 -224.55763 -397.24319
-24.276505 -230.62675 -397.24323
-17.567085 181.52657 -423.00662
-17.567085 175.6709 -423.00659
-17.567135 169.81566 -423.00455
-17.561661 163.90884 -423.22485
-17.561661 158.05498 -423.22491
-17.561661 152.2011 -423.22488
-17.561661 146.34721 -423.22488
-17.561661 140.4933 -423.22488
-17.561661 134.63942 -423.22488
-17.561661 128.78554 -423.22488
-17.561609 122.93127 -423.2269
-17.561609 117.0774 -423.2269
-17.561609 111.22356 -423.22693
-17.561609 105.36968 -423.2269
-17.561609 99.515808 -423.2269
-17.561609 93.661942 -423.2269
-17.561609 87.808067 -423.2269
-17.561609 81.954185 -423.2269
-17.561609 76.100342 -423.22693
-17.561609 70.246468 -423.2269
-17.561609 64.392586 -423.2269
-17.561609 58.538712 -423.2269
-17.561609 52.684849 -423.2269
-17.561609 46.830975 -423.2269
-17.561609 40.977097 -423.22687
-17.561609 35.123249 -423.22693
-17.561609 29.269373 -423.2269
-17.561609 23.415497 -423.2269
-17.561609 17.561634 -423.2269
-17.561609 11.707757 -423.2269
-17.561609 5.8538799 -423.22687
-17.561609 3.4865276e-05 -423.22693
-17.561609 -5.8538423 -423.2269
-17.561609 -11.707733 -423.2269
-17.561609 -17.561609 -423.2269
-17.561609 -23.415472 -423.2269
-17.561609 -29.269348 -423.2269
-17.561609 -35.123226 -423.22687
-17.561609 -40.97707 -423.22693
-17.561609 -46.830936 -423.2269
-17.561609 -52.684826 -423.2269
-17.561609 -58.538673 -423.2269
-17.561609 -64.392563 -423.2269
-17.561609 -70.246414 -423.2269
-17.561609 -76.100304 -423.2269
-17.561609 -81.954155 -423.2269
-17.561609 -87.808044 -423.2269
-17.561609 -93.661903 -423.22687
-17.561609 -99.515762 -423.22693
-17.561609 -105.36963 -423.2269
-17.561609 -111.22352 -423.2269
-17.561609 -117.07737 -423.2269
-17.561609 -122.93126 -423.2269
-17.561609 -128.78513 -423.22687
-17.561609 -134.63898 -423.22693
-17.567135 -140.53706 -423.00455
-17.567135 -146.39276 -423.00458
-17.567135 -152.24847 -423.00458
-18.11298 -163.0168 -401.04144
-18.11298 -169.05446 -401.04144
-18.11298 -175.09212 -401.04144
-18.11298 -181.12979 -401.04144
-18.11298 -187.16747 -401.04144
-18.11298 -193.20512 -401.04141
-18.11298 -199.24278 -401.04147
-18.113033 -205.28104 -401.03931
-18.113033 -211.31873 -401.03931
-18.113033 -217.3564 -401.03931
-18.113033 -223.3941 -401.03928
-18.113033 -229.43178 -401.03928
-18.113033 -235.46945 -401.03928
-11.650972 186.41559 -426.65314
-11.650972 180.5901 -426.65314
-11.651005 174.76511 -426.65109
-11.651005 168.93962 -426.65109
-11.647393 163.06354 -426.86917
-11.64736 157.2394 -426.87115
-11.64736 151.41573 -426.87119
-11.64736 145.59201 -426.87112
-11.64736 139.76834 -426.87115
-11.64736 133.94467 -426.87115
-11.64736 128.12099 -426.87115
-11.64736 122.29731 -426.87115
-11.64736 116.47363 -426.87115
-11.64736 110.64996 -426.87119
-11.64736 104.82628 -426.87115
-11.64736 99.002586 -426.87115
-11.64736 93.178902 -426.87112
-11.64736 87.355225 -426.87115
-11.64736 81.531555 -426.87115
-11.64736 75.707878 -426.87115
-11.64736 69.884193 -426.87115
-11.64736 64.060516 -426.87115
-11.64736 58.236813 -426.87112
-11.64736 52.413139 -426.87112
-11.64736 46.589466 -426.87115
-11.64736 40.765793 -426.87115
-11.64736 34.942104 -426.87115
-11.64736 29.118429 -426.87115
-11.64736 23.294756 -426.87115
-11.64736 17.471052 -426.87112
-11.64736 11.647378 -426.87112
-11.64736 5.8237052 -426.87115
-11.64736 1.5879896e-05 -426.87112
-11.64736 -5.8236575 -426.87115
-11.64736 -11.647344 -426.87115
-11.64736 -17.471016 -426.87119
-11.64736 -23.294706 -426.87115
-11.64736 -29.118395 -426.87115
-11.64736 -34.94207 -426.87115
-11.64736 -40.765743 -426.87112
-11.64736 -46.589417 -426.87115
-11.64736 -52.41309 -426.87115
-11.64736 -58.236763 -426.87119
-11.64736 -64.060455 -426.87115
-11.64736 -69.88414 -426.87115
-11.64736 -75.707832 -426.87112
-11.64736 -81.531502 -426.87115
-11.64736 -87.355179 -426.87115
-11.64736 -93.178848 -426.87115
-11.64736 -99.002541 -426.87115
-11.64736 -104.82622 -426.87115
-11.64736 -110.64992 -426.87112
-11.64736 -116.47359 -426.87112
-11.64736 -122.29726 -426.87115
-11.64736 -128.12094 -426.87115
-11.64736 -133.94463 -426.87115
-11.651005 -139.81206 -426.65112
-11.651005 -145.63756 -426.65112
-11.651005 -151.46304 -426.65109
-12.013074 -162.17645 -404.7984
-12.013074 -168.18304 -404.79837
-12.013074 -174.18956 -404.79837
-12.013074 -180.19609 -404.79837
-12.013074 -186.20264 -404.79837
-12.013108 -192.20973 -404.79623
-12.013108 -198.21629 -404.79626
-12.013108 -204.22282 -404.79626
-12.013108 -210.22939 -404.7963
-12.013108 -216.23595 -404.79626
-12.013108 -222.24248 -404.79626
-12.013108 -228.24907 -404.79623
-12.013108 -234.25562 -404.7963
-5.7955875 185.45886 -430.26221
-5.7956038 179.66374 -430.26025
-5.7956038 173.86818 -430.26022
-5.7956038 168.07257 -430.26022
-5.7937999 162.22639 -430.47803
-5.7937999 156.43262 -430.47803
-5.7937999 150.63879 -430.478
-5.7937999 144.845 -430.47803
-5.7937999 139.05124 -430.478
-5.7937999 133.25745 -430.478
-5.7937999 127.46362 -430.47797
-5.7937999 121.66984 -430.478
-5.7937999 115.87605 -430.47803
-5.7937999 110.08222 -430.478
-5.7937999 104.28844 -430.478
-5.7937999 98.494652 -430.47803
-5.7937999 92.700844 -430.478
-5.7937999 86.907028 -430.478
-5.7937999 81.113228 -430.478
-5.7937999 75.319443 -430.478
-5.7937999 69.525627 -430.47797
-5.7937999 63.731838 -430.478
-5.7937999 57.938042 -430.47803
-5.7937999 52.144238 -430.478
-5.7937999 46.350437 -430.478
-5.7937999 40.556633 -430.478
-5.7937999 34.762836 -430.478
-5.7937999 28.969017 -430.47797
-5.7937999 23.175232 -430.478
-5.7937999 17.381445 -430.478
-5.7937999 11.587659 -430.47803
-5.7937999 5.793828 -430.478
-5.7937999 2.9206991e-05 -430.47803
-5.7937999 -5.793786 -430.47803
-5.7937999 -11.587588 -430.478
-5.7937999 -17.38139 -430.478
-5.7937999 -23.175177 -430.47803
-5.7937999 -28.969007 -430.478
-5.7937999 -34.762794 -430.478
-5.7937999 -40.55658 -430.47803
-5.7937999 -46.35038 -430.478
-5.7937999 -52.144184 -430.478
-5.7937999 -57.937984 -430.478
-5.7937999 -63.73177 -430.478
-5.7937999 -69.525612 -430.478
-5.7937999 -75.319405 -430.478
-5.7937999 -81.11319 -430.47803
-5.7937999 -86.906975 -430.47803
-5.7937999 -92.70079 -430.478
-5.7937999 -98.494576 -430.47803
-5.7937999 -104.28838 -430.478
-5.7937999 -110.08218 -430.478
-5.7937832 -115.87566 -430.47998
-5.7937832 -121.66946 -430.47995
-5.7937832 -127.46322 -430.47995
-5.7937832 -133.257 -430.47998
-5.7956038 -139.09448 -430.26022
-5.7956038 -144.89009 -430.26019
-5.7956038 -150.68571 -430.26019
-6.0378561 -163.02211 -401.01782
-6.0378561 -169.05994 -401.01779
-6.0378561 -175.09781 -401.01782
-6.0378561 -181.1357 -401.01779
-6.0378561 -187.17352 -401.01779
-6.0378561 -193.2114 -401.01779
-6.0378561 -199.24922 -401.01779
-6.0378561 -205.28711 -401.01782
-6.0378742 -211.32558 -401.01569
-6.0378742 -217.36345 -401.01566
-6.0378742 -223.40131 -401.01566
-6.0378742 -229.43919 -401.01566
-6.0378742 -235.47704 -401.01566
-1.3288053e-22 185.80125 -428.97055
-1.9911031e-22 179.99548 -428.96857
-1.7825076e-22 174.18916 -428.9686
-1.5739121e-22 168.38287 -428.96857
7.8573323e-23 163.28183 -425.92804
-1.7713691e-22 157.45036 -425.92804
-1.78841e-22 151.61884 -425.92804
-9.5789928e-23 145.78735 -425.92804
1.1426422e-22 139.95586 -425.92801
-1.4144602e-22 134.12436 -425.92804
-5.8394943e-23 128.29289 -425.92804
4.5780085e-23 122.46136 -425.92801
-1.0405103e-22 116.62989 -425.92804
-2.3275819e-22 110.79838 -425.92804
-2.2704048e-23 104.96689 -425.92801
-4.5532092e-23 99.135414 -425.92801
-8.948409e-23 93.303902 -425.92804
-9.1188181e-23 87.47242 -425.92801
-1.1401622e-22 81.640907 -425.92804
-1.5796822e-22 75.809433 -425.92804
-5.3793195e-23 69.977951 -425.92801
-1.8250036e-22 64.146439 -425.92804
-2.2645236e-22 58.314968 -425.92804
-2.492804e-22 52.483456 -425.92807
-3.9226254e-23 46.651966 -425.92801
-6.2054298e-23 40.82048 -425.92801
-3.1776453e-22 34.988987 -425.92807
-1.0771039e-22 29.157497 -425.92801
-1.3053843e-22 23.325974 -425.92804
-1.7449043e-22 17.494516 -425.92807
-1.7619452e-22 11.663029 -425.92801
-1.9902256e-22 5.8315043 -425.92804
1.1031582e-23 1.6035439e-05 -425.92801
-1.3879953e-22 -5.8314662 -425.92804
-1.6162758e-22 -11.662965 -425.92804
-5.745255e-23 -17.494467 -425.92801
-1.0140455e-22 -23.325949 -425.92804
-2.3011171e-22 -29.157446 -425.92804
-1.2593668e-22 -34.988934 -425.92801
-4.2885609e-23 -40.820435 -425.92801
-1.9271672e-22 -46.651917 -425.92804
1.7337421e-23 -52.483429 -425.92801
-5.4906234e-24 -58.31493 -425.92801
-4.9442621e-23 -64.146408 -425.92804
-2.6290495e-22 -69.977898 -425.92801
-1.7985387e-22 -75.809395 -425.92801
-3.2968499e-22 -81.640877 -425.92804
-2.4352169e-22 -87.472115 -425.93005
-1.3934666e-22 -93.303604 -425.93002
-1.8329866e-22 -99.135086 -425.93005
-2.061267e-22 -104.96656 -425.93002
-2.500787e-22 -110.79802 -425.93005
-1.4590367e-22 -116.62953 -425.93002
-1.8985567e-22 -122.46099 -425.93002
-2.1268372e-22 -128.29247 -425.93002
-2.5663571e-22 -134.12395 -425.93005
-1.7451668e-22 -139.3513 -428.96857
-4.7778011e-23 -145.15762 -428.96857
-2.6918458e-23 -150.9639 -428.96857
-6.1657772e-23 -165.21919 -391.19513
-8.7497725e-23 -171.33841 -391.19513
-1.5571526e-22 -177.45764 -391.19513
-3.0855829e-22 -183.57689 -391.19516
-2.708967e-22 -189.69612 -391.19513
-2.3323512e-22 -195.81535 -391.19513
9.7179257e-23 -201.9352 -391.1929
-5.5663767e-23 -208.0544 -391.19293
1.7250242e-22 -214.17369 -391.1929
-8.621972e-23 -220.29292 -391.19293
7.8444934e-23 -226.4122 -391.1929
-2.1458531e-23 -232.5314 -391.19293
5.885694 182.45654 -419.38538
5.8857112 176.57138 -419.38336
5.8857112 170.68567 -419.38336
5.8954906 165.07379 -418.20285
5.9113388 159.60619 -416.28979
5.9113388 153.69485 -416.28983
5.9113388 147.78349 -416.28983
5.9113388 141.87216 -416.28979
5.9113388 135.96082 -416.28983
5.9113388 130.04947 -416.28983
5.9113388 124.13816 -416.28983
5.9113388 118.2268 -416.28983
5.9113388 112.31548 -416.28979
5.9113388 106.40414 -416.28979
5.9113388 100.49277 -416.28979
5.9113388 94.581451 -416.28976
5.9113388 88.670105 -416.28979
5.9113388 82.758743 -416.28979
5.9113388 76.84742 -416.28976
5.9113388 70.936073 -416.28979
5.9113388 65.024727 -416.28979
5.9113388 59.113419 -416.28979
5.9113388 53.202061 -416.28979
5.9113388 47.29073 -416.28983
5.9113388 41.379406 -416.28979
5.9113388 35.468063 -416.28983
5.9113388 29.55674 -416.28979
5.9113388 23.645378 -416.28979
5.9113388 17.734032 -416.28983
5.9113388 11.822709 -416.28979
5.9113388 5.9113607 -416.28979
5.9113388 1.5419469e-05 -416.28983
5.9113388 -5.9113073 -416.28979
5.9113388 -11.822669 -416.28979
5.9113388 -17.733988 -416.28979
5.9113388 -23.645336 -416.28979
5.9113388 -29.556683 -416.28979
5.9113388 -35.468018 -416.28979
5.9113388 -41.379368 -416.28979
5.9113388 -47.290699 -416.28979
5.9113388 -53.202034 -416.28979
5.9113388 -59.113396 -416.28976
5.9113388 -65.024696 -416.28983
5.9113388 -70.936043 -416.28983
5.9113388 -76.847382 -416.28983
5.9113388 -82.758713 -416.28979
5.9113388 -88.670036 -416.28979
5.9113388 -94.581398 -416.28979
5.9113388 -100.49273 -416.28979
5.9113388 -106.40408 -416.28983
5.9113388 -112.31544 -416.28979
5.9113388 -118.22676 -416.28983
5.9113216 -124.13776 -416.29184
5.9113216 -130.04906 -416.29184
5.8857112 -135.37134 -419.38333
5.8857112 -141.25706 -419.38333
5.8857112 -147.14278 -419.38333
5.8857112 -153.02849 -419.38333
6.2028265 -167.4763 -381.1041
6.2028265 -173.67915 -381.1041
6.2028265 -179.88197 -381.1041
6.2028265 -186.08479 -381.10406
6.2028461 -192.28819 -381.10178
6.2028461 -198.49107 -381.10181
6.2028461 -204.69392 -381.10181
6.2028461 -210.89673 -381.10181
6.2028461 -217.09958 -381.10181
6.2028461 -223.30243 -381.10181
6.2028461 -229.50528 -381.10181
6.2028461 -235.70811 -381.10181
11.934605 184.98637 -409.53442
11.934639 179.01962 -409.53232
11.934639 173.05229 -409.53232
11.934639 167.08499 -409.53232
11.986837 161.82236 -406.38187
11.986837 155.82895 -406.38187
11.986837 149.83548 -406.3819
11.986802 143.84167 -406.38397
11.986802 137.84825 -406.38397
11.986802 131.85484 -406.38397
11.986802 125.86146 -406.384
11.986802 119.86804 -406.384
11.986802 113.87466 -406.38394
11.986802 107.88125 -406.38397
11.986802 101.88785 -406.38397
11.986802 95.89444 -406.384
11.986802 89.901024 -406.38397
11.986802 83.907623 -406.38397
11.986802 77.914261 -406.38397
11.986802 71.92086 -406.38397
11.986802 65.927437 -406.38397
11.986802 59.93401 -406.38394
11.986802 53.940624 -406.384
11.986802 47.94722 -406.384
11.986802 41.953842 -406.38397
11.986802 35.960426 -406.38394
11.986802 29.967039 -406.38397
11.986802 23.973623 -406.384
11.986802 17.980206 -406.38397
11.986802 11.986789 -406.38397
11.986802 5.9934416 -406.38397
11.986802 2.3859366e-05 -406.38397
11.986802 -5.9933782 -406.38397
11.986802 -11.986795 -406.38394
11.986802 -17.980169 -406.38397
11.986802 -23.973587 -406.38397
11.986802 -29.966988 -406.38397
11.986802 -35.960377 -406.38397
11.986802 -41.953777 -406.38397
11.986802 -47.947197 -406.38397
11.986802 -53.940598 -406.38397
11.986802 -59.934002 -406.38397
11.986802 -65.927399 -406.384
11.986802 -71.920792 -406.38397
11.986802 -77.914215 -406.38394
11.986802 -83.9076 -406.38397
11.986802 -89.901001 -406.384
11.986802 -95.894417 -406.38397
11.986802 -101.88783 -406.38397
11.986802 -107.8812 -406.38397
11.986802 -113.8746 -406.38397
11.986802 -119.86801 -406.38397
11.986802 -125.86143 -406.38394
11.986802 -131.85481 -406.384
11.934639 -137.24832 -409.53232
11.934639 -143.21565 -409.53232
11.934639 -149.183 -409.53229
11.934639 -155.15027 -409.53229
12.577518 -169.79646 -370.73114
12.577518 -176.08525 -370.73111
12.577518 -182.37399 -370.73114
12.577518 -188.66275 -370.73111
12.577518 -194.95151 -370.73114
12.577518 -201.2403 -370.73111
12.577518 -207.52904 -370.73117
12.577518 -213.81781 -370.73111
12.577518 -220.10655 -370.73114
12.577518 -226.39534 -370.73111
12.577518 -232.68407 -370.73114
18.153616 181.53618 -399.40643
18.153669 175.4855 -399.40427
18.153669 169.43428 -399.40427
18.233377 164.10042 -396.19708
18.233377 158.02261 -396.19705
18.233377 151.94484 -396.19708
18.233377 145.86703 -396.19705
18.233377 139.78926 -396.19705
18.233377 133.71149 -396.19708
18.233377 127.63368 -396.19705
18.233377 121.55585 -396.19708
18.233377 115.47806 -396.19705
18.233324 109.39998 -396.19925
18.233324 103.32219 -396.19925
18.233324 97.244423 -396.19928
18.233324 91.166641 -396.19925
18.233324 85.088875 -396.19922
18.233324 79.011101 -396.19925
18.233324 72.933319 -396.19925
18.233324 66.855545 -396.19925
18.233324 60.777756 -396.19925
18.233324 54.699993 -396.19922
18.233324 48.622223 -396.19925
18.233324 42.544434 -396.19925
18.233324 36.466663 -396.19925
18.233324 30.388876 -396.19925
18.233324 24.311127 -396.19925
18.233324 18.233353 -396.19922
18.233324 12.155581 -396.19925
18.233324 6.0777941 -396.19925
18.233324 -9.1268339e-06 -396.19922
18.233324 -6.0777416 -396.19922
18.233324 -12.155529 -396.19922
18.233324 -18.233299 -396.19925
18.233324 -24.311062 -396.19925
18.233324 -30.388865 -396.19922
18.233324 -36.466637 -396.19925
18.233324 -42.544411 -396.19922
18.233324 -48.622181 -396.19925
18.233324 -54.699944 -396.19925
18.233324 -60.777729 -396.19925
18.233324 -66.855515 -396.19925
18.233324 -72.933266 -396.19925
18.233324 -79.011047 -396.19925
18.233324 -85.088799 -396.19925
18.233324 -91.166595 -396.19922
18.233324 -97.244362 -396.19922
18.233324 -103.32213 -396.19925
18.233324 -109.39992 -396.19925
18.233324 -115.47769 -396.19925
18.233324 -121.5555 -396.19925
18.233324 -127.63326 -396.19922
18.233324 -133.71103 -396.19925
18.153669 -139.17812 -399.40427
18.153669 -145.22934 -399.4043
18.153669 -151.28056 -399.40427
19.131256 -165.80421 -360.06915
19.131256 -172.18129 -360.06918
19.131256 -178.55838 -360.06915
19.131256 -184.93546 -360.06918
19.131256 -191.31255 -360.06921
19.131256 -197.68965 -360.06918
19.131256 -204.06673 -360.06921
19.131256 -210.44383 -360.06915
19.131256 -216.82091 -360.06918
19.131256 -223.19795 -360.06921
19.131256 -229.57507 -360.06915
24.550005 184.12505 -388.98956
24.550005 177.98755 -388.98959
24.550079 171.85059 -388.98734
24.550079 165.71307 -388.98737
24.658302 160.27899 -385.72144
24.658302 154.1144 -385.72144
24.658302 147.94984 -385.72141
24.658302 141.78529 -385.72144
24.658302 135.62068 -385.72141
24.658302 129.4561 -385.72144
24.658302 123.2915 -385.72141
24.658302 117.12695 -385.72144
24.658302 110.9624 -385.72144
24.658302 104.79781 -385.72141
24.658302 98.633232 -385.72144
24.658302 92.468651 -385.72144
24.658302 86.304054 -385.72144
24.658302 80.139511 -385.72141
24.658228 73.974701 -385.72363
24.658228 67.810135 -385.72366
24.658228 61.645592 -385.72366
24.658228 55.481037 -385.72369
24.658228 49.316479 -385.72363
24.658228 43.151909 -385.72366
24.658228 36.987366 -385.72366
24.658228 30.82284 -385.72366
24.658228 24.658239 -385.72366
24.658228 18.493711 -385.72366
24.658228 12.329129 -385.72366
24.658228 6.1646013 -385.72369
24.658228 2.4588198e-06 -385.72366
24.658228 -6.1645412 -385.72363
24.658228 -12.329108 -385.72369
24.658228 -18.493668 -385.72363
24.658228 -24.658195 -385.72366
24.658228 -30.822779 -385.72366
24.658228 -36.98732 -385.72366
24.658228 -43.151894 -385.72363
24.658228 -49.316448 -385.72366
24.658228 -55.480991 -385.72366
24.658228 -61.645531 -385.72366
24.658228 -67.81012 -385.72363
24.658228 -73.97467 -385.72366
24.658228 -80.139214 -385.72366
24.658228 -86.303772 -385.72369
24.658228 -92.468353 -385.72366
24.658228 -98.632881 -385.72366
24.658228 -104.79745 -385.72366
24.658228 -110.96198 -385.72366
24.658228 -117.12656 -385.72366
24.658228 -123.29112 -385.72366
24.658228 -129.45566 -385.72366
24.550079 -135.02542 -388.98734
24.550079 -141.16293 -388.98737
24.550079 -147.30045 -388.98737
24.550079 -153.43797 -388.98734
25.871716 -168.16612 -349.10342
25.871716 -174.63405 -349.10345
25.871716 -181.10201 -349.10342
25.871716 -187.56989 -349.10342
25.871716 -194.03783 -349.10349
25.871716 -200.5058 -349.10342
25.871716 -206.97369 -349.10345
25.871716 -213.44165 -349.10342
25.871716 -219.90956 -349.10342
25.871716 -226.37747 -349.10345
25.871716 -232.84544 -349.10342
31.131472 186.78885 -378.27133
31.131472 180.56256 -378.27133
31.131472 174.33624 -378.27133
31.131565 168.11049 -378.26904
31.269365 162.60071 -374.94232
31.269365 156.34683 -374.94229
31.269365 150.09296 -374.94226
31.269365 143.83911 -374.94229
31.269365 137.58525 -374.94229
31.269365 131.33134 -374.94232
31.269365 125.07749 -374.94232
31.269365 118.8236 -374.94229
31.269365 112.56974 -374.94229
31.269365 106.31588 -374.94229
31.269365 100.06197 -374.94229
31.269365 93.808105 -374.94232
31.269365 87.554237 -374.94229
31.269365 81.300362 -374.94226
31.269365 75.046494 -374.94229
31.269365 68.79261 -374.94229
31.269365 62.538754 -374.94232
31.269365 56.284893 -374.94232
31.269365 50.031002 -374.94226
31.269365 43.777142 -374.94229
31.269365 37.523281 -374.94229
31.26927 31.269283 -374.94458
31.26927 25.015425 -374.94458
31.26927 18.761564 -374.94458
31.26927 12.507706 -374.94458
31.26927 6.253901 -374.94461
31.26927 4.1327679e-05 -374.94461
31.26927 -6.253818 -374.94461
31.26927 -12.507694 -374.94461
31.26927 -18.761553 -374.94461
31.26927 -25.015373 -374.94458
31.26927 -31.269234 -374.94461
31.26927 -37.523094 -374.94461
31.26927 -43.776955 -374.94461
31.26927 -50.030827 -374.94461
31.26927 -56.28466 -374.94458
31.26927 -62.538521 -374.94458
31.26927 -68.792366 -374.94458
31.26927 -75.046227 -374.94461
31.26927 -81.300102 -374.94458
31.26927 -87.55394 -374.94458
31.26927 -93.8078 -374.94458
31.26927 -100.06165 -374.94458
31.26927 -106.31549 -374.94458
31.26927 -112.56937 -374.94455
31.26927 -118.8232 -374.94461
31.26927 -125.07703 -374.94461
31.26927 -131.33089 -374.94461
31.131565 -136.97885 -378.26901
31.131565 -143.20518 -378.26904
31.131565 -149.4315 -378.26904
32.806988 -164.03494 -337.82074
32.806988 -170.59633 -337.82074
32.806988 -177.15771 -337.82074
32.806988 -183.71913 -337.82077
32.806988 -190.28052 -337.82077
32.806988 -196.8419 -337.82077
32.806988 -203.40331 -337.82077
32.806988 -209.96472 -337.82077
32.806988 -216.52611 -337.82077
32.806988 -223.08749 -337.82077
32.806988 -229.64888 -337.82077
37.906166 183.21317 -367.23837
37.906166 176.89546 -367.23837
37.906281 170.57828 -367.23602
38.074772 164.99068 -363.84628
38.074772 158.64491 -363.84625
38.074772 152.29909 -363.84628
38.074772 145.95331 -363.84625
38.074772 139.60751 -363.84631
38.074772 133.26173 -363.84628
38.074772 126.91592 -363.84631
38.074772 120.57014 -363.84628
38.074772 114.22436 -363.84628
38.074772 107.87854 -363.84631
38.074772 101.53277 -363.84628
38.074772 95.186951 -363.84631
38.074772 88.841171 -363.84628
38.074772 82.495354 -363.84631
38.074772 76.149574 -363.84628
38.074772 69.803764 -363.84631
38.074772 63.457966 -363.84628
38.074772 57.112183 -363.84625
38.074772 50.766376 -363.84628
38.074772 44.420593 -363.84625
38.074772 38.074772 -363.84628
38.074772 31.729002 -363.84625
38.074772 25.383181 -363.84628
38.074772 19.037397 -363.84628
38.074772 12.69159 -363.84628
38.074772 6.3458238 -363.84628
38.074772 4.1205312e-05 -363.84628
38.074654 -6.3457594 -363.84866
38.074654 -12.691542 -363.84866
38.074654 -19.037312 -363.84863
38.074654 -25.383062 -363.84869
38.074654 -31.728844 -363.84866
38.074654 -38.074627 -363.84866
38.074654 -44.420422 -363.84866
38.074654 -50.76619 -363.84866
38.074654 -57.111958 -363.84866
38.074654 -63.457741 -363.84866
38.074654 -69.80352 -363.84866
38.074654 -76.149277 -363.84866
38.074654 -82.495056 -363.84866
38.074654 -88.840843 -363.84863
38.074654 -95.186607 -363.84866
38.074654 -101.53239 -363.84866
38.074654 -107.87817 -363.84866
38.074654 -114.22395 -363.84866
38.074654 -120.56973 -363.84863
38.074654 -126.91549 -363.84866
38.074654 -133.26126 -363.84866
37.906281 -138.98969 -367.23602
37.906281 -145.3074 -367.23602
37.906281 -151.62511 -367.23599
44.882725 185.94272 -355.87665
44.882725 179.53091 -355.87671
44.882725 173.11908 -355.87668
44.882862 166.70781 -355.87424
45.083221 161.01151 -352.41922
45.083221 154.57108 -352.41919
45.083221 148.13062 -352.41922
45.083221 141.69016 -352.41922
45.083221 135.24968 -352.41922
45.083221 128.8092 -352.41922
45.083221 122.36876 -352.41925
45.083221 115.92832 -352.41922
45.083221 109.48785 -352.41922
45.083221 103.04739 -352.41922
45.083221 96.606911 -352.41922
45.083221 90.166466 -352.41925
45.083221 83.72599 -352.41925
45.083221 77.285561 -352.41922
45.083221 70.845093 -352.41922
45.083221 64.40464 -352.41925
45.083221 57.964169 -352.41925
45.083221 51.523697 -352.41925
45.083221 45.083229 -352.41925
45.083221 38.64278 -352.41919
45.083221 32.202339 -352.41925
45.083221 25.761869 -352.41925
45.083221 19.321396 -352.41922
45.083221 12.880924 -352.41922
45.083221 6.440485 -352.41925
45.083221 3.6852995e-05 -352.41922
45.083221 -6.4404345 -352.41922
45.083221 -12.880905 -352.41922
45.083221 -19.32136 -352.41922
45.083221 -25.761831 -352.41922
45.083221 -32.20229 -352.41922
45.083221 -38.642723 -352.41919
45.083221 -45.083191 -352.41919
45.083076 -51.523495 -352.42169
45.083076 -57.963955 -352.42166
45.083076 -64.404373 -352.42166
45.083076 -70.844818 -352.42166
45.083076 -77.285255 -352.42166
45.083076 -83.725716 -352.42166
45.083076 -90.16613 -352.42166
45.083076 -96.60659 -352.42166
45.083076 -103.04702 -352.42169
45.083076 -109.48746 -352.42166
45.083076 -115.92787 -352.42166
45.083076 -122.36833 -352.42166
45.083076 -128.80878 -352.42169
44.882862 -134.64856 -355.87424
44.882862 -141.06039 -355.87424
44.882862 -147.47224 -355.87427
44.882862 -153.88409 -355.87421
52.070301 182.24609 -344.17133
52.070301 175.73729 -344.17133
52.070301 169.2285 -344.17133
52.303936 163.44981 -340.64609
52.303936 156.91182 -340.64609
52.303936 150.37383 -340.64609
52.303936 143.83585 -340.64603
52.303936 137.29788 -340.64609
52.303936 130.75986 -340.64609
52.303936 124.22186 -340.64609
52.303936 117.6839 -340.64606
52.303936 111.1459 -340.64606
52.303936 104.60788 -340.64606
52.303936 98.069916 -340.64609
52.303936 91.531898 -340.64609
52.303936 84.993935 -340.64606
52.303936 78.455933 -340.64606
52.303936 71.917923 -340.64606
52.303936 65.379951 -340.64612
52.303936 58.841938 -340.64609
52.303936 52.303978 -340.64606
52.303936 45.765968 -340.64609
52.303936 39.227974 -340.64609
52.303936 32.68996 -340.64606
52.303936 26.151995 -340.64612
52.303936 19.614008 -340.64606
52.303936 13.076012 -340.64609
52.303936 6.5380149 -340.64609
52.303936 1.8085277e-05 -340.64609
52.303936 -6.5379686 -340.64603
52.303936 -13.07595 -340.64606
52.303936 -19.613947 -340.64609
52.303936 -26.151957 -340.64609
52.303936 -32.689953 -340.64609
52.303936 -39.227928 -340.64603
52.303936 -45.765923 -340.64606
52.303936 -52.303917 -340.64609
52.303936 -58.841915 -340.64609
52.303936 -65.379898 -340.64609
52.303936 -71.9179 -340.64606
52.303936 -78.455887 -340.64606
52.303936 -84.993889 -340.64606
52.303772 -91.531578 -340.64859
52.303772 -98.06955 -340.64859
52.303772 -104.60751 -340.64859
52.303772 -111.14551 -340.64859
52.303772 -117.68346 -340.64862
52.303772 -124.22141 -340.64862
52.303772 -130.75938 -340.64862
52.070469 -136.68498 -344.16879
52.070469 -143.19377 -344.16882
52.070469 -149.70258 -344.16882
59.478626 185.04465 -332.10648
59.478626 178.4359 -332.10648
59.478626 171.82719 -332.10651
59.572472 165.4791 -330.84781
59.746708 159.3246 -328.51086
59.746708 152.68605 -328.51083
59.746708 146.04752 -328.51083
59.746708 139.40901 -328.51086
59.746708 132.77048 -328.51086
59.746708 126.13198 -328.51083
59.746708 119.49345 -328.51083
59.746708 112.85492 -328.51083
59.746708 106.21641 -328.51086
59.746708 99.577873 -328.51086
59.746708 92.939346 -328.51086
59.746708 86.300812 -328.51086
59.746708 79.662308 -328.51083
59.746708 73.023804 -328.51086
59.746708 66.385277 -328.51086
59.746708 59.746727 -328.51086
59.746708 53.108196 -328.51086
59.746708 46.469673 -328.51083
59.746708 39.83115 -328.51086
59.746708 33.192665 -328.51086
59.746708 26.554129 -328.51086
59.746708 19.915604 -328.51086
59.746708 13.277066 -328.51086
59.746708 6.6385417 -328.51086
59.746708 2.0126152e-05 -328.51089
59.746708 -6.6385045 -328.51086
59.746708 -13.277058 -328.51086
59.746708 -19.915543 -328.51083
59.746708 -26.554081 -328.51083
59.746708 -33.192589 -328.51086
59.746708 -39.831127 -328.51086
59.746708 -46.46965 -328.51086
59.746708 -53.108177 -328.51086
59.746708 -59.746712 -328.51086
59.746708 -66.385208 -328.51086
59.746708 -73.023735 -328.51086
59.746708 -79.662247 -328.51086
59.746708 -86.300789 -328.51083
59.746708 -92.939316 -328.51083
59.746708 -99.577835 -328.51086
59.746708 -106.21633 -328.51086
59.746517 -112.85452 -328.51343
59.746517 -119.493 -328.51349
59.746517 -126.13151 -328.51346
59.746517 -132.77003 -328.51346
59.478821 -138.78389 -332.10388
59.478821 -145.39265 -332.10385
59.478821 -152.00139 -332.10391
67.118019 181.21869 -319.66534
67.118019 174.50685 -319.66531
67.118019 167.79507 -319.66534
67.421944 161.8127 -315.99664
67.421944 155.07048 -315.99661
67.421944 148.32832 -315.99661
67.421944 141.58612 -315.99661
67.421944 134.8439 -315.99661
67.421944 128.10172 -315.99664
67.421944 121.3595 -315.99661
67.421944 114.61734 -315.99661
67.421944 107.87515 -315.99664
67.421944 101.13293 -315.99661
67.421944 94.390739 -315.99664
67.421944 87.64856 -315.99667
67.421944 80.906372 -315.99661
67.421944 74.164185 -315.99664
67.421944 67.421959 -315.99661
67.421944 60.679771 -315.99664
67.421944 53.937599 -315.99661
67.421944 47.195396 -315.99661
67.421944 40.453194 -315.99661
67.421944 33.710991 -315.99661
67.421944 26.968775 -315.99661
67.421944 20.226627 -315.99661
67.421944 13.484408 -315.99661
67.421944 6.7422214 -315.99661
67.421944 3.4407607e-05 -315.99664
67.421944 -6.7421975 -315.99664
67.421944 -13.484345 -315.99664
67.421944 -20.226564 -315.99661
67.421944 -26.96876 -315.99661
67.421944 -33.71096 -315.99664
67.421944 -40.45314 -315.99661
67.421944 -47.195328 -315.99661
67.421944 -53.937546 -315.99661
67.421944 -60.679733 -315.99661
67.421944 -67.421944 -315.99664
67.421944 -74.164124 -315.99661
67.421944 -80.906303 -315.99661
67.421944 -87.648521 -315.99661
67.421944 -94.390678 -315.99664
67.421944 -101.1329 -315.99661
67.421944 -107.87511 -315.99661
67.421944 -114.61732 -315.99658
67.421944 -121.35949 -315.99664
67.421944 -128.10168 -315.99661
67.11824 -134.23643 -319.66269
67.118019 -140.94785 -319.66531
67.118019 -147.65959 -319.66534
67.118019 -154.37143 -319.66534
74.999466 184.08965 -306.82996
74.999466 177.27148 -306.82999
74.999466 170.45337 -306.82999
75.340958 164.38031 -303.08258
75.340958 157.53111 -303.08255
75.340958 150.68195 -303.08258
75.340958 143.83275 -303.08258
75.340958 136.98361 -303.08255
75.340714 130.13397 -303.08533
75.340714 123.28484 -303.08533
75.340714 116.43565 -303.0853
75.340714 109.58652 -303.0853
75.340714 102.73734 -303.08533
75.340714 95.888199 -303.0853
75.340714 89.039024 -303.08533
75.340714 82.189896 -303.08533
75.340714 75.340752 -303.08533
75.340714 68.491585 -303.08533
75.340714 61.642414 -303.0853
75.340714 54.793247 -303.08533
75.340714 47.944134 -303.08533
75.340714 41.094933 -303.08533
75.340714 34.245804 -303.08533
75.340714 27.396637 -303.08533
75.340714 20.547491 -303.08533
75.340714 13.698349 -303.08533
75.340714 6.8491807 -303.08536
75.340714 3.5252771e-05 -303.08533
75.340714 -6.8491411 -303.08533
75.340714 -13.69827 -303.08533
75.340714 -20.547462 -303.08533
75.340714 -27.396584 -303.08533
75.340714 -34.245777 -303.08533
75.340714 -41.094906 -303.08533
75.340714 -47.944073 -303.08536
75.340714 -54.79324 -303.08533
75.340714 -61.642368 -303.08533
75.340714 -68.491562 -303.0853
75.340714 -75.340683 -303.08533
75.340714 -82.189827 -303.08533
75.340714 -89.038979 -303.08533
75.340714 -95.888138 -303.08536
75.340714 -102.73733 -303.0853
75.340714 -109.58648 -303.0853
75.340714 -116.43562 -303.0853
75.340714 -123.28479 -303.08533
75.340714 -130.13393 -303.08536
74.999466 -136.36266 -306.82996
74.999466 -143.18079 -306.82999
74.999466 -149.99893 -306.82993
83.134659 187.05302 -293.58142
83.134659 180.12512 -293.58139
83.134659 173.19724 -293.58139
83.134659 166.26936 -293.58139
83.51506 160.07054 -289.75491
83.51506 153.11098 -289.75491
83.51506 146.1514 -289.75491
83.51506 139.19179 -289.75494
83.51506 132.23221 -289.75491
83.51506 125.27261 -289.75491
83.51506 118.31303 -289.75491
83.51506 111.35345 -289.75491
83.51506 104.39384 -289.75491
83.51506 97.434273 -289.75491
83.51506 90.474655 -289.75491
83.514778 83.514778 -289.75775
83.514778 76.555229 -289.75778
83.514778 69.595657 -289.75778
83.514778 62.636116 -289.75775
83.514778 55.676556 -289.75775
83.514778 48.716984 -289.75775
83.514778 41.757404 -289.75775
83.514778 34.797867 -289.75778
83.514778 27.838293 -289.75775
83.514778 20.878731 -289.75778
83.514778 13.919152 -289.75778
83.514778 6.9595742 -289.75775
83.514778 3.2965912e-05 -289.75778
83.514778 -6.9595532 -289.75775
83.514778 -13.919131 -289.75775
83.514778 -20.878685 -289.75778
83.514778 -27.838251 -289.75775
83.514778 -34.797791 -289.75772
83.514778 -41.757343 -289.75775
83.514778 -48.7169 -289.75778
83.514778 -55.676502 -289.75775
83.514778 -62.636044 -289.75775
83.514778 -69.595604 -289.75778
83.514778 -76.555206 -289.75772
83.514778 -83.514763 -289.75775
83.514778 -90.474304 -289.75778
83.514778 -97.433907 -289.75772
83.514778 -104.39346 -289.75775
83.514778 -111.35299 -289.75778
83.514778 -118.31259 -289.75772
83.514778 -125.27213 -289.75775
83.514778 -132.23169 -289.75775
83.134659 -138.55775 -293.58142
83.134659 -145.48564 -293.58139
83.134659 -152.41354 -293.58136
91.536049 183.07213 -279.89929
91.536049 176.0309 -279.89926
91.536049 168.98967 -279.89932
91.957008 162.69318 -275.99051
91.957008 155.61958 -275.99054
91.957008 148.54594 -275.99054
91.957008 141.47234 -275.99054
91.957008 134.39871 -275.99051
91.957008 127.32511 -275.99057
91.957008 120.25149 -275.99054
91.957008 113.17787 -275.99054
91.957008 106.10425 -275.99054
91.957008 99.030655 -275.99057
91.957008 91.957024 -275.99054
91.957008 84.883408 -275.99054
91.957008 77.809784 -275.99054
91.957008 70.736183 -275.99057
91.957008 63.662563 -275.99054
91.957008 56.588932 -275.99054
91.957008 49.515324 -275.99054
91.956688 42.441578 -275.9935
91.956688 35.368008 -275.9935
91.956688 28.294376 -275.99347
91.956688 21.220816 -275.99347
91.956688 14.147215 -275.9935
91.956688 7.073647 -275.9935
91.956688 1.606088e-05 -275.99347
91.956688 -7.0735908 -275.9935
91.956688 -14.147159 -275.9935
91.956688 -21.220753 -275.9935
91.956688 -28.294321 -275.9935
91.956688 -35.367935 -275.9935
91.956688 -42.441544 -275.99344
91.956688 -49.515152 -275.99347
91.956688 -56.588707 -275.99347
91.956688 -63.662323 -275.99347
91.956688 -70.735886 -275.99347
91.956688 -77.809494 -275.9935
91.956688 -84.883064 -275.9935
91.956688 -91.956657 -275.9935
91.956688 -99.030251 -275.99353
91.956688 -106.10388 -275.99344
91.956688 -113.17746 -275.99344
91.956688 -120.25106 -275.99347
91.956688 -127.32464 -275.99347
91.536369 -133.78389 -279.89633
91.536049 -140.82469 -279.89929
91.536049 -147.86595 -279.89926
100.21693 186.11717 -265.76199
100.21693 178.95883 -265.76202
100.21693 171.80048 -265.76202
100.68019 165.40321 -261.76761
100.68019 158.21176 -261.76758
100.68019 151.02031 -261.76761
100.68019 143.82886 -261.76758
100.68019 136.63744 -261.76758
100.68019 129.44601 -261.76761
100.68019 122.25456 -261.76758
100.68019 115.0631 -261.76764
100.68019 107.87166 -261.76761
100.68019 100.68022 -261.76761
100.68019 93.488792 -261.76761
100.68019 86.297356 -261.76761
100.68019 79.105873 -261.76758
100.68019 71.914459 -261.76761
100.68019 64.723007 -261.76758
100.68019 57.531567 -261.76758
100.68019 50.340107 -261.76761
100.68019 43.14867 -261.76761
100.68019 35.957241 -261.76761
100.68019 28.765804 -261.76761
100.68019 21.57436 -261.76758
100.68019 14.382899 -261.76761
100.68019 7.1914616 -261.76761
100.68019 1.6924361e-05 -261.76758
100.67984 -7.1913848 -261.77063
100.67984 -14.382829 -261.77063
100.67984 -21.574234 -261.77066
100.67984 -28.765638 -261.77063
100.67984 -35.957069 -261.7706
100.67984 -43.148476 -261.77066
100.67984 -50.33992 -261.77066
100.67984 -57.531326 -261.77063
100.67984 -64.722717 -261.77066
100.67984 -71.914162 -261.77066
100.67984 -79.105606 -261.77063
100.67984 -86.296967 -261.77066
100.67984 -93.488411 -261.77066
100.67984 -100.67985 -261.77063
100.67984 -107.87124 -261.77066
100.67984 -115.06265 -261.77063
100.67984 -122.2541 -261.77063
100.67984 -129.44548 -261.77066
100.21693 -136.00867 -265.76202
100.21693 -143.16702 -265.76199
100.21693 -150.32535 -265.76205
109.19107 181.98514 -251.14964
109.19146 174.70638 -251.14653
109.19146 167.42691 -251.14655
109.69891 160.89177 -247.06279
109.69891 153.57852 -247.06282
109.69891 146.26524 -247.06281
109.69891 138.95198 -247.06284
109.69891 131.6387 -247.06284
109.69891 124.32549 -247.06284
109.69891 117.0122 -247.06281
109.69891 109.69893 -247.06281
109.69891 102.38567 -247.06282
109.69891 95.072426 -247.06279
109.69891 87.759171 -247.06282
109.69891 80.445892 -247.06281
109.69891 73.132629 -247.06282
109.69891 65.819351 -247.06282
109.69891 58.506138 -247.06282
109.69891 51.192856 -247.06281
109.69891 43.879593 -247.06284
109.69891 36.566322 -247.06282
109.69891 29.25304 -247.06281
109.69891 21.939817 -247.06281
109.69891 14.626569 -247.06285
109.69891 7.3132639 -247.06279
109.69891 1.3048457e-06 -247.06282
109.69891 -7.3132162 -247.06281
109.69891 -14.626464 -247.06285
109.69891 -21.939768 -247.06279
109.69891 -29.253025 -247.06281
109.69891 -36.566296 -247.06284
109.69891 -43.879551 -247.06277
109.69852 -51.192604 -247.06596
109.69852 -58.505859 -247.06599
109.69852 -65.819069 -247.06601
109.69852 -73.132332 -247.06592
109.69852 -80.445564 -247.06593
109.69852 -87.75882 -247.06595
109.69852 -95.072029 -247.06596
109.69852 -102.38525 -247.06596
109.69852 -109.69852 -247.06599
109.69852 -117.01173 -247.06598
109.69852 -124.32495 -247.06598
109.69852 -131.63818 -247.06601
109.19146 -138.30914 -251.14655
109.19146 -145.58858 -251.14653
109.19146 -152.86804 -251.14651
118.47482 185.11691 -236.02814
118.47438 177.71159 -236.03133
118.47482 170.30757 -236.02811
119.02844 163.66411 -231.85126
119.02844 156.22488 -231.85127
119.02844 148.78558 -231.85127
119.02844 141.3463 -231.85127
119.02844 133.90701 -231.85129
119.02844 126.46775 -231.85126
119.02844 119.02846 -231.85126
119.02844 111.58917 -231.85127
119.02844 104.14994 -231.85129
119.02844 96.71064 -231.85127
119.02844 89.271347 -231.85127
119.02844 81.832092 -231.85124
119.02844 74.392815 -231.85129
119.02844 66.953529 -231.85127
119.02844 59.514225 -231.85127
119.02844 52.07497 -231.85124
119.02844 44.635677 -231.85124
119.02844 37.196381 -231.85124
119.02844 29.757168 -231.85129
119.02844 22.317873 -231.85129
119.02844 14.87858 -231.85129
119.02844 7.4392853 -231.85129
119.02844 3.0120978e-05 -231.85126
119.02844 -7.4392643 -231.85124
119.02844 -14.878565 -231.85124
119.02844 -22.317827 -231.85123
119.02844 -29.757067 -231.85129
119.02844 -37.196365 -231.85129
119.02844 -44.635616 -231.85126
119.02844 -52.074917 -231.85126
119.02844 -59.514217 -231.85126
119.02844 -66.953506 -231.85126
119.02801 -74.392464 -231.85455
119.02801 -81.831718 -231.85452
119.02801 -89.271019 -231.85452
119.02801 -96.710228 -231.85458
119.02801 -104.14948 -231.85454
119.02801 -111.58874 -231.85452
119.02801 -119.028 -231.85449
119.02801 -126.46723 -231.85455
118.62884 -133.45741 -234.86601
118.47482 -140.68884 -236.02809
118.47482 -148.09348 -236.02814
128.08273 180.82271 -220.38367
128.08319 173.28906 -220.38037
128.27061 165.9973 -219.04962
128.68513 158.96402 -216.10632
128.68513 151.39432 -216.10631
128.68513 143.82457 -216.10632
128.68513 136.25485 -216.10631
128.68513 128.68515 -216.10629
128.68513 121.11545 -216.10629
128.68513 113.5457 -216.10629
128.68513 105.97601 -216.10632
128.68513 98.406311 -216.10632
128.68513 90.836601 -216.10631
128.68513 83.266853 -216.10631
128.68513 75.697151 -216.10629
128.68513 68.127441 -216.10629
128.68513 60.557735 -216.10628
128.68513 52.987988 -216.10628
128.68513 45.418285 -216.10628
128.68513 37.848576 -216.10626
128.68513 30.278915 -216.10632
