# .PCD v0.7 - Point Cloud Data file format
VERSION 0.7
FIELDS x y z
SIZE 4 4 4
TYPE F F F
COUNT 1 1 1
WIDTH 1525
HEIGHT 1
VIEWPOINT 0 0 0 1 0 0 0
POINTS 1525
DATA ascii
-0.23937906 0.10424571 2.0270002
-0.23691238 0.10486286 2.039
-0.23302858 0.10486286 2.039
-0.22914477 0.10486286 2.039
-0.22526096 0.10486286 2.039
-0.22137715 0.10486286 2.039
-0.17760001 0.085628577 1.6650001
-0.17442858 0.085628577 1.6650001
-0.17125715 0.085628577 1.6650001
-0.1672781 0.085217148 1.6570001
-0.16412191 0.085217148 1.6570001
-0.16096573 0.085217148 1.6570001
-0.15780953 0.085217148 1.6570001
-0.15465334 0.085217148 1.6570001
-0.15149716 0.085217148 1.6570001
-0.14834096 0.085217148 1.6570001
-0.14448382 0.08480572 1.649
-0.14134286 0.08480572 1.649
-0.13753143 0.084394291 1.641
-0.13440572 0.084394291 1.641
-0.13072 0.084034286 1.6340001
-0.12815429 0.084394291 1.641
-0.12449525 0.084034286 1.6340001
-0.12138286 0.084034286 1.6340001
-0.11877715 0.084394291 1.641
-0.11621524 0.08480572 1.649
-0.11307429 0.08480572 1.649
-0.26766667 0.10266667 1.9250001
-0.26550859 0.10325333 1.9360001
-0.26330858 0.10384 1.9470001
-0.26253334 0.10501334 1.9690001
-0.26022857 0.10560001 1.9800001
-0.25645715 0.10560001 1.9800001
-0.25268573 0.10560001 1.9800001
-0.25042287 0.10624 1.9920001
-0.24947619 0.10746667 2.0150001
-0.2456381 0.10746667 2.0150001
-0.24324001 0.10810667 2.0270002
-0.23937906 0.10810667 2.0270002
-0.23691238 0.10874667 2.039
-0.23302858 0.10874667 2.039
-0.22914477 0.10874667 2.039
-0.22526096 0.10874667 2.039
-0.22137715 0.10874667 2.039
-0.17930667 0.089653336 1.6810001
-0.17526667 0.089226671 1.6730001
-0.17125715 0.088800006 1.6650001
-0.16808572 0.088800006 1.6650001
-0.1649143 0.088800006 1.6650001
-0.16096573 0.088373333 1.6570001
-0.15780953 0.088373333 1.6570001
-0.15390667 0.087946668 1.649
-0.15076572 0.087946668 1.649
-0.14762476 0.087946668 1.649
-0.14448382 0.087946668 1.649
-0.14065714 0.087520003 1.641
-0.13753143 0.087520003 1.641
-0.13383238 0.08714667 1.6340001
-0.13072 0.08714667 1.6340001
-0.12815429 0.087520003 1.641
-0.12449525 0.08714667 1.6340001
-0.12138286 0.08714667 1.6340001
-0.11877715 0.087520003 1.641
-0.11621524 0.087946668 1.649
-0.11307429 0.087946668 1.649
-0.26766667 0.10633334 1.9250001
-0.264 0.10633334 1.9250001
-0.26182097 0.10694095 1.9360001
-0.26106668 0.1081562 1.9580001
-0.25878286 0.10876381 1.9690001
-0.25645715 0.10937143 1.9800001
-0.25268573 0.10937143 1.9800001
-0.25180572 0.11064191 2.003
-0.24947619 0.11130477 2.0150001
-0.2456381 0.11130477 2.0150001
-0.24324001 0.11196762 2.0270002
-0.23937906 0.11196762 2.0270002
-0.23691238 0.11263048 2.039
-0.23302858 0.11263048 2.039
-0.22914477 0.11263048 2.039
-0.22526096 0.11263048 2.039
-0.18348572 0.093352385 1.6900001
-0.17930667 0.092855245 1.6810001
-0.17526667 0.092413336 1.6730001
-0.17208001 0.092413336 1.6730001
-0.16808572 0.091971435 1.6650001
-0.1649143 0.091971435 1.6650001
-0.16096573 0.091529526 1.6570001
-0.15780953 0.091529526 1.6570001
-0.15390667 0.091087624 1.649
-0.15076572 0.091087624 1.649
-0.14762476 0.091087624 1.649
-0.14378287 0.090645716 1.641
-0.14065714 0.090645716 1.641
-0.13694477 0.090259053 1.6340001
-0.13383238 0.090259053 1.6340001
-0.13072 0.090259053 1.6340001
-0.12760763 0.090259053 1.6340001
-0.12449525 0.090259053 1.6340001
-0.12138286 0.090259053 1.6340001
-0.11877715 0.090645716 1.641
-0.11565144 0.090645716 1.641
-0.11307429 0.091087624 1.649
-0.10993334 0.091087624 1.649
-0.26627621 0.10942858 1.9150001
-0.264 0.11000001 1.9250001
-0.26033333 0.11000001 1.9250001
-0.25960001 0.11125714 1.9470001
-0.25589144 0.11125714 1.9470001
-0.25360763 0.11188572 1.9580001
-0.24987811 0.11188572 1.9580001
-0.25042287 0.11382858 1.9920001
-0.24947619 0.11514286 2.0150001
-0.2456381 0.11514286 2.0150001
-0.24180001 0.11514286 2.0150001
-0.23937906 0.11582857 2.0270002
-0.2355181 0.11582857 2.0270002
-0.23165715 0.11582857 2.0270002
-0.2277962 0.11582857 2.0270002
-0.18670477 0.096571431 1.6900001
-0.18348572 0.096571431 1.6900001
-0.17930667 0.096057147 1.6810001
-0.17526667 0.095600002 1.6730001
-0.17208001 0.095600002 1.6730001
-0.16808572 0.095142864 1.6650001
-0.1649143 0.095142864 1.6650001
-0.16174287 0.095142864 1.6650001
-0.15780953 0.094685718 1.6570001
-0.15390667 0.094228573 1.649
-0.15076572 0.094228573 1.649
-0.14762476 0.094228573 1.649
-0.14378287 0.093771435 1.641
-0.14005715 0.093371429 1.6340001
-0.13694477 0.093371429 1.6340001
-0.13383238 0.093371429 1.6340001
-0.13072 0.093371429 1.6340001
-0.12760763 0.093371429 1.6340001
-0.12449525 0.093371429 1.6340001
-0.12138286 0.093371429 1.6340001
-0.11827048 0.093371429 1.6340001
-0.1151581 0.093371429 1.6340001
-0.11252572 0.093771435 1.641
-0.1094 0.093771435 1.641
-0.26627621 0.1130762 1.9150001
-0.264 0.11366667 1.9250001
-0.26033333 0.11366667 1.9250001
-0.25960001 0.11496572 1.9470001
-0.25589144 0.11496572 1.9470001
-0.25360763 0.11561524 1.9580001
-0.25268573 0.11691429 1.9800001
-0.2489143 0.11691429 1.9800001
-0.24799049 0.11827239 2.003
-0.2456381 0.11898096 2.0150001
-0.24180001 0.11898096 2.0150001
-0.23937906 0.11968953 2.0270002
-0.19729143 0.10026286 1.6980001
-0.19497144 0.10073524 1.7060001
-0.19172192 0.10073524 1.7060001
-0.18758857 0.10026286 1.6980001
-0.18348572 0.099790476 1.6900001
-0.17930667 0.099259049 1.6810001
-0.17610477 0.099259049 1.6810001
-0.17208001 0.098786667 1.6730001
-0.16808572 0.098314293 1.6650001
-0.1649143 0.098314293 1.6650001
-0.16174287 0.098314293 1.6650001
-0.15780953 0.097841911 1.6570001
-0.15390667 0.097369529 1.649
-0.15076572 0.097369529 1.649
-0.14762476 0.097369529 1.649
-0.14378287 0.096897148 1.641
-0.14005715 0.096483812 1.6340001
-0.13694477 0.096483812 1.6340001
-0.13383238 0.096483812 1.6340001
-0.13072 0.096483812 1.6340001
-0.12760763 0.096483812 1.6340001
-0.12449525 0.096483812 1.6340001
-0.12138286 0.096483812 1.6340001
-0.11827048 0.096483812 1.6340001
-0.1151581 0.096483812 1.6340001
-0.11204572 0.096483812 1.6340001
-0.10893334 0.096483812 1.6340001
-0.26033333 0.11733334 1.9250001
-0.25813335 0.11800382 1.9360001
-0.25444573 0.11800382 1.9360001
-0.25218287 0.11867429 1.9470001
-0.25128192 0.12001524 1.9690001
-0.24753144 0.12001524 1.9690001
-0.24662858 0.12141715 1.9920001
-0.24417524 0.12208762 2.003
-0.20784001 0.10556953 1.7320001
-0.2034781 0.10502096 1.723
-0.19926667 0.10453334 1.715
-0.19600001 0.10453334 1.715
-0.19363239 0.10502096 1.723
-0.18758857 0.10349715 1.6980001
-0.18435429 0.10349715 1.6980001
-0.18026668 0.10300953 1.6900001
-0.17610477 0.10246096 1.6810001
-0.17290287 0.10246096 1.6810001
-0.16808572 0.10148571 1.6650001
-0.1649143 0.10148571 1.6650001
-0.16174287 0.10148571 1.6650001
-0.15780953 0.1009981 1.6570001
-0.15465334 0.1009981 1.6570001
-0.15149716 0.1009981 1.6570001
-0.14762476 0.10051048 1.649
-0.14378287 0.10002286 1.641
-0.14005715 0.099596195 1.6340001
-0.13694477 0.099596195 1.6340001
-0.13383238 0.099596195 1.6340001
-0.13072 0.099596195 1.6340001
-0.12760763 0.099596195 1.6340001
-0.12449525 0.099596195 1.6340001
-0.12138286 0.099596195 1.6340001
-0.11827048 0.099596195 1.6340001
-0.1151581 0.099596195 1.6340001
-0.11204572 0.099596195 1.6340001
-0.10893334 0.099596195 1.6340001
-0.25813335 0.12169144 1.9360001
-0.25444573 0.12169144 1.9360001
-0.25218287 0.12238286 1.9470001
-0.22333334 0.11000001 1.7500001
-0.21886858 0.10943429 1.7410001
-0.21555239 0.10943429 1.7410001
-0.21113905 0.10886858 1.7320001
-0.20784001 0.10886858 1.7320001
-0.2034781 0.10830286 1.723
-0.19926667 0.10780001 1.715
-0.1969143 0.10830286 1.723
-0.19273335 0.10780001 1.715
-0.18847239 0.10723429 1.7060001
-0.18435429 0.10673143 1.6980001
-0.18112001 0.10673143 1.6980001
-0.17704763 0.10622858 1.6900001
-0.17290287 0.10566286 1.6810001
-0.16889334 0.10516001 1.6730001
-0.1649143 0.10465714 1.6650001
-0.16174287 0.10465714 1.6650001
-0.15857144 0.10465714 1.6650001
-0.15390667 0.10365143 1.649
-0.15149716 0.10415429 1.6570001
-0.14690858 0.10314857 1.641
-0.14378287 0.10314857 1.641
-0.14005715 0.10270858 1.6340001
-0.13694477 0.10270858 1.6340001
-0.13383238 0.10270858 1.6340001
-0.13072 0.10270858 1.6340001
-0.12760763 0.10270858 1.6340001
-0.12449525 0.10270858 1.6340001
-0.12138286 0.10270858 1.6340001
-0.11769143 0.10220572 1.626
-0.11459429 0.10220572 1.626
-0.11149715 0.10220572 1.626
-0.1084 0.10220572 1.626
-0.25444573 0.12537906 1.9360001
-0.22783239 0.1139162 1.7590001
-0.22333334 0.11333334 1.7500001
-0.22000001 0.11333334 1.7500001
-0.21555239 0.11275048 1.7410001
-0.21113905 0.11216763 1.7320001
-0.20784001 0.11216763 1.7320001
-0.2034781 0.11158477 1.723
-0.20019619 0.11158477 1.723
-0.1969143 0.11158477 1.723
-0.19273335 0.11106667 1.715
-0.18946667 0.11106667 1.715
-0.18435429 0.10996572 1.6980001
-0.18026668 0.10944762 1.6900001
-0.17704763 0.10944762 1.6900001
-0.17382857 0.10944762 1.6900001
-0.16970097 0.10886477 1.6810001
-0.16570668 0.10834667 1.6730001
-0.16174287 0.10782857 1.6650001
-0.15857144 0.10782857 1.6650001
-0.15390667 0.10679238 1.649
-0.15076572 0.10679238 1.649
-0.14690858 0.10627429 1.641
-0.14316952 0.10582095 1.6340001
-0.14005715 0.10582095 1.6340001
-0.13694477 0.10582095 1.6340001
-0.13383238 0.10582095 1.6340001
-0.13008 0.10530286 1.626
-0.12698287 0.10530286 1.626
-0.12388572 0.10530286 1.626
-0.12078857 0.10530286 1.626
-0.11769143 0.10530286 1.626
-0.11459429 0.10530286 1.626
-0.11149715 0.10530286 1.626
-0.1084 0.10530286 1.626
-0.10530286 0.10530286 1.626
0.037508573 0.10627429 1.641
0.040460955 0.10582095 1.6340001
0.043360002 0.10530286 1.626
0.046457145 0.10530286 1.626
0.049310479 0.10478476 1.618
0.052392382 0.10478476 1.618
0.055474289 0.10478476 1.618
0.066880003 0.10336 1.5960001
0.069920003 0.10336 1.5960001
0.072960004 0.10336 1.5960001
0.076000005 0.10336 1.5960001
0.078693338 0.10290667 1.5890001
0.081720002 0.10290667 1.5890001
0.084746666 0.10290667 1.5890001
0.087773338 0.10290667 1.5890001
-0.22783239 0.11726667 1.7590001
-0.22448191 0.11726667 1.7590001
-0.22113144 0.11726667 1.7590001
-0.21666667 0.11666667 1.7500001
-0.2122362 0.11606667 1.7410001
-0.20784001 0.11546667 1.7320001
-0.2034781 0.11486667 1.723
-0.19926667 0.11433334 1.715
-0.19600001 0.11433334 1.715
-0.19273335 0.11433334 1.715
-0.18847239 0.11373334 1.7060001
-0.18435429 0.1132 1.6980001
-0.18026668 0.11266667 1.6900001
-0.17704763 0.11266667 1.6900001
-0.17382857 0.11266667 1.6900001
-0.16970097 0.11206667 1.6810001
-0.16570668 0.11153334 1.6730001
-0.16252001 0.11153334 1.6730001
-0.15857144 0.111 1.6650001
-0.15390667 0.10993334 1.649
-0.15076572 0.10993334 1.649
-0.14762476 0.10993334 1.649
-0.14378287 0.1094 1.641
-0.14005715 0.10893334 1.6340001
-0.13694477 0.10893334 1.6340001
-0.13383238 0.10893334 1.6340001
-0.13072 0.10893334 1.6340001
-0.12698287 0.1084 1.626
-0.12388572 0.1084 1.626
-0.12078857 0.1084 1.626
-0.11769143 0.1084 1.626
-0.11403048 0.10786667 1.618
-0.10992 0.10686667 1.603
-0.10740001 0.10740001 1.6110001
-0.10433143 0.10740001 1.6110001
0.0031123811 0.10893334 1.6340001
0.0062247622 0.10893334 1.6340001
0.0092914291 0.1084 1.626
0.012388572 0.1084 1.626
0.015342858 0.10740001 1.6110001
0.01841143 0.10740001 1.6110001
0.031123811 0.10893334 1.6340001
0.034236193 0.10893334 1.6340001
0.037348572 0.10893334 1.6340001
0.040262859 0.1084 1.626
0.04314667 0.10786667 1.618
0.046228573 0.10786667 1.618
0.049310479 0.10786667 1.618
0.052392382 0.10786667 1.618
0.055474289 0.10786667 1.618
0.061638098 0.10786667 1.618
0.064720005 0.10786667 1.618
0.067173339 0.10686667 1.603
0.069920003 0.10640001 1.5960001
0.072960004 0.10640001 1.5960001
0.076000005 0.10640001 1.5960001
0.078693338 0.10593334 1.5890001
0.081720002 0.10593334 1.5890001
0.084746666 0.10593334 1.5890001
0.087331429 0.1054 1.5810001
0.091200002 0.10640001 1.5960001
0.093826666 0.10593334 1.5890001
0.097706668 0.10686667 1.603
0.10076001 0.10686667 1.603
-0.23236573 0.12123429 1.7680001
-0.22899811 0.12123429 1.7680001
-0.22448191 0.12061714 1.7590001
-0.22113144 0.12061714 1.7590001
-0.21666667 0.12 1.7500001
-0.2122362 0.11938286 1.7410001
-0.20784001 0.11876572 1.7320001
-0.2034781 0.11814857 1.723
-0.19926667 0.1176 1.715
-0.19600001 0.1176 1.715
-0.19273335 0.1176 1.715
-0.18847239 0.11698286 1.7060001
-0.18435429 0.11643429 1.6980001
-0.18026668 0.11588572 1.6900001
-0.17704763 0.11588572 1.6900001
-0.17382857 0.11588572 1.6900001
-0.16970097 0.11526857 1.6810001
-0.16570668 0.11472 1.6730001
-0.16252001 0.11472 1.6730001
-0.15857144 0.11417143 1.6650001
-0.15465334 0.11362286 1.6570001
-0.15076572 0.11307429 1.649
-0.14762476 0.11307429 1.649
-0.14378287 0.11252572 1.641
-0.14005715 0.11204572 1.6340001
-0.13694477 0.11204572 1.6340001
-0.13383238 0.11204572 1.6340001
-0.13008 0.11149715 1.626
-0.12698287 0.11149715 1.626
-0.12388572 0.11149715 1.626
-0.12019429 0.11094858 1.618
-0.11711238 0.11094858 1.618
-0.11353715 0.11046857 1.6110001
-0.10992 0.10992 1.603
-0.10686667 0.10992 1.603
-0.10381334 0.10992 1.603
-0.10032 0.10944001 1.5960001
-0.097280003 0.10944001 1.5960001
-0.094240002 0.10944001 1.5960001
0.003081905 0.11094858 1.618
0.0061371429 0.11046857 1.6110001
0.0092914291 0.11149715 1.626
0.01232762 0.11094858 1.618
0.015266667 0.10992 1.603
0.01832 0.10992 1.603
0.02128 0.10944001 1.5960001
0.024320001 0.10944001 1.5960001
0.027360002 0.10944001 1.5960001
0.030266669 0.10896 1.5890001
0.033440001 0.10944001 1.5960001
0.036982857 0.11094858 1.618
0.039891429 0.11046857 1.6110001
0.042960003 0.11046857 1.6110001
0.046028573 0.11046857 1.6110001
0.049097143 0.11046857 1.6110001
0.052165717 0.11046857 1.6110001
0.055474289 0.11094858 1.618
0.058556192 0.11094858 1.618
0.061638098 0.11094858 1.618
0.064440005 0.11046857 1.6110001
0.067173339 0.10992 1.603
0.069920003 0.10944001 1.5960001
0.072960004 0.10944001 1.5960001
0.075666666 0.10896 1.5890001
0.078693338 0.10896 1.5890001
0.081720002 0.10896 1.5890001
0.084746666 0.10896 1.5890001
0.087331429 0.10841143 1.5810001
0.090800002 0.10896 1.5890001
0.093354292 0.10841143 1.5810001
0.09636572 0.10841143 1.5810001
0.099377148 0.10841143 1.5810001
-0.23236573 0.12460191 1.7680001
-0.22899811 0.12460191 1.7680001
-0.22448191 0.12396763 1.7590001
-0.22113144 0.12396763 1.7590001
-0.21778096 0.12396763 1.7590001
-0.21333334 0.12333333 1.7500001
-0.20892 0.12269905 1.7410001
-0.20454095 0.12206477 1.7320001
-0.20019619 0.12143048 1.723
-0.19600001 0.12086667 1.715
-0.19273335 0.12086667 1.715
-0.18847239 0.12023239 1.7060001
-0.18435429 0.11966857 1.6980001
-0.18112001 0.11966857 1.6980001
-0.17704763 0.11910477 1.6900001
-0.17382857 0.11910477 1.6900001
-0.16970097 0.11847048 1.6810001
-0.16570668 0.11790667 1.6730001
-0.16174287 0.11734286 1.6650001
-0.15857144 0.11734286 1.6650001
-0.15390667 0.11621524 1.649
-0.15003429 0.11565144 1.641
-0.14690858 0.11565144 1.641
-0.14316952 0.1151581 1.6340001
-0.14005715 0.1151581 1.6340001
-0.13694477 0.1151581 1.6340001
-0.13383238 0.1151581 1.6340001
-0.13008 0.11459429 1.626
-0.12698287 0.11459429 1.626
-0.12388572 0.11459429 1.626
-0.12019429 0.11403048 1.618
-0.11660572 0.11353715 1.6110001
-0.11297334 0.11297334 1.603
-0.10992 0.11297334 1.603
-0.10686667 0.11297334 1.603
-0.10381334 0.11297334 1.603
-0.10032 0.11248001 1.5960001
-0.097280003 0.11248001 1.5960001
-0.093826666 0.11198667 1.5890001
-0.091200002 0.11248001 1.5960001
-0.088160001 0.11248001 1.5960001
0.0030685714 0.11353715 1.6110001
0.0061066668 0.11297334 1.603
0.0091599999 0.11297334 1.603
0.012213334 0.11297334 1.603
0.0152 0.11248001 1.5960001
0.018240001 0.11248001 1.5960001
0.02128 0.11248001 1.5960001
0.024426667 0.11297334 1.603
0.027617143 0.11353715 1.6110001
0.030266669 0.11198667 1.5890001
0.03358667 0.11297334 1.603
0.03664 0.11297334 1.603
0.039693333 0.11297334 1.603
0.042746667 0.11297334 1.603
0.0458 0.11297334 1.603
0.048853334 0.11297334 1.603
0.051906668 0.11297334 1.603
0.055234287 0.11353715 1.6110001
0.058556192 0.11403048 1.618
0.061638098 0.11403048 1.618
0.064440005 0.11353715 1.6110001
0.067173339 0.11297334 1.603
0.069920003 0.11248001 1.5960001
0.072960004 0.11248001 1.5960001
0.076000005 0.11248001 1.5960001
0.079040006 0.11248001 1.5960001
0.081720002 0.11198667 1.5890001
0.084746666 0.11198667 1.5890001
0.087331429 0.11142286 1.5810001
0.090800002 0.11198667 1.5890001
0.093354292 0.11142286 1.5810001
0.09636572 0.11142286 1.5810001
0.098497145 0.11043619 1.567
0.10148191 0.11043619 1.567
-0.23693334 0.12862095 1.7770001
-0.23236573 0.12796953 1.7680001
-0.23016381 0.12862095 1.7770001
-0.22563048 0.12796953 1.7680001
-0.22226286 0.12796953 1.7680001
-0.21778096 0.1273181 1.7590001
-0.21333334 0.12666667 1.7500001
-0.20892 0.12601525 1.7410001
-0.20454095 0.12536381 1.7320001
-0.20124191 0.12536381 1.7320001
-0.1969143 0.12471239 1.723
-0.19273335 0.12413334 1.715
-0.18847239 0.12348191 1.7060001
-0.18435429 0.12290286 1.6980001
-0.18112001 0.12290286 1.6980001
-0.17788573 0.12290286 1.6980001
-0.17382857 0.12232381 1.6900001
-0.16970097 0.12167238 1.6810001
-0.16570668 0.12109334 1.6730001
-0.16174287 0.12051429 1.6650001
-0.15857144 0.12051429 1.6650001
-0.15465334 0.11993524 1.6570001
-0.15076572 0.11935619 1.649
-0.14762476 0.11935619 1.649
-0.14378287 0.11877715 1.641
-0.14005715 0.11827048 1.6340001
-0.13694477 0.11827048 1.6340001
-0.13383238 0.11827048 1.6340001
-0.13072 0.11827048 1.6340001
-0.12698287 0.11769143 1.626
-0.12388572 0.11769143 1.626
-0.12019429 0.11711238 1.618
-0.11660572 0.11660572 1.6110001
-0.11297334 0.11602667 1.603
-0.10992 0.11602667 1.603
-0.10686667 0.11602667 1.603
-0.10381334 0.11602667 1.603
-0.10032 0.11552001 1.5960001
-0.097280003 0.11552001 1.5960001
-0.094240002 0.11552001 1.5960001
-0.090800002 0.11501334 1.5890001
-0.086944766 0.11392763 1.5740001
-0.083946668 0.11392763 1.5740001
-0.080588572 0.11342096 1.567
-0.07760381 0.11342096 1.567
-0.01832 0.11602667 1.603
-0.015266667 0.11602667 1.603
-0.01216 0.11552001 1.5960001
-0.0091200005 0.11552001 1.5960001
0.0030400001 0.11552001 1.5960001
0.0060800002 0.11552001 1.5960001
0.0091200005 0.11552001 1.5960001
0.01216 0.11552001 1.5960001
0.015133334 0.11501334 1.5890001
0.018240001 0.11552001 1.5960001
0.02128 0.11552001 1.5960001
0.024320001 0.11552001 1.5960001
0.027360002 0.11552001 1.5960001
0.030400001 0.11552001 1.5960001
0.033440001 0.11552001 1.5960001
0.03664 0.11602667 1.603
0.039693333 0.11602667 1.603
0.042746667 0.11602667 1.603
0.0458 0.11602667 1.603
0.048853334 0.11602667 1.603
0.051906668 0.11602667 1.603
0.054960001 0.11602667 1.603
0.058013335 0.11602667 1.603
0.061066668 0.11602667 1.603
0.064440005 0.11660572 1.6110001
0.067173339 0.11602667 1.603
0.069920003 0.11552001 1.5960001
0.072960004 0.11552001 1.5960001
0.076000005 0.11552001 1.5960001
0.079040006 0.11552001 1.5960001
0.081720002 0.11501334 1.5890001
0.084746666 0.11501334 1.5890001
0.087331429 0.11443429 1.5810001
0.090800002 0.11501334 1.5890001
0.092940956 0.11392763 1.5740001
0.095512383 0.11342096 1.567
0.098497145 0.11342096 1.567
0.10148191 0.11342096 1.567
-0.2466743 0.13549715 1.8240001
-0.24186668 0.13475429 1.8140001
-0.23709716 0.13401143 1.8040001
-0.23132953 0.13267429 1.7860001
-0.22677906 0.13200572 1.7770001
-0.22226286 0.13133715 1.7680001
-0.21778096 0.13066858 1.7590001
-0.21333334 0.13000001 1.7500001
-0.20892 0.12933144 1.7410001
-0.20454095 0.12866285 1.7320001
-0.20019619 0.12799428 1.723
-0.1969143 0.12799428 1.723
-0.19273335 0.12740001 1.715
-0.18847239 0.12673144 1.7060001
-0.18435429 0.12613715 1.6980001
-0.18112001 0.12613715 1.6980001
-0.17788573 0.12613715 1.6980001
-0.17382857 0.12554286 1.6900001
-0.16970097 0.12487429 1.6810001
-0.16649905 0.12487429 1.6810001
-0.16252001 0.12428001 1.6730001
-0.15857144 0.12368572 1.6650001
-0.15465334 0.12309143 1.6570001
-0.15076572 0.12249715 1.649
-0.14762476 0.12249715 1.649
-0.14378287 0.12190286 1.641
-0.14005715 0.12138286 1.6340001
-0.13694477 0.12138286 1.6340001
-0.13383238 0.12138286 1.6340001
-0.13008 0.12078857 1.626
-0.12698287 0.12078857 1.626
-0.1232762 0.12019429 1.618
-0.12019429 0.12019429 1.618
-0.11660572 0.11967429 1.6110001
-0.11297334 0.11908001 1.603
-0.10992 0.11908001 1.603
-0.10686667 0.11908001 1.603
-0.10381334 0.11908001 1.603
-0.10076001 0.11908001 1.603
-0.097280003 0.11856 1.5960001
-0.094240002 0.11856 1.5960001
-0.090800002 0.11804 1.5890001
-0.086944766 0.11692572 1.5740001
-0.083946668 0.11692572 1.5740001
-0.080588572 0.11640572 1.567
-0.07760381 0.11640572 1.567
-0.074619047 0.11640572 1.567
-0.071634285 0.11640572 1.567
-0.068649523 0.11640572 1.567
-0.065664761 0.11640572 1.567
-0.024320001 0.11856 1.5960001
-0.02128 0.11856 1.5960001
-0.01841143 0.11967429 1.6110001
-0.015266667 0.11908001 1.603
-0.012213334 0.11908001 1.603
-0.0091200005 0.11856 1.5960001
-0.0060800002 0.11856 1.5960001
-0.0030400001 0.11856 1.5960001
0 0.11856 1.5960001
0.0030400001 0.11856 1.5960001
0.0060800002 0.11856 1.5960001
0.0091200005 0.11856 1.5960001
0.01216 0.11856 1.5960001
0.015133334 0.11804 1.5890001
0.01816 0.11804 1.5890001
0.021186667 0.11804 1.5890001
0.024320001 0.11856 1.5960001
0.027360002 0.11856 1.5960001
0.030266669 0.11804 1.5890001
0.033440001 0.11856 1.5960001
0.036480002 0.11856 1.5960001
0.039520003 0.11856 1.5960001
0.04256 0.11856 1.5960001
0.0458 0.11908001 1.603
0.048853334 0.11908001 1.603
0.051906668 0.11908001 1.603
0.054960001 0.11908001 1.603
0.058013335 0.11908001 1.603
0.061066668 0.11908001 1.603
0.069920003 0.11856 1.5960001
0.072960004 0.11856 1.5960001
0.076000005 0.11856 1.5960001
0.079040006 0.11856 1.5960001
0.081720002 0.11804 1.5890001
0.084746666 0.11804 1.5890001
0.087773338 0.11804 1.5890001
0.090800002 0.11804 1.5890001
0.092940956 0.11692572 1.5740001
0.095512383 0.11640572 1.567
0.098497145 0.11640572 1.567
-0.25138286 0.13965715 1.8330001
-0.2466743 0.13897143 1.8240001
-0.2432 0.13897143 1.8240001
-0.23841144 0.13820952 1.8140001
-0.23249525 0.1367619 1.7950001
-0.22677906 0.13539048 1.7770001
-0.22226286 0.13470477 1.7680001
-0.21778096 0.13401905 1.7590001
-0.21333334 0.13333334 1.7500001
-0.20892 0.13264762 1.7410001
-0.20454095 0.13196191 1.7320001
-0.20124191 0.13196191 1.7320001
-0.1969143 0.13127619 1.723
-0.19273335 0.13066667 1.715
-0.18946667 0.13066667 1.715
-0.18435429 0.12937143 1.6980001
-0.18112001 0.12937143 1.6980001
-0.17704763 0.1287619 1.6900001
-0.17382857 0.1287619 1.6900001
-0.16970097 0.1280762 1.6810001
-0.16570668 0.12746668 1.6730001
-0.16252001 0.12746668 1.6730001
-0.15857144 0.12685715 1.6650001
-0.15465334 0.12624763 1.6570001
-0.15076572 0.1256381 1.649
-0.14762476 0.1256381 1.649
-0.14378287 0.12502858 1.641
-0.14065714 0.12502858 1.641
-0.13694477 0.12449525 1.6340001
-0.13383238 0.12449525 1.6340001
-0.13072 0.12449525 1.6340001
-0.12698287 0.12388572 1.626
-0.1232762 0.1232762 1.618
-0.12019429 0.1232762 1.618
-0.11660572 0.12274286 1.6110001
-0.11353715 0.12274286 1.6110001
-0.10992 0.12213334 1.603
-0.10686667 0.12213334 1.603
-0.10381334 0.12213334 1.603
-0.10076001 0.12213334 1.603
-0.097280003 0.1216 1.5960001
-0.094240002 0.1216 1.5960001
-0.090342857 0.12045715 1.5810001
-0.087331429 0.12045715 1.5810001
-0.083946668 0.11992382 1.5740001
-0.080948576 0.11992382 1.5740001
-0.077950478 0.11992382 1.5740001
-0.074952386 0.11992382 1.5740001
-0.071954288 0.11992382 1.5740001
-0.068956196 0.11992382 1.5740001
-0.065958098 0.11992382 1.5740001
-0.063560002 0.12106667 1.5890001
-0.060800001 0.1216 1.5960001
-0.057760004 0.1216 1.5960001
-0.024213335 0.12106667 1.5890001
-0.021186667 0.12106667 1.5890001
-0.018240001 0.1216 1.5960001
-0.0152 0.1216 1.5960001
-0.01216 0.1216 1.5960001
-0.0091200005 0.1216 1.5960001
-0.0060800002 0.1216 1.5960001
-0.0030400001 0.1216 1.5960001
0 0.1216 1.5960001
0.0030266668 0.12106667 1.5890001
0.0060533336 0.12106667 1.5890001
0.0091200005 0.1216 1.5960001
0.01216 0.1216 1.5960001
0.015133334 0.12106667 1.5890001
0.01816 0.12106667 1.5890001
0.021186667 0.12106667 1.5890001
0.024213335 0.12106667 1.5890001
0.027240001 0.12106667 1.5890001
0.030266669 0.12106667 1.5890001
0.033293333 0.12106667 1.5890001
0.036480002 0.1216 1.5960001
0.039520003 0.1216 1.5960001
0.04256 0.1216 1.5960001
0.045600001 0.1216 1.5960001
0.048640002 0.1216 1.5960001
0.051680002 0.1216 1.5960001
0.054960001 0.12213334 1.603
0.079040006 0.1216 1.5960001
0.081720002 0.12106667 1.5890001
0.084746666 0.12106667 1.5890001
0.087773338 0.12106667 1.5890001
0.090800002 0.12106667 1.5890001
0.092940956 0.11992382 1.5740001
0.095512383 0.11939048 1.567
0.098497145 0.11939048 1.567
-0.25138286 0.14314857 1.8330001
-0.24789144 0.14314857 1.8330001
-0.24440001 0.14314857 1.8330001
-0.24090858 0.14314857 1.8330001
-0.23741715 0.14314857 1.8330001
-0.22563048 0.13807239 1.7680001
-0.22226286 0.13807239 1.7680001
-0.21778096 0.13736953 1.7590001
-0.21333334 0.13666667 1.7500001
-0.20892 0.13596381 1.7410001
-0.20454095 0.13526095 1.7320001
-0.20124191 0.13526095 1.7320001
-0.1969143 0.1345581 1.723
-0.19363239 0.1345581 1.723
-0.18946667 0.13393334 1.715
-0.18522286 0.13323048 1.7060001
-0.18112001 0.13260572 1.6980001
-0.17788573 0.13260572 1.6980001
-0.17290287 0.1312781 1.6810001
-0.16970097 0.1312781 1.6810001
-0.16570668 0.13065334 1.6730001
-0.16174287 0.13002858 1.6650001
-0.15857144 0.13002858 1.6650001
-0.15465334 0.12940381 1.6570001
-0.15076572 0.12877905 1.649
-0.14762476 0.12877905 1.649
-0.14378287 0.12815429 1.641
-0.14065714 0.12815429 1.641
-0.13694477 0.12760763 1.6340001
-0.13383238 0.12760763 1.6340001
-0.13072 0.12760763 1.6340001
-0.12698287 0.12698287 1.626
-0.12388572 0.12698287 1.626
-0.12019429 0.12635811 1.618
-0.11711238 0.12635811 1.618
-0.11353715 0.12581143 1.6110001
-0.11046857 0.12581143 1.6110001
-0.10740001 0.12581143 1.6110001
-0.10381334 0.12518667 1.603
-0.10076001 0.12518667 1.603
-0.097280003 0.12464 1.5960001
-0.094240002 0.12464 1.5960001
-0.091200002 0.12464 1.5960001
-0.087331429 0.12346858 1.5810001
-0.084320001 0.12346858 1.5810001
-0.081308573 0.12346858 1.5810001
-0.077950478 0.12292191 1.5740001
-0.075285718 0.12346858 1.5810001
-0.071954288 0.12292191 1.5740001
-0.068956196 0.12292191 1.5740001
-0.066251434 0.12346858 1.5810001
-0.063560002 0.12409334 1.5890001
-0.060533337 0.12409334 1.5890001
-0.057217143 0.12346858 1.5810001
-0.054205716 0.12346858 1.5810001
-0.051194288 0.12346858 1.5810001
-0.026982859 0.12292191 1.5740001
-0.02409143 0.12346858 1.5810001
-0.02108 0.12346858 1.5810001
-0.018240001 0.12464 1.5960001
-0.0152 0.12464 1.5960001
-0.01216 0.12464 1.5960001
-0.0091200005 0.12464 1.5960001
-0.0060800002 0.12464 1.5960001
-0.0030400001 0.12464 1.5960001
0 0.12409334 1.5890001
0.0030266668 0.12409334 1.5890001
0.0060533336 0.12409334 1.5890001
0.0090800002 0.12409334 1.5890001
0.012106667 0.12409334 1.5890001
0.015057144 0.12346858 1.5810001
0.01816 0.12409334 1.5890001
0.021186667 0.12409334 1.5890001
0.024213335 0.12409334 1.5890001
0.027360002 0.12464 1.5960001
0.030266669 0.12409334 1.5890001
0.033293333 0.12409334 1.5890001
0.036320001 0.12409334 1.5890001
0.039346669 0.12409334 1.5890001
0.042373333 0.12409334 1.5890001
0.045400001 0.12409334 1.5890001
0.048640002 0.12464 1.5960001
0.051680002 0.12464 1.5960001
0.095512383 0.12237524 1.567
0.098497145 0.12237524 1.567
-0.25138286 0.14664 1.8330001
-0.24789144 0.14664 1.8330001
-0.24440001 0.14664 1.8330001
-0.24090858 0.14664 1.8330001
-0.23741715 0.14664 1.8330001
-0.25715238 0.1612 2.0150001
-0.25331429 0.1612 2.0150001
-0.2509619 0.16216001 2.0270002
-0.2122362 0.13928001 1.7410001
-0.20784001 0.13856001 1.7320001
-0.20454095 0.13856001 1.7320001
-0.20019619 0.13784 1.723
-0.19600001 0.1372 1.715
-0.19273335 0.1372 1.715
-0.18946667 0.1372 1.715
-0.18522286 0.13648 1.7060001
-0.18197334 0.13648 1.7060001
-0.17788573 0.13584 1.6980001
-0.17382857 0.13520001 1.6900001
-0.16970097 0.13448 1.6810001
-0.16570668 0.13384001 1.6730001
-0.16174287 0.1332 1.6650001
-0.15857144 0.1332 1.6650001
-0.15465334 0.13256 1.6570001
-0.15076572 0.13192001 1.649
-0.14762476 0.13192001 1.649
-0.14378287 0.13128 1.641
-0.14065714 0.13128 1.641
-0.13694477 0.13072 1.6340001
-0.13383238 0.13072 1.6340001
-0.13072 0.13072 1.6340001
-0.12698287 0.13008 1.626
-0.12388572 0.13008 1.626
-0.12078857 0.13008 1.626
-0.11711238 0.12944001 1.618
-0.11403048 0.12944001 1.618
-0.11046857 0.12888001 1.6110001
-0.10740001 0.12888001 1.6110001
-0.10433143 0.12888001 1.6110001
-0.10076001 0.12824 1.603
-0.097706668 0.12824 1.603
-0.094240002 0.12768 1.5960001
-0.091200002 0.12768 1.5960001
-0.087331429 0.12648 1.5810001
-0.084320001 0.12648 1.5810001
-0.080948576 0.12592 1.5740001
-0.077950478 0.12592 1.5740001
-0.074952386 0.12592 1.5740001
-0.071954288 0.12592 1.5740001
-0.068956196 0.12592 1.5740001
-0.065958098 0.12592 1.5740001
-0.063239999 0.12648 1.5810001
-0.060228575 0.12648 1.5810001
-0.056963813 0.12592 1.5740001
-0.053965718 0.12592 1.5740001
-0.051194288 0.12648 1.5810001
-0.038975239 0.12592 1.5740001
-0.036137145 0.12648 1.5810001
-0.033125717 0.12648 1.5810001
-0.030114288 0.12648 1.5810001
-0.026982859 0.12592 1.5740001
-0.02409143 0.12648 1.5810001
-0.02108 0.12648 1.5810001
-0.01816 0.12712 1.5890001
-0.015133334 0.12712 1.5890001
-0.012106667 0.12712 1.5890001
-0.0090800002 0.12712 1.5890001
-0.0060533336 0.12712 1.5890001
-0.0030400001 0.12768 1.5960001
0 0.12712 1.5890001
0.0030266668 0.12712 1.5890001
0.0060533336 0.12712 1.5890001
0.0090800002 0.12712 1.5890001
0.012106667 0.12712 1.5890001
0.015057144 0.12648 1.5810001
0.018068573 0.12648 1.5810001
0.02108 0.12648 1.5810001
0.024213335 0.12712 1.5890001
0.027360002 0.12768 1.5960001
0.030266669 0.12712 1.5890001
0.033125717 0.12648 1.5810001
0.036137145 0.12648 1.5810001
0.039346669 0.12712 1.5890001
0.042373333 0.12712 1.5890001
0.045400001 0.12712 1.5890001
-0.25715238 0.16503809 2.0150001
-0.25331429 0.16503809 2.0150001
-0.25393334 0.16798668 2.0510001
-0.2456381 0.16503809 2.0150001
-0.20676 0.14112191 1.723
-0.2034781 0.14112191 1.723
-0.20019619 0.14112191 1.723
-0.19497144 0.13972953 1.7060001
-0.19172192 0.13972953 1.7060001
-0.18946667 0.14046668 1.715
-0.18522286 0.13972953 1.7060001
-0.18197334 0.13972953 1.7060001
-0.17788573 0.1390743 1.6980001
-0.17290287 0.13768192 1.6810001
-0.16889334 0.13702667 1.6730001
-0.16570668 0.13702667 1.6730001
-0.16174287 0.13637143 1.6650001
-0.15780953 0.1357162 1.6570001
-0.15465334 0.1357162 1.6570001
-0.15076572 0.13506095 1.649
-0.14762476 0.13506095 1.649
-0.14378287 0.13440572 1.641
-0.14065714 0.13440572 1.641
-0.13694477 0.13383238 1.6340001
-0.13383238 0.13383238 1.6340001
-0.13072 0.13383238 1.6340001
-0.12698287 0.13317715 1.626
-0.12388572 0.13317715 1.626
-0.12078857 0.13317715 1.626
-0.11769143 0.13317715 1.626
-0.11459429 0.13317715 1.626
-0.11149715 0.13317715 1.626
-0.1084 0.13317715 1.626
-0.10478476 0.13252191 1.618
-0.10126286 0.13194858 1.6110001
-0.097706668 0.13129334 1.603
-0.094653338 0.13129334 1.603
-0.091200002 0.13072 1.5960001
-0.087331429 0.12949143 1.5810001
-0.084320001 0.12949143 1.5810001
-0.080948576 0.1289181 1.5740001
-0.077950478 0.1289181 1.5740001
-0.074952386 0.1289181 1.5740001
-0.071954288 0.1289181 1.5740001
-0.068956196 0.1289181 1.5740001
-0.065958098 0.1289181 1.5740001
-0.062959999 0.1289181 1.5740001
-0.060228575 0.12949143 1.5810001
-0.056963813 0.1289181 1.5740001
-0.053965718 0.1289181 1.5740001
-0.038975239 0.1289181 1.5740001
-0.036137145 0.12949143 1.5810001
-0.033440001 0.13072 1.5960001
-0.030266669 0.13014667 1.5890001
-0.026982859 0.1289181 1.5740001
-0.023984762 0.1289181 1.5740001
-0.020986667 0.1289181 1.5740001
-0.01816 0.13014667 1.5890001
-0.015133334 0.13014667 1.5890001
-0.012106667 0.13014667 1.5890001
-0.0090800002 0.13014667 1.5890001
-0.0060533336 0.13014667 1.5890001
-0.0030266668 0.13014667 1.5890001
0 0.13014667 1.5890001
0.0030266668 0.13014667 1.5890001
0.0059961905 0.1289181 1.5740001
0.0089942859 0.1289181 1.5740001
0.012045715 0.12949143 1.5810001
0.015057144 0.12949143 1.5810001
0.018068573 0.12949143 1.5810001
0.02108 0.12949143 1.5810001
0.033125717 0.12949143 1.5810001
0.036137145 0.12949143 1.5810001
-0.25562096 0.16787048 2.003
-0.25331429 0.1688762 2.0150001
-0.24947619 0.1688762 2.0150001
-0.24417524 0.16787048 2.003
-0.24036001 0.16787048 2.003
-0.20253333 0.14373334 1.715
-0.19822095 0.14297906 1.7060001
-0.19405715 0.14230858 1.6980001
-0.19082287 0.14230858 1.6980001
-0.18670477 0.1416381 1.6900001
-0.18348572 0.1416381 1.6900001
-0.18112001 0.14230858 1.6980001
-0.17704763 0.1416381 1.6900001
-0.17290287 0.14088382 1.6810001
-0.16889334 0.14021334 1.6730001
-0.16570668 0.14021334 1.6730001
-0.16174287 0.13954286 1.6650001
-0.15857144 0.13954286 1.6650001
-0.15465334 0.13887239 1.6570001
-0.15076572 0.13820191 1.649
-0.14762476 0.13820191 1.649
-0.14378287 0.13753143 1.641
-0.14065714 0.13753143 1.641
-0.13694477 0.13694477 1.6340001
-0.13383238 0.13694477 1.6340001
-0.13072 0.13694477 1.6340001
-0.12760763 0.13694477 1.6340001
-0.12388572 0.13627429 1.626
-0.12078857 0.13627429 1.626
-0.11769143 0.13627429 1.626
-0.11459429 0.13627429 1.626
-0.11149715 0.13627429 1.626
-0.1084 0.13627429 1.626
-0.10530286 0.13627429 1.626
-0.10220572 0.13627429 1.626
-0.097706668 0.13434668 1.603
-0.094653338 0.13434668 1.603
-0.091600001 0.13434668 1.603
-0.087773338 0.13317333 1.5890001
-0.084320001 0.13250287 1.5810001
-0.081308573 0.13250287 1.5810001
-0.077950478 0.1319162 1.5740001
-0.074952386 0.1319162 1.5740001
-0.071954288 0.1319162 1.5740001
-0.068956196 0.1319162 1.5740001
-0.066251434 0.13250287 1.5810001
-0.063239999 0.13250287 1.5810001
-0.036480002 0.13376001 1.5960001
-0.033293333 0.13317333 1.5890001
-0.030266669 0.13317333 1.5890001
-0.026982859 0.1319162 1.5740001
-0.023878096 0.13132952 1.567
-0.020893333 0.13132952 1.567
-0.017908571 0.13132952 1.567
-0.01492381 0.13132952 1.567
-0.011939048 0.13132952 1.567
-0.0090800002 0.13317333 1.5890001
-0.0060533336 0.13317333 1.5890001
-0.0030266668 0.13317333 1.5890001
0 0.13317333 1.5890001
0.0030114288 0.13250287 1.5810001
-0.25715238 0.17271429 2.0150001
-0.25331429 0.17271429 2.0150001
-0.24799049 0.17168573 2.003
-0.24417524 0.17168573 2.003
-0.24036001 0.17168573 2.003
-0.20052572 0.14554286 1.6980001
-0.19729143 0.14554286 1.6980001
-0.19405715 0.14554286 1.6980001
-0.19082287 0.14554286 1.6980001
-0.18758857 0.14554286 1.6980001
-0.22398287 0.17682858 2.0630002
-0.22005334 0.17682858 2.0630002
-0.21612382 0.17682858 2.0630002
-0.17208001 0.1434 1.6730001
-0.16808572 0.14271429 1.6650001
-0.16570668 0.1434 1.6730001
-0.16174287 0.14271429 1.6650001
-0.15857144 0.14271429 1.6650001
-0.15465334 0.14202857 1.6570001
-0.15149716 0.14202857 1.6570001
-0.14762476 0.14134286 1.649
-0.14448382 0.14134286 1.649
-0.14134286 0.14134286 1.649
-0.13753143 0.14065714 1.641
-0.13440572 0.14065714 1.641
-0.13072 0.14005715 1.6340001
-0.12760763 0.14005715 1.6340001
-0.12449525 0.14005715 1.6340001
-0.12138286 0.14005715 1.6340001
-0.11827048 0.14005715 1.6340001
-0.1151581 0.14005715 1.6340001
-0.11204572 0.14005715 1.6340001
-0.1084 0.13937144 1.626
-0.10530286 0.13937144 1.626
-0.10220572 0.13937144 1.626
-0.098620959 0.13868572 1.618
-0.094653338 0.1374 1.603
-0.091600001 0.1374 1.603
-0.087773338 0.13620001 1.5890001
-0.084320001 0.13551429 1.5810001
-0.081308573 0.13551429 1.5810001
-0.077950478 0.13491429 1.5740001
-0.074952386 0.13491429 1.5740001
-0.071954288 0.13491429 1.5740001
-0.068956196 0.13491429 1.5740001
-0.065958098 0.13491429 1.5740001
-0.062959999 0.13491429 1.5740001
-0.038975239 0.13491429 1.5740001
-0.035977144 0.13491429 1.5740001
-0.033125717 0.13551429 1.5810001
-0.030114288 0.13551429 1.5810001
-0.026862858 0.13431428 1.567
-0.023878096 0.13431428 1.567
-0.020893333 0.13431428 1.567
-0.017908571 0.13431428 1.567
-0.01492381 0.13431428 1.567
-0.011939048 0.13431428 1.567
-0.0090800002 0.13620001 1.5890001
-0.0060533336 0.13620001 1.5890001
-0.0030266668 0.13620001 1.5890001
0 0.13620001 1.5890001
-0.25715238 0.17655239 2.0150001
-0.25331429 0.17655239 2.0150001
-0.24947619 0.17655239 2.0150001
-0.2456381 0.17655239 2.0150001
-0.24180001 0.17655239 2.0150001
-0.23796192 0.17655239 2.0150001
-0.23412381 0.17655239 2.0150001
-0.2344 0.17970668 2.0510001
-0.23049334 0.17970668 2.0510001
-0.2279124 0.1807581 2.0630002
-0.22398287 0.1807581 2.0630002
-0.22005334 0.1807581 2.0630002
-0.21612382 0.1807581 2.0630002
-0.21219429 0.1807581 2.0630002
-0.16808572 0.14588572 1.6650001
-0.16570668 0.14658667 1.6730001
-0.16174287 0.14588572 1.6650001
-0.15857144 0.14588572 1.6650001
-0.15465334 0.14518477 1.6570001
-0.15149716 0.14518477 1.6570001
-0.14762476 0.14448382 1.649
-0.14448382 0.14448382 1.649
-0.14065714 0.14378287 1.641
-0.13694477 0.14316952 1.6340001
-0.13383238 0.14316952 1.6340001
-0.13072 0.14316952 1.6340001
-0.12760763 0.14316952 1.6340001
-0.12449525 0.14316952 1.6340001
-0.12138286 0.14316952 1.6340001
-0.11827048 0.14316952 1.6340001
-0.1151581 0.14316952 1.6340001
-0.11204572 0.14316952 1.6340001
-0.10893334 0.14316952 1.6340001
-0.10530286 0.14246857 1.626
-0.10220572 0.14246857 1.626
-0.099108577 0.14246857 1.626
-0.095539048 0.14176762 1.618
-0.092457145 0.14176762 1.618
-0.089375243 0.14176762 1.618
-0.085493334 0.14045334 1.603
-0.082440004 0.14045334 1.603
-0.078297146 0.13852572 1.5810001
-0.075285718 0.13852572 1.5810001
-0.07227429 0.13852572 1.5810001
-0.069262862 0.13852572 1.5810001
-0.065958098 0.13791239 1.5740001
-0.062959999 0.13791239 1.5740001
-0.038975239 0.13791239 1.5740001
-0.035977144 0.13791239 1.5740001
-0.033125717 0.13852572 1.5810001
-0.029980954 0.13791239 1.5740001
-0.026982859 0.13791239 1.5740001
-0.023984762 0.13791239 1.5740001
-0.020986667 0.13791239 1.5740001
-0.017988572 0.13791239 1.5740001
-0.01492381 0.13729905 1.567
-0.25715238 0.18039048 2.0150001
-0.25482288 0.18146476 2.0270002
-0.2509619 0.18146476 2.0270002
-0.24710096 0.18146476 2.0270002
-0.24324001 0.18146476 2.0270002
-0.23937906 0.18146476 2.0270002
-0.23830667 0.18361335 2.0510001
-0.2344 0.18361335 2.0510001
-0.23184191 0.18468763 2.0630002
-0.22658667 0.18361335 2.0510001
-0.22268 0.18361335 2.0510001
-0.22005334 0.18468763 2.0630002
-0.21612382 0.18468763 2.0630002
-0.21219429 0.18468763 2.0630002
-0.16808572 0.14905715 1.6650001
-0.1649143 0.14905715 1.6650001
-0.16174287 0.14905715 1.6650001
-0.15857144 0.14905715 1.6650001
-0.15465334 0.14834096 1.6570001
-0.15149716 0.14834096 1.6570001
-0.14762476 0.14762476 1.649
-0.14378287 0.14690858 1.641
-0.14065714 0.14690858 1.641
-0.13694477 0.14628191 1.6340001
-0.13383238 0.14628191 1.6340001
-0.13072 0.14628191 1.6340001
-0.12815429 0.14690858 1.641
-0.12449525 0.14628191 1.6340001
-0.12138286 0.14628191 1.6340001
-0.11827048 0.14628191 1.6340001
-0.1151581 0.14628191 1.6340001
-0.11252572 0.14690858 1.641
-0.10893334 0.14628191 1.6340001
-0.10530286 0.14556572 1.626
-0.10270858 0.14628191 1.6340001
-0.099108577 0.14556572 1.626
-0.09601143 0.14556572 1.626
-0.092914291 0.14556572 1.626
-0.089817144 0.14556572 1.626
-0.086720005 0.14556572 1.626
-0.082440004 0.14350668 1.603
-0.078297146 0.14153714 1.5810001
-0.075285718 0.14153714 1.5810001
-0.07227429 0.14153714 1.5810001
-0.069262862 0.14153714 1.5810001
-0.033125717 0.14153714 1.5810001
-0.029980954 0.14091048 1.5740001
-0.026982859 0.14091048 1.5740001
-0.023984762 0.14091048 1.5740001
-0.020986667 0.14091048 1.5740001
-0.017988572 0.14091048 1.5740001
-0.25715238 0.18422858 2.0150001
-0.25482288 0.18532573 2.0270002
-0.25393334 0.18752001 2.0510001
-0.25002667 0.18752001 2.0510001
-0.24612001 0.18752001 2.0510001
-0.24221334 0.18752001 2.0510001
-0.23970096 0.18861715 2.0630002
-0.23577143 0.18861715 2.0630002
-0.23184191 0.18861715 2.0630002
-0.2279124 0.18861715 2.0630002
-0.22398287 0.18861715 2.0630002
-0.21877334 0.18752001 2.0510001
-0.21486667 0.18752001 2.0510001
-0.21096 0.18752001 2.0510001
-0.20705333 0.18752001 2.0510001
-0.1649143 0.15222858 1.6650001
-0.16174287 0.15222858 1.6650001
-0.15857144 0.15222858 1.6650001
-0.15465334 0.15149716 1.6570001
-0.15076572 0.15076572 1.649
-0.14762476 0.15076572 1.649
-0.14378287 0.15003429 1.641
-0.14065714 0.15003429 1.641
-0.13753143 0.15003429 1.641
-0.13440572 0.15003429 1.641
-0.13128 0.15003429 1.641
-0.12815429 0.15003429 1.641
-0.12502858 0.15003429 1.641
-0.12190286 0.15003429 1.641
-0.11877715 0.15003429 1.641
-0.11565144 0.15003429 1.641
-0.11252572 0.15003429 1.641
-0.1094 0.15003429 1.641
-0.10582095 0.14939429 1.6340001
-0.10270858 0.14939429 1.6340001
-0.099596195 0.14939429 1.6340001
-0.096483812 0.14939429 1.6340001
-0.093371429 0.14939429 1.6340001
-0.089817144 0.14866287 1.626
-0.086720005 0.14866287 1.626
-0.020380953 0.19565715 2.1400001
-0.016304763 0.19565715 2.1400001
-0.012228572 0.19565715 2.1400001
-0.25482288 0.18918668 2.0270002
-0.2509619 0.18918668 2.0270002
-0.25002667 0.19142668 2.0510001
-0.24612001 0.19142668 2.0510001
-0.24221334 0.19142668 2.0510001
-0.23830667 0.19142668 2.0510001
-0.23577143 0.19254668 2.0630002
-0.23184191 0.19254668 2.0630002
-0.2279124 0.19254668 2.0630002
-0.22398287 0.19254668 2.0630002
-0.22005334 0.19254668 2.0630002
-0.21486667 0.19142668 2.0510001
-0.21096 0.19142668 2.0510001
-0.20705333 0.19142668 2.0510001
-0.20314668 0.19142668 2.0510001
-0.1980743 0.19030668 2.039
-0.15780953 0.15465334 1.6570001
-0.15465334 0.15465334 1.6570001
-0.15076572 0.15390667 1.649
-0.14762476 0.15390667 1.649
-0.14448382 0.15390667 1.649
-0.14065714 0.15316001 1.641
-0.13753143 0.15316001 1.641
-0.13440572 0.15316001 1.641
-0.13192001 0.15390667 1.649
-0.12877905 0.15390667 1.649
-0.1256381 0.15390667 1.649
-0.12190286 0.15316001 1.641
-0.11877715 0.15316001 1.641
-0.11565144 0.15316001 1.641
-0.11252572 0.15316001 1.641
-0.1094 0.15316001 1.641
-0.10582095 0.15250668 1.6340001
-0.10270858 0.15250668 1.6340001
-0.099596195 0.15250668 1.6340001
-0.096483812 0.15250668 1.6340001
-0.093371429 0.15250668 1.6340001
-0.028533334 0.19973335 2.1400001
-0.024457144 0.19973335 2.1400001
-0.020380953 0.19973335 2.1400001
-0.016304763 0.19973335 2.1400001
-0.012228572 0.19973335 2.1400001
-0.0081523815 0.19973335 2.1400001
-0.25868383 0.19304763 2.0270002
-0.25784001 0.19533335 2.0510001
-0.25393334 0.19533335 2.0510001
-0.25002667 0.19533335 2.0510001
-0.24756001 0.19647619 2.0630002
-0.24221334 0.19533335 2.0510001
-0.23970096 0.19647619 2.0630002
-0.23577143 0.19647619 2.0630002
-0.23184191 0.19647619 2.0630002
-0.2279124 0.19647619 2.0630002
-0.22398287 0.19647619 2.0630002
-0.22005334 0.19647619 2.0630002
-0.21612382 0.19647619 2.0630002
-0.21096 0.19533335 2.0510001
-0.20705333 0.19533335 2.0510001
-0.20314668 0.19533335 2.0510001
-0.19924001 0.19533335 2.0510001
-0.15780953 0.15780953 1.6570001
-0.15465334 0.15780953 1.6570001
-0.15076572 0.15704763 1.649
-0.14762476 0.15704763 1.649
-0.14448382 0.15704763 1.649
-0.14134286 0.15704763 1.649
-0.13820191 0.15704763 1.649
-0.13440572 0.15628572 1.641
-0.13192001 0.15704763 1.649
-0.12877905 0.15704763 1.649
-0.1256381 0.15704763 1.649
-0.12190286 0.15628572 1.641
-0.11877715 0.15628572 1.641
-0.11565144 0.15628572 1.641
-0.11252572 0.15628572 1.641
-0.10893334 0.15561906 1.6340001
-0.10582095 0.15561906 1.6340001
-0.10270858 0.15561906 1.6340001
-0.099108577 0.15485714 1.626
-0.09601143 0.15485714 1.626
-0.092914291 0.15485714 1.626
-0.032807622 0.20504762 2.1530001
-0.028533334 0.20380953 2.1400001
-0.024457144 0.20380953 2.1400001
-0.020380953 0.20380953 2.1400001
-0.016304763 0.20380953 2.1400001
-0.012228572 0.20380953 2.1400001
-0.0081523815 0.20380953 2.1400001
-0.26174667 0.19924001 2.0510001
-0.25784001 0.19924001 2.0510001
-0.25393334 0.19924001 2.0510001
-0.25002667 0.19924001 2.0510001
-0.24612001 0.19924001 2.0510001
-0.24221334 0.19924001 2.0510001
-0.23970096 0.20040572 2.0630002
-0.23577143 0.20040572 2.0630002
-0.23184191 0.20040572 2.0630002
-0.2279124 0.20040572 2.0630002
-0.22398287 0.20040572 2.0630002
-0.22005334 0.20040572 2.0630002
-0.21612382 0.20040572 2.0630002
-0.21096 0.19924001 2.0510001
-0.20705333 0.19924001 2.0510001
-0.20314668 0.19924001 2.0510001
-0.16174287 0.16174287 1.6650001
-0.15780953 0.16096573 1.6570001
-0.15465334 0.16096573 1.6570001
-0.15149716 0.16096573 1.6570001
-0.14834096 0.16096573 1.6570001
-0.14448382 0.16018857 1.649
-0.14134286 0.16018857 1.649
-0.13820191 0.16018857 1.649
-0.13440572 0.15941143 1.641
-0.13128 0.15941143 1.641
-0.12815429 0.15941143 1.641
-0.12502858 0.15941143 1.641
-0.12190286 0.15941143 1.641
-0.11935619 0.16018857 1.649
-0.11621524 0.16018857 1.649
-0.11252572 0.15941143 1.641
-0.10893334 0.15873143 1.6340001
-0.10582095 0.15873143 1.6340001
-0.10270858 0.15873143 1.6340001
-0.099108577 0.15795429 1.626
-0.09601143 0.15795429 1.626
-0.092914291 0.15795429 1.626
-0.032807622 0.20914859 2.1530001
-0.028533334 0.20788573 2.1400001
-0.024457144 0.20788573 2.1400001
-0.020380953 0.20788573 2.1400001
-0.016304763 0.20788573 2.1400001
-0.012228572 0.20788573 2.1400001
-0.0081523815 0.20788573 2.1400001
-0.26174667 0.20314668 2.0510001
-0.25784001 0.20314668 2.0510001
-0.25393334 0.20314668 2.0510001
-0.25002667 0.20314668 2.0510001
-0.24612001 0.20314668 2.0510001
-0.24221334 0.20314668 2.0510001
-0.23970096 0.20433524 2.0630002
-0.23577143 0.20433524 2.0630002
-0.23184191 0.20433524 2.0630002
-0.22658667 0.20314668 2.0510001
-0.22398287 0.20433524 2.0630002
-0.22005334 0.20433524 2.0630002
-0.21486667 0.20314668 2.0510001
-0.21096 0.20314668 2.0510001
-0.20705333 0.20314668 2.0510001
-0.20314668 0.20314668 2.0510001
-0.16174287 0.1649143 1.6650001
-0.15857144 0.1649143 1.6650001
-0.15465334 0.16412191 1.6570001
-0.15149716 0.16412191 1.6570001
-0.14762476 0.16332953 1.649
-0.14448382 0.16332953 1.649
-0.14065714 0.16253714 1.641
-0.13753143 0.16253714 1.641
-0.13440572 0.16253714 1.641
-0.13128 0.16253714 1.641
-0.12815429 0.16253714 1.641
-0.1256381 0.16332953 1.649
-0.12249715 0.16332953 1.649
-0.11935619 0.16332953 1.649
-0.11621524 0.16332953 1.649
-0.11252572 0.16253714 1.641
-0.10893334 0.16184382 1.6340001
-0.10582095 0.16184382 1.6340001
-0.10270858 0.16184382 1.6340001
-0.099108577 0.16105144 1.626
-0.09601143 0.16105144 1.626
-0.092914291 0.16105144 1.626
-0.036908574 0.21324953 2.1530001
-0.032807622 0.21324953 2.1530001
-0.028533334 0.21196191 2.1400001
-0.024457144 0.21196191 2.1400001
-0.020380953 0.21196191 2.1400001
-0.016403811 0.21324953 2.1530001
-0.012302858 0.21324953 2.1530001
-0.0082019055 0.21324953 2.1530001
-0.25784001 0.20705333 2.0510001
-0.25393334 0.20705333 2.0510001
-0.25002667 0.20705333 2.0510001
-0.24612001 0.20705333 2.0510001
-0.24221334 0.20705333 2.0510001
-0.23970096 0.20826477 2.0630002
-0.23577143 0.20826477 2.0630002
-0.23184191 0.20826477 2.0630002
-0.22658667 0.20705333 2.0510001
-0.22268 0.20705333 2.0510001
-0.22005334 0.20826477 2.0630002
-0.21486667 0.20705333 2.0510001
-0.20972572 0.20584191 2.039
-0.20705333 0.20705333 2.0510001
-0.20076953 0.20463048 2.0270002
-0.16096573 0.1672781 1.6570001
-0.15780953 0.1672781 1.6570001
-0.15465334 0.1672781 1.6570001
-0.15149716 0.1672781 1.6570001
-0.14762476 0.16647048 1.649
-0.14448382 0.16647048 1.649
-0.14134286 0.16647048 1.649
-0.13820191 0.16647048 1.649
-0.13506095 0.16647048 1.649
-0.13192001 0.16647048 1.649
-0.12877905 0.16647048 1.649
-0.12624763 0.1672781 1.6570001
-0.12249715 0.16647048 1.649
-0.11935619 0.16647048 1.649
-0.11621524 0.16647048 1.649
-0.11252572 0.16566287 1.641
-0.1094 0.16566287 1.641
-0.10582095 0.1649562 1.6340001
-0.10270858 0.1649562 1.6340001
-0.099108577 0.16414858 1.626
-0.095539048 0.16334096 1.618
-0.092457145 0.16334096 1.618
-0.041009527 0.21735048 2.1530001
-0.036908574 0.21735048 2.1530001
-0.032807622 0.21735048 2.1530001
-0.028706668 0.21735048 2.1530001
-0.024605716 0.21735048 2.1530001
-0.020504763 0.21735048 2.1530001
-0.016403811 0.21735048 2.1530001
-0.012302858 0.21735048 2.1530001
-0.0082019055 0.21735048 2.1530001
-0.25715238 0.20725715 2.0150001
-0.25331429 0.20725715 2.0150001
-0.25244763 0.20972572 2.039
-0.24856383 0.20972572 2.039
-0.24180001 0.20725715 2.0150001
-0.23796192 0.20725715 2.0150001
