# .PCD v0.7 - Point Cloud Data file format
VERSION 0.7
FIELDS x y z
SIZE 4 4 4
TYPE F F F
COUNT 1 1 1
WIDTH 1480
HEIGHT 1
VIEWPOINT 0 0 0 1 0 0 0
POINTS 1480
DATA ascii
-0.033 0.36666667 1.9250001
-0.029333334 0.36666667 1.9250001
-0.025533333 0.36476192 1.9150001
-0.021885715 0.36476192 1.9150001
-0.018238096 0.36476192 1.9150001
-0.014666667 0.36666667 1.9250001
-0.010942858 0.36476192 1.9150001
-0.0072952383 0.36476192 1.9150001
-0.0036476192 0.36476192 1.9150001
0 0.36476192 1.9150001
0.0036476192 0.36476192 1.9150001
0.0072952383 0.36476192 1.9150001
0.010942858 0.36476192 1.9150001
0.014506667 0.36266667 1.904
0.018133335 0.36266667 1.904
0.02176 0.36266667 1.904
0.026392382 0.32990476 1.7320001
0.029537143 0.32819048 1.723
0.033333335 0.33333334 1.7500001
0.036666669 0.33333334 1.7500001
0.041234288 0.34361905 1.8040001
0.044670478 0.34361905 1.8040001
0.048106667 0.34361905 1.8040001
0.051285718 0.34190479 1.7950001
0.054704763 0.34190479 1.7950001
0.058415242 0.34361905 1.8040001
0.061542861 0.34190479 1.7950001
0.06496191 0.34190479 1.7950001
0.068380952 0.34190479 1.7950001
0.071800001 0.34190479 1.7950001
0.07521905 0.34190479 1.7950001
0.078638099 0.34190479 1.7950001
0.082057148 0.34190479 1.7950001
0.13066858 0.33504763 1.7590001
0.13401905 0.33504763 1.7590001
0.13736953 0.33504763 1.7590001
0.14072001 0.33504763 1.7590001
0.14333335 0.33333334 1.7500001
0.14666668 0.33333334 1.7500001
0.15000001 0.33333334 1.7500001
0.15333334 0.33333334 1.7500001
0.15666667 0.33333334 1.7500001
0.19586286 0.34361905 1.8040001
0.19929905 0.34361905 1.8040001
0.20273525 0.34361905 1.8040001
0.20514287 0.34190479 1.7950001
0.20856191 0.34190479 1.7950001
0.21198095 0.34190479 1.7950001
0.21432 0.3401905 1.7860001
0.21772191 0.3401905 1.7860001
0.22000954 0.33847621 1.7770001
0.22339429 0.33847621 1.7770001
0.22677906 0.33847621 1.7770001
0.23016381 0.33847621 1.7770001
0.23354858 0.33847621 1.7770001
0.23693334 0.33847621 1.7770001
0.24153525 0.3401905 1.7860001
-0.23957905 0.3314724 1.723
-0.23629715 0.3314724 1.723
-0.23301524 0.3314724 1.723
-0.23093334 0.33320382 1.7320001
-0.2276343 0.33320382 1.7320001
-0.22433525 0.33320382 1.7320001
-0.2210362 0.33320382 1.7320001
-0.21886858 0.33493525 1.7410001
-0.21555239 0.33493525 1.7410001
-0.11282858 0.34532383 1.7950001
-0.10940953 0.34532383 1.7950001
-0.10599048 0.34532383 1.7950001
-0.10257144 0.34532383 1.7950001
-0.099152386 0.34532383 1.7950001
-0.095733337 0.34532383 1.7950001
-0.092777148 0.34705526 1.8040001
-0.089340955 0.34705526 1.8040001
-0.085904762 0.34705526 1.8040001
-0.082468577 0.34705526 1.8040001
-0.079470478 0.34897906 1.8140001
-0.076015241 0.34897906 1.8140001
-0.073320001 0.35263431 1.8330001
-0.069828577 0.35263431 1.8330001
-0.06669905 0.35455811 1.8430001
-0.063188575 0.35455811 1.8430001
-0.059678096 0.35455811 1.8430001
-0.056777146 0.35840574 1.863
-0.053514287 0.36032954 1.8730001
-0.050213337 0.36225334 1.8830001
-0.04689905 0.36436954 1.8940001
-0.04352 0.36629334 1.904
-0.040123813 0.36840954 1.9150001
-0.036476191 0.36840954 1.9150001
-0.032828573 0.36840954 1.9150001
-0.029333334 0.37033334 1.9250001
-0.025533333 0.36840954 1.9150001
-0.021885715 0.36840954 1.9150001
-0.018333334 0.37033334 1.9250001
-0.014666667 0.37033334 1.9250001
-0.010942858 0.36840954 1.9150001
-0.0072952383 0.36840954 1.9150001
-0.0036476192 0.36840954 1.9150001
0 0.36840954 1.9150001
0.0036476192 0.36840954 1.9150001
0.0072952383 0.36840954 1.9150001
0.01088 0.36629334 1.904
0.014506667 0.36629334 1.904
0.018133335 0.36629334 1.904
0.02176 0.36629334 1.904
0.038217146 0.35090286 1.8240001
0.04169143 0.35090286 1.8240001
0.045165718 0.35090286 1.8240001
0.048373334 0.34897906 1.8140001
0.051285718 0.34532383 1.7950001
0.054704763 0.34532383 1.7950001
0.058415242 0.34705526 1.8040001
0.061851431 0.34705526 1.8040001
0.06528762 0.34705526 1.8040001
0.068380952 0.34532383 1.7950001
0.072160006 0.34705526 1.8040001
0.076015241 0.34897906 1.8140001
0.079470478 0.34897906 1.8140001
0.082057148 0.34532383 1.7950001
0.13736953 0.3383981 1.7590001
0.14 0.33666667 1.7500001
0.14333335 0.33666667 1.7500001
0.14666668 0.33666667 1.7500001
0.15000001 0.33666667 1.7500001
0.15333334 0.33666667 1.7500001
0.15666667 0.33666667 1.7500001
0.19488572 0.34532383 1.7950001
0.19830477 0.34532383 1.7950001
0.20172381 0.34532383 1.7950001
0.20514287 0.34532383 1.7950001
0.20751619 0.34359241 1.7860001
0.2109181 0.34359241 1.7860001
0.21432 0.34359241 1.7860001
0.21772191 0.34359241 1.7860001
0.22000954 0.34186098 1.7770001
0.22339429 0.34186098 1.7770001
0.22677906 0.34186098 1.7770001
0.23016381 0.34186098 1.7770001
0.23354858 0.34186098 1.7770001
0.23693334 0.34186098 1.7770001
-0.23213334 0.33825144 1.7410001
-0.22881715 0.33825144 1.7410001
-0.22550096 0.33825144 1.7410001
-0.2210362 0.33650288 1.7320001
-0.21773715 0.33650288 1.7320001
-0.1099581 0.35049143 1.8040001
-0.10652191 0.35049143 1.8040001
-0.10308572 0.35049143 1.8040001
-0.099152386 0.34874287 1.7950001
-0.096213333 0.35049143 1.8040001
-0.092777148 0.35049143 1.8040001
-0.089340955 0.35049143 1.8040001
-0.085904762 0.35049143 1.8040001
-0.082925715 0.35243431 1.8140001
-0.079470478 0.35243431 1.8140001
-0.076434292 0.35437715 1.8240001
-0.072960004 0.35437715 1.8240001
-0.070209526 0.35806859 1.8430001
-0.06669905 0.35806859 1.8430001
-0.063531429 0.36001143 1.853
-0.060001906 0.36001143 1.853
-0.056777146 0.3619543 1.863
-0.053800002 0.36584002 1.8830001
-0.05050667 0.36797714 1.8940001
-0.04689905 0.36797714 1.8940001
-0.04352 0.36992002 1.904
-0.040123813 0.37205717 1.9150001
-0.036666669 0.37400001 1.9250001
-0.033 0.37400001 1.9250001
-0.029333334 0.37400001 1.9250001
-0.025533333 0.37205717 1.9150001
-0.022 0.37400001 1.9250001
-0.018333334 0.37400001 1.9250001
-0.014666667 0.37400001 1.9250001
-0.010942858 0.37205717 1.9150001
-0.0072952383 0.37205717 1.9150001
-0.0036476192 0.37205717 1.9150001
0 0.37205717 1.9150001
0.0036476192 0.37205717 1.9150001
0.0072533335 0.36992002 1.904
0.01088 0.36992002 1.904
0.014506667 0.36992002 1.904
0.018038096 0.36797714 1.8940001
0.021645715 0.36797714 1.8940001
0.038217146 0.35437715 1.8240001
0.04169143 0.35437715 1.8240001
0.045165718 0.35437715 1.8240001
0.048640002 0.35437715 1.8240001
0.05154286 0.35049143 1.8040001
0.054704763 0.34874287 1.7950001
0.058415242 0.35049143 1.8040001
0.061851431 0.35049143 1.8040001
0.06528762 0.35049143 1.8040001
0.068380952 0.34874287 1.7950001
0.072160006 0.35049143 1.8040001
0.076015241 0.35243431 1.8140001
0.079470478 0.35243431 1.8140001
0.082925715 0.35243431 1.8140001
0.13736953 0.3417486 1.7590001
0.14072001 0.3417486 1.7590001
0.14333335 0.34 1.7500001
0.14666668 0.34 1.7500001
0.15000001 0.34 1.7500001
0.15333334 0.34 1.7500001
0.15666667 0.34 1.7500001
0.19488572 0.34874287 1.7950001
0.19830477 0.34874287 1.7950001
0.20071238 0.34699431 1.7860001
0.20411429 0.34699431 1.7860001
0.20751619 0.34699431 1.7860001
0.2109181 0.34699431 1.7860001
0.21324001 0.34524572 1.7770001
0.21662477 0.34524572 1.7770001
0.22000954 0.34524572 1.7770001
0.22339429 0.34524572 1.7770001
0.22792763 0.34699431 1.7860001
0.23132953 0.34699431 1.7860001
0.23473144 0.34699431 1.7860001
0.23813334 0.34699431 1.7860001
-0.23093334 0.33980191 1.7320001
-0.22881715 0.34156764 1.7410001
-0.22550096 0.34156764 1.7410001
-0.2210362 0.33980191 1.7320001
-0.21773715 0.33980191 1.7320001
-0.2144381 0.33980191 1.7320001
-0.1099581 0.35392764 1.8040001
-0.10652191 0.35392764 1.8040001
-0.10308572 0.35392764 1.8040001
-0.099152386 0.35216191 1.7950001
-0.096213333 0.35392764 1.8040001
-0.092777148 0.35392764 1.8040001
-0.089340955 0.35392764 1.8040001
-0.086380959 0.35588953 1.8140001
-0.083794288 0.35961714 1.8330001
-0.079908572 0.35785145 1.8240001
-0.076434292 0.35785145 1.8240001
-0.073320001 0.35961714 1.8330001
-0.070209526 0.36157906 1.8430001
-0.06669905 0.36157906 1.8430001
-0.063188575 0.36157906 1.8430001
-0.060001906 0.36354098 1.853
-0.056472383 0.36354098 1.853
-0.053800002 0.36942667 1.8830001
-0.050213337 0.36942667 1.8830001
-0.047146667 0.37354669 1.904
-0.04352 0.37354669 1.904
-0.040123813 0.37570477 1.9150001
-0.036666669 0.37766668 1.9250001
-0.033188574 0.37982479 1.9360001
-0.029500954 0.37982479 1.9360001
-0.025666667 0.37766668 1.9250001
-0.022125715 0.37982479 1.9360001
-0.018438095 0.37982479 1.9360001
-0.014750477 0.37982479 1.9360001
-0.011 0.37766668 1.9250001
-0.0073333336 0.37766668 1.9250001
-0.0036476192 0.37570477 1.9150001
0 0.37570477 1.9150001
0.0036476192 0.37570477 1.9150001
0.0072533335 0.37354669 1.904
0.01088 0.37354669 1.904
0.014506667 0.37354669 1.904
0.018038096 0.37158477 1.8940001
0.021645715 0.37158477 1.8940001
0.024973335 0.36746478 1.8730001
0.028388573 0.36550286 1.863
0.031765714 0.36354098 1.853
0.035295241 0.36354098 1.853
0.038405716 0.35961714 1.8330001
0.041897144 0.35961714 1.8330001
0.045388572 0.35961714 1.8330001
0.048640002 0.35785145 1.8240001
0.05154286 0.35392764 1.8040001
0.054979049 0.35392764 1.8040001
0.058415242 0.35392764 1.8040001
0.061851431 0.35392764 1.8040001
0.06528762 0.35392764 1.8040001
0.068380952 0.35216191 1.7950001
0.072160006 0.35392764 1.8040001
0.075596191 0.35392764 1.8040001
0.079032384 0.35392764 1.8040001
0.082057148 0.35216191 1.7950001
0.085476197 0.35216191 1.7950001
0.13736953 0.34509906 1.7590001
0.14072001 0.34509906 1.7590001
0.14407048 0.34509906 1.7590001
0.14742096 0.34509906 1.7590001
0.15077144 0.34509906 1.7590001
0.15333334 0.34333333 1.7500001
0.15666667 0.34333333 1.7500001
0.1821181 0.35392764 1.8040001
0.1855543 0.35392764 1.8040001
0.18804763 0.35216191 1.7950001
0.19050667 0.35039622 1.7860001
0.19390857 0.35039622 1.7860001
0.19731048 0.35039622 1.7860001
0.20071238 0.35039622 1.7860001
0.20308572 0.34863049 1.7770001
0.20647049 0.34863049 1.7770001
0.20985524 0.34863049 1.7770001
0.21324001 0.34863049 1.7770001
0.21662477 0.34863049 1.7770001
0.22000954 0.34863049 1.7770001
0.22226286 0.34686476 1.7680001
0.22677906 0.34863049 1.7770001
0.23132953 0.35039622 1.7860001
0.23473144 0.35039622 1.7860001
0.23813334 0.35039622 1.7860001
-0.23093334 0.34310097 1.7320001
-0.22881715 0.34488383 1.7410001
-0.22550096 0.34488383 1.7410001
-0.2210362 0.34310097 1.7320001
-0.21773715 0.34310097 1.7320001
-0.2144381 0.34310097 1.7320001
-0.086380959 0.35934478 1.8140001
-0.083794288 0.36310858 1.8330001
-0.079908572 0.36132574 1.8240001
-0.076811433 0.36310858 1.8330001
-0.073320001 0.36310858 1.8330001
-0.070209526 0.36508954 1.8430001
-0.06669905 0.36508954 1.8430001
-0.063188575 0.36508954 1.8430001
-0.059678096 0.36508954 1.8430001
-0.056472383 0.3670705 1.853
-0.050213337 0.37301335 1.8830001
-0.047146667 0.37717333 1.904
-0.043771431 0.37935239 1.9150001
-0.040123813 0.37935239 1.9150001
-0.036666669 0.38133335 1.9250001
-0.033188574 0.38351241 1.9360001
-0.029668573 0.38569143 1.9470001
-0.025813334 0.38351241 1.9360001
-0.022125715 0.38351241 1.9360001
-0.018542858 0.38569143 1.9470001
-0.014750477 0.38351241 1.9360001
-0.011 0.38133335 1.9250001
-0.0073333336 0.38133335 1.9250001
-0.0036476192 0.37935239 1.9150001
0 0.37935239 1.9150001
0.0036476192 0.37935239 1.9150001
0.0072952383 0.37935239 1.9150001
0.01088 0.37717333 1.904
0.014506667 0.37717333 1.904
0.018038096 0.3751924 1.8940001
0.02152 0.37301335 1.8830001
0.024973335 0.37103239 1.8730001
0.028388573 0.36905146 1.863
0.031937145 0.36905146 1.863
0.035295241 0.3670705 1.853
0.038615238 0.36508954 1.8430001
0.042125717 0.36508954 1.8430001
0.045388572 0.36310858 1.8330001
0.048640002 0.36132574 1.8240001
0.05154286 0.35736382 1.8040001
0.054979049 0.35736382 1.8040001
0.058123812 0.35558096 1.7950001
0.061542861 0.35558096 1.7950001
0.06496191 0.35558096 1.7950001
0.068380952 0.35558096 1.7950001
0.071800001 0.35558096 1.7950001
0.075596191 0.35736382 1.8040001
0.079032384 0.35736382 1.8040001
0.082057148 0.35558096 1.7950001
0.085476197 0.35558096 1.7950001
0.088895239 0.35558096 1.7950001
0.092314288 0.35558096 1.7950001
0.14407048 0.34844953 1.7590001
0.14742096 0.34844953 1.7590001
0.15308572 0.35379812 1.7860001
0.15648763 0.35379812 1.7860001
0.1821181 0.35736382 1.8040001
0.18462858 0.35558096 1.7950001
0.18710476 0.35379812 1.7860001
0.19050667 0.35379812 1.7860001
0.19390857 0.35379812 1.7860001
0.19731048 0.35379812 1.7860001
0.20071238 0.35379812 1.7860001
0.20205715 0.35023239 1.7680001
0.20647049 0.35201526 1.7770001
0.20985524 0.35201526 1.7770001
0.21324001 0.35201526 1.7770001
0.21552762 0.35023239 1.7680001
0.21889524 0.35023239 1.7680001
0.22226286 0.35023239 1.7680001
0.22677906 0.35201526 1.7770001
0.23132953 0.35379812 1.7860001
0.23473144 0.35379812 1.7860001
0.23813334 0.35379812 1.7860001
-0.22881715 0.34820002 1.7410001
-0.22550096 0.34820002 1.7410001
-0.2210362 0.34640002 1.7320001
-0.21773715 0.34640002 1.7320001
-0.083794288 0.36660001 1.8330001
-0.079908572 0.36480001 1.8240001
-0.076811433 0.36660001 1.8330001
-0.073320001 0.36660001 1.8330001
-0.070209526 0.36860001 1.8430001
-0.06669905 0.36860001 1.8430001
-0.063188575 0.36860001 1.8430001
-0.059678096 0.36860001 1.8430001
-0.047146667 0.38080001 1.904
-0.04352 0.38080001 1.904
-0.040123813 0.38300002 1.9150001
-0.03687619 0.38720003 1.9360001
-0.033565715 0.39160001 1.9580001
-0.029668573 0.38940001 1.9470001
-0.025813334 0.38720003 1.9360001
-0.022251429 0.38940001 1.9470001
-0.018542858 0.38940001 1.9470001
-0.014750477 0.38720003 1.9360001
-0.011062858 0.38720003 1.9360001
-0.0073752385 0.38720003 1.9360001
-0.0036876192 0.38720003 1.9360001
0 0.38500002 1.9250001
0.0036666668 0.38500002 1.9250001
0.0072952383 0.38300002 1.9150001
0.010942858 0.38300002 1.9150001
0.014506667 0.38080001 1.904
0.018038096 0.3788 1.8940001
0.021645715 0.3788 1.8940001
0.024973335 0.37460002 1.8730001
0.028540954 0.37460002 1.8730001
0.031937145 0.37260002 1.863
0.035485715 0.37260002 1.863
0.038824763 0.37060001 1.853
0.042125717 0.36860001 1.8430001
0.045388572 0.36660001 1.8330001
0.048640002 0.36480001 1.8240001
0.05154286 0.36080003 1.8040001
0.054704763 0.35900003 1.7950001
0.058123812 0.35900003 1.7950001
0.061542861 0.35900003 1.7950001
0.06496191 0.35900003 1.7950001
0.068380952 0.35900003 1.7950001
0.071800001 0.35900003 1.7950001
0.07521905 0.35900003 1.7950001
0.078638099 0.35900003 1.7950001
0.082057148 0.35900003 1.7950001
0.085476197 0.35900003 1.7950001
0.088895239 0.35900003 1.7950001
0.092314288 0.35900003 1.7950001
0.14628191 0.35720003 1.7860001
0.14968382 0.35720003 1.7860001
0.15308572 0.35720003 1.7860001
0.15648763 0.35720003 1.7860001
0.15988953 0.35720003 1.7860001
0.17689906 0.35720003 1.7860001
0.18030097 0.35720003 1.7860001
0.18370287 0.35720003 1.7860001
0.18710476 0.35720003 1.7860001
0.19050667 0.35720003 1.7860001
0.19390857 0.35720003 1.7860001
0.19731048 0.35720003 1.7860001
0.19970097 0.35540003 1.7770001
0.20205715 0.35360003 1.7680001
0.20542477 0.35360003 1.7680001
0.20985524 0.35540003 1.7770001
0.21324001 0.35540003 1.7770001
0.21552762 0.35360003 1.7680001
0.21889524 0.35360003 1.7680001
0.22226286 0.35360003 1.7680001
0.22563048 0.35360003 1.7680001
0.23132953 0.35720003 1.7860001
0.23473144 0.35720003 1.7860001
-0.070209526 0.37211049 1.8430001
-0.06669905 0.37211049 1.8430001
-0.063188575 0.37211049 1.8430001
-0.059678096 0.37211049 1.8430001
-0.043771431 0.38664764 1.9150001
-0.040123813 0.38664764 1.9150001
-0.037085716 0.39310858 1.9470001
-0.033565715 0.39532954 1.9580001
-0.029836191 0.39532954 1.9580001
-0.02596 0.39310858 1.9470001
-0.022251429 0.39310858 1.9470001
-0.018542858 0.39310858 1.9470001
-0.014834287 0.39310858 1.9470001
-0.011125715 0.39310858 1.9470001
-0.0074171433 0.39310858 1.9470001
-0.0036876192 0.39088765 1.9360001
0 0.39088765 1.9360001
0.0036876192 0.39088765 1.9360001
0.0073333336 0.38866669 1.9250001
0.010942858 0.38664764 1.9150001
0.014590477 0.38664764 1.9150001
0.018038096 0.38240764 1.8940001
0.02152 0.38018668 1.8830001
0.024973335 0.37816763 1.8730001
0.028540954 0.37816763 1.8730001
0.031937145 0.37614858 1.863
0.035485715 0.37614858 1.863
0.038824763 0.37412953 1.853
0.042125717 0.37211049 1.8430001
0.045388572 0.37009144 1.8330001
0.048640002 0.3682743 1.8240001
0.051828574 0.36625525 1.8140001
0.054704763 0.36241907 1.7950001
0.058123812 0.36241907 1.7950001
0.061234288 0.36060193 1.7860001
0.06496191 0.36241907 1.7950001
0.068038099 0.36060193 1.7860001
0.071440004 0.36060193 1.7860001
0.074841909 0.36060193 1.7860001
0.078243814 0.36060193 1.7860001
0.08164572 0.36060193 1.7860001
0.085047625 0.36060193 1.7860001
0.08844953 0.36060193 1.7860001
0.091851436 0.36060193 1.7860001
0.095253333 0.36060193 1.7860001
0.1394781 0.36060193 1.7860001
0.14288001 0.36060193 1.7860001
0.14701906 0.36241907 1.7950001
0.1504381 0.36241907 1.7950001
0.15385714 0.36241907 1.7950001
0.15648763 0.36060193 1.7860001
0.15988953 0.36060193 1.7860001
0.16246858 0.35878477 1.7770001
0.16669334 0.36060193 1.7860001
0.16923811 0.35878477 1.7770001
0.17349716 0.36060193 1.7860001
0.17600763 0.35878477 1.7770001
0.18030097 0.36060193 1.7860001
0.18370287 0.36060193 1.7860001
0.18710476 0.36060193 1.7860001
0.19050667 0.36060193 1.7860001
0.19390857 0.36060193 1.7860001
0.1963162 0.35878477 1.7770001
0.19970097 0.35878477 1.7770001
0.20205715 0.35696763 1.7680001
0.20542477 0.35696763 1.7680001
0.20879239 0.35696763 1.7680001
0.21324001 0.35878477 1.7770001
0.21552762 0.35696763 1.7680001
0.21778096 0.35515049 1.7590001
0.22113144 0.35515049 1.7590001
0.22448191 0.35515049 1.7590001
-0.043771431 0.39029527 1.9150001
-0.040123813 0.39029527 1.9150001
-0.037085716 0.39681715 1.9470001
-0.033565715 0.39905906 1.9580001
-0.029836191 0.39905906 1.9580001
-0.02596 0.39681715 1.9470001
-0.022251429 0.39681715 1.9470001
-0.018542858 0.39681715 1.9470001
-0.014834287 0.39681715 1.9470001
-0.011125715 0.39681715 1.9470001
-0.0074171433 0.39681715 1.9470001
-0.0037085717 0.39681715 1.9470001
0 0.39457524 1.9360001
0.0036876192 0.39457524 1.9360001
0.0073752385 0.39457524 1.9360001
0.011 0.39233336 1.9250001
0.014590477 0.39029527 1.9150001
0.018238096 0.39029527 1.9150001
0.021645715 0.38601527 1.8940001
0.024973335 0.38173527 1.8730001
0.028540954 0.38173527 1.8730001
0.032108571 0.38173527 1.8730001
0.035485715 0.37969714 1.863
0.038824763 0.37765905 1.853
0.042125717 0.37562096 1.8430001
0.045388572 0.37358287 1.8330001
0.048640002 0.3717486 1.8240001
0.05154286 0.36767238 1.8040001
0.054979049 0.36767238 1.8040001
0.058123812 0.36583811 1.7950001
0.061234288 0.36400384 1.7860001
0.064636193 0.36400384 1.7860001
0.068038099 0.36400384 1.7860001
0.071440004 0.36400384 1.7860001
0.074841909 0.36400384 1.7860001
0.078243814 0.36400384 1.7860001
0.08164572 0.36400384 1.7860001
0.085047625 0.36400384 1.7860001
0.08844953 0.36400384 1.7860001
0.091851436 0.36400384 1.7860001
0.095253333 0.36400384 1.7860001
0.098655239 0.36400384 1.7860001
0.10205714 0.36400384 1.7860001
0.1394781 0.36400384 1.7860001
0.14288001 0.36400384 1.7860001
0.14628191 0.36400384 1.7860001
0.1504381 0.36583811 1.7950001
0.15385714 0.36583811 1.7950001
0.15648763 0.36400384 1.7860001
0.15988953 0.36400384 1.7860001
0.16246858 0.36216953 1.7770001
0.16669334 0.36400384 1.7860001
0.16923811 0.36216953 1.7770001
0.17262286 0.36216953 1.7770001
0.17600763 0.36216953 1.7770001
0.18030097 0.36400384 1.7860001
0.18370287 0.36400384 1.7860001
0.18710476 0.36400384 1.7860001
0.19050667 0.36400384 1.7860001
0.19390857 0.36400384 1.7860001
0.19731048 0.36400384 1.7860001
0.19970097 0.36216953 1.7770001
0.20308572 0.36216953 1.7770001
0.20542477 0.36033526 1.7680001
0.20879239 0.36033526 1.7680001
0.21324001 0.36216953 1.7770001
0.21552762 0.36033526 1.7680001
0.21778096 0.35850096 1.7590001
0.22113144 0.35850096 1.7590001
0.22448191 0.35850096 1.7590001
-0.033565715 0.40278858 1.9580001
-0.03000381 0.40505144 1.9690001
-0.026106667 0.40278858 1.9580001
-0.022502858 0.40505144 1.9690001
-0.01864762 0.40278858 1.9580001
-0.014834287 0.40052572 1.9470001
-0.011125715 0.40052572 1.9470001
-0.0074171433 0.40052572 1.9470001
-0.0037085717 0.40052572 1.9470001
0 0.40052572 1.9470001
0.0037085717 0.40052572 1.9470001
0.0073752385 0.39826286 1.9360001
0.011062858 0.39826286 1.9360001
0.014666667 0.39600003 1.9250001
0.018333334 0.39600003 1.9250001
0.02176 0.39168 1.904
0.025253335 0.38962287 1.8940001
0.028693335 0.38736001 1.8830001
0.032108571 0.38530287 1.8730001
0.035485715 0.38324574 1.863
0.038615238 0.37913144 1.8430001
0.042125717 0.37913144 1.8430001
0.045165718 0.37522286 1.8240001
0.048373334 0.37316573 1.8140001
0.051828574 0.37316573 1.8140001
0.054979049 0.37110859 1.8040001
0.058123812 0.36925715 1.7950001
0.061234288 0.36740574 1.7860001
0.064636193 0.36740574 1.7860001
0.068038099 0.36740574 1.7860001
0.071440004 0.36740574 1.7860001
0.074841909 0.36740574 1.7860001
0.078243814 0.36740574 1.7860001
0.08164572 0.36740574 1.7860001
0.085047625 0.36740574 1.7860001
0.08844953 0.36740574 1.7860001
0.091851436 0.36740574 1.7860001
0.095253333 0.36740574 1.7860001
0.098655239 0.36740574 1.7860001
0.10154286 0.3655543 1.7770001
0.10439619 0.36370286 1.7680001
0.10776381 0.36370286 1.7680001
0.1139162 0.36185145 1.7590001
0.11726667 0.36185145 1.7590001
0.12123429 0.36370286 1.7680001
0.12460191 0.36370286 1.7680001
0.13539048 0.3655543 1.7770001
0.13877524 0.3655543 1.7770001
0.14288001 0.36740574 1.7860001
0.14628191 0.36740574 1.7860001
0.14968382 0.36740574 1.7860001
0.15385714 0.36925715 1.7950001
0.15648763 0.36740574 1.7860001
0.15988953 0.36740574 1.7860001
0.16329144 0.36740574 1.7860001
0.16669334 0.36740574 1.7860001
0.17009525 0.36740574 1.7860001
0.17349716 0.36740574 1.7860001
0.17689906 0.36740574 1.7860001
0.18030097 0.36740574 1.7860001
0.18370287 0.36740574 1.7860001
0.18710476 0.36740574 1.7860001
0.19050667 0.36740574 1.7860001
0.19390857 0.36740574 1.7860001
0.19731048 0.36740574 1.7860001
0.20071238 0.36740574 1.7860001
0.20308572 0.3655543 1.7770001
-0.03000381 0.40880191 1.9690001
-0.026106667 0.4065181 1.9580001
-0.022377145 0.4065181 1.9580001
-0.01864762 0.4065181 1.9580001
-0.014834287 0.40423429 1.9470001
-0.011125715 0.40423429 1.9470001
-0.0074171433 0.40423429 1.9470001
-0.0037085717 0.40423429 1.9470001
0 0.40423429 1.9470001
0.0037085717 0.40423429 1.9470001
0.0074171433 0.40423429 1.9470001
0.011062858 0.40195048 1.9360001
0.014666667 0.39966667 1.9250001
0.018333334 0.39966667 1.9250001
0.02176 0.39530668 1.904
0.025253335 0.3932305 1.8940001
0.028860953 0.3932305 1.8940001
0.032108571 0.38887048 1.8730001
0.035485715 0.3867943 1.863
0.038615238 0.38264191 1.8430001
0.041897144 0.38056573 1.8330001
0.045388572 0.38056573 1.8330001
0.048373334 0.37662098 1.8140001
0.051828574 0.37662098 1.8140001
0.054979049 0.37454477 1.8040001
0.058123812 0.37267619 1.7950001
0.061542861 0.37267619 1.7950001
0.06496191 0.37267619 1.7950001
0.068038099 0.37080762 1.7860001
0.071440004 0.37080762 1.7860001
0.074841909 0.37080762 1.7860001
0.078243814 0.37080762 1.7860001
0.08164572 0.37080762 1.7860001
0.085047625 0.37080762 1.7860001
0.088003814 0.36893907 1.7770001
0.091388576 0.36893907 1.7770001
0.094773337 0.36893907 1.7770001
0.098158099 0.36893907 1.7770001
0.10102858 0.3670705 1.7680001
0.10439619 0.3670705 1.7680001
0.10721524 0.36520192 1.7590001
0.11056572 0.36520192 1.7590001
0.11508191 0.36893907 1.7770001
0.11846667 0.36893907 1.7770001
0.12185143 0.36893907 1.7770001
0.1252362 0.36893907 1.7770001
0.12862095 0.36893907 1.7770001
0.13200572 0.36893907 1.7770001
0.13539048 0.36893907 1.7770001
0.13877524 0.36893907 1.7770001
0.14216 0.36893907 1.7770001
0.14628191 0.37080762 1.7860001
0.14968382 0.37080762 1.7860001
0.15308572 0.37080762 1.7860001
0.15648763 0.37080762 1.7860001
0.15988953 0.37080762 1.7860001
0.16329144 0.37080762 1.7860001
0.16669334 0.37080762 1.7860001
0.17009525 0.37080762 1.7860001
0.17349716 0.37080762 1.7860001
0.17689906 0.37080762 1.7860001
0.18030097 0.37080762 1.7860001
0.18277715 0.36893907 1.7770001
0.18616191 0.36893907 1.7770001
0.18954667 0.36893907 1.7770001
0.19293143 0.36893907 1.7770001
0.19731048 0.37080762 1.7860001
0.20071238 0.37080762 1.7860001
-0.026106667 0.41024762 1.9580001
-0.022502858 0.41255239 1.9690001
-0.01864762 0.41024762 1.9580001
-0.014918095 0.41024762 1.9580001
-0.011125715 0.40794286 1.9470001
-0.0074171433 0.40794286 1.9470001
-0.0037085717 0.40794286 1.9470001
0 0.40794286 1.9470001
0.0037085717 0.40794286 1.9470001
0.0074171433 0.40794286 1.9470001
0.011062858 0.4056381 1.9360001
0.014666667 0.40333334 1.9250001
0.018238096 0.40123811 1.9150001
0.02176 0.39893335 1.904
0.025386667 0.39893335 1.904
0.028860953 0.3968381 1.8940001
0.032108571 0.39243811 1.8730001
0.035485715 0.39034286 1.863
0.038615238 0.38615239 1.8430001
0.041897144 0.38405716 1.8330001
0.045388572 0.38405716 1.8330001
0.048373334 0.3800762 1.8140001
0.051828574 0.3800762 1.8140001
0.055283811 0.3800762 1.8140001
0.058123812 0.37609527 1.7950001
0.061542861 0.37609527 1.7950001
0.064636193 0.37420952 1.7860001
0.068038099 0.37420952 1.7860001
0.071440004 0.37420952 1.7860001
0.074841909 0.37420952 1.7860001
0.07784953 0.37232381 1.7770001
0.081234291 0.37232381 1.7770001
0.084619053 0.37232381 1.7770001
0.088003814 0.37232381 1.7770001
0.091388576 0.37232381 1.7770001
0.095253333 0.37420952 1.7860001
0.098158099 0.37232381 1.7770001
0.10154286 0.37232381 1.7770001
0.10492762 0.37232381 1.7770001
0.10776381 0.3704381 1.7680001
0.11113143 0.3704381 1.7680001
0.11508191 0.37232381 1.7770001
0.11846667 0.37232381 1.7770001
0.12123429 0.3704381 1.7680001
0.1252362 0.37232381 1.7770001
0.12862095 0.37232381 1.7770001
0.13200572 0.37232381 1.7770001
0.13539048 0.37232381 1.7770001
0.13877524 0.37232381 1.7770001
0.14216 0.37232381 1.7770001
0.14554477 0.37232381 1.7770001
0.14968382 0.37420952 1.7860001
0.15231429 0.37232381 1.7770001
0.15648763 0.37420952 1.7860001
0.15988953 0.37420952 1.7860001
0.16329144 0.37420952 1.7860001
0.16669334 0.37420952 1.7860001
0.17009525 0.37420952 1.7860001
0.17349716 0.37420952 1.7860001
0.17689906 0.37420952 1.7860001
0.17939238 0.37232381 1.7770001
0.18277715 0.37232381 1.7770001
0.18616191 0.37232381 1.7770001
0.18954667 0.37232381 1.7770001
0.19293143 0.37232381 1.7770001
-0.022377145 0.41397715 1.9580001
-0.01864762 0.41397715 1.9580001
-0.014918095 0.41397715 1.9580001
-0.011188572 0.41397715 1.9580001
-0.0074590477 0.41397715 1.9580001
-0.0037085717 0.41165143 1.9470001
0 0.41165143 1.9470001
0.0037085717 0.41165143 1.9470001
0.0074171433 0.41165143 1.9470001
0.011125715 0.41165143 1.9470001
0.014834287 0.41165143 1.9470001
0.018238096 0.40488574 1.9150001
0.02176 0.40256003 1.904
0.025386667 0.40256003 1.904
0.035485715 0.39389145 1.863
0.038615238 0.38966286 1.8430001
0.042125717 0.38966286 1.8430001
0.045388572 0.3875486 1.8330001
0.048373334 0.38353145 1.8140001
0.052114289 0.38564572 1.8240001
0.055283811 0.38353145 1.8140001
0.058415242 0.38141716 1.8040001
0.061542861 0.37951431 1.7950001
0.06496191 0.37951431 1.7950001
0.068038099 0.37761143 1.7860001
0.071440004 0.37761143 1.7860001
0.074841909 0.37761143 1.7860001
0.07784953 0.37570858 1.7770001
0.081234291 0.37570858 1.7770001
0.084619053 0.37570858 1.7770001
0.087558098 0.37380573 1.7680001
0.091388576 0.37570858 1.7770001
0.094773337 0.37570858 1.7770001
0.098158099 0.37570858 1.7770001
0.10102858 0.37380573 1.7680001
0.10439619 0.37380573 1.7680001
0.10776381 0.37380573 1.7680001
0.11113143 0.37380573 1.7680001
0.11449905 0.37380573 1.7680001
0.11786667 0.37380573 1.7680001
0.12123429 0.37380573 1.7680001
0.1252362 0.37570858 1.7770001
0.12862095 0.37570858 1.7770001
0.13200572 0.37570858 1.7770001
0.13539048 0.37570858 1.7770001
0.13877524 0.37570858 1.7770001
0.14216 0.37570858 1.7770001
0.14554477 0.37570858 1.7770001
0.14892954 0.37570858 1.7770001
0.15231429 0.37570858 1.7770001
0.15569906 0.37570858 1.7770001
0.15988953 0.37761143 1.7860001
0.16329144 0.37761143 1.7860001
0.16669334 0.37761143 1.7860001
0.17009525 0.37761143 1.7860001
0.17349716 0.37761143 1.7860001
0.17689906 0.37761143 1.7860001
0.18030097 0.37761143 1.7860001
0.18277715 0.37570858 1.7770001
0.18616191 0.37570858 1.7770001
-0.022377145 0.41770667 1.9580001
-0.01864762 0.41770667 1.9580001
-0.014918095 0.41770667 1.9580001
-0.011188572 0.41770667 1.9580001
-0.0074590477 0.41770667 1.9580001
-0.0037085717 0.41536 1.9470001
0 0.41536 1.9470001
0.0037085717 0.41536 1.9470001
0.0074171433 0.41536 1.9470001
0.011125715 0.41536 1.9470001
0.014834287 0.41536 1.9470001
0.042125717 0.39317334 1.8430001
0.045388572 0.39104003 1.8330001
0.048640002 0.38912001 1.8240001
0.052114289 0.38912001 1.8240001
0.055588573 0.38912001 1.8240001
0.058739051 0.38698667 1.8140001
0.061851431 0.38485333 1.8040001
0.06496191 0.38293335 1.7950001
0.068038099 0.38101333 1.7860001
0.071440004 0.38101333 1.7860001
0.074841909 0.38101333 1.7860001
0.07784953 0.37909335 1.7770001
0.081234291 0.37909335 1.7770001
0.084619053 0.37909335 1.7770001
0.087558098 0.37717333 1.7680001
0.090925716 0.37717333 1.7680001
0.094773337 0.37909335 1.7770001
0.097660959 0.37717333 1.7680001
0.10102858 0.37717333 1.7680001
0.10439619 0.37717333 1.7680001
0.10776381 0.37717333 1.7680001
0.11113143 0.37717333 1.7680001
0.11449905 0.37717333 1.7680001
0.11786667 0.37717333 1.7680001
0.12185143 0.37909335 1.7770001
0.1252362 0.37909335 1.7770001
0.12862095 0.37909335 1.7770001
0.13200572 0.37909335 1.7770001
0.13539048 0.37909335 1.7770001
0.13877524 0.37909335 1.7770001
0.14216 0.37909335 1.7770001
0.14554477 0.37909335 1.7770001
0.14968382 0.38101333 1.7860001
0.15231429 0.37909335 1.7770001
0.15648763 0.38101333 1.7860001
0.15988953 0.38101333 1.7860001
0.16329144 0.38101333 1.7860001
0.16669334 0.38101333 1.7860001
0.17009525 0.38101333 1.7860001
0.17349716 0.38101333 1.7860001
0.17689906 0.38101333 1.7860001
0.18030097 0.38101333 1.7860001
-0.014918095 0.42143622 1.9580001
-0.011188572 0.42143622 1.9580001
-0.0074590477 0.42143622 1.9580001
-0.0037295239 0.42143622 1.9580001
0 0.41906857 1.9470001
0.0037085717 0.41906857 1.9470001
0.045388572 0.39453143 1.8330001
0.048640002 0.39259431 1.8240001
0.052371431 0.39453143 1.8330001
0.055588573 0.39259431 1.8240001
0.058739051 0.39044192 1.8140001
0.061851431 0.38828954 1.8040001
0.06496191 0.38635239 1.7950001
0.068380952 0.38635239 1.7950001
0.071440004 0.38441524 1.7860001
0.074841909 0.38441524 1.7860001
0.078243814 0.38441524 1.7860001
0.08164572 0.38441524 1.7860001
0.084619053 0.38247812 1.7770001
0.088003814 0.38247812 1.7770001
0.091388576 0.38247812 1.7770001
0.094773337 0.38247812 1.7770001
0.097660959 0.38054097 1.7680001
0.10102858 0.38054097 1.7680001
0.10439619 0.38054097 1.7680001
0.10721524 0.37860382 1.7590001
0.11056572 0.37860382 1.7590001
0.11449905 0.38054097 1.7680001
0.11786667 0.38054097 1.7680001
0.12123429 0.38054097 1.7680001
0.12460191 0.38054097 1.7680001
0.12862095 0.38247812 1.7770001
0.13200572 0.38247812 1.7770001
0.13539048 0.38247812 1.7770001
0.13877524 0.38247812 1.7770001
0.14216 0.38247812 1.7770001
0.14554477 0.38247812 1.7770001
0.14892954 0.38247812 1.7770001
0.15231429 0.38247812 1.7770001
0.15648763 0.38441524 1.7860001
0.15988953 0.38441524 1.7860001
0.16329144 0.38441524 1.7860001
0.16669334 0.38441524 1.7860001
-0.0075009526 0.42755431 1.9690001
-0.0037504763 0.42755431 1.9690001
0.048640002 0.39606857 1.8240001
0.052371431 0.39802286 1.8330001
0.055588573 0.39606857 1.8240001
0.059062861 0.39606857 1.8240001
0.061851431 0.39172572 1.8040001
0.06496191 0.38977143 1.7950001
0.068380952 0.38977143 1.7950001
0.071440004 0.38781714 1.7860001
0.074841909 0.38781714 1.7860001
0.078243814 0.38781714 1.7860001
0.08164572 0.38781714 1.7860001
0.084619053 0.38586286 1.7770001
0.088003814 0.38586286 1.7770001
0.090925716 0.3839086 1.7680001
0.094773337 0.38586286 1.7770001
0.097660959 0.3839086 1.7680001
0.10102858 0.3839086 1.7680001
0.10439619 0.3839086 1.7680001
0.10776381 0.3839086 1.7680001
0.11113143 0.3839086 1.7680001
0.11449905 0.3839086 1.7680001
0.11786667 0.3839086 1.7680001
0.12185143 0.38586286 1.7770001
0.1252362 0.38586286 1.7770001
0.12862095 0.38586286 1.7770001
0.13200572 0.38586286 1.7770001
0.13470477 0.3839086 1.7680001
0.13807239 0.3839086 1.7680001
0.14144 0.3839086 1.7680001
0.14554477 0.38586286 1.7770001
0.14892954 0.38586286 1.7770001
0.15231429 0.38586286 1.7770001
0.15648763 0.38781714 1.7860001
0.15988953 0.38781714 1.7860001
-0.0075009526 0.43130478 1.9690001
-0.0037504763 0.43130478 1.9690001
0.055588573 0.39954287 1.8240001
0.059062861 0.39954287 1.8240001
0.061851431 0.39516193 1.8040001
0.06496191 0.3931905 1.7950001
0.068380952 0.3931905 1.7950001
0.071440004 0.39121905 1.7860001
0.074841909 0.39121905 1.7860001
0.078243814 0.39121905 1.7860001
0.08164572 0.39121905 1.7860001
0.084619053 0.38924763 1.7770001
0.088003814 0.38924763 1.7770001
0.090925716 0.3872762 1.7680001
0.094773337 0.38924763 1.7770001
0.098158099 0.38924763 1.7770001
0.10102858 0.3872762 1.7680001
0.10439619 0.3872762 1.7680001
0.10776381 0.3872762 1.7680001
0.11056572 0.38530478 1.7590001
0.11449905 0.3872762 1.7680001
0.11786667 0.3872762 1.7680001
0.12185143 0.38924763 1.7770001
0.1252362 0.38924763 1.7770001
0.12862095 0.38924763 1.7770001
0.13200572 0.38924763 1.7770001
0.13539048 0.38924763 1.7770001
0.13807239 0.3872762 1.7680001
0.14144 0.3872762 1.7680001
0.078243814 0.39462095 1.7860001
0.08164572 0.39462095 1.7860001
0.084619053 0.3926324 1.7770001
0.088003814 0.3926324 1.7770001
0.094773337 0.3926324 1.7770001
0.098158099 0.3926324 1.7770001
0.10721524 0.38865525 1.7590001
0.11056572 0.38865525 1.7590001
0.11449905 0.39064384 1.7680001
0.11786667 0.39064384 1.7680001
0.12123429 0.39064384 1.7680001
0.1252362 0.3926324 1.7770001
0.12862095 0.3926324 1.7770001
0.13200572 0.3926324 1.7770001
0.13539048 0.3926324 1.7770001
0.10721524 0.39200574 1.7590001
0.11056572 0.39200574 1.7590001
0.11449905 0.39401144 1.7680001
0.11786667 0.39401144 1.7680001
0.12123429 0.39401144 1.7680001
-0.038152382 0.57228571 2.003
-0.034337144 0.57228571 2.003
-0.049598098 0.57610095 2.003
-0.04578286 0.57610095 2.003
-0.041967619 0.57610095 2.003
-0.03794286 0.57293719 1.9920001
-0.034337144 0.57610095 2.003
-0.030521905 0.57610095 2.003
-0.026706668 0.57610095 2.003
-0.049598098 0.57991624 2.003
-0.04578286 0.57991624 2.003
-0.041967619 0.57991624 2.003
-0.03794286 0.57673144 1.9920001
-0.034148574 0.57673144 1.9920001
-0.030354287 0.57673144 1.9920001
-0.026400002 0.57325715 1.9800001
-0.022628572 0.57325715 1.9800001
0.011251429 0.57007241 1.9690001
0.015001905 0.57007241 1.9690001
-0.049325716 0.58052576 1.9920001
-0.045531429 0.58052576 1.9920001
-0.041737143 0.58052576 1.9920001
-0.037714288 0.57702857 1.9800001
-0.03394286 0.57702857 1.9800001
-0.03017143 0.57702857 1.9800001
-0.026253335 0.57382286 1.9690001
-0.022377145 0.57061714 1.9580001
-0.01864762 0.57061714 1.9580001
0.0075009526 0.57382286 1.9690001
0.011251429 0.57382286 1.9690001
0.015001905 0.57382286 1.9690001
0.018752381 0.57382286 1.9690001
0.022377145 0.57061714 1.9580001
0.026106667 0.57061714 1.9580001
0.049325716 0.58052576 1.9920001
0.053120002 0.58052576 1.9920001
-0.060342859 0.5808 1.9800001
-0.056914289 0.58432001 1.9920001
-0.052800003 0.5808 1.9800001
-0.049325716 0.58432001 1.9920001
-0.045257144 0.5808 1.9800001
-0.041485716 0.5808 1.9800001
-0.037714288 0.5808 1.9800001
-0.03394286 0.5808 1.9800001
-0.03000381 0.57757336 1.9690001
-0.026253335 0.57757336 1.9690001
-0.022377145 0.57434666 1.9580001
-0.01864762 0.57434666 1.9580001
-0.014918095 0.57434666 1.9580001
-0.011188572 0.57434666 1.9580001
-0.0074590477 0.57434666 1.9580001
-0.0037295239 0.57434666 1.9580001
0.0037504763 0.57757336 1.9690001
0.0075009526 0.57757336 1.9690001
0.011251429 0.57757336 1.9690001
0.015001905 0.57757336 1.9690001
0.018752381 0.57757336 1.9690001
0.022377145 0.57434666 1.9580001
0.026106667 0.57434666 1.9580001
0.03000381 0.57757336 1.9690001
0.033754285 0.57757336 1.9690001
0.037504762 0.57757336 1.9690001
0.041485716 0.5808 1.9800001
0.045531429 0.58432001 1.9920001
0.049325716 0.58432001 1.9920001
0.053120002 0.58432001 1.9920001
0.056914289 0.58432001 1.9920001
-0.064114287 0.58457142 1.9800001
-0.060007621 0.5813238 1.9690001
-0.056257144 0.5813238 1.9690001
-0.052800003 0.58457142 1.9800001
-0.049028572 0.58457142 1.9800001
-0.045257144 0.58457142 1.9800001
-0.041485716 0.58457142 1.9800001
-0.037714288 0.58457142 1.9800001
-0.03394286 0.58457142 1.9800001
-0.03017143 0.58457142 1.9800001
-0.026253335 0.5813238 1.9690001
-0.022377145 0.57807618 1.9580001
-0.01864762 0.57807618 1.9580001
-0.014918095 0.57807618 1.9580001
-0.011188572 0.57807618 1.9580001
-0.0074590477 0.57807618 1.9580001
-0.0037295239 0.57807618 1.9580001
0 0.5813238 1.9690001
0.0037504763 0.5813238 1.9690001
0.0074590477 0.57807618 1.9580001
0.011251429 0.5813238 1.9690001
0.015001905 0.5813238 1.9690001
0.018752381 0.5813238 1.9690001
0.022377145 0.57807618 1.9580001
0.026106667 0.57807618 1.9580001
0.03000381 0.5813238 1.9690001
0.033754285 0.5813238 1.9690001
0.037504762 0.5813238 1.9690001
0.041485716 0.58457142 1.9800001
0.045257144 0.58457142 1.9800001
0.049325716 0.58811432 1.9920001
0.053120002 0.58811432 1.9920001
0.056914289 0.58811432 1.9920001
0.060708575 0.58811432 1.9920001
0.064502858 0.58811432 1.9920001
0.069497146 0.59844762 2.0270002
0.073792383 0.60199052 2.039
0.078133337 0.60553336 2.0510001
0.082040004 0.60553336 2.0510001
0.085946672 0.60553336 2.0510001
0.089853339 0.60553336 2.0510001
0.093760006 0.60553336 2.0510001
0.098857149 0.61291432 2.0760002
0.10281143 0.61291432 2.0760002
0.10609715 0.6090762 2.0630002
0.11002667 0.6090762 2.0630002
0.1139562 0.6090762 2.0630002
0.11862858 0.61291432 2.0760002
0.12329143 0.61645716 2.0880001
0.12726858 0.61645716 2.0880001
-0.064114287 0.58834291 1.9800001
-0.060007621 0.58507431 1.9690001
-0.056914289 0.59190857 1.9920001
-0.052800003 0.58834291 1.9800001
-0.049028572 0.58834291 1.9800001
-0.045257144 0.58834291 1.9800001
-0.041485716 0.58834291 1.9800001
-0.037714288 0.58834291 1.9800001
-0.033754285 0.58507431 1.9690001
-0.03000381 0.58507431 1.9690001
-0.026106667 0.58180571 1.9580001
-0.022377145 0.58180571 1.9580001
-0.01864762 0.58180571 1.9580001
-0.014918095 0.58180571 1.9580001
-0.011188572 0.58180571 1.9580001
-0.0074590477 0.58180571 1.9580001
-0.0037295239 0.58180571 1.9580001
0 0.58180571 1.9580001
0.0037295239 0.58180571 1.9580001
0.0074590477 0.58180571 1.9580001
0.011188572 0.58180571 1.9580001
0.014918095 0.58180571 1.9580001
0.01864762 0.58180571 1.9580001
0.022377145 0.58180571 1.9580001
0.026106667 0.58180571 1.9580001
0.029836191 0.58180571 1.9580001
0.033754285 0.58507431 1.9690001
0.037504762 0.58507431 1.9690001
0.041255239 0.58507431 1.9690001
0.045257144 0.58834291 1.9800001
0.049028572 0.58834291 1.9800001
0.053120002 0.59190857 1.9920001
0.056914289 0.59190857 1.9920001
0.06104381 0.59517717 2.003
0.065247625 0.5987429 2.0150001
0.069497146 0.60230857 2.0270002
0.073792383 0.6058743 2.039
0.078133337 0.60944003 2.0510001
0.082040004 0.60944003 2.0510001
0.085946672 0.60944003 2.0510001
0.089853339 0.60944003 2.0510001
0.093760006 0.60944003 2.0510001
0.098238096 0.61300576 2.0630002
0.10281143 0.61686862 2.0760002
0.10676572 0.61686862 2.0760002
0.11072 0.61686862 2.0760002
0.11467429 0.61686862 2.0760002
0.11931429 0.62043428 2.0880001
0.12329143 0.62043428 2.0880001
0.12726858 0.62043428 2.0880001
0.13124572 0.62043428 2.0880001
-0.067508571 0.58882481 1.9690001
-0.063758098 0.58882481 1.9690001
-0.060007621 0.58882481 1.9690001
-0.056571431 0.59211433 1.9800001
-0.052800003 0.59211433 1.9800001
-0.049028572 0.59211433 1.9800001
-0.045257144 0.59211433 1.9800001
-0.041255239 0.58882481 1.9690001
-0.037504762 0.58882481 1.9690001
-0.033754285 0.58882481 1.9690001
-0.03000381 0.58882481 1.9690001
-0.02596 0.58224571 1.9470001
-0.022251429 0.58224571 1.9470001
-0.018542858 0.58224571 1.9470001
-0.014834287 0.58224571 1.9470001
-0.011125715 0.58224571 1.9470001
-0.0074171433 0.58224571 1.9470001
-0.0037295239 0.58553529 1.9580001
0 0.58553529 1.9580001
0.0037295239 0.58553529 1.9580001
0.0074590477 0.58553529 1.9580001
0.011188572 0.58553529 1.9580001
0.014918095 0.58553529 1.9580001
0.01864762 0.58553529 1.9580001
0.022377145 0.58553529 1.9580001
0.026106667 0.58553529 1.9580001
0.029836191 0.58553529 1.9580001
0.033565715 0.58553529 1.9580001
0.037295241 0.58553529 1.9580001
0.041255239 0.58882481 1.9690001
0.045005716 0.58882481 1.9690001
0.048756193 0.58882481 1.9690001
0.053120002 0.59570289 1.9920001
0.056914289 0.59570289 1.9920001
0.060708575 0.59570289 1.9920001
0.065247625 0.60258096 2.0150001
0.069497146 0.60616952 2.0270002
0.073792383 0.60975814 2.039
0.077676192 0.60975814 2.039
0.082040004 0.6133467 2.0510001
0.085946672 0.6133467 2.0510001
0.089853339 0.6133467 2.0510001
0.093760006 0.6133467 2.0510001
0.098238096 0.61693525 2.0630002
0.10340572 0.62441146 2.0880001
0.10676572 0.62082291 2.0760002
0.11136001 0.62441146 2.0880001
0.11467429 0.62082291 2.0760002
0.11931429 0.62441146 2.0880001
0.12329143 0.62441146 2.0880001
0.12726858 0.62441146 2.0880001
0.13124572 0.62441146 2.0880001
0.13606477 0.62829906 2.1010001
0.14006667 0.62829906 2.1010001
0.14585143 0.6360743 2.1270001
0.14990287 0.6360743 2.1270001
0.1539543 0.6360743 2.1270001
0.15800571 0.6360743 2.1270001
0.16106667 0.63218671 2.1140001
0.16509333 0.63218671 2.1140001
0.16808 0.62829906 2.1010001
0.17208192 0.62829906 2.1010001
0.17608382 0.62829906 2.1010001
-0.085779049 0.58926481 1.9580001
-0.082049526 0.58926481 1.9580001
-0.078320004 0.58926481 1.9580001
-0.074590482 0.58926481 1.9580001
-0.071259052 0.59257525 1.9690001
-0.067508571 0.59257525 1.9690001
-0.063758098 0.59257525 1.9690001
-0.060007621 0.59257525 1.9690001
-0.056257144 0.59257525 1.9690001
-0.05250667 0.59257525 1.9690001
-0.048756193 0.59257525 1.9690001
-0.045005716 0.59257525 1.9690001
-0.041255239 0.59257525 1.9690001
-0.037504762 0.59257525 1.9690001
-0.033565715 0.58926481 1.9580001
-0.029836191 0.58926481 1.9580001
-0.025813334 0.58264381 1.9360001
-0.022125715 0.58264381 1.9360001
-0.018438095 0.58264381 1.9360001
-0.014750477 0.58264381 1.9360001
-0.011125715 0.58595431 1.9470001
-0.0074171433 0.58595431 1.9470001
-0.0037085717 0.58595431 1.9470001
0 0.58926481 1.9580001
0.0037295239 0.58926481 1.9580001
0.0074590477 0.58926481 1.9580001
0.011188572 0.58926481 1.9580001
0.014918095 0.58926481 1.9580001
0.01864762 0.58926481 1.9580001
0.022377145 0.58926481 1.9580001
0.026106667 0.58926481 1.9580001
0.029836191 0.58926481 1.9580001
0.033565715 0.58926481 1.9580001
0.037295241 0.58926481 1.9580001
0.041024763 0.58926481 1.9580001
0.044754289 0.58926481 1.9580001
0.048756193 0.59257525 1.9690001
0.052800003 0.59588575 1.9800001
0.056571431 0.59588575 1.9800001
0.060708575 0.59949714 1.9920001
0.064859048 0.60280764 2.003
0.069497146 0.61003047 2.0270002
0.073358096 0.61003047 2.0270002
0.077219054 0.61003047 2.0270002
0.081560001 0.61364192 2.039
0.08544381 0.61364192 2.039
0.089327626 0.61364192 2.039
0.093760006 0.61725336 2.0510001
0.098238096 0.62086481 2.0630002
0.10281143 0.62477714 2.0760002
0.10676572 0.62477714 2.0760002
0.11136001 0.62838858 2.0880001
0.11533715 0.62838858 2.0880001
0.11931429 0.62838858 2.0880001
0.12329143 0.62838858 2.0880001
0.12806095 0.63230097 2.1010001
0.13206287 0.63230097 2.1010001
0.13606477 0.63230097 2.1010001
0.14093333 0.63621336 2.1140001
0.14585143 0.64012575 2.1270001
0.14990287 0.64012575 2.1270001
0.15489525 0.64403814 2.1400001
0.15800571 0.64012575 2.1270001
0.16106667 0.63621336 2.1140001
0.1640781 0.63230097 2.1010001
0.16704001 0.62838858 2.0880001
0.17101716 0.62838858 2.0880001
0.17608382 0.63230097 2.1010001
-0.093761906 0.59632576 1.9690001
-0.090011433 0.59632576 1.9690001
-0.086260952 0.59632576 1.9690001
-0.082049526 0.59299433 1.9580001
-0.078760006 0.59632576 1.9690001
-0.074590482 0.59299433 1.9580001
-0.071259052 0.59632576 1.9690001
-0.067508571 0.59632576 1.9690001
-0.063758098 0.59632576 1.9690001
-0.060007621 0.59632576 1.9690001
-0.056257144 0.59632576 1.9690001
-0.05250667 0.59632576 1.9690001
-0.048756193 0.59632576 1.9690001
-0.045005716 0.59632576 1.9690001
-0.041255239 0.59632576 1.9690001
-0.037295241 0.59299433 1.9580001
-0.033565715 0.59299433 1.9580001
-0.029668573 0.58966285 1.9470001
-0.025813334 0.58633143 1.9360001
-0.022125715 0.58633143 1.9360001
-0.018333334 0.583 1.9250001
-0.014750477 0.58633143 1.9360001
-0.011125715 0.58966285 1.9470001
-0.0074171433 0.58966285 1.9470001
-0.0037085717 0.58966285 1.9470001
0 0.59299433 1.9580001
0.0037295239 0.59299433 1.9580001
0.0074590477 0.59299433 1.9580001
0.011188572 0.59299433 1.9580001
0.014918095 0.59299433 1.9580001
0.01864762 0.59299433 1.9580001
0.022377145 0.59299433 1.9580001
0.026106667 0.59299433 1.9580001
0.029668573 0.58966285 1.9470001
0.033377144 0.58966285 1.9470001
0.037085716 0.58966285 1.9470001
0.040794287 0.58966285 1.9470001
0.044754289 0.59299433 1.9580001
0.048483811 0.59299433 1.9580001
0.052213334 0.59299433 1.9580001
0.056257144 0.59632576 1.9690001
0.059672382 0.59299433 1.9580001
0.064502858 0.60329145 1.9920001
0.068297148 0.60329145 1.9920001
0.073358096 0.61389142 2.0270002
0.077219054 0.61389142 2.0270002
0.081560001 0.61752576 2.039
0.08544381 0.61752576 2.039
0.089853339 0.62116003 2.0510001
0.093760006 0.62116003 2.0510001
0.097666673 0.62116003 2.0510001
0.10281143 0.62873143 2.0760002
0.10676572 0.62873143 2.0760002
0.11072 0.62873143 2.0760002
0.11533715 0.63236576 2.0880001
0.11931429 0.63236576 2.0880001
0.12405905 0.63630289 2.1010001
0.12806095 0.63630289 2.1010001
0.13206287 0.63630289 2.1010001
0.13606477 0.63630289 2.1010001
0.14093333 0.64024001 2.1140001
0.14585143 0.64417714 2.1270001
0.14990287 0.64417714 2.1270001
0.1539543 0.64417714 2.1270001
0.15704 0.64024001 2.1140001
0.1600762 0.63630289 2.1010001
0.16306287 0.63236576 2.0880001
0.16704001 0.63236576 2.0880001
0.17208192 0.63630289 2.1010001
0.17608382 0.63630289 2.1010001
0.18120001 0.64024001 2.1140001
0.18522668 0.64024001 2.1140001
-0.12521143 0.60708576 1.9920001
-0.12141715 0.60708576 1.9920001
-0.11762286 0.60708576 1.9920001
-0.10182858 0.6034286 1.9800001
-0.098057143 0.6034286 1.9800001
-0.094285719 0.6034286 1.9800001
-0.090011433 0.6000762 1.9690001
-0.086742863 0.6034286 1.9800001
-0.082510479 0.6000762 1.9690001
-0.078760006 0.6000762 1.9690001
-0.075009525 0.6000762 1.9690001
-0.071259052 0.6000762 1.9690001
-0.067508571 0.6000762 1.9690001
-0.063758098 0.6000762 1.9690001
-0.060007621 0.6000762 1.9690001
-0.056257144 0.6000762 1.9690001
-0.05250667 0.6000762 1.9690001
-0.048756193 0.6000762 1.9690001
-0.045005716 0.6000762 1.9690001
-0.041024763 0.59672385 1.9580001
-0.037295241 0.59672385 1.9580001
-0.033377144 0.59337145 1.9470001
-0.029668573 0.59337145 1.9470001
-0.025666667 0.5866667 1.9250001
-0.022 0.5866667 1.9250001
-0.018333334 0.5866667 1.9250001
-0.014666667 0.5866667 1.9250001
-0.011062858 0.59001905 1.9360001
-0.0074171433 0.59337145 1.9470001
-0.0037085717 0.59337145 1.9470001
0 0.59337145 1.9470001
0.0037295239 0.59672385 1.9580001
0.0074590477 0.59672385 1.9580001
0.011188572 0.59672385 1.9580001
0.014918095 0.59672385 1.9580001
0.01864762 0.59672385 1.9580001
0.022251429 0.59337145 1.9470001
0.02596 0.59337145 1.9470001
0.029668573 0.59337145 1.9470001
0.033565715 0.59672385 1.9580001
0.037085716 0.59337145 1.9470001
0.041024763 0.59672385 1.9580001
0.044502858 0.59337145 1.9470001
0.048483811 0.59672385 1.9580001
0.052213334 0.59672385 1.9580001
0.05594286 0.59672385 1.9580001
0.059672382 0.59672385 1.9580001
0.063758098 0.6000762 1.9690001
0.068297148 0.60708576 1.9920001
0.072923809 0.61409527 2.0150001
0.077676192 0.62140954 2.039
0.081560001 0.62140954 2.039
0.085946672 0.6250667 2.0510001
0.089853339 0.6250667 2.0510001
0.093760006 0.6250667 2.0510001
0.098238096 0.62872386 2.0630002
0.10216762 0.62872386 2.0630002
0.10676572 0.63268572 2.0760002
0.11072 0.63268572 2.0760002
0.11533715 0.63634288 2.0880001
0.11931429 0.63634288 2.0880001
