# .PCD v0.7 - Point Cloud Data file format
VERSION 0.7
FIELDS x y z
SIZE 4 4 4
TYPE F F F
COUNT 1 1 1
WIDTH 1471
HEIGHT 1
VIEWPOINT 0 0 0 1 0 0 0
POINTS 1471
DATA ascii
0.15362287 0.048880003 1.8330001
0.1571143 0.048880003 1.8330001
0.16060571 0.048880003 1.8330001
0.16499239 0.049146667 1.8430001
0.16850287 0.049146667 1.8430001
0.17201334 0.049146667 1.8430001
0.17552382 0.049146667 1.8430001
0.18000571 0.049413335 1.853
0.18452573 0.049680002 1.863
0.18807429 0.049680002 1.863
0.19162287 0.049680002 1.863
0.19517143 0.049680002 1.863
0.19872001 0.049680002 1.863
0.2033543 0.049946669 1.8730001
0.20692191 0.049946669 1.8730001
0.21048953 0.049946669 1.8730001
0.21520001 0.050213337 1.8830001
0.22006477 0.05050667 1.8940001
0.22367239 0.05050667 1.8940001
0.22848001 0.050773334 1.904
0.23210667 0.050773334 1.904
0.23709525 0.051066667 1.9150001
0.24074286 0.051066667 1.9150001
0.24439049 0.051066667 1.9150001
0.24933334 0.051333334 1.9250001
0.25300002 0.051333334 1.9250001
0.25666669 0.051333334 1.9250001
0.26182097 0.051626667 1.9360001
0.26550859 0.051626667 1.9360001
0.26919621 0.051626667 1.9360001
0.27288383 0.051626667 1.9360001
0.27500001 0.051333334 1.9250001
0.27866668 0.051333334 1.9250001
0.28233334 0.051333334 1.9250001
0.28600001 0.051333334 1.9250001
0.28966668 0.051333334 1.9250001
0.29180953 0.051066667 1.9150001
0.29545715 0.051066667 1.9150001
0.29910478 0.051066667 1.9150001
0.30101335 0.050773334 1.904
0.30464002 0.050773334 1.904
0.30826667 0.050773334 1.904
0.31189334 0.050773334 1.904
-0.044400003 0.047571432 1.6650001
-0.041228574 0.047571432 1.6650001
-0.038057145 0.047571432 1.6650001
-0.034885716 0.047571432 1.6650001
-0.031714287 0.047571432 1.6650001
-0.028405715 0.047342859 1.6570001
-0.025249524 0.047342859 1.6570001
-0.022093333 0.047342859 1.6570001
-0.018937144 0.047342859 1.6570001
-0.015780954 0.047342859 1.6570001
-0.01256381 0.047114287 1.649
-0.0094685722 0.047342859 1.6570001
-0.006312381 0.047342859 1.6570001
-0.0031561905 0.047342859 1.6570001
0 0.047342859 1.6570001
0.0031714286 0.047571432 1.6650001
0.0063733337 0.047800001 1.6730001
0.0097028576 0.048514288 1.6980001
0.013066667 0.049000002 1.715
0.016409524 0.049228575 1.723
0.01969143 0.049228575 1.723
0.022973334 0.049228575 1.723
0.026255239 0.049228575 1.723
0.02969143 0.049485717 1.7320001
0.032990478 0.049485717 1.7320001
0.036289524 0.049485717 1.7320001
0.039588574 0.049485717 1.7320001
0.043110479 0.049742859 1.7410001
0.046426669 0.049742859 1.7410001
0.049742859 0.049742859 1.7410001
0.053333335 0.050000001 1.7500001
0.056666669 0.050000001 1.7500001
0.060000002 0.050000001 1.7500001
0.06365905 0.050257146 1.7590001
0.067009524 0.050257146 1.7590001
0.070360005 0.050257146 1.7590001
0.073710479 0.050257146 1.7590001
0.077455238 0.050514288 1.7680001
0.081234291 0.05077143 1.7770001
0.084619053 0.05077143 1.7770001
0.088003814 0.05077143 1.7770001
0.091851436 0.051028572 1.7860001
0.095253333 0.051028572 1.7860001
0.099152386 0.051285718 1.7950001
0.10257144 0.051285718 1.7950001
0.10599048 0.051285718 1.7950001
0.10940953 0.051285718 1.7950001
0.11339429 0.05154286 1.8040001
0.11683048 0.05154286 1.8040001
0.12026667 0.05154286 1.8040001
0.12438858 0.051828574 1.8140001
0.12784381 0.051828574 1.8140001
0.13202286 0.052114289 1.8240001
0.13549715 0.052114289 1.8240001
0.13965715 0.052371431 1.8330001
0.14314857 0.052371431 1.8330001
0.14664 0.052371431 1.8330001
0.15095048 0.052657146 1.8430001
0.15446095 0.052657146 1.8430001
0.15797144 0.052657146 1.8430001
0.16060571 0.052371431 1.8330001
0.16499239 0.052657146 1.8430001
0.16850287 0.052657146 1.8430001
0.17201334 0.052657146 1.8430001
0.1764762 0.052942861 1.853
0.18000571 0.052942861 1.853
0.18452573 0.053228572 1.863
0.18807429 0.053228572 1.863
0.19162287 0.053228572 1.863
0.19517143 0.053228572 1.863
0.19872001 0.053228572 1.863
0.2033543 0.053514287 1.8730001
0.20692191 0.053514287 1.8730001
0.21048953 0.053514287 1.8730001
0.21520001 0.053800002 1.8830001
0.22006477 0.054114286 1.8940001
0.22485334 0.054400001 1.904
0.22848001 0.054400001 1.904
0.23344763 0.054714289 1.9150001
0.23709525 0.054714289 1.9150001
0.24074286 0.054714289 1.9150001
0.24566668 0.055000003 1.9250001
0.24933334 0.055000003 1.9250001
0.25444573 0.055314288 1.9360001
0.25813335 0.055314288 1.9360001
0.26182097 0.055314288 1.9360001
0.26550859 0.055314288 1.9360001
0.26919621 0.055314288 1.9360001
0.27288383 0.055314288 1.9360001
0.27500001 0.055000003 1.9250001
0.27866668 0.055000003 1.9250001
0.28233334 0.055000003 1.9250001
0.28600001 0.055000003 1.9250001
0.2881619 0.054714289 1.9150001
0.29180953 0.054714289 1.9150001
0.29376 0.054400001 1.904
0.29738668 0.054400001 1.904
0.30101335 0.054400001 1.904
0.30464002 0.054400001 1.904
0.30826667 0.054400001 1.904
0.31189334 0.054400001 1.904
-0.044400003 0.050742857 1.6650001
-0.041228574 0.050742857 1.6650001
-0.038057145 0.050742857 1.6650001
-0.034885716 0.050742857 1.6650001
-0.031714287 0.050742857 1.6650001
-0.028268572 0.050255239 1.649
-0.02512762 0.050255239 1.649
-0.022093333 0.050499048 1.6570001
-0.018845715 0.050255239 1.649
-0.015780954 0.050499048 1.6570001
-0.01256381 0.050255239 1.649
-0.0094685722 0.050499048 1.6570001
-0.006312381 0.050499048 1.6570001
-0.0031561905 0.050499048 1.6570001
0 0.050499048 1.6570001
0.0031714286 0.050742857 1.6650001
0.0063733337 0.05098667 1.6730001
0.0097485716 0.051992383 1.7060001
0.013066667 0.052266669 1.715
0.016409524 0.052510478 1.723
0.01969143 0.052510478 1.723
0.022973334 0.052510478 1.723
0.026255239 0.052510478 1.723
0.02969143 0.052784763 1.7320001
0.032990478 0.052784763 1.7320001
0.036289524 0.052784763 1.7320001
0.039794289 0.053059049 1.7410001
0.043110479 0.053059049 1.7410001
0.046666667 0.053333335 1.7500001
0.050000001 0.053333335 1.7500001
0.053333335 0.053333335 1.7500001
0.056666669 0.053333335 1.7500001
0.060308572 0.05360762 1.7590001
0.06365905 0.05360762 1.7590001
0.067009524 0.05360762 1.7590001
0.070360005 0.05360762 1.7590001
0.073710479 0.05360762 1.7590001
0.077455238 0.053881906 1.7680001
0.081234291 0.054156192 1.7770001
0.084619053 0.054156192 1.7770001
0.088003814 0.054156192 1.7770001
0.091851436 0.054430477 1.7860001
0.095253333 0.054430477 1.7860001
0.099152386 0.054704763 1.7950001
0.10257144 0.054704763 1.7950001
0.10599048 0.054704763 1.7950001
0.10940953 0.054704763 1.7950001
0.11339429 0.054979049 1.8040001
0.11683048 0.054979049 1.8040001
0.12026667 0.054979049 1.8040001
0.12438858 0.055283811 1.8140001
0.12784381 0.055283811 1.8140001
0.13129905 0.055283811 1.8140001
0.13549715 0.055588573 1.8240001
0.13965715 0.055862859 1.8330001
0.14314857 0.055862859 1.8330001
0.14744 0.056167621 1.8430001
0.15095048 0.056167621 1.8430001
0.15446095 0.056167621 1.8430001
0.15797144 0.056167621 1.8430001
0.16148192 0.056167621 1.8430001
0.16499239 0.056167621 1.8430001
0.16850287 0.056167621 1.8430001
0.17201334 0.056167621 1.8430001
0.1764762 0.056472383 1.853
0.18000571 0.056472383 1.853
0.18452573 0.056777146 1.863
0.18807429 0.056777146 1.863
0.19162287 0.056777146 1.863
0.19621906 0.057081908 1.8730001
0.19872001 0.056777146 1.863
0.2033543 0.057081908 1.8730001
0.20802668 0.05738667 1.8830001
0.21161334 0.05738667 1.8830001
0.21645714 0.057721905 1.8940001
0.22122668 0.058026668 1.904
0.22485334 0.058026668 1.904
0.22980002 0.058361907 1.9150001
0.23344763 0.058361907 1.9150001
0.23709525 0.058361907 1.9150001
0.24074286 0.058361907 1.9150001
0.24439049 0.058361907 1.9150001
0.24933334 0.058666669 1.9250001
0.25300002 0.058666669 1.9250001
0.25813335 0.059001908 1.9360001
0.26182097 0.059001908 1.9360001
0.26701716 0.059337147 1.9470001
0.26919621 0.059001908 1.9360001
0.27288383 0.059001908 1.9360001
0.27500001 0.058666669 1.9250001
0.27866668 0.058666669 1.9250001
0.28233334 0.058666669 1.9250001
0.28600001 0.058666669 1.9250001
0.2881619 0.058361907 1.9150001
0.29180953 0.058361907 1.9150001
0.29376 0.058026668 1.904
0.29738668 0.058026668 1.904
0.30101335 0.058026668 1.904
0.30464002 0.058026668 1.904
0.31004763 0.058361907 1.9150001
0.31369525 0.058361907 1.9150001
-0.047571432 0.053914286 1.6650001
-0.044400003 0.053914286 1.6650001
-0.041228574 0.053914286 1.6650001
-0.038057145 0.053914286 1.6650001
-0.034885716 0.053914286 1.6650001
-0.031714287 0.053914286 1.6650001
-0.028405715 0.053655241 1.6570001
-0.02512762 0.053396191 1.649
-0.022093333 0.053655241 1.6570001
-0.018845715 0.053396191 1.649
-0.015780954 0.053655241 1.6570001
-0.01256381 0.053396191 1.649
-0.0094685722 0.053655241 1.6570001
-0.006312381 0.053655241 1.6570001
-0.0031561905 0.053655241 1.6570001
0 0.053655241 1.6570001
0.0031714286 0.053914286 1.6650001
0.0063733337 0.054173335 1.6730001
0.0097485716 0.055241905 1.7060001
0.013066667 0.055533335 1.715
0.016409524 0.055792384 1.723
0.01969143 0.055792384 1.723
0.022973334 0.055792384 1.723
0.026255239 0.055792384 1.723
0.02969143 0.056083813 1.7320001
0.032990478 0.056083813 1.7320001
0.036478095 0.056375239 1.7410001
0.039794289 0.056375239 1.7410001
0.043333337 0.056666669 1.7500001
0.046666667 0.056666669 1.7500001
0.050000001 0.056666669 1.7500001
0.053333335 0.056666669 1.7500001
0.056666669 0.056666669 1.7500001
0.060000002 0.056666669 1.7500001
0.06365905 0.056958098 1.7590001
0.067009524 0.056958098 1.7590001
0.070360005 0.056958098 1.7590001
0.07408762 0.057249527 1.7680001
0.077455238 0.057249527 1.7680001
0.081234291 0.057540953 1.7770001
0.085047625 0.057832383 1.7860001
0.08844953 0.057832383 1.7860001
0.091851436 0.057832383 1.7860001
0.095253333 0.057832383 1.7860001
0.099152386 0.058123812 1.7950001
0.10257144 0.058123812 1.7950001
0.10599048 0.058123812 1.7950001
0.10940953 0.058123812 1.7950001
0.11339429 0.058415242 1.8040001
0.11683048 0.058415242 1.8040001
0.12026667 0.058415242 1.8040001
0.12438858 0.058739051 1.8140001
0.12784381 0.058739051 1.8140001
0.13202286 0.059062861 1.8240001
0.13549715 0.059062861 1.8240001
0.13965715 0.059354287 1.8330001
0.14314857 0.059354287 1.8330001
0.14744 0.059678096 1.8430001
0.15095048 0.059678096 1.8430001
0.15446095 0.059678096 1.8430001
0.15797144 0.059678096 1.8430001
0.16235811 0.060001906 1.853
0.16588762 0.060001906 1.853
0.16941714 0.060001906 1.853
0.17294668 0.060001906 1.853
0.1764762 0.060001906 1.853
0.18097715 0.060325716 1.863
0.18452573 0.060325716 1.863
0.18807429 0.060325716 1.863
0.19265144 0.060649525 1.8730001
0.19621906 0.060649525 1.8730001
0.19978668 0.060649525 1.8730001
0.2033543 0.060649525 1.8730001
0.20802668 0.060973335 1.8830001
0.21284953 0.061329525 1.8940001
0.2176 0.061653335 1.904
0.22122668 0.061653335 1.904
0.22485334 0.061653335 1.904
0.22848001 0.061653335 1.904
0.23344763 0.062009525 1.9150001
0.23709525 0.062009525 1.9150001
0.24074286 0.062009525 1.9150001
0.24439049 0.062009525 1.9150001
0.24933334 0.062333334 1.9250001
0.25444573 0.062689528 1.9360001
0.25813335 0.062689528 1.9360001
0.26330858 0.063045718 1.9470001
0.26701716 0.063045718 1.9470001
0.27072573 0.063045718 1.9470001
0.2744343 0.063045718 1.9470001
0.27657145 0.062689528 1.9360001
0.28025907 0.062689528 1.9360001
0.28233334 0.062333334 1.9250001
0.28600001 0.062333334 1.9250001
0.2881619 0.062009525 1.9150001
0.29180953 0.062009525 1.9150001
0.29545715 0.062009525 1.9150001
0.29910478 0.062009525 1.9150001
0.30275241 0.062009525 1.9150001
0.3064 0.062009525 1.9150001
0.31004763 0.062009525 1.9150001
0.31369525 0.062009525 1.9150001
-0.047571432 0.057085715 1.6650001
-0.044613335 0.057360001 1.6730001
-0.041228574 0.057085715 1.6650001
-0.038240001 0.057360001 1.6730001
-0.034885716 0.057085715 1.6650001
-0.031714287 0.057085715 1.6650001
-0.028405715 0.05681143 1.6570001
-0.025249524 0.05681143 1.6570001
-0.022093333 0.05681143 1.6570001
-0.018845715 0.056537144 1.649
-0.015780954 0.05681143 1.6570001
-0.01256381 0.056537144 1.649
-0.0094685722 0.05681143 1.6570001
-0.006312381 0.05681143 1.6570001
-0.0031561905 0.05681143 1.6570001
0 0.057085715 1.6650001
0.0031714286 0.057085715 1.6650001
0.0063428571 0.057085715 1.6650001
0.0098000001 0.058800001 1.715
0.013127619 0.059074286 1.723
0.016409524 0.059074286 1.723
0.01969143 0.059074286 1.723
0.022973334 0.059074286 1.723
0.026392382 0.05938286 1.7320001
0.02969143 0.05938286 1.7320001
0.032990478 0.05938286 1.7320001
0.036478095 0.059691429 1.7410001
0.040000003 0.060000002 1.7500001
0.043333337 0.060000002 1.7500001
0.046666667 0.060000002 1.7500001
0.050000001 0.060000002 1.7500001
0.053333335 0.060000002 1.7500001
0.056666669 0.060000002 1.7500001
0.060000002 0.060000002 1.7500001
0.06365905 0.060308572 1.7590001
0.067009524 0.060308572 1.7590001
0.070360005 0.060308572 1.7590001
0.07408762 0.060617145 1.7680001
0.077455238 0.060617145 1.7680001
0.081234291 0.060925715 1.7770001
0.084619053 0.060925715 1.7770001
0.08844953 0.061234288 1.7860001
0.091851436 0.061234288 1.7860001
0.095253333 0.061234288 1.7860001
0.099152386 0.061542861 1.7950001
0.10257144 0.061542861 1.7950001
0.10599048 0.061542861 1.7950001
0.10940953 0.061542861 1.7950001
0.11339429 0.061851431 1.8040001
0.1174781 0.062194288 1.8140001
0.12093334 0.062194288 1.8140001
0.12438858 0.062194288 1.8140001
0.12784381 0.062194288 1.8140001
0.13202286 0.062537149 1.8240001
0.13549715 0.062537149 1.8240001
0.13965715 0.062845714 1.8330001
0.14314857 0.062845714 1.8330001
0.14744 0.063188575 1.8430001
0.15095048 0.063188575 1.8430001
0.15446095 0.063188575 1.8430001
0.15797144 0.063188575 1.8430001
0.16235811 0.063531429 1.853
0.16588762 0.063531429 1.853
0.16941714 0.063531429 1.853
0.17294668 0.063531429 1.853
0.17742857 0.063874289 1.863
0.18097715 0.063874289 1.863
0.18452573 0.063874289 1.863
0.18908381 0.064217143 1.8730001
0.19265144 0.064217143 1.8730001
0.19726667 0.064560004 1.8830001
0.20085335 0.064560004 1.8830001
0.2056343 0.064937145 1.8940001
0.20924191 0.064937145 1.8940001
0.21397334 0.065280005 1.904
0.2176 0.065280005 1.904
0.22122668 0.065280005 1.904
0.22485334 0.065280005 1.904
0.22980002 0.065657146 1.9150001
0.23344763 0.065657146 1.9150001
0.23709525 0.065657146 1.9150001
0.24074286 0.065657146 1.9150001
0.24566668 0.066 1.9250001
0.24933334 0.066 1.9250001
0.25444573 0.066377148 1.9360001
0.25813335 0.066377148 1.9360001
0.26330858 0.066754289 1.9470001
0.26701716 0.066754289 1.9470001
0.27072573 0.066754289 1.9470001
0.2744343 0.066754289 1.9470001
0.27657145 0.066377148 1.9360001
0.28025907 0.066377148 1.9360001
0.28233334 0.066 1.9250001
0.28600001 0.066 1.9250001
0.2881619 0.065657146 1.9150001
0.29180953 0.065657146 1.9150001
0.29545715 0.065657146 1.9150001
0.29910478 0.065657146 1.9150001
0.30275241 0.065657146 1.9150001
0.3064 0.065657146 1.9150001
0.31004763 0.065657146 1.9150001
-0.047571432 0.060257144 1.6650001
-0.044613335 0.06054667 1.6730001
-0.04142667 0.06054667 1.6730001
-0.038240001 0.06054667 1.6730001
-0.034885716 0.060257144 1.6650001
-0.031714287 0.060257144 1.6650001
-0.028405715 0.059967622 1.6570001
-0.025249524 0.059967622 1.6570001
-0.022093333 0.059967622 1.6570001
-0.018845715 0.059678096 1.649
-0.015780954 0.059967622 1.6570001
-0.01256381 0.059678096 1.649
-0.0094685722 0.059967622 1.6570001
-0.006312381 0.059967622 1.6570001
-0.0031561905 0.059967622 1.6570001
0 0.060257144 1.6650001
0.0031714286 0.060257144 1.6650001
0.0063733337 0.06054667 1.6730001
0.0098000001 0.062066671 1.715
0.013127619 0.062356193 1.723
0.016409524 0.062356193 1.723
0.01969143 0.062356193 1.723
0.022973334 0.062356193 1.723
0.026392382 0.062681906 1.7320001
0.02969143 0.062681906 1.7320001
0.033161905 0.063007623 1.7410001
0.036478095 0.063007623 1.7410001
0.040000003 0.063333333 1.7500001
0.043333337 0.063333333 1.7500001
0.046666667 0.063333333 1.7500001
0.050000001 0.063333333 1.7500001
0.053333335 0.063333333 1.7500001
0.056666669 0.063333333 1.7500001
0.060000002 0.063333333 1.7500001
0.06365905 0.06365905 1.7590001
0.067009524 0.06365905 1.7590001
0.070360005 0.06365905 1.7590001
0.073710479 0.06365905 1.7590001
0.077455238 0.063984767 1.7680001
0.081234291 0.064310476 1.7770001
0.084619053 0.064310476 1.7770001
0.08844953 0.064636193 1.7860001
0.091851436 0.064636193 1.7860001
0.095733337 0.06496191 1.7950001
0.099152386 0.06496191 1.7950001
0.10257144 0.06496191 1.7950001
0.10599048 0.06496191 1.7950001
0.10940953 0.06496191 1.7950001
0.11339429 0.06528762 1.8040001
0.11683048 0.06528762 1.8040001
0.12093334 0.065649524 1.8140001
0.12438858 0.065649524 1.8140001
0.12854858 0.066011429 1.8240001
0.13202286 0.066011429 1.8240001
0.13549715 0.066011429 1.8240001
0.13965715 0.066337146 1.8330001
0.14392953 0.06669905 1.8430001
0.14744 0.06669905 1.8430001
0.15176953 0.067060955 1.853
0.15529905 0.067060955 1.853
0.15882857 0.067060955 1.853
0.16235811 0.067060955 1.853
0.16588762 0.067060955 1.853
0.17033143 0.067422859 1.863
0.17388001 0.067422859 1.863
0.17742857 0.067422859 1.863
0.18194857 0.067784764 1.8730001
0.18551619 0.067784764 1.8730001
0.18908381 0.067784764 1.8730001
0.19368 0.068146668 1.8830001
0.19726667 0.068146668 1.8830001
0.20085335 0.068146668 1.8830001
0.2056343 0.068544768 1.8940001
0.20924191 0.068544768 1.8940001
0.21397334 0.068906672 1.904
0.2176 0.068906672 1.904
0.22122668 0.068906672 1.904
0.22615239 0.069304764 1.9150001
0.22980002 0.069304764 1.9150001
0.23344763 0.069304764 1.9150001
0.23709525 0.069304764 1.9150001
0.24074286 0.069304764 1.9150001
0.24566668 0.069666669 1.9250001
0.25075811 0.070064768 1.9360001
0.25444573 0.070064768 1.9360001
0.25813335 0.070064768 1.9360001
0.26330858 0.07046286 1.9470001
0.26701716 0.07046286 1.9470001
0.27072573 0.07046286 1.9470001
0.2744343 0.07046286 1.9470001
0.27657145 0.070064768 1.9360001
0.28025907 0.070064768 1.9360001
0.28233334 0.069666669 1.9250001
0.28600001 0.069666669 1.9250001
0.2881619 0.069304764 1.9150001
0.29333335 0.069666669 1.9250001
0.29545715 0.069304764 1.9150001
0.29910478 0.069304764 1.9150001
0.30275241 0.069304764 1.9150001
0.308 0.069666669 1.9250001
0.31166667 0.069666669 1.9250001
0.31533334 0.069666669 1.9250001
-0.047571432 0.063428573 1.6650001
-0.044613335 0.063733339 1.6730001
-0.041228574 0.063428573 1.6650001
-0.038057145 0.063428573 1.6650001
-0.034885716 0.063428573 1.6650001
-0.031714287 0.063428573 1.6650001
-0.028405715 0.063123815 1.6570001
-0.02512762 0.062819049 1.649
-0.022093333 0.063123815 1.6570001
-0.018845715 0.062819049 1.649
-0.015780954 0.063123815 1.6570001
-0.01256381 0.062819049 1.649
-0.0094685722 0.063123815 1.6570001
-0.006312381 0.063123815 1.6570001
-0.0031561905 0.063123815 1.6570001
0 0.063428573 1.6650001
0.0031714286 0.063428573 1.6650001
0.0063733337 0.063733339 1.6730001
0.009845715 0.065638095 1.723
0.013127619 0.065638095 1.723
0.016495239 0.065980956 1.7320001
0.019794287 0.065980956 1.7320001
0.023093333 0.065980956 1.7320001
0.026392382 0.065980956 1.7320001
0.029845715 0.066323809 1.7410001
0.033161905 0.066323809 1.7410001
0.036666669 0.06666667 1.7500001
0.040000003 0.06666667 1.7500001
0.043333337 0.06666667 1.7500001
0.046666667 0.06666667 1.7500001
0.050000001 0.06666667 1.7500001
0.053333335 0.06666667 1.7500001
0.056666669 0.06666667 1.7500001
0.060308572 0.067009524 1.7590001
0.06365905 0.067009524 1.7590001
0.067009524 0.067009524 1.7590001
0.070360005 0.067009524 1.7590001
0.07408762 0.067352384 1.7680001
0.077455238 0.067352384 1.7680001
0.081234291 0.067695238 1.7770001
0.084619053 0.067695238 1.7770001
0.08844953 0.068038099 1.7860001
0.091851436 0.068038099 1.7860001
0.095733337 0.068380952 1.7950001
0.099152386 0.068380952 1.7950001
0.10257144 0.068380952 1.7950001
0.10599048 0.068380952 1.7950001
0.1099581 0.068723813 1.8040001
0.11339429 0.068723813 1.8040001
0.1174781 0.069104761 1.8140001
0.12093334 0.069104761 1.8140001
0.12438858 0.069104761 1.8140001
0.12854858 0.069485717 1.8240001
0.13202286 0.069485717 1.8240001
0.13616572 0.069828577 1.8330001
0.13965715 0.069828577 1.8330001
0.14392953 0.070209526 1.8430001
0.14744 0.070209526 1.8430001
0.15176953 0.070590481 1.853
0.15529905 0.070590481 1.853
0.15882857 0.070590481 1.853
0.16235811 0.070590481 1.853
0.16588762 0.070590481 1.853
0.17033143 0.070971429 1.863
0.17388001 0.070971429 1.863
0.17742857 0.070971429 1.863
0.18194857 0.071352385 1.8730001
0.18551619 0.071352385 1.8730001
0.18908381 0.071352385 1.8730001
0.19368 0.071733333 1.8830001
0.19726667 0.071733333 1.8830001
0.20085335 0.071733333 1.8830001
0.2056343 0.072152384 1.8940001
0.20924191 0.072152384 1.8940001
0.21397334 0.072533339 1.904
0.2176 0.072533339 1.904
0.22250476 0.072952382 1.9150001
0.22615239 0.072952382 1.9150001
0.23100001 0.073333338 1.9250001
0.23466668 0.073333338 1.9250001
0.23833334 0.073333338 1.9250001
0.24200001 0.073333338 1.9250001
0.24707049 0.073752381 1.9360001
0.25075811 0.073752381 1.9360001
0.25444573 0.073752381 1.9360001
0.25960001 0.074171431 1.9470001
0.26330858 0.074171431 1.9470001
0.26701716 0.074171431 1.9470001
0.27072573 0.074171431 1.9470001
0.2744343 0.074171431 1.9470001
0.27657145 0.073752381 1.9360001
0.28025907 0.073752381 1.9360001
0.28394666 0.073752381 1.9360001
0.28600001 0.073333338 1.9250001
0.28966668 0.073333338 1.9250001
0.29333335 0.073333338 1.9250001
0.29700002 0.073333338 1.9250001
0.30066669 0.073333338 1.9250001
0.30433336 0.073333338 1.9250001
0.308 0.073333338 1.9250001
0.31344762 0.073752381 1.9360001
0.31713524 0.073752381 1.9360001
-0.048028573 0.06724 1.6810001
-0.044613335 0.066920005 1.6730001
-0.041228574 0.066600002 1.6650001
-0.038057145 0.066600002 1.6650001
-0.034885716 0.066600002 1.6650001
-0.031714287 0.066600002 1.6650001
-0.028405715 0.06628 1.6570001
-0.025249524 0.06628 1.6570001
-0.022093333 0.06628 1.6570001
-0.018845715 0.065960005 1.649
-0.015780954 0.06628 1.6570001
-0.01256381 0.065960005 1.649
-0.0094685722 0.06628 1.6570001
-0.006312381 0.06628 1.6570001
-0.0031561905 0.06628 1.6570001
0 0.066600002 1.6650001
0.0031714286 0.066600002 1.6650001
0.0064038099 0.06724 1.6810001
0.0096057151 0.06724 1.6810001
0.013196191 0.069280006 1.7320001
0.016495239 0.069280006 1.7320001
0.019794287 0.069280006 1.7320001
0.023093333 0.069280006 1.7320001
0.026392382 0.069280006 1.7320001
0.02969143 0.069280006 1.7320001
0.033161905 0.069640003 1.7410001
0.036478095 0.069640003 1.7410001
0.039794289 0.069640003 1.7410001
0.043333337 0.07 1.7500001
0.046666667 0.07 1.7500001
0.050257146 0.070360005 1.7590001
0.05360762 0.070360005 1.7590001
0.056958098 0.070360005 1.7590001
0.060308572 0.070360005 1.7590001
0.063984767 0.070720002 1.7680001
0.067352384 0.070720002 1.7680001
0.071079999 0.071079999 1.7770001
0.074464768 0.071079999 1.7770001
0.07784953 0.071079999 1.7770001
0.08164572 0.071440004 1.7860001
0.085047625 0.071440004 1.7860001
0.08844953 0.071440004 1.7860001
0.092314288 0.071800001 1.7950001
0.095733337 0.071800001 1.7950001
0.099152386 0.071800001 1.7950001
0.10308572 0.072160006 1.8040001
0.10652191 0.072160006 1.8040001
0.1099581 0.072160006 1.8040001
0.11339429 0.072160006 1.8040001
0.1174781 0.072560005 1.8140001
0.12093334 0.072560005 1.8140001
0.1250743 0.072960004 1.8240001
0.12854858 0.072960004 1.8240001
0.13202286 0.072960004 1.8240001
0.13616572 0.073320001 1.8330001
0.13965715 0.073320001 1.8330001
0.14392953 0.073720001 1.8430001
0.14744 0.073720001 1.8430001
0.15176953 0.07412 1.853
0.15529905 0.07412 1.853
0.15882857 0.07412 1.853
0.16235811 0.07412 1.853
0.16588762 0.07412 1.853
0.17033143 0.074519999 1.863
0.17388001 0.074519999 1.863
0.17838097 0.074920006 1.8730001
0.18194857 0.074920006 1.8730001
0.18551619 0.074920006 1.8730001
0.19009334 0.075320005 1.8830001
0.19368 0.075320005 1.8830001
0.19726667 0.075320005 1.8830001
0.20085335 0.075320005 1.8830001
0.2056343 0.075759999 1.8940001
0.20924191 0.075759999 1.8940001
0.21397334 0.076160006 1.904
0.21885715 0.0766 1.9150001
0.22250476 0.0766 1.9150001
0.22615239 0.0766 1.9150001
0.23100001 0.077 1.9250001
0.23600763 0.077440001 1.9360001
0.23969525 0.077440001 1.9360001
0.24338287 0.077440001 1.9360001
0.24707049 0.077440001 1.9360001
0.25075811 0.077440001 1.9360001
0.25589144 0.077880003 1.9470001
0.25960001 0.077880003 1.9470001
0.26330858 0.077880003 1.9470001
0.26701716 0.077880003 1.9470001
0.27072573 0.077880003 1.9470001
0.2744343 0.077880003 1.9470001
0.27657145 0.077440001 1.9360001
0.28025907 0.077440001 1.9360001
0.28394666 0.077440001 1.9360001
0.28600001 0.077 1.9250001
0.28966668 0.077 1.9250001
0.29333335 0.077 1.9250001
0.29700002 0.077 1.9250001
0.30066669 0.077 1.9250001
0.30433336 0.077 1.9250001
0.308 0.077 1.9250001
0.31344762 0.077440001 1.9360001
0.31713524 0.077440001 1.9360001
-0.048028573 0.070441909 1.6810001
-0.044613335 0.07010667 1.6730001
-0.041228574 0.069771431 1.6650001
-0.038057145 0.069771431 1.6650001
-0.034885716 0.069771431 1.6650001
-0.031714287 0.069771431 1.6650001
-0.028405715 0.069436193 1.6570001
-0.025249524 0.069436193 1.6570001
-0.022093333 0.069436193 1.6570001
-0.018937144 0.069436193 1.6570001
-0.015780954 0.069436193 1.6570001
-0.012624762 0.069436193 1.6570001
-0.0094685722 0.069436193 1.6570001
-0.006312381 0.069436193 1.6570001
-0.0031561905 0.069436193 1.6570001
0 0.069771431 1.6650001
0.0031714286 0.069771431 1.6650001
0.0064038099 0.070441909 1.6810001
0.0099485721 0.07295619 1.7410001
0.013196191 0.072579049 1.7320001
0.016495239 0.072579049 1.7320001
0.019794287 0.072579049 1.7320001
0.023093333 0.072579049 1.7320001
0.026529524 0.07295619 1.7410001
0.029845715 0.07295619 1.7410001
0.033333335 0.073333338 1.7500001
0.036666669 0.073333338 1.7500001
0.040000003 0.073333338 1.7500001
0.043333337 0.073333338 1.7500001
0.046906669 0.073710479 1.7590001
0.050257146 0.073710479 1.7590001
0.05360762 0.073710479 1.7590001
0.056958098 0.073710479 1.7590001
0.060617145 0.07408762 1.7680001
0.063984767 0.07408762 1.7680001
0.067352384 0.07408762 1.7680001
0.071079999 0.074464768 1.7770001
0.074464768 0.074464768 1.7770001
0.07784953 0.074464768 1.7770001
0.08164572 0.074841909 1.7860001
0.085047625 0.074841909 1.7860001
0.088895239 0.07521905 1.7950001
0.092314288 0.07521905 1.7950001
0.095733337 0.07521905 1.7950001
0.099152386 0.07521905 1.7950001
0.10308572 0.075596191 1.8040001
0.10652191 0.075596191 1.8040001
0.1099581 0.075596191 1.8040001
0.11339429 0.075596191 1.8040001
0.1174781 0.076015241 1.8140001
0.12093334 0.076015241 1.8140001
0.12438858 0.076015241 1.8140001
0.12854858 0.076434292 1.8240001
0.13202286 0.076434292 1.8240001
0.13616572 0.076811433 1.8330001
0.13965715 0.076811433 1.8330001
0.14392953 0.077230476 1.8430001
0.14744 0.077230476 1.8430001
0.15176953 0.077649526 1.853
0.15529905 0.077649526 1.853
0.15882857 0.077649526 1.853
0.16235811 0.077649526 1.853
0.16588762 0.077649526 1.853
0.17033143 0.078068577 1.863
0.17388001 0.078068577 1.863
0.17838097 0.07848762 1.8730001
0.18194857 0.07848762 1.8730001
0.18551619 0.07848762 1.8730001
0.19009334 0.07890667 1.8830001
0.19481143 0.079367623 1.8940001
0.19841905 0.079367623 1.8940001
0.20202668 0.079367623 1.8940001
0.2056343 0.079367623 1.8940001
0.21034667 0.079786673 1.904
0.21397334 0.079786673 1.904
0.21885715 0.080247626 1.9150001
0.22250476 0.080247626 1.9150001
0.22733334 0.080666669 1.9250001
0.23232001 0.081127621 1.9360001
0.23600763 0.081127621 1.9360001
0.23969525 0.081127621 1.9360001
0.24338287 0.081127621 1.9360001
0.2484743 0.081588574 1.9470001
0.25218287 0.081588574 1.9470001
0.25589144 0.081588574 1.9470001
0.25960001 0.081588574 1.9470001
0.26330858 0.081588574 1.9470001
0.26701716 0.081588574 1.9470001
0.27072573 0.081588574 1.9470001
0.2744343 0.081588574 1.9470001
0.27657145 0.081127621 1.9360001
0.28025907 0.081127621 1.9360001
0.28233334 0.080666669 1.9250001
0.28600001 0.080666669 1.9250001
0.2881619 0.080247626 1.9150001
0.29333335 0.080666669 1.9250001
0.29700002 0.080666669 1.9250001
0.30066669 0.080666669 1.9250001
0.30607238 0.081127621 1.9360001
0.308 0.080666669 1.9250001
0.31344762 0.081127621 1.9360001
0.31713524 0.081127621 1.9360001
-0.048028573 0.073643811 1.6810001
-0.044613335 0.073293336 1.6730001
-0.041228574 0.07294286 1.6650001
-0.038057145 0.07294286 1.6650001
-0.034885716 0.07294286 1.6650001
-0.031714287 0.07294286 1.6650001
-0.028405715 0.072592385 1.6570001
-0.025249524 0.072592385 1.6570001
-0.022093333 0.072592385 1.6570001
-0.018937144 0.072592385 1.6570001
-0.015780954 0.072592385 1.6570001
-0.012624762 0.072592385 1.6570001
-0.0094685722 0.072592385 1.6570001
-0.006312381 0.072592385 1.6570001
-0.0031561905 0.072592385 1.6570001
0 0.07294286 1.6650001
0.0031714286 0.07294286 1.6650001
0.0064038099 0.073643811 1.6810001
0.0099485721 0.076272383 1.7410001
0.013264762 0.076272383 1.7410001
0.016495239 0.075878099 1.7320001
0.019794287 0.075878099 1.7320001
0.023213334 0.076272383 1.7410001
0.026529524 0.076272383 1.7410001
0.029845715 0.076272383 1.7410001
0.033333335 0.076666668 1.7500001
0.036666669 0.076666668 1.7500001
0.040000003 0.076666668 1.7500001
0.043333337 0.076666668 1.7500001
0.046906669 0.077060953 1.7590001
0.050257146 0.077060953 1.7590001
0.05360762 0.077060953 1.7590001
0.057249527 0.077455238 1.7680001
0.060617145 0.077455238 1.7680001
0.064310476 0.07784953 1.7770001
0.067695238 0.07784953 1.7770001
0.071440004 0.078243814 1.7860001
0.074841909 0.078243814 1.7860001
0.078243814 0.078243814 1.7860001
0.08164572 0.078243814 1.7860001
0.085047625 0.078243814 1.7860001
0.088895239 0.078638099 1.7950001
0.092314288 0.078638099 1.7950001
0.095733337 0.078638099 1.7950001
0.099152386 0.078638099 1.7950001
0.10308572 0.079032384 1.8040001
0.10652191 0.079032384 1.8040001
0.1099581 0.079032384 1.8040001
0.11339429 0.079032384 1.8040001
0.1174781 0.079470478 1.8140001
0.12093334 0.079470478 1.8140001
0.1250743 0.079908572 1.8240001
0.12854858 0.079908572 1.8240001
0.13202286 0.079908572 1.8240001
0.13616572 0.080302857 1.8330001
0.14041905 0.080740958 1.8430001
0.14392953 0.080740958 1.8430001
0.14744 0.080740958 1.8430001
0.15176953 0.081179053 1.853
0.15529905 0.081179053 1.853
0.15882857 0.081179053 1.853
0.16235811 0.081179053 1.853
0.16588762 0.081179053 1.853
0.17033143 0.081617147 1.863
0.17481335 0.082055241 1.8730001
0.17838097 0.082055241 1.8730001
0.18292001 0.082493335 1.8830001
0.18650667 0.082493335 1.8830001
0.19120382 0.082975239 1.8940001
0.19481143 0.082975239 1.8940001
0.19841905 0.082975239 1.8940001
0.20202668 0.082975239 1.8940001
0.2056343 0.082975239 1.8940001
0.20924191 0.082975239 1.8940001
0.21397334 0.083413333 1.904
0.21885715 0.083895244 1.9150001
0.22250476 0.083895244 1.9150001
0.22615239 0.083895244 1.9150001
0.23100001 0.084333338 1.9250001
0.23600763 0.084815241 1.9360001
0.23969525 0.084815241 1.9360001
0.24338287 0.084815241 1.9360001
0.2484743 0.085297145 1.9470001
0.25218287 0.085297145 1.9470001
0.25589144 0.085297145 1.9470001
0.25960001 0.085297145 1.9470001
0.2647962 0.085779049 1.9580001
0.26701716 0.085297145 1.9470001
0.27072573 0.085297145 1.9470001
0.2744343 0.085297145 1.9470001
0.27657145 0.084815241 1.9360001
0.28025907 0.084815241 1.9360001
0.28233334 0.084333338 1.9250001
0.28600001 0.084333338 1.9250001
0.2881619 0.083895244 1.9150001
0.29333335 0.084333338 1.9250001
0.29700002 0.084333338 1.9250001
0.30066669 0.084333338 1.9250001
0.30607238 0.084815241 1.9360001
0.308 0.084333338 1.9250001
0.31344762 0.084815241 1.9360001
0.31893715 0.085297145 1.9470001
0.32264572 0.085297145 1.9470001
-0.051230479 0.07684572 1.6810001
-0.048028573 0.07684572 1.6810001
-0.044826668 0.07684572 1.6810001
-0.04142667 0.076480001 1.6730001
-0.038240001 0.076480001 1.6730001
-0.035053335 0.076480001 1.6730001
-0.031714287 0.076114289 1.6650001
-0.028405715 0.075748578 1.6570001
-0.025249524 0.075748578 1.6570001
-0.022093333 0.075748578 1.6570001
-0.018937144 0.075748578 1.6570001
-0.015780954 0.075748578 1.6570001
-0.012624762 0.075748578 1.6570001
-0.0094685722 0.075748578 1.6570001
-0.006312381 0.075748578 1.6570001
-0.0031714286 0.076114289 1.6650001
0 0.076114289 1.6650001
0.0031866669 0.076480001 1.6730001
0.0064038099 0.07684572 1.6810001
0.0098971436 0.079177149 1.7320001
0.013264762 0.079588577 1.7410001
0.016495239 0.079177149 1.7320001
0.019897144 0.079588577 1.7410001
0.023213334 0.079588577 1.7410001
0.026529524 0.079588577 1.7410001
0.030000001 0.080000006 1.7500001
0.033333335 0.080000006 1.7500001
0.036666669 0.080000006 1.7500001
0.040000003 0.080000006 1.7500001
0.043556191 0.080411434 1.7590001
0.046906669 0.080411434 1.7590001
0.050257146 0.080411434 1.7590001
0.053881906 0.080822863 1.7680001
0.057249527 0.080822863 1.7680001
0.060617145 0.080822863 1.7680001
0.064310476 0.081234291 1.7770001
0.067695238 0.081234291 1.7770001
0.071440004 0.08164572 1.7860001
0.074841909 0.08164572 1.7860001
0.078243814 0.08164572 1.7860001
0.08164572 0.08164572 1.7860001
0.085047625 0.08164572 1.7860001
0.088895239 0.082057148 1.7950001
0.092314288 0.082057148 1.7950001
0.095733337 0.082057148 1.7950001
0.099152386 0.082057148 1.7950001
0.10308572 0.082468577 1.8040001
0.10652191 0.082468577 1.8040001
0.1099581 0.082468577 1.8040001
0.11402286 0.082925715 1.8140001
0.1174781 0.082925715 1.8140001
0.1216 0.08338286 1.8240001
0.1250743 0.08338286 1.8240001
0.12854858 0.08338286 1.8240001
0.13267429 0.083794288 1.8330001
0.13690858 0.084251434 1.8430001
0.14041905 0.084251434 1.8430001
0.14392953 0.084251434 1.8430001
0.14744 0.084251434 1.8430001
0.15176953 0.084708571 1.853
0.15446095 0.084251434 1.8430001
0.15882857 0.084708571 1.853
0.16235811 0.084708571 1.853
0.16588762 0.084708571 1.853
0.17033143 0.085165717 1.863
0.17481335 0.085622862 1.8730001
0.17838097 0.085622862 1.8730001
0.18292001 0.08608 1.8830001
0.18650667 0.08608 1.8830001
0.19120382 0.086582862 1.8940001
0.19481143 0.086582862 1.8940001
0.19841905 0.086582862 1.8940001
0.20202668 0.086582862 1.8940001
0.2056343 0.086582862 1.8940001
0.21034667 0.08704 1.904
0.21397334 0.08704 1.904
0.2176 0.08704 1.904
0.22250476 0.087542862 1.9150001
0.22615239 0.087542862 1.9150001
0.23232001 0.088502862 1.9360001
0.23600763 0.088502862 1.9360001
0.23969525 0.088502862 1.9360001
0.24476573 0.089005716 1.9470001
0.2484743 0.089005716 1.9470001
0.25218287 0.089005716 1.9470001
0.25589144 0.089005716 1.9470001
0.25960001 0.089005716 1.9470001
0.2647962 0.089508578 1.9580001
0.26701716 0.089005716 1.9470001
0.27072573 0.089005716 1.9470001
0.2744343 0.089005716 1.9470001
0.27657145 0.088502862 1.9360001
0.28025907 0.088502862 1.9360001
0.28233334 0.088 1.9250001
0.28600001 0.088 1.9250001
0.2881619 0.087542862 1.9150001
0.29333335 0.088 1.9250001
0.29700002 0.088 1.9250001
0.30066669 0.088 1.9250001
0.30607238 0.088502862 1.9360001
0.30976 0.088502862 1.9360001
0.31344762 0.088502862 1.9360001
0.31893715 0.089005716 1.9470001
0.32264572 0.089005716 1.9470001
-0.051230479 0.080047622 1.6810001
-0.048028573 0.080047622 1.6810001
-0.044826668 0.080047622 1.6810001
-0.04142667 0.079666667 1.6730001
-0.038240001 0.079666667 1.6730001
-0.035053335 0.079666667 1.6730001
-0.03186667 0.079666667 1.6730001
-0.028405715 0.078904763 1.6570001
-0.025249524 0.078904763 1.6570001
-0.022093333 0.078904763 1.6570001
-0.018937144 0.078904763 1.6570001
-0.015780954 0.078904763 1.6570001
-0.012624762 0.078904763 1.6570001
-0.0094685722 0.078904763 1.6570001
-0.0063428571 0.079285719 1.6650001
-0.0031714286 0.079285719 1.6650001
0 0.079285719 1.6650001
0.0031866669 0.079666667 1.6730001
0.0064038099 0.080047622 1.6810001
0.0097485716 0.081238098 1.7060001
0.013196191 0.082476191 1.7320001
0.016495239 0.082476191 1.7320001
0.019897144 0.082904764 1.7410001
0.023213334 0.082904764 1.7410001
0.026666667 0.083333336 1.7500001
0.030000001 0.083333336 1.7500001
0.033333335 0.083333336 1.7500001
0.036666669 0.083333336 1.7500001
0.040000003 0.083333336 1.7500001
0.043556191 0.083761908 1.7590001
0.046906669 0.083761908 1.7590001
0.050257146 0.083761908 1.7590001
0.053881906 0.08419048 1.7680001
0.057249527 0.08419048 1.7680001
0.060925715 0.084619053 1.7770001
0.064310476 0.084619053 1.7770001
0.067695238 0.084619053 1.7770001
0.071440004 0.085047625 1.7860001
0.074841909 0.085047625 1.7860001
0.078243814 0.085047625 1.7860001
0.08164572 0.085047625 1.7860001
0.085476197 0.085476197 1.7950001
0.088895239 0.085476197 1.7950001
0.092314288 0.085476197 1.7950001
0.095733337 0.085476197 1.7950001
0.099649526 0.085904762 1.8040001
0.10308572 0.085904762 1.8040001
0.10652191 0.085904762 1.8040001
0.1099581 0.085904762 1.8040001
0.11402286 0.086380959 1.8140001
0.1174781 0.086380959 1.8140001
0.1216 0.086857148 1.8240001
0.1250743 0.086857148 1.8240001
0.12854858 0.086857148 1.8240001
0.13267429 0.08728572 1.8330001
0.13690858 0.087761909 1.8430001
0.14041905 0.087761909 1.8430001
0.14392953 0.087761909 1.8430001
0.14744 0.087761909 1.8430001
0.15176953 0.088238098 1.853
0.15529905 0.088238098 1.853
0.15882857 0.088238098 1.853
0.16235811 0.088238098 1.853
0.16678286 0.088714287 1.863
0.17124572 0.089190483 1.8730001
0.17481335 0.089190483 1.8730001
0.17933334 0.089666672 1.8830001
0.18292001 0.089666672 1.8830001
0.1875962 0.090190478 1.8940001
0.19120382 0.090190478 1.8940001
0.19481143 0.090190478 1.8940001
0.19841905 0.090190478 1.8940001
0.20202668 0.090190478 1.8940001
0.20672001 0.090666667 1.904
0.21034667 0.090666667 1.904
0.21397334 0.090666667 1.904
0.2176 0.090666667 1.904
0.22250476 0.09119048 1.9150001
0.22733334 0.091666669 1.9250001
0.23232001 0.092190482 1.9360001
0.23600763 0.092190482 1.9360001
0.24105716 0.092714287 1.9470001
0.24476573 0.092714287 1.9470001
0.2484743 0.092714287 1.9470001
0.25218287 0.092714287 1.9470001
0.25733715 0.0932381 1.9580001
0.26106668 0.0932381 1.9580001
0.2647962 0.0932381 1.9580001
0.26701716 0.092714287 1.9470001
0.27072573 0.092714287 1.9470001
0.2744343 0.092714287 1.9470001
0.27657145 0.092190482 1.9360001
0.27866668 0.091666669 1.9250001
0.28086668 0.09119048 1.9150001
0.28451431 0.09119048 1.9150001
0.2881619 0.09119048 1.9150001
0.29180953 0.09119048 1.9150001
0.29700002 0.091666669 1.9250001
0.30066669 0.091666669 1.9250001
0.30607238 0.092190482 1.9360001
0.30976 0.092190482 1.9360001
0.31344762 0.092190482 1.9360001
0.31893715 0.092714287 1.9470001
0.32264572 0.092714287 1.9470001
-0.051230479 0.083249524 1.6810001
-0.048028573 0.083249524 1.6810001
-0.044826668 0.083249524 1.6810001
-0.04142667 0.08285334 1.6730001
-0.038240001 0.08285334 1.6730001
-0.035053335 0.08285334 1.6730001
-0.03186667 0.08285334 1.6730001
-0.028405715 0.082060955 1.6570001
-0.025249524 0.082060955 1.6570001
-0.022093333 0.082060955 1.6570001
-0.018937144 0.082060955 1.6570001
-0.015780954 0.082060955 1.6570001
-0.012624762 0.082060955 1.6570001
-0.0095142862 0.082457148 1.6650001
-0.0063428571 0.082457148 1.6650001
-0.0031714286 0.082457148 1.6650001
0 0.08285334 1.6730001
0.0031866669 0.08285334 1.6730001
0.0064038099 0.083249524 1.6810001
0.0096571436 0.08369524 1.6900001
0.013127619 0.085329525 1.723
0.016495239 0.085775241 1.7320001
0.019897144 0.086220957 1.7410001
0.023213334 0.086220957 1.7410001
0.026666667 0.086666673 1.7500001
0.030000001 0.086666673 1.7500001
0.033333335 0.086666673 1.7500001
0.036666669 0.086666673 1.7500001
0.040000003 0.086666673 1.7500001
0.043556191 0.087112382 1.7590001
0.046906669 0.087112382 1.7590001
0.050257146 0.087112382 1.7590001
0.053881906 0.087558098 1.7680001
0.057249527 0.087558098 1.7680001
0.060925715 0.088003814 1.7770001
0.064310476 0.088003814 1.7770001
0.067695238 0.088003814 1.7770001
0.071440004 0.08844953 1.7860001
0.074841909 0.08844953 1.7860001
0.078243814 0.08844953 1.7860001
0.08164572 0.08844953 1.7860001
0.085476197 0.088895239 1.7950001
0.088895239 0.088895239 1.7950001
0.092314288 0.088895239 1.7950001
0.095733337 0.088895239 1.7950001
0.099649526 0.089340955 1.8040001
0.10365715 0.089836195 1.8140001
0.10652191 0.089340955 1.8040001
0.11056762 0.089836195 1.8140001
0.11402286 0.089836195 1.8140001
0.11812572 0.090331435 1.8240001
0.1216 0.090331435 1.8240001
0.1250743 0.090331435 1.8240001
0.12854858 0.090331435 1.8240001
0.13267429 0.090777144 1.8330001
0.13690858 0.091272384 1.8430001
0.14118096 0.091767624 1.853
0.14392953 0.091272384 1.8430001
0.14744 0.091272384 1.8430001
0.15176953 0.091767624 1.853
0.15529905 0.091767624 1.853
0.15882857 0.091767624 1.853
0.16235811 0.091767624 1.853
0.16678286 0.092262864 1.863
0.17124572 0.092758097 1.8730001
0.17481335 0.092758097 1.8730001
0.17933334 0.093253337 1.8830001
0.18398857 0.093798101 1.8940001
0.1875962 0.093798101 1.8940001
0.19120382 0.093798101 1.8940001
0.19481143 0.093798101 1.8940001
0.19946668 0.094293334 1.904
0.20309334 0.094293334 1.904
0.20672001 0.094293334 1.904
0.21034667 0.094293334 1.904
0.21397334 0.094293334 1.904
0.2176 0.094293334 1.904
0.22250476 0.094838098 1.9150001
0.22615239 0.094838098 1.9150001
0.23232001 0.095878102 1.9360001
0.23600763 0.095878102 1.9360001
0.24105716 0.096422859 1.9470001
0.24476573 0.096422859 1.9470001
0.2484743 0.096422859 1.9470001
0.25360763 0.096967623 1.9580001
0.25733715 0.096967623 1.9580001
0.26106668 0.096967623 1.9580001
0.2647962 0.096967623 1.9580001
0.26701716 0.096422859 1.9470001
0.27072573 0.096422859 1.9470001
0.2744343 0.096422859 1.9470001
0.27657145 0.095878102 1.9360001
0.27866668 0.095333338 1.9250001
0.28086668 0.094838098 1.9150001
0.28451431 0.094838098 1.9150001
0.28650668 0.094293334 1.904
0.29180953 0.094838098 1.9150001
0.29700002 0.095333338 1.9250001
0.30066669 0.095333338 1.9250001
0.30607238 0.095878102 1.9360001
0.30976 0.095878102 1.9360001
0.31522858 0.096422859 1.9470001
0.31893715 0.096422859 1.9470001
0.32264572 0.096422859 1.9470001
-0.051230479 0.086451434 1.6810001
-0.048028573 0.086451434 1.6810001
-0.044826668 0.086451434 1.6810001
-0.04142667 0.086040005 1.6730001
-0.038240001 0.086040005 1.6730001
-0.035053335 0.086040005 1.6730001
-0.03186667 0.086040005 1.6730001
-0.028542858 0.085628577 1.6650001
-0.025249524 0.085217148 1.6570001
-0.022093333 0.085217148 1.6570001
-0.018937144 0.085217148 1.6570001
-0.015780954 0.085217148 1.6570001
-0.012624762 0.085217148 1.6570001
-0.0095142862 0.085628577 1.6650001
-0.0063428571 0.085628577 1.6650001
-0.0031714286 0.085628577 1.6650001
0 0.086040005 1.6730001
0.0031866669 0.086040005 1.6730001
0.0063733337 0.086040005 1.6730001
0.0095600002 0.086040005 1.6730001
0.013066667 0.088200003 1.715
0.016409524 0.088611431 1.723
0.019794287 0.089074291 1.7320001
0.023213334 0.089537144 1.7410001
0.026529524 0.089537144 1.7410001
0.030000001 0.090000004 1.7500001
0.033333335 0.090000004 1.7500001
0.036666669 0.090000004 1.7500001
0.040000003 0.090000004 1.7500001
0.043556191 0.090462863 1.7590001
0.046906669 0.090462863 1.7590001
0.050257146 0.090462863 1.7590001
0.053881906 0.090925716 1.7680001
0.057249527 0.090925716 1.7680001
0.060925715 0.091388576 1.7770001
0.064310476 0.091388576 1.7770001
0.067695238 0.091388576 1.7770001
0.071079999 0.091388576 1.7770001
0.074841909 0.091851436 1.7860001
0.078243814 0.091851436 1.7860001
0.08164572 0.091851436 1.7860001
0.085476197 0.092314288 1.7950001
0.088895239 0.092314288 1.7950001
0.092314288 0.092314288 1.7950001
0.095733337 0.092314288 1.7950001
0.099649526 0.092777148 1.8040001
0.10308572 0.092777148 1.8040001
0.10711239 0.093291432 1.8140001
0.11056762 0.093291432 1.8140001
0.11402286 0.093291432 1.8140001
0.11812572 0.093805715 1.8240001
0.1216 0.093805715 1.8240001
0.12569143 0.094268575 1.8330001
0.12918286 0.094268575 1.8330001
0.1333981 0.094782859 1.8430001
0.13690858 0.094782859 1.8430001
0.14118096 0.095297143 1.853
0.14392953 0.094782859 1.8430001
0.14744 0.094782859 1.8430001
0.15176953 0.095297143 1.853
0.15529905 0.095297143 1.853
0.15882857 0.095297143 1.853
0.16323429 0.095811434 1.863
0.16678286 0.095811434 1.863
0.17124572 0.096325718 1.8730001
0.17481335 0.096325718 1.8730001
0.17933334 0.096840002 1.8830001
0.18292001 0.096840002 1.8830001
0.1875962 0.097405717 1.8940001
0.19120382 0.097405717 1.8940001
0.19481143 0.097405717 1.8940001
0.19946668 0.097920001 1.904
0.20309334 0.097920001 1.904
0.20672001 0.097920001 1.904
0.21034667 0.097920001 1.904
0.21397334 0.097920001 1.904
0.21885715 0.098485716 1.9150001
0.22250476 0.098485716 1.9150001
0.22615239 0.098485716 1.9150001
0.23232001 0.099565715 1.9360001
0.23600763 0.099565715 1.9360001
0.24105716 0.10013143 1.9470001
0.24338287 0.099565715 1.9360001
0.24707049 0.099565715 1.9360001
0.25218287 0.10013143 1.9470001
0.25589144 0.10013143 1.9470001
0.25960001 0.10013143 1.9470001
0.26330858 0.10013143 1.9470001
0.26701716 0.10013143 1.9470001
0.27072573 0.10013143 1.9470001
0.27288383 0.099565715 1.9360001
0.27500001 0.099000007 1.9250001
0.27866668 0.099000007 1.9250001
0.28086668 0.098485716 1.9150001
0.28288001 0.097920001 1.904
0.28650668 0.097920001 1.904
0.29180953 0.098485716 1.9150001
0.29700002 0.099000007 1.9250001
0.30238476 0.099565715 1.9360001
0.30781144 0.10013143 1.9470001
0.31152001 0.10013143 1.9470001
0.31522858 0.10013143 1.9470001
0.31893715 0.10013143 1.9470001
-0.054432385 0.089653336 1.6810001
-0.051230479 0.089653336 1.6810001
-0.048028573 0.089653336 1.6810001
-0.044826668 0.089653336 1.6810001
-0.04142667 0.089226671 1.6730001
-0.038240001 0.089226671 1.6730001
-0.035053335 0.089226671 1.6730001
-0.03186667 0.089226671 1.6730001
-0.028542858 0.088800006 1.6650001
-0.025249524 0.088373333 1.6570001
-0.022093333 0.088373333 1.6570001
-0.019028572 0.088800006 1.6650001
-0.015780954 0.088373333 1.6570001
-0.012685714 0.088800006 1.6650001
-0.0095142862 0.088800006 1.6650001
-0.0063428571 0.088800006 1.6650001
-0.0031714286 0.088800006 1.6650001
0 0.089226671 1.6730001
0.0031866669 0.089226671 1.6730001
0.0063733337 0.089226671 1.6730001
0.0095600002 0.089226671 1.6730001
0.012937143 0.090560004 1.6980001
0.016247619 0.090986669 1.7060001
0.01969143 0.091893338 1.723
0.023093333 0.092373334 1.7320001
0.026392382 0.092373334 1.7320001
0.029845715 0.092853338 1.7410001
0.033333335 0.093333334 1.7500001
0.036666669 0.093333334 1.7500001
0.040000003 0.093333334 1.7500001
0.043556191 0.093813337 1.7590001
0.046906669 0.093813337 1.7590001
0.050257146 0.093813337 1.7590001
0.053881906 0.094293334 1.7680001
0.057249527 0.094293334 1.7680001
0.060617145 0.094293334 1.7680001
0.064310476 0.094773337 1.7770001
0.067695238 0.094773337 1.7770001
0.071079999 0.094773337 1.7770001
0.074841909 0.095253333 1.7860001
0.078243814 0.095253333 1.7860001
0.08164572 0.095253333 1.7860001
0.085476197 0.095733337 1.7950001
0.088895239 0.095733337 1.7950001
0.092314288 0.095733337 1.7950001
0.095733337 0.095733337 1.7950001
0.1002019 0.096746668 1.8140001
0.10365715 0.096746668 1.8140001
0.10711239 0.096746668 1.8140001
0.11056762 0.096746668 1.8140001
0.11465143 0.097280003 1.8240001
0.11812572 0.097280003 1.8240001
0.1222 0.097760007 1.8330001
0.12569143 0.097760007 1.8330001
0.12918286 0.097760007 1.8330001
0.1333981 0.098293334 1.8430001
0.13690858 0.098293334 1.8430001
0.14118096 0.098826669 1.853
0.14392953 0.098293334 1.8430001
0.14744 0.098293334 1.8430001
0.15176953 0.098826669 1.853
0.15529905 0.098826669 1.853
0.15882857 0.098826669 1.853
0.16323429 0.099360004 1.863
0.16678286 0.099360004 1.863
0.17124572 0.099893339 1.8730001
0.17574668 0.10042667 1.8830001
0.17933334 0.10042667 1.8830001
0.18398857 0.10101334 1.8940001
0.1875962 0.10101334 1.8940001
0.19120382 0.10101334 1.8940001
0.19481143 0.10101334 1.8940001
0.19841905 0.10101334 1.8940001
0.20309334 0.10154667 1.904
0.20672001 0.10154667 1.904
0.21034667 0.10154667 1.904
0.21397334 0.10154667 1.904
0.2176 0.10154667 1.904
0.22250476 0.10213333 1.9150001
0.22615239 0.10213333 1.9150001
0.22980002 0.10213333 1.9150001
0.23600763 0.10325333 1.9360001
0.23969525 0.10325333 1.9360001
0.24338287 0.10325333 1.9360001
0.2484743 0.10384 1.9470001
0.25218287 0.10384 1.9470001
0.25589144 0.10384 1.9470001
0.25960001 0.10384 1.9470001
0.26330858 0.10384 1.9470001
0.26701716 0.10384 1.9470001
0.26919621 0.10325333 1.9360001
0.27288383 0.10325333 1.9360001
0.27357143 0.10213333 1.9150001
0.27721906 0.10213333 1.9150001
0.27925333 0.10154667 1.904
0.28288001 0.10154667 1.904
0.28650668 0.10154667 1.904
