# .PCD v0.7 - Point Cloud Data file format
VERSION 0.7
FIELDS x y z
SIZE 4 4 4
TYPE F F F
COUNT 1 1 1
WIDTH 1526
HEIGHT 1
VIEWPOINT 0 0 0 1 0 0 0
POINTS 1526
DATA ascii
0.23957905 0.30193526 1.723
0.24412954 0.30351239 1.7320001
0.24742858 0.30351239 1.7320001
0.25072762 0.30351239 1.7320001
0.25402668 0.30351239 1.7320001
0.25866288 0.30508953 1.7410001
0.26333335 0.30666667 1.7500001
0.26666668 0.30666667 1.7500001
0.27138859 0.30824381 1.7590001
0.27333334 0.30666667 1.7500001
0.27808952 0.30824381 1.7590001
0.28144002 0.30824381 1.7590001
0.28479049 0.30824381 1.7590001
0.28814095 0.30824381 1.7590001
0.29149145 0.30824381 1.7590001
0.29484192 0.30824381 1.7590001
0.29819238 0.30824381 1.7590001
0.30154288 0.30824381 1.7590001
0.30489334 0.30824381 1.7590001
0.30824381 0.30824381 1.7590001
0.31159431 0.30824381 1.7590001
0.31494477 0.30824381 1.7590001
0.31829524 0.30824381 1.7590001
0.32164574 0.30824381 1.7590001
0.3249962 0.30824381 1.7590001
0.32834667 0.30824381 1.7590001
0.33169717 0.30824381 1.7590001
0.33676192 0.30982095 1.7680001
0.3383981 0.30824381 1.7590001
0.3417486 0.30824381 1.7590001
0.34509906 0.30824381 1.7590001
0.35023239 0.30982095 1.7680001
0.35360003 0.30982095 1.7680001
0.35878477 0.31139812 1.7770001
0.36216953 0.31139812 1.7770001
0.36740574 0.31297526 1.7860001
0.36893907 0.31139812 1.7770001
0.37232381 0.31139812 1.7770001
0.37570858 0.31139812 1.7770001
0.37717333 0.30982095 1.7680001
0.38247812 0.31139812 1.7770001
0.38195431 0.30824381 1.7590001
0.38530478 0.30824381 1.7590001
-0.26766667 0.34100002 1.9250001
-0.26262859 0.33922857 1.9150001
-0.25898096 0.33922857 1.9150001
-0.25386667 0.33728001 1.904
-0.25024 0.33728001 1.904
-0.2480381 0.33922857 1.9150001
-0.24298668 0.33728001 1.904
-0.24074286 0.33922857 1.9150001
-0.23709525 0.33922857 1.9150001
-0.21113905 0.30681145 1.7320001
-0.20784001 0.30681145 1.7320001
-0.20560382 0.30840573 1.7410001
-0.20124191 0.30681145 1.7320001
-0.19794287 0.30681145 1.7320001
-0.19464381 0.30681145 1.7320001
-0.19134477 0.30681145 1.7320001
-0.18804573 0.30681145 1.7320001
-0.18474667 0.30681145 1.7320001
-0.18144763 0.30681145 1.7320001
-0.17814858 0.30681145 1.7320001
-0.17484953 0.30681145 1.7320001
-0.17155048 0.30681145 1.7320001
-0.16912572 0.30840573 1.7410001
-0.16666667 0.31 1.7500001
-0.16333334 0.31 1.7500001
-0.16082287 0.31159431 1.7590001
-0.15747239 0.31159431 1.7590001
-0.15412191 0.31159431 1.7590001
-0.15000001 0.31 1.7500001
-0.14666668 0.31 1.7500001
-0.1425962 0.30840573 1.7410001
-0.13928001 0.30840573 1.7410001
-0.13526095 0.30681145 1.7320001
-0.13066667 0.30380002 1.715
-0.12673144 0.30220571 1.7060001
-0.12348191 0.30220571 1.7060001
-0.11966857 0.30078858 1.6980001
-0.11643429 0.30078858 1.6980001
-0.1132 0.30078858 1.6980001
-0.10996572 0.30078858 1.6980001
-0.10622858 0.29937145 1.6900001
-0.10300953 0.29937145 1.6900001
-0.098786667 0.29636002 1.6730001
-0.095142864 0.29494286 1.6650001
-0.091971435 0.29494286 1.6650001
-0.088800006 0.29494286 1.6650001
-0.085217148 0.29352573 1.6570001
-0.082060955 0.29352573 1.6570001
-0.078523815 0.2921086 1.649
-0.075017147 0.29069144 1.641
-0.071584761 0.28945145 1.6340001
-0.067801908 0.28661716 1.618
-0.064440005 0.28537714 1.6110001
-0.061066668 0.28396001 1.603
-0.058013335 0.28396001 1.603
-0.054720003 0.28272 1.5960001
-0.051453337 0.28148001 1.5890001
-0.04818286 0.28006285 1.5810001
-0.045171428 0.28006285 1.5810001
-0.041973334 0.27882287 1.5740001
-0.039148573 0.28006285 1.5810001
-0.036137145 0.28006285 1.5810001
-0.032979049 0.27882287 1.5740001
-0.02984762 0.27758285 1.567
-0.026982859 0.27882287 1.5740001
-0.023984762 0.27882287 1.5740001
-0.020986667 0.27882287 1.5740001
-0.017988572 0.27882287 1.5740001
-0.014990477 0.27882287 1.5740001
-0.012045715 0.28006285 1.5810001
-0.0090342863 0.28006285 1.5810001
-0.0060533336 0.28148001 1.5890001
-0.0030266668 0.28148001 1.5890001
0 0.28272 1.5960001
0.0030400001 0.28272 1.5960001
0.0060800002 0.28272 1.5960001
0.0091200005 0.28272 1.5960001
0.01216 0.28272 1.5960001
0.0152 0.28272 1.5960001
0.018240001 0.28272 1.5960001
0.021373333 0.28396001 1.603
0.024426667 0.28396001 1.603
0.027617143 0.28537714 1.6110001
0.030533334 0.28396001 1.603
0.033754285 0.28537714 1.6110001
0.036822859 0.28537714 1.6110001
0.040064763 0.28661716 1.618
0.04314667 0.28661716 1.618
0.046457145 0.28803429 1.626
0.049310479 0.28661716 1.618
0.052651431 0.28803429 1.626
0.055748574 0.28803429 1.626
0.058845717 0.28803429 1.626
0.06194286 0.28803429 1.626
0.06504 0.28803429 1.626
0.068472385 0.28945145 1.6340001
0.071584761 0.28945145 1.6340001
0.074697144 0.28945145 1.6340001
0.078142859 0.29069144 1.641
0.080921911 0.28945145 1.6340001
0.084034286 0.28945145 1.6340001
0.08714667 0.28945145 1.6340001
0.090645716 0.29069144 1.641
0.093771435 0.29069144 1.641
0.096897148 0.29069144 1.641
0.10051048 0.2921086 1.649
0.10365143 0.2921086 1.649
0.10731048 0.29352573 1.6570001
0.11046667 0.29352573 1.6570001
0.11362286 0.29352573 1.6570001
0.11677905 0.29352573 1.6570001
0.11993524 0.29352573 1.6570001
0.12368572 0.29494286 1.6650001
0.12685715 0.29494286 1.6650001
0.13002858 0.29494286 1.6650001
0.1332 0.29494286 1.6650001
0.13637143 0.29494286 1.6650001
0.14021334 0.29636002 1.6730001
0.1434 0.29636002 1.6730001
0.14658667 0.29636002 1.6730001
0.14977334 0.29636002 1.6730001
0.15296 0.29636002 1.6730001
0.15689334 0.29777715 1.6810001
0.16009524 0.29777715 1.6810001
0.16329715 0.29777715 1.6810001
0.16649905 0.29777715 1.6810001
0.16970097 0.29777715 1.6810001
0.17290287 0.29777715 1.6810001
0.17610477 0.29777715 1.6810001
0.17930667 0.29777715 1.6810001
0.18250857 0.29777715 1.6810001
0.18670477 0.29937145 1.6900001
0.19082287 0.30078858 1.6980001
0.19497144 0.30220571 1.7060001
0.19822095 0.30220571 1.7060001
0.20147048 0.30220571 1.7060001
0.20472001 0.30220571 1.7060001
0.20796953 0.30220571 1.7060001
0.21121906 0.30220571 1.7060001
0.21446858 0.30220571 1.7060001
0.21771811 0.30220571 1.7060001
0.22213334 0.30380002 1.715
0.22540002 0.30380002 1.715
0.22973335 0.30521715 1.723
0.23301524 0.30521715 1.723
0.23629715 0.30521715 1.723
0.23957905 0.30521715 1.723
0.24286096 0.30521715 1.723
0.24614286 0.30521715 1.723
0.25072762 0.30681145 1.7320001
0.25402668 0.30681145 1.7320001
0.25866288 0.30840573 1.7410001
0.26333335 0.31 1.7500001
0.26666668 0.31 1.7500001
0.27000001 0.31 1.7500001
0.27333334 0.31 1.7500001
0.27666667 0.31 1.7500001
0.28 0.31 1.7500001
0.28333333 0.31 1.7500001
0.28814095 0.31159431 1.7590001
0.29000002 0.31 1.7500001
0.29333335 0.31 1.7500001
0.29666668 0.31 1.7500001
0.30000001 0.31 1.7500001
0.30489334 0.31159431 1.7590001
0.30824381 0.31159431 1.7590001
0.31159431 0.31159431 1.7590001
0.31494477 0.31159431 1.7590001
0.31829524 0.31159431 1.7590001
0.32329145 0.31318858 1.7680001
0.32665905 0.31318858 1.7680001
0.33002669 0.31318858 1.7680001
0.33339429 0.31318858 1.7680001
0.33676192 0.31318858 1.7680001
0.3383981 0.31159431 1.7590001
0.3417486 0.31159431 1.7590001
0.34686476 0.31318858 1.7680001
0.35023239 0.31318858 1.7680001
0.35360003 0.31318858 1.7680001
0.35878477 0.31478286 1.7770001
0.36400384 0.31637716 1.7860001
0.36740574 0.31637716 1.7860001
0.36893907 0.31478286 1.7770001
0.37232381 0.31478286 1.7770001
0.37570858 0.31478286 1.7770001
0.37717333 0.31318858 1.7680001
0.38247812 0.31478286 1.7770001
0.38195431 0.31159431 1.7590001
0.38530478 0.31159431 1.7590001
-0.26766667 0.34466669 1.9250001
-0.26262859 0.3428762 1.9150001
-0.25898096 0.3428762 1.9150001
-0.25533333 0.3428762 1.9150001
-0.25168571 0.3428762 1.9150001
-0.2480381 0.3428762 1.9150001
-0.24439049 0.3428762 1.9150001
-0.24074286 0.3428762 1.9150001
-0.23709525 0.3428762 1.9150001
-0.23344763 0.3428762 1.9150001
-0.20784001 0.31011048 1.7320001
-0.20560382 0.31172192 1.7410001
-0.20124191 0.31011048 1.7320001
-0.19794287 0.31011048 1.7320001
-0.19464381 0.31011048 1.7320001
-0.19134477 0.31011048 1.7320001
-0.18706858 0.30849907 1.723
-0.18378668 0.30849907 1.723
-0.18144763 0.31011048 1.7320001
-0.17814858 0.31011048 1.7320001
-0.17484953 0.31011048 1.7320001
-0.17155048 0.31011048 1.7320001
-0.16912572 0.31172192 1.7410001
-0.16666667 0.31333333 1.7500001
-0.16417333 0.31494477 1.7590001
-0.16082287 0.31494477 1.7590001
-0.15747239 0.31494477 1.7590001
-0.15333334 0.31333333 1.7500001
-0.15000001 0.31333333 1.7500001
-0.14666668 0.31333333 1.7500001
-0.14333335 0.31333333 1.7500001
-0.13856001 0.31011048 1.7320001
-0.13526095 0.31011048 1.7320001
-0.13127619 0.30849907 1.723
-0.12799428 0.30849907 1.723
-0.12413334 0.30706668 1.715
-0.12023239 0.30545524 1.7060001
-0.11643429 0.30402288 1.6980001
-0.1132 0.30402288 1.6980001
-0.10996572 0.30402288 1.6980001
-0.10622858 0.30259049 1.6900001
-0.10300953 0.30259049 1.6900001
-0.098786667 0.29954669 1.6730001
-0.095142864 0.2981143 1.6650001
-0.091971435 0.2981143 1.6650001
-0.088800006 0.2981143 1.6650001
-0.085217148 0.29668191 1.6570001
-0.082060955 0.29668191 1.6570001
-0.078523815 0.29524952 1.649
-0.075382859 0.29524952 1.649
-0.071891434 0.29381716 1.641
-0.068137147 0.29113144 1.626
-0.06504 0.29113144 1.626
-0.061638098 0.28969905 1.618
-0.058556192 0.28969905 1.618
-0.054960001 0.28701335 1.603
-0.051680002 0.28576002 1.5960001
-0.048426669 0.28450668 1.5890001
-0.045171428 0.28307429 1.5810001
-0.041973334 0.28182095 1.5740001
-0.038975239 0.28182095 1.5740001
-0.035977144 0.28182095 1.5740001
-0.032979049 0.28182095 1.5740001
-0.029714286 0.27931431 1.5600001
-0.026862858 0.28056762 1.567
-0.023878096 0.28056762 1.567
-0.020893333 0.28056762 1.567
-0.017908571 0.28056762 1.567
-0.01492381 0.28056762 1.567
-0.011939048 0.28056762 1.567
-0.0089942859 0.28182095 1.5740001
-0.0060228575 0.28307429 1.5810001
-0.0030114288 0.28307429 1.5810001
0 0.28450668 1.5890001
0.0030266668 0.28450668 1.5890001
0.0060533336 0.28450668 1.5890001
0.0090800002 0.28450668 1.5890001
0.012106667 0.28450668 1.5890001
0.015133334 0.28450668 1.5890001
0.018240001 0.28576002 1.5960001
0.02128 0.28576002 1.5960001
0.024320001 0.28576002 1.5960001
0.027480001 0.28701335 1.603
0.030533334 0.28701335 1.603
0.03358667 0.28701335 1.603
0.036822859 0.28844571 1.6110001
0.039891429 0.28844571 1.6110001
0.042960003 0.28844571 1.6110001
0.046228573 0.28969905 1.618
0.049310479 0.28969905 1.618
0.052392382 0.28969905 1.618
0.055474289 0.28969905 1.618
0.058845717 0.29113144 1.626
0.06194286 0.29113144 1.626
0.06504 0.29113144 1.626
0.068137147 0.29113144 1.626
0.071234286 0.29113144 1.626
0.074697144 0.29256383 1.6340001
0.077809528 0.29256383 1.6340001
0.080525719 0.29113144 1.626
0.083622858 0.29113144 1.626
0.086720005 0.29113144 1.626
0.090259053 0.29256383 1.6340001
0.093371429 0.29256383 1.6340001
0.096483812 0.29256383 1.6340001
0.10002286 0.29381716 1.641
0.10365143 0.29524952 1.649
0.10679238 0.29524952 1.649
0.10993334 0.29524952 1.649
0.11362286 0.29668191 1.6570001
0.11677905 0.29668191 1.6570001
0.11993524 0.29668191 1.6570001
0.12309143 0.29668191 1.6570001
0.12624763 0.29668191 1.6570001
0.12940381 0.29668191 1.6570001
0.1332 0.2981143 1.6650001
0.13637143 0.2981143 1.6650001
0.13954286 0.2981143 1.6650001
0.14271429 0.2981143 1.6650001
0.14588572 0.2981143 1.6650001
0.14905715 0.2981143 1.6650001
0.15296 0.29954669 1.6730001
0.15614668 0.29954669 1.6730001
0.16009524 0.30097905 1.6810001
0.16329715 0.30097905 1.6810001
0.16649905 0.30097905 1.6810001
0.16970097 0.30097905 1.6810001
0.17290287 0.30097905 1.6810001
0.17526667 0.29954669 1.6730001
0.17930667 0.30097905 1.6810001
0.18250857 0.30097905 1.6810001
0.18670477 0.30259049 1.6900001
0.19082287 0.30402288 1.6980001
0.19497144 0.30545524 1.7060001
0.19822095 0.30545524 1.7060001
0.20147048 0.30545524 1.7060001
0.20472001 0.30545524 1.7060001
0.20796953 0.30545524 1.7060001
0.21121906 0.30545524 1.7060001
0.21446858 0.30545524 1.7060001
0.21771811 0.30545524 1.7060001
0.22096762 0.30545524 1.7060001
0.22540002 0.30706668 1.715
0.22866668 0.30706668 1.715
0.23193334 0.30706668 1.715
0.23629715 0.30849907 1.723
0.23957905 0.30849907 1.723
0.24286096 0.30849907 1.723
0.24614286 0.30849907 1.723
0.24942477 0.30849907 1.723
0.25402668 0.31011048 1.7320001
0.25866288 0.31172192 1.7410001
0.26197904 0.31172192 1.7410001
0.26666668 0.31333333 1.7500001
0.27000001 0.31333333 1.7500001
0.27333334 0.31333333 1.7500001
0.27666667 0.31333333 1.7500001
0.28 0.31333333 1.7500001
0.28333333 0.31333333 1.7500001
0.28666669 0.31333333 1.7500001
0.29000002 0.31333333 1.7500001
0.29333335 0.31333333 1.7500001
0.29666668 0.31333333 1.7500001
0.30154288 0.31494477 1.7590001
0.30489334 0.31494477 1.7590001
0.30824381 0.31494477 1.7590001
0.31159431 0.31494477 1.7590001
0.31494477 0.31494477 1.7590001
0.31829524 0.31494477 1.7590001
0.32329145 0.31655622 1.7680001
0.32665905 0.31655622 1.7680001
0.33002669 0.31655622 1.7680001
0.33339429 0.31655622 1.7680001
0.33676192 0.31655622 1.7680001
0.3383981 0.31494477 1.7590001
0.3417486 0.31494477 1.7590001
0.34863049 0.31816763 1.7770001
0.35023239 0.31655622 1.7680001
0.35540003 0.31816763 1.7770001
0.36060193 0.31977907 1.7860001
0.36400384 0.31977907 1.7860001
0.36740574 0.31977907 1.7860001
0.36893907 0.31816763 1.7770001
0.37232381 0.31816763 1.7770001
0.37570858 0.31816763 1.7770001
0.37909335 0.31816763 1.7770001
0.38054097 0.31655622 1.7680001
0.3839086 0.31655622 1.7680001
0.3872762 0.31655622 1.7680001
-0.27288383 0.35032383 1.9360001
-0.26627621 0.34652382 1.9150001
-0.26262859 0.34652382 1.9150001
-0.25898096 0.34652382 1.9150001
-0.25666669 0.34833336 1.9250001
-0.25300002 0.34833336 1.9250001
-0.24933334 0.34833336 1.9250001
-0.24439049 0.34652382 1.9150001
-0.24200001 0.34833336 1.9250001
-0.23709525 0.34652382 1.9150001
-0.23344763 0.34652382 1.9150001
-0.22980002 0.34652382 1.9150001
-0.21646857 0.33168572 1.8330001
-0.20437905 0.31829524 1.7590001
-0.19794287 0.31340954 1.7320001
-0.19464381 0.31340954 1.7320001
-0.19035049 0.31178096 1.723
-0.18706858 0.31178096 1.723
-0.18378668 0.31178096 1.723
-0.18050477 0.31178096 1.723
-0.17722286 0.31178096 1.723
-0.17484953 0.31340954 1.7320001
-0.17155048 0.31340954 1.7320001
-0.16825144 0.31340954 1.7320001
-0.16752382 0.31829524 1.7590001
-0.16501334 0.31992382 1.7680001
-0.16164573 0.31992382 1.7680001
-0.15827811 0.31992382 1.7680001
-0.15333334 0.31666669 1.7500001
-0.15000001 0.31666669 1.7500001
-0.14666668 0.31666669 1.7500001
-0.1425962 0.31503811 1.7410001
-0.13856001 0.31340954 1.7320001
-0.13526095 0.31340954 1.7320001
-0.13127619 0.31178096 1.723
-0.12799428 0.31178096 1.723
-0.12471239 0.31178096 1.723
-0.12086667 0.31033334 1.715
-0.11643429 0.30725715 1.6980001
-0.1132 0.30725715 1.6980001
-0.10996572 0.30725715 1.6980001
-0.10622858 0.30580953 1.6900001
-0.10246096 0.30418095 1.6810001
-0.099259049 0.30418095 1.6810001
-0.095600002 0.30273333 1.6730001
-0.092413336 0.30273333 1.6730001
-0.088800006 0.30128571 1.6650001
-0.085628577 0.30128571 1.6650001
-0.082060955 0.2998381 1.6570001
-0.078904763 0.2998381 1.6570001
-0.075382859 0.29839048 1.649
-0.071891434 0.29694286 1.641
-0.068472385 0.2956762 1.6340001
-0.065360002 0.2956762 1.6340001
-0.062247623 0.2956762 1.6340001
-0.058845717 0.29422858 1.626
-0.055474289 0.29278097 1.618
-0.051906668 0.29006669 1.603
-0.048853334 0.29006669 1.603
-0.044971429 0.28481907 1.5740001
-0.041973334 0.28481907 1.5740001
-0.038975239 0.28481907 1.5740001
-0.035977144 0.28481907 1.5740001
-0.03283238 0.28355238 1.567
-0.029714286 0.28228572 1.5600001
-0.026742859 0.28228572 1.5600001
-0.023878096 0.28355238 1.567
-0.020893333 0.28355238 1.567
-0.017908571 0.28355238 1.567
-0.01492381 0.28355238 1.567
-0.011939048 0.28355238 1.567
-0.0089942859 0.28481907 1.5740001
-0.0059961905 0.28481907 1.5740001
-0.0030114288 0.28608572 1.5810001
0 0.28608572 1.5810001
0.0030114288 0.28608572 1.5810001
0.0060533336 0.28753334 1.5890001
0.0090800002 0.28753334 1.5890001
0.012106667 0.28753334 1.5890001
0.015133334 0.28753334 1.5890001
0.01816 0.28753334 1.5890001
0.021186667 0.28753334 1.5890001
0.024213335 0.28753334 1.5890001
0.027360002 0.2888 1.5960001
0.030400001 0.2888 1.5960001
0.03358667 0.29006669 1.603
0.03664 0.29006669 1.603
0.039693333 0.29006669 1.603
0.042746667 0.29006669 1.603
0.046028573 0.29151431 1.6110001
0.049097143 0.29151431 1.6110001
0.052392382 0.29278097 1.618
0.055474289 0.29278097 1.618
0.058845717 0.29422858 1.626
0.06194286 0.29422858 1.626
0.064720005 0.29278097 1.618
0.068137147 0.29422858 1.626
0.071234286 0.29422858 1.626
0.074331433 0.29422858 1.626
0.077428572 0.29422858 1.626
0.080525719 0.29422858 1.626
0.083622858 0.29422858 1.626
0.086720005 0.29422858 1.626
0.090259053 0.2956762 1.6340001
0.093371429 0.2956762 1.6340001
0.096483812 0.2956762 1.6340001
0.10002286 0.29694286 1.641
0.10314857 0.29694286 1.641
0.10679238 0.29839048 1.649
0.10993334 0.29839048 1.649
0.11362286 0.2998381 1.6570001
0.11677905 0.2998381 1.6570001
0.11993524 0.2998381 1.6570001
0.12309143 0.2998381 1.6570001
0.12624763 0.2998381 1.6570001
0.12940381 0.2998381 1.6570001
0.1332 0.30128571 1.6650001
0.13637143 0.30128571 1.6650001
0.13954286 0.30128571 1.6650001
0.1434 0.30273333 1.6730001
0.14588572 0.30128571 1.6650001
0.14977334 0.30273333 1.6730001
0.15296 0.30273333 1.6730001
0.15614668 0.30273333 1.6730001
0.16009524 0.30418095 1.6810001
0.16329715 0.30418095 1.6810001
0.16649905 0.30418095 1.6810001
0.16970097 0.30418095 1.6810001
0.17290287 0.30418095 1.6810001
0.17610477 0.30418095 1.6810001
0.17930667 0.30418095 1.6810001
0.18348572 0.30580953 1.6900001
0.18670477 0.30580953 1.6900001
0.19082287 0.30725715 1.6980001
0.19405715 0.30725715 1.6980001
0.19822095 0.30870476 1.7060001
0.20052572 0.30725715 1.6980001
0.20376001 0.30725715 1.6980001
0.2069943 0.30725715 1.6980001
0.21022858 0.30725715 1.6980001
0.21446858 0.30870476 1.7060001
0.21771811 0.30870476 1.7060001
0.22213334 0.31033334 1.715
0.22540002 0.31033334 1.715
0.22866668 0.31033334 1.715
0.23301524 0.31178096 1.723
0.23629715 0.31178096 1.723
0.23957905 0.31178096 1.723
0.24286096 0.31178096 1.723
0.24614286 0.31178096 1.723
0.25072762 0.31340954 1.7320001
0.25402668 0.31340954 1.7320001
0.25732571 0.31340954 1.7320001
0.26197904 0.31503811 1.7410001
0.26666668 0.31666669 1.7500001
0.27000001 0.31666669 1.7500001
0.27333334 0.31666669 1.7500001
0.27666667 0.31666669 1.7500001
0.28 0.31666669 1.7500001
0.28333333 0.31666669 1.7500001
0.28666669 0.31666669 1.7500001
0.29000002 0.31666669 1.7500001
0.29333335 0.31666669 1.7500001
0.29666668 0.31666669 1.7500001
0.30000001 0.31666669 1.7500001
0.30489334 0.31829524 1.7590001
0.30824381 0.31829524 1.7590001
0.31159431 0.31829524 1.7590001
0.31494477 0.31829524 1.7590001
0.31992382 0.31992382 1.7680001
0.32329145 0.31992382 1.7680001
0.32665905 0.31992382 1.7680001
0.33002669 0.31992382 1.7680001
0.33339429 0.31992382 1.7680001
0.33676192 0.31992382 1.7680001
0.34186098 0.3215524 1.7770001
0.34524572 0.3215524 1.7770001
0.34863049 0.3215524 1.7770001
0.35201526 0.3215524 1.7770001
0.35720003 0.32318097 1.7860001
0.35878477 0.3215524 1.7770001
0.36400384 0.32318097 1.7860001
0.36740574 0.32318097 1.7860001
0.36893907 0.3215524 1.7770001
0.37232381 0.3215524 1.7770001
0.37570858 0.3215524 1.7770001
0.37909335 0.3215524 1.7770001
0.38054097 0.31992382 1.7680001
0.3839086 0.31992382 1.7680001
0.3872762 0.31992382 1.7680001
-0.27288383 0.35401145 1.9360001
-0.26627621 0.35017145 1.9150001
-0.26262859 0.35017145 1.9150001
-0.25898096 0.35017145 1.9150001
-0.25666669 0.352 1.9250001
-0.25168571 0.35017145 1.9150001
-0.2480381 0.35017145 1.9150001
-0.24439049 0.35017145 1.9150001
-0.24074286 0.35017145 1.9150001
-0.23709525 0.35017145 1.9150001
-0.23210667 0.34816 1.904
-0.22116001 0.33700573 1.8430001
-0.21646857 0.33517715 1.8330001
-0.21297716 0.33517715 1.8330001
-0.20845716 0.33353144 1.8240001
-0.19464381 0.31670859 1.7320001
-0.19134477 0.31670859 1.7320001
-0.18804573 0.31670859 1.7320001
-0.18378668 0.31506288 1.723
-0.18050477 0.31506288 1.723
-0.17722286 0.31506288 1.723
-0.17394096 0.31506288 1.723
-0.17155048 0.31670859 1.7320001
-0.16825144 0.31670859 1.7320001
-0.16752382 0.32164574 1.7590001
-0.16501334 0.32329145 1.7680001
-0.16164573 0.32329145 1.7680001
-0.15747239 0.32164574 1.7590001
-0.15333334 0.32000002 1.7500001
-0.15000001 0.32000002 1.7500001
-0.14666668 0.32000002 1.7500001
-0.1425962 0.31835431 1.7410001
-0.13856001 0.31670859 1.7320001
-0.13526095 0.31670859 1.7320001
-0.13196191 0.31670859 1.7320001
-0.12866285 0.31670859 1.7320001
-0.12471239 0.31506288 1.723
-0.12143048 0.31506288 1.723
-0.11643429 0.31049144 1.6980001
-0.1132 0.31049144 1.6980001
-0.10944762 0.3090286 1.6900001
-0.10622858 0.3090286 1.6900001
-0.10246096 0.30738288 1.6810001
-0.099259049 0.30738288 1.6810001
-0.095600002 0.30592 1.6730001
-0.092413336 0.30592 1.6730001
-0.085628577 0.30445716 1.6650001
-0.082060955 0.30299431 1.6570001
-0.078904763 0.30299431 1.6570001
-0.075748578 0.30299431 1.6570001
-0.07224191 0.30153143 1.649
-0.068765715 0.30006859 1.641
-0.065360002 0.29878858 1.6340001
-0.06251429 0.30006859 1.641
-0.05913524 0.29878858 1.6340001
-0.055748574 0.29732573 1.626
-0.051906668 0.29312 1.603
-0.048853334 0.29312 1.603
-0.044971429 0.28781715 1.5740001
-0.041973334 0.28781715 1.5740001
-0.038801905 0.28653714 1.567
-0.035817143 0.28653714 1.567
-0.03283238 0.28653714 1.567
-0.029580953 0.28397715 1.5530001
-0.026742859 0.28525716 1.5600001
-0.023771429 0.28525716 1.5600001
-0.0208 0.28525716 1.5600001
-0.017828573 0.28525716 1.5600001
-0.01492381 0.28653714 1.567
-0.011885715 0.28525716 1.5600001
-0.0089542856 0.28653714 1.567
-0.0059695239 0.28653714 1.567
-0.0029980952 0.28781715 1.5740001
0 0.28909716 1.5810001
0.0030114288 0.28909716 1.5810001
0.0060228575 0.28909716 1.5810001
0.0090342863 0.28909716 1.5810001
0.012045715 0.28909716 1.5810001
0.015057144 0.28909716 1.5810001
0.01816 0.29056001 1.5890001
0.021186667 0.29056001 1.5890001
0.024213335 0.29056001 1.5890001
0.027360002 0.29184002 1.5960001
0.030400001 0.29184002 1.5960001
0.033440001 0.29184002 1.5960001
0.036480002 0.29184002 1.5960001
0.039693333 0.29312 1.603
0.042746667 0.29312 1.603
0.046028573 0.29458287 1.6110001
0.049097143 0.29458287 1.6110001
0.052165717 0.29458287 1.6110001
0.055474289 0.29586285 1.618
0.058556192 0.29586285 1.618
0.061638098 0.29586285 1.618
0.064720005 0.29586285 1.618
0.067801908 0.29586285 1.618
0.070883811 0.29586285 1.618
0.074331433 0.29732573 1.626
0.077428572 0.29732573 1.626
0.080525719 0.29732573 1.626
0.083622858 0.29732573 1.626
0.086720005 0.29732573 1.626
0.090259053 0.29878858 1.6340001
0.093371429 0.29878858 1.6340001
0.096483812 0.29878858 1.6340001
0.10002286 0.30006859 1.641
0.10314857 0.30006859 1.641
0.10679238 0.30153143 1.649
0.10993334 0.30153143 1.649
0.11307429 0.30153143 1.649
0.11621524 0.30153143 1.649
0.11935619 0.30153143 1.649
0.12249715 0.30153143 1.649
0.1256381 0.30153143 1.649
0.12877905 0.30153143 1.649
0.13256 0.30299431 1.6570001
0.1357162 0.30299431 1.6570001
0.13887239 0.30299431 1.6570001
0.14271429 0.30445716 1.6650001
0.14588572 0.30445716 1.6650001
0.14905715 0.30445716 1.6650001
0.15296 0.30592 1.6730001
0.15614668 0.30592 1.6730001
0.15933333 0.30592 1.6730001
0.16252001 0.30592 1.6730001
0.16649905 0.30738288 1.6810001
0.16970097 0.30738288 1.6810001
0.17290287 0.30738288 1.6810001
0.17610477 0.30738288 1.6810001
0.18026668 0.3090286 1.6900001
0.18348572 0.3090286 1.6900001
0.18758857 0.31049144 1.6980001
0.19082287 0.31049144 1.6980001
0.19405715 0.31049144 1.6980001
0.19729143 0.31049144 1.6980001
0.19958095 0.3090286 1.6900001
0.20376001 0.31049144 1.6980001
0.2069943 0.31049144 1.6980001
0.21022858 0.31049144 1.6980001
0.21446858 0.31195429 1.7060001
0.21771811 0.31195429 1.7060001
0.22096762 0.31195429 1.7060001
0.22540002 0.3136 1.715
0.22866668 0.3136 1.715
0.23301524 0.31506288 1.723
0.23629715 0.31506288 1.723
0.23957905 0.31506288 1.723
0.24286096 0.31506288 1.723
0.24614286 0.31506288 1.723
0.24942477 0.31506288 1.723
0.25402668 0.31670859 1.7320001
0.25732571 0.31670859 1.7320001
0.26197904 0.31835431 1.7410001
0.26529524 0.31835431 1.7410001
0.27000001 0.32000002 1.7500001
0.27333334 0.32000002 1.7500001
0.27666667 0.32000002 1.7500001
0.28 0.32000002 1.7500001
0.28333333 0.32000002 1.7500001
0.28666669 0.32000002 1.7500001
0.29000002 0.32000002 1.7500001
0.29333335 0.32000002 1.7500001
0.29666668 0.32000002 1.7500001
0.30000001 0.32000002 1.7500001
0.30333334 0.32000002 1.7500001
0.30824381 0.32164574 1.7590001
0.31159431 0.32164574 1.7590001
0.31494477 0.32164574 1.7590001
0.31829524 0.32164574 1.7590001
0.32329145 0.32329145 1.7680001
0.32665905 0.32329145 1.7680001
0.33002669 0.32329145 1.7680001
0.33339429 0.32329145 1.7680001
0.33676192 0.32329145 1.7680001
0.34012952 0.32329145 1.7680001
0.34524572 0.32493716 1.7770001
0.34863049 0.32493716 1.7770001
0.35379812 0.32658288 1.7860001
0.35540003 0.32493716 1.7770001
0.36060193 0.32658288 1.7860001
0.36400384 0.32658288 1.7860001
0.36740574 0.32658288 1.7860001
0.36893907 0.32493716 1.7770001
0.37232381 0.32493716 1.7770001
0.37570858 0.32493716 1.7770001
0.37909335 0.32493716 1.7770001
0.38247812 0.32493716 1.7770001
0.38586286 0.32493716 1.7770001
0.38924763 0.32493716 1.7770001
-0.26262859 0.35381907 1.9150001
-0.25898096 0.35381907 1.9150001
-0.25666669 0.35566667 1.9250001
-0.25300002 0.35566667 1.9250001
-0.2480381 0.35381907 1.9150001
-0.24439049 0.35381907 1.9150001
-0.24074286 0.35381907 1.9150001
-0.23573335 0.35178667 1.904
-0.22832763 0.34605905 1.8730001
-0.22116001 0.34051621 1.8430001
-0.21764953 0.34051621 1.8430001
-0.21413906 0.34051621 1.8430001
-0.20948572 0.33866858 1.8330001
-0.20599429 0.33866858 1.8330001
-0.20360763 0.34051621 1.8430001
-0.20009714 0.34051621 1.8430001
-0.18378668 0.31834477 1.723
-0.18050477 0.31834477 1.723
-0.17722286 0.31834477 1.723
-0.17394096 0.31834477 1.723
-0.17155048 0.32000762 1.7320001
-0.16825144 0.32000762 1.7320001
-0.16838096 0.32665905 1.7680001
-0.16585334 0.3283219 1.7770001
-0.16164573 0.32665905 1.7680001
-0.15747239 0.3249962 1.7590001
-0.15412191 0.3249962 1.7590001
-0.15077144 0.3249962 1.7590001
-0.14666668 0.32333335 1.7500001
-0.1425962 0.3216705 1.7410001
-0.13856001 0.32000762 1.7320001
-0.13526095 0.32000762 1.7320001
-0.13196191 0.32000762 1.7320001
-0.12866285 0.32000762 1.7320001
-0.12536381 0.32000762 1.7320001
-0.12143048 0.31834477 1.723
-0.1176 0.31686667 1.715
-0.11433334 0.31686667 1.715
-0.10944762 0.31224763 1.6900001
-0.10622858 0.31224763 1.6900001
-0.10246096 0.31058478 1.6810001
-0.099259049 0.31058478 1.6810001
-0.095600002 0.30910668 1.6730001
-0.092413336 0.30910668 1.6730001
-0.078904763 0.3061505 1.6570001
-0.075748578 0.3061505 1.6570001
-0.072592385 0.3061505 1.6570001
-0.068765715 0.30319428 1.641
-0.065640002 0.30319428 1.641
-0.06251429 0.30319428 1.641
-0.059388574 0.30319428 1.641
-0.05602286 0.30190095 1.6340001
-0.052651431 0.30042288 1.626
-0.049554288 0.30042288 1.626
-0.044971429 0.29081523 1.5740001
-0.041973334 0.29081523 1.5740001
-0.038801905 0.2895219 1.567
-0.035817143 0.2895219 1.567
-0.032685716 0.28822857 1.5600001
-0.029580953 0.28693524 1.5530001
-0.026622858 0.28693524 1.5530001
-0.023664763 0.28693524 1.5530001
-0.020706667 0.28693524 1.5530001
-0.017828573 0.28822857 1.5600001
-0.01492381 0.2895219 1.567
-0.011885715 0.28822857 1.5600001
-0.0089542856 0.2895219 1.567
-0.0059695239 0.2895219 1.567
-0.002984762 0.2895219 1.567
0 0.29081523 1.5740001
0.0029980952 0.29081523 1.5740001
0.0060228575 0.2921086 1.5810001
0.0090342863 0.2921086 1.5810001
0.011992381 0.29081523 1.5740001
0.015057144 0.2921086 1.5810001
0.01816 0.29358667 1.5890001
0.021186667 0.29358667 1.5890001
0.024213335 0.29358667 1.5890001
0.027360002 0.29488 1.5960001
0.030400001 0.29488 1.5960001
0.033440001 0.29488 1.5960001
0.036480002 0.29488 1.5960001
0.039520003 0.29488 1.5960001
0.042746667 0.29617333 1.603
0.046028573 0.29765144 1.6110001
0.048853334 0.29617333 1.603
0.052165717 0.29765144 1.6110001
0.055234287 0.29765144 1.6110001
0.058556192 0.29894477 1.618
0.061638098 0.29894477 1.618
0.064720005 0.29894477 1.618
0.067801908 0.29894477 1.618
0.070883811 0.29894477 1.618
0.074331433 0.30042288 1.626
0.077428572 0.30042288 1.626
0.080525719 0.30042288 1.626
0.083622858 0.30042288 1.626
0.086720005 0.30042288 1.626
0.089817144 0.30042288 1.626
0.093371429 0.30190095 1.6340001
0.096483812 0.30190095 1.6340001
0.099596195 0.30190095 1.6340001
0.10314857 0.30319428 1.641
0.10627429 0.30319428 1.641
0.1094 0.30319428 1.641
0.11252572 0.30319428 1.641
0.11565144 0.30319428 1.641
0.11935619 0.30467239 1.649
0.12249715 0.30467239 1.649
0.1256381 0.30467239 1.649
0.12940381 0.3061505 1.6570001
0.13256 0.3061505 1.6570001
0.13637143 0.30762857 1.6650001
0.13954286 0.30762857 1.6650001
0.14271429 0.30762857 1.6650001
0.14588572 0.30762857 1.6650001
0.14977334 0.30910668 1.6730001
0.15296 0.30910668 1.6730001
0.15614668 0.30910668 1.6730001
0.15933333 0.30910668 1.6730001
0.16252001 0.30910668 1.6730001
0.16570668 0.30910668 1.6730001
0.16970097 0.31058478 1.6810001
0.17290287 0.31058478 1.6810001
0.17610477 0.31058478 1.6810001
0.17930667 0.31058478 1.6810001
0.18348572 0.31224763 1.6900001
0.18758857 0.31372574 1.6980001
0.19082287 0.31372574 1.6980001
0.19405715 0.31372574 1.6980001
0.19729143 0.31372574 1.6980001
0.20052572 0.31372574 1.6980001
0.20376001 0.31372574 1.6980001
0.2069943 0.31372574 1.6980001
0.21022858 0.31372574 1.6980001
0.21446858 0.31520382 1.7060001
0.21771811 0.31520382 1.7060001
0.22096762 0.31520382 1.7060001
0.22540002 0.31686667 1.715
0.22866668 0.31686667 1.715
0.23193334 0.31686667 1.715
0.23629715 0.31834477 1.723
0.23957905 0.31834477 1.723
0.24286096 0.31834477 1.723
0.24614286 0.31834477 1.723
0.24942477 0.31834477 1.723
0.25402668 0.32000762 1.7320001
0.25732571 0.32000762 1.7320001
0.26197904 0.3216705 1.7410001
0.26529524 0.3216705 1.7410001
0.26861143 0.3216705 1.7410001
0.27192762 0.3216705 1.7410001
0.27524382 0.3216705 1.7410001
0.28 0.32333335 1.7500001
0.28333333 0.32333335 1.7500001
0.28666669 0.32333335 1.7500001
0.28850859 0.3216705 1.7410001
0.29333335 0.32333335 1.7500001
0.29666668 0.32333335 1.7500001
0.30000001 0.32333335 1.7500001
0.30333334 0.32333335 1.7500001
0.30666667 0.32333335 1.7500001
0.31 0.32333335 1.7500001
0.31494477 0.3249962 1.7590001
0.31829524 0.3249962 1.7590001
0.32164574 0.3249962 1.7590001
0.32665905 0.32665905 1.7680001
0.33002669 0.32665905 1.7680001
0.33339429 0.32665905 1.7680001
0.33676192 0.32665905 1.7680001
0.34012952 0.32665905 1.7680001
0.34349716 0.32665905 1.7680001
0.35039622 0.32998478 1.7860001
0.35379812 0.32998478 1.7860001
0.35540003 0.3283219 1.7770001
0.36060193 0.32998478 1.7860001
0.36400384 0.32998478 1.7860001
0.36740574 0.32998478 1.7860001
0.36893907 0.3283219 1.7770001
0.37232381 0.3283219 1.7770001
0.37570858 0.3283219 1.7770001
0.37909335 0.3283219 1.7770001
0.38247812 0.3283219 1.7770001
0.38586286 0.3283219 1.7770001
0.38924763 0.3283219 1.7770001
-0.25300002 0.35933334 1.9250001
-0.2480381 0.35746667 1.9150001
-0.24439049 0.35746667 1.9150001
-0.24074286 0.35746667 1.9150001
-0.23573335 0.35541335 1.904
-0.22954668 0.35149336 1.8830001
-0.22356001 0.34776002 1.863
-0.21883048 0.34589335 1.853
-0.21530096 0.34589335 1.853
-0.21062858 0.34402668 1.8430001
-0.20711811 0.34402668 1.8430001
-0.20360763 0.34402668 1.8430001
-0.20118286 0.34589335 1.853
-0.19765334 0.34589335 1.853
-0.16838096 0.33002669 1.7680001
-0.16585334 0.33170667 1.7770001
-0.16164573 0.33002669 1.7680001
-0.15827811 0.33002669 1.7680001
-0.15412191 0.32834667 1.7590001
-0.15077144 0.32834667 1.7590001
-0.14742096 0.32834667 1.7590001
-0.14407048 0.32834667 1.7590001
-0.14072001 0.32834667 1.7590001
-0.13526095 0.32330668 1.7320001
-0.13196191 0.32330668 1.7320001
-0.12866285 0.32330668 1.7320001
-0.12536381 0.32330668 1.7320001
-0.12143048 0.32162669 1.723
-0.11814857 0.32162669 1.723
-0.11486667 0.32162669 1.723
-0.11158477 0.32162669 1.723
-0.075748578 0.30930668 1.6570001
-0.07224191 0.30781335 1.649
-0.069100954 0.30781335 1.649
-0.065960005 0.30781335 1.649
-0.062819049 0.30781335 1.649
-0.059678096 0.30781335 1.649
-0.056537144 0.30781335 1.649
-0.053137146 0.30632001 1.641
-0.05001143 0.30632001 1.641
-0.046885718 0.30632001 1.641
-0.0416 0.29120001 1.5600001
-0.038628574 0.29120001 1.5600001
-0.035657145 0.29120001 1.5600001
-0.032685716 0.29120001 1.5600001
-0.029580953 0.28989333 1.5530001
-0.026502859 0.28858668 1.5460001
-0.023664763 0.28989333 1.5530001
-0.020613333 0.28858668 1.5460001
-0.017748572 0.28989333 1.5530001
-0.014790476 0.28989333 1.5530001
-0.011885715 0.29120001 1.5600001
-0.0089542856 0.29250666 1.567
-0.0059695239 0.29250666 1.567
-0.002984762 0.29250666 1.567
0 0.29250666 1.567
0.002984762 0.29250666 1.567
0.0059961905 0.29381335 1.5740001
0.0089942859 0.29381335 1.5740001
0.011992381 0.29381335 1.5740001
0.014990477 0.29381335 1.5740001
0.018068573 0.29512 1.5810001
0.02108 0.29512 1.5810001
0.024213335 0.29661334 1.5890001
0.027360002 0.29792002 1.5960001
0.030400001 0.29792002 1.5960001
0.033440001 0.29792002 1.5960001
0.036480002 0.29792002 1.5960001
0.039520003 0.29792002 1.5960001
0.04256 0.29792002 1.5960001
0.045600001 0.29792002 1.5960001
0.048853334 0.29922667 1.603
0.051906668 0.29922667 1.603
0.055234287 0.30072001 1.6110001
0.058302861 0.30072001 1.6110001
0.061371431 0.30072001 1.6110001
0.064720005 0.30202669 1.618
0.067801908 0.30202669 1.618
0.070883811 0.30202669 1.618
0.073965713 0.30202669 1.618
0.077428572 0.30352002 1.626
0.080129527 0.30202669 1.618
0.083622858 0.30352002 1.626
0.086720005 0.30352002 1.626
0.090259053 0.30501336 1.6340001
0.093371429 0.30501336 1.6340001
0.096483812 0.30501336 1.6340001
0.099596195 0.30501336 1.6340001
0.10314857 0.30632001 1.641
0.10627429 0.30632001 1.641
0.10993334 0.30781335 1.649
0.11204572 0.30501336 1.6340001
0.11621524 0.30781335 1.649
0.11935619 0.30781335 1.649
0.12309143 0.30930668 1.6570001
0.12624763 0.30930668 1.6570001
0.12940381 0.30930668 1.6570001
0.13256 0.30930668 1.6570001
0.13637143 0.31080002 1.6650001
0.13954286 0.31080002 1.6650001
0.14271429 0.31080002 1.6650001
0.14588572 0.31080002 1.6650001
0.14905715 0.31080002 1.6650001
0.15296 0.31229335 1.6730001
0.15614668 0.31229335 1.6730001
0.15933333 0.31229335 1.6730001
0.16252001 0.31229335 1.6730001
0.16649905 0.31378669 1.6810001
0.16970097 0.31378669 1.6810001
0.17290287 0.31378669 1.6810001
0.17610477 0.31378669 1.6810001
0.17930667 0.31378669 1.6810001
0.18348572 0.31546667 1.6900001
0.18758857 0.31696001 1.6980001
0.19082287 0.31696001 1.6980001
0.19405715 0.31696001 1.6980001
0.19729143 0.31696001 1.6980001
0.20052572 0.31696001 1.6980001
0.20376001 0.31696001 1.6980001
0.2069943 0.31696001 1.6980001
0.21022858 0.31696001 1.6980001
0.21446858 0.31845334 1.7060001
0.21771811 0.31845334 1.7060001
0.22213334 0.32013336 1.715
0.22540002 0.32013336 1.715
0.22866668 0.32013336 1.715
0.23193334 0.32013336 1.715
0.23629715 0.32162669 1.723
0.23957905 0.32162669 1.723
0.24286096 0.32162669 1.723
0.24614286 0.32162669 1.723
0.24942477 0.32162669 1.723
0.25402668 0.32330668 1.7320001
0.25732571 0.32330668 1.7320001
0.26197904 0.32498667 1.7410001
0.26529524 0.32498667 1.7410001
0.26861143 0.32498667 1.7410001
0.27192762 0.32498667 1.7410001
0.27524382 0.32498667 1.7410001
0.27856001 0.32498667 1.7410001
0.28333333 0.32666668 1.7500001
0.2851924 0.32498667 1.7410001
0.28850859 0.32498667 1.7410001
0.29333335 0.32666668 1.7500001
0.29666668 0.32666668 1.7500001
0.30000001 0.32666668 1.7500001
0.30333334 0.32666668 1.7500001
0.30666667 0.32666668 1.7500001
0.31 0.32666668 1.7500001
0.31494477 0.32834667 1.7590001
0.31829524 0.32834667 1.7590001
0.32164574 0.32834667 1.7590001
0.3249962 0.32834667 1.7590001
0.33002669 0.33002669 1.7680001
0.33339429 0.33002669 1.7680001
0.33676192 0.33002669 1.7680001
0.34012952 0.33002669 1.7680001
0.34349716 0.33002669 1.7680001
0.34863049 0.33170667 1.7770001
0.35023239 0.33002669 1.7680001
0.35540003 0.33170667 1.7770001
0.36060193 0.33338669 1.7860001
0.36400384 0.33338669 1.7860001
0.36740574 0.33338669 1.7860001
0.36893907 0.33170667 1.7770001
0.37232381 0.33170667 1.7770001
0.37570858 0.33170667 1.7770001
0.37909335 0.33170667 1.7770001
0.38247812 0.33170667 1.7770001
0.38586286 0.33170667 1.7770001
0.38924763 0.33170667 1.7770001
-0.25168571 0.36111429 1.9150001
-0.2480381 0.36111429 1.9150001
-0.24439049 0.36111429 1.9150001
-0.23936 0.35904002 1.904
-0.23449525 0.35715431 1.8940001
-0.22954668 0.35508001 1.8830001
-0.22476001 0.3531943 1.8730001
-0.22001144 0.35130858 1.863
-0.21530096 0.34942287 1.853
-0.21177144 0.34942287 1.853
-0.20824191 0.34942287 1.853
-0.20471239 0.34942287 1.853
-0.20118286 0.34942287 1.853
-0.19765334 0.34942287 1.853
-0.16164573 0.33339429 1.7680001
-0.15827811 0.33339429 1.7680001
-0.15491048 0.33339429 1.7680001
-0.15154286 0.33339429 1.7680001
-0.14742096 0.33169717 1.7590001
-0.14407048 0.33169717 1.7590001
-0.14072001 0.33169717 1.7590001
-0.13807239 0.33339429 1.7680001
-0.13470477 0.33339429 1.7680001
-0.13133715 0.33339429 1.7680001
-0.12862095 0.33509144 1.7770001
-0.1252362 0.33509144 1.7770001
-0.12185143 0.33509144 1.7770001
-0.12093334 0.34206858 1.8140001
-0.1174781 0.34206858 1.8140001
-0.075748578 0.31246287 1.6570001
-0.07224191 0.3109543 1.649
-0.069100954 0.3109543 1.649
-0.065960005 0.3109543 1.649
-0.062819049 0.3109543 1.649
-0.059967622 0.31246287 1.6570001
-0.05681143 0.31246287 1.6570001
-0.053655241 0.31246287 1.6570001
-0.050499048 0.31246287 1.6570001
-0.047342859 0.31246287 1.6570001
-0.044186667 0.31246287 1.6570001
-0.038628574 0.29417145 1.5600001
-0.035657145 0.29417145 1.5600001
-0.032539047 0.29285145 1.5530001
-0.029447621 0.29153144 1.5460001
-0.026502859 0.29153144 1.5460001
-0.023558097 0.29153144 1.5460001
-0.020613333 0.29153144 1.5460001
-0.017668571 0.29153144 1.5460001
-0.01472381 0.29153144 1.5460001
-0.011832382 0.29285145 1.5530001
-0.0089142863 0.29417145 1.5600001
-0.0059428574 0.29417145 1.5600001
-0.0029714287 0.29417145 1.5600001
0 0.29549143 1.567
0.0029714287 0.29417145 1.5600001
0.0059428574 0.29417145 1.5600001
0.0089542856 0.29549143 1.567
0.011939048 0.29549143 1.567
0.014990477 0.29681143 1.5740001
0.017988572 0.29681143 1.5740001
0.020986667 0.29681143 1.5740001
0.024213335 0.29964 1.5890001
0.027240001 0.29964 1.5890001
0.030266669 0.29964 1.5890001
0.033293333 0.29964 1.5890001
0.036320001 0.29964 1.5890001
0.039520003 0.30096 1.5960001
0.04256 0.30096 1.5960001
0.0458 0.30228001 1.603
0.048853334 0.30228001 1.603
0.051906668 0.30228001 1.603
0.054960001 0.30228001 1.603
0.058302861 0.30378857 1.6110001
0.061371431 0.30378857 1.6110001
0.064440005 0.30378857 1.6110001
0.067508571 0.30378857 1.6110001
0.070883811 0.30510858 1.618
0.074331433 0.30661714 1.626
0.077047624 0.30510858 1.618
0.080129527 0.30510858 1.618
0.083622858 0.30661714 1.626
0.086720005 0.30661714 1.626
0.090259053 0.30812573 1.6340001
0.093371429 0.30812573 1.6340001
0.096483812 0.30812573 1.6340001
0.099596195 0.30812573 1.6340001
0.10270858 0.30812573 1.6340001
0.10627429 0.30944574 1.641
0.1094 0.30944574 1.641
0.11204572 0.30812573 1.6340001
0.11565144 0.30944574 1.641
0.11935619 0.3109543 1.649
0.12249715 0.3109543 1.649
0.1256381 0.3109543 1.649
0.12877905 0.3109543 1.649
0.13256 0.31246287 1.6570001
0.1357162 0.31246287 1.6570001
0.13887239 0.31246287 1.6570001
0.14202857 0.31246287 1.6570001
0.14518477 0.31246287 1.6570001
0.14905715 0.31397143 1.6650001
0.15296 0.31548002 1.6730001
0.15614668 0.31548002 1.6730001
0.15933333 0.31548002 1.6730001
0.16252001 0.31548002 1.6730001
0.16649905 0.31698859 1.6810001
0.16970097 0.31698859 1.6810001
0.17290287 0.31698859 1.6810001
0.17610477 0.31698859 1.6810001
0.18026668 0.31868574 1.6900001
0.18348572 0.31868574 1.6900001
0.18758857 0.3201943 1.6980001
0.19082287 0.3201943 1.6980001
0.19405715 0.3201943 1.6980001
0.19729143 0.3201943 1.6980001
0.20052572 0.3201943 1.6980001
0.20376001 0.3201943 1.6980001
0.20601906 0.31868574 1.6900001
0.21022858 0.3201943 1.6980001
0.21446858 0.32170287 1.7060001
0.21886668 0.32340002 1.715
0.22213334 0.32340002 1.715
0.22540002 0.32340002 1.715
0.22866668 0.32340002 1.715
0.23193334 0.32340002 1.715
0.23629715 0.32490858 1.723
0.23957905 0.32490858 1.723
0.24286096 0.32490858 1.723
0.24742858 0.32660574 1.7320001
0.25072762 0.32660574 1.7320001
0.25402668 0.32660574 1.7320001
0.25866288 0.32830286 1.7410001
0.26197904 0.32830286 1.7410001
0.26529524 0.32830286 1.7410001
0.26722288 0.32660574 1.7320001
0.27192762 0.32830286 1.7410001
0.27524382 0.32830286 1.7410001
0.27856001 0.32830286 1.7410001
0.28187621 0.32830286 1.7410001
0.2851924 0.32830286 1.7410001
0.29000002 0.33000001 1.7500001
0.29333335 0.33000001 1.7500001
0.29666668 0.33000001 1.7500001
0.30154288 0.33169717 1.7590001
0.30333334 0.33000001 1.7500001
0.30666667 0.33000001 1.7500001
0.31159431 0.33169717 1.7590001
0.31494477 0.33169717 1.7590001
0.31829524 0.33169717 1.7590001
0.32164574 0.33169717 1.7590001
0.3249962 0.33169717 1.7590001
0.32834667 0.33169717 1.7590001
0.33169717 0.33169717 1.7590001
0.33676192 0.33339429 1.7680001
0.34012952 0.33339429 1.7680001
0.34349716 0.33339429 1.7680001
0.34863049 0.33509144 1.7770001
0.35201526 0.33509144 1.7770001
0.35540003 0.33509144 1.7770001
0.36060193 0.33678859 1.7860001
0.36400384 0.33678859 1.7860001
0.36925715 0.33848572 1.7950001
0.36893907 0.33509144 1.7770001
0.37232381 0.33509144 1.7770001
0.37570858 0.33509144 1.7770001
0.38101333 0.33678859 1.7860001
0.38441524 0.33678859 1.7860001
0.38781714 0.33678859 1.7860001
0.39121905 0.33678859 1.7860001
-0.25168571 0.36476192 1.9150001
-0.2480381 0.36476192 1.9150001
-0.24439049 0.36476192 1.9150001
-0.23936 0.36266667 1.904
-0.23313335 0.35866669 1.8830001
-0.22954668 0.35866669 1.8830001
-0.22356001 0.35485715 1.863
-0.22001144 0.35485715 1.863
-0.21646287 0.35485715 1.863
-0.21177144 0.35295239 1.853
-0.20936573 0.35485715 1.863
-0.20581715 0.35485715 1.863
-0.20444001 0.35866669 1.8830001
-0.20085335 0.35866669 1.8830001
-0.16164573 0.33676192 1.7680001
-0.15827811 0.33676192 1.7680001
-0.15569906 0.33847621 1.7770001
-0.15231429 0.33847621 1.7770001
-0.14817524 0.33676192 1.7680001
-0.14480762 0.33676192 1.7680001
-0.14144 0.33676192 1.7680001
-0.13877524 0.33847621 1.7770001
-0.13539048 0.33847621 1.7770001
-0.13334286 0.34190479 1.7950001
-0.12992382 0.34190479 1.7950001
-0.12713905 0.34361905 1.8040001
-0.12438858 0.34552383 1.8140001
-0.12093334 0.34552383 1.8140001
-0.11683048 0.34361905 1.8040001
-0.11339429 0.34361905 1.8040001
-0.1099581 0.34361905 1.8040001
-0.069436193 0.31561905 1.6570001
-0.06628 0.31561905 1.6570001
-0.063123815 0.31561905 1.6570001
-0.059967622 0.31561905 1.6570001
-0.05681143 0.31561905 1.6570001
-0.053655241 0.31561905 1.6570001
-0.050499048 0.31561905 1.6570001
-0.047342859 0.31561905 1.6570001
-0.044400003 0.31714287 1.6650001
-0.041030478 0.31561905 1.6570001
-0.035497144 0.29580954 1.5530001
-0.032539047 0.29580954 1.5530001
-0.029447621 0.29447621 1.5460001
-0.026382858 0.29314286 1.539
-0.023451429 0.29314286 1.539
-0.020520002 0.29314286 1.539
-0.017588573 0.29314286 1.539
-0.014657144 0.29314286 1.539
-0.011779048 0.29447621 1.5460001
-0.0088342857 0.29447621 1.5460001
-0.0059161908 0.29580954 1.5530001
-0.0029580954 0.29580954 1.5530001
0 0.29580954 1.5530001
0.0029714287 0.29714286 1.5600001
0.0059428574 0.29714286 1.5600001
0.0089142863 0.29714286 1.5600001
0.011885715 0.29714286 1.5600001
0.014857143 0.29714286 1.5600001
0.017908571 0.29847619 1.567
0.020893333 0.29847619 1.567
0.023984762 0.29980955 1.5740001
0.027240001 0.30266666 1.5890001
0.030266669 0.30266666 1.5890001
0.033293333 0.30266666 1.5890001
0.036320001 0.30266666 1.5890001
0.039520003 0.30400002 1.5960001
0.04256 0.30400002 1.5960001
0.045600001 0.30400002 1.5960001
0.048853334 0.30533335 1.603
0.051906668 0.30533335 1.603
0.054960001 0.30533335 1.603
0.058302861 0.30685717 1.6110001
0.061371431 0.30685717 1.6110001
0.064440005 0.30685717 1.6110001
0.067508571 0.30685717 1.6110001
0.070577145 0.30685717 1.6110001
0.073965713 0.30819049 1.618
0.077047624 0.30819049 1.618
0.080129527 0.30819049 1.618
0.083622858 0.30971429 1.626
0.086720005 0.30971429 1.626
0.090259053 0.31123811 1.6340001
0.093371429 0.31123811 1.6340001
0.096483812 0.31123811 1.6340001
0.099596195 0.31123811 1.6340001
0.10270858 0.31123811 1.6340001
0.10582095 0.31123811 1.6340001
0.10893334 0.31123811 1.6340001
0.11204572 0.31123811 1.6340001
0.11565144 0.31257144 1.641
0.11877715 0.31257144 1.641
0.12249715 0.31409526 1.649
0.1256381 0.31409526 1.649
0.12877905 0.31409526 1.649
0.13192001 0.31409526 1.649
0.1357162 0.31561905 1.6570001
0.13887239 0.31561905 1.6570001
0.14202857 0.31561905 1.6570001
0.14518477 0.31561905 1.6570001
0.14905715 0.31714287 1.6650001
0.15222858 0.31714287 1.6650001
0.15614668 0.31866667 1.6730001
0.15933333 0.31866667 1.6730001
0.16252001 0.31866667 1.6730001
0.16649905 0.32019049 1.6810001
0.16970097 0.32019049 1.6810001
0.17290287 0.32019049 1.6810001
0.17610477 0.32019049 1.6810001
0.18026668 0.32190478 1.6900001
0.18348572 0.32190478 1.6900001
0.18758857 0.32342857 1.6980001
0.18992382 0.32190478 1.6900001
0.19405715 0.32342857 1.6980001
0.19729143 0.32342857 1.6980001
0.20052572 0.32342857 1.6980001
0.20376001 0.32342857 1.6980001
0.20601906 0.32190478 1.6900001
0.21022858 0.32342857 1.6980001
0.21446858 0.32495239 1.7060001
0.21886668 0.32666668 1.715
0.22213334 0.32666668 1.715
0.22540002 0.32666668 1.715
0.22746667 0.32495239 1.7060001
0.23193334 0.32666668 1.715
0.2352 0.32666668 1.715
0.23846668 0.32666668 1.715
0.24286096 0.32819048 1.723
0.24742858 0.32990476 1.7320001
0.25072762 0.32990476 1.7320001
0.25402668 0.32990476 1.7320001
0.26000002 0.33333334 1.7500001
0.26333335 0.33333334 1.7500001
0.26666668 0.33333334 1.7500001
0.26722288 0.32990476 1.7320001
0.27052191 0.32990476 1.7320001
0.27382097 0.32990476 1.7320001
0.27856001 0.33161905 1.7410001
0.28187621 0.33161905 1.7410001
0.2851924 0.33161905 1.7410001
0.28850859 0.33161905 1.7410001
0.29333335 0.33333334 1.7500001
0.29819238 0.33504763 1.7590001
0.30154288 0.33504763 1.7590001
0.30489334 0.33504763 1.7590001
0.30824381 0.33504763 1.7590001
0.31159431 0.33504763 1.7590001
0.31494477 0.33504763 1.7590001
0.31829524 0.33504763 1.7590001
0.32164574 0.33504763 1.7590001
0.3249962 0.33504763 1.7590001
0.32834667 0.33504763 1.7590001
0.33169717 0.33504763 1.7590001
0.33504763 0.33504763 1.7590001
0.34863049 0.33847621 1.7770001
0.35023239 0.33676192 1.7680001
0.35360003 0.33676192 1.7680001
0.36060193 0.3401905 1.7860001
0.36400384 0.3401905 1.7860001
0.36740574 0.3401905 1.7860001
0.37080762 0.3401905 1.7860001
0.37232381 0.33847621 1.7770001
0.37570858 0.33847621 1.7770001
0.38101333 0.3401905 1.7860001
-0.2480381 0.36840954 1.9150001
-0.24439049 0.36840954 1.9150001
-0.23936 0.36629334 1.904
-0.23313335 0.36225334 1.8830001
-0.22954668 0.36225334 1.8830001
-0.22476001 0.36032954 1.8730001
-0.22119239 0.36032954 1.8730001
-0.21646287 0.35840574 1.863
-0.21291429 0.35840574 1.863
-0.20936573 0.35840574 1.863
-0.20581715 0.35840574 1.863
-0.20444001 0.36225334 1.8830001
-0.19978668 0.36032954 1.8730001
-0.19621906 0.36032954 1.8730001
-0.16069524 0.34532383 1.7950001
-0.1572762 0.34532383 1.7950001
-0.15308572 0.34359241 1.7860001
-0.14968382 0.34359241 1.7860001
-0.14628191 0.34359241 1.7860001
-0.14288001 0.34359241 1.7860001
-0.14018096 0.34532383 1.7950001
-0.13744763 0.34705526 1.8040001
-0.13401143 0.34705526 1.8040001
-0.13057524 0.34705526 1.8040001
-0.12713905 0.34705526 1.8040001
-0.12438858 0.34897906 1.8140001
-0.12093334 0.34897906 1.8140001
-0.11683048 0.34705526 1.8040001
-0.11339429 0.34705526 1.8040001
-0.1099581 0.34705526 1.8040001
-0.069436193 0.31877524 1.6570001
-0.06628 0.31877524 1.6570001
-0.063123815 0.31877524 1.6570001
-0.059967622 0.31877524 1.6570001
-0.05681143 0.31877524 1.6570001
-0.053655241 0.31877524 1.6570001
-0.050499048 0.31877524 1.6570001
