# .PCD v0.7 - Point Cloud Data file format
VERSION 0.7
FIELDS x y z
SIZE 4 4 4
TYPE F F F
COUNT 1 1 1
WIDTH 1514
HEIGHT 1
VIEWPOINT 0 0 0 1 0 0 0
POINTS 1514
DATA ascii
-0.24083048 0.32330668 1.7320001
-0.23876572 0.32498667 1.7410001
-0.23544954 0.32498667 1.7410001
-0.23093334 0.32330668 1.7320001
-0.2276343 0.32330668 1.7320001
-0.22433525 0.32330668 1.7320001
-0.2210362 0.32330668 1.7320001
-0.21773715 0.32330668 1.7320001
-0.21332382 0.32162669 1.723
-0.21004191 0.32162669 1.723
-0.20676 0.32162669 1.723
-0.20253333 0.32013336 1.715
-0.19926667 0.32013336 1.715
-0.19497144 0.31845334 1.7060001
-0.19082287 0.31696001 1.6980001
-0.18758857 0.31696001 1.6980001
-0.18435429 0.31696001 1.6980001
-0.18112001 0.31696001 1.6980001
-0.17788573 0.31696001 1.6980001
-0.17465143 0.31696001 1.6980001
-0.17141715 0.31696001 1.6980001
-0.16986667 0.32013336 1.715
-0.1666 0.32013336 1.715
-0.16333334 0.32013336 1.715
-0.16006668 0.32013336 1.715
-0.15597714 0.31845334 1.7060001
-0.15353334 0.32013336 1.715
-0.15026668 0.32013336 1.715
-0.147 0.32013336 1.715
-0.14297906 0.31845334 1.7060001
-0.14046668 0.32013336 1.715
-0.1372 0.32013336 1.715
-0.13260572 0.31696001 1.6980001
-0.12937143 0.31696001 1.6980001
-0.12613715 0.31696001 1.6980001
-0.12290286 0.31696001 1.6980001
-0.11734286 0.31080002 1.6650001
-0.11362286 0.30930668 1.6570001
-0.11046667 0.30930668 1.6570001
-0.10679238 0.30781335 1.649
-0.10365143 0.30781335 1.649
-0.10051048 0.30781335 1.649
-0.097841911 0.30930668 1.6570001
-0.094685718 0.30930668 1.6570001
-0.091971435 0.31080002 1.6650001
-0.089226671 0.31229335 1.6730001
-0.086451434 0.31378669 1.6810001
-0.08369524 0.31546667 1.6900001
-0.080476195 0.31546667 1.6900001
-0.077257149 0.31546667 1.6900001
-0.074038096 0.31546667 1.6900001
-0.07081905 0.31546667 1.6900001
-0.067600004 0.31546667 1.6900001
-0.064380951 0.31546667 1.6900001
-0.061161906 0.31546667 1.6900001
-0.057634287 0.31378669 1.6810001
-0.054432385 0.31378669 1.6810001
-0.051230479 0.31378669 1.6810001
-0.048028573 0.31378669 1.6810001
-0.044613335 0.31229335 1.6730001
-0.04142667 0.31229335 1.6730001
-0.038240001 0.31229335 1.6730001
-0.035053335 0.31229335 1.6730001
-0.03186667 0.31229335 1.6730001
-0.02868 0.31229335 1.6730001
-0.02561524 0.31378669 1.6810001
-0.022306668 0.31229335 1.6730001
-0.01912 0.31229335 1.6730001
-0.015857143 0.31080002 1.6650001
-0.012624762 0.30930668 1.6570001
-0.0095142862 0.31080002 1.6650001
-0.0063428571 0.31080002 1.6650001
-0.0031866669 0.31229335 1.6730001
0 0.31080002 1.6650001
0.0031714286 0.31080002 1.6650001
0.006312381 0.30930668 1.6570001
0.0094685722 0.30930668 1.6570001
0.012624762 0.30930668 1.6570001
0.015780954 0.30930668 1.6570001
0.018937144 0.30930668 1.6570001
0.021986667 0.30781335 1.649
0.02512762 0.30781335 1.649
0.028131429 0.30632001 1.641
0.031257145 0.30632001 1.641
0.034382857 0.30632001 1.641
0.040262859 0.30352002 1.626
0.043360002 0.30352002 1.626
0.05001143 0.30632001 1.641
0.053137146 0.30632001 1.641
0.056262858 0.30632001 1.641
0.059678096 0.30781335 1.649
0.062819049 0.30781335 1.649
0.065960005 0.30781335 1.649
0.069100954 0.30781335 1.649
0.07224191 0.30781335 1.649
0.075382859 0.30781335 1.649
0.078142859 0.30632001 1.641
0.080921911 0.30501336 1.6340001
0.083622858 0.30352002 1.626
0.08629334 0.30202669 1.618
0.089375243 0.30202669 1.618
0.092457145 0.30202669 1.618
0.094653338 0.29922667 1.603
0.097706668 0.29922667 1.603
0.10032 0.29792002 1.5960001
0.10336 0.29792002 1.5960001
0.14592001 0.29792002 1.5960001
0.14896001 0.29792002 1.5960001
0.15200001 0.29792002 1.5960001
0.15504001 0.29792002 1.5960001
0.15808001 0.29792002 1.5960001
0.16182667 0.29922667 1.603
0.16488001 0.29922667 1.603
0.16793334 0.29922667 1.603
0.17184001 0.30072001 1.6110001
0.17566858 0.30202669 1.618
0.17875049 0.30202669 1.618
0.18891239 0.31378669 1.6810001
0.19314286 0.31546667 1.6900001
0.19822095 0.31845334 1.7060001
0.20147048 0.31845334 1.7060001
0.20472001 0.31845334 1.7060001
0.20906667 0.32013336 1.715
-0.28479049 0.33169717 1.7590001
-0.28144002 0.33169717 1.7590001
-0.27666667 0.33000001 1.7500001
-0.27192762 0.32830286 1.7410001
-0.27000001 0.33000001 1.7500001
-0.26666668 0.33000001 1.7500001
-0.26333335 0.33000001 1.7500001
-0.26000002 0.33000001 1.7500001
-0.25666669 0.33000001 1.7500001
-0.25333333 0.33000001 1.7500001
-0.25128573 0.33169717 1.7590001
-0.2453981 0.32830286 1.7410001
-0.24333334 0.33000001 1.7500001
-0.24000001 0.33000001 1.7500001
-0.23666668 0.33000001 1.7500001
-0.23213334 0.32830286 1.7410001
-0.22881715 0.32830286 1.7410001
-0.22433525 0.32660574 1.7320001
-0.2210362 0.32660574 1.7320001
-0.21773715 0.32660574 1.7320001
-0.21332382 0.32490858 1.723
-0.21004191 0.32490858 1.723
-0.20676 0.32490858 1.723
-0.2034781 0.32490858 1.723
-0.19926667 0.32340002 1.715
-0.19405715 0.3201943 1.6980001
-0.19082287 0.3201943 1.6980001
-0.18758857 0.3201943 1.6980001
-0.18435429 0.3201943 1.6980001
-0.18112001 0.3201943 1.6980001
-0.17788573 0.3201943 1.6980001
-0.17465143 0.3201943 1.6980001
-0.17141715 0.3201943 1.6980001
-0.16986667 0.32340002 1.715
-0.1666 0.32340002 1.715
-0.16333334 0.32340002 1.715
-0.16006668 0.32340002 1.715
-0.1568 0.32340002 1.715
-0.15353334 0.32340002 1.715
-0.15026668 0.32340002 1.715
-0.14768572 0.32490858 1.723
-0.14297906 0.32170287 1.7060001
-0.13972953 0.32170287 1.7060001
-0.1372 0.32340002 1.715
-0.13323048 0.32170287 1.7060001
-0.12998095 0.32170287 1.7060001
-0.12613715 0.3201943 1.6980001
-0.12290286 0.3201943 1.6980001
-0.11677905 0.31246287 1.6570001
-0.11307429 0.3109543 1.649
-0.11046667 0.31246287 1.6570001
-0.10679238 0.3109543 1.649
-0.10415429 0.31246287 1.6570001
-0.1009981 0.31246287 1.6570001
-0.098314293 0.31397143 1.6650001
-0.095142864 0.31397143 1.6650001
-0.092413336 0.31548002 1.6730001
-0.089653336 0.31698859 1.6810001
-0.086451434 0.31698859 1.6810001
-0.08369524 0.31868574 1.6900001
-0.080476195 0.31868574 1.6900001
-0.077257149 0.31868574 1.6900001
-0.074038096 0.31868574 1.6900001
-0.07081905 0.31868574 1.6900001
-0.067600004 0.31868574 1.6900001
-0.064685717 0.3201943 1.6980001
-0.061161906 0.31868574 1.6900001
-0.057634287 0.31698859 1.6810001
-0.05472381 0.31868574 1.6900001
-0.051504765 0.31868574 1.6900001
-0.048285715 0.31868574 1.6900001
-0.044826668 0.31698859 1.6810001
-0.04142667 0.31548002 1.6730001
-0.038240001 0.31548002 1.6730001
-0.035053335 0.31548002 1.6730001
-0.03186667 0.31548002 1.6730001
-0.02897143 0.31868574 1.6900001
-0.02512762 0.3109543 1.649
-0.022306668 0.31548002 1.6730001
-0.01912 0.31548002 1.6730001
-0.015780954 0.31246287 1.6570001
-0.012624762 0.31246287 1.6570001
-0.0095600002 0.31548002 1.6730001
-0.0063428571 0.31397143 1.6650001
-0.0031866669 0.31548002 1.6730001
0 0.31548002 1.6730001
0.0031714286 0.31397143 1.6650001
0.0063428571 0.31397143 1.6650001
0.0094685722 0.31246287 1.6570001
0.012624762 0.31246287 1.6570001
0.015780954 0.31246287 1.6570001
0.018937144 0.31246287 1.6570001
0.021986667 0.3109543 1.649
0.02512762 0.3109543 1.649
0.027874287 0.30661714 1.626
0.03097143 0.30661714 1.626
0.05001143 0.30944574 1.641
0.053137146 0.30944574 1.641
0.05681143 0.31246287 1.6570001
0.059967622 0.31246287 1.6570001
0.063123815 0.31246287 1.6570001
0.06628 0.31246287 1.6570001
0.069100954 0.3109543 1.649
0.07224191 0.3109543 1.649
0.075382859 0.3109543 1.649
0.078142859 0.30944574 1.641
0.080525719 0.30661714 1.626
0.083622858 0.30661714 1.626
0.08629334 0.30510858 1.618
0.089375243 0.30510858 1.618
0.092457145 0.30510858 1.618
0.094653338 0.30228001 1.603
0.097706668 0.30228001 1.603
0.14896001 0.30096 1.5960001
0.15200001 0.30096 1.5960001
0.15504001 0.30096 1.5960001
0.15808001 0.30096 1.5960001
0.16112001 0.30096 1.5960001
0.16416001 0.30096 1.5960001
0.1672 0.30096 1.5960001
0.17024 0.30096 1.5960001
0.17328 0.30096 1.5960001
0.17632 0.30096 1.5960001
0.17936 0.30096 1.5960001
0.1912 0.31548002 1.6730001
0.1953162 0.31698859 1.6810001
0.1985181 0.31698859 1.6810001
0.20472001 0.32170287 1.7060001
-0.28479049 0.33504763 1.7590001
-0.28144002 0.33504763 1.7590001
-0.27808952 0.33504763 1.7590001
-0.27333334 0.33333334 1.7500001
-0.27138859 0.33504763 1.7590001
-0.26666668 0.33333334 1.7500001
-0.26333335 0.33333334 1.7500001
-0.26000002 0.33333334 1.7500001
-0.25666669 0.33333334 1.7500001
-0.2546362 0.33504763 1.7590001
-0.25128573 0.33504763 1.7590001
-0.24666667 0.33333334 1.7500001
-0.24458477 0.33504763 1.7590001
-0.24123429 0.33504763 1.7590001
-0.23788382 0.33504763 1.7590001
-0.23333335 0.33333334 1.7500001
-0.23 0.33333334 1.7500001
-0.22550096 0.33161905 1.7410001
-0.22218478 0.33161905 1.7410001
-0.21886858 0.33161905 1.7410001
-0.2144381 0.32990476 1.7320001
-0.21113905 0.32990476 1.7320001
-0.20676 0.32819048 1.723
-0.2034781 0.32819048 1.723
-0.19405715 0.32342857 1.6980001
-0.19082287 0.32342857 1.6980001
-0.19035049 0.32819048 1.723
-0.18706858 0.32819048 1.723
-0.18378668 0.32819048 1.723
-0.18050477 0.32819048 1.723
-0.17640001 0.32666668 1.715
-0.17394096 0.32819048 1.723
-0.17065905 0.32819048 1.723
-0.1666 0.32666668 1.715
-0.16409524 0.32819048 1.723
-0.16081335 0.32819048 1.723
-0.1568 0.32666668 1.715
-0.15353334 0.32666668 1.715
-0.15026668 0.32666668 1.715
-0.14768572 0.32819048 1.723
-0.14373334 0.32666668 1.715
-0.14046668 0.32666668 1.715
-0.1372 0.32666668 1.715
-0.13393334 0.32666668 1.715
-0.12998095 0.32495239 1.7060001
-0.11734286 0.31714287 1.6650001
-0.11362286 0.31561905 1.6570001
-0.111 0.31714287 1.6650001
-0.10731048 0.31561905 1.6570001
-0.10465714 0.31714287 1.6650001
-0.10148571 0.31714287 1.6650001
-0.098314293 0.31714287 1.6650001
-0.095600002 0.31866667 1.6730001
-0.092855245 0.32019049 1.6810001
-0.089653336 0.32019049 1.6810001
-0.086914286 0.32190478 1.6900001
-0.08369524 0.32190478 1.6900001
-0.080476195 0.32190478 1.6900001
-0.077257149 0.32190478 1.6900001
-0.074038096 0.32190478 1.6900001
-0.07081905 0.32190478 1.6900001
-0.067600004 0.32190478 1.6900001
-0.064685717 0.32342857 1.6980001
-0.061161906 0.32190478 1.6900001
-0.057634287 0.32019049 1.6810001
-0.05472381 0.32190478 1.6900001
-0.051504765 0.32190478 1.6900001
-0.048285715 0.32190478 1.6900001
-0.044826668 0.32019049 1.6810001
-0.04142667 0.31866667 1.6730001
-0.038240001 0.31866667 1.6730001
-0.035053335 0.31866667 1.6730001
-0.03186667 0.31866667 1.6730001
-0.02897143 0.32190478 1.6900001
-0.028693335 0.35866669 1.8830001
-0.024973335 0.35676193 1.8730001
-0.02152 0.35866669 1.8830001
-0.017933333 0.35866669 1.8830001
-0.014270477 0.35676193 1.8730001
-0.010702858 0.35676193 1.8730001
-0.0071352385 0.35676193 1.8730001
-0.0035485716 0.35485715 1.863
0 0.31714287 1.6650001
0.0031714286 0.31714287 1.6650001
0.0063428571 0.31714287 1.6650001
0.0095142862 0.31714287 1.6650001
0.012685714 0.31714287 1.6650001
0.015857143 0.31714287 1.6650001
0.019028572 0.31714287 1.6650001
0.022093333 0.31561905 1.6570001
0.025249524 0.31561905 1.6570001
0.028405715 0.31561905 1.6570001
0.03097143 0.30971429 1.626
0.053914286 0.31714287 1.6650001
0.05681143 0.31561905 1.6570001
0.059967622 0.31561905 1.6570001
0.063123815 0.31561905 1.6570001
0.06628 0.31561905 1.6570001
0.069100954 0.31409526 1.649
0.07224191 0.31409526 1.649
0.075382859 0.31409526 1.649
0.078142859 0.31257144 1.641
0.081268571 0.31257144 1.641
0.083622858 0.30971429 1.626
0.08629334 0.30819049 1.618
0.089375243 0.30819049 1.618
0.14896001 0.30400002 1.5960001
0.15200001 0.30400002 1.5960001
0.15504001 0.30400002 1.5960001
0.15808001 0.30400002 1.5960001
0.16112001 0.30400002 1.5960001
0.16416001 0.30400002 1.5960001
0.1672 0.30400002 1.5960001
0.17098667 0.30533335 1.603
0.17404 0.30533335 1.603
0.17709334 0.30533335 1.603
0.1871143 0.31714287 1.6650001
0.19028573 0.31714287 1.6650001
0.19438668 0.31866667 1.6730001
0.19757333 0.31866667 1.6730001
0.20076001 0.31866667 1.6730001
-0.28479049 0.3383981 1.7590001
-0.28144002 0.3383981 1.7590001
-0.27666667 0.33666667 1.7500001
-0.27333334 0.33666667 1.7500001
-0.27000001 0.33666667 1.7500001
-0.26666668 0.33666667 1.7500001
-0.26333335 0.33666667 1.7500001
-0.26000002 0.33666667 1.7500001
-0.25798666 0.3383981 1.7590001
-0.2546362 0.3383981 1.7590001
-0.25257143 0.34012952 1.7680001
-0.24793525 0.3383981 1.7590001
-0.24458477 0.3383981 1.7590001
-0.24246858 0.34012952 1.7680001
-0.23910096 0.34012952 1.7680001
-0.23573335 0.34012952 1.7680001
-0.23236573 0.34012952 1.7680001
-0.22783239 0.3383981 1.7590001
-0.22448191 0.3383981 1.7590001
-0.22113144 0.3383981 1.7590001
-0.2144381 0.33320382 1.7320001
-0.21113905 0.33320382 1.7320001
-0.19035049 0.3314724 1.723
-0.18804573 0.33320382 1.7320001
-0.18474667 0.33320382 1.7320001
-0.18050477 0.3314724 1.723
-0.17722286 0.3314724 1.723
-0.17394096 0.3314724 1.723
-0.17065905 0.3314724 1.723
-0.16737714 0.3314724 1.723
-0.16409524 0.3314724 1.723
-0.16081335 0.3314724 1.723
-0.1568 0.32993335 1.715
-0.15353334 0.32993335 1.715
-0.15026668 0.32993335 1.715
-0.14845715 0.33320382 1.7320001
-0.1451581 0.33320382 1.7320001
-0.14046668 0.32993335 1.715
-0.1372 0.32993335 1.715
-0.13393334 0.32993335 1.715
-0.11734286 0.32031429 1.6650001
-0.11362286 0.31877524 1.6570001
-0.111 0.32031429 1.6650001
-0.10731048 0.31877524 1.6570001
-0.10465714 0.32031429 1.6650001
-0.10148571 0.32031429 1.6650001
-0.098314293 0.32031429 1.6650001
-0.096057147 0.32339239 1.6810001
-0.093352385 0.32512382 1.6900001
-0.090133339 0.32512382 1.6900001
-0.086914286 0.32512382 1.6900001
-0.084091432 0.32666287 1.6980001
-0.080857143 0.32666287 1.6980001
-0.077622861 0.32666287 1.6980001
-0.074388571 0.32666287 1.6980001
-0.071154289 0.32666287 1.6980001
-0.067919999 0.32666287 1.6980001
-0.064685717 0.32666287 1.6980001
-0.061451431 0.32666287 1.6980001
-0.05794286 0.32512382 1.6900001
-0.05472381 0.32512382 1.6900001
-0.051504765 0.32512382 1.6900001
-0.048285715 0.32512382 1.6900001
-0.044826668 0.32339239 1.6810001
-0.041624762 0.32339239 1.6810001
-0.038240001 0.32185334 1.6730001
-0.035053335 0.32185334 1.6730001
-0.03186667 0.32185334 1.6730001
-0.032468572 0.36436954 1.8940001
-0.028540954 0.36032954 1.8730001
-0.024973335 0.36032954 1.8730001
-0.021405715 0.36032954 1.8730001
-0.017838096 0.36032954 1.8730001
-0.014270477 0.36032954 1.8730001
-0.010702858 0.36032954 1.8730001
-0.0071352385 0.36032954 1.8730001
-0.0035485716 0.35840574 1.863
0 0.35648191 1.853
0.003529524 0.35648191 1.853
0.0070590479 0.35648191 1.853
0.0095142862 0.32031429 1.6650001
0.012685714 0.32031429 1.6650001
0.015857143 0.32031429 1.6650001
0.01912 0.32185334 1.6730001
0.022306668 0.32185334 1.6730001
0.025249524 0.31877524 1.6570001
0.028405715 0.31877524 1.6570001
0.05098667 0.32185334 1.6730001
0.053914286 0.32031429 1.6650001
0.05681143 0.31877524 1.6570001
0.059967622 0.31877524 1.6570001
0.063123815 0.31877524 1.6570001
0.06628 0.31877524 1.6570001
0.069100954 0.31723621 1.649
0.07224191 0.31723621 1.649
0.075382859 0.31723621 1.649
0.078142859 0.31569716 1.641
0.081268571 0.31569716 1.641
0.15200001 0.30704001 1.5960001
0.15504001 0.30704001 1.5960001
0.15808001 0.30704001 1.5960001
0.16112001 0.30704001 1.5960001
0.16416001 0.30704001 1.5960001
0.1672 0.30704001 1.5960001
0.17098667 0.30838668 1.603
0.17404 0.30838668 1.603
0.17709334 0.30838668 1.603
0.18014668 0.30838668 1.603
0.18937144 0.31877524 1.6570001
0.19252762 0.31877524 1.6570001
0.19757333 0.32185334 1.6730001
0.20076001 0.32185334 1.6730001
-0.28479049 0.3417486 1.7590001
-0.28144002 0.3417486 1.7590001
-0.27666667 0.34 1.7500001
-0.27333334 0.34 1.7500001
-0.27000001 0.34 1.7500001
-0.26666668 0.34 1.7500001
-0.26333335 0.34 1.7500001
-0.26000002 0.34 1.7500001
-0.25798666 0.3417486 1.7590001
-0.2546362 0.3417486 1.7590001
-0.25257143 0.34349716 1.7680001
-0.24920382 0.34349716 1.7680001
-0.2458362 0.34349716 1.7680001
-0.24246858 0.34349716 1.7680001
-0.23910096 0.34349716 1.7680001
-0.23693334 0.34524572 1.7770001
-0.23354858 0.34524572 1.7770001
-0.23016381 0.34524572 1.7770001
-0.22563048 0.34349716 1.7680001
-0.22226286 0.34349716 1.7680001
-0.21889524 0.34349716 1.7680001
-0.19464381 0.33650288 1.7320001
-0.19035049 0.33475429 1.723
-0.18706858 0.33475429 1.723
-0.18474667 0.33650288 1.7320001
-0.18144763 0.33650288 1.7320001
-0.17722286 0.33475429 1.723
-0.17394096 0.33475429 1.723
-0.17065905 0.33475429 1.723
-0.16737714 0.33475429 1.723
-0.16409524 0.33475429 1.723
-0.16081335 0.33475429 1.723
-0.1568 0.33320001 1.715
-0.15353334 0.33320001 1.715
-0.14845715 0.33650288 1.7320001
-0.1451581 0.33650288 1.7320001
-0.10516001 0.32504001 1.6730001
-0.10197334 0.32504001 1.6730001
-0.098786667 0.32504001 1.6730001
-0.096057147 0.32659429 1.6810001
-0.093352385 0.32834285 1.6900001
-0.090133339 0.32834285 1.6900001
-0.086914286 0.32834285 1.6900001
-0.08369524 0.32834285 1.6900001
-0.080857143 0.32989717 1.6980001
-0.077622861 0.32989717 1.6980001
-0.074038096 0.32834285 1.6900001
-0.07081905 0.32834285 1.6900001
-0.067919999 0.32989717 1.6980001
-0.064685717 0.32989717 1.6980001
-0.061451431 0.32989717 1.6980001
-0.05794286 0.32834285 1.6900001
-0.05472381 0.32834285 1.6900001
-0.048285715 0.32834285 1.6900001
-0.044826668 0.32659429 1.6810001
-0.041624762 0.32659429 1.6810001
-0.032468572 0.36797714 1.8940001
-0.028388573 0.3619543 1.863
-0.024973335 0.36389714 1.8730001
-0.021405715 0.36389714 1.8730001
-0.017838096 0.36389714 1.8730001
-0.014270477 0.36389714 1.8730001
-0.010645715 0.3619543 1.863
-0.0070971432 0.3619543 1.863
-0.003529524 0.36001143 1.853
0 0.35806859 1.8430001
0.0034742858 0.35437715 1.8240001
0.0069485717 0.35437715 1.8240001
0.010422857 0.35437715 1.8240001
0.013897143 0.35437715 1.8240001
0.015857143 0.32348573 1.6650001
0.01912 0.32504001 1.6730001
0.022306668 0.32504001 1.6730001
0.050742857 0.32348573 1.6650001
0.053655241 0.32193145 1.6570001
0.05681143 0.32193145 1.6570001
0.059967622 0.32193145 1.6570001
0.063123815 0.32193145 1.6570001
0.065960005 0.32037714 1.649
0.069100954 0.32037714 1.649
0.07224191 0.32037714 1.649
0.075382859 0.32037714 1.649
0.078523815 0.32037714 1.649
0.081268571 0.31882286 1.641
0.14896001 0.31008002 1.5960001
0.15200001 0.31008002 1.5960001
0.15504001 0.31008002 1.5960001
0.15808001 0.31008002 1.5960001
0.16112001 0.31008002 1.5960001
0.16416001 0.31008002 1.5960001
0.1672 0.31008002 1.5960001
0.17024 0.31008002 1.5960001
0.17328 0.31008002 1.5960001
0.17632 0.31008002 1.5960001
0.17936 0.31008002 1.5960001
0.18845715 0.32037714 1.649
0.1915981 0.32037714 1.649
-0.28 0.34333333 1.7500001
-0.27666667 0.34333333 1.7500001
-0.27333334 0.34333333 1.7500001
-0.27000001 0.34333333 1.7500001
-0.26666668 0.34333333 1.7500001
-0.26333335 0.34333333 1.7500001
-0.26133716 0.34509906 1.7590001
-0.25798666 0.34509906 1.7590001
-0.2546362 0.34509906 1.7590001
-0.25257143 0.34686476 1.7680001
-0.24920382 0.34686476 1.7680001
-0.2458362 0.34686476 1.7680001
-0.24246858 0.34686476 1.7680001
-0.2403181 0.34863049 1.7770001
-0.23693334 0.34863049 1.7770001
-0.23473144 0.35039622 1.7860001
-0.23249525 0.35216191 1.7950001
-0.22907619 0.35216191 1.7950001
-0.22452572 0.35039622 1.7860001
-0.22112381 0.35039622 1.7860001
-0.19464381 0.33980191 1.7320001
-0.19233905 0.34156764 1.7410001
-0.18804573 0.33980191 1.7320001
-0.18474667 0.33980191 1.7320001
-0.18144763 0.33980191 1.7320001
-0.17814858 0.33980191 1.7320001
-0.17394096 0.33803621 1.723
-0.17065905 0.33803621 1.723
-0.16737714 0.33803621 1.723
-0.16409524 0.33803621 1.723
-0.16081335 0.33803621 1.723
-0.10516001 0.32822669 1.6730001
-0.10666667 0.34333333 1.7500001
-0.10333334 0.34333333 1.7500001
-0.1 0.34333333 1.7500001
-0.093794286 0.33313143 1.6980001
-0.090560004 0.33313143 1.6980001
-0.087325715 0.33313143 1.6980001
-0.084487624 0.33470097 1.7060001
-0.080857143 0.33313143 1.6980001
-0.077988572 0.33470097 1.7060001
-0.074388571 0.33313143 1.6980001
-0.071154289 0.33313143 1.6980001
-0.069280006 0.33980191 1.7320001
-0.065638095 0.33803621 1.723
-0.062356193 0.33803621 1.723
-0.059074286 0.33803621 1.723
-0.028236192 0.36354098 1.853
-0.024706667 0.36354098 1.853
-0.021291429 0.36550286 1.863
-0.017742857 0.36550286 1.863
-0.014194286 0.36550286 1.863
-0.010588571 0.36354098 1.853
-0.0070590479 0.36354098 1.853
-0.0035104763 0.36157906 1.8430001
0 0.35961714 1.8330001
0.0034914287 0.35961714 1.8330001
0.0069485717 0.35785145 1.8240001
0.010422857 0.35785145 1.8240001
0.013897143 0.35785145 1.8240001
0.019497143 0.33470097 1.7060001
0.022746667 0.33470097 1.7060001
0.025996191 0.33470097 1.7060001
0.050742857 0.32665715 1.6650001
0.053914286 0.32665715 1.6650001
0.05681143 0.32508764 1.6570001
0.059967622 0.32508764 1.6570001
0.063123815 0.32508764 1.6570001
0.06628 0.32508764 1.6570001
0.069436193 0.32508764 1.6570001
0.072592385 0.32508764 1.6570001
0.075382859 0.3235181 1.649
0.078523815 0.3235181 1.649
0.14350668 0.31449336 1.603
0.14656 0.31449336 1.603
0.14896001 0.31312001 1.5960001
0.15200001 0.31312001 1.5960001
0.15504001 0.31312001 1.5960001
0.15808001 0.31312001 1.5960001
0.16112001 0.31312001 1.5960001
0.16416001 0.31312001 1.5960001
0.1672 0.31312001 1.5960001
0.17024 0.31312001 1.5960001
0.17328 0.31312001 1.5960001
0.17632 0.31312001 1.5960001
0.17936 0.31312001 1.5960001
0.18845715 0.3235181 1.649
0.1915981 0.3235181 1.649
-0.28 0.34666669 1.7500001
-0.27666667 0.34666669 1.7500001
-0.27052191 0.34310097 1.7320001
-0.27000001 0.34666669 1.7500001
-0.26666668 0.34666669 1.7500001
-0.26333335 0.34666669 1.7500001
-0.26133716 0.34844953 1.7590001
-0.25798666 0.34844953 1.7590001
-0.2546362 0.34844953 1.7590001
-0.25128573 0.34844953 1.7590001
-0.24920382 0.35023239 1.7680001
-0.24458477 0.34844953 1.7590001
-0.24246858 0.35023239 1.7680001
-0.23910096 0.35023239 1.7680001
-0.23573335 0.35023239 1.7680001
-0.23354858 0.35201526 1.7770001
-0.23249525 0.35558096 1.7950001
-0.22907619 0.35558096 1.7950001
-0.22565715 0.35558096 1.7950001
-0.22223811 0.35558096 1.7950001
-0.19565524 0.34488383 1.7410001
-0.19233905 0.34488383 1.7410001
-0.18804573 0.34310097 1.7320001
-0.18570668 0.34488383 1.7410001
-0.18239048 0.34488383 1.7410001
-0.17814858 0.34310097 1.7320001
-0.17484953 0.34310097 1.7320001
-0.17155048 0.34310097 1.7320001
-0.16737714 0.3413181 1.723
-0.16409524 0.3413181 1.723
-0.12061714 0.34844953 1.7590001
-0.11726667 0.34844953 1.7590001
-0.1139162 0.34844953 1.7590001
-0.11000001 0.34666669 1.7500001
-0.10666667 0.34666669 1.7500001
-0.10333334 0.34666669 1.7500001
-0.1 0.34666669 1.7500001
-0.095672384 0.34310097 1.7320001
-0.092373334 0.34310097 1.7320001
-0.088200003 0.33973333 1.715
-0.084933333 0.33973333 1.715
-0.081238098 0.3379505 1.7060001
-0.07876572 0.3413181 1.723
-0.075483814 0.3413181 1.723
-0.073333338 0.34666669 1.7500001
-0.069280006 0.34310097 1.7320001
-0.065638095 0.3413181 1.723
-0.062356193 0.3413181 1.723
-0.059074286 0.3413181 1.723
-0.032280002 0.37301335 1.8830001
-0.028236192 0.3670705 1.853
-0.024706667 0.3670705 1.853
-0.021177143 0.3670705 1.853
-0.01764762 0.3670705 1.853
-0.014118096 0.3670705 1.853
-0.010588571 0.3670705 1.853
-0.0070209526 0.36508954 1.8430001
-0.0035104763 0.36508954 1.8430001
0 0.36310858 1.8330001
0.0034742858 0.36132574 1.8240001
0.0069104764 0.35934478 1.8140001
0.010365714 0.35934478 1.8140001
0.013820953 0.35934478 1.8140001
0.019497143 0.3379505 1.7060001
0.022746667 0.3379505 1.7060001
0.026133334 0.33973333 1.715
0.0294 0.33973333 1.715
0.032666668 0.33973333 1.715
0.035933334 0.33973333 1.715
0.0392 0.33973333 1.715
0.05098667 0.33141336 1.6730001
0.053914286 0.32982859 1.6650001
0.057085715 0.32982859 1.6650001
0.059967622 0.32824382 1.6570001
0.063123815 0.32824382 1.6570001
0.06628 0.32824382 1.6570001
0.069436193 0.32824382 1.6570001
0.072592385 0.32824382 1.6570001
0.13680001 0.31616002 1.5960001
0.14045334 0.31754667 1.603
0.14350668 0.31754667 1.603
0.14592001 0.31616002 1.5960001
0.14896001 0.31616002 1.5960001
0.15200001 0.31616002 1.5960001
0.15504001 0.31616002 1.5960001
0.15738668 0.31477335 1.5890001
0.16112001 0.31616002 1.5960001
0.16416001 0.31616002 1.5960001
0.1672 0.31616002 1.5960001
0.17024 0.31616002 1.5960001
0.17328 0.31616002 1.5960001
0.17709334 0.31754667 1.603
0.18014668 0.31754667 1.603
0.18845715 0.32665905 1.649
0.1915981 0.32665905 1.649
-0.27052191 0.34640002 1.7320001
-0.27000001 0.35000002 1.7500001
-0.26666668 0.35000002 1.7500001
-0.26468763 0.35180002 1.7590001
-0.26133716 0.35180002 1.7590001
-0.25798666 0.35180002 1.7590001
-0.2546362 0.35180002 1.7590001
-0.25257143 0.35360003 1.7680001
-0.24793525 0.35180002 1.7590001
-0.24458477 0.35180002 1.7590001
-0.24123429 0.35180002 1.7590001
-0.23788382 0.35180002 1.7590001
-0.23573335 0.35360003 1.7680001
-0.23236573 0.35360003 1.7680001
-0.22899811 0.35360003 1.7680001
-0.22563048 0.35360003 1.7680001
-0.22226286 0.35360003 1.7680001
-0.21889524 0.35360003 1.7680001
-0.19565524 0.34820002 1.7410001
-0.19233905 0.34820002 1.7410001
-0.18804573 0.34640002 1.7320001
-0.18474667 0.34640002 1.7320001
-0.18239048 0.34820002 1.7410001
-0.17814858 0.34640002 1.7320001
-0.17484953 0.34640002 1.7320001
-0.17155048 0.34640002 1.7320001
-0.12061714 0.35180002 1.7590001
-0.11726667 0.35180002 1.7590001
-0.11333334 0.35000002 1.7500001
-0.11000001 0.35000002 1.7500001
-0.1061181 0.34820002 1.7410001
-0.10280191 0.34820002 1.7410001
-0.099485718 0.34820002 1.7410001
-0.095672384 0.34640002 1.7320001
-0.092373334 0.34640002 1.7320001
-0.088611431 0.34460002 1.723
-0.085329525 0.34460002 1.723
-0.082047619 0.34460002 1.723
-0.080000006 0.35000002 1.7500001
-0.077455238 0.35360003 1.7680001
-0.073710479 0.35180002 1.7590001
-0.070360005 0.35180002 1.7590001
-0.066323809 0.34820002 1.7410001
-0.06528762 0.36080003 1.8040001
-0.062194288 0.3628 1.8140001
-0.058739051 0.3628 1.8140001
-0.032108571 0.37460002 1.8730001
-0.028236192 0.37060001 1.853
-0.024573334 0.36860001 1.8430001
-0.021062858 0.36860001 1.8430001
-0.01764762 0.37060001 1.853
-0.014118096 0.37060001 1.853
-0.010531429 0.36860001 1.8430001
-0.0070209526 0.36860001 1.8430001
-0.0034914287 0.36660001 1.8330001
0 0.36660001 1.8330001
0.0034552382 0.3628 1.8140001
0.0069104764 0.3628 1.8140001
0.010257144 0.35900003 1.7950001
0.013676191 0.35900003 1.7950001
0.017095238 0.35900003 1.7950001
0.019497143 0.34120002 1.7060001
0.022866668 0.34300002 1.715
0.026133334 0.34300002 1.715
0.029537143 0.34460002 1.723
0.032666668 0.34300002 1.715
0.035933334 0.34300002 1.715
0.0392 0.34300002 1.715
0.042466667 0.34300002 1.715
0.045280002 0.33960003 1.6980001
0.048285715 0.338 1.6900001
0.051230479 0.3362 1.6810001
0.053914286 0.333 1.6650001
0.057085715 0.333 1.6650001
0.060257144 0.333 1.6650001
0.063428573 0.333 1.6650001
0.066600002 0.333 1.6650001
0.069771431 0.333 1.6650001
0.13194858 0.3222 1.6110001
0.13501714 0.3222 1.6110001
0.13808572 0.3222 1.6110001
0.14045334 0.3206 1.603
0.14350668 0.3206 1.603
0.14656 0.3206 1.603
0.14896001 0.31920001 1.5960001
0.15200001 0.31920001 1.5960001
0.15436001 0.31780002 1.5890001
0.15738668 0.31780002 1.5890001
0.16112001 0.31920001 1.5960001
0.16416001 0.31920001 1.5960001
0.1672 0.31920001 1.5960001
0.17024 0.31920001 1.5960001
0.17328 0.31920001 1.5960001
0.17632 0.31920001 1.5960001
0.18014668 0.3206 1.603
-0.26861143 0.35151622 1.7410001
-0.26666668 0.35333335 1.7500001
-0.26468763 0.35515049 1.7590001
-0.26133716 0.35515049 1.7590001
-0.25798666 0.35515049 1.7590001
-0.2546362 0.35515049 1.7590001
-0.25257143 0.35696763 1.7680001
-0.24793525 0.35515049 1.7590001
-0.24458477 0.35515049 1.7590001
-0.24000001 0.35333335 1.7500001
-0.23666668 0.35333335 1.7500001
-0.23333335 0.35333335 1.7500001
-0.23 0.35333335 1.7500001
-0.22666667 0.35333335 1.7500001
-0.22448191 0.35515049 1.7590001
-0.22113144 0.35515049 1.7590001
-0.21778096 0.35515049 1.7590001
-0.21552762 0.35696763 1.7680001
-0.21216001 0.35696763 1.7680001
-0.20666668 0.35333335 1.7500001
-0.20228763 0.35151622 1.7410001
-0.19897144 0.35151622 1.7410001
-0.19233905 0.35151622 1.7410001
-0.18804573 0.34969905 1.7320001
-0.18474667 0.34969905 1.7320001
-0.12 0.35333335 1.7500001
-0.11666667 0.35333335 1.7500001
-0.11333334 0.35333335 1.7500001
-0.11000001 0.35333335 1.7500001
-0.10666667 0.35333335 1.7500001
-0.10333334 0.35333335 1.7500001
-0.1 0.35333335 1.7500001
-0.096666671 0.35333335 1.7500001
-0.093333334 0.35333335 1.7500001
-0.090000004 0.35333335 1.7500001
-0.086666673 0.35333335 1.7500001
-0.083761908 0.35515049 1.7590001
-0.080822863 0.35696763 1.7680001
-0.07784953 0.35878477 1.7770001
-0.074464768 0.35878477 1.7770001
-0.071079999 0.35878477 1.7770001
-0.068723813 0.36423621 1.8040001
-0.06528762 0.36423621 1.8040001
-0.062194288 0.36625525 1.8140001
-0.058739051 0.36625525 1.8140001
-0.055588573 0.3682743 1.8240001
-0.052114289 0.3682743 1.8240001
-0.031594288 0.37211049 1.8430001
-0.028083811 0.37211049 1.8430001
-0.024573334 0.37211049 1.8430001
-0.021062858 0.37211049 1.8430001
-0.017552381 0.37211049 1.8430001
-0.014041905 0.37211049 1.8430001
-0.010531429 0.37211049 1.8430001
-0.0070209526 0.37211049 1.8430001
-0.0034914287 0.37009144 1.8330001
0 0.3682743 1.8240001
0.0034552382 0.36625525 1.8140001
0.0069104764 0.36625525 1.8140001
0.010257144 0.36241907 1.7950001
0.013676191 0.36241907 1.7950001
0.017009525 0.36060193 1.7860001
0.0196 0.34626669 1.715
0.022866668 0.34626669 1.715
0.026133334 0.34626669 1.715
0.029537143 0.34788191 1.723
0.032666668 0.34626669 1.715
0.035933334 0.34626669 1.715
0.0392 0.34626669 1.715
0.042466667 0.34626669 1.715
0.045493335 0.34444955 1.7060001
0.048514288 0.34283429 1.6980001
0.051230479 0.33940193 1.6810001
0.053914286 0.33617145 1.6650001
0.05681143 0.33455619 1.6570001
0.059967622 0.33455619 1.6570001
0.063428573 0.33617145 1.6650001
0.066600002 0.33617145 1.6650001
0.069771431 0.33617145 1.6650001
0.13194858 0.3252686 1.6110001
0.13434668 0.32365334 1.603
0.13808572 0.3252686 1.6110001
0.14045334 0.32365334 1.603
0.14350668 0.32365334 1.603
0.14656 0.32365334 1.603
0.14896001 0.32224002 1.5960001
0.15200001 0.32224002 1.5960001
0.15504001 0.32224002 1.5960001
0.15738668 0.32082668 1.5890001
0.16112001 0.32224002 1.5960001
0.16416001 0.32224002 1.5960001
0.1672 0.32224002 1.5960001
0.17024 0.32224002 1.5960001
0.17328 0.32224002 1.5960001
0.17632 0.32224002 1.5960001
-0.26861143 0.35483238 1.7410001
-0.26666668 0.35666668 1.7500001
-0.26468763 0.35850096 1.7590001
-0.26133716 0.35850096 1.7590001
-0.25798666 0.35850096 1.7590001
-0.2546362 0.35850096 1.7590001
-0.25128573 0.35850096 1.7590001
-0.24793525 0.35850096 1.7590001
-0.24458477 0.35850096 1.7590001
-0.23876572 0.35483238 1.7410001
-0.2342324 0.35299811 1.7320001
-0.23213334 0.35483238 1.7410001
-0.23 0.35666668 1.7500001
-0.22666667 0.35666668 1.7500001
-0.22333334 0.35666668 1.7500001
-0.22000001 0.35666668 1.7500001
-0.21778096 0.35850096 1.7590001
-0.21443048 0.35850096 1.7590001
-0.21108001 0.35850096 1.7590001
-0.20666668 0.35666668 1.7500001
-0.20124191 0.35299811 1.7320001
-0.19794287 0.35299811 1.7320001
-0.19464381 0.35299811 1.7320001
-0.19035049 0.35116383 1.723
-0.18706858 0.35116383 1.723
-0.18378668 0.35116383 1.723
-0.12601525 0.35483238 1.7410001
-0.12269905 0.35483238 1.7410001
-0.12 0.35666668 1.7500001
-0.11666667 0.35666668 1.7500001
-0.11333334 0.35666668 1.7500001
-0.11000001 0.35666668 1.7500001
-0.10666667 0.35666668 1.7500001
-0.10333334 0.35666668 1.7500001
-0.10051429 0.35850096 1.7590001
-0.097163811 0.35850096 1.7590001
-0.093813337 0.35850096 1.7590001
-0.090462863 0.35850096 1.7590001
-0.087112382 0.35850096 1.7590001
-0.08419048 0.36033526 1.7680001
-0.081234291 0.36216953 1.7770001
-0.078243814 0.36400384 1.7860001
-0.074841909 0.36400384 1.7860001
-0.071440004 0.36400384 1.7860001
-0.068380952 0.36583811 1.7950001
-0.06528762 0.36767238 1.8040001
-0.061851431 0.36767238 1.8040001
-0.058415242 0.36767238 1.8040001
-0.055283811 0.36971048 1.8140001
-0.051828574 0.36971048 1.8140001
-0.048106667 0.36767238 1.8040001
-0.044670478 0.36767238 1.8040001
-0.034914289 0.37358287 1.8330001
-0.031594288 0.37562096 1.8430001
-0.027931429 0.37358287 1.8330001
-0.024440002 0.37358287 1.8330001
-0.020948572 0.37358287 1.8330001
-0.017552381 0.37562096 1.8430001
-0.014041905 0.37562096 1.8430001
-0.010531429 0.37562096 1.8430001
-0.0070590479 0.37765905 1.853
-0.0035104763 0.37562096 1.8430001
0 0.37358287 1.8330001
0.0034552382 0.36971048 1.8140001
0.0069104764 0.36971048 1.8140001
0.010308572 0.36767238 1.8040001
0.013676191 0.36583811 1.7950001
0.017009525 0.36400384 1.7860001
0.020000001 0.35666668 1.7500001
0.022866668 0.34953335 1.715
0.026133334 0.34953335 1.715
0.0294 0.34953335 1.715
0.032666668 0.34953335 1.715
0.035933334 0.34953335 1.715
0.0392 0.34953335 1.715
0.042466667 0.34953335 1.715
0.045493335 0.34769905 1.7060001
0.048742861 0.34769905 1.7060001
0.051504765 0.34443811 1.6900001
0.05472381 0.34443811 1.6900001
0.05681143 0.33771241 1.6570001
0.059967622 0.33771241 1.6570001
0.063428573 0.33934286 1.6650001
0.066600002 0.33934286 1.6650001
0.13194858 0.32833716 1.6110001
0.13434668 0.32670668 1.603
0.1374 0.32670668 1.603
0.14045334 0.32670668 1.603
0.14288001 0.32528001 1.5960001
0.14592001 0.32528001 1.5960001
0.14896001 0.32528001 1.5960001
0.15200001 0.32528001 1.5960001
0.15504001 0.32528001 1.5960001
0.15808001 0.32528001 1.5960001
0.16112001 0.32528001 1.5960001
0.16416001 0.32528001 1.5960001
0.1672 0.32528001 1.5960001
0.17024 0.32528001 1.5960001
0.17328 0.32528001 1.5960001
0.17632 0.32528001 1.5960001
-0.26468763 0.36185145 1.7590001
-0.26133716 0.36185145 1.7590001
-0.25798666 0.36185145 1.7590001
-0.2546362 0.36185145 1.7590001
-0.25257143 0.36370286 1.7680001
-0.24793525 0.36185145 1.7590001
-0.24208191 0.35814857 1.7410001
-0.23753144 0.35629717 1.7320001
-0.2342324 0.35629717 1.7320001
-0.23093334 0.35629717 1.7320001
-0.22881715 0.35814857 1.7410001
-0.22433525 0.35629717 1.7320001
-0.22218478 0.35814857 1.7410001
-0.21886858 0.35814857 1.7410001
-0.21666667 0.36000001 1.7500001
-0.21443048 0.36185145 1.7590001
-0.21000001 0.36000001 1.7500001
-0.20454095 0.35629717 1.7320001
-0.20124191 0.35629717 1.7320001
-0.1969143 0.35444573 1.723
-0.19363239 0.35444573 1.723
-0.19035049 0.35444573 1.723
-0.18706858 0.35444573 1.723
-0.18378668 0.35444573 1.723
-0.12536381 0.35629717 1.7320001
-0.12333333 0.36000001 1.7500001
-0.12 0.36000001 1.7500001
-0.11666667 0.36000001 1.7500001
-0.11333334 0.36000001 1.7500001
-0.11000001 0.36000001 1.7500001
-0.10666667 0.36000001 1.7500001
-0.10333334 0.36000001 1.7500001
-0.10051429 0.36185145 1.7590001
-0.097163811 0.36185145 1.7590001
-0.093813337 0.36185145 1.7590001
-0.090925716 0.36370286 1.7680001
-0.087558098 0.36370286 1.7680001
-0.084619053 0.3655543 1.7770001
-0.081234291 0.3655543 1.7770001
-0.078243814 0.36740574 1.7860001
-0.074841909 0.36740574 1.7860001
-0.071440004 0.36740574 1.7860001
-0.068380952 0.36925715 1.7950001
-0.06496191 0.36925715 1.7950001
-0.061851431 0.37110859 1.8040001
-0.058415242 0.37110859 1.8040001
-0.055283811 0.37316573 1.8140001
-0.051828574 0.37316573 1.8140001
-0.048106667 0.37110859 1.8040001
-0.044918098 0.37316573 1.8140001
-0.041462857 0.37316573 1.8140001
-0.038217146 0.37522286 1.8240001
-0.034742858 0.37522286 1.8240001
-0.031422857 0.3770743 1.8330001
-0.028083811 0.37913144 1.8430001
-0.024573334 0.37913144 1.8430001
-0.021062858 0.37913144 1.8430001
-0.017457144 0.3770743 1.8330001
-0.013965715 0.3770743 1.8330001
-0.010531429 0.37913144 1.8430001
-0.0070590479 0.38118857 1.853
-0.0035104763 0.37913144 1.8430001
0 0.3770743 1.8330001
0.0034914287 0.3770743 1.8330001
0.0069485717 0.37522286 1.8240001
0.010365714 0.37316573 1.8140001
0.013820953 0.37316573 1.8140001
0.017095238 0.36925715 1.7950001
0.020514287 0.36925715 1.7950001
0.022973334 0.35444573 1.723
0.026255239 0.35444573 1.723
0.0294 0.35280001 1.715
0.032666668 0.35280001 1.715
0.035933334 0.35280001 1.715
0.0392 0.35280001 1.715
0.042466667 0.35280001 1.715
0.045733336 0.35280001 1.715
0.048742861 0.35094857 1.7060001
0.051504765 0.34765714 1.6900001
0.05472381 0.34765714 1.6900001
0.13194858 0.33140573 1.6110001
0.13376001 0.32832003 1.5960001
0.1374 0.32976002 1.603
0.14045334 0.32976002 1.603
0.14350668 0.32976002 1.603
0.14656 0.32976002 1.603
0.14896001 0.32832003 1.5960001
0.15200001 0.32832003 1.5960001
0.15504001 0.32832003 1.5960001
0.15808001 0.32832003 1.5960001
0.16112001 0.32832003 1.5960001
0.16416001 0.32832003 1.5960001
0.1672 0.32832003 1.5960001
0.17024 0.32832003 1.5960001
0.17328 0.32832003 1.5960001
0.17632 0.32832003 1.5960001
-0.25257143 0.3670705 1.7680001
-0.24793525 0.36520192 1.7590001
-0.24083048 0.35959619 1.7320001
-0.23753144 0.35959619 1.7320001
-0.23301524 0.35772765 1.723
-0.23093334 0.35959619 1.7320001
-0.2276343 0.35959619 1.7320001
-0.22433525 0.35959619 1.7320001
-0.2210362 0.35959619 1.7320001
-0.21886858 0.36146477 1.7410001
-0.21666667 0.36333334 1.7500001
-0.21333334 0.36333334 1.7500001
-0.21000001 0.36333334 1.7500001
-0.20454095 0.35959619 1.7320001
-0.20124191 0.35959619 1.7320001
-0.1969143 0.35772765 1.723
-0.19363239 0.35772765 1.723
-0.19035049 0.35772765 1.723
-0.18706858 0.35772765 1.723
-0.18378668 0.35772765 1.723
-0.13196191 0.35959619 1.7320001
-0.12866285 0.35959619 1.7320001
-0.12536381 0.35959619 1.7320001
-0.12269905 0.36146477 1.7410001
-0.11938286 0.36146477 1.7410001
-0.11606667 0.36146477 1.7410001
-0.11333334 0.36333334 1.7500001
-0.11000001 0.36333334 1.7500001
-0.10666667 0.36333334 1.7500001
-0.10333334 0.36333334 1.7500001
-0.10051429 0.36520192 1.7590001
-0.097163811 0.36520192 1.7590001
-0.094293334 0.3670705 1.7680001
-0.090925716 0.3670705 1.7680001
-0.087558098 0.3670705 1.7680001
-0.084619053 0.36893907 1.7770001
-0.081234291 0.36893907 1.7770001
-0.078243814 0.37080762 1.7860001
-0.074841909 0.37080762 1.7860001
-0.071440004 0.37080762 1.7860001
-0.068380952 0.37267619 1.7950001
-0.06496191 0.37267619 1.7950001
-0.061851431 0.37454477 1.8040001
-0.058415242 0.37454477 1.8040001
-0.055283811 0.37662098 1.8140001
-0.051828574 0.37662098 1.8140001
-0.048106667 0.37454477 1.8040001
-0.044918098 0.37662098 1.8140001
-0.04169143 0.37869716 1.8240001
-0.038217146 0.37869716 1.8240001
-0.034914289 0.38056573 1.8330001
-0.031422857 0.38056573 1.8330001
-0.027931429 0.38056573 1.8330001
-0.024573334 0.38264191 1.8430001
-0.021062858 0.38264191 1.8430001
-0.017552381 0.38264191 1.8430001
-0.014041905 0.38264191 1.8430001
-0.010531429 0.38264191 1.8430001
-0.0070590479 0.38471812 1.853
-0.0035104763 0.38264191 1.8430001
0 0.38056573 1.8330001
0.0034914287 0.38056573 1.8330001
0.0069828574 0.38056573 1.8330001
0.010422857 0.37869716 1.8240001
0.013820953 0.37662098 1.8140001
0.01727619 0.37662098 1.8140001
0.020731429 0.37662098 1.8140001
0.022866668 0.35606667 1.715
0.026133334 0.35606667 1.715
0.0294 0.35606667 1.715
0.032666668 0.35606667 1.715
0.035744764 0.3541981 1.7060001
0.038994286 0.3541981 1.7060001
0.042243812 0.3541981 1.7060001
0.045733336 0.35606667 1.715
0.13376001 0.33136001 1.5960001
0.13868572 0.33592764 1.618
0.14115429 0.3344743 1.6110001
0.14350668 0.33281335 1.603
0.14656 0.33281335 1.603
0.14961334 0.33281335 1.603
0.15200001 0.33136001 1.5960001
0.15504001 0.33136001 1.5960001
0.15808001 0.33136001 1.5960001
0.16112001 0.33136001 1.5960001
0.16416001 0.33136001 1.5960001
0.1672 0.33136001 1.5960001
0.17024 0.33136001 1.5960001
-0.24793525 0.36855239 1.7590001
-0.24083048 0.36289525 1.7320001
-0.23629715 0.36100954 1.723
-0.23301524 0.36100954 1.723
-0.23093334 0.36289525 1.7320001
-0.2276343 0.36289525 1.7320001
-0.22316954 0.36100954 1.723
-0.2210362 0.36289525 1.7320001
-0.21773715 0.36289525 1.7320001
-0.21555239 0.36478096 1.7410001
-0.21333334 0.36666667 1.7500001
-0.20892 0.36478096 1.7410001
-0.20454095 0.36289525 1.7320001
-0.20019619 0.36100954 1.723
-0.1969143 0.36100954 1.723
-0.19363239 0.36100954 1.723
-0.19035049 0.36100954 1.723
-0.18620001 0.35933334 1.715
-0.18293335 0.35933334 1.715
-0.14440382 0.36100954 1.723
-0.14112191 0.36100954 1.723
-0.13666667 0.36666667 1.7500001
-0.13333334 0.36666667 1.7500001
-0.12933144 0.36478096 1.7410001
-0.12601525 0.36478096 1.7410001
-0.12269905 0.36478096 1.7410001
-0.11938286 0.36478096 1.7410001
-0.11606667 0.36478096 1.7410001
-0.11275048 0.36478096 1.7410001
-0.10943429 0.36478096 1.7410001
-0.10666667 0.36666667 1.7500001
-0.10333334 0.36666667 1.7500001
-0.10051429 0.36855239 1.7590001
-0.097163811 0.36855239 1.7590001
-0.093813337 0.36855239 1.7590001
-0.090925716 0.3704381 1.7680001
-0.087558098 0.3704381 1.7680001
-0.084619053 0.37232381 1.7770001
-0.081234291 0.37232381 1.7770001
-0.07784953 0.37232381 1.7770001
-0.074464768 0.37232381 1.7770001
-0.071440004 0.37420952 1.7860001
-0.068038099 0.37420952 1.7860001
-0.06528762 0.37798098 1.8040001
-0.061542861 0.37609527 1.7950001
-0.058415242 0.37798098 1.8040001
-0.055588573 0.38217145 1.8240001
-0.051828574 0.3800762 1.8140001
-0.048373334 0.3800762 1.8140001
-0.045165718 0.38217145 1.8240001
-0.04169143 0.38217145 1.8240001
-0.038405716 0.38405716 1.8330001
-0.034914289 0.38405716 1.8330001
-0.031422857 0.38405716 1.8330001
-0.027931429 0.38405716 1.8330001
-0.024573334 0.38615239 1.8430001
-0.020948572 0.38405716 1.8330001
-0.017457144 0.38405716 1.8330001
-0.013965715 0.38405716 1.8330001
-0.010531429 0.38615239 1.8430001
-0.0070590479 0.38824764 1.853
-0.0035104763 0.38615239 1.8430001
0 0.38615239 1.8430001
0.0034914287 0.38405716 1.8330001
0.0070209526 0.38615239 1.8430001
0.010531429 0.38615239 1.8430001
0.013965715 0.38405716 1.8330001
0.017457144 0.38405716 1.8330001
0.020948572 0.38405716 1.8330001
0.022746667 0.35744762 1.7060001
0.025874287 0.35577145 1.6980001
0.029245716 0.35744762 1.7060001
0.032495238 0.35744762 1.7060001
0.035577144 0.35577145 1.6980001
0.03881143 0.35577145 1.6980001
0.042243812 0.35744762 1.7060001
0.13868572 0.33900952 1.618
0.14115429 0.33754286 1.6110001
0.14350668 0.33586669 1.603
0.14656 0.33586669 1.603
0.14961334 0.33586669 1.603
0.15200001 0.3344 1.5960001
0.15504001 0.3344 1.5960001
0.15808001 0.3344 1.5960001
0.16041334 0.33293334 1.5890001
0.16344 0.33293334 1.5890001
0.16646667 0.33293334 1.5890001
0.16949333 0.33293334 1.5890001
-0.23629715 0.36429143 1.723
-0.23301524 0.36429143 1.723
-0.23093334 0.36619431 1.7320001
-0.2276343 0.36619431 1.7320001
-0.22316954 0.36429143 1.723
-0.2210362 0.36619431 1.7320001
-0.21773715 0.36619431 1.7320001
-0.21555239 0.36809716 1.7410001
-0.21333334 0.37 1.7500001
-0.20892 0.36809716 1.7410001
-0.20454095 0.36619431 1.7320001
-0.20124191 0.36619431 1.7320001
-0.1969143 0.36429143 1.723
-0.19363239 0.36429143 1.723
-0.19035049 0.36429143 1.723
-0.18706858 0.36429143 1.723
-0.18378668 0.36429143 1.723
-0.18050477 0.36429143 1.723
-0.17722286 0.36429143 1.723
-0.14622858 0.36069715 1.7060001
-0.14440382 0.36429143 1.723
-0.14112191 0.36429143 1.723
-0.13928001 0.36809716 1.7410001
-0.13596381 0.36809716 1.7410001
-0.13196191 0.36619431 1.7320001
-0.12866285 0.36619431 1.7320001
-0.12536381 0.36619431 1.7320001
-0.12206477 0.36619431 1.7320001
-0.11876572 0.36619431 1.7320001
-0.11546667 0.36619431 1.7320001
-0.11275048 0.36809716 1.7410001
-0.10943429 0.36809716 1.7410001
-0.1061181 0.36809716 1.7410001
-0.10333334 0.37 1.7500001
-0.10051429 0.37190288 1.7590001
-0.097163811 0.37190288 1.7590001
-0.093813337 0.37190288 1.7590001
-0.090462863 0.37190288 1.7590001
-0.087558098 0.37380573 1.7680001
-0.08419048 0.37380573 1.7680001
-0.080822863 0.37380573 1.7680001
-0.07784953 0.37570858 1.7770001
-0.074464768 0.37570858 1.7770001
-0.071440004 0.37761143 1.7860001
-0.068380952 0.37951431 1.7950001
-0.06496191 0.37951431 1.7950001
-0.061542861 0.37951431 1.7950001
-0.058123812 0.37951431 1.7950001
-0.055588573 0.38564572 1.8240001
-0.052114289 0.38564572 1.8240001
-0.048373334 0.38353145 1.8140001
-0.045388572 0.3875486 1.8330001
-0.04169143 0.38564572 1.8240001
-0.038405716 0.3875486 1.8330001
-0.034914289 0.3875486 1.8330001
-0.031422857 0.3875486 1.8330001
-0.028083811 0.38966286 1.8430001
-0.024573334 0.38966286 1.8430001
-0.021062858 0.38966286 1.8430001
-0.017552381 0.38966286 1.8430001
-0.014041905 0.38966286 1.8430001
-0.010531429 0.38966286 1.8430001
-0.0070971432 0.39389145 1.863
-0.003529524 0.39177716 1.853
0 0.38966286 1.8430001
0.0035104763 0.38966286 1.8430001
0.0070209526 0.38966286 1.8430001
0.010588571 0.39177716 1.853
0.014118096 0.39177716 1.853
0.017457144 0.3875486 1.8330001
0.020948572 0.3875486 1.8330001
0.022746667 0.36069715 1.7060001
0.025874287 0.35900572 1.6980001
0.029245716 0.36069715 1.7060001
0.032495238 0.36069715 1.7060001
0.035577144 0.35900572 1.6980001
0.03881143 0.35900572 1.6980001
0.13868572 0.34209144 1.618
0.14115429 0.34061143 1.6110001
0.14422286 0.34061143 1.6110001
0.14656 0.33892003 1.603
0.14961334 0.33892003 1.603
0.15200001 0.33744001 1.5960001
0.15504001 0.33744001 1.5960001
0.15808001 0.33744001 1.5960001
0.16041334 0.33596 1.5890001
0.16344 0.33596 1.5890001
0.16646667 0.33596 1.5890001
0.16949333 0.33596 1.5890001
-0.21773715 0.36949334 1.7320001
-0.21555239 0.37141335 1.7410001
-0.2122362 0.37141335 1.7410001
-0.20784001 0.36949334 1.7320001
-0.20454095 0.36949334 1.7320001
-0.20019619 0.36757335 1.723
-0.1969143 0.36757335 1.723
-0.19363239 0.36757335 1.723
-0.19035049 0.36757335 1.723
-0.18706858 0.36757335 1.723
-0.18378668 0.36757335 1.723
-0.18050477 0.36757335 1.723
-0.17722286 0.36757335 1.723
-0.17484953 0.36949334 1.7320001
-0.17155048 0.36949334 1.7320001
-0.16825144 0.36949334 1.7320001
-0.16495238 0.36949334 1.7320001
-0.16006668 0.36586669 1.715
-0.1568 0.36586669 1.715
-0.15424953 0.36757335 1.723
-0.15026668 0.36586669 1.715
-0.14622858 0.36394668 1.7060001
-0.14373334 0.36586669 1.715
-0.14112191 0.36757335 1.723
-0.13784 0.36757335 1.723
-0.13526095 0.36949334 1.7320001
-0.13196191 0.36949334 1.7320001
-0.12866285 0.36949334 1.7320001
-0.12601525 0.37141335 1.7410001
-0.12269905 0.37141335 1.7410001
-0.11876572 0.36949334 1.7320001
-0.11606667 0.37141335 1.7410001
-0.11275048 0.37141335 1.7410001
-0.10943429 0.37141335 1.7410001
-0.10666667 0.37333333 1.7500001
-0.10333334 0.37333333 1.7500001
-0.10051429 0.37525335 1.7590001
-0.097163811 0.37525335 1.7590001
-0.093813337 0.37525335 1.7590001
-0.090462863 0.37525335 1.7590001
-0.087112382 0.37525335 1.7590001
-0.08419048 0.37717333 1.7680001
-0.080822863 0.37717333 1.7680001
-0.07784953 0.37909335 1.7770001
-0.074841909 0.38101333 1.7860001
-0.071440004 0.38101333 1.7860001
-0.068380952 0.38293335 1.7950001
-0.06496191 0.38293335 1.7950001
-0.061542861 0.38293335 1.7950001
-0.058123812 0.38293335 1.7950001
-0.055588573 0.38912001 1.8240001
-0.052371431 0.39104003 1.8330001
-0.048640002 0.38912001 1.8240001
-0.045165718 0.38912001 1.8240001
-0.04169143 0.38912001 1.8240001
-0.038405716 0.39104003 1.8330001
-0.034914289 0.39104003 1.8330001
-0.031422857 0.39104003 1.8330001
-0.028083811 0.39317334 1.8430001
-0.024840001 0.39744002 1.863
-0.021291429 0.39744002 1.863
-0.017742857 0.39744002 1.863
-0.014041905 0.39317334 1.8430001
-0.010531429 0.39317334 1.8430001
-0.0070209526 0.39317334 1.8430001
-0.0035485716 0.39744002 1.863
0 0.39530668 1.853
0.003529524 0.39530668 1.853
0.0070590479 0.39530668 1.853
0.010588571 0.39530668 1.853
0.014194286 0.39744002 1.863
0.017742857 0.39744002 1.863
0.020948572 0.39104003 1.8330001
0.13868572 0.34517336 1.618
0.14115429 0.34368002 1.6110001
0.14422286 0.34368002 1.6110001
0.14729144 0.34368002 1.6110001
0.15036 0.34368002 1.6110001
0.15342858 0.34368002 1.6110001
0.15649715 0.34368002 1.6110001
0.15808001 0.34048 1.5960001
0.16041334 0.33898667 1.5890001
0.16344 0.33898667 1.5890001
0.16646667 0.33898667 1.5890001
-0.21660572 0.37085524 1.723
-0.2144381 0.37279239 1.7320001
-0.21113905 0.37279239 1.7320001
-0.20784001 0.37279239 1.7320001
-0.20454095 0.37279239 1.7320001
-0.20019619 0.37085524 1.723
-0.1969143 0.37085524 1.723
-0.19363239 0.37085524 1.723
-0.19035049 0.37085524 1.723
-0.18706858 0.37085524 1.723
-0.18378668 0.37085524 1.723
-0.18144763 0.37279239 1.7320001
-0.17814858 0.37279239 1.7320001
-0.17484953 0.37279239 1.7320001
-0.17244191 0.37472954 1.7410001
