# .PCD v0.7 - Point Cloud Data file format
VERSION 0.7
FIELDS x y z
SIZE 4 4 4
TYPE F F F
COUNT 1 1 1
WIDTH 1509
HEIGHT 1
VIEWPOINT 0 0 0 1 0 0 0
POINTS 1509
DATA ascii
-0.29090285 0.6713143 1.9580001
-0.28717333 0.6713143 1.9580001
-0.28344381 0.6713143 1.9580001
-0.27971429 0.6713143 1.9580001
-0.27598476 0.6713143 1.9580001
-0.27225524 0.6713143 1.9580001
-0.27003428 0.67508572 1.9690001
-0.26628381 0.67508572 1.9690001
-0.26253334 0.67508572 1.9690001
-0.25878286 0.67508572 1.9690001
-0.25503239 0.67508572 1.9690001
-0.25268573 0.67885715 1.9800001
-0.24753144 0.67508572 1.9690001
-0.24378096 0.67508572 1.9690001
-0.23868953 0.6713143 1.9580001
-0.23364002 0.66754287 1.9470001
-0.22863239 0.66377145 1.9360001
-0.22622287 0.66754287 1.9470001
-0.22251429 0.66754287 1.9470001
-0.21880572 0.66754287 1.9470001
-0.21509714 0.66754287 1.9470001
-0.21258287 0.6713143 1.9580001
-0.20885333 0.6713143 1.9580001
-0.20627619 0.67508572 1.9690001
-0.20252572 0.67508572 1.9690001
-0.19877525 0.67508572 1.9690001
-0.19502477 0.67508572 1.9690001
-0.19127429 0.67508572 1.9690001
-0.18752381 0.67508572 1.9690001
-0.18274668 0.6713143 1.9580001
-0.17901716 0.6713143 1.9580001
-0.17528762 0.6713143 1.9580001
-0.1715581 0.6713143 1.9580001
-0.16782857 0.6713143 1.9580001
-0.16409905 0.6713143 1.9580001
-0.16127048 0.67508572 1.9690001
-0.15752001 0.67508572 1.9690001
-0.15376952 0.67508572 1.9690001
-0.059062861 0.62537146 1.8240001
-0.055588573 0.62537146 1.8240001
-0.052114289 0.62537146 1.8240001
-0.048640002 0.62537146 1.8240001
-0.045165718 0.62537146 1.8240001
-0.04169143 0.62537146 1.8240001
-0.038217146 0.62537146 1.8240001
-0.034742858 0.62537146 1.8240001
-0.031268574 0.62537146 1.8240001
-0.028236192 0.63531429 1.853
0.063401908 0.6713143 1.9580001
0.06713143 0.6713143 1.9580001
0.07046286 0.66754287 1.9470001
0.073752381 0.66377145 1.9360001
0.077 0.66000003 1.9250001
0.080666669 0.66000003 1.9250001
0.083895244 0.65657145 1.9150001
0.087542862 0.65657145 1.9150001
0.09119048 0.65657145 1.9150001
0.094838098 0.65657145 1.9150001
0.098485716 0.65657145 1.9150001
0.10213333 0.65657145 1.9150001
0.10578096 0.65657145 1.9150001
0.10942858 0.65657145 1.9150001
0.11242667 0.65280002 1.904
0.11605334 0.65280002 1.904
0.11968 0.65280002 1.904
0.12265905 0.64937145 1.8940001
0.12626667 0.64937145 1.8940001
0.12987429 0.64937145 1.8940001
0.13270667 0.64560002 1.8830001
0.13629334 0.64560002 1.8830001
0.13988 0.64560002 1.8830001
0.14346667 0.64560002 1.8830001
0.14627239 0.64217144 1.8730001
0.14984001 0.64217144 1.8730001
0.15340762 0.64217144 1.8730001
0.15613715 0.63874286 1.863
0.15968572 0.63874286 1.863
0.16235811 0.63531429 1.853
0.16499239 0.63188577 1.8430001
0.16758858 0.62845719 1.8330001
0.17108001 0.62845719 1.8330001
0.19162287 0.63874286 1.863
0.19517143 0.63874286 1.863
0.19872001 0.63874286 1.863
0.23785524 0.73817146 2.1530001
0.2419562 0.73817146 2.1530001
0.24457143 0.73371434 2.1400001
0.24864763 0.73371434 2.1400001
0.25272381 0.73371434 2.1400001
0.2568 0.73371434 2.1400001
0.26087621 0.73371434 2.1400001
-0.33565715 0.68262857 1.9800001
-0.33389714 0.68676573 1.9920001
-0.33010286 0.68676573 1.9920001
-0.32630858 0.68676573 1.9920001
-0.32057145 0.68262857 1.9800001
-0.31504002 0.67883623 1.9690001
-0.31128955 0.67883623 1.9690001
-0.30582097 0.67504382 1.9580001
-0.30209145 0.67504382 1.9580001
-0.29836193 0.67504382 1.9580001
-0.29463241 0.67504382 1.9580001
-0.29090285 0.67504382 1.9580001
-0.28717333 0.67504382 1.9580001
-0.28344381 0.67504382 1.9580001
-0.27971429 0.67504382 1.9580001
-0.27598476 0.67504382 1.9580001
-0.27378479 0.67883623 1.9690001
-0.27003428 0.67883623 1.9690001
-0.26628381 0.67883623 1.9690001
-0.26253334 0.67883623 1.9690001
-0.25878286 0.67883623 1.9690001
-0.25503239 0.67883623 1.9690001
-0.25268573 0.68262857 1.9800001
-0.24753144 0.67883623 1.9690001
-0.24378096 0.67883623 1.9690001
-0.23868953 0.67504382 1.9580001
-0.23364002 0.67125148 1.9470001
-0.22863239 0.66745907 1.9360001
-0.22622287 0.67125148 1.9470001
-0.22251429 0.67125148 1.9470001
-0.21880572 0.67125148 1.9470001
-0.21509714 0.67125148 1.9470001
-0.21138857 0.67125148 1.9470001
-0.20885333 0.67504382 1.9580001
-0.20512381 0.67504382 1.9580001
-0.20139429 0.67504382 1.9580001
-0.19877525 0.67883623 1.9690001
-0.19502477 0.67883623 1.9690001
-0.19127429 0.67883623 1.9690001
-0.18752381 0.67883623 1.9690001
-0.18274668 0.67504382 1.9580001
-0.17901716 0.67504382 1.9580001
-0.17528762 0.67504382 1.9580001
-0.1715581 0.67504382 1.9580001
-0.16782857 0.67504382 1.9580001
-0.062537149 0.62884575 1.8240001
-0.059062861 0.62884575 1.8240001
-0.055588573 0.62884575 1.8240001
-0.051828574 0.6253981 1.8140001
-0.048373334 0.6253981 1.8140001
-0.044918098 0.6253981 1.8140001
-0.041462857 0.6253981 1.8140001
-0.038007621 0.6253981 1.8140001
-0.03455238 0.6253981 1.8140001
-0.031097144 0.6253981 1.8140001
0.066754289 0.67125148 1.9470001
0.07046286 0.67125148 1.9470001
0.073752381 0.66745907 1.9360001
0.077 0.66366667 1.9250001
0.080666669 0.66366667 1.9250001
0.083895244 0.66021907 1.9150001
0.087542862 0.66021907 1.9150001
0.09119048 0.66021907 1.9150001
0.094838098 0.66021907 1.9150001
0.098485716 0.66021907 1.9150001
0.10213333 0.66021907 1.9150001
0.10578096 0.66021907 1.9150001
0.1088 0.65642667 1.904
0.11242667 0.65642667 1.904
0.11605334 0.65642667 1.904
0.11905143 0.65297908 1.8940001
0.12265905 0.65297908 1.8940001
0.12553334 0.64918667 1.8830001
0.12912001 0.64918667 1.8830001
0.13270667 0.64918667 1.8830001
0.13629334 0.64918667 1.8830001
0.13988 0.64918667 1.8830001
0.14346667 0.64918667 1.8830001
0.14705335 0.64918667 1.8830001
0.14984001 0.64573908 1.8730001
0.15340762 0.64573908 1.8730001
0.15697524 0.64573908 1.8730001
0.15968572 0.64229143 1.863
0.16235811 0.63884383 1.853
0.16588762 0.63884383 1.853
0.16850287 0.63539624 1.8430001
0.17201334 0.63539624 1.8430001
0.19162287 0.64229143 1.863
0.19517143 0.64229143 1.863
0.19872001 0.64229143 1.863
0.20226859 0.64229143 1.863
0.20581715 0.64229143 1.863
0.2419562 0.74227244 2.1530001
0.24457143 0.73779052 2.1400001
0.24864763 0.73779052 2.1400001
0.25272381 0.73779052 2.1400001
0.2568 0.73779052 2.1400001
0.26246098 0.74227244 2.1530001
0.26656193 0.74227244 2.1530001
0.27066287 0.74227244 2.1530001
-0.33565715 0.6864 1.9800001
-0.33188573 0.6864 1.9800001
-0.3281143 0.6864 1.9800001
-0.32434288 0.6864 1.9800001
-0.3187905 0.68258667 1.9690001
-0.31504002 0.68258667 1.9690001
-0.31128955 0.68258667 1.9690001
-0.30582097 0.67877334 1.9580001
-0.30209145 0.67877334 1.9580001
-0.29836193 0.67877334 1.9580001
-0.29463241 0.67877334 1.9580001
-0.29090285 0.67877334 1.9580001
-0.28717333 0.67877334 1.9580001
-0.28344381 0.67877334 1.9580001
-0.27971429 0.67877334 1.9580001
-0.27598476 0.67877334 1.9580001
-0.27378479 0.68258667 1.9690001
-0.27003428 0.68258667 1.9690001
-0.26628381 0.68258667 1.9690001
-0.26253334 0.68258667 1.9690001
-0.25878286 0.68258667 1.9690001
-0.25503239 0.68258667 1.9690001
-0.25128192 0.68258667 1.9690001
-0.24753144 0.68258667 1.9690001
-0.24241905 0.67877334 1.9580001
-0.23868953 0.67877334 1.9580001
-0.23364002 0.67496002 1.9470001
-0.22863239 0.67114669 1.9360001
-0.22622287 0.67496002 1.9470001
-0.22251429 0.67496002 1.9470001
-0.21880572 0.67496002 1.9470001
-0.21509714 0.67496002 1.9470001
-0.21138857 0.67496002 1.9470001
-0.20885333 0.67877334 1.9580001
-0.20512381 0.67877334 1.9580001
-0.20252572 0.68258667 1.9690001
-0.19877525 0.68258667 1.9690001
-0.19502477 0.68258667 1.9690001
-0.19020572 0.67877334 1.9580001
-0.1864762 0.67877334 1.9580001
-0.17966667 0.66733336 1.9250001
-0.17700572 0.67114669 1.9360001
-0.1733181 0.67114669 1.9360001
-0.16963048 0.67114669 1.9360001
-0.066011429 0.63232005 1.8240001
-0.062537149 0.63232005 1.8240001
-0.058739051 0.62885338 1.8140001
-0.055283811 0.62885338 1.8140001
-0.051828574 0.62885338 1.8140001
-0.048373334 0.62885338 1.8140001
-0.044918098 0.62885338 1.8140001
-0.041234288 0.62538671 1.8040001
-0.037798095 0.62538671 1.8040001
-0.034361906 0.62538671 1.8040001
-0.030925715 0.62538671 1.8040001
0.073333338 0.66733336 1.9250001
0.077 0.66733336 1.9250001
0.080666669 0.66733336 1.9250001
0.083895244 0.6638667 1.9150001
0.087542862 0.6638667 1.9150001
0.090666667 0.66005337 1.904
0.094838098 0.6638667 1.9150001
0.098485716 0.6638667 1.9150001
0.10213333 0.6638667 1.9150001
0.10578096 0.6638667 1.9150001
0.1088 0.66005337 1.904
0.11242667 0.66005337 1.904
0.11605334 0.66005337 1.904
0.11905143 0.65658671 1.8940001
0.12265905 0.65658671 1.8940001
0.12553334 0.65277338 1.8830001
0.12912001 0.65277338 1.8830001
0.13270667 0.65277338 1.8830001
0.13629334 0.65277338 1.8830001
0.13988 0.65277338 1.8830001
0.14270477 0.64930671 1.8730001
0.14705335 0.65277338 1.8830001
0.14984001 0.64930671 1.8730001
0.15340762 0.64930671 1.8730001
0.15697524 0.64930671 1.8730001
0.16054286 0.64930671 1.8730001
0.16323429 0.64584005 1.863
0.16588762 0.64237338 1.853
0.16941714 0.64237338 1.853
0.17201334 0.63890672 1.8430001
0.17552382 0.63890672 1.8430001
0.18000571 0.64237338 1.853
0.18353525 0.64237338 1.853
0.18706477 0.64237338 1.853
0.19059429 0.64237338 1.853
0.19412382 0.64237338 1.853
0.19872001 0.64584005 1.863
0.20226859 0.64584005 1.863
0.20471239 0.64237338 1.853
0.20824191 0.64237338 1.853
0.21291429 0.64584005 1.863
0.21646287 0.64584005 1.863
0.22001144 0.64584005 1.863
0.25836 0.74637336 2.1530001
0.26246098 0.74637336 2.1530001
0.26656193 0.74637336 2.1530001
0.27066287 0.74637336 2.1530001
0.27476382 0.74637336 2.1530001
0.27886477 0.74637336 2.1530001
0.28296572 0.74637336 2.1530001
-0.33565715 0.69017148 1.9800001
-0.33188573 0.69017148 1.9800001
-0.3281143 0.69017148 1.9800001
-0.32434288 0.69017148 1.9800001
-0.3187905 0.68633717 1.9690001
-0.31504002 0.68633717 1.9690001
-0.31128955 0.68633717 1.9690001
-0.30582097 0.68250287 1.9580001
-0.30209145 0.68250287 1.9580001
-0.29836193 0.68250287 1.9580001
-0.29463241 0.68250287 1.9580001
-0.29090285 0.68250287 1.9580001
-0.28717333 0.68250287 1.9580001
-0.28344381 0.68250287 1.9580001
-0.27971429 0.68250287 1.9580001
-0.27598476 0.68250287 1.9580001
-0.27378479 0.68633717 1.9690001
-0.27003428 0.68633717 1.9690001
-0.26628381 0.68633717 1.9690001
-0.26253334 0.68633717 1.9690001
-0.25878286 0.68633717 1.9690001
-0.25503239 0.68633717 1.9690001
-0.25128192 0.68633717 1.9690001
-0.24753144 0.68633717 1.9690001
-0.24378096 0.68633717 1.9690001
-0.24003048 0.68633717 1.9690001
-0.23628001 0.68633717 1.9690001
-0.23252954 0.68633717 1.9690001
-0.21138857 0.67866862 1.9470001
-0.20885333 0.68250287 1.9580001
-0.20512381 0.68250287 1.9580001
-0.20139429 0.68250287 1.9580001
-0.19877525 0.68633717 1.9690001
-0.19502477 0.68633717 1.9690001
-0.069104761 0.6323086 1.8140001
-0.065649524 0.6323086 1.8140001
-0.062194288 0.6323086 1.8140001
-0.058739051 0.6323086 1.8140001
-0.055283811 0.6323086 1.8140001
-0.051828574 0.6323086 1.8140001
-0.048373334 0.6323086 1.8140001
-0.044918098 0.6323086 1.8140001
-0.041462857 0.6323086 1.8140001
-0.037798095 0.62882286 1.8040001
-0.034361906 0.62882286 1.8040001
-0.030925715 0.62882286 1.8040001
-0.027489524 0.62882286 1.8040001
0.073333338 0.671 1.9250001
0.077 0.671 1.9250001
0.080247626 0.66751432 1.9150001
0.083895244 0.66751432 1.9150001
0.087542862 0.66751432 1.9150001
0.090666667 0.66368002 1.904
0.094838098 0.66751432 1.9150001
0.098485716 0.66751432 1.9150001
0.10213333 0.66751432 1.9150001
0.10578096 0.66751432 1.9150001
0.10942858 0.66751432 1.9150001
0.11242667 0.66368002 1.904
0.11605334 0.66368002 1.904
0.11905143 0.66019434 1.8940001
0.12265905 0.66019434 1.8940001
0.12553334 0.65636003 1.8830001
0.12912001 0.65636003 1.8830001
0.13270667 0.65636003 1.8830001
0.13629334 0.65636003 1.8830001
0.13988 0.65636003 1.8830001
0.14346667 0.65636003 1.8830001
0.14705335 0.65636003 1.8830001
0.15064001 0.65636003 1.8830001
0.15340762 0.65287429 1.8730001
0.15697524 0.65287429 1.8730001
0.16054286 0.65287429 1.8730001
0.16323429 0.64938861 1.863
0.16678286 0.64938861 1.863
0.16941714 0.64590287 1.853
0.17294668 0.64590287 1.853
0.1764762 0.64590287 1.853
0.18000571 0.64590287 1.853
0.18353525 0.64590287 1.853
0.18706477 0.64590287 1.853
0.19059429 0.64590287 1.853
0.19412382 0.64590287 1.853
0.19765334 0.64590287 1.853
0.20118286 0.64590287 1.853
0.20471239 0.64590287 1.853
0.20936573 0.64938861 1.863
0.21291429 0.64938861 1.863
0.21646287 0.64938861 1.863
0.22001144 0.64938861 1.863
-0.33188573 0.6939429 1.9800001
-0.3281143 0.6939429 1.9800001
-0.32434288 0.6939429 1.9800001
-0.3187905 0.69008762 1.9690001
-0.31504002 0.69008762 1.9690001
-0.31128955 0.69008762 1.9690001
-0.30582097 0.68623239 1.9580001
-0.30209145 0.68623239 1.9580001
-0.29836193 0.68623239 1.9580001
-0.29463241 0.68623239 1.9580001
-0.29090285 0.68623239 1.9580001
-0.28717333 0.68623239 1.9580001
-0.28344381 0.68623239 1.9580001
-0.27971429 0.68623239 1.9580001
-0.27598476 0.68623239 1.9580001
-0.27225524 0.68623239 1.9580001
-0.27003428 0.69008762 1.9690001
-0.2647962 0.68623239 1.9580001
-0.26253334 0.69008762 1.9690001
-0.25878286 0.69008762 1.9690001
-0.069104761 0.63576382 1.8140001
-0.065649524 0.63576382 1.8140001
-0.062194288 0.63576382 1.8140001
-0.058739051 0.63576382 1.8140001
-0.055283811 0.63576382 1.8140001
-0.051828574 0.63576382 1.8140001
-0.048373334 0.63576382 1.8140001
-0.044918098 0.63576382 1.8140001
-0.041462857 0.63576382 1.8140001
-0.037798095 0.63225907 1.8040001
-0.034361906 0.63225907 1.8040001
-0.030771431 0.62910479 1.7950001
-0.027352381 0.62910479 1.7950001
0 0.68623239 1.9580001
0.0037295239 0.68623239 1.9580001
0.0074590477 0.68623239 1.9580001
0.083895244 0.67116195 1.9150001
0.08704 0.66730666 1.904
0.090666667 0.66730666 1.904
0.094293334 0.66730666 1.904
0.097920001 0.66730666 1.904
0.10154667 0.66730666 1.904
0.10517333 0.66730666 1.904
0.10942858 0.67116195 1.9150001
0.1130762 0.67116195 1.9150001
0.11605334 0.66730666 1.904
0.11968 0.66730666 1.904
0.12265905 0.66380191 1.8940001
0.12553334 0.65994668 1.8830001
0.12912001 0.65994668 1.8830001
0.1334819 0.66380191 1.8940001
0.13708954 0.66380191 1.8940001
0.13988 0.65994668 1.8830001
0.14346667 0.65994668 1.8830001
0.14705335 0.65994668 1.8830001
0.15064001 0.65994668 1.8830001
0.15422668 0.65994668 1.8830001
0.15697524 0.65644193 1.8730001
0.16054286 0.65644193 1.8730001
0.16323429 0.65293717 1.863
0.16678286 0.65293717 1.863
0.16941714 0.64943242 1.853
0.17294668 0.64943242 1.853
0.1764762 0.64943242 1.853
0.18000571 0.64943242 1.853
0.18353525 0.64943242 1.853
0.18706477 0.64943242 1.853
0.19059429 0.64943242 1.853
0.19307619 0.64592767 1.8430001
0.19658667 0.64592767 1.8430001
0.20009714 0.64592767 1.8430001
0.20471239 0.64943242 1.853
0.20824191 0.64943242 1.853
0.21177144 0.64943242 1.853
0.21530096 0.64943242 1.853
0.21764953 0.64592767 1.8430001
0.22116001 0.64592767 1.8430001
-0.32629144 0.69383812 1.9690001
-0.32254097 0.69383812 1.9690001
-0.3187905 0.69383812 1.9690001
-0.31504002 0.69383812 1.9690001
-0.30955049 0.68996191 1.9580001
-0.30582097 0.68996191 1.9580001
-0.30209145 0.68996191 1.9580001
-0.29836193 0.68996191 1.9580001
-0.29463241 0.68996191 1.9580001
-0.29090285 0.68996191 1.9580001
-0.28717333 0.68996191 1.9580001
-0.28344381 0.68996191 1.9580001
-0.27814287 0.68608576 1.9470001
-0.2744343 0.68608576 1.9470001
-0.27225524 0.68996191 1.9580001
-0.26852572 0.68996191 1.9580001
-0.2647962 0.68996191 1.9580001
-0.26106668 0.68996191 1.9580001
-0.069104761 0.63921905 1.8140001
-0.065649524 0.63921905 1.8140001
-0.062194288 0.63921905 1.8140001
-0.058739051 0.63921905 1.8140001
-0.055283811 0.63921905 1.8140001
-0.05154286 0.63569528 1.8040001
-0.048373334 0.63921905 1.8140001
-0.044918098 0.63921905 1.8140001
-0.041462857 0.63921905 1.8140001
-0.037798095 0.63569528 1.8040001
-0.034361906 0.63569528 1.8040001
-0.030925715 0.63569528 1.8040001
-0.027489524 0.63569528 1.8040001
-0.015260953 0.70581907 2.003
-0.011188572 0.68996191 1.9580001
-0.0074590477 0.68996191 1.9580001
-0.0037295239 0.68996191 1.9580001
0 0.68608576 1.9470001
0.0037085717 0.68608576 1.9470001
0.0074171433 0.68608576 1.9470001
0.010942858 0.67480958 1.9150001
0.014590477 0.67480958 1.9150001
0.090666667 0.67093337 1.904
0.094293334 0.67093337 1.904
0.1130762 0.67480958 1.9150001
0.11672381 0.67480958 1.9150001
0.11968 0.67093337 1.904
0.12330667 0.67093337 1.904
0.12626667 0.66740954 1.8940001
0.12912001 0.66353333 1.8830001
0.13270667 0.66353333 1.8830001
0.13629334 0.66353333 1.8830001
0.13988 0.66353333 1.8830001
0.14346667 0.66353333 1.8830001
0.14705335 0.66353333 1.8830001
0.15064001 0.66353333 1.8830001
0.15340762 0.66000956 1.8730001
0.15697524 0.66000956 1.8730001
0.16054286 0.66000956 1.8730001
0.16323429 0.65648574 1.863
0.16678286 0.65648574 1.863
0.17033143 0.65648574 1.863
0.17388001 0.65648574 1.863
0.1764762 0.65296191 1.853
0.18000571 0.65296191 1.853
0.18353525 0.65296191 1.853
0.18706477 0.65296191 1.853
0.19059429 0.65296191 1.853
0.19412382 0.65296191 1.853
0.19765334 0.65296191 1.853
0.20009714 0.64943814 1.8430001
0.20360763 0.64943814 1.8430001
0.20824191 0.65296191 1.853
0.21062858 0.64943814 1.8430001
0.21413906 0.64943814 1.8430001
0.21764953 0.64943814 1.8430001
0.22356001 0.65648574 1.863
0.22710858 0.65648574 1.863
0.23065715 0.65648574 1.863
-0.32629144 0.69758862 1.9690001
-0.32254097 0.69758862 1.9690001
-0.3187905 0.69758862 1.9690001
-0.31328002 0.69369143 1.9580001
-0.30955049 0.69369143 1.9580001
-0.30582097 0.69369143 1.9580001
-0.30209145 0.69369143 1.9580001
-0.29836193 0.69369143 1.9580001
-0.29463241 0.69369143 1.9580001
-0.29090285 0.69369143 1.9580001
-0.068723813 0.63913143 1.8040001
-0.06528762 0.63913143 1.8040001
-0.061851431 0.63913143 1.8040001
-0.058415242 0.63913143 1.8040001
-0.054979049 0.63913143 1.8040001
-0.05154286 0.63913143 1.8040001
-0.048373334 0.64267433 1.8140001
-0.044918098 0.64267433 1.8140001
-0.041462857 0.64267433 1.8140001
-0.038007621 0.64267433 1.8140001
-0.034361906 0.63913143 1.8040001
-0.030925715 0.63913143 1.8040001
-0.027489524 0.63913143 1.8040001
-0.019076191 0.7096343 2.003
-0.015177144 0.70573717 1.9920001
-0.011188572 0.69369143 1.9580001
-0.0074590477 0.69369143 1.9580001
-0.0037295239 0.69369143 1.9580001
0 0.6897943 1.9470001
0.0037085717 0.6897943 1.9470001
0.0073333336 0.68200004 1.9250001
0.010942858 0.67845714 1.9150001
0.014590477 0.67845714 1.9150001
0.018238096 0.67845714 1.9150001
0.11800382 0.68589717 1.9360001
0.12037143 0.67845714 1.9150001
0.12330667 0.67456001 1.904
0.12693334 0.67456001 1.904
0.12987429 0.67101717 1.8940001
0.1334819 0.67101717 1.8940001
0.13629334 0.66712004 1.8830001
0.13988 0.66712004 1.8830001
0.14270477 0.66357714 1.8730001
0.14705335 0.66712004 1.8830001
0.14984001 0.66357714 1.8730001
0.15340762 0.66357714 1.8730001
0.15697524 0.66357714 1.8730001
0.16054286 0.66357714 1.8730001
0.16323429 0.6600343 1.863
0.16678286 0.6600343 1.863
0.17033143 0.6600343 1.863
0.17388001 0.6600343 1.863
0.1764762 0.65649146 1.853
0.18000571 0.65649146 1.853
0.18353525 0.65649146 1.853
0.18706477 0.65649146 1.853
0.19059429 0.65649146 1.853
0.19412382 0.65649146 1.853
0.19658667 0.65294862 1.8430001
0.19901143 0.64940572 1.8330001
0.20360763 0.65294862 1.8430001
0.20711811 0.65294862 1.8430001
0.20948572 0.64940572 1.8330001
0.21297716 0.64940572 1.8330001
0.21646857 0.64940572 1.8330001
0.22236001 0.65649146 1.853
0.22588953 0.65649146 1.853
0.22941905 0.65649146 1.853
0.23294859 0.65649146 1.853
-0.32446858 0.69742095 1.9580001
-0.32073906 0.69742095 1.9580001
-0.31700954 0.69742095 1.9580001
-0.31328002 0.69742095 1.9580001
-0.30955049 0.69742095 1.9580001
-0.30582097 0.69742095 1.9580001
-0.3003943 0.6935029 1.9470001
-0.29668573 0.6935029 1.9470001
-0.29297715 0.6935029 1.9470001
-0.068723813 0.64256763 1.8040001
-0.06528762 0.64256763 1.8040001
-0.061851431 0.64256763 1.8040001
-0.058415242 0.64256763 1.8040001
-0.054979049 0.64256763 1.8040001
-0.05154286 0.64256763 1.8040001
-0.048106667 0.64256763 1.8040001
-0.044918098 0.64612955 1.8140001
-0.041462857 0.64612955 1.8140001
-0.038007621 0.64612955 1.8140001
-0.03455238 0.64612955 1.8140001
-0.031097144 0.64612955 1.8140001
-0.027641905 0.64612955 1.8140001
-0.018752381 0.70133907 1.9690001
-0.015001905 0.70133907 1.9690001
-0.011188572 0.69742095 1.9580001
-0.0074590477 0.69742095 1.9580001
-0.0037295239 0.69742095 1.9580001
0 0.69742095 1.9580001
0.0037085717 0.6935029 1.9470001
0.0073333336 0.68566668 1.9250001
0.010942858 0.68210477 1.9150001
0.014506667 0.67818671 1.904
0.018133335 0.67818671 1.904
0.12265905 0.6746248 1.8940001
0.12626667 0.6746248 1.8940001
0.12912001 0.67070669 1.8830001
0.13270667 0.67070669 1.8830001
0.13629334 0.67070669 1.8830001
0.13988 0.67070669 1.8830001
0.14270477 0.66714478 1.8730001
0.14705335 0.67070669 1.8830001
0.14984001 0.66714478 1.8730001
0.15340762 0.66714478 1.8730001
0.15697524 0.66714478 1.8730001
0.16054286 0.66714478 1.8730001
0.16323429 0.66358286 1.863
0.16678286 0.66358286 1.863
0.17033143 0.66358286 1.863
0.17388001 0.66358286 1.863
0.1764762 0.66002095 1.853
0.18000571 0.66002095 1.853
0.18353525 0.66002095 1.853
0.18706477 0.66002095 1.853
0.19059429 0.66002095 1.853
0.19307619 0.65645909 1.8430001
0.19658667 0.65645909 1.8430001
0.19901143 0.65289718 1.8330001
0.20250286 0.65289718 1.8330001
0.20599429 0.65289718 1.8330001
0.20948572 0.65289718 1.8330001
0.21297716 0.65289718 1.8330001
0.21646857 0.65289718 1.8330001
0.22116001 0.65645909 1.8430001
0.22467048 0.65645909 1.8430001
0.22818096 0.65645909 1.8430001
0.23169143 0.65645909 1.8430001
0.23520191 0.65645909 1.8430001
-0.32446858 0.70115048 1.9580001
-0.32073906 0.70115048 1.9580001
-0.31700954 0.70115048 1.9580001
-0.31328002 0.70115048 1.9580001
-0.30955049 0.70115048 1.9580001
-0.30582097 0.70115048 1.9580001
-0.30209145 0.70115048 1.9580001
-0.075596191 0.64600384 1.8040001
-0.072160006 0.64600384 1.8040001
-0.068380952 0.64278096 1.7950001
-0.06528762 0.64600384 1.8040001
-0.061851431 0.64600384 1.8040001
-0.058415242 0.64600384 1.8040001
-0.054979049 0.64600384 1.8040001
-0.05154286 0.64600384 1.8040001
-0.048106667 0.64600384 1.8040001
-0.044918098 0.64958477 1.8140001
-0.041462857 0.64958477 1.8140001
-0.038007621 0.64958477 1.8140001
-0.03455238 0.64958477 1.8140001
-0.031097144 0.64958477 1.8140001
-0.027641905 0.64958477 1.8140001
-0.018752381 0.70508957 1.9690001
-0.015001905 0.70508957 1.9690001
-0.011188572 0.70115048 1.9580001
-0.0074590477 0.70115048 1.9580001
-0.0037295239 0.70115048 1.9580001
0 0.70115048 1.9580001
0.0037295239 0.70115048 1.9580001
0.0074590477 0.70115048 1.9580001
0.011062858 0.69327241 1.9360001
0.014750477 0.69327241 1.9360001
0.018438095 0.69327241 1.9360001
0.12626667 0.67823243 1.8940001
0.12912001 0.67429334 1.8830001
0.13270667 0.67429334 1.8830001
0.13629334 0.67429334 1.8830001
0.13913715 0.67071241 1.8730001
0.14270477 0.67071241 1.8730001
0.14705335 0.67429334 1.8830001
0.15064001 0.67429334 1.8830001
0.15340762 0.67071241 1.8730001
0.15697524 0.67071241 1.8730001
0.16054286 0.67071241 1.8730001
0.16323429 0.66713142 1.863
0.16678286 0.66713142 1.863
0.17033143 0.66713142 1.863
0.17388001 0.66713142 1.863
0.1764762 0.6635505 1.853
0.18000571 0.6635505 1.853
0.18353525 0.6635505 1.853
0.18706477 0.6635505 1.853
0.19059429 0.6635505 1.853
0.19412382 0.6635505 1.853
0.19658667 0.65996957 1.8430001
0.19901143 0.65638858 1.8330001
0.20360763 0.65996957 1.8430001
0.20599429 0.65638858 1.8330001
0.20948572 0.65638858 1.8330001
0.21297716 0.65638858 1.8330001
0.21646857 0.65638858 1.8330001
0.21996 0.65638858 1.8330001
0.22345144 0.65638858 1.8330001
0.22818096 0.65996957 1.8430001
0.2304343 0.65638858 1.8330001
0.23277715 0.65316576 1.8240001
0.23625144 0.65316576 1.8240001
0.23972572 0.65316576 1.8240001
-0.32254097 0.70884001 1.9690001
-0.3187905 0.70884001 1.9690001
-0.31328002 0.70488 1.9580001
-0.30955049 0.70488 1.9580001
-0.30582097 0.70488 1.9580001
-0.075596191 0.64944005 1.8040001
-0.071800001 0.6462 1.7950001
-0.068380952 0.6462 1.7950001
-0.06496191 0.6462 1.7950001
-0.061542861 0.6462 1.7950001
-0.058123812 0.6462 1.7950001
-0.054704763 0.6462 1.7950001
-0.051285718 0.6462 1.7950001
-0.047866669 0.6462 1.7950001
-0.044670478 0.64944005 1.8040001
-0.041234288 0.64944005 1.8040001
-0.037798095 0.64944005 1.8040001
-0.03455238 0.65304005 1.8140001
-0.031097144 0.65304005 1.8140001
-0.027641905 0.65304005 1.8140001
-0.015085715 0.71280003 1.9800001
-0.011251429 0.70884001 1.9690001
-0.0074590477 0.70488 1.9580001
-0.0037295239 0.70488 1.9580001
0 0.70488 1.9580001
0.0037295239 0.70488 1.9580001
0.0074590477 0.70488 1.9580001
0.011125715 0.70092005 1.9470001
0.014750477 0.69696003 1.9360001
0.018438095 0.69696003 1.9360001
0.12843429 0.67428005 1.8730001
0.13270667 0.67788005 1.8830001
0.13556953 0.67428005 1.8730001
0.13913715 0.67428005 1.8730001
0.14270477 0.67428005 1.8730001
0.14705335 0.67788005 1.8830001
0.15064001 0.67788005 1.8830001
0.15340762 0.67428005 1.8730001
0.15697524 0.67428005 1.8730001
0.16054286 0.67428005 1.8730001
0.16411048 0.67428005 1.8730001
0.16678286 0.67068005 1.863
0.17033143 0.67068005 1.863
0.17388001 0.67068005 1.863
0.17742857 0.67068005 1.863
0.18000571 0.66708004 1.853
0.18353525 0.66708004 1.853
0.18706477 0.66708004 1.853
0.19059429 0.66708004 1.853
0.19412382 0.66708004 1.853
0.19658667 0.66348004 1.8430001
0.19901143 0.65988004 1.8330001
0.20360763 0.66348004 1.8430001
0.20711811 0.66348004 1.8430001
0.20948572 0.65988004 1.8330001
0.21297716 0.65988004 1.8330001
0.21646857 0.65988004 1.8330001
0.22116001 0.66348004 1.8430001
0.22345144 0.65988004 1.8330001
0.22818096 0.66348004 1.8430001
0.2304343 0.65988004 1.8330001
0.23392573 0.65988004 1.8330001
0.23741715 0.65988004 1.8330001
0.24090858 0.65988004 1.8330001
-0.32254097 0.71259052 1.9690001
-0.3187905 0.71259052 1.9690001
-0.31328002 0.70860952 1.9580001
-0.07521905 0.64961904 1.7950001
-0.071440004 0.64636195 1.7860001
-0.068038099 0.64636195 1.7860001
-0.064636193 0.64636195 1.7860001
-0.061234288 0.64636195 1.7860001
-0.058123812 0.64961904 1.7950001
-0.054704763 0.64961904 1.7950001
-0.051285718 0.64961904 1.7950001
-0.047866669 0.64961904 1.7950001
-0.044447619 0.64961904 1.7950001
-0.041234288 0.6528762 1.8040001
-0.037798095 0.6528762 1.8040001
-0.034742858 0.66011429 1.8240001
-0.031268574 0.66011429 1.8240001
-0.027641905 0.65649527 1.8140001
-0.015085715 0.71657145 1.9800001
-0.011188572 0.70860952 1.9580001
-0.0074590477 0.70860952 1.9580001
-0.0037295239 0.70860952 1.9580001
0 0.70860952 1.9580001
0.0037295239 0.70860952 1.9580001
0.0074590477 0.70860952 1.9580001
0.011125715 0.70462859 1.9470001
0.014834287 0.70462859 1.9470001
0.018542858 0.70462859 1.9470001
0.12774858 0.67422861 1.863
0.13129714 0.67422861 1.863
0.13556953 0.67784762 1.8730001
0.13913715 0.67784762 1.8730001
0.14270477 0.67784762 1.8730001
0.14627239 0.67784762 1.8730001
0.14984001 0.67784762 1.8730001
0.15422668 0.6814667 1.8830001
0.15697524 0.67784762 1.8730001
0.16054286 0.67784762 1.8730001
0.16411048 0.67784762 1.8730001
0.16678286 0.67422861 1.863
0.17033143 0.67422861 1.863
0.17388001 0.67422861 1.863
0.1764762 0.67060953 1.853
0.18097715 0.67422861 1.863
0.18452573 0.67422861 1.863
0.18807429 0.67422861 1.863
0.19059429 0.67060953 1.853
0.19412382 0.67060953 1.853
0.19658667 0.66699052 1.8430001
0.20009714 0.66699052 1.8430001
0.20360763 0.66699052 1.8430001
0.20711811 0.66699052 1.8430001
0.20948572 0.66337144 1.8330001
0.21297716 0.66337144 1.8330001
0.21646857 0.66337144 1.8330001
0.21996 0.66337144 1.8330001
0.22345144 0.66337144 1.8330001
0.22694287 0.66337144 1.8330001
0.2304343 0.66337144 1.8330001
0.23392573 0.66337144 1.8330001
0.23741715 0.66337144 1.8330001
0.24090858 0.66337144 1.8330001
-0.078243814 0.64976382 1.7860001
-0.074841909 0.64976382 1.7860001
-0.071440004 0.64976382 1.7860001
-0.067695238 0.64648956 1.7770001
-0.064636193 0.64976382 1.7860001
-0.061234288 0.64976382 1.7860001
-0.058123812 0.65303814 1.7950001
-0.054704763 0.65303814 1.7950001
-0.051285718 0.65303814 1.7950001
-0.047866669 0.65303814 1.7950001
-0.044670478 0.65631241 1.8040001
-0.041234288 0.65631241 1.8040001
-0.037798095 0.65631241 1.8040001
-0.034742858 0.66358858 1.8240001
-0.031268574 0.66358858 1.8240001
-0.011188572 0.7123391 1.9580001
-0.0074590477 0.7123391 1.9580001
-0.0037295239 0.7123391 1.9580001
0 0.7123391 1.9580001
0.0037295239 0.7123391 1.9580001
0.0074590477 0.7123391 1.9580001
0.011188572 0.7123391 1.9580001
0.014918095 0.7123391 1.9580001
0.01864762 0.7123391 1.9580001
0.13129714 0.67777717 1.863
0.13484572 0.67777717 1.863
0.13765143 0.67413908 1.853
0.14194286 0.67777717 1.863
0.14627239 0.68141526 1.8730001
0.15064001 0.68505335 1.8830001
0.15340762 0.68141526 1.8730001
0.15697524 0.68141526 1.8730001
0.15968572 0.67777717 1.863
0.16411048 0.68141526 1.8730001
0.16678286 0.67777717 1.863
0.17033143 0.67777717 1.863
0.17388001 0.67777717 1.863
0.17742857 0.67777717 1.863
0.18097715 0.67777717 1.863
0.18452573 0.67777717 1.863
0.18807429 0.67777717 1.863
0.19162287 0.67777717 1.863
0.19412382 0.67413908 1.853
0.19765334 0.67413908 1.853
0.20009714 0.67050099 1.8430001
0.20360763 0.67050099 1.8430001
0.20599429 0.66686291 1.8330001
0.20948572 0.66686291 1.8330001
0.21297716 0.66686291 1.8330001
0.21646857 0.66686291 1.8330001
0.21996 0.66686291 1.8330001
0.22235429 0.66358858 1.8240001
0.22582857 0.66358858 1.8240001
0.2304343 0.66686291 1.8330001
0.23392573 0.66686291 1.8330001
0.23625144 0.66358858 1.8240001
0.24090858 0.66686291 1.8330001
0.24440001 0.66686291 1.8330001
-0.07784953 0.64987433 1.7770001
-0.074464768 0.64987433 1.7770001
-0.070720002 0.6465829 1.7680001
-0.067352384 0.6465829 1.7680001
-0.064310476 0.64987433 1.7770001
-0.060925715 0.64987433 1.7770001
-0.057832383 0.65316576 1.7860001
-0.054704763 0.65645719 1.7950001
-0.051285718 0.65645719 1.7950001
-0.048106667 0.65974861 1.8040001
-0.044670478 0.65974861 1.8040001
-0.041234288 0.65974861 1.8040001
-0.038007621 0.66340572 1.8140001
-0.034742858 0.66706288 1.8240001
-0.031268574 0.66706288 1.8240001
-0.011188572 0.71606863 1.9580001
-0.0074590477 0.71606863 1.9580001
-0.0037295239 0.71606863 1.9580001
0 0.71606863 1.9580001
0.0037295239 0.71606863 1.9580001
0.0074590477 0.71606863 1.9580001
0.011188572 0.71606863 1.9580001
0.014918095 0.71606863 1.9580001
0.01864762 0.71606863 1.9580001
0.15340762 0.6849829 1.8730001
0.15697524 0.6849829 1.8730001
0.15968572 0.68132573 1.863
0.16411048 0.6849829 1.8730001
0.1676781 0.6849829 1.8730001
0.17033143 0.68132573 1.863
0.17388001 0.68132573 1.863
0.17742857 0.68132573 1.863
0.18097715 0.68132573 1.863
0.18452573 0.68132573 1.863
0.18807429 0.68132573 1.863
0.19059429 0.67766857 1.853
0.19412382 0.67766857 1.853
0.19765334 0.67766857 1.853
0.20009714 0.67401147 1.8430001
0.20360763 0.67401147 1.8430001
0.20599429 0.67035431 1.8330001
0.20948572 0.67035431 1.8330001
0.21193144 0.66706288 1.8240001
0.21646857 0.67035431 1.8330001
0.21996 0.67035431 1.8330001
0.22235429 0.66706288 1.8240001
0.22582857 0.66706288 1.8240001
0.2304343 0.67035431 1.8330001
0.23277715 0.66706288 1.8240001
0.23625144 0.66706288 1.8240001
0.24090858 0.67035431 1.8330001
0.24440001 0.67035431 1.8330001
0.24789144 0.67035431 1.8330001
0.25549716 0.68132573 1.863
0.25904572 0.68132573 1.863
-0.080822863 0.6499505 1.7680001
-0.077455238 0.6499505 1.7680001
-0.07408762 0.6499505 1.7680001
-0.070720002 0.6499505 1.7680001
-0.067352384 0.6499505 1.7680001
-0.063984767 0.6499505 1.7680001
-0.060617145 0.6499505 1.7680001
-0.057832383 0.65656763 1.7860001
-0.054704763 0.65987623 1.7950001
-0.051285718 0.65987623 1.7950001
-0.047866669 0.65987623 1.7950001
-0.044670478 0.66318476 1.8040001
-0.041028574 0.65987623 1.7950001
-0.037798095 0.66318476 1.8040001
-0.034361906 0.66318476 1.8040001
-0.01897143 0.73229718 1.9920001
-0.015001905 0.72384191 1.9690001
-0.011251429 0.72384191 1.9690001
-0.0074590477 0.71979815 1.9580001
-0.0037295239 0.71979815 1.9580001
0 0.71979815 1.9580001
0.0037295239 0.71979815 1.9580001
0.0075009526 0.72384191 1.9690001
0.011188572 0.71979815 1.9580001
0.015001905 0.72384191 1.9690001
0.018752381 0.72384191 1.9690001
0.16411048 0.68855047 1.8730001
0.1676781 0.68855047 1.8730001
0.17124572 0.68855047 1.8730001
0.17388001 0.6848743 1.863
0.1764762 0.68119812 1.853
0.18000571 0.68119812 1.853
0.18353525 0.68119812 1.853
0.18706477 0.68119812 1.853
0.19059429 0.68119812 1.853
0.19412382 0.68119812 1.853
0.19765334 0.68119812 1.853
0.20009714 0.67752194 1.8430001
0.20360763 0.67752194 1.8430001
0.20599429 0.67384577 1.8330001
0.21062858 0.67752194 1.8430001
0.21297716 0.67384577 1.8330001
0.21646857 0.67384577 1.8330001
0.21996 0.67384577 1.8330001
0.22345144 0.67384577 1.8330001
0.22694287 0.67384577 1.8330001
0.22930287 0.67053717 1.8240001
0.23277715 0.67053717 1.8240001
0.23625144 0.67053717 1.8240001
0.24090858 0.67384577 1.8330001
0.24440001 0.67384577 1.8330001
0.24789144 0.67384577 1.8330001
0.25549716 0.6848743 1.863
0.25904572 0.6848743 1.863
-0.087558098 0.65331811 1.7680001
-0.08419048 0.65331811 1.7680001
-0.080822863 0.65331811 1.7680001
-0.077455238 0.65331811 1.7680001
-0.07408762 0.65331811 1.7680001
-0.070720002 0.65331811 1.7680001
-0.067009524 0.64999241 1.7590001
-0.06365905 0.64999241 1.7590001
-0.060617145 0.65331811 1.7680001
-0.057540953 0.65664381 1.7770001
-0.054430477 0.65996957 1.7860001
-0.051028572 0.65996957 1.7860001
-0.047626667 0.65996957 1.7860001
-0.044447619 0.66329527 1.7950001
-0.041028574 0.66329527 1.7950001
-0.037609525 0.66329527 1.7950001
-0.015177144 0.73609143 1.9920001
-0.011314286 0.73165715 1.9800001
-0.0074590477 0.72352767 1.9580001
-0.0037295239 0.72352767 1.9580001
0 0.72352767 1.9580001
0.0037295239 0.72352767 1.9580001
0.0075009526 0.72759241 1.9690001
0.011251429 0.72759241 1.9690001
0.015001905 0.72759241 1.9690001
0.16857333 0.69581336 1.8830001
0.17124572 0.69211811 1.8730001
0.17388001 0.68842286 1.863
0.17742857 0.68842286 1.863
0.18097715 0.68842286 1.863
0.18452573 0.68842286 1.863
0.18706477 0.68472767 1.853
0.19059429 0.68472767 1.853
0.19412382 0.68472767 1.853
0.19765334 0.68472767 1.853
0.20118286 0.68472767 1.853
0.20471239 0.68472767 1.853
0.20711811 0.68103242 1.8430001
0.21062858 0.68103242 1.8430001
0.21297716 0.67733717 1.8330001
0.21646857 0.67733717 1.8330001
0.21996 0.67733717 1.8330001
0.22345144 0.67733717 1.8330001
0.22694287 0.67733717 1.8330001
0.22930287 0.67401147 1.8240001
0.23277715 0.67401147 1.8240001
0.23625144 0.67401147 1.8240001
0.24090858 0.67733717 1.8330001
0.24440001 0.67733717 1.8330001
0.24789144 0.67733717 1.8330001
0.25138286 0.67733717 1.8330001
0.25765523 0.68472767 1.853
0.26118478 0.68472767 1.853
-0.087558098 0.65668571 1.7680001
-0.08419048 0.65668571 1.7680001
-0.080822863 0.65668571 1.7680001
-0.077060953 0.6533429 1.7590001
-0.073710479 0.6533429 1.7590001
-0.070360005 0.6533429 1.7590001
-0.067009524 0.6533429 1.7590001
-0.06365905 0.6533429 1.7590001
-0.060308572 0.6533429 1.7590001
-0.057249527 0.65668571 1.7680001
-0.054430477 0.66337144 1.7860001
-0.051028572 0.66337144 1.7860001
-0.047626667 0.66337144 1.7860001
-0.044447619 0.66671431 1.7950001
-0.041028574 0.66671431 1.7950001
-0.015177144 0.73988575 1.9920001
-0.011382857 0.73988575 1.9920001
-0.0074590477 0.72725719 1.9580001
-0.0037295239 0.72725719 1.9580001
0 0.73134291 1.9690001
0.0037295239 0.72725719 1.9580001
0.0075009526 0.73134291 1.9690001
0.011314286 0.73542857 1.9800001
0.015177144 0.73988575 1.9920001
0.019076191 0.74397147 2.003
0.023028573 0.74842858 2.0150001
0.17216 0.69940001 1.8830001
0.17388001 0.69197148 1.863
0.1764762 0.68825716 1.853
0.18000571 0.68825716 1.853
0.18452573 0.69197148 1.863
0.18706477 0.68825716 1.853
0.19059429 0.68825716 1.853
0.19412382 0.68825716 1.853
0.19765334 0.68825716 1.853
0.20118286 0.68825716 1.853
0.20581715 0.69197148 1.863
0.20711811 0.68454289 1.8430001
0.21177144 0.68825716 1.853
0.21413906 0.68454289 1.8430001
0.21646857 0.68082857 1.8330001
0.21996 0.68082857 1.8330001
0.22345144 0.68082857 1.8330001
0.22694287 0.68082857 1.8330001
0.22930287 0.67748576 1.8240001
0.23392573 0.68082857 1.8330001
0.23741715 0.68082857 1.8330001
0.24090858 0.68082857 1.8330001
0.24440001 0.68082857 1.8330001
0.24924383 0.68454289 1.8430001
0.25138286 0.68082857 1.8330001
0.25487429 0.68082857 1.8330001
0.25836572 0.68082857 1.8330001
0.26185715 0.68082857 1.8330001
0.26534858 0.68082857 1.8330001
0.26884001 0.68082857 1.8330001
-0.2881619 0.71493334 1.9150001
-0.28451431 0.71493334 1.9150001
-0.087112382 0.65669334 1.7590001
-0.083761908 0.65669334 1.7590001
-0.080411434 0.65669334 1.7590001
-0.077060953 0.65669334 1.7590001
-0.073710479 0.65669334 1.7590001
-0.070360005 0.65669334 1.7590001
-0.067009524 0.65669334 1.7590001
-0.063333333 0.65333337 1.7500001
-0.060308572 0.65669334 1.7590001
-0.057249527 0.66005337 1.7680001
-0.054156192 0.66341335 1.7770001
-0.051028572 0.66677338 1.7860001
-0.047626667 0.66677338 1.7860001
-0.044447619 0.67013335 1.7950001
-0.015001905 0.73509336 1.9690001
-0.011251429 0.73509336 1.9690001
-0.0074590477 0.73098671 1.9580001
-0.0037295239 0.73098671 1.9580001
0 0.73509336 1.9690001
0.0037295239 0.73098671 1.9580001
0.0074590477 0.73098671 1.9580001
0.011251429 0.73509336 1.9690001
0.015001905 0.73509336 1.9690001
0.1764762 0.69178671 1.853
0.18000571 0.69178671 1.853
0.18353525 0.69178671 1.853
0.18605524 0.68805337 1.8430001
0.18956572 0.68805337 1.8430001
0.19307619 0.68805337 1.8430001
0.19765334 0.69178671 1.853
0.20118286 0.69178671 1.853
0.20471239 0.69178671 1.853
0.20711811 0.68805337 1.8430001
0.21062858 0.68805337 1.8430001
0.21413906 0.68805337 1.8430001
0.21646857 0.68432003 1.8330001
0.21996 0.68432003 1.8330001
0.22345144 0.68432003 1.8330001
0.22582857 0.68096 1.8240001
0.22930287 0.68096 1.8240001
0.23277715 0.68096 1.8240001
0.23625144 0.68096 1.8240001
0.24090858 0.68432003 1.8330001
0.2432 0.68096 1.8240001
0.2466743 0.68096 1.8240001
0.25014859 0.68096 1.8240001
0.25362286 0.68096 1.8240001
0.25568762 0.67722666 1.8140001
0.25914288 0.67722666 1.8140001
0.2625981 0.67722666 1.8140001
0.26752001 0.68096 1.8240001
0.27099431 0.68096 1.8240001
-0.30433336 0.72233337 1.9250001
-0.29910478 0.71858096 1.9150001
-0.29545715 0.71858096 1.9150001
-0.29180953 0.71858096 1.9150001
-0.2881619 0.71858096 1.9150001
-0.28451431 0.71858096 1.9150001
-0.27721906 0.71858096 1.9150001
-0.27357143 0.71858096 1.9150001
-0.087112382 0.66004384 1.7590001
-0.083761908 0.66004384 1.7590001
-0.080411434 0.66004384 1.7590001
-0.076666668 0.6566667 1.7500001
-0.073333338 0.6566667 1.7500001
-0.07 0.6566667 1.7500001
-0.06666667 0.6566667 1.7500001
-0.063333333 0.6566667 1.7500001
-0.060308572 0.66004384 1.7590001
-0.056958098 0.66004384 1.7590001
-0.053881906 0.66342098 1.7680001
-0.050514288 0.66342098 1.7680001
-0.047626667 0.67017525 1.7860001
-0.015001905 0.73884386 1.9690001
-0.011251429 0.73884386 1.9690001
-0.0074590477 0.73471624 1.9580001
-0.0037295239 0.73471624 1.9580001
0 0.73471624 1.9580001
0.0037295239 0.73471624 1.9580001
0.0074590477 0.73471624 1.9580001
0.011188572 0.73471624 1.9580001
0.18353525 0.6953162 1.853
0.18605524 0.69156384 1.8430001
0.18956572 0.69156384 1.8430001
0.19307619 0.69156384 1.8430001
0.19765334 0.6953162 1.853
0.20226859 0.69906861 1.863
0.20581715 0.69906861 1.863
0.20711811 0.69156384 1.8430001
0.21062858 0.69156384 1.8430001
0.21297716 0.68781143 1.8330001
0.21646857 0.68781143 1.8330001
0.21996 0.68781143 1.8330001
0.22345144 0.68781143 1.8330001
0.22694287 0.68781143 1.8330001
0.2304343 0.68781143 1.8330001
0.23392573 0.68781143 1.8330001
0.23741715 0.68781143 1.8330001
0.24090858 0.68781143 1.8330001
0.2432 0.68443429 1.8240001
0.2466743 0.68443429 1.8240001
0.24877715 0.68068194 1.8140001
0.2522324 0.68068194 1.8140001
0.25427809 0.67692953 1.8040001
0.25914288 0.68068194 1.8140001
0.26115048 0.67692953 1.8040001
0.26458669 0.67692953 1.8040001
0.26950857 0.68068194 1.8140001
0.27296382 0.68068194 1.8140001
-0.32446858 0.73844576 1.9580001
-0.32073906 0.73844576 1.9580001
-0.31344762 0.73014861 1.9360001
-0.308 0.72600001 1.9250001
-0.30433336 0.72600001 1.9250001
-0.30066669 0.72600001 1.9250001
-0.29545715 0.72222859 1.9150001
-0.29180953 0.72222859 1.9150001
-0.2881619 0.72222859 1.9150001
-0.28451431 0.72222859 1.9150001
-0.27721906 0.72222859 1.9150001
-0.27357143 0.72222859 1.9150001
-0.087112382 0.66339433 1.7590001
-0.083761908 0.66339433 1.7590001
-0.080411434 0.66339433 1.7590001
-0.076666668 0.66000003 1.7500001
-0.073333338 0.66000003 1.7500001
-0.07 0.66000003 1.7500001
-0.067009524 0.66339433 1.7590001
-0.063333333 0.66000003 1.7500001
-0.060308572 0.66339433 1.7590001
-0.057249527 0.66678858 1.7680001
-0.054156192 0.67018288 1.7770001
-0.05077143 0.67018288 1.7770001
-0.011251429 0.7425943 1.9690001
-0.0074590477 0.73844576 1.9580001
-0.0037295239 0.73844576 1.9580001
0 0.73844576 1.9580001
0.0037295239 0.73844576 1.9580001
0.0074590477 0.73844576 1.9580001
0.011188572 0.73844576 1.9580001
0.21062858 0.69507432 1.8430001
0.21297716 0.6913029 1.8330001
0.21646857 0.6913029 1.8330001
0.21996 0.6913029 1.8330001
0.22345144 0.6913029 1.8330001
0.22694287 0.6913029 1.8330001
0.2304343 0.6913029 1.8330001
0.23392573 0.6913029 1.8330001
0.23741715 0.6913029 1.8330001
0.24090858 0.6913029 1.8330001
0.2432 0.68790859 1.8240001
0.24532191 0.68413717 1.8140001
0.24877715 0.68413717 1.8140001
0.25084192 0.68036574 1.8040001
0.25427809 0.68036574 1.8040001
0.2577143 0.68036574 1.8040001
0.26115048 0.68036574 1.8040001
0.26458669 0.68036574 1.8040001
0.26950857 0.68413717 1.8140001
0.27296382 0.68413717 1.8140001
0.27641904 0.68413717 1.8140001
-0.33004192 0.7463448 1.9690001
-0.32629144 0.7463448 1.9690001
-0.31893715 0.73800576 1.9470001
-0.31522858 0.73800576 1.9470001
-0.308 0.72966671 1.9250001
-0.30433336 0.72966671 1.9250001
-0.30066669 0.72966671 1.9250001
-0.29545715 0.72587621 1.9150001
-0.29180953 0.72587621 1.9150001
-0.2881619 0.72587621 1.9150001
-0.28451431 0.72587621 1.9150001
-0.28086668 0.72587621 1.9150001
-0.086666673 0.66333336 1.7500001
-0.083333336 0.66333336 1.7500001
-0.080000006 0.66333336 1.7500001
-0.076666668 0.66333336 1.7500001
-0.073333338 0.66333336 1.7500001
-0.07 0.66333336 1.7500001
-0.06666667 0.66333336 1.7500001
-0.063333333 0.66333336 1.7500001
-0.060308572 0.66674477 1.7590001
-0.057249527 0.67015624 1.7680001
-0.054156192 0.67356765 1.7770001
-0.05077143 0.67356765 1.7770001
-0.0037295239 0.74217528 1.9580001
0 0.74217528 1.9580001
0.0037295239 0.74217528 1.9580001
0.0074590477 0.74217528 1.9580001
0.011188572 0.74217528 1.9580001
0.21413906 0.69858479 1.8430001
0.21764953 0.69858479 1.8430001
0.22116001 0.69858479 1.8430001
0.22345144 0.6947943 1.8330001
0.22694287 0.6947943 1.8330001
0.2304343 0.6947943 1.8330001
0.23392573 0.6947943 1.8330001
0.23741715 0.6947943 1.8330001
0.24090858 0.6947943 1.8330001
0.2432 0.69138288 1.8240001
0.24532191 0.68759239 1.8140001
0.24877715 0.68759239 1.8140001
0.25084192 0.68380195 1.8040001
0.25427809 0.68380195 1.8040001
0.2577143 0.68380195 1.8040001
0.26115048 0.68380195 1.8040001
0.26458669 0.68380195 1.8040001
0.26802287 0.68380195 1.8040001
0.27145904 0.68380195 1.8040001
0.27489525 0.68380195 1.8040001
-0.31893715 0.7417143 1.9470001
-0.31522858 0.7417143 1.9470001
-0.30976 0.73752385 1.9360001
-0.30607238 0.73752385 1.9360001
-0.30238476 0.73752385 1.9360001
-0.29545715 0.72952384 1.9150001
-0.29180953 0.72952384 1.9150001
-0.2881619 0.72952384 1.9150001
-0.28451431 0.72952384 1.9150001
-0.28086668 0.72952384 1.9150001
-0.086220957 0.66323811 1.7410001
-0.082904764 0.66323811 1.7410001
-0.079588577 0.66323811 1.7410001
-0.076272383 0.66323811 1.7410001
-0.073333338 0.66666669 1.7500001
-0.07 0.66666669 1.7500001
-0.06666667 0.66666669 1.7500001
-0.063333333 0.66666669 1.7500001
-0.060308572 0.67009526 1.7590001
-0.057249527 0.67352384 1.7680001
-0.053881906 0.67352384 1.7680001
-0.05077143 0.67695242 1.7770001
0.21646857 0.69828576 1.8330001
0.21996 0.69828576 1.8330001
0.22345144 0.69828576 1.8330001
0.22694287 0.69828576 1.8330001
0.2304343 0.69828576 1.8330001
0.23392573 0.69828576 1.8330001
0.23741715 0.69828576 1.8330001
0.24090858 0.69828576 1.8330001
0.2432 0.69485718 1.8240001
0.24532191 0.69104767 1.8140001
0.24877715 0.69104767 1.8140001
0.2522324 0.69104767 1.8140001
0.25427809 0.6872381 1.8040001
0.25914288 0.69104767 1.8140001
0.26115048 0.6872381 1.8040001
0.26605335 0.69104767 1.8140001
0.26950857 0.69104767 1.8140001
0.27145904 0.6872381 1.8040001
0.27489525 0.6872381 1.8040001
-0.31893715 0.7454229 1.9470001
-0.31522858 0.7454229 1.9470001
-0.31152001 0.7454229 1.9470001
-0.30781144 0.7454229 1.9470001
-0.30410287 0.7454229 1.9470001
-0.29869714 0.74121147 1.9360001
-0.29333335 0.73700005 1.9250001
-0.2881619 0.73317146 1.9150001
-0.28451431 0.73317146 1.9150001
-0.28086668 0.73317146 1.9150001
-0.085329525 0.6596629 1.723
-0.082047619 0.6596629 1.723
-0.079177149 0.66310859 1.7320001
-0.075878099 0.66310859 1.7320001
-0.07295619 0.66655433 1.7410001
-0.07 0.67000002 1.7500001
-0.06666667 0.67000002 1.7500001
-0.063333333 0.67000002 1.7500001
-0.060308572 0.67344576 1.7590001
-0.057249527 0.67689145 1.7680001
-0.054156192 0.68033719 1.7770001
-0.05077143 0.68033719 1.7770001
0.21996 0.70177716 1.8330001
0.22345144 0.70177716 1.8330001
0.22694287 0.70177716 1.8330001
0.2304343 0.70177716 1.8330001
0.23392573 0.70177716 1.8330001
0.23741715 0.70177716 1.8330001
0.24090858 0.70177716 1.8330001
0.2432 0.69833148 1.8240001
0.24532191 0.69450289 1.8140001
0.24877715 0.69450289 1.8140001
0.25084192 0.6906743 1.8040001
0.25427809 0.6906743 1.8040001
0.2577143 0.6906743 1.8040001
0.26115048 0.6906743 1.8040001
0.26605335 0.69450289 1.8140001
0.26950857 0.69450289 1.8140001
0.27296382 0.69450289 1.8140001
0.27641904 0.69450289 1.8140001
-0.29500952 0.74489909 1.9360001
-0.2913219 0.74489909 1.9360001
-0.28394666 0.74489909 1.9360001
-0.28025907 0.74489909 1.9360001
-0.091893338 0.66294479 1.723
-0.088611431 0.66294479 1.723
-0.084933333 0.65986669 1.715
-0.081666671 0.65986669 1.715
-0.07876572 0.66294479 1.723
-0.075483814 0.66294479 1.723
-0.07295619 0.6698705 1.7410001
-0.07 0.67333335 1.7500001
-0.06666667 0.67333335 1.7500001
-0.06365905 0.6767962 1.7590001
-0.060617145 0.68025905 1.7680001
-0.057540953 0.68372196 1.7770001
-0.054156192 0.68372196 1.7770001
-0.05077143 0.68372196 1.7770001
0.22345144 0.70526862 1.8330001
0.22694287 0.70526862 1.8330001
0.2304343 0.70526862 1.8330001
0.23392573 0.70526862 1.8330001
0.23741715 0.70526862 1.8330001
0.24090858 0.70526862 1.8330001
0.2432 0.70180571 1.8240001
0.24532191 0.69795811 1.8140001
0.24877715 0.69795811 1.8140001
0.2522324 0.69795811 1.8140001
0.25427809 0.69411051 1.8040001
0.2577143 0.69411051 1.8040001
0.26115048 0.69411051 1.8040001
0.26458669 0.69411051 1.8040001
0.26802287 0.69411051 1.8040001
0.27145904 0.69411051 1.8040001
-0.29500952 0.74858671 1.9360001
-0.2913219 0.74858671 1.9360001
-0.28763428 0.74858671 1.9360001
-0.28394666 0.74858671 1.9360001
-0.28025907 0.74858671 1.9360001
-0.097485721 0.65965337 1.7060001
-0.094733335 0.66313338 1.715
-0.091466673 0.66313338 1.715
-0.088200003 0.66313338 1.715
-0.084487624 0.65965337 1.7060001
-0.081238098 0.65965337 1.7060001
-0.078400001 0.66313338 1.715
-0.075133339 0.66313338 1.715
-0.072579049 0.6697067 1.7320001
-0.07 0.67666668 1.7500001
-0.06666667 0.67666668 1.7500001
-0.06365905 0.68014669 1.7590001
-0.060617145 0.68362671 1.7680001
-0.057540953 0.68710667 1.7770001
-0.054156192 0.68710667 1.7770001
0.2304343 0.70876002 1.8330001
0.23392573 0.70876002 1.8330001
0.23871239 0.7126267 1.8430001
0.24090858 0.70876002 1.8330001
0.24440001 0.70876002 1.8330001
0.2466743 0.70528001 1.8240001
0.25014859 0.70528001 1.8240001
0.2522324 0.70141333 1.8140001
0.25568762 0.70141333 1.8140001
0.25914288 0.70141333 1.8140001
0.2625981 0.70141333 1.8140001
0.26605335 0.70141333 1.8140001
0.26802287 0.69754672 1.8040001
0.27145904 0.69754672 1.8040001
-0.27357143 0.74411434 1.9150001
-0.26992381 0.74411434 1.9150001
