# .PCD v0.7 - Point Cloud Data file format
VERSION 0.7
FIELDS x y z
SIZE 4 4 4
TYPE F F F
COUNT 1 1 1
WIDTH 1518
HEIGHT 1
VIEWPOINT 0 0 0 1 0 0 0
POINTS 1518
DATA ascii
0.061775241 0.60616952 2.0270002
0.065636195 0.60616952 2.0270002
0.069497146 0.60616952 2.0270002
0.073358096 0.60616952 2.0270002
0.077219054 0.60616952 2.0270002
0.077880003 0.58224571 1.9470001
0.081588574 0.58224571 1.9470001
0.085297145 0.58224571 1.9470001
0.088502862 0.57895619 1.9360001
0.092190482 0.57895619 1.9360001
0.095878102 0.57895619 1.9360001
0.099565715 0.57895619 1.9360001
0.10325333 0.57895619 1.9360001
0.10694095 0.57895619 1.9360001
0.11000001 0.57566667 1.9250001
0.11366667 0.57566667 1.9250001
0.11733334 0.57566667 1.9250001
-0.20076953 0.61003047 2.0270002
-0.1980743 0.61364192 2.039
-0.19419049 0.61364192 2.039
-0.18918668 0.61003047 2.0270002
-0.18532573 0.61003047 2.0270002
-0.13444571 0.62477714 2.0760002
-0.12967429 0.62086481 2.0630002
-0.12501334 0.61725336 2.0510001
-0.12110667 0.61725336 2.0510001
-0.092114292 0.60641909 2.0150001
-0.088276193 0.60641909 2.0150001
-0.083935238 0.60280764 2.003
-0.080120005 0.60280764 2.003
-0.076304764 0.60280764 2.003
-0.07248953 0.60280764 2.003
-0.047146667 0.57301337 1.904
-0.043771431 0.57632381 1.9150001
-0.039893337 0.57301337 1.904
-0.03626667 0.57301337 1.904
-0.032640003 0.57301337 1.904
-0.029013334 0.57301337 1.904
-0.025533333 0.57632381 1.9150001
-0.021885715 0.57632381 1.9150001
0.0038152381 0.60280764 2.003
0.0075885719 0.59949714 1.9920001
0.011314286 0.59588575 1.9800001
0.015177144 0.59949714 1.9920001
0.01897143 0.59949714 1.9920001
0.022765715 0.59949714 1.9920001
0.026706668 0.60280764 2.003
0.030521905 0.60280764 2.003
0.034337144 0.60280764 2.003
0.038152382 0.60280764 2.003
0.041737143 0.59949714 1.9920001
0.04578286 0.60280764 2.003
0.049895238 0.60641909 2.0150001
0.053413335 0.60280764 2.003
0.057228573 0.60280764 2.003
0.061409526 0.60641909 2.0150001
0.065636195 0.61003047 2.0270002
0.069497146 0.61003047 2.0270002
0.073358096 0.61003047 2.0270002
0.077219054 0.61003047 2.0270002
0.080600001 0.60641909 2.0150001
0.081588574 0.58595431 1.9470001
0.085297145 0.58595431 1.9470001
0.088502862 0.58264381 1.9360001
0.092190482 0.58264381 1.9360001
0.095878102 0.58264381 1.9360001
0.099565715 0.58264381 1.9360001
0.10325333 0.58264381 1.9360001
0.10633334 0.57933336 1.9250001
0.11000001 0.57933336 1.9250001
0.11366667 0.57933336 1.9250001
0.11733334 0.57933336 1.9250001
0.12100001 0.57933336 1.9250001
0.12466667 0.57933336 1.9250001
-0.13753334 0.6247943 2.0630002
-0.13522287 0.63236576 2.0880001
-0.12967429 0.6247943 2.0630002
-0.12574476 0.6247943 2.0630002
-0.12181524 0.6247943 2.0630002
-0.11788572 0.6247943 2.0630002
-0.1139562 0.6247943 2.0630002
-0.097095244 0.61752576 2.039
-0.092114292 0.61025715 2.0150001
-0.088276193 0.61025715 2.0150001
-0.0844381 0.61025715 2.0150001
-0.080600001 0.61025715 2.0150001
-0.076761909 0.61025715 2.0150001
-0.073792383 0.61752576 2.039
-0.069908574 0.61752576 2.039
-0.039893337 0.57664001 1.904
-0.03626667 0.57664001 1.904
-0.032640003 0.57664001 1.904
-0.029013334 0.57664001 1.904
0.0037942859 0.60329145 1.9920001
0.0075885719 0.60329145 1.9920001
0.011382857 0.60329145 1.9920001
0.015177144 0.60329145 1.9920001
0.01897143 0.60329145 1.9920001
0.022765715 0.60329145 1.9920001
0.026706668 0.60662287 2.003
0.030521905 0.60662287 2.003
0.034337144 0.60662287 2.003
0.038152382 0.60662287 2.003
0.041737143 0.60329145 1.9920001
0.045531429 0.60329145 1.9920001
0.049325716 0.60329145 1.9920001
0.053413335 0.60662287 2.003
0.056914289 0.60329145 1.9920001
0.060342859 0.59965718 1.9800001
0.064502858 0.60329145 1.9920001
0.068297148 0.60329145 1.9920001
0.073358096 0.61389142 2.0270002
0.077219054 0.61389142 2.0270002
0.081080005 0.61389142 2.0270002
0.081588574 0.58966285 1.9470001
0.085297145 0.58966285 1.9470001
0.088502862 0.58633143 1.9360001
0.092714287 0.58966285 1.9470001
0.096422859 0.58966285 1.9470001
0.10013143 0.58966285 1.9470001
0.10325333 0.58633143 1.9360001
0.10633334 0.583 1.9250001
0.11000001 0.583 1.9250001
0.11366667 0.583 1.9250001
0.11733334 0.583 1.9250001
0.12037143 0.57997143 1.9150001
0.12330667 0.57664001 1.904
0.12766667 0.57997143 1.9150001
0.13131429 0.57997143 1.9150001
-0.14146286 0.62872386 2.0630002
-0.13753334 0.62872386 2.0630002
-0.13360381 0.62872386 2.0630002
-0.12967429 0.62872386 2.0630002
-0.12501334 0.6250667 2.0510001
-0.12110667 0.6250667 2.0510001
-0.1172 0.6250667 2.0510001
-0.11329333 0.6250667 2.0510001
-0.10938667 0.6250667 2.0510001
-0.10097905 0.62140954 2.039
-0.097095244 0.62140954 2.039
-0.092662863 0.61775243 2.0270002
-0.088801906 0.61775243 2.0270002
-0.084940955 0.61775243 2.0270002
-0.080600001 0.61409527 2.0150001
-0.076761909 0.61409527 2.0150001
-0.07422667 0.6250667 2.0510001
-0.070320003 0.6250667 2.0510001
0.0037942859 0.60708576 1.9920001
0.0075885719 0.60708576 1.9920001
0.011382857 0.60708576 1.9920001
0.015177144 0.60708576 1.9920001
0.01897143 0.60708576 1.9920001
0.022765715 0.60708576 1.9920001
0.026560001 0.60708576 1.9920001
0.030521905 0.61043811 2.003
0.034337144 0.61043811 2.003
0.038152382 0.61043811 2.003
0.041737143 0.60708576 1.9920001
0.045531429 0.60708576 1.9920001
0.049325716 0.60708576 1.9920001
0.053120002 0.60708576 1.9920001
0.056571431 0.6034286 1.9800001
0.060342859 0.6034286 1.9800001
0.064502858 0.60708576 1.9920001
0.069085717 0.61409527 2.0150001
0.073358096 0.61775243 2.0270002
0.077219054 0.61775243 2.0270002
0.081080005 0.61775243 2.0270002
0.092714287 0.59337145 1.9470001
0.096422859 0.59337145 1.9470001
0.10013143 0.59337145 1.9470001
0.10325333 0.59001905 1.9360001
0.10694095 0.59001905 1.9360001
0.11000001 0.5866667 1.9250001
0.11366667 0.5866667 1.9250001
0.11733334 0.5866667 1.9250001
0.12100001 0.5866667 1.9250001
0.12330667 0.58026671 1.904
0.12766667 0.58361906 1.9150001
0.13131429 0.58361906 1.9150001
0.20788573 0.65219051 2.1400001
0.21196191 0.65219051 2.1400001
-0.14454667 0.62897336 2.0510001
-0.14064001 0.62897336 2.0510001
-0.13753334 0.63265336 2.0630002
-0.13360381 0.63265336 2.0630002
-0.12967429 0.63265336 2.0630002
-0.12501334 0.62897336 2.0510001
-0.12110667 0.62897336 2.0510001
-0.1172 0.62897336 2.0510001
-0.11329333 0.62897336 2.0510001
-0.10874667 0.62529337 2.039
-0.10486286 0.62529337 2.039
-0.10097905 0.62529337 2.039
-0.097095244 0.62529337 2.039
-0.092662863 0.62161338 2.0270002
-0.088801906 0.62161338 2.0270002
-0.084940955 0.62161338 2.0270002
-0.081080005 0.62161338 2.0270002
-0.076761909 0.61793333 2.0150001
-0.072923809 0.61793333 2.0150001
-0.070320003 0.62897336 2.0510001
0.0037942859 0.61088002 1.9920001
0.0075885719 0.61088002 1.9920001
0.011445715 0.61425334 2.003
0.015260953 0.61425334 2.003
0.01897143 0.61088002 1.9920001
0.022765715 0.61088002 1.9920001
0.026560001 0.61088002 1.9920001
0.030521905 0.61425334 2.003
0.034337144 0.61425334 2.003
0.038152382 0.61425334 2.003
0.041737143 0.61088002 1.9920001
0.045257144 0.60720003 1.9800001
0.049028572 0.60720003 1.9800001
0.052800003 0.60720003 1.9800001
0.056257144 0.6038267 1.9690001
0.059672382 0.60045338 1.9580001
0.063758098 0.6038267 1.9690001
0.068297148 0.61088002 1.9920001
0.072923809 0.61793333 2.0150001
0.076761909 0.61793333 2.0150001
0.080600001 0.61793333 2.0150001
0.096422859 0.59707999 1.9470001
0.10013143 0.59707999 1.9470001
0.10325333 0.59370667 1.9360001
0.10694095 0.59370667 1.9360001
0.11062858 0.59370667 1.9360001
0.11366667 0.59033334 1.9250001
0.11733334 0.59033334 1.9250001
0.12037143 0.58726668 1.9150001
0.12330667 0.58389336 1.904
0.12693334 0.58389336 1.904
0.13056001 0.58389336 1.904
0.13418667 0.58389336 1.904
0.16306287 0.64032 2.0880001
0.16808 0.64430672 2.1010001
0.17208192 0.64430672 2.1010001
0.17608382 0.64430672 2.1010001
0.18864381 0.66025335 2.1530001
0.19158097 0.65626669 2.1400001
0.19565715 0.65626669 2.1400001
0.19973335 0.65626669 2.1400001
0.20257144 0.65228003 2.1270001
0.20662287 0.65228003 2.1270001
0.20938668 0.64829338 2.1140001
0.21341334 0.64829338 2.1140001
0.21744001 0.64829338 2.1140001
-0.16017334 0.63288003 2.0510001
-0.15626667 0.63288003 2.0510001
-0.15236001 0.63288003 2.0510001
-0.14584762 0.62177145 2.0150001
-0.14454667 0.63288003 2.0510001
-0.14064001 0.63288003 2.0510001
-0.13673334 0.63288003 2.0510001
-0.13282667 0.63288003 2.0510001
-0.12892 0.63288003 2.0510001
-0.12501334 0.63288003 2.0510001
-0.12110667 0.63288003 2.0510001
-0.1172 0.63288003 2.0510001
-0.11263048 0.62917715 2.039
-0.10874667 0.62917715 2.039
-0.10486286 0.62917715 2.039
-0.10097905 0.62917715 2.039
-0.097095244 0.62917715 2.039
-0.093211435 0.62917715 2.039
-0.089327626 0.62917715 2.039
-0.084940955 0.62547433 2.0270002
-0.081080005 0.62547433 2.0270002
-0.077219054 0.62547433 2.0270002
-0.073358096 0.62547433 2.0270002
0.011445715 0.61806858 2.003
0.015260953 0.61806858 2.003
0.01897143 0.61467433 1.9920001
0.022765715 0.61467433 1.9920001
0.026560001 0.61467433 1.9920001
0.030354287 0.61467433 1.9920001
0.034148574 0.61467433 1.9920001
0.03794286 0.61467433 1.9920001
0.041737143 0.61467433 1.9920001
0.045257144 0.61097145 1.9800001
0.049028572 0.61097145 1.9800001
0.052800003 0.61097145 1.9800001
0.056257144 0.60757715 1.9690001
0.059672382 0.6041829 1.9580001
0.063758098 0.60757715 1.9690001
0.067508571 0.60757715 1.9690001
0.071657144 0.61097145 1.9800001
0.075885721 0.61467433 1.9920001
0.079680003 0.61467433 1.9920001
0.096422859 0.60078859 1.9470001
0.10013143 0.60078859 1.9470001
0.10325333 0.59739429 1.9360001
0.10633334 0.59400004 1.9250001
0.11000001 0.59400004 1.9250001
0.11366667 0.59400004 1.9250001
0.11672381 0.59091431 1.9150001
0.12037143 0.59091431 1.9150001
0.12330667 0.58752 1.904
0.12693334 0.58752 1.904
0.13056001 0.58752 1.904
0.1334819 0.58443433 1.8940001
0.13708954 0.58443433 1.8940001
0.16306287 0.64429718 2.0880001
0.16808 0.64830858 2.1010001
0.17208192 0.64830858 2.1010001
0.17608382 0.64830858 2.1010001
0.18120001 0.65232003 2.1140001
0.18750477 0.66034287 2.1400001
0.19041716 0.65633148 2.1270001
0.19565715 0.66034287 2.1400001
0.19852 0.65633148 2.1270001
0.20257144 0.65633148 2.1270001
0.20662287 0.65633148 2.1270001
0.20938668 0.65232003 2.1140001
0.21341334 0.65232003 2.1140001
0.21610287 0.64830858 2.1010001
0.22010477 0.64830858 2.1010001
-0.16312 0.63306099 2.039
-0.15923619 0.63306099 2.039
-0.15535238 0.63306099 2.039
-0.15057714 0.62933528 2.0270002
-0.14671619 0.62933528 2.0270002
-0.14370096 0.63306099 2.039
-0.13981715 0.63306099 2.039
-0.13673334 0.6367867 2.0510001
-0.13282667 0.6367867 2.0510001
-0.12892 0.6367867 2.0510001
-0.12501334 0.6367867 2.0510001
-0.12110667 0.6367867 2.0510001
-0.11651429 0.63306099 2.039
-0.11263048 0.63306099 2.039
-0.10874667 0.63306099 2.039
-0.10486286 0.63306099 2.039
-0.10097905 0.63306099 2.039
-0.097095244 0.63306099 2.039
-0.093211435 0.63306099 2.039
-0.089327626 0.63306099 2.039
-0.08544381 0.63306099 2.039
-0.081080005 0.62933528 2.0270002
-0.077219054 0.62933528 2.0270002
-0.073358096 0.62933528 2.0270002
0.0076761907 0.62560952 2.0150001
0.011445715 0.62188381 2.003
0.015177144 0.61846858 1.9920001
0.01897143 0.61846858 1.9920001
0.022765715 0.61846858 1.9920001
0.026560001 0.61846858 1.9920001
0.030354287 0.61846858 1.9920001
0.034148574 0.61846858 1.9920001
0.03794286 0.61846858 1.9920001
0.041485716 0.61474288 1.9800001
0.045257144 0.61474288 1.9800001
0.049028572 0.61474288 1.9800001
0.052800003 0.61474288 1.9800001
0.056257144 0.61132765 1.9690001
0.060007621 0.61132765 1.9690001
0.063758098 0.61132765 1.9690001
0.067508571 0.61132765 1.9690001
0.071657144 0.61474288 1.9800001
0.075428575 0.61474288 1.9800001
0.0792 0.61474288 1.9800001
0.10325333 0.60108191 1.9360001
0.10633334 0.59766668 1.9250001
0.11000001 0.59766668 1.9250001
0.11366667 0.59766668 1.9250001
0.11733334 0.59766668 1.9250001
0.12037143 0.59456193 1.9150001
0.12401905 0.59456193 1.9150001
0.12693334 0.59114671 1.904
0.13056001 0.59114671 1.904
0.1334819 0.5880419 1.8940001
0.13629334 0.58462667 1.8830001
0.13913715 0.58152193 1.8730001
0.14270477 0.58152193 1.8730001
0.14627239 0.58152193 1.8730001
0.16704001 0.6482743 2.0880001
0.17101716 0.6482743 2.0880001
0.17608382 0.65231049 2.1010001
0.18120001 0.65634668 2.1140001
0.18522668 0.65634668 2.1140001
0.18925335 0.65634668 2.1140001
0.19328001 0.65634668 2.1140001
0.19730668 0.65634668 2.1140001
0.20133334 0.65634668 2.1140001
0.20536001 0.65634668 2.1140001
0.20938668 0.65634668 2.1140001
0.21341334 0.65634668 2.1140001
0.21610287 0.65231049 2.1010001
0.22010477 0.65231049 2.1010001
0.22410667 0.65231049 2.1010001
-0.16602096 0.63319623 2.0270002
-0.16312 0.63694477 2.039
-0.15923619 0.63694477 2.039
-0.15535238 0.63694477 2.039
-0.15146858 0.63694477 2.039
-0.14758477 0.63694477 2.039
-0.14370096 0.63694477 2.039
-0.13981715 0.63694477 2.039
-0.13673334 0.64069337 2.0510001
-0.13282667 0.64069337 2.0510001
-0.12892 0.64069337 2.0510001
-0.12501334 0.64069337 2.0510001
-0.12110667 0.64069337 2.0510001
-0.1172 0.64069337 2.0510001
-0.11329333 0.64069337 2.0510001
-0.10938667 0.64069337 2.0510001
-0.10548 0.64069337 2.0510001
-0.10157334 0.64069337 2.0510001
-0.097666673 0.64069337 2.0510001
-0.093760006 0.64069337 2.0510001
-0.089327626 0.63694477 2.039
-0.08544381 0.63694477 2.039
-0.081560001 0.63694477 2.039
-0.077676192 0.63694477 2.039
-0.073358096 0.63319623 2.0270002
0.0076761907 0.62944764 2.0150001
0.011382857 0.6222629 1.9920001
0.015085715 0.6185143 1.9800001
0.01897143 0.6222629 1.9920001
0.022628572 0.6185143 1.9800001
0.026400002 0.6185143 1.9800001
0.03017143 0.6185143 1.9800001
0.03394286 0.6185143 1.9800001
0.037504762 0.61507809 1.9690001
0.041255239 0.61507809 1.9690001
0.045005716 0.61507809 1.9690001
0.048483811 0.61164194 1.9580001
0.052213334 0.61164194 1.9580001
0.05594286 0.61164194 1.9580001
0.059672382 0.61164194 1.9580001
0.063401908 0.61164194 1.9580001
0.06713143 0.61164194 1.9580001
0.070860952 0.61164194 1.9580001
0.074590482 0.61164194 1.9580001
0.078760006 0.61507809 1.9690001
0.082510479 0.61507809 1.9690001
0.11000001 0.60133338 1.9250001
0.11366667 0.60133338 1.9250001
0.11733334 0.60133338 1.9250001
0.12037143 0.59820956 1.9150001
0.12401905 0.59820956 1.9150001
0.12693334 0.59477335 1.904
0.13056001 0.59477335 1.904
0.1334819 0.59164953 1.8940001
0.13708954 0.59164953 1.8940001
0.13988 0.58821338 1.8830001
0.14346667 0.58821338 1.8830001
0.14705335 0.58821338 1.8830001
0.15064001 0.58821338 1.8830001
0.17208192 0.65631241 2.1010001
0.17717335 0.66037333 2.1140001
0.18120001 0.66037333 2.1140001
0.18636572 0.66443431 2.1270001
0.18925335 0.66037333 2.1140001
0.19446857 0.66443431 2.1270001
0.19730668 0.66037333 2.1140001
0.20133334 0.66037333 2.1140001
0.20536001 0.66037333 2.1140001
0.20938668 0.66037333 2.1140001
0.21341334 0.66037333 2.1140001
0.21610287 0.65631241 2.1010001
0.22010477 0.65631241 2.1010001
0.22410667 0.65631241 2.1010001
0.27476382 0.67255622 2.1530001
0.28067809 0.67692953 2.1670001
0.28480572 0.67692953 2.1670001
-0.16700381 0.64082861 2.039
-0.16312 0.64082861 2.039
-0.15923619 0.64082861 2.039
-0.15535238 0.64082861 2.039
-0.15146858 0.64082861 2.039
-0.14758477 0.64082861 2.039
-0.14370096 0.64082861 2.039
-0.14064001 0.64460003 2.0510001
-0.13673334 0.64460003 2.0510001
-0.13204953 0.64082861 2.039
-0.12892 0.64460003 2.0510001
-0.12501334 0.64460003 2.0510001
-0.12110667 0.64460003 2.0510001
-0.1172 0.64460003 2.0510001
-0.11329333 0.64460003 2.0510001
-0.10874667 0.64082861 2.039
-0.10548 0.64460003 2.0510001
-0.10157334 0.64460003 2.0510001
-0.097666673 0.64460003 2.0510001
-0.093760006 0.64460003 2.0510001
-0.089327626 0.64082861 2.039
-0.08544381 0.64082861 2.039
-0.081560001 0.64082861 2.039
-0.077676192 0.64082861 2.039
0.011382857 0.62605715 1.9920001
0.015085715 0.62228572 1.9800001
0.018857144 0.62228572 1.9800001
0.022628572 0.62228572 1.9800001
0.026253335 0.61882859 1.9690001
0.03000381 0.61882859 1.9690001
0.03394286 0.62228572 1.9800001
0.037504762 0.61882859 1.9690001
0.041024763 0.61537147 1.9580001
0.045005716 0.61882859 1.9690001
0.048483811 0.61537147 1.9580001
0.05250667 0.61882859 1.9690001
0.056257144 0.61882859 1.9690001
0.059672382 0.61537147 1.9580001
0.063758098 0.61882859 1.9690001
0.067508571 0.61882859 1.9690001
0.070860952 0.61537147 1.9580001
0.074590482 0.61537147 1.9580001
0.078320004 0.61537147 1.9580001
0.082049526 0.61537147 1.9580001
0.11000001 0.60500002 1.9250001
0.11366667 0.60500002 1.9250001
0.11672381 0.60185719 1.9150001
0.12037143 0.60185719 1.9150001
0.12401905 0.60185719 1.9150001
0.12693334 0.5984 1.904
0.13056001 0.5984 1.904
0.1334819 0.59525716 1.8940001
0.13708954 0.59525716 1.8940001
0.13988 0.59180003 1.8830001
0.14346667 0.59180003 1.8830001
0.14705335 0.59180003 1.8830001
0.15064001 0.59180003 1.8830001
0.17208192 0.66031432 2.1010001
0.17717335 0.66440004 2.1140001
0.18120001 0.66440004 2.1140001
0.18636572 0.66848576 2.1270001
0.18925335 0.66440004 2.1140001
0.19328001 0.66440004 2.1140001
0.19730668 0.66440004 2.1140001
0.20133334 0.66440004 2.1140001
0.20536001 0.66440004 2.1140001
0.20938668 0.66440004 2.1140001
0.21210095 0.66031432 2.1010001
0.21610287 0.66031432 2.1010001
0.22010477 0.66031432 2.1010001
0.22410667 0.66031432 2.1010001
0.22810858 0.66031432 2.1010001
0.27310476 0.67257148 2.1400001
0.27886477 0.67665714 2.1530001
0.28125715 0.67257148 2.1400001
0.28533334 0.67257148 2.1400001
0.28940955 0.67257148 2.1400001
-0.16700381 0.64471239 2.039
-0.16408001 0.6485067 2.0510001
-0.16017334 0.6485067 2.0510001
-0.15626667 0.6485067 2.0510001
-0.15236001 0.6485067 2.0510001
-0.14845334 0.6485067 2.0510001
-0.14454667 0.6485067 2.0510001
-0.14064001 0.6485067 2.0510001
-0.13673334 0.6485067 2.0510001
-0.13282667 0.6485067 2.0510001
-0.12892 0.6485067 2.0510001
-0.12501334 0.6485067 2.0510001
-0.12110667 0.6485067 2.0510001
-0.1172 0.6485067 2.0510001
-0.11263048 0.64471239 2.039
-0.10874667 0.64471239 2.039
-0.10548 0.6485067 2.0510001
-0.10097905 0.64471239 2.039
-0.097095244 0.64471239 2.039
-0.093211435 0.64471239 2.039
-0.089327626 0.64471239 2.039
-0.08544381 0.64471239 2.039
-0.081560001 0.64471239 2.039
0.015085715 0.62605715 1.9800001
0.01897143 0.62985146 1.9920001
0.022765715 0.62985146 1.9920001
0.026253335 0.6225791 1.9690001
0.03000381 0.6225791 1.9690001
0.033754285 0.6225791 1.9690001
0.037504762 0.6225791 1.9690001
0.041024763 0.61910099 1.9580001
0.044754289 0.61910099 1.9580001
0.048756193 0.6225791 1.9690001
0.05250667 0.6225791 1.9690001
0.056257144 0.6225791 1.9690001
0.060007621 0.6225791 1.9690001
0.063758098 0.6225791 1.9690001
0.067508571 0.6225791 1.9690001
0.071657144 0.62605715 1.9800001
0.075009525 0.6225791 1.9690001
0.078760006 0.6225791 1.9690001
0.082510479 0.6225791 1.9690001
0.11672381 0.60550481 1.9150001
0.12037143 0.60550481 1.9150001
0.12401905 0.60550481 1.9150001
0.12693334 0.6020267 1.904
0.13056001 0.6020267 1.904
0.1334819 0.59886479 1.8940001
0.13708954 0.59886479 1.8940001
0.13988 0.59538668 1.8830001
0.14346667 0.59538668 1.8830001
0.14627239 0.59222478 1.8730001
0.15064001 0.59538668 1.8830001
0.15422668 0.59538668 1.8830001
0.17826286 0.67253715 2.1270001
0.18231429 0.67253715 2.1270001
0.18636572 0.67253715 2.1270001
0.18925335 0.66842669 2.1140001
0.19328001 0.66842669 2.1140001
0.19730668 0.66842669 2.1140001
0.20009525 0.66431624 2.1010001
0.20536001 0.66842669 2.1140001
0.20809905 0.66431624 2.1010001
0.21210095 0.66431624 2.1010001
0.21610287 0.66431624 2.1010001
0.22010477 0.66431624 2.1010001
0.22410667 0.66431624 2.1010001
0.22810858 0.66431624 2.1010001
0.26829526 0.68518478 2.1670001
0.27066287 0.68075812 2.1530001
0.27476382 0.68075812 2.1530001
0.27718097 0.67664766 2.1400001
0.28125715 0.67664766 2.1400001
0.28533334 0.67664766 2.1400001
0.28940955 0.67664766 2.1400001
0.29348573 0.67664766 2.1400001
-0.2200743 0.64477909 2.0270002
-0.21621335 0.64477909 2.0270002
-0.21109524 0.64096195 2.0150001
-0.20725715 0.64096195 2.0150001
-0.16504 0.65623051 2.0630002
-0.16111048 0.65623051 2.0630002
-0.15718096 0.65623051 2.0630002
-0.15236001 0.65241337 2.0510001
-0.14932191 0.65623051 2.0630002
-0.14539239 0.65623051 2.0630002
-0.14146286 0.65623051 2.0630002
-0.13673334 0.65241337 2.0510001
-0.13282667 0.65241337 2.0510001
-0.12892 0.65241337 2.0510001
-0.12501334 0.65241337 2.0510001
-0.12110667 0.65241337 2.0510001
-0.11651429 0.64859623 2.039
-0.11263048 0.64859623 2.039
-0.10874667 0.64859623 2.039
-0.10486286 0.64859623 2.039
-0.10097905 0.64859623 2.039
-0.097095244 0.64859623 2.039
-0.093211435 0.64859623 2.039
-0.089327626 0.64859623 2.039
-0.08544381 0.64859623 2.039
-0.081560001 0.64859623 2.039
0.01897143 0.63364571 1.9920001
0.022765715 0.63364571 1.9920001
0.033754285 0.62632954 1.9690001
0.037295241 0.62283051 1.9580001
0.041024763 0.62283051 1.9580001
0.044754289 0.62283051 1.9580001
0.048756193 0.62632954 1.9690001
0.05250667 0.62632954 1.9690001
0.056257144 0.62632954 1.9690001
0.060007621 0.62632954 1.9690001
0.063758098 0.62632954 1.9690001
0.067508571 0.62632954 1.9690001
0.071657144 0.62982857 1.9800001
0.075009525 0.62632954 1.9690001
0.078320004 0.62283051 1.9580001
0.082049526 0.62283051 1.9580001
0.085779049 0.62283051 1.9580001
0.12766667 0.60915238 1.9150001
0.13056001 0.60565335 1.904
0.13418667 0.60565335 1.904
0.13708954 0.60247242 1.8940001
0.14069715 0.60247242 1.8940001
0.14346667 0.59897333 1.8830001
0.14627239 0.59579241 1.8730001
0.15064001 0.59897333 1.8830001
0.15422668 0.59897333 1.8830001
0.15781334 0.59897333 1.8830001
0.18231429 0.67658859 2.1270001
0.18636572 0.67658859 2.1270001
0.18925335 0.67245334 2.1140001
0.19328001 0.67245334 2.1140001
0.19609334 0.66831809 2.1010001
0.20009525 0.66831809 2.1010001
0.20409715 0.66831809 2.1010001
0.20809905 0.66831809 2.1010001
0.21078858 0.6641829 2.0880001
0.21476573 0.6641829 2.0880001
0.21874286 0.6641829 2.0880001
0.22272001 0.6641829 2.0880001
0.26004001 0.6893124 2.1670001
0.26416764 0.6893124 2.1670001
0.26656193 0.6848591 2.1530001
0.26902857 0.68072385 2.1400001
0.27310476 0.68072385 2.1400001
0.27718097 0.68072385 2.1400001
0.28125715 0.68072385 2.1400001
0.28533334 0.68072385 2.1400001
0.28940955 0.68072385 2.1400001
0.29348573 0.68072385 2.1400001
0.29756191 0.68072385 2.1400001
0.3016381 0.68072385 2.1400001
-0.25002667 0.65632004 2.0510001
-0.24612001 0.65632004 2.0510001
-0.24079619 0.65248001 2.039
-0.23830667 0.65632004 2.0510001
-0.2344 0.65632004 2.0510001
-0.22914477 0.65248001 2.039
-0.22393525 0.64864004 2.0270002
-0.2200743 0.64864004 2.0270002
-0.21621335 0.64864004 2.0270002
-0.21109524 0.64480001 2.0150001
-0.20725715 0.64480001 2.0150001
-0.20341906 0.64480001 2.0150001
-0.19958095 0.64480001 2.0150001
-0.16504 0.66016001 2.0630002
-0.16212572 0.66432005 2.0760002
-0.15817143 0.66432005 2.0760002
-0.15325144 0.66016001 2.0630002
-0.15026286 0.66432005 2.0760002
-0.14630857 0.66432005 2.0760002
-0.14146286 0.66016001 2.0630002
-0.13753334 0.66016001 2.0630002
-0.13282667 0.65632004 2.0510001
-0.12892 0.65632004 2.0510001
-0.12501334 0.65632004 2.0510001
-0.12110667 0.65632004 2.0510001
-0.11651429 0.65248001 2.039
-0.11263048 0.65248001 2.039
-0.10874667 0.65248001 2.039
-0.10548 0.65632004 2.0510001
-0.10097905 0.65248001 2.039
-0.097095244 0.65248001 2.039
-0.093211435 0.65248001 2.039
-0.089327626 0.65248001 2.039
-0.08544381 0.65248001 2.039
0.033565715 0.62656003 1.9580001
0.037295241 0.62656003 1.9580001
0.041024763 0.62656003 1.9580001
0.044754289 0.62656003 1.9580001
0.048756193 0.63008004 1.9690001
0.05250667 0.63008004 1.9690001
0.056257144 0.63008004 1.9690001
0.060007621 0.63008004 1.9690001
0.063758098 0.63008004 1.9690001
0.067508571 0.63008004 1.9690001
0.071657144 0.6336 1.9800001
0.074590482 0.62656003 1.9580001
0.078320004 0.62656003 1.9580001
0.081127621 0.61952001 1.9360001
0.083895244 0.6128 1.9150001
0.087542862 0.6128 1.9150001
0.09119048 0.6128 1.9150001
0.094293334 0.60928005 1.904
0.097920001 0.60928005 1.904
0.12766667 0.6128 1.9150001
0.13056001 0.60928005 1.904
0.13418667 0.60928005 1.904
0.13781334 0.60928005 1.904
0.14069715 0.60608 1.8940001
0.14346667 0.60256004 1.8830001
0.14705335 0.60256004 1.8830001
0.15064001 0.60256004 1.8830001
0.15340762 0.59936005 1.8730001
0.15781334 0.60256004 1.8830001
0.16140001 0.60256004 1.8830001
0.18636572 0.68064004 2.1270001
0.18925335 0.67648 2.1140001
0.19328001 0.67648 2.1140001
0.19609334 0.67232001 2.1010001
0.20009525 0.67232001 2.1010001
0.20409715 0.67232001 2.1010001
0.20681144 0.66816002 2.0880001
0.21078858 0.66816002 2.0880001
0.21610287 0.67232001 2.1010001
0.21874286 0.66816002 2.0880001
0.22272001 0.66816002 2.0880001
0.25591239 0.69344002 2.1670001
0.25836 0.68896002 2.1530001
0.26246098 0.68896002 2.1530001
0.26656193 0.68896002 2.1530001
0.26902857 0.68480003 2.1400001
0.27310476 0.68480003 2.1400001
0.27718097 0.68480003 2.1400001
0.28125715 0.68480003 2.1400001
0.28533334 0.68480003 2.1400001
0.28940955 0.68480003 2.1400001
0.29718858 0.69344002 2.1670001
0.29936954 0.68896002 2.1530001
0.30347049 0.68896002 2.1530001
0.30757144 0.68896002 2.1530001
-0.25868383 0.65250099 2.0270002
-0.25482288 0.65250099 2.0270002
-0.25244763 0.65636384 2.039
-0.24856383 0.65636384 2.039
-0.24468 0.65636384 2.039
-0.24221334 0.6602267 2.0510001
-0.23830667 0.6602267 2.0510001
-0.2344 0.6602267 2.0510001
-0.22914477 0.65636384 2.039
-0.22526096 0.65636384 2.039
-0.2200743 0.65250099 2.0270002
-0.21621335 0.65250099 2.0270002
-0.21109524 0.64863813 2.0150001
-0.20725715 0.64863813 2.0150001
-0.20220762 0.64477527 2.003
-0.19839239 0.64477527 2.003
-0.19457714 0.64477527 2.003
-0.16212572 0.66827428 2.0760002
-0.15908572 0.67213714 2.0880001
-0.15421715 0.66827428 2.0760002
-0.15026286 0.66827428 2.0760002
-0.14630857 0.66827428 2.0760002
-0.14146286 0.66408956 2.0630002
-0.13753334 0.66408956 2.0630002
-0.13282667 0.6602267 2.0510001
-0.12892 0.6602267 2.0510001
-0.12501334 0.6602267 2.0510001
-0.12110667 0.6602267 2.0510001
-0.11651429 0.65636384 2.039
-0.11263048 0.65636384 2.039
-0.10874667 0.65636384 2.039
-0.10548 0.6602267 2.0510001
-0.10097905 0.65636384 2.039
-0.097095244 0.65636384 2.039
-0.091565721 0.64477527 2.003
-0.08775048 0.64477527 2.003
0.033565715 0.63028955 1.9580001
0.037295241 0.63028955 1.9580001
0.041024763 0.63028955 1.9580001
0.044754289 0.63028955 1.9580001
0.048756193 0.63383049 1.9690001
0.05250667 0.63383049 1.9690001
0.056257144 0.63383049 1.9690001
0.060007621 0.63383049 1.9690001
0.063758098 0.63383049 1.9690001
0.067508571 0.63383049 1.9690001
0.074590482 0.63028955 1.9580001
0.078320004 0.63028955 1.9580001
0.081588574 0.62674862 1.9470001
0.085297145 0.62674862 1.9470001
0.088 0.6196667 1.9250001
0.091666669 0.6196667 1.9250001
0.094293334 0.61290669 1.904
0.097920001 0.61290669 1.904
0.13418667 0.61290669 1.904
0.13708954 0.60968763 1.8940001
0.14069715 0.60968763 1.8940001
0.14346667 0.60614669 1.8830001
0.14705335 0.60614669 1.8830001
0.15064001 0.60614669 1.8830001
0.15340762 0.60292763 1.8730001
0.15697524 0.60292763 1.8730001
0.15968572 0.59970862 1.863
0.16323429 0.59970862 1.863
0.16678286 0.59970862 1.863
0.17033143 0.59970862 1.863
0.17388001 0.59970862 1.863
0.17742857 0.59970862 1.863
0.20283429 0.67213714 2.0880001
0.20562287 0.66827428 2.0760002
0.21210095 0.67632192 2.1010001
0.21476573 0.67213714 2.0880001
0.21612382 0.66408956 2.0630002
0.22005334 0.66408956 2.0630002
0.25425905 0.69306099 2.1530001
0.25836 0.69306099 2.1530001
0.26246098 0.69306099 2.1530001
0.26656193 0.69306099 2.1530001
0.26902857 0.68887621 2.1400001
0.27310476 0.68887621 2.1400001
0.27718097 0.68887621 2.1400001
0.28296572 0.69306099 2.1530001
0.28706667 0.69306099 2.1530001
0.29116762 0.69306099 2.1530001
0.29718858 0.69756764 2.1670001
0.29936954 0.69306099 2.1530001
0.30347049 0.69306099 2.1530001
0.30571431 0.68887621 2.1400001
0.30979049 0.68887621 2.1400001
-0.29169524 0.65247619 2.0150001
-0.28785715 0.65247619 2.0150001
-0.28401905 0.65247619 2.0150001
-0.28018096 0.65247619 2.0150001
-0.26956001 0.66413337 2.0510001
-0.26409906 0.66024762 2.039
-0.26021525 0.66024762 2.039
-0.25633144 0.66024762 2.039
-0.25393334 0.66413337 2.0510001
-0.25002667 0.66413337 2.0510001
-0.24468 0.66024762 2.039
-0.24221334 0.66413337 2.0510001
-0.23830667 0.66413337 2.0510001
-0.2344 0.66413337 2.0510001
-0.23049334 0.66413337 2.0510001
-0.22526096 0.66024762 2.039
-0.2200743 0.65636194 2.0270002
-0.21749334 0.66024762 2.039
-0.21109524 0.65247619 2.0150001
-0.20725715 0.65247619 2.0150001
-0.20341906 0.65247619 2.0150001
-0.19839239 0.64859051 2.003
-0.19350858 0.64502859 1.9920001
-0.1897143 0.64502859 1.9920001
-0.15908572 0.67611432 2.0880001
-0.15421715 0.67222857 2.0760002
-0.15113144 0.67611432 2.0880001
-0.14715429 0.67611432 2.0880001
-0.14235429 0.67222857 2.0760002
-0.13753334 0.66801906 2.0630002
-0.13360381 0.66801906 2.0630002
-0.12967429 0.66801906 2.0630002
-0.12501334 0.66413337 2.0510001
-0.12110667 0.66413337 2.0510001
-0.1172 0.66413337 2.0510001
-0.11329333 0.66413337 2.0510001
-0.10874667 0.66024762 2.039
-0.10548 0.66413337 2.0510001
-0.10157334 0.66413337 2.0510001
-0.097666673 0.66413337 2.0510001
-0.092114292 0.65247619 2.0150001
-0.088276193 0.65247619 2.0150001
0.037295241 0.63401908 1.9580001
0.041024763 0.63401908 1.9580001
0.044754289 0.63401908 1.9580001
0.048756193 0.63758099 1.9690001
0.05250667 0.63758099 1.9690001
0.056257144 0.63758099 1.9690001
0.060007621 0.63758099 1.9690001
0.063758098 0.63758099 1.9690001
0.078320004 0.63401908 1.9580001
0.081588574 0.63045716 1.9470001
0.085297145 0.63045716 1.9470001
0.088502862 0.62689525 1.9360001
0.092190482 0.62689525 1.9360001
0.13708954 0.61329526 1.8940001
0.14069715 0.61329526 1.8940001
0.14346667 0.60973334 1.8830001
0.14627239 0.60649526 1.8730001
0.14984001 0.60649526 1.8730001
0.15340762 0.60649526 1.8730001
0.15697524 0.60649526 1.8730001
0.15968572 0.60325718 1.863
0.16323429 0.60325718 1.863
0.16588762 0.6000191 1.853
0.16941714 0.6000191 1.853
0.17294668 0.6000191 1.853
0.17742857 0.60325718 1.863
0.17718858 0.59062856 1.8240001
0.18066287 0.59062856 1.8240001
0.18413715 0.59062856 1.8240001
0.21476573 0.67611432 2.0880001
0.25425905 0.69716191 2.1530001
0.26656193 0.69716191 2.1530001
0.26902857 0.69295239 2.1400001
0.27476382 0.69716191 2.1530001
0.27886477 0.69716191 2.1530001
0.28296572 0.69716191 2.1530001
0.28893334 0.70169526 2.1670001
0.29116762 0.69716191 2.1530001
0.29718858 0.70169526 2.1670001
0.3013162 0.70169526 2.1670001
0.30347049 0.69716191 2.1530001
0.30571431 0.69295239 2.1400001
0.30979049 0.69295239 2.1400001
-0.30140382 0.65240574 2.003
-0.29937145 0.65631431 2.0150001
-0.29553336 0.65631431 2.0150001
-0.29516953 0.66413146 2.039
-0.29128572 0.66413146 2.039
-0.28909335 0.66804004 2.0510001
-0.28518668 0.66804004 2.0510001
-0.28128001 0.66804004 2.0510001
-0.27737334 0.66804004 2.0510001
-0.27346668 0.66804004 2.0510001
-0.26956001 0.66804004 2.0510001
-0.26565334 0.66804004 2.0510001
-0.26021525 0.66413146 2.039
-0.25633144 0.66413146 2.039
-0.25393334 0.66804004 2.0510001
-0.25002667 0.66804004 2.0510001
-0.24612001 0.66804004 2.0510001
-0.24221334 0.66804004 2.0510001
-0.23830667 0.66804004 2.0510001
-0.2344 0.66804004 2.0510001
-0.23049334 0.66804004 2.0510001
-0.22526096 0.66413146 2.039
-0.22137715 0.66413146 2.039
-0.21749334 0.66413146 2.039
-0.21360953 0.66413146 2.039
-0.20725715 0.65631431 2.0150001
-0.20341906 0.65631431 2.0150001
-0.19839239 0.65240574 2.003
-0.19350858 0.6488229 1.9920001
-0.19076191 0.65240574 2.003
-0.18694668 0.65240574 2.003
-0.15908572 0.68009144 2.0880001
-0.15421715 0.67618287 2.0760002
-0.15113144 0.68009144 2.0880001
-0.14715429 0.68009144 2.0880001
-0.14235429 0.67618287 2.0760002
-0.1384 0.67618287 2.0760002
-0.13204953 0.66413146 2.039
-0.12967429 0.67194861 2.0630002
-0.12501334 0.66804004 2.0510001
-0.12110667 0.66804004 2.0510001
-0.11651429 0.66413146 2.039
-0.11263048 0.66413146 2.039
-0.10874667 0.66413146 2.039
-0.10548 0.66804004 2.0510001
-0.10157334 0.66804004 2.0510001
-0.097666673 0.66804004 2.0510001
-0.093760006 0.66804004 2.0510001
-0.088276193 0.65631431 2.0150001
0.037295241 0.6377486 1.9580001
0.041255239 0.64133143 1.9690001
0.045005716 0.64133143 1.9690001
0.048756193 0.64133143 1.9690001
0.05250667 0.64133143 1.9690001
0.056257144 0.64133143 1.9690001
0.060007621 0.64133143 1.9690001
0.081588574 0.63416576 1.9470001
0.085297145 0.63416576 1.9470001
0.089005716 0.63416576 1.9470001
0.092190482 0.63058287 1.9360001
0.14346667 0.61331999 1.8830001
0.14627239 0.6100629 1.8730001
0.14984001 0.6100629 1.8730001
0.15340762 0.6100629 1.8730001
0.15697524 0.6100629 1.8730001
0.15968572 0.60680574 1.863
0.16323429 0.60680574 1.863
0.16588762 0.60354859 1.853
0.16941714 0.60354859 1.853
0.17201334 0.60029143 1.8430001
0.17552382 0.60029143 1.8430001
0.17718858 0.59410286 1.8240001
0.18066287 0.59410286 1.8240001
0.18413715 0.59410286 1.8240001
0.26902857 0.69702858 2.1400001
0.27476382 0.70126289 2.1530001
0.27886477 0.70126289 2.1530001
0.28296572 0.70126289 2.1530001
0.28893334 0.70582289 2.1670001
0.29306096 0.70582289 2.1670001
0.29718858 0.70582289 2.1670001
0.3013162 0.70582289 2.1670001
0.30544382 0.70582289 2.1670001
0.30757144 0.70126289 2.1530001
0.31167239 0.70126289 2.1530001
-0.30320954 0.66015238 2.0150001
-0.29937145 0.66015238 2.0150001
-0.29905334 0.66801524 2.039
-0.29690668 0.6719467 2.0510001
-0.29300001 0.6719467 2.0510001
-0.28909335 0.6719467 2.0510001
-0.28518668 0.6719467 2.0510001
-0.28292572 0.67587811 2.0630002
-0.2789962 0.67587811 2.0630002
-0.27506667 0.67587811 2.0630002
-0.26956001 0.6719467 2.0510001
-0.26565334 0.6719467 2.0510001
-0.26174667 0.6719467 2.0510001
-0.25784001 0.6719467 2.0510001
-0.25393334 0.6719467 2.0510001
-0.25002667 0.6719467 2.0510001
-0.24612001 0.6719467 2.0510001
-0.24221334 0.6719467 2.0510001
-0.23830667 0.6719467 2.0510001
-0.2344 0.6719467 2.0510001
-0.23049334 0.6719467 2.0510001
-0.22658667 0.6719467 2.0510001
-0.22137715 0.66801524 2.039
-0.21749334 0.66801524 2.039
-0.21360953 0.66801524 2.039
-0.20849143 0.66408384 2.0270002
-0.20463048 0.66408384 2.0270002
-0.19958095 0.66015238 2.0150001
-0.19690858 0.66408384 2.0270002
-0.19304763 0.66408384 2.0270002
-0.18806668 0.66015238 2.0150001
-0.18422858 0.66015238 2.0150001
-0.18039048 0.66015238 2.0150001
-0.17655239 0.66015238 2.0150001
-0.17271429 0.66015238 2.0150001
-0.14715429 0.68406862 2.0880001
-0.14235429 0.68013716 2.0760002
-0.13753334 0.67587811 2.0630002
-0.13282667 0.6719467 2.0510001
-0.12967429 0.67587811 2.0630002
-0.12501334 0.6719467 2.0510001
-0.12110667 0.6719467 2.0510001
-0.11651429 0.66801524 2.039
-0.11263048 0.66801524 2.039
-0.10874667 0.66801524 2.039
-0.10548 0.6719467 2.0510001
-0.10157334 0.6719467 2.0510001
-0.097666673 0.6719467 2.0510001
-0.093760006 0.6719467 2.0510001
0.041255239 0.64508194 1.9690001
0.045005716 0.64508194 1.9690001
0.048756193 0.64508194 1.9690001
0.052800003 0.64868575 1.9800001
0.056571431 0.64868575 1.9800001
0.060007621 0.64508194 1.9690001
0.081588574 0.63787431 1.9470001
0.085297145 0.63787431 1.9470001
0.089005716 0.63787431 1.9470001
0.14627239 0.61363047 1.8730001
0.14904 0.6103543 1.863
0.15258858 0.6103543 1.863
0.15697524 0.61363047 1.8730001
0.15968572 0.6103543 1.863
0.16323429 0.6103543 1.863
0.16678286 0.6103543 1.863
0.16941714 0.60707814 1.853
0.17201334 0.60380191 1.8430001
0.17552382 0.60380191 1.8430001
0.17718858 0.59757715 1.8240001
0.18066287 0.59757715 1.8240001
0.18413715 0.59757715 1.8240001
0.28249145 0.71453714 2.181
0.28480572 0.70995051 2.1670001
0.29080001 0.71453714 2.181
0.29306096 0.70995051 2.1670001
0.29718858 0.70995051 2.1670001
0.3013162 0.70995051 2.1670001
0.30544382 0.70995051 2.1670001
0.30757144 0.70536381 2.1530001
0.31167239 0.70536381 2.1530001
-0.30862668 0.67585337 2.0510001
-0.30472001 0.67585337 2.0510001
-0.30081335 0.67585337 2.0510001
-0.29690668 0.67585337 2.0510001
-0.29300001 0.67585337 2.0510001
-0.29078478 0.67980766 2.0630002
-0.28685525 0.67980766 2.0630002
-0.28292572 0.67980766 2.0630002
-0.2789962 0.67980766 2.0630002
-0.27506667 0.67980766 2.0630002
-0.26956001 0.67585337 2.0510001
-0.26565334 0.67585337 2.0510001
-0.26174667 0.67585337 2.0510001
-0.25784001 0.67585337 2.0510001
-0.25393334 0.67585337 2.0510001
-0.25002667 0.67585337 2.0510001
-0.24612001 0.67585337 2.0510001
-0.24221334 0.67585337 2.0510001
-0.23830667 0.67585337 2.0510001
-0.2344 0.67585337 2.0510001
-0.23049334 0.67585337 2.0510001
-0.22658667 0.67585337 2.0510001
-0.22268 0.67585337 2.0510001
-0.21749334 0.67189908 2.039
-0.21486667 0.67585337 2.0510001
-0.20849143 0.66794479 2.0270002
-0.20463048 0.66794479 2.0270002
-0.19958095 0.6639905 2.0150001
-0.19690858 0.66794479 2.0270002
-0.19304763 0.66794479 2.0270002
-0.18806668 0.6639905 2.0150001
-0.18422858 0.6639905 2.0150001
-0.17931619 0.66003621 2.003
-0.17550096 0.66003621 2.003
-0.17271429 0.6639905 2.0150001
-0.14235429 0.68409145 2.0760002
-0.13753334 0.67980766 2.0630002
-0.13282667 0.67585337 2.0510001
-0.12892 0.67585337 2.0510001
-0.12501334 0.67585337 2.0510001
-0.12110667 0.67585337 2.0510001
-0.1172 0.67585337 2.0510001
-0.11329333 0.67585337 2.0510001
-0.10874667 0.67189908 2.039
-0.10548 0.67585337 2.0510001
-0.10157334 0.67585337 2.0510001
-0.097666673 0.67585337 2.0510001
0.052800003 0.65245718 1.9800001
0.056571431 0.65245718 1.9800001
0.14904 0.61390287 1.863
0.15258858 0.61390287 1.863
0.15697524 0.61719811 1.8730001
0.15968572 0.61390287 1.863
0.16323429 0.61390287 1.863
0.16678286 0.61390287 1.863
0.17033143 0.61390287 1.863
0.17201334 0.60731238 1.8430001
0.17718858 0.60105145 1.8240001
0.18066287 0.60105145 1.8240001
0.28598857 0.72758859 2.2080002
0.28835431 0.72297525 2.194
0.29080001 0.71869147 2.181
0.29306096 0.71407813 2.1670001
0.29718858 0.71407813 2.1670001
0.3013162 0.71407813 2.1670001
0.30544382 0.71407813 2.1670001
0.30957144 0.71407813 2.1670001
0.31369907 0.71407813 2.1670001
-0.31253335 0.67976004 2.0510001
-0.30862668 0.67976004 2.0510001
-0.30472001 0.67976004 2.0510001
-0.30081335 0.67976004 2.0510001
-0.29690668 0.67976004 2.0510001
-0.2947143 0.68373716 2.0630002
-0.29078478 0.68373716 2.0630002
-0.28518668 0.67976004 2.0510001
-0.28292572 0.68373716 2.0630002
-0.2789962 0.68373716 2.0630002
-0.27506667 0.68373716 2.0630002
-0.27113715 0.68373716 2.0630002
-0.26565334 0.67976004 2.0510001
-0.26021525 0.67578286 2.039
-0.25633144 0.67578286 2.039
-0.25393334 0.67976004 2.0510001
-0.25002667 0.67976004 2.0510001
-0.24612001 0.67976004 2.0510001
-0.24221334 0.67976004 2.0510001
-0.23830667 0.67976004 2.0510001
-0.2344 0.67976004 2.0510001
-0.23049334 0.67976004 2.0510001
-0.22658667 0.67976004 2.0510001
-0.22268 0.67976004 2.0510001
-0.21877334 0.67976004 2.0510001
-0.21486667 0.67976004 2.0510001
-0.20972572 0.67578286 2.039
-0.20463048 0.67180574 2.0270002
-0.19958095 0.66782862 2.0150001
-0.19690858 0.67180574 2.0270002
-0.19304763 0.67180574 2.0270002
-0.18918668 0.67180574 2.0270002
-0.18422858 0.66782862 2.0150001
-0.17931619 0.66385144 2.003
-0.17550096 0.66385144 2.003
-0.13753334 0.68373716 2.0630002
-0.13282667 0.67976004 2.0510001
-0.12892 0.67976004 2.0510001
-0.1172 0.67976004 2.0510001
-0.11329333 0.67976004 2.0510001
0.15613715 0.61745143 1.863
0.15968572 0.61745143 1.863
0.16323429 0.61745143 1.863
0.16588762 0.61413717 1.853
0.16941714 0.61413717 1.853
0.28835431 0.72715431 2.194
0.29253334 0.72715431 2.194
0.2949543 0.72284573 2.181
0.29910859 0.72284573 2.181
0.30326286 0.72284573 2.181
0.30741715 0.72284573 2.181
0.30957144 0.71820575 2.1670001
0.31369907 0.71820575 2.1670001
-0.31634286 0.69200003 2.0760002
-0.3104324 0.68766671 2.0630002
-0.30472001 0.68366671 2.0510001
-0.30081335 0.68366671 2.0510001
-0.29690668 0.68366671 2.0510001
-0.2947143 0.68766671 2.0630002
-0.29078478 0.68766671 2.0630002
-0.28518668 0.68366671 2.0510001
-0.28128001 0.68366671 2.0510001
-0.27575049 0.6796667 2.039
-0.27186668 0.6796667 2.039
-0.26798287 0.6796667 2.039
-0.26409906 0.6796667 2.039
-0.25868383 0.67566669 2.0270002
-0.25482288 0.67566669 2.0270002
-0.25393334 0.68366671 2.0510001
-0.25002667 0.68366671 2.0510001
-0.24612001 0.68366671 2.0510001
-0.24221334 0.68366671 2.0510001
-0.23830667 0.68366671 2.0510001
-0.2344 0.68366671 2.0510001
-0.23049334 0.68366671 2.0510001
-0.22658667 0.68366671 2.0510001
-0.22137715 0.6796667 2.039
-0.21749334 0.6796667 2.039
-0.21360953 0.6796667 2.039
-0.20849143 0.67566669 2.0270002
-0.20463048 0.67566669 2.0270002
-0.19958095 0.67166668 2.0150001
-0.19690858 0.67566669 2.0270002
-0.19304763 0.67566669 2.0270002
-0.18918668 0.67566669 2.0270002
-0.18422858 0.67166668 2.0150001
-0.17931619 0.66766667 2.003
-0.17550096 0.66766667 2.003
-0.17168573 0.66766667 2.003
0.15613715 0.62100005 1.863
0.15968572 0.62100005 1.863
0.16323429 0.62100005 1.863
0.16588762 0.61766666 1.853
0.17108001 0.611 1.8330001
0.1737143 0.60800004 1.8240001
0.17718858 0.60800004 1.8240001
0.29440001 0.736 2.2080002
0.2949543 0.727 2.181
0.29910859 0.727 2.181
0.3013162 0.72233337 2.1670001
0.30741715 0.727 2.181
0.30957144 0.72233337 2.1670001
0.31369907 0.72233337 2.1670001
-0.32222095 0.69159621 2.0630002
-0.31829143 0.69159621 2.0630002
-0.31634286 0.69595432 2.0760002
-0.3104324 0.69159621 2.0630002
-0.30472001 0.68757337 2.0510001
-0.30081335 0.68757337 2.0510001
-0.29864383 0.69159621 2.0630002
-0.2947143 0.69159621 2.0630002
-0.29078478 0.69159621 2.0630002
-0.28518668 0.68757337 2.0510001
-0.28128001 0.68757337 2.0510001
-0.27575049 0.68355048 2.039
-0.27186668 0.68355048 2.039
-0.26798287 0.68355048 2.039
-0.26254478 0.67952764 2.0270002
-0.25715238 0.6755048 2.0150001
-0.25331429 0.6755048 2.0150001
-0.25244763 0.68355048 2.039
-0.25002667 0.68757337 2.0510001
-0.24612001 0.68757337 2.0510001
-0.24221334 0.68757337 2.0510001
-0.23691238 0.68355048 2.039
-0.2344 0.68757337 2.0510001
-0.23049334 0.68757337 2.0510001
-0.22658667 0.68757337 2.0510001
-0.22268 0.68757337 2.0510001
-0.21877334 0.68757337 2.0510001
-0.21486667 0.68757337 2.0510001
-0.20849143 0.67952764 2.0270002
-0.20463048 0.67952764 2.0270002
-0.19958095 0.6755048 2.0150001
-0.19690858 0.67952764 2.0270002
-0.19304763 0.67952764 2.0270002
-0.18694668 0.67148191 2.003
-0.18313144 0.67148191 2.003
0.17457144 0.61449146 1.8330001
0.17806287 0.61449146 1.8330001
0.18155429 0.61449146 1.8330001
0.18504572 0.61449146 1.8330001
0.29253334 0.73551244 2.194
0.2949543 0.73115432 2.181
0.29910859 0.73115432 2.181
0.3013162 0.72646099 2.1670001
0.30544382 0.72646099 2.1670001
0.30957144 0.72646099 2.1670001
0.31369907 0.72646099 2.1670001
-0.32820573 0.69990861 2.0760002
-0.32425144 0.69990861 2.0760002
-0.32029715 0.69990861 2.0760002
-0.31634286 0.69990861 2.0760002
-0.3104324 0.69552577 2.0630002
-0.30472001 0.69148004 2.0510001
-0.30081335 0.69148004 2.0510001
-0.29864383 0.69552577 2.0630002
-0.2947143 0.69552577 2.0630002
-0.29078478 0.69552577 2.0630002
-0.28518668 0.69148004 2.0510001
-0.28128001 0.69148004 2.0510001
-0.27575049 0.68743432 2.039
-0.27026668 0.68338859 2.0270002
-0.26640573 0.68338859 2.0270002
-0.26254478 0.68338859 2.0270002
-0.25715238 0.67934287 2.0150001
-0.25331429 0.67934287 2.0150001
-0.25393334 0.69148004 2.0510001
-0.25002667 0.69148004 2.0510001
-0.24468 0.68743432 2.039
-0.23937906 0.68338859 2.0270002
-0.23830667 0.69148004 2.0510001
-0.2344 0.69148004 2.0510001
-0.23049334 0.69148004 2.0510001
-0.20341906 0.67934287 2.0150001
-0.19958095 0.67934287 2.0150001
-0.19574286 0.67934287 2.0150001
-0.19190477 0.67934287 2.0150001
-0.18694668 0.67529714 2.003
-0.18313144 0.67529714 2.003
0.15697524 0.63146859 1.8730001
0.16054286 0.63146859 1.8730001
0.2967124 0.73969144 2.194
0.29910859 0.73530859 2.181
0.3013162 0.73058861 2.1670001
0.30544382 0.73058861 2.1670001
0.30757144 0.72586858 2.1530001
0.31167239 0.72586858 2.1530001
0.31577334 0.72586858 2.1530001
-0.32820573 0.70386291 2.0760002
-0.32425144 0.70386291 2.0760002
-0.32029715 0.70386291 2.0760002
-0.31634286 0.70386291 2.0760002
-0.3104324 0.69945526 2.0630002
-0.30472001 0.69538671 2.0510001
-0.30081335 0.69538671 2.0510001
-0.29864383 0.69945526 2.0630002
-0.2947143 0.69945526 2.0630002
-0.29078478 0.69945526 2.0630002
-0.28518668 0.69538671 2.0510001
-0.2796343 0.69131809 2.039
-0.27575049 0.69131809 2.039
-0.27186668 0.69131809 2.039
-0.26798287 0.69131809 2.039
0.12265905 0.64215624 1.8940001
0.12626667 0.64215624 1.8940001
0.12987429 0.64215624 1.8940001
0.1334819 0.64215624 1.8940001
0.13708954 0.64215624 1.8940001
0.13988 0.63842666 1.8830001
0.14346667 0.63842666 1.8830001
0.14705335 0.63842666 1.8830001
0.15152 0.64215624 1.8940001
0.15422668 0.63842666 1.8830001
0.15697524 0.63503623 1.8730001
0.16054286 0.63503623 1.8730001
0.16323429 0.63164574 1.863
0.16678286 0.63164574 1.863
0.29910859 0.73946291 2.181
0.29936954 0.72996956 2.1530001
0.30544382 0.73471624 2.1670001
0.30757144 0.72996956 2.1530001
0.30979049 0.72556192 2.1400001
0.31386667 0.72556192 2.1400001
0.31794286 0.72556192 2.1400001
-0.32425144 0.7078172 2.0760002
-0.31829143 0.70338482 2.0630002
-0.31436193 0.70338482 2.0630002
-0.3104324 0.70338482 2.0630002
-0.30472001 0.69929338 2.0510001
-0.30081335 0.69929338 2.0510001
-0.29864383 0.70338482 2.0630002
-0.2947143 0.70338482 2.0630002
-0.29078478 0.70338482 2.0630002
-0.28685525 0.70338482 2.0630002
0.10042667 0.64201337 1.8830001
0.10401334 0.64201337 1.8830001
0.11242667 0.64917338 1.904
0.11605334 0.64917338 1.904
0.11905143 0.64576381 1.8940001
0.12265905 0.64576381 1.8940001
0.12626667 0.64576381 1.8940001
0.12987429 0.64576381 1.8940001
0.1334819 0.64576381 1.8940001
0.13629334 0.64201337 1.8830001
0.13988 0.64201337 1.8830001
0.14346667 0.64201337 1.8830001
0.14627239 0.63860381 1.8730001
0.15064001 0.64201337 1.8830001
0.15340762 0.63860381 1.8730001
0.15697524 0.63860381 1.8730001
0.15968572 0.6351943 1.863
0.16323429 0.6351943 1.863
0.16678286 0.6351943 1.863
0.2952686 0.73407048 2.1530001
0.29756191 0.7296381 2.1400001
0.30347049 0.73407048 2.1530001
0.30571431 0.7296381 2.1400001
0.30979049 0.7296381 2.1400001
0.31386667 0.7296381 2.1400001
0.31794286 0.7296381 2.1400001
0.32201907 0.7296381 2.1400001
-0.31829143 0.70731431 2.0630002
-0.31253335 0.70320004 2.0510001
-0.30682096 0.69908571 2.039
-0.30293715 0.69908571 2.039
-0.29905334 0.69908571 2.039
-0.29516953 0.69908571 2.039
-0.29128572 0.69908571 2.039
0.10154667 0.65280002 1.904
0.10578096 0.65657145 1.9150001
0.10942858 0.65657145 1.9150001
0.11242667 0.65280002 1.904
0.11605334 0.65280002 1.904
0.11968 0.65280002 1.904
0.12330667 0.65280002 1.904
0.12626667 0.64937145 1.8940001
0.12987429 0.64937145 1.8940001
0.1334819 0.64937145 1.8940001
0.13708954 0.64937145 1.8940001
0.13988 0.64560002 1.8830001
0.14346667 0.64560002 1.8830001
0.14705335 0.64560002 1.8830001
0.15064001 0.64560002 1.8830001
0.15340762 0.64217144 1.8730001
0.15697524 0.64217144 1.8730001
0.15968572 0.63874286 1.863
0.16323429 0.63874286 1.863
0.16678286 0.63874286 1.863
0.29718858 0.74297148 2.1670001
0.29936954 0.73817146 2.1530001
0.30347049 0.73817146 2.1530001
0.30571431 0.73371434 2.1400001
0.30979049 0.73371434 2.1400001
0.31386667 0.73371434 2.1400001
0.31794286 0.73371434 2.1400001
0.32201907 0.73371434 2.1400001
0.32609525 0.73371434 2.1400001
-0.31829143 0.71124381 2.0630002
-0.31070477 0.70296955 2.039
-0.30501524 0.69883239 2.0270002
-0.30115429 0.69883239 2.0270002
-0.29729334 0.69883239 2.0270002
-0.29343238 0.69883239 2.0270002
-0.07412 0.63884383 1.853
-0.070590481 0.63884383 1.853
-0.067060955 0.63884383 1.853
-0.063531429 0.63884383 1.853
-0.060325716 0.64229143 1.863
-0.056777146 0.64229143 1.863
-0.053228572 0.64229143 1.863
-0.049680002 0.64229143 1.863
0.098485716 0.66021907 1.9150001
0.10213333 0.66021907 1.9150001
0.10578096 0.66021907 1.9150001
0.10942858 0.66021907 1.9150001
0.1130762 0.66021907 1.9150001
0.11605334 0.65642667 1.904
0.11968 0.65642667 1.904
0.12330667 0.65642667 1.904
0.12693334 0.65642667 1.904
0.13056001 0.65642667 1.904
0.13418667 0.65642667 1.904
0.13708954 0.65297908 1.8940001
0.14069715 0.65297908 1.8940001
