# .PCD v0.7 - Point Cloud Data file format
VERSION 0.7
FIELDS x y z
SIZE 4 4 4
TYPE F F F
COUNT 1 1 1
WIDTH 1510
HEIGHT 1
VIEWPOINT 0 0 0 1 0 0 0
POINTS 1510
DATA ascii
0.10676572 0.64454859 2.0760002
0.10874667 0.63306099 2.039
0.11263048 0.63306099 2.039
0.10942858 0.59456193 1.9150001
0.1130762 0.59456193 1.9150001
0.11672381 0.59456193 1.9150001
0.11968 0.59114671 1.904
0.12330667 0.59114671 1.904
0.12693334 0.59114671 1.904
0.12987429 0.5880419 1.8940001
0.13270667 0.58462667 1.8830001
0.13629334 0.58462667 1.8830001
0.13913715 0.58152193 1.8730001
0.14270477 0.58152193 1.8730001
0.26916572 0.68553144 2.2080002
0.2716381 0.68118477 2.194
0.27581716 0.68118477 2.194
0.27999619 0.68118477 2.194
0.28249145 0.67714858 2.181
0.28664571 0.67714858 2.181
-0.20281905 0.60476953 1.9360001
-0.19913143 0.60476953 1.9360001
-0.19433334 0.60133338 1.9250001
-0.19066668 0.60133338 1.9250001
-0.18700001 0.60133338 1.9250001
-0.15829906 0.63319623 2.0270002
-0.15535238 0.63694477 2.039
-0.15057714 0.63319623 2.0270002
-0.14758477 0.63694477 2.039
-0.14370096 0.63694477 2.039
-0.14064001 0.64069337 2.0510001
-0.13673334 0.64069337 2.0510001
-0.13204953 0.63694477 2.039
-0.12665714 0.62944764 2.0150001
-0.12281905 0.62944764 2.0150001
-0.11898096 0.62944764 2.0150001
-0.11582857 0.63319623 2.0270002
-0.11196762 0.63319623 2.0270002
-0.10810667 0.63319623 2.0270002
-0.10486286 0.63694477 2.039
-0.10038476 0.63319623 2.0270002
-0.097095244 0.63694477 2.039
-0.093211435 0.63694477 2.039
-0.089327626 0.63694477 2.039
-0.08544381 0.63694477 2.039
-0.081080005 0.63319623 2.0270002
-0.071352385 0.58508956 1.8730001
-0.067422859 0.58196574 1.863
-0.063874289 0.58196574 1.863
-0.060001906 0.57884192 1.853
-0.057081908 0.58508956 1.8730001
-0.053514287 0.58508956 1.8730001
-0.049946669 0.58508956 1.8730001
-0.046379048 0.58508956 1.8730001
-0.042811431 0.58508956 1.8730001
-0.03924381 0.58508956 1.8730001
-0.037504762 0.61507809 1.9690001
-0.033565715 0.61164194 1.9580001
-0.029836191 0.61164194 1.9580001
-0.02596 0.60820574 1.9470001
-0.022251429 0.60820574 1.9470001
-0.018542858 0.60820574 1.9470001
-0.014834287 0.60820574 1.9470001
-0.011188572 0.61164194 1.9580001
-0.0074590477 0.61164194 1.9580001
-0.0037714287 0.6185143 1.9800001
0 0.6185143 1.9800001
0.0037942859 0.6222629 1.9920001
0.0075885719 0.6222629 1.9920001
0.011382857 0.6222629 1.9920001
0.015260953 0.62569904 2.003
0.01897143 0.6222629 1.9920001
0.022765715 0.6222629 1.9920001
0.026560001 0.6222629 1.9920001
0.030354287 0.6222629 1.9920001
0.034148574 0.6222629 1.9920001
0.03794286 0.6222629 1.9920001
0.041485716 0.6185143 1.9800001
0.045257144 0.6185143 1.9800001
0.048756193 0.61507809 1.9690001
0.052800003 0.6185143 1.9800001
0.056257144 0.61507809 1.9690001
0.059672382 0.61164194 1.9580001
0.063401908 0.61164194 1.9580001
0.06713143 0.61164194 1.9580001
0.070860952 0.61164194 1.9580001
0.074590482 0.61164194 1.9580001
0.078760006 0.61507809 1.9690001
0.082049526 0.61164194 1.9580001
0.09204381 0.65631241 2.1010001
0.095451429 0.65225148 2.0880001
0.098857149 0.64850289 2.0760002
0.10281143 0.64850289 2.0760002
0.10609715 0.6444419 2.0630002
0.10874667 0.63694477 2.039
0.11263048 0.63694477 2.039
0.11862858 0.64850289 2.0760002
0.11242667 0.59477335 1.904
0.11605334 0.59477335 1.904
0.11968 0.59477335 1.904
0.12330667 0.59477335 1.904
0.12626667 0.59164953 1.8940001
0.12987429 0.59164953 1.8940001
0.13270667 0.58821338 1.8830001
0.13556953 0.58508956 1.8730001
0.13913715 0.58508956 1.8730001
0.14270477 0.58508956 1.8730001
0.26916572 0.68973714 2.2080002
0.27337143 0.68973714 2.2080002
0.27757716 0.68973714 2.2080002
0.27999619 0.68536383 2.194
0.28249145 0.68130291 2.181
0.28664571 0.68130291 2.181
-0.20281905 0.60845715 1.9360001
-0.19913143 0.60845715 1.9360001
-0.19433334 0.60500002 1.9250001
-0.19066668 0.60500002 1.9250001
-0.18700001 0.60500002 1.9250001
-0.1688762 0.63328576 2.0150001
-0.16503809 0.63328576 2.0150001
-0.1612 0.63328576 2.0150001
-0.15829906 0.63705719 2.0270002
-0.15443811 0.63705719 2.0270002
-0.15146858 0.64082861 2.039
-0.14758477 0.64082861 2.039
-0.14370096 0.64082861 2.039
-0.13981715 0.64082861 2.039
-0.13593334 0.64082861 2.039
-0.13204953 0.64082861 2.039
-0.12816572 0.64082861 2.039
-0.12281905 0.63328576 2.0150001
-0.11968953 0.63705719 2.0270002
-0.11651429 0.64082861 2.039
-0.11263048 0.64082861 2.039
-0.10874667 0.64082861 2.039
-0.10486286 0.64082861 2.039
-0.10097905 0.64082861 2.039
-0.097095244 0.64082861 2.039
-0.093760006 0.64460003 2.0510001
-0.089327626 0.64082861 2.039
-0.08544381 0.64082861 2.039
-0.081080005 0.63705719 2.0270002
-0.070971429 0.58551431 1.863
-0.067060955 0.58237147 1.853
-0.063531429 0.58237147 1.853
-0.060001906 0.58237147 1.853
-0.057081908 0.58865714 1.8730001
-0.053514287 0.58865714 1.8730001
-0.050213337 0.59180003 1.8830001
-0.046626668 0.59180003 1.8830001
-0.04304 0.59180003 1.8830001
-0.040563811 0.60845715 1.9360001
-0.037295241 0.61537147 1.9580001
-0.033377144 0.61191434 1.9470001
-0.029668573 0.61191434 1.9470001
-0.025813334 0.60845715 1.9360001
-0.022125715 0.60845715 1.9360001
-0.018438095 0.60845715 1.9360001
-0.014834287 0.61191434 1.9470001
-0.011188572 0.61537147 1.9580001
-0.0074590477 0.61537147 1.9580001
-0.0037714287 0.62228572 1.9800001
0 0.62228572 1.9800001
0.0037942859 0.62605715 1.9920001
0.0075885719 0.62605715 1.9920001
0.011382857 0.62605715 1.9920001
0.015260953 0.62951434 2.003
0.01897143 0.62605715 1.9920001
0.022765715 0.62605715 1.9920001
0.026560001 0.62605715 1.9920001
0.030354287 0.62605715 1.9920001
0.034148574 0.62605715 1.9920001
0.03794286 0.62605715 1.9920001
0.041485716 0.62228572 1.9800001
0.045257144 0.62228572 1.9800001
0.048756193 0.61882859 1.9690001
0.05250667 0.61882859 1.9690001
0.056257144 0.61882859 1.9690001
0.059672382 0.61537147 1.9580001
0.063401908 0.61537147 1.9580001
0.06713143 0.61537147 1.9580001
0.070860952 0.61537147 1.9580001
0.074590482 0.61537147 1.9580001
0.078320004 0.61537147 1.9580001
0.081588574 0.61191434 1.9470001
0.085297145 0.61191434 1.9470001
0.095451429 0.6562286 2.0880001
0.098857149 0.65245718 2.0760002
0.10281143 0.65245718 2.0760002
0.10676572 0.65245718 2.0760002
0.10874667 0.64082861 2.039
0.11467429 0.65245718 2.0760002
0.11862858 0.65245718 2.0760002
0.12329143 0.6562286 2.0880001
0.12806095 0.66031432 2.1010001
0.11968 0.5984 1.904
0.12265905 0.59525716 1.8940001
0.12626667 0.59525716 1.8940001
0.12987429 0.59525716 1.8940001
0.13270667 0.59180003 1.8830001
0.13556953 0.58865714 1.8730001
0.13913715 0.58865714 1.8730001
0.14194286 0.58551431 1.863
0.14549144 0.58551431 1.863
0.14904 0.58551431 1.863
0.26496002 0.6939429 2.2080002
0.26916572 0.6939429 2.2080002
0.2716381 0.68954289 2.194
0.27418286 0.68545717 2.181
0.27999619 0.68954289 2.194
0.28067809 0.68105716 2.1670001
0.28296572 0.67665714 2.1530001
0.28706667 0.67665714 2.1530001
-0.19433334 0.60866672 1.9250001
-0.19066668 0.60866672 1.9250001
-0.18700001 0.60866672 1.9250001
-0.1688762 0.63712382 2.0150001
-0.16503809 0.63712382 2.0150001
-0.16216001 0.64091814 2.0270002
-0.15923619 0.64471239 2.039
-0.15626667 0.6485067 2.0510001
-0.15146858 0.64471239 2.039
-0.14758477 0.64471239 2.039
-0.14370096 0.64471239 2.039
-0.13981715 0.64471239 2.039
-0.13673334 0.6485067 2.0510001
-0.13204953 0.64471239 2.039
-0.12816572 0.64471239 2.039
-0.12428191 0.64471239 2.039
-0.1203981 0.64471239 2.039
-0.11651429 0.64471239 2.039
-0.11329333 0.6485067 2.0510001
-0.10874667 0.64471239 2.039
-0.10486286 0.64471239 2.039
-0.10097905 0.64471239 2.039
-0.097095244 0.64471239 2.039
-0.093760006 0.6485067 2.0510001
-0.089853339 0.6485067 2.0510001
-0.085946672 0.6485067 2.0510001
-0.07412 0.58590096 1.853
-0.070590481 0.58590096 1.853
-0.067060955 0.58590096 1.853
-0.063531429 0.58590096 1.853
-0.060001906 0.58590096 1.853
-0.056472383 0.58590096 1.853
-0.052942861 0.58590096 1.853
-0.049946669 0.59222478 1.8730001
-0.046379048 0.59222478 1.8730001
-0.044502858 0.61562288 1.9470001
-0.040794287 0.61562288 1.9470001
-0.037295241 0.61910099 1.9580001
-0.033377144 0.61562288 1.9470001
-0.029500954 0.61214477 1.9360001
-0.025666667 0.60866672 1.9250001
-0.022 0.60866672 1.9250001
-0.018333334 0.60866672 1.9250001
-0.014834287 0.61562288 1.9470001
-0.011188572 0.61910099 1.9580001
-0.0075009526 0.6225791 1.9690001
-0.0037714287 0.62605715 1.9800001
0 0.62985146 1.9920001
0.0037942859 0.62985146 1.9920001
0.0075885719 0.62985146 1.9920001
0.011382857 0.62985146 1.9920001
0.015260953 0.63332957 2.003
0.01897143 0.62985146 1.9920001
0.022765715 0.62985146 1.9920001
0.026560001 0.62985146 1.9920001
0.030354287 0.62985146 1.9920001
0.034148574 0.62985146 1.9920001
0.03794286 0.62985146 1.9920001
0.041737143 0.62985146 1.9920001
0.045257144 0.62605715 1.9800001
0.048756193 0.6225791 1.9690001
0.05250667 0.6225791 1.9690001
0.056257144 0.6225791 1.9690001
0.059672382 0.61910099 1.9580001
0.063401908 0.61910099 1.9580001
0.06713143 0.61910099 1.9580001
0.07046286 0.61562288 1.9470001
0.074171431 0.61562288 1.9470001
0.077880003 0.61562288 1.9470001
0.081588574 0.61562288 1.9470001
0.084815241 0.61214477 1.9360001
0.088502862 0.61214477 1.9360001
0.099428572 0.66020572 2.0880001
0.10281143 0.65641147 2.0760002
0.10676572 0.65641147 2.0760002
0.11072 0.65641147 2.0760002
0.11467429 0.65641147 2.0760002
0.11862858 0.65641147 2.0760002
0.12329143 0.66020572 2.0880001
0.12806095 0.66431624 2.1010001
0.13206287 0.66431624 2.1010001
0.12265905 0.59886479 1.8940001
0.12626667 0.59886479 1.8940001
0.12987429 0.59886479 1.8940001
0.13270667 0.59538668 1.8830001
0.13629334 0.59538668 1.8830001
0.13913715 0.59222478 1.8730001
0.14194286 0.58906287 1.863
0.14549144 0.58906287 1.863
0.14904 0.58906287 1.863
0.25756574 0.68961143 2.181
0.26328 0.69372195 2.194
0.26745906 0.69372195 2.194
0.27002859 0.68961143 2.181
0.27418286 0.68961143 2.181
0.27833715 0.68961143 2.181
0.28067809 0.68518478 2.1670001
0.28296572 0.68075812 2.1530001
0.28706667 0.68075812 2.1530001
0.29116762 0.68075812 2.1530001
0.2952686 0.68075812 2.1530001
-0.22644763 0.64096195 2.0150001
-0.22260953 0.64096195 2.0150001
-0.21877144 0.64096195 2.0150001
-0.21365334 0.6371448 2.003
-0.20868573 0.63364571 1.9920001
-0.20489144 0.63364571 1.9920001
-0.20109715 0.63364571 1.9920001
-0.16503809 0.64096195 2.0150001
-0.16216001 0.64477909 2.0270002
-0.16017334 0.65241337 2.0510001
-0.15718096 0.65623051 2.0630002
-0.15236001 0.65241337 2.0510001
-0.14845334 0.65241337 2.0510001
-0.14454667 0.65241337 2.0510001
-0.14064001 0.65241337 2.0510001
-0.13673334 0.65241337 2.0510001
-0.13204953 0.64859623 2.039
-0.12816572 0.64859623 2.039
-0.12428191 0.64859623 2.039
-0.1203981 0.64859623 2.039
-0.1172 0.65241337 2.0510001
-0.11329333 0.65241337 2.0510001
-0.10874667 0.64859623 2.039
-0.10548 0.65241337 2.0510001
-0.10097905 0.64859623 2.039
-0.097095244 0.64859623 2.039
-0.093760006 0.65241337 2.0510001
-0.089327626 0.64859623 2.039
-0.085946672 0.65241337 2.0510001
-0.07412 0.58943051 1.853
-0.070590481 0.58943051 1.853
-0.067422859 0.59261143 1.863
-0.063874289 0.59261143 1.863
-0.060001906 0.58943051 1.853
-0.056472383 0.58943051 1.853
-0.053228572 0.59261143 1.863
-0.049680002 0.59261143 1.863
-0.046131432 0.59261143 1.863
-0.044502858 0.61933148 1.9470001
-0.040563811 0.61583239 1.9360001
-0.037085716 0.61933148 1.9470001
-0.033377144 0.61933148 1.9470001
-0.029500954 0.61583239 1.9360001
-0.025533333 0.60915238 1.9150001
-0.021885715 0.60915238 1.9150001
-0.018238096 0.60915238 1.9150001
-0.014750477 0.61583239 1.9360001
-0.011188572 0.62283051 1.9580001
-0.0075009526 0.62632954 1.9690001
-0.0037714287 0.62982857 1.9800001
0 0.63364571 1.9920001
0.0037942859 0.63364571 1.9920001
0.0075885719 0.63364571 1.9920001
0.011382857 0.63364571 1.9920001
0.015177144 0.63364571 1.9920001
0.01897143 0.63364571 1.9920001
0.022765715 0.63364571 1.9920001
0.026560001 0.63364571 1.9920001
0.030354287 0.63364571 1.9920001
0.034148574 0.63364571 1.9920001
0.03794286 0.63364571 1.9920001
0.041737143 0.63364571 1.9920001
0.045257144 0.62982857 1.9800001
0.048756193 0.62632954 1.9690001
0.05250667 0.62632954 1.9690001
0.05594286 0.62283051 1.9580001
0.059672382 0.62283051 1.9580001
0.063401908 0.62283051 1.9580001
0.066754289 0.61933148 1.9470001
0.07046286 0.61933148 1.9470001
0.074171431 0.61933148 1.9470001
0.077880003 0.61933148 1.9470001
0.081127621 0.61583239 1.9360001
0.084815241 0.61583239 1.9360001
0.088502862 0.61583239 1.9360001
0.092190482 0.61583239 1.9360001
0.10216762 0.65623051 2.0630002
0.10609715 0.65623051 2.0630002
0.10938667 0.65241337 2.0510001
0.1139562 0.65623051 2.0630002
0.11788572 0.65623051 2.0630002
0.12329143 0.6641829 2.0880001
0.12806095 0.66831809 2.1010001
0.13206287 0.66831809 2.1010001
0.12194667 0.59897333 1.8830001
0.12553334 0.59897333 1.8830001
0.12912001 0.59897333 1.8830001
0.13270667 0.59897333 1.8830001
0.13629334 0.59897333 1.8830001
0.13913715 0.59579241 1.8730001
0.14194286 0.59261143 1.863
0.14549144 0.59261143 1.863
0.14904 0.59261143 1.863
0.15258858 0.59261143 1.863
0.25591239 0.6893124 2.1670001
0.26004001 0.6893124 2.1670001
0.26416764 0.6893124 2.1670001
0.26829526 0.6893124 2.1670001
0.27242288 0.6893124 2.1670001
0.27655047 0.6893124 2.1670001
0.28067809 0.6893124 2.1670001
0.28296572 0.6848591 2.1530001
0.28706667 0.6848591 2.1530001
0.29116762 0.6848591 2.1530001
0.2952686 0.6848591 2.1530001
0.29936954 0.6848591 2.1530001
0.30347049 0.6848591 2.1530001
-0.23796192 0.64480001 2.0150001
-0.23412381 0.64480001 2.0150001
-0.23028572 0.64480001 2.0150001
-0.22644763 0.64480001 2.0150001
-0.22260953 0.64480001 2.0150001
-0.21877144 0.64480001 2.0150001
-0.21621335 0.64864004 2.0270002
-0.21109524 0.64480001 2.0150001
-0.20602286 0.64096004 2.003
-0.20341906 0.64480001 2.0150001
-0.19958095 0.64480001 2.0150001
-0.16017334 0.65632004 2.0510001
-0.15817143 0.66432005 2.0760002
-0.15325144 0.66016001 2.0630002
-0.14932191 0.66016001 2.0630002
-0.14454667 0.65632004 2.0510001
-0.14064001 0.65632004 2.0510001
-0.13673334 0.65632004 2.0510001
-0.13204953 0.65248001 2.039
-0.12816572 0.65248001 2.039
-0.12428191 0.65248001 2.039
-0.1203981 0.65248001 2.039
-0.11651429 0.65248001 2.039
-0.11329333 0.65632004 2.0510001
-0.10874667 0.65248001 2.039
-0.10486286 0.65248001 2.039
-0.10097905 0.65248001 2.039
-0.097095244 0.65248001 2.039
-0.093211435 0.65248001 2.039
-0.089853339 0.65632004 2.0510001
-0.077649526 0.59296 1.853
-0.07412 0.59296 1.853
-0.070971429 0.59615999 1.863
-0.067422859 0.59615999 1.863
-0.063531429 0.59296 1.853
-0.060001906 0.59296 1.853
-0.056472383 0.59296 1.853
-0.053228572 0.59615999 1.863
-0.049946669 0.59936005 1.8730001
-0.046379048 0.59936005 1.8730001
-0.044 0.616 1.9250001
-0.040333334 0.616 1.9250001
-0.037085716 0.62304002 1.9470001
-0.033188574 0.61952001 1.9360001
-0.029500954 0.61952001 1.9360001
-0.025533333 0.6128 1.9150001
-0.021885715 0.6128 1.9150001
-0.018333334 0.616 1.9250001
-0.014750477 0.61952001 1.9360001
-0.011188572 0.62656003 1.9580001
-0.0074590477 0.62656003 1.9580001
-0.0037714287 0.6336 1.9800001
0 0.6336 1.9800001
0.0037942859 0.63744003 1.9920001
0.0075885719 0.63744003 1.9920001
0.011382857 0.63744003 1.9920001
0.015177144 0.63744003 1.9920001
0.01897143 0.63744003 1.9920001
0.022628572 0.6336 1.9800001
0.026560001 0.63744003 1.9920001
0.030354287 0.63744003 1.9920001
0.034148574 0.63744003 1.9920001
0.03794286 0.63744003 1.9920001
0.041737143 0.63744003 1.9920001
0.045257144 0.6336 1.9800001
0.049028572 0.6336 1.9800001
0.05250667 0.63008004 1.9690001
0.05594286 0.62656003 1.9580001
0.059672382 0.62656003 1.9580001
0.063401908 0.62656003 1.9580001
0.066754289 0.62304002 1.9470001
0.07046286 0.62304002 1.9470001
0.074171431 0.62304002 1.9470001
0.077440001 0.61952001 1.9360001
0.081127621 0.61952001 1.9360001
0.084815241 0.61952001 1.9360001
0.088 0.616 1.9250001
0.091666669 0.616 1.9250001
0.095333338 0.616 1.9250001
0.099000007 0.616 1.9250001
0.10266667 0.616 1.9250001
0.11467429 0.66432005 2.0760002
0.11862858 0.66432005 2.0760002
0.12329143 0.66816002 2.0880001
0.12806095 0.67232001 2.1010001
0.13206287 0.67232001 2.1010001
0.13606477 0.67232001 2.1010001
0.12486667 0.59936005 1.8730001
0.12843429 0.59936005 1.8730001
0.13200191 0.59936005 1.8730001
0.13629334 0.60256004 1.8830001
0.13988 0.60256004 1.8830001
0.14270477 0.59936005 1.8730001
0.14549144 0.59615999 1.863
0.14904 0.59615999 1.863
0.15176953 0.59296 1.853
0.15529905 0.59296 1.853
0.15968572 0.59615999 1.863
0.16323429 0.59615999 1.863
0.16678286 0.59615999 1.863
0.25272381 0.68480003 2.1400001
0.25836 0.68896002 2.1530001
0.26246098 0.68896002 2.1530001
0.26656193 0.68896002 2.1530001
0.27066287 0.68896002 2.1530001
0.27476382 0.68896002 2.1530001
0.27886477 0.68896002 2.1530001
0.28296572 0.68896002 2.1530001
0.28706667 0.68896002 2.1530001
0.29116762 0.68896002 2.1530001
0.29718858 0.69344002 2.1670001
0.3013162 0.69344002 2.1670001
0.3016381 0.68480003 2.1400001
0.30571431 0.68480003 2.1400001
-0.24324001 0.65250099 2.0270002
-0.23796192 0.64863813 2.0150001
-0.23412381 0.64863813 2.0150001
-0.23028572 0.64863813 2.0150001
-0.22644763 0.64863813 2.0150001
-0.22260953 0.64863813 2.0150001
-0.21877144 0.64863813 2.0150001
-0.21493334 0.64863813 2.0150001
-0.21109524 0.64863813 2.0150001
-0.20725715 0.64863813 2.0150001
-0.20341906 0.64863813 2.0150001
-0.19958095 0.64863813 2.0150001
-0.19574286 0.64863813 2.0150001
-0.15908572 0.67213714 2.0880001
-0.15421715 0.66827428 2.0760002
-0.14932191 0.66408956 2.0630002
-0.14539239 0.66408956 2.0630002
-0.14064001 0.6602267 2.0510001
-0.13673334 0.6602267 2.0510001
-0.13204953 0.65636384 2.039
-0.12816572 0.65636384 2.039
-0.12355048 0.65250099 2.0270002
-0.1203981 0.65636384 2.039
-0.1172 0.6602267 2.0510001
-0.11329333 0.6602267 2.0510001
-0.10874667 0.65636384 2.039
-0.10548 0.6602267 2.0510001
-0.10097905 0.65636384 2.039
-0.097666673 0.6602267 2.0510001
-0.093760006 0.6602267 2.0510001
-0.080740958 0.59327048 1.8430001
-0.077230476 0.59327048 1.8430001
-0.07412 0.59648955 1.853
-0.070971429 0.59970862 1.863
-0.067060955 0.59648955 1.853
-0.063531429 0.59648955 1.853
-0.059678096 0.59327048 1.8430001
-0.056472383 0.59648955 1.853
-0.052657146 0.59327048 1.8430001
-0.049680002 0.59970862 1.863
-0.046131432 0.59970862 1.863
-0.043771431 0.61644763 1.9150001
-0.040563811 0.62320763 1.9360001
-0.037085716 0.62674862 1.9470001
-0.033188574 0.62320763 1.9360001
-0.029500954 0.62320763 1.9360001
-0.025666667 0.6196667 1.9250001
-0.022 0.6196667 1.9250001
-0.018438095 0.62320763 1.9360001
-0.014834287 0.62674862 1.9470001
-0.011188572 0.63028955 1.9580001
-0.0074590477 0.63028955 1.9580001
-0.0037714287 0.63737148 1.9800001
0 0.63737148 1.9800001
0.0037942859 0.64123434 1.9920001
0.0075885719 0.64123434 1.9920001
0.011314286 0.63737148 1.9800001
0.015085715 0.63737148 1.9800001
0.018857144 0.63737148 1.9800001
0.022628572 0.63737148 1.9800001
0.026400002 0.63737148 1.9800001
0.03017143 0.63737148 1.9800001
0.03394286 0.63737148 1.9800001
0.03794286 0.64123434 1.9920001
0.041737143 0.64123434 1.9920001
0.045257144 0.63737148 1.9800001
0.049028572 0.63737148 1.9800001
0.05250667 0.63383049 1.9690001
0.056257144 0.63383049 1.9690001
0.059672382 0.63028955 1.9580001
0.063401908 0.63028955 1.9580001
0.066754289 0.62674862 1.9470001
0.07046286 0.62674862 1.9470001
0.074171431 0.62674862 1.9470001
0.077440001 0.62320763 1.9360001
0.081127621 0.62320763 1.9360001
0.084333338 0.6196667 1.9250001
0.087542862 0.61644763 1.9150001
0.091666669 0.6196667 1.9250001
0.094838098 0.61644763 1.9150001
0.099000007 0.6196667 1.9250001
0.10266667 0.6196667 1.9250001
0.10633334 0.6196667 1.9250001
0.11931429 0.67213714 2.0880001
0.12329143 0.67213714 2.0880001
0.12806095 0.67632192 2.1010001
0.13206287 0.67632192 2.1010001
0.13606477 0.67632192 2.1010001
0.14006667 0.67632192 2.1010001
0.12843429 0.60292763 1.8730001
0.13200191 0.60292763 1.8730001
0.13708954 0.60968763 1.8940001
0.14069715 0.60968763 1.8940001
0.14270477 0.60292763 1.8730001
0.14627239 0.60292763 1.8730001
0.14904 0.59970862 1.863
0.15176953 0.59648955 1.853
0.15529905 0.59648955 1.853
0.15882857 0.59648955 1.853
0.16235811 0.59648955 1.853
0.16588762 0.59648955 1.853
0.25118858 0.68469143 2.1270001
0.2568 0.68887621 2.1400001
0.26246098 0.69306099 2.1530001
0.26656193 0.69306099 2.1530001
0.27066287 0.69306099 2.1530001
0.27655047 0.69756764 2.1670001
0.27886477 0.69306099 2.1530001
0.28296572 0.69306099 2.1530001
0.28893334 0.69756764 2.1670001
0.29116762 0.69306099 2.1530001
0.29718858 0.69756764 2.1670001
0.3013162 0.69756764 2.1670001
0.3016381 0.68887621 2.1400001
0.30571431 0.68887621 2.1400001
0.30979049 0.68887621 2.1400001
-0.27154288 0.6411429 1.9800001
-0.26777145 0.6411429 1.9800001
-0.26720762 0.66801906 2.0630002
-0.2632781 0.66801906 2.0630002
-0.25934857 0.66801906 2.0630002
-0.25244763 0.66024762 2.039
-0.24856383 0.66024762 2.039
-0.24468 0.66024762 2.039
-0.23796192 0.65247619 2.0150001
-0.23412381 0.65247619 2.0150001
-0.23165715 0.65636194 2.0270002
-0.22644763 0.65247619 2.0150001
-0.22260953 0.65247619 2.0150001
-0.21877144 0.65247619 2.0150001
-0.21493334 0.65247619 2.0150001
-0.21109524 0.65247619 2.0150001
-0.20849143 0.65636194 2.0270002
-0.20463048 0.65636194 2.0270002
-0.19958095 0.65247619 2.0150001
-0.19574286 0.65247619 2.0150001
-0.19190477 0.65247619 2.0150001
-0.16205715 0.68874288 2.1270001
-0.15421715 0.67222857 2.0760002
-0.14932191 0.66801906 2.0630002
-0.14454667 0.66413337 2.0510001
-0.14064001 0.66413337 2.0510001
-0.13673334 0.66413337 2.0510001
-0.13204953 0.66024762 2.039
-0.12816572 0.66024762 2.039
-0.12355048 0.65636194 2.0270002
-0.1203981 0.66024762 2.039
-0.1172 0.66413337 2.0510001
-0.11329333 0.66413337 2.0510001
-0.10874667 0.66024762 2.039
-0.10548 0.66413337 2.0510001
-0.10157334 0.66413337 2.0510001
-0.098238096 0.66801906 2.0630002
-0.094308577 0.66801906 2.0630002
-0.080740958 0.59678096 1.8430001
-0.077230476 0.59678096 1.8430001
-0.073720001 0.59678096 1.8430001
-0.070590481 0.6000191 1.853
-0.067060955 0.6000191 1.853
-0.063188575 0.59678096 1.8430001
-0.059678096 0.59678096 1.8430001
-0.056167621 0.59678096 1.8430001
-0.052657146 0.59678096 1.8430001
-0.049946669 0.60649526 1.8730001
-0.046379048 0.60649526 1.8730001
-0.04352 0.61653334 1.904
-0.040333334 0.62333333 1.9250001
-0.03687619 0.62689525 1.9360001
-0.033188574 0.62689525 1.9360001
-0.029500954 0.62689525 1.9360001
-0.025666667 0.62333333 1.9250001
-0.022 0.62333333 1.9250001
-0.018438095 0.62689525 1.9360001
-0.014834287 0.63045716 1.9470001
-0.011188572 0.63401908 1.9580001
-0.0075009526 0.63758099 1.9690001
-0.0037714287 0.6411429 1.9800001
0 0.6411429 1.9800001
0.0037942859 0.64502859 1.9920001
0.0075885719 0.64502859 1.9920001
0.011314286 0.6411429 1.9800001
0.015085715 0.6411429 1.9800001
0.018857144 0.6411429 1.9800001
0.022628572 0.6411429 1.9800001
0.026400002 0.6411429 1.9800001
0.03017143 0.6411429 1.9800001
0.03394286 0.6411429 1.9800001
0.03794286 0.64502859 1.9920001
0.041737143 0.64502859 1.9920001
0.045257144 0.6411429 1.9800001
0.049028572 0.6411429 1.9800001
0.05250667 0.63758099 1.9690001
0.056257144 0.63758099 1.9690001
0.059672382 0.63401908 1.9580001
0.063401908 0.63401908 1.9580001
0.066754289 0.63045716 1.9470001
0.07046286 0.63045716 1.9470001
0.073752381 0.62689525 1.9360001
0.077440001 0.62689525 1.9360001
0.080666669 0.62333333 1.9250001
0.083895244 0.62009525 1.9150001
0.087542862 0.62009525 1.9150001
0.09119048 0.62009525 1.9150001
0.094838098 0.62009525 1.9150001
0.098485716 0.62009525 1.9150001
0.10266667 0.62333333 1.9250001
0.10633334 0.62333333 1.9250001
0.10942858 0.62009525 1.9150001
0.1130762 0.62009525 1.9150001
0.11672381 0.62009525 1.9150001
0.13124572 0.67611432 2.0880001
0.13522287 0.67611432 2.0880001
0.1392 0.67611432 2.0880001
0.14317715 0.67611432 2.0880001
0.13708954 0.61329526 1.8940001
0.14069715 0.61329526 1.8940001
0.14270477 0.60649526 1.8730001
0.14549144 0.60325718 1.863
0.14824 0.6000191 1.853
0.15095048 0.59678096 1.8430001
0.15529905 0.6000191 1.853
0.15882857 0.6000191 1.853
0.16148192 0.59678096 1.8430001
0.16499239 0.59678096 1.8430001
0.2568 0.69295239 2.1400001
0.26087621 0.69295239 2.1400001
0.26656193 0.69716191 2.1530001
0.27066287 0.69716191 2.1530001
0.27655047 0.70169526 2.1670001
0.28067809 0.70169526 2.1670001
0.28480572 0.70169526 2.1670001
0.28893334 0.70169526 2.1670001
0.29116762 0.69716191 2.1530001
0.29718858 0.70169526 2.1670001
0.29936954 0.69716191 2.1530001
0.3016381 0.69295239 2.1400001
0.30571431 0.69295239 2.1400001
0.30790859 0.68874288 2.1270001
0.31196001 0.68874288 2.1270001
-0.29905334 0.66413146 2.039
-0.29516953 0.66413146 2.039
-0.28957143 0.66022289 2.0270002
-0.27908573 0.64491433 1.9800001
-0.2753143 0.64491433 1.9800001
-0.27154288 0.64491433 1.9800001
-0.27412763 0.66022289 2.0270002
-0.27346668 0.66804004 2.0510001
-0.26956001 0.66804004 2.0510001
-0.26565334 0.66804004 2.0510001
-0.26174667 0.66804004 2.0510001
-0.25784001 0.66804004 2.0510001
-0.25244763 0.66413146 2.039
-0.24856383 0.66413146 2.039
-0.24468 0.66413146 2.039
-0.23937906 0.66022289 2.0270002
-0.23412381 0.65631431 2.0150001
-0.23165715 0.66022289 2.0270002
-0.2277962 0.66022289 2.0270002
-0.22393525 0.66022289 2.0270002
-0.2200743 0.66022289 2.0270002
-0.21621335 0.66022289 2.0270002
-0.2123524 0.66022289 2.0270002
-0.20849143 0.66022289 2.0270002
-0.20463048 0.66022289 2.0270002
-0.19958095 0.65631431 2.0150001
-0.19574286 0.65631431 2.0150001
-0.19304763 0.66022289 2.0270002
-0.18918668 0.66022289 2.0270002
-0.16510476 0.70582289 2.1670001
-0.15704 0.68856001 2.1140001
-0.15301333 0.68856001 2.1140001
-0.14454667 0.66804004 2.0510001
-0.14064001 0.66804004 2.0510001
-0.13753334 0.67194861 2.0630002
-0.13204953 0.66413146 2.039
-0.12816572 0.66413146 2.039
-0.12428191 0.66413146 2.039
-0.1203981 0.66413146 2.039
-0.1172 0.66804004 2.0510001
-0.11263048 0.66413146 2.039
-0.10874667 0.66413146 2.039
-0.10548 0.66804004 2.0510001
-0.10157334 0.66804004 2.0510001
-0.098238096 0.67194861 2.0630002
-0.094308577 0.67194861 2.0630002
-0.080740958 0.60029143 1.8430001
-0.077230476 0.60029143 1.8430001
-0.073720001 0.60029143 1.8430001
-0.070590481 0.60354859 1.853
-0.06669905 0.60029143 1.8430001
-0.063188575 0.60029143 1.8430001
-0.059678096 0.60029143 1.8430001
-0.055862859 0.59703434 1.8330001
-0.052942861 0.60354859 1.853
-0.050213337 0.61331999 1.8830001
-0.046626668 0.61331999 1.8830001
-0.043771431 0.62374288 1.9150001
-0.040333334 0.62700003 1.9250001
-0.036666669 0.62700003 1.9250001
-0.033 0.62700003 1.9250001
-0.029333334 0.62700003 1.9250001
-0.025533333 0.62374288 1.9150001
-0.021885715 0.62374288 1.9150001
-0.018333334 0.62700003 1.9250001
-0.014834287 0.63416576 1.9470001
-0.011188572 0.6377486 1.9580001
-0.0074590477 0.6377486 1.9580001
-0.0037714287 0.64491433 1.9800001
0 0.64491433 1.9800001
0.0037714287 0.64491433 1.9800001
0.0075009526 0.64133143 1.9690001
0.011251429 0.64133143 1.9690001
0.015001905 0.64133143 1.9690001
0.018857144 0.64491433 1.9800001
0.022628572 0.64491433 1.9800001
0.026400002 0.64491433 1.9800001
0.03017143 0.64491433 1.9800001
0.03394286 0.64491433 1.9800001
0.037714288 0.64491433 1.9800001
0.041485716 0.64491433 1.9800001
0.045257144 0.64491433 1.9800001
0.048756193 0.64133143 1.9690001
0.05250667 0.64133143 1.9690001
0.056257144 0.64133143 1.9690001
0.059672382 0.6377486 1.9580001
0.063401908 0.6377486 1.9580001
0.06713143 0.6377486 1.9580001
0.07046286 0.63416576 1.9470001
0.074171431 0.63416576 1.9470001
0.077440001 0.63058287 1.9360001
0.080666669 0.62700003 1.9250001
0.083895244 0.62374288 1.9150001
0.087542862 0.62374288 1.9150001
0.09119048 0.62374288 1.9150001
0.094838098 0.62374288 1.9150001
0.098485716 0.62374288 1.9150001
0.10266667 0.62700003 1.9250001
0.10633334 0.62700003 1.9250001
0.10942858 0.62374288 1.9150001
0.1130762 0.62374288 1.9150001
0.12806095 0.68432575 2.1010001
0.13206287 0.68432575 2.1010001
0.13522287 0.68009144 2.0880001
0.1392 0.68009144 2.0880001
0.14317715 0.68009144 2.0880001
0.14270477 0.6100629 1.8730001
0.14549144 0.60680574 1.863
0.14824 0.60354859 1.853
0.15095048 0.60029143 1.8430001
0.15529905 0.60354859 1.853
0.15882857 0.60354859 1.853
0.16235811 0.60354859 1.853
0.16588762 0.60354859 1.853
0.26656193 0.70126289 2.1530001
0.27066287 0.70126289 2.1530001
0.27476382 0.70126289 2.1530001
0.27886477 0.70126289 2.1530001
0.28296572 0.70126289 2.1530001
0.28706667 0.70126289 2.1530001
0.29116762 0.70126289 2.1530001
0.2952686 0.70126289 2.1530001
0.29936954 0.70126289 2.1530001
0.30347049 0.70126289 2.1530001
0.30571431 0.69702858 2.1400001
0.30979049 0.69702858 2.1400001
-0.29758859 0.65622097 2.003
-0.29377335 0.65622097 2.003
-0.29516953 0.66801524 2.039
-0.28957143 0.66408384 2.0270002
-0.28232762 0.65622097 2.003
-0.27851239 0.65622097 2.003
-0.27469715 0.65622097 2.003
-0.27412763 0.66408384 2.0270002
-0.27346668 0.6719467 2.0510001
-0.26956001 0.6719467 2.0510001
-0.26565334 0.6719467 2.0510001
-0.26174667 0.6719467 2.0510001
-0.25784001 0.6719467 2.0510001
-0.25244763 0.66801524 2.039
-0.24856383 0.66801524 2.039
-0.24324001 0.66408384 2.0270002
-0.23937906 0.66408384 2.0270002
-0.23412381 0.66015238 2.0150001
-0.23165715 0.66408384 2.0270002
-0.2277962 0.66408384 2.0270002
-0.22393525 0.66408384 2.0270002
-0.2200743 0.66408384 2.0270002
-0.21621335 0.66408384 2.0270002
-0.21109524 0.66015238 2.0150001
-0.20849143 0.66408384 2.0270002
-0.20341906 0.66015238 2.0150001
-0.19958095 0.66015238 2.0150001
-0.19457714 0.65622097 2.003
-0.19190477 0.66015238 2.0150001
-0.18806668 0.66015238 2.0150001
-0.18422858 0.66015238 2.0150001
-0.18039048 0.66015238 2.0150001
-0.16510476 0.70995051 2.1670001
-0.15704 0.69258672 2.1140001
-0.15301333 0.69258672 2.1140001
-0.13753334 0.67587811 2.0630002
-0.13282667 0.6719467 2.0510001
-0.12892 0.6719467 2.0510001
-0.12428191 0.66801524 2.039
-0.12110667 0.6719467 2.0510001
-0.11651429 0.66801524 2.039
-0.11263048 0.66801524 2.039
-0.10810667 0.66408384 2.0270002
-0.10548 0.6719467 2.0510001
-0.10157334 0.6719467 2.0510001
-0.097666673 0.6719467 2.0510001
-0.094308577 0.67587811 2.0630002
-0.080740958 0.60380191 1.8430001
-0.077230476 0.60380191 1.8430001
-0.073720001 0.60380191 1.8430001
-0.070209526 0.60380191 1.8430001
-0.06669905 0.60380191 1.8430001
-0.063188575 0.60380191 1.8430001
-0.059678096 0.60380191 1.8430001
-0.055862859 0.60052574 1.8330001
-0.052942861 0.60707814 1.853
-0.050213337 0.6169067 1.8830001
-0.046626668 0.6169067 1.8830001
-0.04352 0.62378669 1.904
-0.040123813 0.6273905 1.9150001
-0.036666669 0.63066667 1.9250001
-0.033 0.63066667 1.9250001
-0.029333334 0.63066667 1.9250001
-0.025533333 0.6273905 1.9150001
-0.021885715 0.6273905 1.9150001
-0.018333334 0.63066667 1.9250001
-0.014666667 0.63066667 1.9250001
-0.011251429 0.64508194 1.9690001
-0.0075009526 0.64508194 1.9690001
-0.0037714287 0.64868575 1.9800001
0 0.64868575 1.9800001
0.0037714287 0.64868575 1.9800001
0.0075009526 0.64508194 1.9690001
0.011251429 0.64508194 1.9690001
0.015001905 0.64508194 1.9690001
0.018752381 0.64508194 1.9690001
0.022628572 0.64868575 1.9800001
0.026400002 0.64868575 1.9800001
0.03017143 0.64868575 1.9800001
0.03394286 0.64868575 1.9800001
0.037714288 0.64868575 1.9800001
0.041485716 0.64868575 1.9800001
0.045257144 0.64868575 1.9800001
0.048756193 0.64508194 1.9690001
0.05250667 0.64508194 1.9690001
0.056257144 0.64508194 1.9690001
0.059672382 0.64147812 1.9580001
0.063401908 0.64147812 1.9580001
0.06713143 0.64147812 1.9580001
0.07046286 0.63787431 1.9470001
0.074171431 0.63787431 1.9470001
0.077440001 0.63427049 1.9360001
0.080666669 0.63066667 1.9250001
0.084333338 0.63066667 1.9250001
0.087542862 0.6273905 1.9150001
0.09119048 0.6273905 1.9150001
0.095333338 0.63066667 1.9250001
0.099000007 0.63066667 1.9250001
0.10266667 0.63066667 1.9250001
0.10633334 0.63066667 1.9250001
0.10942858 0.6273905 1.9150001
0.1130762 0.6273905 1.9150001
0.12806095 0.68832767 2.1010001
0.13206287 0.68832767 2.1010001
0.13522287 0.68406862 2.0880001
0.1392 0.68406862 2.0880001
0.15882857 0.60707814 1.853
0.16235811 0.60707814 1.853
0.16588762 0.60707814 1.853
0.16941714 0.60707814 1.853
0.17388001 0.6103543 1.863
0.17742857 0.6103543 1.863
0.27242288 0.70995051 2.1670001
0.27655047 0.70995051 2.1670001
0.27886477 0.70536381 2.1530001
0.28480572 0.70995051 2.1670001
0.28893334 0.70995051 2.1670001
0.29116762 0.70536381 2.1530001
0.29718858 0.70995051 2.1670001
0.3013162 0.70995051 2.1670001
0.30544382 0.70995051 2.1670001
0.30757144 0.70536381 2.1530001
0.31167239 0.70536381 2.1530001
0.31577334 0.70536381 2.1530001
-0.30682096 0.67189908 2.039
-0.30115429 0.66794479 2.0270002
-0.29729334 0.66794479 2.0270002
-0.29516953 0.67189908 2.039
-0.28957143 0.66794479 2.0270002
-0.28571048 0.66794479 2.0270002
-0.28018096 0.6639905 2.0150001
-0.28128001 0.67585337 2.0510001
-0.27737334 0.67585337 2.0510001
-0.27346668 0.67585337 2.0510001
-0.26956001 0.67585337 2.0510001
-0.26565334 0.67585337 2.0510001
-0.26174667 0.67585337 2.0510001
-0.25784001 0.67585337 2.0510001
-0.25244763 0.67189908 2.039
-0.24856383 0.67189908 2.039
-0.24468 0.67189908 2.039
-0.24079619 0.67189908 2.039
-0.2355181 0.66794479 2.0270002
-0.23165715 0.66794479 2.0270002
-0.2277962 0.66794479 2.0270002
-0.22260953 0.6639905 2.0150001
-0.21877144 0.6639905 2.0150001
-0.21493334 0.6639905 2.0150001
-0.21109524 0.6639905 2.0150001
-0.20725715 0.6639905 2.0150001
-0.20341906 0.6639905 2.0150001
-0.19839239 0.66003621 2.003
-0.19457714 0.66003621 2.003
-0.19190477 0.6639905 2.0150001
-0.18694668 0.66003621 2.003
-0.18313144 0.66003621 2.003
-0.17931619 0.66003621 2.003
-0.17550096 0.66003621 2.003
-0.13282667 0.67585337 2.0510001
-0.12892 0.67585337 2.0510001
-0.12428191 0.67189908 2.039
-0.12110667 0.67585337 2.0510001
-0.11651429 0.67189908 2.039
-0.11196762 0.66794479 2.0270002
-0.10810667 0.66794479 2.0270002
-0.10548 0.67585337 2.0510001
-0.090777144 0.60401714 1.8330001
-0.08728572 0.60401714 1.8330001
-0.080302857 0.60401714 1.8330001
-0.076811433 0.60401714 1.8330001
-0.073720001 0.60731238 1.8430001
-0.069828577 0.60401714 1.8330001
-0.066337146 0.60401714 1.8330001
-0.063188575 0.60731238 1.8430001
-0.059354287 0.60401714 1.8330001
-0.055862859 0.60401714 1.8330001
-0.052657146 0.60731238 1.8430001
-0.049946669 0.61719811 1.8730001
-0.046626668 0.62049335 1.8830001
-0.04352 0.62741333 1.904
-0.040123813 0.63103813 1.9150001
-0.036666669 0.63433337 1.9250001
-0.033 0.63433337 1.9250001
-0.029333334 0.63433337 1.9250001
-0.025533333 0.63103813 1.9150001
-0.022 0.63433337 1.9250001
-0.018438095 0.63795811 1.9360001
-0.014750477 0.63795811 1.9360001
-0.011251429 0.64883238 1.9690001
-0.0075428574 0.65245718 1.9800001
-0.0037714287 0.65245718 1.9800001
0 0.65245718 1.9800001
0.0037714287 0.65245718 1.9800001
0.0074590477 0.64520764 1.9580001
0.011188572 0.64520764 1.9580001
0.015001905 0.64883238 1.9690001
0.018752381 0.64883238 1.9690001
0.022502858 0.64883238 1.9690001
0.026253335 0.64883238 1.9690001
0.03017143 0.65245718 1.9800001
0.03394286 0.65245718 1.9800001
0.037714288 0.65245718 1.9800001
0.041485716 0.65245718 1.9800001
0.045257144 0.65245718 1.9800001
0.049028572 0.65245718 1.9800001
0.05250667 0.64883238 1.9690001
0.056257144 0.64883238 1.9690001
0.060007621 0.64883238 1.9690001
0.063401908 0.64520764 1.9580001
0.06713143 0.64520764 1.9580001
0.070860952 0.64520764 1.9580001
0.074590482 0.64520764 1.9580001
0.077880003 0.64158291 1.9470001
0.080666669 0.63433337 1.9250001
0.084333338 0.63433337 1.9250001
0.087542862 0.63103813 1.9150001
0.09119048 0.63103813 1.9150001
0.095333338 0.63433337 1.9250001
0.099000007 0.63433337 1.9250001
0.10266667 0.63433337 1.9250001
0.10633334 0.63433337 1.9250001
0.11000001 0.63433337 1.9250001
0.1130762 0.63103813 1.9150001
0.15882857 0.61060762 1.853
0.16235811 0.61060762 1.853
0.16588762 0.61060762 1.853
0.16941714 0.61060762 1.853
0.17388001 0.61390287 1.863
0.1764762 0.61060762 1.853
0.18000571 0.61060762 1.853
0.27886477 0.70946479 2.1530001
0.28480572 0.71407813 2.1670001
0.28706667 0.70946479 2.1530001
0.29116762 0.70946479 2.1530001
0.2952686 0.70946479 2.1530001
0.29936954 0.70946479 2.1530001
0.30347049 0.70946479 2.1530001
0.30757144 0.70946479 2.1530001
0.31167239 0.70946479 2.1530001
0.31577334 0.70946479 2.1530001
-0.31436193 0.68373716 2.0630002
-0.30682096 0.67578286 2.039
-0.30293715 0.67578286 2.039
-0.29905334 0.67578286 2.039
-0.29516953 0.67578286 2.039
-0.29128572 0.67578286 2.039
-0.28740191 0.67578286 2.039
-0.28184953 0.67180574 2.0270002
-0.2796343 0.67578286 2.039
-0.27737334 0.67976004 2.0510001
-0.27346668 0.67976004 2.0510001
-0.26956001 0.67976004 2.0510001
-0.26565334 0.67976004 2.0510001
-0.26174667 0.67976004 2.0510001
-0.25633144 0.67578286 2.039
-0.25244763 0.67578286 2.039
-0.24856383 0.67578286 2.039
-0.24468 0.67578286 2.039
-0.24079619 0.67578286 2.039
-0.2355181 0.67180574 2.0270002
-0.23165715 0.67180574 2.0270002
-0.2277962 0.67180574 2.0270002
-0.22393525 0.67180574 2.0270002
-0.21877144 0.66782862 2.0150001
-0.21493334 0.66782862 2.0150001
-0.21109524 0.66782862 2.0150001
-0.20725715 0.66782862 2.0150001
-0.20341906 0.66782862 2.0150001
-0.19839239 0.66385144 2.003
-0.19457714 0.66385144 2.003
-0.19190477 0.66782862 2.0150001
-0.18694668 0.66385144 2.003
-0.18313144 0.66385144 2.003
-0.17931619 0.66385144 2.003
-0.17453715 0.66020572 1.9920001
-0.16971429 0.6562286 1.9800001
-0.16594286 0.6562286 1.9800001
-0.12892 0.67976004 2.0510001
-0.12428191 0.67578286 2.039
-0.12110667 0.67976004 2.0510001
-0.11651429 0.67578286 2.039
-0.11196762 0.67180574 2.0270002
-0.10810667 0.67180574 2.0270002
-0.090777144 0.6075086 1.8330001
-0.08728572 0.6075086 1.8330001
-0.083794288 0.6075086 1.8330001
-0.080302857 0.6075086 1.8330001
-0.077230476 0.61082286 1.8430001
-0.073720001 0.61082286 1.8430001
-0.070209526 0.61082286 1.8430001
-0.066337146 0.6075086 1.8330001
-0.063188575 0.61082286 1.8430001
-0.059354287 0.6075086 1.8330001
-0.055588573 0.60452574 1.8240001
-0.052114289 0.60452574 1.8240001
-0.049946669 0.62076575 1.8730001
-0.046626668 0.62408 1.8830001
-0.04352 0.63104004 1.904
-0.040123813 0.63468575 1.9150001
-0.036476191 0.63468575 1.9150001
-0.032828573 0.63468575 1.9150001
-0.029180953 0.63468575 1.9150001
-0.025386667 0.63104004 1.904
-0.02176 0.63104004 1.904
-0.018238096 0.63468575 1.9150001
-0.014750477 0.64164573 1.9360001
-0.0075428574 0.6562286 1.9800001
-0.0037714287 0.6562286 1.9800001
0 0.6562286 1.9800001
0.0037714287 0.6562286 1.9800001
0.0074590477 0.64893717 1.9580001
0.011314286 0.6562286 1.9800001
0.015001905 0.65258288 1.9690001
0.018857144 0.6562286 1.9800001
0.022628572 0.6562286 1.9800001
0.026400002 0.6562286 1.9800001
0.03017143 0.6562286 1.9800001
0.03394286 0.6562286 1.9800001
0.037714288 0.6562286 1.9800001
0.041485716 0.6562286 1.9800001
0.045257144 0.6562286 1.9800001
0.049028572 0.6562286 1.9800001
0.05250667 0.65258288 1.9690001
0.056571431 0.6562286 1.9800001
0.060342859 0.6562286 1.9800001
0.063758098 0.65258288 1.9690001
0.067508571 0.65258288 1.9690001
0.071259052 0.65258288 1.9690001
0.074590482 0.64893717 1.9580001
0.078320004 0.64893717 1.9580001
0.081127621 0.64164573 1.9360001
0.084333338 0.63800001 1.9250001
0.087542862 0.63468575 1.9150001
0.09119048 0.63468575 1.9150001
0.094838098 0.63468575 1.9150001
0.099000007 0.63800001 1.9250001
0.10266667 0.63800001 1.9250001
0.10633334 0.63800001 1.9250001
0.11000001 0.63800001 1.9250001
0.17806287 0.6075086 1.8330001
0.18155429 0.6075086 1.8330001
0.28664571 0.72284573 2.181
0.29080001 0.72284573 2.181
0.29116762 0.71356577 2.1530001
0.2952686 0.71356577 2.1530001
0.29936954 0.71356577 2.1530001
0.30347049 0.71356577 2.1530001
0.30757144 0.71356577 2.1530001
0.30979049 0.70925719 2.1400001
0.31386667 0.70925719 2.1400001
-0.31253335 0.68366671 2.0510001
-0.30682096 0.6796667 2.039
-0.30293715 0.6796667 2.039
-0.29905334 0.6796667 2.039
-0.29690668 0.68366671 2.0510001
-0.29300001 0.68366671 2.0510001
-0.28909335 0.68366671 2.0510001
-0.28351811 0.6796667 2.039
-0.28128001 0.68366671 2.0510001
-0.27737334 0.68366671 2.0510001
-0.27346668 0.68366671 2.0510001
-0.26956001 0.68366671 2.0510001
-0.26565334 0.68366671 2.0510001
-0.26021525 0.6796667 2.039
-0.25633144 0.6796667 2.039
-0.25244763 0.6796667 2.039
-0.24856383 0.6796667 2.039
-0.24468 0.6796667 2.039
-0.24079619 0.6796667 2.039
-0.2355181 0.67566669 2.0270002
-0.23302858 0.6796667 2.039
-0.2277962 0.67566669 2.0270002
-0.22393525 0.67566669 2.0270002
-0.21877144 0.67166668 2.0150001
-0.21493334 0.67166668 2.0150001
-0.21109524 0.67166668 2.0150001
-0.20725715 0.67166668 2.0150001
-0.20341906 0.67166668 2.0150001
-0.19839239 0.66766667 2.003
-0.19457714 0.66766667 2.003
-0.19190477 0.67166668 2.0150001
-0.18694668 0.66766667 2.003
-0.18313144 0.66766667 2.003
-0.17931619 0.66766667 2.003
-0.17453715 0.66400003 1.9920001
-0.16877143 0.65633339 1.9690001
-0.16502096 0.65633339 1.9690001
-0.083794288 0.611 1.8330001
-0.080302857 0.611 1.8330001
-0.077230476 0.61433333 1.8430001
-0.073320001 0.611 1.8330001
-0.070209526 0.61433333 1.8430001
-0.066337146 0.611 1.8330001
-0.063188575 0.61433333 1.8430001
-0.059354287 0.611 1.8330001
-0.055862859 0.611 1.8330001
-0.052371431 0.611 1.8330001
-0.046626668 0.62766671 1.8830001
-0.04352 0.63466668 1.904
-0.039893337 0.63466668 1.904
-0.036476191 0.63833338 1.9150001
-0.032828573 0.63833338 1.9150001
-0.029013334 0.63466668 1.904
-0.025253335 0.63133335 1.8940001
-0.021645715 0.63133335 1.8940001
-0.018238096 0.63833338 1.9150001
0.011314286 0.66000003 1.9800001
0.015085715 0.66000003 1.9800001
0.018857144 0.66000003 1.9800001
0.022765715 0.66400003 1.9920001
0.026560001 0.66400003 1.9920001
0.030354287 0.66400003 1.9920001
0.03394286 0.66000003 1.9800001
0.037714288 0.66000003 1.9800001
0.041485716 0.66000003 1.9800001
0.045257144 0.66000003 1.9800001
0.048756193 0.65633339 1.9690001
0.05250667 0.65633339 1.9690001
0.056571431 0.66000003 1.9800001
0.060342859 0.66000003 1.9800001
0.063758098 0.65633339 1.9690001
0.067508571 0.65633339 1.9690001
0.071259052 0.65633339 1.9690001
0.075009525 0.65633339 1.9690001
0.078320004 0.65266669 1.9580001
0.081127621 0.64533335 1.9360001
0.084333338 0.64166671 1.9250001
0.087542862 0.63833338 1.9150001
0.09119048 0.63833338 1.9150001
0.094838098 0.63833338 1.9150001
0.17457144 0.611 1.8330001
0.17718858 0.60800004 1.8240001
0.18066287 0.60800004 1.8240001
0.28706667 0.71766669 2.1530001
0.29116762 0.71766669 2.1530001
0.2952686 0.71766669 2.1530001
0.29936954 0.71766669 2.1530001
0.3016381 0.71333337 2.1400001
0.30571431 0.71333337 2.1400001
0.30979049 0.71333337 2.1400001
0.31386667 0.71333337 2.1400001
-0.31458858 0.68355048 2.039
-0.31070477 0.68355048 2.039
-0.30682096 0.68355048 2.039
-0.30293715 0.68355048 2.039
-0.29905334 0.68355048 2.039
-0.29690668 0.68757337 2.0510001
-0.29300001 0.68757337 2.0510001
-0.28909335 0.68757337 2.0510001
-0.28351811 0.68355048 2.039
-0.28128001 0.68757337 2.0510001
-0.27737334 0.68757337 2.0510001
-0.27346668 0.68757337 2.0510001
-0.26956001 0.68757337 2.0510001
-0.26565334 0.68757337 2.0510001
-0.26021525 0.68355048 2.039
-0.25482288 0.67952764 2.0270002
-0.2509619 0.67952764 2.0270002
-0.24856383 0.68355048 2.039
-0.24468 0.68355048 2.039
-0.23937906 0.67952764 2.0270002
-0.23412381 0.6755048 2.0150001
-0.23302858 0.68355048 2.039
-0.22914477 0.68355048 2.039
-0.22260953 0.6755048 2.0150001
-0.21877144 0.6755048 2.0150001
-0.21109524 0.6755048 2.0150001
-0.20725715 0.6755048 2.0150001
-0.20341906 0.6755048 2.0150001
-0.19839239 0.67148191 2.003
-0.19457714 0.67148191 2.003
-0.19190477 0.6755048 2.0150001
-0.18694668 0.67148191 2.003
-0.18313144 0.67148191 2.003
-0.089340955 0.60476953 1.8040001
-0.085904762 0.60476953 1.8040001
-0.082468577 0.60476953 1.8040001
-0.080302857 0.61449146 1.8330001
-0.076811433 0.61449146 1.8330001
-0.073720001 0.61784381 1.8430001
-0.070209526 0.61784381 1.8430001
-0.06669905 0.61784381 1.8430001
-0.063188575 0.61784381 1.8430001
-0.060001906 0.62119621 1.853
-0.055862859 0.61449146 1.8330001
-0.052371431 0.61449146 1.8330001
-0.039893337 0.63829339 1.904
-0.036476191 0.64198101 1.9150001
-0.032828573 0.64198101 1.9150001
-0.029013334 0.63829339 1.904
-0.025253335 0.63494098 1.8940001
-0.021645715 0.63494098 1.8940001
0.015085715 0.66377145 1.9800001
0.018857144 0.66377145 1.9800001
0.022765715 0.66779429 1.9920001
0.026560001 0.66779429 1.9920001
0.030354287 0.66779429 1.9920001
0.03394286 0.66377145 1.9800001
0.037714288 0.66377145 1.9800001
0.041485716 0.66377145 1.9800001
0.045257144 0.66377145 1.9800001
0.048756193 0.66008383 1.9690001
0.052213334 0.65639621 1.9580001
0.056257144 0.66008383 1.9690001
0.060708575 0.66779429 1.9920001
0.063758098 0.66008383 1.9690001
0.067508571 0.66008383 1.9690001
0.071259052 0.66008383 1.9690001
0.075009525 0.66008383 1.9690001
0.29116762 0.72176766 2.1530001
0.2952686 0.72176766 2.1530001
0.29936954 0.72176766 2.1530001
0.3016381 0.71740955 2.1400001
0.30571431 0.71740955 2.1400001
0.30979049 0.71740955 2.1400001
0.31386667 0.71740955 2.1400001
-0.32816002 0.69148004 2.0510001
-0.32235619 0.68743432 2.039
-0.31847239 0.68743432 2.039
-0.31458858 0.68743432 2.039
-0.31070477 0.68743432 2.039
-0.30682096 0.68743432 2.039
-0.30293715 0.68743432 2.039
-0.29905334 0.68743432 2.039
-0.29690668 0.69148004 2.0510001
-0.29300001 0.69148004 2.0510001
-0.28909335 0.69148004 2.0510001
-0.28351811 0.68743432 2.039
-0.28128001 0.69148004 2.0510001
-0.27737334 0.69148004 2.0510001
-0.27346668 0.69148004 2.0510001
-0.26956001 0.69148004 2.0510001
-0.26565334 0.69148004 2.0510001
-0.25482288 0.68338859 2.0270002
-0.2509619 0.68338859 2.0270002
-0.24856383 0.68743432 2.039
-0.24324001 0.68338859 2.0270002
-0.24079619 0.68743432 2.039
-0.23691238 0.68743432 2.039
-0.23302858 0.68743432 2.039
-0.22914477 0.68743432 2.039
-0.19076191 0.67529714 2.003
-0.18694668 0.67529714 2.003
-0.093291432 0.61157715 1.8140001
-0.089340955 0.60820574 1.8040001
-0.085904762 0.60820574 1.8040001
-0.082468577 0.60820574 1.8040001
-0.079470478 0.61157715 1.8140001
-0.077230476 0.62135428 1.8430001
-0.073720001 0.62135428 1.8430001
-0.070209526 0.62135428 1.8430001
-0.068544768 0.63854861 1.8940001
-0.064560004 0.63484001 1.8830001
-0.060973335 0.63484001 1.8830001
0.01897143 0.6715886 1.9920001
0.022765715 0.6715886 1.9920001
0.026560001 0.6715886 1.9920001
0.030354287 0.6715886 1.9920001
0.03394286 0.66754287 1.9800001
0.037714288 0.66754287 1.9800001
0.041485716 0.66754287 1.9800001
0.045257144 0.66754287 1.9800001
0.049028572 0.66754287 1.9800001
0.060708575 0.6715886 1.9920001
0.064502858 0.6715886 1.9920001
0.12330667 0.64192003 1.904
0.12693334 0.64192003 1.904
0.15957335 0.64192003 1.904
0.16320001 0.64192003 1.904
0.29116762 0.72586858 2.1530001
0.2952686 0.72586858 2.1530001
0.29936954 0.72586858 2.1530001
0.3016381 0.72148573 2.1400001
0.30757144 0.72586858 2.1530001
0.30979049 0.72148573 2.1400001
0.31386667 0.72148573 2.1400001
0.31794286 0.72148573 2.1400001
-0.33206668 0.69538671 2.0510001
-0.32816002 0.69538671 2.0510001
-0.32235619 0.69131809 2.039
-0.31847239 0.69131809 2.039
-0.31458858 0.69131809 2.039
-0.31070477 0.69131809 2.039
-0.30501524 0.68724954 2.0270002
-0.30115429 0.68724954 2.0270002
-0.29905334 0.69131809 2.039
-0.29516953 0.69131809 2.039
-0.29300001 0.69538671 2.0510001
-0.28909335 0.69538671 2.0510001
-0.28351811 0.69131809 2.039
-0.28128001 0.69538671 2.0510001
-0.27737334 0.69538671 2.0510001
-0.27346668 0.69538671 2.0510001
-0.24710096 0.68724954 2.0270002
-0.24324001 0.68724954 2.0270002
-0.23937906 0.68724954 2.0270002
-0.093291432 0.61503237 1.8140001
-0.089340955 0.61164194 1.8040001
-0.085904762 0.61164194 1.8040001
-0.082468577 0.61164194 1.8040001
-0.079908572 0.61842287 1.8240001
-0.077230476 0.62486476 1.8430001
-0.07412 0.62825525 1.853
-0.071733333 0.63842666 1.8830001
-0.068544768 0.64215624 1.8940001
-0.064560004 0.63842666 1.8830001
-0.060973335 0.63842666 1.8830001
0.01897143 0.67538285 1.9920001
0.022765715 0.67538285 1.9920001
0.026560001 0.67538285 1.9920001
