# .PCD v0.7 - Point Cloud Data file format
VERSION 0.7
FIELDS x y z
SIZE 4 4 4
TYPE F F F
COUNT 1 1 1
WIDTH 1525
HEIGHT 1
VIEWPOINT 0 0 0 1 0 0 0
POINTS 1525
DATA ascii
0.026560001 0.63744003 1.9920001
0.030354287 0.63744003 1.9920001
0.034148574 0.63744003 1.9920001
0.03794286 0.63744003 1.9920001
0.048211429 0.62304002 1.9470001
0.05192 0.62304002 1.9470001
0.055628572 0.62304002 1.9470001
0.059337147 0.62304002 1.9470001
0.063045718 0.62304002 1.9470001
0.066754289 0.62304002 1.9470001
0.07046286 0.62304002 1.9470001
0.074171431 0.62304002 1.9470001
0.077880003 0.62304002 1.9470001
0.081588574 0.62304002 1.9470001
0.085297145 0.62304002 1.9470001
0.089005716 0.62304002 1.9470001
0.092714287 0.62304002 1.9470001
0.096422859 0.62304002 1.9470001
0.13418667 0.60928005 1.904
0.13708954 0.60608 1.8940001
0.13913715 0.59936005 1.8730001
0.14270477 0.59936005 1.8730001
0.14549144 0.59615999 1.863
0.14904 0.59615999 1.863
0.15258858 0.59615999 1.863
0.17499429 0.66816002 2.0880001
0.18008572 0.67232001 2.1010001
0.18408762 0.67232001 2.1010001
0.18692572 0.66816002 2.0880001
0.19090286 0.66816002 2.0880001
0.19488001 0.66816002 2.0880001
0.20009525 0.67232001 2.1010001
0.20536001 0.67648 2.1140001
0.20938668 0.67648 2.1140001
0.21341334 0.67648 2.1140001
0.21610287 0.67232001 2.1010001
0.22010477 0.67232001 2.1010001
0.21749334 0.65248001 2.039
0.22137715 0.65248001 2.039
0.22526096 0.65248001 2.039
0.25836 0.68896002 2.1530001
0.26246098 0.68896002 2.1530001
0.26656193 0.68896002 2.1530001
0.26902857 0.68480003 2.1400001
0.27310476 0.68480003 2.1400001
0.27718097 0.68480003 2.1400001
0.28125715 0.68480003 2.1400001
0.28533334 0.68480003 2.1400001
0.28940955 0.68480003 2.1400001
0.2952686 0.68896002 2.1530001
0.29756191 0.68480003 2.1400001
0.3016381 0.68480003 2.1400001
0.30571431 0.68480003 2.1400001
-0.27506667 0.66408956 2.0630002
-0.27113715 0.66408956 2.0630002
-0.26720762 0.66408956 2.0630002
-0.2632781 0.66408956 2.0630002
-0.25784001 0.6602267 2.0510001
-0.25393334 0.6602267 2.0510001
-0.24856383 0.65636384 2.039
-0.24468 0.65636384 2.039
-0.23937906 0.65250099 2.0270002
-0.2355181 0.65250099 2.0270002
-0.23302858 0.65636384 2.039
-0.22914477 0.65636384 2.039
-0.22526096 0.65636384 2.039
-0.22137715 0.65636384 2.039
-0.21749334 0.65636384 2.039
-0.2123524 0.65250099 2.0270002
-0.20602286 0.64477527 2.003
-0.20220762 0.64477527 2.003
-0.19839239 0.64477527 2.003
-0.19457714 0.64477527 2.003
-0.16111048 0.66408956 2.0630002
-0.15817143 0.66827428 2.0760002
-0.15325144 0.66408956 2.0630002
-0.14932191 0.66408956 2.0630002
-0.14539239 0.66408956 2.0630002
-0.14146286 0.66408956 2.0630002
-0.13673334 0.6602267 2.0510001
-0.13204953 0.65636384 2.039
-0.12967429 0.66408956 2.0630002
-0.12501334 0.6602267 2.0510001
-0.1203981 0.65636384 2.039
-0.11582857 0.65250099 2.0270002
-0.11196762 0.65250099 2.0270002
-0.10810667 0.65250099 2.0270002
-0.10424571 0.65250099 2.0270002
-0.10038476 0.65250099 2.0270002
-0.095952384 0.64863813 2.0150001
-0.092114292 0.64863813 2.0150001
-0.082055241 0.60292763 1.8730001
-0.07848762 0.60292763 1.8730001
-0.075320005 0.60614669 1.8830001
-0.071733333 0.60614669 1.8830001
-0.067784764 0.60292763 1.8730001
-0.064217143 0.60292763 1.8730001
-0.060649525 0.60292763 1.8730001
-0.057081908 0.60292763 1.8730001
-0.053228572 0.59970862 1.863
-0.049946669 0.60292763 1.8730001
-0.046626668 0.60614669 1.8830001
-0.043291431 0.60968763 1.8940001
-0.039893337 0.61290669 1.904
-0.03687619 0.62320763 1.9360001
-0.033188574 0.62320763 1.9360001
-0.029333334 0.6196667 1.9250001
-0.025666667 0.6196667 1.9250001
-0.022 0.6196667 1.9250001
-0.0076304763 0.64477527 2.003
-0.0038152381 0.64477527 2.003
0 0.64123434 1.9920001
0.0037942859 0.64123434 1.9920001
0.0075428574 0.63737148 1.9800001
0.011314286 0.63737148 1.9800001
0.015085715 0.63737148 1.9800001
0.018857144 0.63737148 1.9800001
0.022765715 0.64123434 1.9920001
0.026560001 0.64123434 1.9920001
0.030521905 0.64477527 2.003
0.034337144 0.64477527 2.003
0.038152382 0.64477527 2.003
0.055000003 0.6196667 1.9250001
0.059001908 0.62320763 1.9360001
0.062689528 0.62320763 1.9360001
0.066377148 0.62320763 1.9360001
0.07046286 0.62674862 1.9470001
0.074171431 0.62674862 1.9470001
0.077880003 0.62674862 1.9470001
0.081588574 0.62674862 1.9470001
0.085297145 0.62674862 1.9470001
0.089005716 0.62674862 1.9470001
0.092714287 0.62674862 1.9470001
0.096422859 0.62674862 1.9470001
0.13418667 0.61290669 1.904
0.13708954 0.60968763 1.8940001
0.13913715 0.60292763 1.8730001
0.14270477 0.60292763 1.8730001
0.14627239 0.60292763 1.8730001
0.14984001 0.60292763 1.8730001
0.15176953 0.59648955 1.853
0.15529905 0.59648955 1.853
0.15882857 0.59648955 1.853
0.16148192 0.59327048 1.8430001
0.16499239 0.59327048 1.8430001
0.16758858 0.59005147 1.8330001
0.17024 0.58715433 1.8240001
0.1737143 0.58715433 1.8240001
0.21360953 0.65636384 2.039
0.21749334 0.65636384 2.039
0.22137715 0.65636384 2.039
0.22526096 0.65636384 2.039
0.25836 0.69306099 2.1530001
0.26246098 0.69306099 2.1530001
0.26495239 0.68887621 2.1400001
0.26902857 0.68887621 2.1400001
0.27310476 0.68887621 2.1400001
0.27718097 0.68887621 2.1400001
0.28125715 0.68887621 2.1400001
0.28533334 0.68887621 2.1400001
0.28940955 0.68887621 2.1400001
0.29348573 0.68887621 2.1400001
0.29756191 0.68887621 2.1400001
0.3016381 0.68887621 2.1400001
0.30571431 0.68887621 2.1400001
0.30979049 0.68887621 2.1400001
-0.29169524 0.65247619 2.0150001
-0.28785715 0.65247619 2.0150001
-0.28571048 0.65636194 2.0270002
-0.28184953 0.65636194 2.0270002
-0.2796343 0.66024762 2.039
-0.27737334 0.66413337 2.0510001
-0.27346668 0.66413337 2.0510001
-0.27113715 0.66801906 2.0630002
-0.26565334 0.66413337 2.0510001
-0.26174667 0.66413337 2.0510001
-0.25784001 0.66413337 2.0510001
-0.25244763 0.66024762 2.039
-0.24856383 0.66024762 2.039
-0.24324001 0.65636194 2.0270002
-0.23937906 0.65636194 2.0270002
-0.2355181 0.65636194 2.0270002
-0.23302858 0.66024762 2.039
-0.2277962 0.65636194 2.0270002
-0.22526096 0.66024762 2.039
-0.2200743 0.65636194 2.0270002
-0.21749334 0.66024762 2.039
-0.21360953 0.66024762 2.039
-0.20725715 0.65247619 2.0150001
-0.20220762 0.64859051 2.003
-0.19839239 0.64859051 2.003
-0.19457714 0.64859051 2.003
-0.16212572 0.67222857 2.0760002
-0.15817143 0.67222857 2.0760002
-0.15421715 0.67222857 2.0760002
-0.15026286 0.67222857 2.0760002
-0.14539239 0.66801906 2.0630002
-0.14146286 0.66801906 2.0630002
-0.13753334 0.66801906 2.0630002
-0.13204953 0.66024762 2.039
-0.12967429 0.66801906 2.0630002
-0.12501334 0.66413337 2.0510001
-0.12110667 0.66413337 2.0510001
-0.11651429 0.66024762 2.039
-0.11263048 0.66024762 2.039
-0.10810667 0.65636194 2.0270002
-0.10424571 0.65636194 2.0270002
-0.099790476 0.65247619 2.0150001
-0.095952384 0.65247619 2.0150001
-0.08608 0.60973334 1.8830001
-0.082493335 0.60973334 1.8830001
-0.07848762 0.60649526 1.8730001
-0.075320005 0.60973334 1.8830001
-0.071352385 0.60649526 1.8730001
-0.067784764 0.60649526 1.8730001
-0.064217143 0.60649526 1.8730001
-0.060649525 0.60649526 1.8730001
-0.057081908 0.60649526 1.8730001
-0.053514287 0.60649526 1.8730001
-0.049946669 0.60649526 1.8730001
-0.04689905 0.61329526 1.8940001
-0.04352 0.61653334 1.904
-0.039893337 0.61653334 1.904
-0.037085716 0.63045716 1.9470001
-0.033188574 0.62689525 1.9360001
-0.029333334 0.62333333 1.9250001
-0.025813334 0.62689525 1.9360001
-0.022125715 0.62689525 1.9360001
-0.0076304763 0.64859051 2.003
-0.0038152381 0.64859051 2.003
0 0.64502859 1.9920001
0.0037942859 0.64502859 1.9920001
0.0075428574 0.6411429 1.9800001
0.011314286 0.6411429 1.9800001
0.015001905 0.63758099 1.9690001
0.018752381 0.63758099 1.9690001
0.022765715 0.64502859 1.9920001
0.026706668 0.64859051 2.003
0.030521905 0.64859051 2.003
0.034337144 0.64859051 2.003
0.038152382 0.64859051 2.003
0.055000003 0.62333333 1.9250001
0.058666669 0.62333333 1.9250001
0.062689528 0.62689525 1.9360001
0.066377148 0.62689525 1.9360001
0.07046286 0.63045716 1.9470001
0.074171431 0.63045716 1.9470001
0.077880003 0.63045716 1.9470001
0.081588574 0.63045716 1.9470001
0.085297145 0.63045716 1.9470001
0.089005716 0.63045716 1.9470001
0.092714287 0.63045716 1.9470001
0.095878102 0.62689525 1.9360001
0.099565715 0.62689525 1.9360001
0.13418667 0.61653334 1.904
0.13708954 0.61329526 1.8940001
0.13913715 0.60649526 1.8730001
0.14194286 0.60325718 1.863
0.14549144 0.60325718 1.863
0.14904 0.60325718 1.863
0.15176953 0.6000191 1.853
0.15529905 0.6000191 1.853
0.15797144 0.59678096 1.8430001
0.16148192 0.59678096 1.8430001
0.16409715 0.59354287 1.8330001
0.16676572 0.59062856 1.8240001
0.17024 0.59062856 1.8240001
0.1737143 0.59062856 1.8240001
0.25836 0.69716191 2.1530001
0.26087621 0.69295239 2.1400001
0.26495239 0.69295239 2.1400001
0.26902857 0.69295239 2.1400001
0.27310476 0.69295239 2.1400001
0.27718097 0.69295239 2.1400001
0.28125715 0.69295239 2.1400001
0.28533334 0.69295239 2.1400001
0.28940955 0.69295239 2.1400001
0.29348573 0.69295239 2.1400001
0.29756191 0.69295239 2.1400001
0.3016381 0.69295239 2.1400001
0.30571431 0.69295239 2.1400001
0.30979049 0.69295239 2.1400001
-0.29937145 0.65631431 2.0150001
-0.29553336 0.65631431 2.0150001
-0.29169524 0.65631431 2.0150001
-0.28785715 0.65631431 2.0150001
-0.28571048 0.66022289 2.0270002
-0.28351811 0.66413146 2.039
-0.2796343 0.66413146 2.039
-0.27737334 0.66804004 2.0510001
-0.27346668 0.66804004 2.0510001
-0.26956001 0.66804004 2.0510001
-0.26565334 0.66804004 2.0510001
-0.26174667 0.66804004 2.0510001
-0.25784001 0.66804004 2.0510001
-0.25393334 0.66804004 2.0510001
-0.24856383 0.66413146 2.039
-0.24468 0.66413146 2.039
-0.24079619 0.66413146 2.039
-0.2355181 0.66022289 2.0270002
-0.23302858 0.66413146 2.039
-0.22914477 0.66413146 2.039
-0.22526096 0.66413146 2.039
-0.2200743 0.66022289 2.0270002
-0.21749334 0.66413146 2.039
-0.21360953 0.66413146 2.039
-0.20725715 0.65631431 2.0150001
-0.20220762 0.65240574 2.003
-0.19839239 0.65240574 2.003
-0.19457714 0.65240574 2.003
-0.19076191 0.65240574 2.003
-0.16212572 0.67618287 2.0760002
-0.15817143 0.67618287 2.0760002
-0.15325144 0.67194861 2.0630002
-0.14932191 0.67194861 2.0630002
-0.14454667 0.66804004 2.0510001
-0.14146286 0.67194861 2.0630002
-0.13593334 0.66413146 2.039
-0.13204953 0.66413146 2.039
-0.12967429 0.67194861 2.0630002
-0.12574476 0.67194861 2.0630002
-0.12181524 0.67194861 2.0630002
-0.1172 0.66804004 2.0510001
-0.11329333 0.66804004 2.0510001
-0.10874667 0.66413146 2.039
-0.10486286 0.66413146 2.039
-0.10157334 0.66804004 2.0510001
-0.097666673 0.66804004 2.0510001
-0.084251434 0.60029143 1.8430001
-0.082055241 0.6100629 1.8730001
-0.07848762 0.6100629 1.8730001
-0.075320005 0.61331999 1.8830001
-0.071352385 0.6100629 1.8730001
-0.067784764 0.6100629 1.8730001
-0.064217143 0.6100629 1.8730001
-0.060649525 0.6100629 1.8730001
-0.057081908 0.6100629 1.8730001
-0.053228572 0.60680574 1.863
-0.049680002 0.60680574 1.863
-0.04689905 0.61690289 1.8940001
-0.04352 0.62016004 1.904
-0.039893337 0.62016004 1.904
-0.036666669 0.62700003 1.9250001
-0.033 0.62700003 1.9250001
-0.029333334 0.62700003 1.9250001
-0.025666667 0.62700003 1.9250001
-0.022125715 0.63058287 1.9360001
0.011251429 0.64133143 1.9690001
0.014918095 0.6377486 1.9580001
0.01864762 0.6377486 1.9580001
0.022765715 0.6488229 1.9920001
0.026560001 0.6488229 1.9920001
0.030354287 0.6488229 1.9920001
0.055000003 0.62700003 1.9250001
0.058666669 0.62700003 1.9250001
0.062689528 0.63058287 1.9360001
0.066377148 0.63058287 1.9360001
0.07046286 0.63416576 1.9470001
0.074171431 0.63416576 1.9470001
0.077880003 0.63416576 1.9470001
0.081588574 0.63416576 1.9470001
0.085297145 0.63416576 1.9470001
0.088502862 0.63058287 1.9360001
0.092190482 0.63058287 1.9360001
0.095878102 0.63058287 1.9360001
0.099565715 0.63058287 1.9360001
0.13913715 0.6100629 1.8730001
0.14194286 0.60680574 1.863
0.14549144 0.60680574 1.863
0.14904 0.60680574 1.863
0.15176953 0.60354859 1.853
0.15529905 0.60354859 1.853
0.15882857 0.60354859 1.853
0.16235811 0.60354859 1.853
0.16499239 0.60029143 1.8430001
0.16850287 0.60029143 1.8430001
0.17201334 0.60029143 1.8430001
0.1737143 0.59410286 1.8240001
0.26902857 0.69702858 2.1400001
0.27476382 0.70126289 2.1530001
0.27886477 0.70126289 2.1530001
0.28125715 0.69702858 2.1400001
0.28533334 0.69702858 2.1400001
0.28940955 0.69702858 2.1400001
0.2952686 0.70126289 2.1530001
0.29936954 0.70126289 2.1530001
0.30347049 0.70126289 2.1530001
0.30571431 0.69702858 2.1400001
0.30979049 0.69702858 2.1400001
-0.29937145 0.66015238 2.0150001
-0.29553336 0.66015238 2.0150001
-0.29343238 0.66408384 2.0270002
-0.28957143 0.66408384 2.0270002
-0.28571048 0.66408384 2.0270002
-0.28351811 0.66801524 2.039
-0.2796343 0.66801524 2.039
-0.27737334 0.6719467 2.0510001
-0.27346668 0.6719467 2.0510001
-0.26956001 0.6719467 2.0510001
-0.26565334 0.6719467 2.0510001
-0.26174667 0.6719467 2.0510001
-0.25784001 0.6719467 2.0510001
-0.25393334 0.6719467 2.0510001
-0.24856383 0.66801524 2.039
-0.24468 0.66801524 2.039
-0.24079619 0.66801524 2.039
-0.2355181 0.66408384 2.0270002
-0.23302858 0.66801524 2.039
-0.22914477 0.66801524 2.039
-0.22526096 0.66801524 2.039
-0.2200743 0.66408384 2.0270002
-0.21749334 0.66801524 2.039
-0.2123524 0.66408384 2.0270002
-0.20725715 0.66015238 2.0150001
-0.20220762 0.65622097 2.003
-0.19839239 0.65622097 2.003
-0.19457714 0.65622097 2.003
-0.19076191 0.65622097 2.003
-0.18694668 0.65622097 2.003
-0.18313144 0.65622097 2.003
-0.17931619 0.65622097 2.003
-0.15325144 0.67587811 2.0630002
-0.14932191 0.67587811 2.0630002
-0.14454667 0.6719467 2.0510001
-0.14064001 0.6719467 2.0510001
-0.13673334 0.6719467 2.0510001
-0.13204953 0.66801524 2.039
-0.12816572 0.66801524 2.039
-0.12574476 0.67587811 2.0630002
-0.12181524 0.67587811 2.0630002
-0.11788572 0.67587811 2.0630002
-0.1139562 0.67587811 2.0630002
-0.11002667 0.67587811 2.0630002
-0.10609715 0.67587811 2.0630002
-0.10216762 0.67587811 2.0630002
-0.087761909 0.60380191 1.8430001
-0.084251434 0.60380191 1.8430001
-0.080740958 0.60380191 1.8430001
-0.077649526 0.60707814 1.853
-0.074920006 0.61363047 1.8730001
-0.070971429 0.6103543 1.863
-0.067784764 0.61363047 1.8730001
-0.064217143 0.61363047 1.8730001
-0.060325716 0.6103543 1.863
-0.056777146 0.6103543 1.863
-0.053228572 0.6103543 1.863
-0.049680002 0.6103543 1.863
-0.04352 0.62378669 1.904
-0.039893337 0.62378669 1.904
-0.036666669 0.63066667 1.9250001
-0.033 0.63066667 1.9250001
-0.029333334 0.63066667 1.9250001
-0.025666667 0.63066667 1.9250001
0.011251429 0.64508194 1.9690001
0.014918095 0.64147812 1.9580001
0.01864762 0.64147812 1.9580001
0.026560001 0.65261716 1.9920001
0.030354287 0.65261716 1.9920001
0.055628572 0.63787431 1.9470001
0.059337147 0.63787431 1.9470001
0.062689528 0.63427049 1.9360001
0.066377148 0.63427049 1.9360001
0.070064768 0.63427049 1.9360001
0.074171431 0.63787431 1.9470001
0.077880003 0.63787431 1.9470001
0.081588574 0.63787431 1.9470001
0.085297145 0.63787431 1.9470001
0.089005716 0.63787431 1.9470001
0.092714287 0.63787431 1.9470001
0.096422859 0.63787431 1.9470001
0.099565715 0.63427049 1.9360001
0.14549144 0.6103543 1.863
0.14904 0.6103543 1.863
0.15095048 0.60380191 1.8430001
0.15446095 0.60380191 1.8430001
0.15882857 0.60707814 1.853
0.16235811 0.60707814 1.853
0.16588762 0.60707814 1.853
0.16850287 0.60380191 1.8430001
0.17201334 0.60380191 1.8430001
0.27655047 0.70995051 2.1670001
0.27886477 0.70536381 2.1530001
0.28296572 0.70536381 2.1530001
0.28706667 0.70536381 2.1530001
0.29116762 0.70536381 2.1530001
0.2952686 0.70536381 2.1530001
0.29936954 0.70536381 2.1530001
0.30347049 0.70536381 2.1530001
0.30757144 0.70536381 2.1530001
0.31167239 0.70536381 2.1530001
-0.30501524 0.66794479 2.0270002
-0.30115429 0.66794479 2.0270002
-0.29729334 0.66794479 2.0270002
-0.29343238 0.66794479 2.0270002
-0.28957143 0.66794479 2.0270002
-0.28571048 0.66794479 2.0270002
-0.28351811 0.67189908 2.039
-0.2796343 0.67189908 2.039
-0.27737334 0.67585337 2.0510001
-0.27346668 0.67585337 2.0510001
-0.26956001 0.67585337 2.0510001
-0.26565334 0.67585337 2.0510001
-0.26174667 0.67585337 2.0510001
-0.25784001 0.67585337 2.0510001
-0.25393334 0.67585337 2.0510001
-0.24856383 0.67189908 2.039
-0.24468 0.67189908 2.039
-0.23937906 0.66794479 2.0270002
-0.2355181 0.66794479 2.0270002
-0.23302858 0.67189908 2.039
-0.2277962 0.66794479 2.0270002
-0.22393525 0.66794479 2.0270002
-0.2200743 0.66794479 2.0270002
-0.21621335 0.66794479 2.0270002
-0.21109524 0.6639905 2.0150001
-0.20725715 0.6639905 2.0150001
-0.20220762 0.66003621 2.003
-0.19839239 0.66003621 2.003
-0.19457714 0.66003621 2.003
-0.19076191 0.66003621 2.003
-0.18694668 0.66003621 2.003
-0.18313144 0.66003621 2.003
-0.17931619 0.66003621 2.003
-0.14064001 0.67585337 2.0510001
-0.13673334 0.67585337 2.0510001
-0.13204953 0.67189908 2.039
-0.12816572 0.67189908 2.039
-0.12181524 0.67980766 2.0630002
-0.11788572 0.67980766 2.0630002
-0.1139562 0.67980766 2.0630002
-0.11002667 0.67980766 2.0630002
-0.10609715 0.67980766 2.0630002
-0.10216762 0.67980766 2.0630002
-0.087761909 0.60731238 1.8430001
-0.084251434 0.60731238 1.8430001
-0.080740958 0.60731238 1.8430001
-0.077230476 0.60731238 1.8430001
-0.073720001 0.60731238 1.8430001
-0.070209526 0.60731238 1.8430001
-0.066337146 0.60401714 1.8330001
-0.063874289 0.61390287 1.863
-0.060325716 0.61390287 1.863
-0.056777146 0.61390287 1.863
0.055628572 0.64158291 1.9470001
0.059337147 0.64158291 1.9470001
0.063045718 0.64158291 1.9470001
0.066 0.63433337 1.9250001
0.070064768 0.63795811 1.9360001
0.074171431 0.64158291 1.9470001
0.078320004 0.64520764 1.9580001
0.081588574 0.64158291 1.9470001
0.085297145 0.64158291 1.9470001
0.088502862 0.63795811 1.9360001
0.092190482 0.63795811 1.9360001
0.095878102 0.63795811 1.9360001
0.15258858 0.61390287 1.863
0.15613715 0.61390287 1.863
0.15968572 0.61390287 1.863
0.16323429 0.61390287 1.863
0.16678286 0.61390287 1.863
0.17033143 0.61390287 1.863
0.17201334 0.60731238 1.8430001
0.27886477 0.70946479 2.1530001
0.28296572 0.70946479 2.1530001
0.28706667 0.70946479 2.1530001
0.28940955 0.705181 2.1400001
0.2952686 0.70946479 2.1530001
0.29756191 0.705181 2.1400001
0.30347049 0.70946479 2.1530001
0.30757144 0.70946479 2.1530001
0.31167239 0.70946479 2.1530001
-0.31253335 0.67976004 2.0510001
-0.30682096 0.67578286 2.039
-0.30115429 0.67180574 2.0270002
-0.29729334 0.67180574 2.0270002
-0.29343238 0.67180574 2.0270002
-0.28957143 0.67180574 2.0270002
-0.28740191 0.67578286 2.039
-0.28351811 0.67578286 2.039
-0.2796343 0.67578286 2.039
-0.27575049 0.67578286 2.039
-0.27346668 0.67976004 2.0510001
-0.26956001 0.67976004 2.0510001
-0.26565334 0.67976004 2.0510001
-0.26174667 0.67976004 2.0510001
-0.25784001 0.67976004 2.0510001
-0.25244763 0.67578286 2.039
-0.24856383 0.67578286 2.039
-0.24468 0.67578286 2.039
-0.23937906 0.67180574 2.0270002
-0.2355181 0.67180574 2.0270002
-0.23165715 0.67180574 2.0270002
-0.2277962 0.67180574 2.0270002
-0.22393525 0.67180574 2.0270002
-0.21877144 0.66782862 2.0150001
-0.21493334 0.66782862 2.0150001
-0.21109524 0.66782862 2.0150001
-0.20725715 0.66782862 2.0150001
-0.20220762 0.66385144 2.003
-0.19839239 0.66385144 2.003
-0.19457714 0.66385144 2.003
-0.19076191 0.66385144 2.003
-0.18694668 0.66385144 2.003
-0.18313144 0.66385144 2.003
-0.17931619 0.66385144 2.003
-0.17550096 0.66385144 2.003
-0.091767624 0.61413717 1.853
-0.088714287 0.61745143 1.863
-0.085165717 0.61745143 1.863
-0.081617147 0.61745143 1.863
-0.077649526 0.61413717 1.853
-0.07412 0.61413717 1.853
-0.070590481 0.61413717 1.853
-0.067060955 0.61413717 1.853
-0.063874289 0.61745143 1.863
-0.060325716 0.61745143 1.863
0.063045718 0.64529145 1.9470001
0.065657146 0.63468575 1.9150001
0.070064768 0.64164573 1.9360001
0.074171431 0.64529145 1.9470001
0.077880003 0.64529145 1.9470001
0.081588574 0.64529145 1.9470001
0.085297145 0.64529145 1.9470001
0.089005716 0.64529145 1.9470001
0.092714287 0.64529145 1.9470001
0.095878102 0.64164573 1.9360001
0.14904 0.61745143 1.863
0.15258858 0.61745143 1.863
0.15613715 0.61745143 1.863
0.15968572 0.61745143 1.863
0.16323429 0.61745143 1.863
0.16678286 0.61745143 1.863
0.17033143 0.61745143 1.863
0.28706667 0.71356577 2.1530001
0.29116762 0.71356577 2.1530001
0.2952686 0.71356577 2.1530001
0.29936954 0.71356577 2.1530001
0.30544382 0.71820575 2.1670001
0.30757144 0.71356577 2.1530001
0.31167239 0.71356577 2.1530001
-0.31070477 0.6796667 2.039
-0.30682096 0.6796667 2.039
-0.30293715 0.6796667 2.039
-0.29905334 0.6796667 2.039
-0.29516953 0.6796667 2.039
-0.29128572 0.6796667 2.039
-0.28740191 0.6796667 2.039
-0.28351811 0.6796667 2.039
-0.28128001 0.68366671 2.0510001
-0.27575049 0.6796667 2.039
-0.27346668 0.68366671 2.0510001
-0.26956001 0.68366671 2.0510001
-0.26565334 0.68366671 2.0510001
-0.26174667 0.68366671 2.0510001
-0.25633144 0.6796667 2.039
-0.25244763 0.6796667 2.039
-0.24856383 0.6796667 2.039
-0.24468 0.6796667 2.039
-0.23937906 0.67566669 2.0270002
-0.23412381 0.67166668 2.0150001
-0.23165715 0.67566669 2.0270002
-0.2277962 0.67566669 2.0270002
-0.22393525 0.67566669 2.0270002
-0.21877144 0.67166668 2.0150001
-0.21493334 0.67166668 2.0150001
-0.20983811 0.66766667 2.003
-0.20725715 0.67166668 2.0150001
-0.20220762 0.66766667 2.003
-0.19839239 0.66766667 2.003
-0.19457714 0.66766667 2.003
-0.19076191 0.66766667 2.003
-0.18694668 0.66766667 2.003
-0.18313144 0.66766667 2.003
-0.17931619 0.66766667 2.003
-0.17550096 0.66766667 2.003
-0.091767624 0.61766666 1.853
-0.088238098 0.61766666 1.853
-0.085165717 0.62100005 1.863
-0.081617147 0.62100005 1.863
-0.077649526 0.61766666 1.853
-0.07412 0.61766666 1.853
-0.070590481 0.61766666 1.853
-0.067060955 0.61766666 1.853
0.059337147 0.64900005 1.9470001
0.063045718 0.64900005 1.9470001
0.066754289 0.64900005 1.9470001
0.070064768 0.64533335 1.9360001
0.074171431 0.64900005 1.9470001
0.077880003 0.64900005 1.9470001
0.081588574 0.64900005 1.9470001
0.085297145 0.64900005 1.9470001
0.089005716 0.64900005 1.9470001
0.092714287 0.64900005 1.9470001
0.14904 0.62100005 1.863
0.15340762 0.62433338 1.8730001
0.15697524 0.62433338 1.8730001
0.28706667 0.71766669 2.1530001
0.29116762 0.71766669 2.1530001
0.2952686 0.71766669 2.1530001
0.29936954 0.71766669 2.1530001
0.30347049 0.71766669 2.1530001
0.30757144 0.71766669 2.1530001
0.31167239 0.71766669 2.1530001
-0.32222095 0.69159621 2.0630002
-0.31829143 0.69159621 2.0630002
-0.31436193 0.69159621 2.0630002
-0.30682096 0.68355048 2.039
-0.30472001 0.68757337 2.0510001
-0.30081335 0.68757337 2.0510001
-0.29690668 0.68757337 2.0510001
-0.29128572 0.68355048 2.039
-0.28740191 0.68355048 2.039
-0.28351811 0.68355048 2.039
-0.28128001 0.68757337 2.0510001
-0.27575049 0.68355048 2.039
-0.27186668 0.68355048 2.039
-0.26798287 0.68355048 2.039
-0.26565334 0.68757337 2.0510001
-0.26021525 0.68355048 2.039
-0.25633144 0.68355048 2.039
-0.2509619 0.67952764 2.0270002
-0.24710096 0.67952764 2.0270002
-0.24324001 0.67952764 2.0270002
-0.23937906 0.67952764 2.0270002
-0.23412381 0.6755048 2.0150001
-0.23165715 0.67952764 2.0270002
-0.2277962 0.67952764 2.0270002
-0.22393525 0.67952764 2.0270002
-0.2200743 0.67952764 2.0270002
-0.20725715 0.6755048 2.0150001
-0.20220762 0.67148191 2.003
-0.19839239 0.67148191 2.003
-0.19457714 0.67148191 2.003
-0.19076191 0.67148191 2.003
-0.18694668 0.67148191 2.003
-0.094782859 0.61784381 1.8430001
-0.091272384 0.61784381 1.8430001
-0.08728572 0.61449146 1.8330001
-0.083794288 0.61449146 1.8330001
-0.081179053 0.62119621 1.853
-0.077649526 0.62119621 1.853
-0.073720001 0.61784381 1.8430001
-0.070209526 0.61784381 1.8430001
-0.06669905 0.61784381 1.8430001
0.059337147 0.65270859 1.9470001
0.063045718 0.65270859 1.9470001
0.066754289 0.65270859 1.9470001
0.089005716 0.65270859 1.9470001
0.092714287 0.65270859 1.9470001
0.13629334 0.63125336 1.8830001
0.13988 0.63125336 1.8830001
0.14705335 0.63125336 1.8830001
0.15064001 0.63125336 1.8830001
0.15340762 0.62790096 1.8730001
0.15697524 0.62790096 1.8730001
0.16054286 0.62790096 1.8730001
0.2949543 0.73115432 2.181
0.2952686 0.72176766 2.1530001
0.29936954 0.72176766 2.1530001
0.30544382 0.72646099 2.1670001
0.30957144 0.72646099 2.1670001
0.31369907 0.72646099 2.1670001
0.31782669 0.72646099 2.1670001
-0.33008 0.69552577 2.0630002
-0.32615048 0.69552577 2.0630002
-0.32222095 0.69552577 2.0630002
-0.31644002 0.69148004 2.0510001
-0.31253335 0.69148004 2.0510001
-0.30862668 0.69148004 2.0510001
-0.30472001 0.69148004 2.0510001
-0.30081335 0.69148004 2.0510001
-0.29690668 0.69148004 2.0510001
-0.29300001 0.69148004 2.0510001
-0.28740191 0.68743432 2.039
-0.28351811 0.68743432 2.039
-0.2796343 0.68743432 2.039
-0.27412763 0.68338859 2.0270002
-0.27026668 0.68338859 2.0270002
-0.26798287 0.68743432 2.039
-0.26409906 0.68743432 2.039
-0.26021525 0.68743432 2.039
-0.25482288 0.68338859 2.0270002
-0.2509619 0.68338859 2.0270002
-0.24856383 0.68743432 2.039
-0.24324001 0.68338859 2.0270002
-0.23937906 0.68338859 2.0270002
-0.2355181 0.68338859 2.0270002
-0.23302858 0.68743432 2.039
-0.22914477 0.68743432 2.039
-0.10645714 0.62809718 1.863
-0.1023562 0.62472576 1.853
-0.098826669 0.62472576 1.853
-0.094782859 0.62135428 1.8430001
-0.090777144 0.61798286 1.8330001
-0.08728572 0.61798286 1.8330001
-0.084251434 0.62135428 1.8430001
-0.080740958 0.62135428 1.8430001
-0.077230476 0.62135428 1.8430001
-0.073720001 0.62135428 1.8430001
-0.070209526 0.62135428 1.8430001
-0.066337146 0.61798286 1.8330001
-0.063188575 0.62135428 1.8430001
-0.059678096 0.62135428 1.8430001
0.12912001 0.63484001 1.8830001
0.13270667 0.63484001 1.8830001
0.13629334 0.63484001 1.8830001
0.13988 0.63484001 1.8830001
0.14430477 0.63854861 1.8940001
0.14791238 0.63854861 1.8940001
0.15152 0.63854861 1.8940001
0.15512763 0.63854861 1.8940001
0.15781334 0.63484001 1.8830001
0.16140001 0.63484001 1.8830001
0.29718858 0.73058861 2.1670001
0.3013162 0.73058861 2.1670001
0.30544382 0.73058861 2.1670001
0.30957144 0.73058861 2.1670001
0.31369907 0.73058861 2.1670001
0.31782669 0.73058861 2.1670001
-0.33008 0.69945526 2.0630002
-0.32615048 0.69945526 2.0630002
-0.32222095 0.69945526 2.0630002
-0.31829143 0.69945526 2.0630002
-0.31253335 0.69538671 2.0510001
-0.30862668 0.69538671 2.0510001
-0.30472001 0.69538671 2.0510001
-0.30081335 0.69538671 2.0510001
-0.29690668 0.69538671 2.0510001
-0.29300001 0.69538671 2.0510001
-0.28909335 0.69538671 2.0510001
-0.28518668 0.69538671 2.0510001
-0.28128001 0.69538671 2.0510001
-0.27737334 0.69538671 2.0510001
-0.10882477 0.62486476 1.8430001
-0.10531429 0.62486476 1.8430001
-0.10180382 0.62486476 1.8430001
-0.098293334 0.62486476 1.8430001
-0.094268575 0.62147433 1.8330001
-0.090777144 0.62147433 1.8330001
-0.08728572 0.62147433 1.8330001
-0.084251434 0.62486476 1.8430001
-0.080740958 0.62486476 1.8430001
-0.077230476 0.62486476 1.8430001
-0.073720001 0.62486476 1.8430001
-0.070209526 0.62486476 1.8430001
-0.06669905 0.62486476 1.8430001
-0.063188575 0.62486476 1.8430001
-0.059354287 0.62147433 1.8330001
-0.055862859 0.62147433 1.8330001
0.12693334 0.64554667 1.904
0.12987429 0.64215624 1.8940001
0.1334819 0.64215624 1.8940001
0.13708954 0.64215624 1.8940001
0.14069715 0.64215624 1.8940001
0.14430477 0.64215624 1.8940001
0.14791238 0.64215624 1.8940001
0.15152 0.64215624 1.8940001
0.15512763 0.64215624 1.8940001
0.15781334 0.63842666 1.8830001
0.16140001 0.63842666 1.8830001
0.2967124 0.7438705 2.194
0.29718858 0.73471624 2.1670001
0.29936954 0.72996956 2.1530001
0.30544382 0.73471624 2.1670001
0.30957144 0.73471624 2.1670001
0.31167239 0.72996956 2.1530001
0.31577334 0.72996956 2.1530001
0.31987429 0.72996956 2.1530001
0.32397524 0.72996956 2.1530001
-0.32816002 0.69929338 2.0510001
-0.32425335 0.69929338 2.0510001
-0.32034668 0.69929338 2.0510001
-0.31644002 0.69929338 2.0510001
-0.31436193 0.70338482 2.0630002
-0.3104324 0.70338482 2.0630002
-0.30472001 0.69929338 2.0510001
-0.29905334 0.69520193 2.039
-0.29690668 0.69929338 2.0510001
-0.29300001 0.69929338 2.0510001
-0.28909335 0.69929338 2.0510001
-0.10531429 0.62837523 1.8430001
-0.10180382 0.62837523 1.8430001
-0.098293334 0.62837523 1.8430001
-0.094268575 0.62496573 1.8330001
-0.090777144 0.62496573 1.8330001
-0.08728572 0.62496573 1.8330001
-0.084251434 0.62837523 1.8430001
-0.080740958 0.62837523 1.8430001
-0.077230476 0.62837523 1.8430001
-0.073720001 0.62837523 1.8430001
-0.070209526 0.62837523 1.8430001
-0.06669905 0.62837523 1.8430001
-0.063188575 0.62837523 1.8430001
-0.059354287 0.62496573 1.8330001
-0.055862859 0.62496573 1.8330001
0.097920001 0.64917338 1.904
0.10213333 0.65292382 1.9150001
0.10578096 0.65292382 1.9150001
0.10942858 0.65292382 1.9150001
0.11968 0.64917338 1.904
0.12330667 0.64917338 1.904
0.12693334 0.64917338 1.904
0.12987429 0.64576381 1.8940001
0.1334819 0.64576381 1.8940001
0.13708954 0.64576381 1.8940001
0.13988 0.64201337 1.8830001
0.14346667 0.64201337 1.8830001
0.14705335 0.64201337 1.8830001
0.15064001 0.64201337 1.8830001
0.15422668 0.64201337 1.8830001
0.15697524 0.63860381 1.8730001
0.16054286 0.63860381 1.8730001
0.2952686 0.73407048 2.1530001
0.29936954 0.73407048 2.1530001
0.30347049 0.73407048 2.1530001
0.30957144 0.73884386 2.1670001
0.31167239 0.73407048 2.1530001
0.31386667 0.7296381 2.1400001
0.31794286 0.7296381 2.1400001
0.32201907 0.7296381 2.1400001
0.32609525 0.7296381 2.1400001
0.33017144 0.7296381 2.1400001
-0.32624 0.69908571 2.039
-0.32235619 0.69908571 2.039
-0.31847239 0.69908571 2.039
-0.31644002 0.70320004 2.0510001
-0.31253335 0.70320004 2.0510001
-0.30862668 0.70320004 2.0510001
-0.30472001 0.70320004 2.0510001
-0.29905334 0.69908571 2.039
-0.29690668 0.70320004 2.0510001
-0.29300001 0.70320004 2.0510001
-0.28909335 0.70320004 2.0510001
-0.10531429 0.63188577 1.8430001
-0.10180382 0.63188577 1.8430001
-0.098293334 0.63188577 1.8430001
-0.094268575 0.62845719 1.8330001
-0.090777144 0.62845719 1.8330001
-0.08728572 0.62845719 1.8330001
-0.084251434 0.63188577 1.8430001
-0.081179053 0.63531429 1.853
-0.077649526 0.63531429 1.853
-0.07412 0.63531429 1.853
-0.070590481 0.63531429 1.853
-0.067060955 0.63531429 1.853
-0.063531429 0.63531429 1.853
-0.059678096 0.63188577 1.8430001
-0.055862859 0.62845719 1.8330001
-0.052371431 0.62845719 1.8330001
-0.048880003 0.62845719 1.8330001
0.081179053 0.63531429 1.853
0.085622862 0.64217144 1.8730001
0.088714287 0.63874286 1.863
0.092262864 0.63874286 1.863
0.097920001 0.65280002 1.904
0.10213333 0.65657145 1.9150001
0.10578096 0.65657145 1.9150001
0.1088 0.65280002 1.904
0.11242667 0.65280002 1.904
0.11605334 0.65280002 1.904
0.11968 0.65280002 1.904
0.12330667 0.65280002 1.904
0.12693334 0.65280002 1.904
0.13056001 0.65280002 1.904
0.1334819 0.64937145 1.8940001
0.13708954 0.64937145 1.8940001
0.14069715 0.64937145 1.8940001
0.14430477 0.64937145 1.8940001
0.14705335 0.64560002 1.8830001
0.15152 0.64937145 1.8940001
0.15422668 0.64560002 1.8830001
0.15697524 0.64217144 1.8730001
0.16054286 0.64217144 1.8730001
0.16411048 0.64217144 1.8730001
0.29718858 0.74297148 2.1670001
0.29936954 0.73817146 2.1530001
0.30347049 0.73817146 2.1530001
0.30757144 0.73817146 2.1530001
0.31167239 0.73817146 2.1530001
0.31386667 0.73371434 2.1400001
0.31794286 0.73371434 2.1400001
0.32006288 0.72925717 2.1270001
0.32609525 0.73371434 2.1400001
0.33017144 0.73371434 2.1400001
0.33424762 0.73371434 2.1400001
-0.32624 0.70296955 2.039
-0.32235619 0.70296955 2.039
-0.31847239 0.70296955 2.039
-0.31644002 0.70710671 2.0510001
-0.31253335 0.70710671 2.0510001
-0.30682096 0.70296955 2.039
-0.30293715 0.70296955 2.039
-0.29905334 0.70296955 2.039
-0.29516953 0.70296955 2.039
-0.10075429 0.62884575 1.8240001
-0.097760007 0.63194859 1.8330001
-0.093805715 0.62884575 1.8240001
-0.090777144 0.63194859 1.8330001
-0.08728572 0.63194859 1.8330001
-0.084251434 0.63539624 1.8430001
-0.080740958 0.63539624 1.8430001
-0.077649526 0.63884383 1.853
-0.07412 0.63884383 1.853
-0.070590481 0.63884383 1.853
-0.06669905 0.63539624 1.8430001
-0.063531429 0.63884383 1.853
-0.059678096 0.63539624 1.8430001
-0.055862859 0.63194859 1.8330001
-0.052371431 0.63194859 1.8330001
-0.048880003 0.63194859 1.8330001
-0.023302859 0.70296955 2.039
-0.019419048 0.70296955 2.039
0.081179053 0.63884383 1.853
0.085622862 0.64573908 1.8730001
0.088714287 0.64229143 1.863
0.094293334 0.65642667 1.904
0.097920001 0.65642667 1.904
0.10213333 0.66021907 1.9150001
0.10578096 0.66021907 1.9150001
0.1088 0.65642667 1.904
0.11242667 0.65642667 1.904
0.11605334 0.65642667 1.904
0.11968 0.65642667 1.904
0.12330667 0.65642667 1.904
0.12693334 0.65642667 1.904
0.13056001 0.65642667 1.904
0.1334819 0.65297908 1.8940001
0.13708954 0.65297908 1.8940001
0.14069715 0.65297908 1.8940001
0.14346667 0.64918667 1.8830001
0.14705335 0.64918667 1.8830001
0.15064001 0.64918667 1.8830001
0.15422668 0.64918667 1.8830001
0.15697524 0.64573908 1.8730001
0.16054286 0.64573908 1.8730001
0.16411048 0.64573908 1.8730001
0.1676781 0.64573908 1.8730001
0.3013162 0.7470991 2.1670001
0.30347049 0.74227244 2.1530001
0.30757144 0.74227244 2.1530001
0.31167239 0.74227244 2.1530001
0.31386667 0.73779052 2.1400001
0.31794286 0.73779052 2.1400001
0.32201907 0.73779052 2.1400001
0.32609525 0.73779052 2.1400001
0.33017144 0.73779052 2.1400001
0.33424762 0.73779052 2.1400001
0.33832383 0.73779052 2.1400001
0.34240001 0.73779052 2.1400001
-0.31847239 0.70685333 2.039
-0.31829143 0.71517336 2.0630002
-0.31436193 0.71517336 2.0630002
-0.3104324 0.71517336 2.0630002
-0.30472001 0.71101338 2.0510001
-0.30081335 0.71101338 2.0510001
-0.094268575 0.63544005 1.8330001
-0.090777144 0.63544005 1.8330001
-0.08728572 0.63544005 1.8330001
-0.084251434 0.63890672 1.8430001
-0.080740958 0.63890672 1.8430001
-0.077230476 0.63890672 1.8430001
-0.073720001 0.63890672 1.8430001
-0.070209526 0.63890672 1.8430001
-0.06669905 0.63890672 1.8430001
-0.063531429 0.64237338 1.853
-0.059678096 0.63890672 1.8430001
-0.056167621 0.63890672 1.8430001
-0.052657146 0.63890672 1.8430001
-0.049413335 0.64237338 1.853
-0.045883812 0.64237338 1.853
-0.023302859 0.70685333 2.039
-0.019419048 0.70685333 2.039
-0.01544381 0.70269334 2.0270002
-0.011582858 0.70269334 2.0270002
-0.0077219051 0.70269334 2.0270002
-0.0038609526 0.70269334 2.0270002
0.09119048 0.6638667 1.9150001
0.094838098 0.6638667 1.9150001
0.098485716 0.6638667 1.9150001
0.10213333 0.6638667 1.9150001
0.10578096 0.6638667 1.9150001
0.10942858 0.6638667 1.9150001
0.11242667 0.66005337 1.904
0.11605334 0.66005337 1.904
0.11968 0.66005337 1.904
0.12330667 0.66005337 1.904
0.12693334 0.66005337 1.904
0.13056001 0.66005337 1.904
0.13418667 0.66005337 1.904
0.13708954 0.65658671 1.8940001
0.14069715 0.65658671 1.8940001
0.14346667 0.65277338 1.8830001
0.14705335 0.65277338 1.8830001
0.15064001 0.65277338 1.8830001
0.15422668 0.65277338 1.8830001
0.15697524 0.64930671 1.8730001
0.16054286 0.64930671 1.8730001
0.16323429 0.64584005 1.863
0.16678286 0.64584005 1.863
0.2952686 0.74637336 2.1530001
0.29936954 0.74637336 2.1530001
0.3016381 0.74186671 2.1400001
0.30571431 0.74186671 2.1400001
0.30979049 0.74186671 2.1400001
0.31386667 0.74186671 2.1400001
0.31794286 0.74186671 2.1400001
0.32006288 0.73736 2.1270001
0.32411429 0.73736 2.1270001
0.33017144 0.74186671 2.1400001
0.33424762 0.74186671 2.1400001
0.33832383 0.74186671 2.1400001
-0.31829143 0.71910286 2.0630002
-0.31436193 0.71910286 2.0630002
-0.3104324 0.71910286 2.0630002
-0.30472001 0.71492004 2.0510001
-0.30081335 0.71492004 2.0510001
-0.094268575 0.63893145 1.8330001
-0.090777144 0.63893145 1.8330001
-0.08728572 0.63893145 1.8330001
-0.084708571 0.64590287 1.853
-0.081179053 0.64590287 1.853
-0.077230476 0.64241719 1.8430001
-0.073720001 0.64241719 1.8430001
-0.070590481 0.64590287 1.853
-0.067060955 0.64590287 1.853
-0.063531429 0.64590287 1.853
-0.060001906 0.64590287 1.853
-0.056472383 0.64590287 1.853
-0.052942861 0.64590287 1.853
-0.049946669 0.65287429 1.8730001
-0.046626668 0.65636003 1.8830001
-0.04304 0.65636003 1.8830001
-0.023302859 0.71073717 2.039
-0.019304764 0.70655429 2.0270002
-0.01544381 0.70655429 2.0270002
-0.011582858 0.70655429 2.0270002
-0.0077219051 0.70655429 2.0270002
-0.0038609526 0.70655429 2.0270002
0 0.6981886 2.003
0.0037942859 0.6943543 1.9920001
0.0075885719 0.6943543 1.9920001
0.011382857 0.6943543 1.9920001
0.015177144 0.6943543 1.9920001
0.094838098 0.66751432 1.9150001
0.098485716 0.66751432 1.9150001
0.10266667 0.671 1.9250001
0.10578096 0.66751432 1.9150001
0.10942858 0.66751432 1.9150001
0.1130762 0.66751432 1.9150001
0.11672381 0.66751432 1.9150001
0.11968 0.66368002 1.904
0.12330667 0.66368002 1.904
0.12693334 0.66368002 1.904
0.13056001 0.66368002 1.904
0.13418667 0.66368002 1.904
0.13708954 0.66019434 1.8940001
0.13988 0.65636003 1.8830001
0.14346667 0.65636003 1.8830001
0.14627239 0.65287429 1.8730001
0.14984001 0.65287429 1.8730001
0.15340762 0.65287429 1.8730001
0.15613715 0.64938861 1.863
0.15968572 0.64938861 1.863
0.16323429 0.64938861 1.863
0.16678286 0.64938861 1.863
0.17124572 0.65287429 1.8730001
0.17481335 0.65287429 1.8730001
0.17838097 0.65287429 1.8730001
0.3016381 0.74594289 2.1400001
0.30571431 0.74594289 2.1400001
0.30979049 0.74594289 2.1400001
0.31386667 0.74594289 2.1400001
0.31601143 0.74141145 2.1270001
0.32006288 0.74141145 2.1270001
0.32609525 0.74594289 2.1400001
0.33017144 0.74594289 2.1400001
0.33424762 0.74594289 2.1400001
0.33832383 0.74594289 2.1400001
-0.31829143 0.72303241 2.0630002
-0.31634286 0.72758859 2.0760002
-0.31238857 0.72758859 2.0760002
-0.30472001 0.71882671 2.0510001
-0.091767624 0.64943242 1.853
-0.088714287 0.65293717 1.863
-0.085165717 0.65293717 1.863
-0.081617147 0.65293717 1.863
-0.077649526 0.64943242 1.853
-0.07412 0.64943242 1.853
-0.070590481 0.64943242 1.853
-0.067060955 0.64943242 1.853
-0.063874289 0.65293717 1.863
-0.060001906 0.64943242 1.853
-0.056777146 0.65293717 1.863
-0.053228572 0.65293717 1.863
-0.050213337 0.65994668 1.8830001
-0.047146667 0.66730666 1.904
-0.04352 0.66730666 1.904
-0.039893337 0.66730666 1.904
-0.023028573 0.70620954 2.0150001
-0.019190477 0.70620954 2.0150001
-0.015352381 0.70620954 2.0150001
-0.011514287 0.70620954 2.0150001
-0.0076761907 0.70620954 2.0150001
-0.0038380953 0.70620954 2.0150001
0 0.70200384 2.003
0.0037942859 0.69814861 1.9920001
0.0075885719 0.69814861 1.9920001
0.011382857 0.69814861 1.9920001
0.015177144 0.69814861 1.9920001
0.01897143 0.69814861 1.9920001
0.022765715 0.69814861 1.9920001
0.026560001 0.69814861 1.9920001
0.030354287 0.69814861 1.9920001
0.034148574 0.69814861 1.9920001
0.038380954 0.70620954 2.0150001
0.042470478 0.71041524 2.0270002
0.046605717 0.71462101 2.039
0.050489526 0.71462101 2.039
0.10266667 0.6746667 1.9250001
0.10633334 0.6746667 1.9250001
0.11000001 0.6746667 1.9250001
0.1130762 0.67116195 1.9150001
0.11672381 0.67116195 1.9150001
0.12037143 0.67116195 1.9150001
0.12330667 0.66730666 1.904
0.12693334 0.66730666 1.904
0.13056001 0.66730666 1.904
0.13418667 0.66730666 1.904
0.13708954 0.66380191 1.8940001
0.13988 0.65994668 1.8830001
0.14270477 0.65644193 1.8730001
0.14627239 0.65644193 1.8730001
0.14984001 0.65644193 1.8730001
0.15258858 0.65293717 1.863
0.15613715 0.65293717 1.863
0.15968572 0.65293717 1.863
0.16323429 0.65293717 1.863
0.16678286 0.65293717 1.863
0.17124572 0.65644193 1.8730001
0.17481335 0.65644193 1.8730001
0.17838097 0.65644193 1.8730001
0.18194857 0.65644193 1.8730001
-0.31634286 0.73154289 2.0760002
-0.31238857 0.73154289 2.0760002
-0.30472001 0.72273338 2.0510001
-0.30081335 0.72273338 2.0510001
-0.091767624 0.65296191 1.853
-0.088238098 0.65296191 1.853
-0.085165717 0.65648574 1.863
-0.081617147 0.65648574 1.863
-0.078068577 0.65648574 1.863
-0.07412 0.65296191 1.853
-0.070971429 0.65648574 1.863
-0.067422859 0.65648574 1.863
-0.063874289 0.65648574 1.863
-0.060325716 0.65648574 1.863
-0.056777146 0.65648574 1.863
-0.053228572 0.65648574 1.863
-0.050213337 0.66353333 1.8830001
-0.04689905 0.66740954 1.8940001
-0.043291431 0.66740954 1.8940001
-0.039683811 0.66740954 1.8940001
-0.023028573 0.71004766 2.0150001
-0.019190477 0.71004766 2.0150001
-0.015352381 0.71004766 2.0150001
-0.011514287 0.71004766 2.0150001
-0.0076761907 0.71004766 2.0150001
-0.0038380953 0.71004766 2.0150001
0 0.70581907 2.003
0.0037942859 0.70194286 1.9920001
0.0075885719 0.70194286 1.9920001
0.011382857 0.70194286 1.9920001
0.015177144 0.70194286 1.9920001
0.01897143 0.70194286 1.9920001
0.022765715 0.70194286 1.9920001
0.026560001 0.70194286 1.9920001
0.030521905 0.70581907 2.003
0.034337144 0.70581907 2.003
0.038380954 0.71004766 2.0150001
0.042721905 0.71850479 2.039
0.046605717 0.71850479 2.039
0.050489526 0.71850479 2.039
0.054373335 0.71850479 2.039
0.11867429 0.68608576 1.9470001
0.12037143 0.67480958 1.9150001
0.12401905 0.67480958 1.9150001
0.12693334 0.67093337 1.904
0.13056001 0.67093337 1.904
0.1334819 0.66740954 1.8940001
0.13708954 0.66740954 1.8940001
0.13988 0.66353333 1.8830001
0.14270477 0.66000956 1.8730001
0.14627239 0.66000956 1.8730001
0.14904 0.65648574 1.863
0.15258858 0.65648574 1.863
0.15529905 0.65296191 1.853
0.15968572 0.65648574 1.863
0.16323429 0.65648574 1.863
0.16678286 0.65648574 1.863
0.17033143 0.65648574 1.863
0.17481335 0.66000956 1.8730001
0.17838097 0.66000956 1.8730001
0.18194857 0.66000956 1.8730001
0.18452573 0.65648574 1.863
0.18807429 0.65648574 1.863
-0.31238857 0.73549718 2.0760002
-0.30472001 0.72664005 2.0510001
-0.30081335 0.72664005 2.0510001
-0.093805715 0.64621717 1.8240001
-0.091767624 0.65649146 1.853
-0.088238098 0.65649146 1.853
-0.084708571 0.65649146 1.853
-0.081179053 0.65649146 1.853
-0.077649526 0.65649146 1.853
-0.07412 0.65649146 1.853
-0.070971429 0.6600343 1.863
-0.067422859 0.6600343 1.863
-0.063874289 0.6600343 1.863
-0.060325716 0.6600343 1.863
-0.056777146 0.6600343 1.863
-0.053228572 0.6600343 1.863
-0.049946669 0.66357714 1.8730001
-0.046379048 0.66357714 1.8730001
-0.042811431 0.66357714 1.8730001
-0.019190477 0.71388572 2.0150001
-0.01544381 0.71813715 2.0270002
-0.011514287 0.71388572 2.0150001
-0.0076761907 0.71388572 2.0150001
-0.0038380953 0.71388572 2.0150001
0 0.7096343 2.003
0.0038152381 0.7096343 2.003
0.0075885719 0.70573717 1.9920001
0.011382857 0.70573717 1.9920001
0.015177144 0.70573717 1.9920001
0.01897143 0.70573717 1.9920001
0.022765715 0.70573717 1.9920001
0.026560001 0.70573717 1.9920001
0.030354287 0.70573717 1.9920001
0.034148574 0.70573717 1.9920001
0.038152382 0.7096343 2.003
0.041967619 0.7096343 2.003
0.046331432 0.71813715 2.0270002
0.050192382 0.71813715 2.0270002
0.11934476 0.69369143 1.9580001
0.12238286 0.6897943 1.9470001
0.12401905 0.67845714 1.9150001
0.12693334 0.67456001 1.904
0.13056001 0.67456001 1.904
0.1334819 0.67101717 1.8940001
0.13708954 0.67101717 1.8940001
0.13988 0.66712004 1.8830001
0.14270477 0.66357714 1.8730001
0.14549144 0.6600343 1.863
0.14904 0.6600343 1.863
0.15258858 0.6600343 1.863
0.15529905 0.65649146 1.853
0.15968572 0.6600343 1.863
0.16323429 0.6600343 1.863
0.16678286 0.6600343 1.863
0.17033143 0.6600343 1.863
0.17388001 0.6600343 1.863
0.17838097 0.66357714 1.8730001
0.18194857 0.66357714 1.8730001
0.18452573 0.6600343 1.863
0.18807429 0.6600343 1.863
0.19162287 0.6600343 1.863
-0.1002019 0.64612955 1.8140001
-0.096746668 0.64612955 1.8140001
-0.093805715 0.64969146 1.8240001
-0.091272384 0.65645909 1.8430001
-0.087761909 0.65645909 1.8430001
-0.084708571 0.66002095 1.853
-0.081179053 0.66002095 1.853
-0.077649526 0.66002095 1.853
-0.07412 0.66002095 1.853
-0.070971429 0.66358286 1.863
-0.067422859 0.66358286 1.863
-0.064217143 0.66714478 1.8730001
-0.060649525 0.66714478 1.8730001
-0.057081908 0.66714478 1.8730001
-0.053514287 0.66714478 1.8730001
-0.049946669 0.66714478 1.8730001
-0.046626668 0.67070669 1.8830001
-0.04304 0.67070669 1.8830001
-0.015260953 0.71344954 2.003
-0.011445715 0.71344954 2.003
-0.0076304763 0.71344954 2.003
-0.0038152381 0.71344954 2.003
0 0.71344954 2.003
0.0037942859 0.70953143 1.9920001
0.0075885719 0.70953143 1.9920001
0.011382857 0.70953143 1.9920001
0.015177144 0.70953143 1.9920001
0.01897143 0.70953143 1.9920001
0.022765715 0.70953143 1.9920001
0.026560001 0.70953143 1.9920001
0.030354287 0.70953143 1.9920001
0.034148574 0.70953143 1.9920001
0.03794286 0.70953143 1.9920001
0.042470478 0.7219981 2.0270002
0.04578286 0.71344954 2.003
0.049598098 0.71344954 2.003
0.12141715 0.70953143 1.9920001
0.12521143 0.70953143 1.9920001
0.12265905 0.6746248 1.8940001
0.12626667 0.6746248 1.8940001
0.12987429 0.6746248 1.8940001
0.13270667 0.67070669 1.8830001
0.13629334 0.67070669 1.8830001
0.13913715 0.66714478 1.8730001
0.14194286 0.66358286 1.863
0.14549144 0.66358286 1.863
0.14904 0.66358286 1.863
0.15258858 0.66358286 1.863
0.15613715 0.66358286 1.863
0.15968572 0.66358286 1.863
0.16323429 0.66358286 1.863
0.16678286 0.66358286 1.863
0.17033143 0.66358286 1.863
0.17388001 0.66358286 1.863
0.17742857 0.66358286 1.863
0.18097715 0.66358286 1.863
0.18452573 0.66358286 1.863
0.18706477 0.66002095 1.853
0.19059429 0.66002095 1.853
-0.30115429 0.72585905 2.0270002
-0.29553336 0.72156191 2.0150001
-0.29169524 0.72156191 2.0150001
-0.1002019 0.64958477 1.8140001
-0.097280003 0.65316576 1.8240001
-0.094268575 0.65638858 1.8330001
-0.090777144 0.65638858 1.8330001
-0.087761909 0.65996957 1.8430001
-0.084251434 0.65996957 1.8430001
-0.080740958 0.65996957 1.8430001
-0.077230476 0.65996957 1.8430001
-0.073720001 0.65996957 1.8430001
-0.070590481 0.6635505 1.853
-0.067784764 0.67071241 1.8730001
-0.064217143 0.67071241 1.8730001
-0.060649525 0.67071241 1.8730001
-0.057081908 0.67071241 1.8730001
-0.053800002 0.67429334 1.8830001
-0.050213337 0.67429334 1.8830001
-0.046626668 0.67429334 1.8830001
-0.015260953 0.71726477 2.003
-0.011445715 0.71726477 2.003
-0.0076304763 0.71726477 2.003
-0.0038152381 0.71726477 2.003
0 0.71332574 1.9920001
0.0037942859 0.71332574 1.9920001
0.0076304763 0.71726477 2.003
0.011382857 0.71332574 1.9920001
0.015177144 0.71332574 1.9920001
0.01897143 0.71332574 1.9920001
0.022765715 0.71332574 1.9920001
0.026560001 0.71332574 1.9920001
0.030354287 0.71332574 1.9920001
0.034148574 0.71332574 1.9920001
0.03794286 0.71332574 1.9920001
0.041737143 0.71332574 1.9920001
0.12553334 0.67429334 1.8830001
0.12912001 0.67429334 1.8830001
0.13270667 0.67429334 1.8830001
0.13629334 0.67429334 1.8830001
0.13913715 0.67071241 1.8730001
0.14270477 0.67071241 1.8730001
0.14627239 0.67071241 1.8730001
0.14904 0.66713142 1.863
0.15258858 0.66713142 1.863
0.15613715 0.66713142 1.863
0.15968572 0.66713142 1.863
0.16323429 0.66713142 1.863
0.16678286 0.66713142 1.863
0.17033143 0.66713142 1.863
0.17388001 0.66713142 1.863
0.17742857 0.66713142 1.863
0.18097715 0.66713142 1.863
0.18353525 0.6635505 1.853
0.18504572 0.65638858 1.8330001
0.18761143 0.65316576 1.8240001
0.19108573 0.65316576 1.8240001
-0.31273717 0.72972006 2.0270002
-0.30887622 0.72972006 2.0270002
-0.30320954 0.72540003 2.0150001
-0.29937145 0.72540003 2.0150001
-0.29553336 0.72540003 2.0150001
-0.28995812 0.72108001 2.003
-0.10075429 0.65664005 1.8240001
-0.097280003 0.65664005 1.8240001
-0.094268575 0.65988004 1.8330001
-0.090777144 0.65988004 1.8330001
-0.08728572 0.65988004 1.8330001
-0.083794288 0.65988004 1.8330001
-0.080302857 0.65988004 1.8330001
-0.077230476 0.66348004 1.8430001
-0.073720001 0.66348004 1.8430001
-0.070209526 0.66348004 1.8430001
-0.067422859 0.67068005 1.863
-0.064217143 0.67428005 1.8730001
-0.060649525 0.67428005 1.8730001
-0.057081908 0.67428005 1.8730001
-0.053514287 0.67428005 1.8730001
-0.01897143 0.71712005 1.9920001
-0.015260953 0.72108001 2.003
-0.011445715 0.72108001 2.003
-0.0076304763 0.72108001 2.003
-0.0037942859 0.71712005 1.9920001
0 0.71712005 1.9920001
0.0037942859 0.71712005 1.9920001
0.0075885719 0.71712005 1.9920001
0.011382857 0.71712005 1.9920001
0.015177144 0.71712005 1.9920001
0.01897143 0.71712005 1.9920001
0.022765715 0.71712005 1.9920001
0.026706668 0.72108001 2.003
0.030354287 0.71712005 1.9920001
0.034148574 0.71712005 1.9920001
0.03794286 0.71712005 1.9920001
0.041737143 0.71712005 1.9920001
0.12486667 0.67428005 1.8730001
0.12843429 0.67428005 1.8730001
0.13200191 0.67428005 1.8730001
0.13556953 0.67428005 1.8730001
0.13913715 0.67428005 1.8730001
