# .PCD v0.7 - Point Cloud Data file format
VERSION 0.7
FIELDS x y z
SIZE 4 4 4
TYPE F F F
COUNT 1 1 1
WIDTH 1507
HEIGHT 1
VIEWPOINT 0 0 0 1 0 0 0
POINTS 1507
DATA ascii
-0.043291431 0.57721907 1.8940001
-0.039683811 0.57721907 1.8940001
-0.036076192 0.57721907 1.8940001
-0.032468572 0.57721907 1.8940001
-0.028860953 0.57721907 1.8940001
-0.027026668 0.61775243 2.0270002
-0.02289143 0.61043811 2.003
-0.01897143 0.60708576 1.9920001
-0.015085715 0.6034286 1.9800001
-0.011251429 0.6000762 1.9690001
-0.0075009526 0.6000762 1.9690001
-0.0037504763 0.6000762 1.9690001
0 0.6000762 1.9690001
0.0037504763 0.6000762 1.9690001
0.0075009526 0.6000762 1.9690001
0.011251429 0.6000762 1.9690001
0.015001905 0.6000762 1.9690001
0.018752381 0.6000762 1.9690001
0.022502858 0.6000762 1.9690001
0.026106667 0.59672385 1.9580001
0.03000381 0.6000762 1.9690001
0.033754285 0.6000762 1.9690001
0.037504762 0.6000762 1.9690001
0.041255239 0.6000762 1.9690001
0.045005716 0.6000762 1.9690001
0.048756193 0.6000762 1.9690001
0.053120002 0.60708576 1.9920001
0.056914289 0.60708576 1.9920001
0.061409526 0.61409527 2.0150001
0.066024765 0.62140954 2.039
0.070320003 0.6250667 2.0510001
0.073792383 0.62140954 2.039
0.077219054 0.61775243 2.0270002
0.081560001 0.62140954 2.039
0.08544381 0.62140954 2.039
0.089853339 0.6250667 2.0510001
0.093211435 0.62140954 2.039
0.091666669 0.5866667 1.9250001
0.095878102 0.59001905 1.9360001
0.099565715 0.59001905 1.9360001
0.10266667 0.5866667 1.9250001
0.10633334 0.5866667 1.9250001
0.10942858 0.58361906 1.9150001
0.1130762 0.58361906 1.9150001
0.11672381 0.58361906 1.9150001
0.12037143 0.58361906 1.9150001
0.12330667 0.58026671 1.904
0.12626667 0.57721907 1.8940001
0.12987429 0.57721907 1.8940001
0.1334819 0.57721907 1.8940001
-0.21377715 0.6038267 1.9690001
-0.21002668 0.6038267 1.9690001
-0.20512381 0.60045338 1.9580001
-0.20139429 0.60045338 1.9580001
-0.19766477 0.60045338 1.9580001
-0.19393525 0.60045338 1.9580001
-0.19127429 0.6038267 1.9690001
-0.13433334 0.61793333 2.0150001
-0.13049525 0.61793333 2.0150001
-0.12665714 0.61793333 2.0150001
-0.12355048 0.62161338 2.0270002
-0.1203981 0.62529337 2.039
-0.11651429 0.62529337 2.039
-0.11263048 0.62529337 2.039
-0.10874667 0.62529337 2.039
-0.10486286 0.62529337 2.039
-0.10097905 0.62529337 2.039
-0.097095244 0.62529337 2.039
-0.092114292 0.61793333 2.0150001
-0.088276193 0.61793333 2.0150001
-0.083935238 0.61425334 2.003
-0.079680003 0.61088002 1.9920001
-0.075428575 0.60720003 1.9800001
-0.070860952 0.60045338 1.9580001
-0.066 0.59033334 1.9250001
-0.062009525 0.58726668 1.9150001
-0.058026668 0.58389336 1.904
-0.054400001 0.58389336 1.904
-0.05050667 0.5808267 1.8940001
-0.04689905 0.5808267 1.8940001
-0.043291431 0.5808267 1.8940001
-0.039683811 0.5808267 1.8940001
-0.035866667 0.57745337 1.8830001
-0.032280002 0.57745337 1.8830001
-0.029500954 0.59370667 1.9360001
-0.026253335 0.6038267 1.9690001
-0.022502858 0.6038267 1.9690001
-0.018752381 0.6038267 1.9690001
-0.015001905 0.6038267 1.9690001
-0.011251429 0.6038267 1.9690001
-0.0074590477 0.60045338 1.9580001
-0.0037714287 0.60720003 1.9800001
0 0.60720003 1.9800001
0.0037504763 0.6038267 1.9690001
0.0075009526 0.6038267 1.9690001
0.011251429 0.6038267 1.9690001
0.015001905 0.6038267 1.9690001
0.018752381 0.6038267 1.9690001
0.022502858 0.6038267 1.9690001
0.026106667 0.60045338 1.9580001
0.03000381 0.6038267 1.9690001
0.033754285 0.6038267 1.9690001
0.037504762 0.6038267 1.9690001
0.041485716 0.60720003 1.9800001
0.045005716 0.6038267 1.9690001
0.048756193 0.6038267 1.9690001
0.052800003 0.60720003 1.9800001
0.056914289 0.61088002 1.9920001
0.060708575 0.61088002 1.9920001
0.065636195 0.62161338 2.0270002
0.069908574 0.62529337 2.039
0.073792383 0.62529337 2.039
0.077219054 0.62161338 2.0270002
0.081560001 0.62529337 2.039
0.08544381 0.62529337 2.039
0.089853339 0.62897336 2.0510001
0.093211435 0.62529337 2.039
0.092714287 0.59707999 1.9470001
0.096422859 0.59707999 1.9470001
0.10013143 0.59707999 1.9470001
0.10325333 0.59370667 1.9360001
0.10694095 0.59370667 1.9360001
0.11000001 0.59033334 1.9250001
0.1130762 0.58726668 1.9150001
0.11672381 0.58726668 1.9150001
0.12037143 0.58726668 1.9150001
0.12330667 0.58389336 1.904
0.12693334 0.58389336 1.904
0.12987429 0.5808267 1.8940001
0.13270667 0.57745337 1.8830001
0.13629334 0.57745337 1.8830001
0.16704001 0.64032 2.0880001
0.17101716 0.64032 2.0880001
0.17499429 0.64032 2.0880001
0.18008572 0.64430672 2.1010001
0.18522668 0.64829338 2.1140001
0.18808953 0.64430672 2.1010001
0.19209144 0.64430672 2.1010001
0.20536001 0.64829338 2.1140001
0.20681144 0.64032 2.0880001
0.21210095 0.64430672 2.1010001
0.21610287 0.64430672 2.1010001
0.22010477 0.64430672 2.1010001
-0.20768 0.60078859 1.9470001
-0.20512381 0.6041829 1.9580001
-0.20026286 0.60078859 1.9470001
-0.19655429 0.60078859 1.9470001
-0.19284572 0.60078859 1.9470001
-0.13899429 0.62547433 2.0270002
-0.13513334 0.62547433 2.0270002
-0.13049525 0.62177145 2.0150001
-0.12665714 0.62177145 2.0150001
-0.12355048 0.62547433 2.0270002
-0.1203981 0.62917715 2.039
-0.11651429 0.62917715 2.039
-0.11263048 0.62917715 2.039
-0.10874667 0.62917715 2.039
-0.10486286 0.62917715 2.039
-0.10097905 0.62917715 2.039
-0.097095244 0.62917715 2.039
-0.092114292 0.62177145 2.0150001
-0.08775048 0.61806858 2.003
-0.083935238 0.61806858 2.003
-0.079680003 0.61467433 1.9920001
-0.072152384 0.58443433 1.8940001
-0.069304764 0.59091431 1.9150001
-0.065657146 0.59091431 1.9150001
-0.062009525 0.59091431 1.9150001
-0.057721905 0.58443433 1.8940001
-0.053800002 0.58104002 1.8830001
-0.050213337 0.58104002 1.8830001
-0.046626668 0.58104002 1.8830001
-0.04304 0.58104002 1.8830001
-0.039453335 0.58104002 1.8830001
-0.035866667 0.58104002 1.8830001
-0.033565715 0.6041829 1.9580001
-0.029500954 0.59739429 1.9360001
-0.02596 0.60078859 1.9470001
-0.022377145 0.6041829 1.9580001
-0.01864762 0.6041829 1.9580001
-0.014918095 0.6041829 1.9580001
-0.011188572 0.6041829 1.9580001
-0.0074590477 0.6041829 1.9580001
-0.0037714287 0.61097145 1.9800001
0 0.61097145 1.9800001
0.0037714287 0.61097145 1.9800001
0.0075009526 0.60757715 1.9690001
0.011251429 0.60757715 1.9690001
0.015001905 0.60757715 1.9690001
0.018857144 0.61097145 1.9800001
0.022502858 0.60757715 1.9690001
0.026106667 0.6041829 1.9580001
0.03000381 0.60757715 1.9690001
0.03394286 0.61097145 1.9800001
0.037714288 0.61097145 1.9800001
0.041485716 0.61097145 1.9800001
0.045005716 0.60757715 1.9690001
0.048756193 0.60757715 1.9690001
0.052800003 0.61097145 1.9800001
0.056571431 0.61097145 1.9800001
0.060007621 0.60757715 1.9690001
0.064114287 0.61097145 1.9800001
0.069085717 0.62177145 2.0150001
0.073358096 0.62547433 2.0270002
0.077219054 0.62547433 2.0270002
0.081560001 0.62917715 2.039
0.085946672 0.63288003 2.0510001
0.090379052 0.63658285 2.0630002
0.093760006 0.63288003 2.0510001
0.097666673 0.63288003 2.0510001
0.10216762 0.63658285 2.0630002
0.10609715 0.63658285 2.0630002
0.10384 0.60078859 1.9470001
0.10694095 0.59739429 1.9360001
0.11000001 0.59400004 1.9250001
0.11366667 0.59400004 1.9250001
0.11672381 0.59091431 1.9150001
0.12037143 0.59091431 1.9150001
0.12330667 0.58752 1.904
0.12693334 0.58752 1.904
0.12987429 0.58443433 1.8940001
0.13270667 0.58104002 1.8830001
0.13629334 0.58104002 1.8830001
0.13988 0.58104002 1.8830001
0.16704001 0.64429718 2.0880001
0.17101716 0.64429718 2.0880001
0.17608382 0.64830858 2.1010001
0.18008572 0.64830858 2.1010001
0.18522668 0.65232003 2.1140001
0.18808953 0.64830858 2.1010001
0.19328001 0.65232003 2.1140001
0.19609334 0.64830858 2.1010001
0.20009525 0.64830858 2.1010001
0.20536001 0.65232003 2.1140001
0.20938668 0.65232003 2.1140001
0.21341334 0.65232003 2.1140001
0.21610287 0.64830858 2.1010001
0.22010477 0.64830858 2.1010001
0.22410667 0.64830858 2.1010001
-0.20768 0.60449719 1.9470001
-0.20512381 0.60791242 1.9580001
-0.20139429 0.60791242 1.9580001
-0.19655429 0.60449719 1.9470001
-0.19284572 0.60449719 1.9470001
-0.16017334 0.6367867 2.0510001
-0.15535238 0.63306099 2.039
-0.15057714 0.62933528 2.0270002
-0.14671619 0.62933528 2.0270002
-0.14285524 0.62933528 2.0270002
-0.13899429 0.62933528 2.0270002
-0.13513334 0.62933528 2.0270002
-0.13049525 0.62560952 2.0150001
-0.12665714 0.62560952 2.0150001
-0.12355048 0.62933528 2.0270002
-0.11968953 0.62933528 2.0270002
-0.11651429 0.63306099 2.039
-0.11263048 0.63306099 2.039
-0.10874667 0.63306099 2.039
-0.10486286 0.63306099 2.039
-0.10038476 0.62933528 2.0270002
-0.096523814 0.62933528 2.0270002
-0.092662863 0.62933528 2.0270002
-0.088276193 0.62560952 2.0150001
-0.0844381 0.62560952 2.0150001
-0.079680003 0.61846858 1.9920001
-0.072152384 0.5880419 1.8940001
-0.068544768 0.5880419 1.8940001
-0.065280005 0.59114671 1.904
-0.061329525 0.5880419 1.8940001
-0.05738667 0.58462667 1.8830001
-0.053514287 0.58152193 1.8730001
-0.050213337 0.58462667 1.8830001
-0.04689905 0.5880419 1.8940001
-0.04352 0.59114671 1.904
-0.040333334 0.59766668 1.9250001
-0.037504762 0.61132765 1.9690001
-0.033565715 0.60791242 1.9580001
-0.029500954 0.60108191 1.9360001
-0.02596 0.60449719 1.9470001
-0.022377145 0.60791242 1.9580001
-0.018542858 0.60449719 1.9470001
-0.014918095 0.60791242 1.9580001
-0.011188572 0.60791242 1.9580001
-0.0074590477 0.60791242 1.9580001
-0.0037714287 0.61474288 1.9800001
0 0.61846858 1.9920001
0.0037714287 0.61474288 1.9800001
0.0075428574 0.61474288 1.9800001
0.011314286 0.61474288 1.9800001
0.015085715 0.61474288 1.9800001
0.018857144 0.61474288 1.9800001
0.022628572 0.61474288 1.9800001
0.026253335 0.61132765 1.9690001
0.03017143 0.61474288 1.9800001
0.03394286 0.61474288 1.9800001
0.037714288 0.61474288 1.9800001
0.041485716 0.61474288 1.9800001
0.045257144 0.61474288 1.9800001
0.048756193 0.61132765 1.9690001
0.052800003 0.61474288 1.9800001
0.056571431 0.61474288 1.9800001
0.060007621 0.61132765 1.9690001
0.063758098 0.61132765 1.9690001
0.067508571 0.61132765 1.9690001
0.07248953 0.62188381 2.003
0.075885721 0.61846858 1.9920001
0.080120005 0.62188381 2.003
0.085946672 0.6367867 2.0510001
0.090379052 0.64051241 2.0630002
0.094308577 0.64051241 2.0630002
0.098857149 0.64454859 2.0760002
0.10281143 0.64454859 2.0760002
0.10676572 0.64454859 2.0760002
0.10938667 0.6367867 2.0510001
0.11329333 0.6367867 2.0510001
0.11000001 0.59766668 1.9250001
0.11366667 0.59766668 1.9250001
0.11672381 0.59456193 1.9150001
0.12037143 0.59456193 1.9150001
0.12401905 0.59456193 1.9150001
0.12693334 0.59114671 1.904
0.12987429 0.5880419 1.8940001
0.1334819 0.5880419 1.8940001
0.13708954 0.5880419 1.8940001
0.13988 0.58462667 1.8830001
0.14346667 0.58462667 1.8830001
0.14705335 0.58462667 1.8830001
0.16704001 0.6482743 2.0880001
0.17101716 0.6482743 2.0880001
0.17608382 0.65231049 2.1010001
0.18008572 0.65231049 2.1010001
0.18408762 0.65231049 2.1010001
0.18808953 0.65231049 2.1010001
0.19328001 0.65634668 2.1140001
0.19609334 0.65231049 2.1010001
0.20009525 0.65231049 2.1010001
0.20536001 0.65634668 2.1140001
0.20938668 0.65634668 2.1140001
0.21341334 0.65634668 2.1140001
0.21610287 0.65231049 2.1010001
0.21874286 0.6482743 2.0880001
0.22272001 0.6482743 2.0880001
-0.20512381 0.61164194 1.9580001
-0.20139429 0.61164194 1.9580001
-0.19766477 0.61164194 1.9580001
-0.19284572 0.60820574 1.9470001
-0.15923619 0.63694477 2.039
-0.15535238 0.63694477 2.039
-0.15057714 0.63319623 2.0270002
-0.14671619 0.63319623 2.0270002
-0.14285524 0.63319623 2.0270002
-0.13899429 0.63319623 2.0270002
-0.13513334 0.63319623 2.0270002
-0.13049525 0.62944764 2.0150001
-0.12665714 0.62944764 2.0150001
-0.12281905 0.62944764 2.0150001
-0.11898096 0.62944764 2.0150001
-0.11582857 0.63319623 2.0270002
-0.11196762 0.63319623 2.0270002
-0.10810667 0.63319623 2.0270002
-0.10486286 0.63694477 2.039
-0.10038476 0.63319623 2.0270002
-0.096523814 0.63319623 2.0270002
-0.092114292 0.62944764 2.0150001
-0.088276193 0.62944764 2.0150001
-0.083935238 0.62569904 2.003
-0.079680003 0.6222629 1.9920001
-0.071733333 0.58821338 1.8830001
-0.068146668 0.58821338 1.8830001
-0.064560004 0.58821338 1.8830001
-0.060973335 0.58821338 1.8830001
-0.057081908 0.58508956 1.8730001
-0.053514287 0.58508956 1.8730001
-0.050213337 0.58821338 1.8830001
-0.04689905 0.59164953 1.8940001
-0.043771431 0.59820956 1.9150001
-0.040563811 0.60476953 1.9360001
-0.037295241 0.61164194 1.9580001
-0.033377144 0.60820574 1.9470001
-0.029333334 0.60133338 1.9250001
-0.02596 0.60820574 1.9470001
-0.022251429 0.60820574 1.9470001
-0.018542858 0.60820574 1.9470001
-0.014834287 0.60820574 1.9470001
-0.011125715 0.60820574 1.9470001
-0.0074590477 0.61164194 1.9580001
-0.0037714287 0.6185143 1.9800001
0 0.6222629 1.9920001
0.0037714287 0.6185143 1.9800001
0.0075428574 0.6185143 1.9800001
0.011314286 0.6185143 1.9800001
0.015085715 0.6185143 1.9800001
0.018857144 0.6185143 1.9800001
0.022628572 0.6185143 1.9800001
0.026253335 0.61507809 1.9690001
0.03017143 0.6185143 1.9800001
0.03394286 0.6185143 1.9800001
0.037714288 0.6185143 1.9800001
0.041485716 0.6185143 1.9800001
0.045005716 0.61507809 1.9690001
0.048756193 0.61507809 1.9690001
0.05250667 0.61507809 1.9690001
0.056257144 0.61507809 1.9690001
0.059672382 0.61164194 1.9580001
0.063401908 0.61164194 1.9580001
0.06713143 0.61164194 1.9580001
0.070860952 0.61164194 1.9580001
0.074590482 0.61164194 1.9580001
0.078760006 0.61507809 1.9690001
0.082510479 0.61507809 1.9690001
0.090379052 0.6444419 2.0630002
0.094902858 0.64850289 2.0760002
0.098238096 0.6444419 2.0630002
0.10281143 0.64850289 2.0760002
0.10676572 0.64850289 2.0760002
0.11002667 0.6444419 2.0630002
0.1139562 0.6444419 2.0630002
0.11788572 0.6444419 2.0630002
0.11366667 0.60133338 1.9250001
0.11672381 0.59820956 1.9150001
0.11968 0.59477335 1.904
0.12330667 0.59477335 1.904
0.12626667 0.59164953 1.8940001
0.12987429 0.59164953 1.8940001
0.13270667 0.58821338 1.8830001
0.13629334 0.58821338 1.8830001
0.13913715 0.58508956 1.8730001
0.14270477 0.58508956 1.8730001
0.14627239 0.58508956 1.8730001
0.16704001 0.65225148 2.0880001
0.17101716 0.65225148 2.0880001
0.17608382 0.65631241 2.1010001
0.18008572 0.65631241 2.1010001
0.18408762 0.65631241 2.1010001
0.18808953 0.65631241 2.1010001
0.19209144 0.65631241 2.1010001
0.19609334 0.65631241 2.1010001
0.20009525 0.65631241 2.1010001
0.20409715 0.65631241 2.1010001
0.20938668 0.66037333 2.1140001
0.21341334 0.66037333 2.1140001
0.21610287 0.65631241 2.1010001
0.21874286 0.65225148 2.0880001
0.22272001 0.65225148 2.0880001
0.27886477 0.67255622 2.1530001
0.28296572 0.67255622 2.1530001
-0.20512381 0.61537147 1.9580001
-0.20139429 0.61537147 1.9580001
-0.19766477 0.61537147 1.9580001
-0.16700381 0.64082861 2.039
-0.16312 0.64082861 2.039
-0.15923619 0.64082861 2.039
-0.15535238 0.64082861 2.039
-0.15057714 0.63705719 2.0270002
-0.14758477 0.64082861 2.039
-0.14285524 0.63705719 2.0270002
-0.13899429 0.63705719 2.0270002
-0.13513334 0.63705719 2.0270002
-0.13049525 0.63328576 2.0150001
-0.12665714 0.63328576 2.0150001
-0.12281905 0.63328576 2.0150001
-0.11968953 0.63705719 2.0270002
-0.11582857 0.63705719 2.0270002
-0.11196762 0.63705719 2.0270002
-0.10810667 0.63705719 2.0270002
-0.10486286 0.64082861 2.039
-0.10038476 0.63705719 2.0270002
-0.096523814 0.63705719 2.0270002
-0.092662863 0.63705719 2.0270002
-0.088276193 0.63328576 2.0150001
-0.083935238 0.62951434 2.003
-0.073720001 0.57922858 1.8430001
-0.070971429 0.58551431 1.863
-0.067422859 0.58551431 1.863
-0.064217143 0.58865714 1.8730001
-0.060649525 0.58865714 1.8730001
-0.057081908 0.58865714 1.8730001
-0.053228572 0.58551431 1.863
-0.049946669 0.58865714 1.8730001
-0.04689905 0.59525716 1.8940001
-0.044 0.60500002 1.9250001
-0.040794287 0.61191434 1.9470001
-0.037295241 0.61537147 1.9580001
-0.033377144 0.61191434 1.9470001
-0.029500954 0.60845715 1.9360001
-0.02596 0.61191434 1.9470001
-0.022251429 0.61191434 1.9470001
-0.018542858 0.61191434 1.9470001
-0.014834287 0.61191434 1.9470001
-0.011188572 0.61537147 1.9580001
-0.0074590477 0.61537147 1.9580001
-0.0037714287 0.62228572 1.9800001
0 0.62228572 1.9800001
0.0037714287 0.62228572 1.9800001
0.0075009526 0.61882859 1.9690001
0.011251429 0.61882859 1.9690001
0.015001905 0.61882859 1.9690001
0.018752381 0.61882859 1.9690001
0.022502858 0.61882859 1.9690001
0.026253335 0.61882859 1.9690001
0.03000381 0.61882859 1.9690001
0.033754285 0.61882859 1.9690001
0.037714288 0.62228572 1.9800001
0.041485716 0.62228572 1.9800001
0.045005716 0.61882859 1.9690001
0.048756193 0.61882859 1.9690001
0.05250667 0.61882859 1.9690001
0.056257144 0.61882859 1.9690001
0.059672382 0.61537147 1.9580001
0.063401908 0.61537147 1.9580001
0.06713143 0.61537147 1.9580001
0.07046286 0.61191434 1.9470001
0.074171431 0.61191434 1.9470001
0.077880003 0.61191434 1.9470001
0.081588574 0.61191434 1.9470001
0.085297145 0.61191434 1.9470001
0.094902858 0.65245718 2.0760002
0.098238096 0.64837146 2.0630002
0.10281143 0.65245718 2.0760002
0.10609715 0.64837146 2.0630002
0.11002667 0.64837146 2.0630002
0.1139562 0.64837146 2.0630002
0.11788572 0.64837146 2.0630002
0.12329143 0.6562286 2.0880001
0.12726858 0.6562286 2.0880001
0.11968 0.5984 1.904
0.12330667 0.5984 1.904
0.12626667 0.59525716 1.8940001
0.12987429 0.59525716 1.8940001
0.13270667 0.59180003 1.8830001
0.13629334 0.59180003 1.8830001
0.13913715 0.58865714 1.8730001
0.14270477 0.58865714 1.8730001
0.14627239 0.58865714 1.8730001
0.16704001 0.6562286 2.0880001
0.17101716 0.6562286 2.0880001
0.17608382 0.66031432 2.1010001
0.18008572 0.66031432 2.1010001
0.18408762 0.66031432 2.1010001
0.18808953 0.66031432 2.1010001
0.19209144 0.66031432 2.1010001
0.19609334 0.66031432 2.1010001
0.20009525 0.66031432 2.1010001
0.20536001 0.66440004 2.1140001
0.20938668 0.66440004 2.1140001
0.21341334 0.66440004 2.1140001
0.21610287 0.66031432 2.1010001
0.21874286 0.6562286 2.0880001
0.22272001 0.6562286 2.0880001
0.26902857 0.67257148 2.1400001
0.27476382 0.67665714 2.1530001
0.27718097 0.67257148 2.1400001
0.28125715 0.67257148 2.1400001
0.28533334 0.67257148 2.1400001
-0.20139429 0.61910099 1.9580001
-0.19766477 0.61910099 1.9580001
-0.16700381 0.64471239 2.039
-0.16408001 0.6485067 2.0510001
-0.15923619 0.64471239 2.039
-0.15535238 0.64471239 2.039
-0.15146858 0.64471239 2.039
-0.14758477 0.64471239 2.039
-0.14285524 0.64091814 2.0270002
-0.13899429 0.64091814 2.0270002
-0.13513334 0.64091814 2.0270002
-0.13049525 0.63712382 2.0150001
-0.12665714 0.63712382 2.0150001
-0.12281905 0.63712382 2.0150001
-0.11968953 0.64091814 2.0270002
-0.11582857 0.64091814 2.0270002
-0.11196762 0.64091814 2.0270002
-0.10810667 0.64091814 2.0270002
-0.10486286 0.64471239 2.039
-0.10038476 0.64091814 2.0270002
-0.096523814 0.64091814 2.0270002
-0.092662863 0.64091814 2.0270002
-0.088276193 0.63712382 2.0150001
-0.083935238 0.63332957 2.003
-0.073720001 0.58273906 1.8430001
-0.070209526 0.58273906 1.8430001
-0.067422859 0.58906287 1.863
-0.064217143 0.59222478 1.8730001
-0.060649525 0.59222478 1.8730001
-0.056472383 0.58590096 1.853
-0.053228572 0.58906287 1.863
-0.050213337 0.59538668 1.8830001
-0.04689905 0.59886479 1.8940001
-0.043291431 0.59886479 1.8940001
-0.040794287 0.61562288 1.9470001
-0.037295241 0.61910099 1.9580001
-0.033377144 0.61562288 1.9470001
-0.029333334 0.60866672 1.9250001
-0.025666667 0.60866672 1.9250001
-0.022125715 0.61214477 1.9360001
-0.018438095 0.61214477 1.9360001
-0.014834287 0.61562288 1.9470001
-0.011251429 0.6225791 1.9690001
-0.0075009526 0.6225791 1.9690001
-0.0037714287 0.62605715 1.9800001
0 0.62985146 1.9920001
0.0037714287 0.62605715 1.9800001
0.0075428574 0.62605715 1.9800001
0.011314286 0.62605715 1.9800001
0.015085715 0.62605715 1.9800001
0.018857144 0.62605715 1.9800001
0.022502858 0.6225791 1.9690001
0.026253335 0.6225791 1.9690001
0.03000381 0.6225791 1.9690001
0.03394286 0.62605715 1.9800001
0.037714288 0.62605715 1.9800001
0.041485716 0.62605715 1.9800001
0.045005716 0.6225791 1.9690001
0.048756193 0.6225791 1.9690001
0.05250667 0.6225791 1.9690001
0.056257144 0.6225791 1.9690001
0.059672382 0.61910099 1.9580001
0.063401908 0.61910099 1.9580001
0.066754289 0.61562288 1.9470001
0.07046286 0.61562288 1.9470001
0.074171431 0.61562288 1.9470001
0.077880003 0.61562288 1.9470001
0.081127621 0.61214477 1.9360001
0.084815241 0.61214477 1.9360001
0.088502862 0.61214477 1.9360001
0.098857149 0.65641147 2.0760002
0.10281143 0.65641147 2.0760002
0.10609715 0.65230095 2.0630002
0.11002667 0.65230095 2.0630002
0.1139562 0.65230095 2.0630002
0.11788572 0.65230095 2.0630002
0.12258286 0.65641147 2.0760002
0.12726858 0.66020572 2.0880001
0.13124572 0.66020572 2.0880001
0.12330667 0.6020267 1.904
0.12626667 0.59886479 1.8940001
0.12912001 0.59538668 1.8830001
0.13270667 0.59538668 1.8830001
0.13629334 0.59538668 1.8830001
0.13913715 0.59222478 1.8730001
0.14270477 0.59222478 1.8730001
0.14627239 0.59222478 1.8730001
0.14984001 0.59222478 1.8730001
0.17101716 0.66020572 2.0880001
0.17608382 0.66431624 2.1010001
0.18008572 0.66431624 2.1010001
0.18408762 0.66431624 2.1010001
0.18808953 0.66431624 2.1010001
0.19209144 0.66431624 2.1010001
0.19609334 0.66431624 2.1010001
0.20009525 0.66431624 2.1010001
0.20536001 0.66842669 2.1140001
0.2106743 0.67253715 2.1270001
0.21341334 0.66842669 2.1140001
0.21744001 0.66842669 2.1140001
0.21874286 0.66020572 2.0880001
0.22272001 0.66020572 2.0880001
0.26656193 0.68075812 2.1530001
0.27066287 0.68075812 2.1530001
0.27476382 0.68075812 2.1530001
0.27886477 0.68075812 2.1530001
0.28296572 0.68075812 2.1530001
0.28533334 0.67664766 2.1400001
0.28940955 0.67664766 2.1400001
0.29348573 0.67664766 2.1400001
-0.16700381 0.64859623 2.039
-0.16408001 0.65241337 2.0510001
-0.16017334 0.65241337 2.0510001
-0.15626667 0.65241337 2.0510001
-0.15236001 0.65241337 2.0510001
-0.14758477 0.64859623 2.039
-0.14370096 0.64859623 2.039
-0.13981715 0.64859623 2.039
-0.13593334 0.64859623 2.039
-0.13049525 0.64096195 2.0150001
-0.12665714 0.64096195 2.0150001
-0.12281905 0.64096195 2.0150001
-0.11968953 0.64477909 2.0270002
-0.11582857 0.64477909 2.0270002
-0.11196762 0.64477909 2.0270002
-0.10810667 0.64477909 2.0270002
-0.10486286 0.64859623 2.039
-0.10038476 0.64477909 2.0270002
-0.096523814 0.64477909 2.0270002
-0.092662863 0.64477909 2.0270002
-0.080740958 0.58624953 1.8430001
-0.077230476 0.58624953 1.8430001
-0.073720001 0.58624953 1.8430001
-0.070209526 0.58624953 1.8430001
-0.067422859 0.59261143 1.863
-0.063874289 0.59261143 1.863
-0.060325716 0.59261143 1.863
-0.056472383 0.58943051 1.853
-0.053228572 0.59261143 1.863
-0.049680002 0.59261143 1.863
-0.046131432 0.59261143 1.863
-0.045005716 0.62632954 1.9690001
-0.040794287 0.61933148 1.9470001
-0.037295241 0.62283051 1.9580001
-0.033377144 0.61933148 1.9470001
-0.029333334 0.61233336 1.9250001
-0.025666667 0.61233336 1.9250001
-0.022 0.61233336 1.9250001
-0.018333334 0.61233336 1.9250001
-0.014750477 0.61583239 1.9360001
-0.011251429 0.62632954 1.9690001
-0.0075428574 0.62982857 1.9800001
-0.0037942859 0.63364571 1.9920001
0 0.63364571 1.9920001
0.0037942859 0.63364571 1.9920001
0.0075885719 0.63364571 1.9920001
0.011382857 0.63364571 1.9920001
0.015177144 0.63364571 1.9920001
0.01897143 0.63364571 1.9920001
0.022628572 0.62982857 1.9800001
0.026400002 0.62982857 1.9800001
0.030354287 0.63364571 1.9920001
0.034148574 0.63364571 1.9920001
0.03794286 0.63364571 1.9920001
0.041737143 0.63364571 1.9920001
0.045257144 0.62982857 1.9800001
0.048756193 0.62632954 1.9690001
0.05250667 0.62632954 1.9690001
0.056257144 0.62632954 1.9690001
0.059672382 0.62283051 1.9580001
0.063401908 0.62283051 1.9580001
0.066754289 0.61933148 1.9470001
0.07046286 0.61933148 1.9470001
0.073752381 0.61583239 1.9360001
0.077440001 0.61583239 1.9360001
0.081127621 0.61583239 1.9360001
0.084333338 0.61233336 1.9250001
0.088 0.61233336 1.9250001
0.091666669 0.61233336 1.9250001
0.10216762 0.65623051 2.0630002
0.10609715 0.65623051 2.0630002
0.10938667 0.65241337 2.0510001
0.1139562 0.65623051 2.0630002
0.11788572 0.65623051 2.0630002
0.12258286 0.66036576 2.0760002
0.12726858 0.6641829 2.0880001
0.13206287 0.66831809 2.1010001
0.12194667 0.59897333 1.8830001
0.12553334 0.59897333 1.8830001
0.12912001 0.59897333 1.8830001
0.13270667 0.59897333 1.8830001
0.13556953 0.59579241 1.8730001
0.13913715 0.59579241 1.8730001
0.14270477 0.59579241 1.8730001
0.14549144 0.59261143 1.863
0.14904 0.59261143 1.863
0.17208192 0.66831809 2.1010001
0.17608382 0.66831809 2.1010001
0.18008572 0.66831809 2.1010001
0.18408762 0.66831809 2.1010001
0.18808953 0.66831809 2.1010001
0.19209144 0.66831809 2.1010001
0.19609334 0.66831809 2.1010001
0.20133334 0.67245334 2.1140001
0.20536001 0.67245334 2.1140001
0.2106743 0.67658859 2.1270001
0.21341334 0.67245334 2.1140001
0.21744001 0.67245334 2.1140001
0.25836 0.6848591 2.1530001
0.26246098 0.6848591 2.1530001
0.26495239 0.68072385 2.1400001
0.26902857 0.68072385 2.1400001
0.27310476 0.68072385 2.1400001
0.27718097 0.68072385 2.1400001
0.28125715 0.68072385 2.1400001
0.28706667 0.6848591 2.1530001
0.29116762 0.6848591 2.1530001
0.2952686 0.6848591 2.1530001
0.29936954 0.6848591 2.1530001
0.30347049 0.6848591 2.1530001
-0.25148952 0.66016001 2.0630002
-0.24756001 0.66016001 2.0630002
-0.24221334 0.65632004 2.0510001
-0.2277962 0.64864004 2.0270002
-0.22393525 0.64864004 2.0270002
-0.21877144 0.64480001 2.0150001
-0.21749334 0.65248001 2.039
-0.2123524 0.64864004 2.0270002
-0.20972572 0.65248001 2.039
-0.20584191 0.65248001 2.039
-0.2019581 0.65248001 2.039
-0.16017334 0.65632004 2.0510001
-0.15718096 0.66016001 2.0630002
-0.15236001 0.65632004 2.0510001
-0.14845334 0.65632004 2.0510001
-0.14454667 0.65632004 2.0510001
-0.14064001 0.65632004 2.0510001
-0.13673334 0.65632004 2.0510001
-0.13127239 0.64864004 2.0270002
-0.12665714 0.64480001 2.0150001
-0.12281905 0.64480001 2.0150001
-0.11968953 0.64864004 2.0270002
-0.11582857 0.64864004 2.0270002
-0.11196762 0.64864004 2.0270002
-0.10746667 0.64480001 2.0150001
-0.10424571 0.64864004 2.0270002
-0.099790476 0.64480001 2.0150001
-0.095952384 0.64480001 2.0150001
-0.092114292 0.64480001 2.0150001
-0.080740958 0.58976001 1.8430001
-0.077230476 0.58976001 1.8430001
-0.073720001 0.58976001 1.8430001
-0.070209526 0.58976001 1.8430001
-0.067060955 0.59296 1.853
-0.063874289 0.59615999 1.863
-0.060325716 0.59615999 1.863
-0.056472383 0.59296 1.853
-0.053228572 0.59615999 1.863
-0.050213337 0.60256004 1.8830001
-0.046626668 0.60256004 1.8830001
-0.044251431 0.61952001 1.9360001
-0.040794287 0.62304002 1.9470001
-0.037295241 0.62656003 1.9580001
-0.033377144 0.62304002 1.9470001
-0.029333334 0.616 1.9250001
-0.025533333 0.6128 1.9150001
-0.022 0.616 1.9250001
-0.018333334 0.616 1.9250001
-0.014750477 0.61952001 1.9360001
-0.011251429 0.63008004 1.9690001
-0.0075428574 0.6336 1.9800001
-0.0037942859 0.63744003 1.9920001
0 0.63744003 1.9920001
0.0037942859 0.63744003 1.9920001
0.0075428574 0.6336 1.9800001
0.011382857 0.63744003 1.9920001
0.015177144 0.63744003 1.9920001
0.01897143 0.63744003 1.9920001
0.022765715 0.63744003 1.9920001
0.026560001 0.63744003 1.9920001
0.030354287 0.63744003 1.9920001
0.034148574 0.63744003 1.9920001
0.03794286 0.63744003 1.9920001
0.041737143 0.63744003 1.9920001
0.045531429 0.63744003 1.9920001
0.049028572 0.6336 1.9800001
0.05250667 0.63008004 1.9690001
0.056257144 0.63008004 1.9690001
0.059672382 0.62656003 1.9580001
0.063045718 0.62304002 1.9470001
0.066754289 0.62304002 1.9470001
0.07046286 0.62304002 1.9470001
0.073752381 0.61952001 1.9360001
0.077440001 0.61952001 1.9360001
0.081127621 0.61952001 1.9360001
0.084815241 0.61952001 1.9360001
0.088 0.616 1.9250001
0.091666669 0.616 1.9250001
0.095333338 0.616 1.9250001
0.10548 0.65632004 2.0510001
0.10938667 0.65632004 2.0510001
0.1139562 0.66016001 2.0630002
0.11788572 0.66016001 2.0630002
0.12258286 0.66432005 2.0760002
0.12726858 0.66816002 2.0880001
0.13124572 0.66816002 2.0880001
0.12194667 0.60256004 1.8830001
0.12486667 0.59936005 1.8730001
0.12843429 0.59936005 1.8730001
0.13200191 0.59936005 1.8730001
0.13556953 0.59936005 1.8730001
0.13913715 0.59936005 1.8730001
0.14270477 0.59936005 1.8730001
0.14549144 0.59615999 1.863
0.14904 0.59615999 1.863
0.15258858 0.59615999 1.863
0.17608382 0.67232001 2.1010001
0.18008572 0.67232001 2.1010001
0.18522668 0.67648 2.1140001
0.18925335 0.67648 2.1140001
0.19209144 0.67232001 2.1010001
0.19609334 0.67232001 2.1010001
0.20009525 0.67232001 2.1010001
0.20536001 0.67648 2.1140001
0.20938668 0.67648 2.1140001
0.21341334 0.67648 2.1140001
0.21744001 0.67648 2.1140001
0.25118858 0.68064004 2.1270001
0.2568 0.68480003 2.1400001
0.26087621 0.68480003 2.1400001
0.26495239 0.68480003 2.1400001
0.26902857 0.68480003 2.1400001
0.27310476 0.68480003 2.1400001
0.27718097 0.68480003 2.1400001
0.28296572 0.68896002 2.1530001
0.28706667 0.68896002 2.1530001
0.29116762 0.68896002 2.1530001
0.29718858 0.69344002 2.1670001
0.29936954 0.68896002 2.1530001
0.30347049 0.68896002 2.1530001
0.30757144 0.68896002 2.1530001
-0.25784001 0.6602267 2.0510001
-0.25393334 0.6602267 2.0510001
-0.25002667 0.6602267 2.0510001
-0.24612001 0.6602267 2.0510001
-0.24079619 0.65636384 2.039
-0.23691238 0.65636384 2.039
-0.23302858 0.65636384 2.039
-0.2277962 0.65250099 2.0270002
-0.22393525 0.65250099 2.0270002
-0.21877144 0.64863813 2.0150001
-0.21621335 0.65250099 2.0270002
-0.2123524 0.65250099 2.0270002
-0.20972572 0.65636384 2.039
-0.20584191 0.65636384 2.039
-0.2019581 0.65636384 2.039
-0.1980743 0.65636384 2.039
-0.15718096 0.66408956 2.0630002
-0.15325144 0.66408956 2.0630002
-0.14932191 0.66408956 2.0630002
-0.14539239 0.66408956 2.0630002
-0.14064001 0.6602267 2.0510001
-0.13673334 0.6602267 2.0510001
-0.13127239 0.65250099 2.0270002
-0.12741144 0.65250099 2.0270002
-0.12281905 0.64863813 2.0150001
-0.11968953 0.65250099 2.0270002
-0.11582857 0.65250099 2.0270002
-0.11196762 0.65250099 2.0270002
-0.10810667 0.65250099 2.0270002
-0.10424571 0.65250099 2.0270002
-0.099790476 0.64863813 2.0150001
-0.095952384 0.64863813 2.0150001
-0.092114292 0.64863813 2.0150001
-0.080740958 0.59327048 1.8430001
-0.077649526 0.59648955 1.853
-0.07412 0.59648955 1.853
-0.070590481 0.59648955 1.853
-0.067422859 0.59970862 1.863
-0.063874289 0.59970862 1.863
-0.060001906 0.59648955 1.853
-0.056472383 0.59648955 1.853
-0.052942861 0.59648955 1.853
-0.049413335 0.59648955 1.853
-0.04689905 0.60968763 1.8940001
-0.044 0.6196667 1.9250001
-0.040563811 0.62320763 1.9360001
-0.037085716 0.62674862 1.9470001
-0.033188574 0.62320763 1.9360001
-0.029333334 0.6196667 1.9250001
-0.025533333 0.61644763 1.9150001
-0.021885715 0.61644763 1.9150001
-0.018333334 0.6196667 1.9250001
-0.014750477 0.62320763 1.9360001
-0.011251429 0.63383049 1.9690001
-0.0075428574 0.63737148 1.9800001
-0.0037942859 0.64123434 1.9920001
0 0.64123434 1.9920001
0.0037942859 0.64123434 1.9920001
0.0075885719 0.64123434 1.9920001
0.011382857 0.64123434 1.9920001
0.015177144 0.64123434 1.9920001
0.01897143 0.64123434 1.9920001
0.022765715 0.64123434 1.9920001
0.026560001 0.64123434 1.9920001
0.030354287 0.64123434 1.9920001
0.034148574 0.64123434 1.9920001
0.03794286 0.64123434 1.9920001
0.041737143 0.64123434 1.9920001
0.045257144 0.63737148 1.9800001
0.049028572 0.63737148 1.9800001
0.05250667 0.63383049 1.9690001
0.05594286 0.63028955 1.9580001
0.059672382 0.63028955 1.9580001
0.063045718 0.62674862 1.9470001
0.066754289 0.62674862 1.9470001
0.070064768 0.62320763 1.9360001
0.073752381 0.62320763 1.9360001
0.077440001 0.62320763 1.9360001
0.080666669 0.6196667 1.9250001
0.083895244 0.61644763 1.9150001
0.087542862 0.61644763 1.9150001
0.09119048 0.61644763 1.9150001
0.094838098 0.61644763 1.9150001
0.098485716 0.61644763 1.9150001
0.10154667 0.61290669 1.904
0.10517333 0.61290669 1.904
0.11862858 0.66827428 2.0760002
0.12329143 0.67213714 2.0880001
0.12726858 0.67213714 2.0880001
0.13124572 0.67213714 2.0880001
0.12129905 0.60292763 1.8730001
0.12486667 0.60292763 1.8730001
0.12843429 0.60292763 1.8730001
0.13200191 0.60292763 1.8730001
0.13556953 0.60292763 1.8730001
0.13913715 0.60292763 1.8730001
0.14270477 0.60292763 1.8730001
0.14549144 0.59970862 1.863
0.14904 0.59970862 1.863
0.15176953 0.59648955 1.853
0.15446095 0.59327048 1.8430001
0.15797144 0.59327048 1.8430001
0.18522668 0.68050671 2.1140001
0.18925335 0.68050671 2.1140001
0.19328001 0.68050671 2.1140001
0.19609334 0.67632192 2.1010001
0.20009525 0.67632192 2.1010001
0.20536001 0.68050671 2.1140001
0.20938668 0.68050671 2.1140001
0.21341334 0.68050671 2.1140001
0.21744001 0.68050671 2.1140001
0.24965334 0.68050671 2.1140001
0.25524002 0.68469143 2.1270001
0.26087621 0.68887621 2.1400001
0.26495239 0.68887621 2.1400001
0.27066287 0.69306099 2.1530001
0.27476382 0.69306099 2.1530001
0.27886477 0.69306099 2.1530001
0.28296572 0.69306099 2.1530001
0.28706667 0.69306099 2.1530001
0.29116762 0.69306099 2.1530001
0.29718858 0.69756764 2.1670001
0.3013162 0.69756764 2.1670001
0.30544382 0.69756764 2.1670001
0.30957144 0.69756764 2.1670001
-0.28128573 0.63758099 1.9690001
-0.28077716 0.64502859 1.9920001
-0.27851239 0.64859051 2.003
-0.27469715 0.64859051 2.003
-0.27088192 0.64859051 2.003
-0.27346668 0.66413337 2.0510001
-0.26956001 0.66413337 2.0510001
-0.26565334 0.66413337 2.0510001
-0.26174667 0.66413337 2.0510001
-0.25784001 0.66413337 2.0510001
-0.25244763 0.66024762 2.039
-0.25002667 0.66413337 2.0510001
-0.24468 0.66024762 2.039
-0.24079619 0.66024762 2.039
-0.23691238 0.66024762 2.039
-0.23302858 0.66024762 2.039
-0.2277962 0.65636194 2.0270002
-0.22526096 0.66024762 2.039
-0.22137715 0.66024762 2.039
-0.21749334 0.66024762 2.039
-0.21109524 0.65247619 2.0150001
-0.20972572 0.66024762 2.039
-0.20584191 0.66024762 2.039
-0.2019581 0.66024762 2.039
-0.1980743 0.66024762 2.039
-0.15421715 0.67222857 2.0760002
-0.14932191 0.66801906 2.0630002
-0.14539239 0.66801906 2.0630002
-0.14146286 0.66801906 2.0630002
-0.13753334 0.66801906 2.0630002
-0.13127239 0.65636194 2.0270002
-0.12741144 0.65636194 2.0270002
-0.12355048 0.65636194 2.0270002
-0.1203981 0.66024762 2.039
-0.11651429 0.66024762 2.039
-0.11263048 0.66024762 2.039
-0.10810667 0.65636194 2.0270002
-0.10486286 0.66024762 2.039
-0.10038476 0.65636194 2.0270002
-0.096523814 0.65636194 2.0270002
-0.084251434 0.59678096 1.8430001
-0.080740958 0.59678096 1.8430001
-0.077230476 0.59678096 1.8430001
-0.073720001 0.59678096 1.8430001
-0.070209526 0.59678096 1.8430001
-0.067060955 0.6000191 1.853
-0.063531429 0.6000191 1.853
-0.060001906 0.6000191 1.853
-0.056472383 0.6000191 1.853
-0.052942861 0.6000191 1.853
-0.049946669 0.60649526 1.8730001
-0.047419049 0.62009525 1.9150001
-0.043771431 0.62009525 1.9150001
-0.040333334 0.62333333 1.9250001
-0.03687619 0.62689525 1.9360001
-0.033 0.62333333 1.9250001
-0.029013334 0.61653334 1.904
-0.025386667 0.61653334 1.904
-0.02176 0.61653334 1.904
-0.018333334 0.62333333 1.9250001
-0.014750477 0.62689525 1.9360001
-0.011125715 0.63045716 1.9470001
-0.0075428574 0.6411429 1.9800001
-0.0037942859 0.64502859 1.9920001
0 0.64502859 1.9920001
0.0037714287 0.6411429 1.9800001
0.0075428574 0.6411429 1.9800001
0.011314286 0.6411429 1.9800001
0.015085715 0.6411429 1.9800001
0.018857144 0.6411429 1.9800001
0.022628572 0.6411429 1.9800001
0.026400002 0.6411429 1.9800001
0.030354287 0.64502859 1.9920001
0.034148574 0.64502859 1.9920001
0.03794286 0.64502859 1.9920001
0.041485716 0.6411429 1.9800001
0.045257144 0.6411429 1.9800001
0.049028572 0.6411429 1.9800001
0.05250667 0.63758099 1.9690001
0.05594286 0.63401908 1.9580001
0.059672382 0.63401908 1.9580001
0.063045718 0.63045716 1.9470001
0.066377148 0.62689525 1.9360001
0.070064768 0.62689525 1.9360001
0.073333338 0.62333333 1.9250001
0.077 0.62333333 1.9250001
0.080666669 0.62333333 1.9250001
0.083895244 0.62009525 1.9150001
0.087542862 0.62009525 1.9150001
0.09119048 0.62009525 1.9150001
0.094293334 0.61653334 1.904
0.097920001 0.61653334 1.904
0.10042667 0.60973334 1.8830001
0.10401334 0.60973334 1.8830001
0.1076 0.60973334 1.8830001
0.12329143 0.67611432 2.0880001
0.12726858 0.67611432 2.0880001
0.13124572 0.67611432 2.0880001
0.12065143 0.60325718 1.863
0.1242 0.60325718 1.863
0.12706286 0.6000191 1.853
0.13059239 0.6000191 1.853
0.13556953 0.60649526 1.8730001
0.13913715 0.60649526 1.8730001
0.14194286 0.60325718 1.863
0.14549144 0.60325718 1.863
0.14824 0.6000191 1.853
0.15095048 0.59678096 1.8430001
0.15446095 0.59678096 1.8430001
0.15797144 0.59678096 1.8430001
0.16148192 0.59678096 1.8430001
0.16409715 0.59354287 1.8330001
0.16758858 0.59354287 1.8330001
0.17108001 0.59354287 1.8330001
0.17457144 0.59354287 1.8330001
0.25118858 0.68874288 2.1270001
0.25524002 0.68874288 2.1270001
0.25929144 0.68874288 2.1270001
0.26495239 0.69295239 2.1400001
0.27066287 0.69716191 2.1530001
0.27655047 0.70169526 2.1670001
0.28067809 0.70169526 2.1670001
0.28480572 0.70169526 2.1670001
0.28893334 0.70169526 2.1670001
0.29306096 0.70169526 2.1670001
0.29718858 0.70169526 2.1670001
0.3013162 0.70169526 2.1670001
0.30544382 0.70169526 2.1670001
0.30957144 0.70169526 2.1670001
0.31369907 0.70169526 2.1670001
-0.29974857 0.6488229 1.9920001
-0.29595429 0.6488229 1.9920001
-0.2904 0.64491433 1.9800001
-0.28836572 0.6488229 1.9920001
-0.28614286 0.65240574 2.003
-0.28232762 0.65240574 2.003
-0.28018096 0.65631431 2.0150001
-0.2796343 0.66413146 2.039
-0.27737334 0.66804004 2.0510001
-0.27346668 0.66804004 2.0510001
-0.26956001 0.66804004 2.0510001
-0.26565334 0.66804004 2.0510001
-0.26174667 0.66804004 2.0510001
-0.25784001 0.66804004 2.0510001
-0.25244763 0.66413146 2.039
-0.25002667 0.66804004 2.0510001
-0.24612001 0.66804004 2.0510001
-0.24221334 0.66804004 2.0510001
-0.23830667 0.66804004 2.0510001
-0.2344 0.66804004 2.0510001
-0.22914477 0.66413146 2.039
-0.22658667 0.66804004 2.0510001
-0.22268 0.66804004 2.0510001
-0.21877334 0.66804004 2.0510001
-0.21360953 0.66413146 2.039
-0.20972572 0.66413146 2.039
-0.20584191 0.66413146 2.039
-0.2019581 0.66413146 2.039
-0.1980743 0.66413146 2.039
-0.19533335 0.66804004 2.0510001
-0.19142668 0.66804004 2.0510001
-0.15421715 0.67618287 2.0760002
-0.14932191 0.67194861 2.0630002
-0.14539239 0.67194861 2.0630002
-0.14146286 0.67194861 2.0630002
-0.13753334 0.67194861 2.0630002
-0.13204953 0.66413146 2.039
-0.12741144 0.66022289 2.0270002
-0.12355048 0.66022289 2.0270002
-0.1203981 0.66413146 2.039
-0.11651429 0.66413146 2.039
-0.11263048 0.66413146 2.039
-0.10874667 0.66413146 2.039
-0.10486286 0.66413146 2.039
-0.10097905 0.66413146 2.039
-0.087761909 0.60029143 1.8430001
-0.084251434 0.60029143 1.8430001
-0.080740958 0.60029143 1.8430001
-0.077230476 0.60029143 1.8430001
-0.073720001 0.60029143 1.8430001
-0.070209526 0.60029143 1.8430001
-0.06669905 0.60029143 1.8430001
-0.063531429 0.60354859 1.853
-0.060001906 0.60354859 1.853
-0.056472383 0.60354859 1.853
-0.052942861 0.60354859 1.853
-0.049946669 0.6100629 1.8730001
-0.047419049 0.62374288 1.9150001
-0.043771431 0.62374288 1.9150001
-0.040333334 0.62700003 1.9250001
-0.036666669 0.62700003 1.9250001
-0.033 0.62700003 1.9250001
-0.029013334 0.62016004 1.904
-0.025386667 0.62016004 1.904
-0.02176 0.62016004 1.904
-0.018333334 0.62700003 1.9250001
-0.014750477 0.63058287 1.9360001
-0.011125715 0.63416576 1.9470001
-0.0075428574 0.64491433 1.9800001
-0.0037942859 0.6488229 1.9920001
0 0.6488229 1.9920001
0.0037714287 0.64491433 1.9800001
0.0075428574 0.64491433 1.9800001
0.011314286 0.64491433 1.9800001
0.015001905 0.64133143 1.9690001
0.018752381 0.64133143 1.9690001
0.022502858 0.64133143 1.9690001
0.026400002 0.64491433 1.9800001
0.03017143 0.64491433 1.9800001
0.03394286 0.64491433 1.9800001
0.037714288 0.64491433 1.9800001
0.041485716 0.64491433 1.9800001
0.045257144 0.64491433 1.9800001
0.049028572 0.64491433 1.9800001
0.05250667 0.64133143 1.9690001
0.05594286 0.6377486 1.9580001
0.059672382 0.6377486 1.9580001
0.063045718 0.63416576 1.9470001
0.066377148 0.63058287 1.9360001
0.070064768 0.63058287 1.9360001
0.073333338 0.62700003 1.9250001
0.077 0.62700003 1.9250001
0.080666669 0.62700003 1.9250001
0.083895244 0.62374288 1.9150001
0.087542862 0.62374288 1.9150001
0.09119048 0.62374288 1.9150001
0.094293334 0.62016004 1.904
0.097920001 0.62016004 1.904
0.10101334 0.61690289 1.8940001
0.10401334 0.61331999 1.8830001
0.1076 0.61331999 1.8830001
0.11059619 0.6100629 1.8730001
0.11416382 0.6100629 1.8730001
0.13124572 0.68009144 2.0880001
0.12065143 0.60680574 1.863
0.1242 0.60680574 1.863
0.12706286 0.60354859 1.853
0.13059239 0.60354859 1.853
0.13556953 0.6100629 1.8730001
0.13913715 0.6100629 1.8730001
0.14194286 0.60680574 1.863
0.14549144 0.60680574 1.863
0.14904 0.60680574 1.863
0.15176953 0.60354859 1.853
0.15529905 0.60354859 1.853
0.15882857 0.60354859 1.853
0.16235811 0.60354859 1.853
0.16499239 0.60029143 1.8430001
0.16941714 0.60354859 1.853
0.17294668 0.60354859 1.853
0.1764762 0.60354859 1.853
0.18000571 0.60354859 1.853
0.26829526 0.70582289 2.1670001
0.27242288 0.70582289 2.1670001
0.27655047 0.70582289 2.1670001
0.28067809 0.70582289 2.1670001
0.28480572 0.70582289 2.1670001
0.29080001 0.71038288 2.181
0.29306096 0.70582289 2.1670001
0.29910859 0.71038288 2.181
0.3013162 0.70582289 2.1670001
0.30741715 0.71038288 2.181
0.31157145 0.71038288 2.181
0.31572571 0.71038288 2.181
-0.30354288 0.65261716 1.9920001
-0.29974857 0.65261716 1.9920001
-0.29595429 0.65261716 1.9920001
-0.29377335 0.65622097 2.003
-0.28995812 0.65622097 2.003
-0.28614286 0.65622097 2.003
-0.28232762 0.65622097 2.003
-0.28184953 0.66408384 2.0270002
-0.2796343 0.66801524 2.039
-0.27737334 0.6719467 2.0510001
-0.27346668 0.6719467 2.0510001
-0.26956001 0.6719467 2.0510001
-0.26565334 0.6719467 2.0510001
-0.26174667 0.6719467 2.0510001
-0.25784001 0.6719467 2.0510001
-0.25244763 0.66801524 2.039
-0.24856383 0.66801524 2.039
-0.24468 0.66801524 2.039
-0.24079619 0.66801524 2.039
-0.23691238 0.66801524 2.039
-0.2344 0.6719467 2.0510001
-0.23049334 0.6719467 2.0510001
-0.22658667 0.6719467 2.0510001
-0.22268 0.6719467 2.0510001
-0.21749334 0.66801524 2.039
-0.21360953 0.66801524 2.039
-0.20972572 0.66801524 2.039
-0.20584191 0.66801524 2.039
-0.19958095 0.66015238 2.0150001
-0.19574286 0.66015238 2.0150001
-0.19533335 0.6719467 2.0510001
-0.19142668 0.6719467 2.0510001
-0.18752001 0.6719467 2.0510001
-0.13753334 0.67587811 2.0630002
-0.13282667 0.6719467 2.0510001
-0.12816572 0.66801524 2.039
-0.12355048 0.66408384 2.0270002
-0.12181524 0.67587811 2.0630002
-0.11651429 0.66801524 2.039
-0.11263048 0.66801524 2.039
-0.10874667 0.66801524 2.039
-0.10548 0.6719467 2.0510001
-0.10157334 0.6719467 2.0510001
-0.087761909 0.60380191 1.8430001
-0.084251434 0.60380191 1.8430001
-0.081179053 0.60707814 1.853
-0.077230476 0.60380191 1.8430001
-0.073720001 0.60380191 1.8430001
-0.070209526 0.60380191 1.8430001
-0.06669905 0.60380191 1.8430001
-0.063531429 0.60707814 1.853
-0.059678096 0.60380191 1.8430001
-0.056167621 0.60380191 1.8430001
-0.052657146 0.60380191 1.8430001
-0.049146667 0.60380191 1.8430001
-0.047419049 0.6273905 1.9150001
-0.043771431 0.6273905 1.9150001
-0.040333334 0.63066667 1.9250001
-0.036666669 0.63066667 1.9250001
-0.033 0.63066667 1.9250001
-0.029180953 0.6273905 1.9150001
-0.025386667 0.62378669 1.904
-0.02176 0.62378669 1.904
-0.018333334 0.63066667 1.9250001
-0.014666667 0.63066667 1.9250001
-0.011062858 0.63427049 1.9360001
-0.0075885719 0.65261716 1.9920001
-0.0037942859 0.65261716 1.9920001
0 0.65261716 1.9920001
0.0037942859 0.65261716 1.9920001
0.0075428574 0.64868575 1.9800001
0.011314286 0.64868575 1.9800001
0.015085715 0.64868575 1.9800001
0.018857144 0.64868575 1.9800001
0.022628572 0.64868575 1.9800001
0.026400002 0.64868575 1.9800001
0.030354287 0.65261716 1.9920001
0.03394286 0.64868575 1.9800001
0.037714288 0.64868575 1.9800001
0.041485716 0.64868575 1.9800001
0.045257144 0.64868575 1.9800001
0.049028572 0.64868575 1.9800001
0.05250667 0.64508194 1.9690001
0.05594286 0.64147812 1.9580001
0.059672382 0.64147812 1.9580001
0.063045718 0.63787431 1.9470001
0.066377148 0.63427049 1.9360001
0.070064768 0.63427049 1.9360001
0.073752381 0.63427049 1.9360001
0.077440001 0.63427049 1.9360001
0.080247626 0.6273905 1.9150001
0.083895244 0.6273905 1.9150001
0.08704 0.62378669 1.904
0.090666667 0.62378669 1.904
0.094293334 0.62378669 1.904
0.097920001 0.62378669 1.904
0.10042667 0.6169067 1.8830001
0.10401334 0.6169067 1.8830001
0.1076 0.6169067 1.8830001
0.11059619 0.61363047 1.8730001
0.11416382 0.61363047 1.8730001
0.14194286 0.6103543 1.863
0.14549144 0.6103543 1.863
0.14904 0.6103543 1.863
0.15176953 0.60707814 1.853
0.15529905 0.60707814 1.853
0.15968572 0.6103543 1.863
0.16323429 0.6103543 1.863
0.16678286 0.6103543 1.863
0.16941714 0.60707814 1.853
0.17294668 0.60707814 1.853
0.1764762 0.60707814 1.853
0.18000571 0.60707814 1.853
0.27418286 0.71453714 2.181
0.27833715 0.71453714 2.181
0.28067809 0.70995051 2.1670001
0.28480572 0.70995051 2.1670001
0.29080001 0.71453714 2.181
0.29306096 0.70995051 2.1670001
0.29910859 0.71453714 2.181
0.30326286 0.71453714 2.181
0.30924952 0.71879619 2.194
0.31342858 0.71879619 2.194
0.31760764 0.71879619 2.194
-0.30521905 0.66003621 2.003
-0.30140382 0.66003621 2.003
-0.29758859 0.66003621 2.003
-0.29553336 0.6639905 2.0150001
-0.29169524 0.6639905 2.0150001
-0.28785715 0.6639905 2.0150001
-0.28401905 0.6639905 2.0150001
-0.28351811 0.67189908 2.039
-0.28128001 0.67585337 2.0510001
-0.27737334 0.67585337 2.0510001
-0.27346668 0.67585337 2.0510001
-0.26956001 0.67585337 2.0510001
-0.26565334 0.67585337 2.0510001
-0.26174667 0.67585337 2.0510001
-0.25784001 0.67585337 2.0510001
-0.25244763 0.67189908 2.039
-0.24856383 0.67189908 2.039
-0.24468 0.67189908 2.039
-0.24221334 0.67585337 2.0510001
-0.23691238 0.67189908 2.039
-0.2344 0.67585337 2.0510001
-0.23049334 0.67585337 2.0510001
-0.22658667 0.67585337 2.0510001
-0.22137715 0.67189908 2.039
-0.21749334 0.67189908 2.039
-0.21109524 0.6639905 2.0150001
-0.20725715 0.6639905 2.0150001
-0.20341906 0.6639905 2.0150001
-0.19958095 0.6639905 2.0150001
-0.19574286 0.6639905 2.0150001
-0.19190477 0.6639905 2.0150001
-0.18806668 0.6639905 2.0150001
-0.18422858 0.6639905 2.0150001
-0.13282667 0.67585337 2.0510001
-0.12816572 0.67189908 2.039
-0.12355048 0.66794479 2.0270002
-0.12181524 0.67980766 2.0630002
-0.11651429 0.67189908 2.039
-0.11329333 0.67585337 2.0510001
-0.10938667 0.67585337 2.0510001
-0.10548 0.67585337 2.0510001
-0.10157334 0.67585337 2.0510001
-0.080740958 0.60731238 1.8430001
-0.077230476 0.60731238 1.8430001
-0.073720001 0.60731238 1.8430001
-0.070209526 0.60731238 1.8430001
-0.06669905 0.60731238 1.8430001
-0.063531429 0.61060762 1.853
-0.059678096 0.60731238 1.8430001
-0.056167621 0.60731238 1.8430001
-0.052657146 0.60731238 1.8430001
-0.049146667 0.60731238 1.8430001
-0.045636192 0.60731238 1.8430001
-0.043771431 0.63103813 1.9150001
-0.040333334 0.63433337 1.9250001
-0.036666669 0.63433337 1.9250001
-0.033 0.63433337 1.9250001
-0.029180953 0.63103813 1.9150001
-0.025386667 0.62741333 1.904
-0.02176 0.62741333 1.904
-0.018333334 0.63433337 1.9250001
-0.014590477 0.63103813 1.9150001
-0.011 0.63433337 1.9250001
-0.0075885719 0.65641147 1.9920001
-0.0037942859 0.65641147 1.9920001
0 0.65641147 1.9920001
0.0037942859 0.65641147 1.9920001
0.0075428574 0.65245718 1.9800001
0.011314286 0.65245718 1.9800001
0.015001905 0.64883238 1.9690001
0.018752381 0.64883238 1.9690001
0.022628572 0.65245718 1.9800001
0.026400002 0.65245718 1.9800001
0.03017143 0.65245718 1.9800001
0.03394286 0.65245718 1.9800001
0.03794286 0.65641147 1.9920001
0.041737143 0.65641147 1.9920001
0.045531429 0.65641147 1.9920001
0.049028572 0.65245718 1.9800001
0.05250667 0.64883238 1.9690001
0.05594286 0.64520764 1.9580001
0.059672382 0.64520764 1.9580001
0.063045718 0.64158291 1.9470001
0.066377148 0.63795811 1.9360001
0.069666669 0.63433337 1.9250001
0.073333338 0.63433337 1.9250001
0.077 0.63433337 1.9250001
0.080247626 0.63103813 1.9150001
0.083895244 0.63103813 1.9150001
0.08704 0.62741333 1.904
0.090666667 0.62741333 1.904
0.099893339 0.61719811 1.8730001
0.10346095 0.61719811 1.8730001
0.1076 0.62049335 1.8830001
0.11059619 0.61719811 1.8730001
0.11416382 0.61719811 1.8730001
0.15968572 0.61390287 1.863
0.16235811 0.61060762 1.853
0.16588762 0.61060762 1.853
