# .PCD v0.7 - Point Cloud Data file format
VERSION 0.7
FIELDS x y z
SIZE 4 4 4
TYPE F F F
COUNT 1 1 1
WIDTH 1508
HEIGHT 1
VIEWPOINT 0 0 0 1 0 0 0
POINTS 1508
DATA ascii
0.11651429 0.63694477 2.039
0.1130762 0.59820956 1.9150001
0.11672381 0.59820956 1.9150001
0.12037143 0.59820956 1.9150001
0.12401905 0.59820956 1.9150001
0.12766667 0.59820956 1.9150001
0.13131429 0.59820956 1.9150001
0.13418667 0.59477335 1.904
0.13860953 0.59820956 1.9150001
0.14144 0.59477335 1.904
0.14506668 0.59477335 1.904
0.14791238 0.59164953 1.8940001
0.15152 0.59164953 1.8940001
0.15512763 0.59164953 1.8940001
0.15873525 0.59164953 1.8940001
0.18120001 0.66037333 2.1140001
0.18522668 0.66037333 2.1140001
0.19041716 0.66443431 2.1270001
0.19446857 0.66443431 2.1270001
0.19852 0.66443431 2.1270001
0.20257144 0.66443431 2.1270001
0.20662287 0.66443431 2.1270001
0.2106743 0.66443431 2.1270001
0.21472572 0.66443431 2.1270001
0.21877715 0.66443431 2.1270001
0.22282858 0.66443431 2.1270001
0.22688001 0.66443431 2.1270001
0.27833715 0.68130291 2.181
0.27718097 0.66849524 2.1400001
0.28125715 0.66849524 2.1400001
-0.15923619 0.64082861 2.039
-0.15535238 0.64082861 2.039
-0.15146858 0.64082861 2.039
-0.14758477 0.64082861 2.039
-0.14370096 0.64082861 2.039
-0.13981715 0.64082861 2.039
-0.13593334 0.64082861 2.039
-0.13127239 0.63705719 2.0270002
-0.12741144 0.63705719 2.0270002
-0.12281905 0.63328576 2.0150001
-0.11898096 0.63328576 2.0150001
-0.11514286 0.63328576 2.0150001
-0.11196762 0.63705719 2.0270002
-0.10746667 0.63328576 2.0150001
-0.10424571 0.63705719 2.0270002
-0.10097905 0.64082861 2.039
-0.097095244 0.64082861 2.039
-0.093211435 0.64082861 2.039
-0.089327626 0.64082861 2.039
-0.085946672 0.64460003 2.0510001
-0.082040004 0.64460003 2.0510001
-0.078133337 0.64460003 2.0510001
-0.07422667 0.64460003 2.0510001
-0.063874289 0.58551431 1.863
-0.060325716 0.58551431 1.863
-0.056777146 0.58551431 1.863
-0.053228572 0.58551431 1.863
-0.049946669 0.58865714 1.8730001
-0.046626668 0.59180003 1.8830001
-0.04304 0.59180003 1.8830001
-0.039683811 0.59525716 1.8940001
-0.03626667 0.5984 1.904
-0.033377144 0.61191434 1.9470001
-0.029333334 0.60500002 1.9250001
-0.025666667 0.60500002 1.9250001
-0.022 0.60500002 1.9250001
-0.018333334 0.60500002 1.9250001
-0.014666667 0.60500002 1.9250001
-0.011 0.60500002 1.9250001
-0.0073333336 0.60500002 1.9250001
-0.0036666668 0.60500002 1.9250001
0 0.61191434 1.9470001
0.0037504763 0.61882859 1.9690001
0.0075428574 0.62228572 1.9800001
0.011382857 0.62605715 1.9920001
0.015177144 0.62605715 1.9920001
0.01897143 0.62605715 1.9920001
0.022765715 0.62605715 1.9920001
0.026560001 0.62605715 1.9920001
0.030354287 0.62605715 1.9920001
0.03394286 0.62228572 1.9800001
0.037714288 0.62228572 1.9800001
0.041485716 0.62228572 1.9800001
0.045257144 0.62228572 1.9800001
0.049028572 0.62228572 1.9800001
0.052800003 0.62228572 1.9800001
0.056257144 0.61882859 1.9690001
0.059672382 0.61537147 1.9580001
0.063401908 0.61537147 1.9580001
0.066754289 0.61191434 1.9470001
0.07046286 0.61191434 1.9470001
0.074171431 0.61191434 1.9470001
0.077880003 0.61191434 1.9470001
0.081588574 0.61191434 1.9470001
0.084815241 0.60845715 1.9360001
0.089508578 0.61537147 1.9580001
0.097095244 0.64082861 2.039
0.10097905 0.64082861 2.039
0.10486286 0.64082861 2.039
0.10874667 0.64082861 2.039
0.11329333 0.64460003 2.0510001
0.1172 0.64460003 2.0510001
0.1130762 0.60185719 1.9150001
0.11672381 0.60185719 1.9150001
0.12100001 0.60500002 1.9250001
0.12401905 0.60185719 1.9150001
0.12766667 0.60185719 1.9150001
0.13131429 0.60185719 1.9150001
0.13418667 0.5984 1.904
0.13781334 0.5984 1.904
0.14144 0.5984 1.904
0.14506668 0.5984 1.904
0.14791238 0.59525716 1.8940001
0.15152 0.59525716 1.8940001
0.15422668 0.59180003 1.8830001
0.15781334 0.59180003 1.8830001
0.18120001 0.66440004 2.1140001
0.18522668 0.66440004 2.1140001
0.19041716 0.66848576 2.1270001
0.19446857 0.66848576 2.1270001
0.19852 0.66848576 2.1270001
0.20257144 0.66848576 2.1270001
0.20662287 0.66848576 2.1270001
0.2106743 0.66848576 2.1270001
0.21603811 0.67257148 2.1400001
0.21877715 0.66848576 2.1270001
0.22282858 0.66848576 2.1270001
0.22688001 0.66848576 2.1270001
0.26087621 0.67257148 2.1400001
0.26495239 0.67257148 2.1400001
0.2673943 0.66848576 2.1270001
0.27310476 0.67257148 2.1400001
0.27549714 0.66848576 2.1270001
0.28125715 0.67257148 2.1400001
0.28533334 0.67257148 2.1400001
-0.16408001 0.6485067 2.0510001
-0.16017334 0.6485067 2.0510001
-0.15626667 0.6485067 2.0510001
-0.15146858 0.64471239 2.039
-0.14758477 0.64471239 2.039
-0.14370096 0.64471239 2.039
-0.13981715 0.64471239 2.039
-0.13593334 0.64471239 2.039
-0.13204953 0.64471239 2.039
-0.12816572 0.64471239 2.039
-0.12355048 0.64091814 2.0270002
-0.11898096 0.63712382 2.0150001
-0.11514286 0.63712382 2.0150001
-0.11196762 0.64091814 2.0270002
-0.10746667 0.63712382 2.0150001
-0.10424571 0.64091814 2.0270002
-0.10097905 0.64471239 2.039
-0.097095244 0.64471239 2.039
-0.093211435 0.64471239 2.039
-0.089853339 0.6485067 2.0510001
-0.085946672 0.6485067 2.0510001
-0.082040004 0.6485067 2.0510001
-0.078133337 0.6485067 2.0510001
-0.066337146 0.57957715 1.8330001
-0.063531429 0.58590096 1.853
-0.060001906 0.58590096 1.853
-0.056777146 0.58906287 1.863
-0.053228572 0.58906287 1.863
-0.049946669 0.59222478 1.8730001
-0.046626668 0.59538668 1.8830001
-0.043291431 0.59886479 1.8940001
-0.039893337 0.6020267 1.904
-0.036476191 0.60550481 1.9150001
-0.033377144 0.61562288 1.9470001
-0.029333334 0.60866672 1.9250001
-0.025666667 0.60866672 1.9250001
-0.022 0.60866672 1.9250001
-0.018438095 0.61214477 1.9360001
-0.014666667 0.60866672 1.9250001
-0.011062858 0.61214477 1.9360001
-0.0073752385 0.61214477 1.9360001
-0.0036876192 0.61214477 1.9360001
0 0.61910099 1.9580001
0.0037714287 0.62605715 1.9800001
0.0075885719 0.62985146 1.9920001
0.011382857 0.62985146 1.9920001
0.015177144 0.62985146 1.9920001
0.01897143 0.62985146 1.9920001
0.022765715 0.62985146 1.9920001
0.026400002 0.62605715 1.9800001
0.03017143 0.62605715 1.9800001
0.03394286 0.62605715 1.9800001
0.037714288 0.62605715 1.9800001
0.041485716 0.62605715 1.9800001
0.045257144 0.62605715 1.9800001
0.049028572 0.62605715 1.9800001
0.052800003 0.62605715 1.9800001
0.056257144 0.6225791 1.9690001
0.060007621 0.6225791 1.9690001
0.063401908 0.61910099 1.9580001
0.066754289 0.61562288 1.9470001
0.07046286 0.61562288 1.9470001
0.074171431 0.61562288 1.9470001
0.077880003 0.61562288 1.9470001
0.081588574 0.61562288 1.9470001
0.084815241 0.61214477 1.9360001
0.089005716 0.61562288 1.9470001
0.092714287 0.61562288 1.9470001
0.096422859 0.61562288 1.9470001
0.10486286 0.64471239 2.039
0.10874667 0.64471239 2.039
0.11329333 0.6485067 2.0510001
0.11788572 0.65230095 2.0630002
0.12181524 0.65230095 2.0630002
0.12726858 0.66020572 2.0880001
0.13124572 0.66020572 2.0880001
0.12401905 0.60550481 1.9150001
0.12766667 0.60550481 1.9150001
0.13131429 0.60550481 1.9150001
0.13418667 0.6020267 1.904
0.13781334 0.6020267 1.904
0.14069715 0.59886479 1.8940001
0.14430477 0.59886479 1.8940001
0.14705335 0.59538668 1.8830001
0.15064001 0.59538668 1.8830001
0.15340762 0.59222478 1.8730001
0.15781334 0.59538668 1.8830001
0.16140001 0.59538668 1.8830001
0.16498667 0.59538668 1.8830001
0.19041716 0.67253715 2.1270001
0.19446857 0.67253715 2.1270001
0.19730668 0.66842669 2.1140001
0.20257144 0.67253715 2.1270001
0.20536001 0.66842669 2.1140001
0.2106743 0.67253715 2.1270001
0.21472572 0.67253715 2.1270001
0.21877715 0.67253715 2.1270001
0.22282858 0.67253715 2.1270001
0.25836 0.68075812 2.1530001
0.26087621 0.67664766 2.1400001
0.26495239 0.67664766 2.1400001
0.2673943 0.67253715 2.1270001
0.27310476 0.67664766 2.1400001
0.27718097 0.67664766 2.1400001
0.28125715 0.67664766 2.1400001
0.28533334 0.67664766 2.1400001
0.28940955 0.67664766 2.1400001
-0.22268 0.65241337 2.0510001
-0.21877334 0.65241337 2.0510001
-0.21486667 0.65241337 2.0510001
-0.21096 0.65241337 2.0510001
-0.16408001 0.65241337 2.0510001
-0.16017334 0.65241337 2.0510001
-0.15626667 0.65241337 2.0510001
-0.15236001 0.65241337 2.0510001
-0.14845334 0.65241337 2.0510001
-0.14454667 0.65241337 2.0510001
-0.13981715 0.64859623 2.039
-0.13593334 0.64859623 2.039
-0.13127239 0.64477909 2.0270002
-0.12816572 0.64859623 2.039
-0.12281905 0.64096195 2.0150001
-0.11898096 0.64096195 2.0150001
-0.11514286 0.64096195 2.0150001
-0.11130477 0.64096195 2.0150001
-0.10746667 0.64096195 2.0150001
-0.10424571 0.64477909 2.0270002
-0.10038476 0.64477909 2.0270002
-0.097095244 0.64859623 2.039
-0.093211435 0.64859623 2.039
-0.089327626 0.64859623 2.039
-0.08544381 0.64859623 2.039
-0.082040004 0.65241337 2.0510001
-0.069828577 0.58306861 1.8330001
-0.066337146 0.58306861 1.8330001
-0.063188575 0.58624953 1.8430001
-0.059678096 0.58624953 1.8430001
-0.056167621 0.58624953 1.8430001
-0.053228572 0.59261143 1.863
-0.049946669 0.59579241 1.8730001
-0.046626668 0.59897333 1.8830001
-0.04352 0.60565335 1.904
-0.040123813 0.60915238 1.9150001
-0.036666669 0.61233336 1.9250001
-0.033377144 0.61933148 1.9470001
-0.029333334 0.61233336 1.9250001
-0.025666667 0.61233336 1.9250001
-0.022125715 0.61583239 1.9360001
-0.018438095 0.61583239 1.9360001
-0.014750477 0.61583239 1.9360001
-0.011062858 0.61583239 1.9360001
-0.0073752385 0.61583239 1.9360001
-0.0037085717 0.61933148 1.9470001
0 0.62283051 1.9580001
0.0037714287 0.62982857 1.9800001
0.0075885719 0.63364571 1.9920001
0.011382857 0.63364571 1.9920001
0.015177144 0.63364571 1.9920001
0.01897143 0.63364571 1.9920001
0.022628572 0.62982857 1.9800001
0.026400002 0.62982857 1.9800001
0.03017143 0.62982857 1.9800001
0.03394286 0.62982857 1.9800001
0.037714288 0.62982857 1.9800001
0.041485716 0.62982857 1.9800001
0.045257144 0.62982857 1.9800001
0.049028572 0.62982857 1.9800001
0.052800003 0.62982857 1.9800001
0.056257144 0.62632954 1.9690001
0.059672382 0.62283051 1.9580001
0.063401908 0.62283051 1.9580001
0.066754289 0.61933148 1.9470001
0.07046286 0.61933148 1.9470001
0.074171431 0.61933148 1.9470001
0.077440001 0.61583239 1.9360001
0.081127621 0.61583239 1.9360001
0.084333338 0.61233336 1.9250001
0.088502862 0.61583239 1.9360001
0.091666669 0.61233336 1.9250001
0.095333338 0.61233336 1.9250001
0.099000007 0.61233336 1.9250001
0.10266667 0.61233336 1.9250001
0.11329333 0.65241337 2.0510001
0.11788572 0.65623051 2.0630002
0.12329143 0.6641829 2.0880001
0.12726858 0.6641829 2.0880001
0.13124572 0.6641829 2.0880001
0.13522287 0.6641829 2.0880001
0.12766667 0.60915238 1.9150001
0.13131429 0.60915238 1.9150001
0.1349619 0.60915238 1.9150001
0.13860953 0.60915238 1.9150001
0.14069715 0.60247242 1.8940001
0.14430477 0.60247242 1.8940001
0.14705335 0.59897333 1.8830001
0.15064001 0.59897333 1.8830001
0.15340762 0.59579241 1.8730001
0.15697524 0.59579241 1.8730001
0.16054286 0.59579241 1.8730001
0.16411048 0.59579241 1.8730001
0.19158097 0.68072385 2.1400001
0.19446857 0.67658859 2.1270001
0.19730668 0.67245334 2.1140001
0.20257144 0.67658859 2.1270001
0.20536001 0.67245334 2.1140001
0.20938668 0.67245334 2.1140001
0.21341334 0.67245334 2.1140001
0.21877715 0.67658859 2.1270001
0.25836 0.6848591 2.1530001
0.26246098 0.6848591 2.1530001
0.26495239 0.68072385 2.1400001
0.26902857 0.68072385 2.1400001
0.27310476 0.68072385 2.1400001
0.27718097 0.68072385 2.1400001
0.28125715 0.68072385 2.1400001
0.28533334 0.68072385 2.1400001
0.28940955 0.68072385 2.1400001
0.29348573 0.68072385 2.1400001
0.29756191 0.68072385 2.1400001
0.3016381 0.68072385 2.1400001
-0.24079619 0.65248001 2.039
-0.23691238 0.65248001 2.039
-0.22393525 0.64864004 2.0270002
-0.2200743 0.64864004 2.0270002
-0.21749334 0.65248001 2.039
-0.2123524 0.64864004 2.0270002
-0.20849143 0.64864004 2.0270002
-0.16408001 0.65632004 2.0510001
-0.16017334 0.65632004 2.0510001
-0.15626667 0.65632004 2.0510001
-0.15236001 0.65632004 2.0510001
-0.14845334 0.65632004 2.0510001
-0.14370096 0.65248001 2.039
-0.13981715 0.65248001 2.039
-0.13593334 0.65248001 2.039
-0.13127239 0.64864004 2.0270002
-0.12741144 0.64864004 2.0270002
-0.12281905 0.64480001 2.0150001
-0.11898096 0.64480001 2.0150001
-0.11514286 0.64480001 2.0150001
-0.11130477 0.64480001 2.0150001
-0.10746667 0.64480001 2.0150001
-0.10424571 0.64864004 2.0270002
-0.10038476 0.64864004 2.0270002
-0.096523814 0.64864004 2.0270002
-0.092662863 0.64864004 2.0270002
-0.089327626 0.65248001 2.039
-0.08544381 0.65248001 2.039
-0.081560001 0.65248001 2.039
-0.070209526 0.58976001 1.8430001
-0.06669905 0.58976001 1.8430001
-0.063531429 0.59296 1.853
-0.060001906 0.59296 1.853
-0.056472383 0.59296 1.853
-0.053228572 0.59615999 1.863
-0.049946669 0.59936005 1.8730001
-0.046626668 0.60256004 1.8830001
-0.04352 0.60928005 1.904
-0.039893337 0.60928005 1.904
-0.036666669 0.616 1.9250001
-0.033377144 0.62304002 1.9470001
-0.029333334 0.616 1.9250001
-0.025813334 0.61952001 1.9360001
-0.022125715 0.61952001 1.9360001
-0.018438095 0.61952001 1.9360001
-0.014750477 0.61952001 1.9360001
-0.011062858 0.61952001 1.9360001
-0.0074171433 0.62304002 1.9470001
-0.0037085717 0.62304002 1.9470001
0 0.62656003 1.9580001
0.0037504763 0.63008004 1.9690001
0.0075428574 0.6336 1.9800001
0.011382857 0.63744003 1.9920001
0.015177144 0.63744003 1.9920001
0.018857144 0.6336 1.9800001
0.022628572 0.6336 1.9800001
0.026400002 0.6336 1.9800001
0.03017143 0.6336 1.9800001
0.03394286 0.6336 1.9800001
0.037714288 0.6336 1.9800001
0.041485716 0.6336 1.9800001
0.045257144 0.6336 1.9800001
0.049028572 0.6336 1.9800001
0.052800003 0.6336 1.9800001
0.056257144 0.63008004 1.9690001
0.060007621 0.63008004 1.9690001
0.063401908 0.62656003 1.9580001
0.066754289 0.62304002 1.9470001
0.07046286 0.62304002 1.9470001
0.074171431 0.62304002 1.9470001
0.077880003 0.62304002 1.9470001
0.081127621 0.61952001 1.9360001
0.084815241 0.61952001 1.9360001
0.088502862 0.61952001 1.9360001
0.091666669 0.616 1.9250001
0.094838098 0.6128 1.9150001
0.099000007 0.616 1.9250001
0.10213333 0.6128 1.9150001
0.10578096 0.6128 1.9150001
0.11788572 0.66016001 2.0630002
0.12181524 0.66016001 2.0630002
0.12726858 0.66816002 2.0880001
0.13124572 0.66816002 2.0880001
0.13522287 0.66816002 2.0880001
0.12766667 0.6128 1.9150001
0.13131429 0.6128 1.9150001
0.13418667 0.60928005 1.904
0.13781334 0.60928005 1.904
0.14069715 0.60608 1.8940001
0.14346667 0.60256004 1.8830001
0.14705335 0.60256004 1.8830001
0.15064001 0.60256004 1.8830001
0.15340762 0.59936005 1.8730001
0.15697524 0.59936005 1.8730001
0.16140001 0.60256004 1.8830001
0.16411048 0.59936005 1.8730001
0.1676781 0.59936005 1.8730001
0.19446857 0.68064004 2.1270001
0.19852 0.68064004 2.1270001
0.20257144 0.68064004 2.1270001
0.20536001 0.67648 2.1140001
0.20938668 0.67648 2.1140001
0.21341334 0.67648 2.1140001
0.2481181 0.67232001 2.1010001
0.2568 0.68480003 2.1400001
0.26087621 0.68480003 2.1400001
0.26495239 0.68480003 2.1400001
0.26902857 0.68480003 2.1400001
0.27310476 0.68480003 2.1400001
0.27718097 0.68480003 2.1400001
0.28125715 0.68480003 2.1400001
0.28533334 0.68480003 2.1400001
0.29116762 0.68896002 2.1530001
0.2952686 0.68896002 2.1530001
0.29936954 0.68896002 2.1530001
0.30347049 0.68896002 2.1530001
0.30757144 0.68896002 2.1530001
-0.25541905 0.66408956 2.0630002
-0.25002667 0.6602267 2.0510001
-0.24468 0.65636384 2.039
-0.24079619 0.65636384 2.039
-0.2355181 0.65250099 2.0270002
-0.23302858 0.65636384 2.039
-0.2277962 0.65250099 2.0270002
-0.22393525 0.65250099 2.0270002
-0.2200743 0.65250099 2.0270002
-0.21749334 0.65636384 2.039
-0.21360953 0.65636384 2.039
-0.20849143 0.65250099 2.0270002
-0.20463048 0.65250099 2.0270002
-0.16408001 0.6602267 2.0510001
-0.16111048 0.66408956 2.0630002
-0.15718096 0.66408956 2.0630002
-0.15236001 0.6602267 2.0510001
-0.14845334 0.6602267 2.0510001
-0.14370096 0.65636384 2.039
-0.13981715 0.65636384 2.039
-0.13513334 0.65250099 2.0270002
-0.13127239 0.65250099 2.0270002
-0.12741144 0.65250099 2.0270002
-0.12281905 0.64863813 2.0150001
-0.11898096 0.64863813 2.0150001
-0.11514286 0.64863813 2.0150001
-0.11130477 0.64863813 2.0150001
-0.10746667 0.64863813 2.0150001
-0.10424571 0.65250099 2.0270002
-0.10038476 0.65250099 2.0270002
-0.096523814 0.65250099 2.0270002
-0.092662863 0.65250099 2.0270002
-0.089327626 0.65636384 2.039
-0.08544381 0.65636384 2.039
-0.082040004 0.6602267 2.0510001
-0.070590481 0.59648955 1.853
-0.06669905 0.59327048 1.8430001
-0.063531429 0.59648955 1.853
-0.059678096 0.59327048 1.8430001
-0.056167621 0.59327048 1.8430001
-0.052942861 0.59648955 1.853
-0.049946669 0.60292763 1.8730001
-0.046626668 0.60614669 1.8830001
-0.04352 0.61290669 1.904
-0.040123813 0.61644763 1.9150001
-0.036666669 0.6196667 1.9250001
-0.033377144 0.62674862 1.9470001
-0.029333334 0.6196667 1.9250001
-0.025813334 0.62320763 1.9360001
-0.022125715 0.62320763 1.9360001
-0.018438095 0.62320763 1.9360001
-0.014750477 0.62320763 1.9360001
-0.011125715 0.62674862 1.9470001
-0.0074171433 0.62674862 1.9470001
-0.0037085717 0.62674862 1.9470001
0 0.63028955 1.9580001
0.0037504763 0.63383049 1.9690001
0.0075428574 0.63737148 1.9800001
0.011314286 0.63737148 1.9800001
0.015085715 0.63737148 1.9800001
0.018857144 0.63737148 1.9800001
0.022628572 0.63737148 1.9800001
0.026400002 0.63737148 1.9800001
0.03017143 0.63737148 1.9800001
0.03394286 0.63737148 1.9800001
0.037714288 0.63737148 1.9800001
0.041485716 0.63737148 1.9800001
0.045257144 0.63737148 1.9800001
0.049028572 0.63737148 1.9800001
0.052800003 0.63737148 1.9800001
0.056257144 0.63383049 1.9690001
0.060007621 0.63383049 1.9690001
0.063401908 0.63028955 1.9580001
0.066754289 0.62674862 1.9470001
0.07046286 0.62674862 1.9470001
0.074171431 0.62674862 1.9470001
0.077440001 0.62320763 1.9360001
0.081127621 0.62320763 1.9360001
0.084815241 0.62320763 1.9360001
0.088502862 0.62320763 1.9360001
0.091666669 0.6196667 1.9250001
0.095333338 0.6196667 1.9250001
0.099000007 0.6196667 1.9250001
0.10266667 0.6196667 1.9250001
0.10578096 0.61644763 1.9150001
0.1088 0.61290669 1.904
0.11242667 0.61290669 1.904
0.12726858 0.67213714 2.0880001
0.13124572 0.67213714 2.0880001
0.13522287 0.67213714 2.0880001
0.13131429 0.61644763 1.9150001
0.13418667 0.61290669 1.904
0.13781334 0.61290669 1.904
0.13988 0.60614669 1.8830001
0.14346667 0.60614669 1.8830001
0.14627239 0.60292763 1.8730001
0.14984001 0.60292763 1.8730001
0.15258858 0.59970862 1.863
0.15613715 0.59970862 1.863
0.15968572 0.59970862 1.863
0.16411048 0.60292763 1.8730001
0.16678286 0.59970862 1.863
0.17033143 0.59970862 1.863
0.17388001 0.59970862 1.863
0.20257144 0.68469143 2.1270001
0.20536001 0.68050671 2.1140001
0.20938668 0.68050671 2.1140001
0.24658287 0.67213714 2.0880001
0.25368002 0.68050671 2.1140001
0.26087621 0.68887621 2.1400001
0.26495239 0.68887621 2.1400001
0.26902857 0.68887621 2.1400001
0.27310476 0.68887621 2.1400001
0.27886477 0.69306099 2.1530001
0.28296572 0.69306099 2.1530001
0.28706667 0.69306099 2.1530001
0.29116762 0.69306099 2.1530001
0.2952686 0.69306099 2.1530001
0.29936954 0.69306099 2.1530001
0.30347049 0.69306099 2.1530001
0.30757144 0.69306099 2.1530001
0.31167239 0.69306099 2.1530001
-0.25541905 0.66801906 2.0630002
-0.25002667 0.66413337 2.0510001
-0.24468 0.66024762 2.039
-0.24079619 0.66024762 2.039
-0.2355181 0.65636194 2.0270002
-0.23165715 0.65636194 2.0270002
-0.2277962 0.65636194 2.0270002
-0.22393525 0.65636194 2.0270002
-0.21877144 0.65247619 2.0150001
-0.21621335 0.65636194 2.0270002
-0.21109524 0.65247619 2.0150001
-0.20849143 0.65636194 2.0270002
-0.20463048 0.65636194 2.0270002
-0.20076953 0.65636194 2.0270002
-0.19690858 0.65636194 2.0270002
-0.19304763 0.65636194 2.0270002
-0.16504 0.66801906 2.0630002
-0.16017334 0.66413337 2.0510001
-0.15718096 0.66801906 2.0630002
-0.15236001 0.66413337 2.0510001
-0.14845334 0.66413337 2.0510001
-0.14454667 0.66413337 2.0510001
-0.13899429 0.65636194 2.0270002
-0.13513334 0.65636194 2.0270002
-0.13127239 0.65636194 2.0270002
-0.12741144 0.65636194 2.0270002
-0.12281905 0.65247619 2.0150001
-0.11898096 0.65247619 2.0150001
-0.11514286 0.65247619 2.0150001
-0.11130477 0.65247619 2.0150001
-0.10746667 0.65247619 2.0150001
-0.10424571 0.65636194 2.0270002
-0.10038476 0.65636194 2.0270002
-0.097095244 0.66024762 2.039
-0.093211435 0.66024762 2.039
-0.089327626 0.66024762 2.039
-0.08544381 0.66024762 2.039
-0.073720001 0.59678096 1.8430001
-0.070209526 0.59678096 1.8430001
-0.06669905 0.59678096 1.8430001
-0.063188575 0.59678096 1.8430001
-0.059678096 0.59678096 1.8430001
-0.056167621 0.59678096 1.8430001
-0.052657146 0.59678096 1.8430001
-0.049680002 0.60325718 1.863
-0.046626668 0.60973334 1.8830001
-0.043771431 0.62009525 1.9150001
-0.040123813 0.62009525 1.9150001
-0.036666669 0.62333333 1.9250001
-0.033188574 0.62689525 1.9360001
-0.029333334 0.62333333 1.9250001
-0.025813334 0.62689525 1.9360001
-0.022125715 0.62689525 1.9360001
-0.018438095 0.62689525 1.9360001
-0.014750477 0.62689525 1.9360001
-0.011125715 0.63045716 1.9470001
-0.0074171433 0.63045716 1.9470001
-0.0037085717 0.63045716 1.9470001
0 0.63401908 1.9580001
0.0037504763 0.63758099 1.9690001
0.0075428574 0.6411429 1.9800001
0.011314286 0.6411429 1.9800001
0.015085715 0.6411429 1.9800001
0.018857144 0.6411429 1.9800001
0.022628572 0.6411429 1.9800001
0.026400002 0.6411429 1.9800001
0.03017143 0.6411429 1.9800001
0.03394286 0.6411429 1.9800001
0.037714288 0.6411429 1.9800001
0.041737143 0.64502859 1.9920001
0.045257144 0.6411429 1.9800001
0.049028572 0.6411429 1.9800001
0.052800003 0.6411429 1.9800001
0.056257144 0.63758099 1.9690001
0.060007621 0.63758099 1.9690001
0.063401908 0.63401908 1.9580001
0.06713143 0.63401908 1.9580001
0.07046286 0.63045716 1.9470001
0.074171431 0.63045716 1.9470001
0.077880003 0.63045716 1.9470001
0.081127621 0.62689525 1.9360001
0.084815241 0.62689525 1.9360001
0.088 0.62333333 1.9250001
0.091666669 0.62333333 1.9250001
0.095333338 0.62333333 1.9250001
0.099000007 0.62333333 1.9250001
0.10266667 0.62333333 1.9250001
0.10578096 0.62009525 1.9150001
0.1088 0.61653334 1.904
0.11242667 0.61653334 1.904
0.11605334 0.61653334 1.904
0.13124572 0.67611432 2.0880001
0.13522287 0.67611432 2.0880001
0.13988 0.60973334 1.8830001
0.14270477 0.60649526 1.8730001
0.14549144 0.60325718 1.863
0.14904 0.60325718 1.863
0.15258858 0.60325718 1.863
0.15613715 0.60325718 1.863
0.16054286 0.60649526 1.8730001
0.16323429 0.60325718 1.863
0.16678286 0.60325718 1.863
0.17033143 0.60325718 1.863
0.17388001 0.60325718 1.863
0.20257144 0.68874288 2.1270001
0.24658287 0.67611432 2.0880001
0.2568 0.69295239 2.1400001
0.26087621 0.69295239 2.1400001
0.26495239 0.69295239 2.1400001
0.26902857 0.69295239 2.1400001
0.27476382 0.69716191 2.1530001
0.27886477 0.69716191 2.1530001
0.28296572 0.69716191 2.1530001
0.28706667 0.69716191 2.1530001
0.29116762 0.69716191 2.1530001
0.2952686 0.69716191 2.1530001
0.29936954 0.69716191 2.1530001
0.30347049 0.69716191 2.1530001
0.30757144 0.69716191 2.1530001
0.31167239 0.69716191 2.1530001
-0.28957143 0.66022289 2.0270002
-0.28571048 0.66022289 2.0270002
-0.28351811 0.66413146 2.039
-0.2796343 0.66413146 2.039
-0.27575049 0.66413146 2.039
-0.27346668 0.66804004 2.0510001
-0.26956001 0.66804004 2.0510001
-0.26565334 0.66804004 2.0510001
-0.26493716 0.67618287 2.0760002
-0.26098287 0.67618287 2.0760002
-0.25541905 0.67194861 2.0630002
-0.25002667 0.66804004 2.0510001
-0.24468 0.66413146 2.039
-0.23937906 0.66022289 2.0270002
-0.2355181 0.66022289 2.0270002
-0.23165715 0.66022289 2.0270002
-0.2277962 0.66022289 2.0270002
-0.22393525 0.66022289 2.0270002
-0.21877144 0.65631431 2.0150001
-0.21493334 0.65631431 2.0150001
-0.2123524 0.66022289 2.0270002
-0.20849143 0.66022289 2.0270002
-0.20463048 0.66022289 2.0270002
-0.20076953 0.66022289 2.0270002
-0.19690858 0.66022289 2.0270002
-0.19304763 0.66022289 2.0270002
-0.18918668 0.66022289 2.0270002
-0.16504 0.67194861 2.0630002
-0.16017334 0.66804004 2.0510001
-0.15718096 0.67194861 2.0630002
-0.15325144 0.67194861 2.0630002
-0.14845334 0.66804004 2.0510001
-0.14454667 0.66804004 2.0510001
-0.13899429 0.66022289 2.0270002
-0.13513334 0.66022289 2.0270002
-0.13127239 0.66022289 2.0270002
-0.12741144 0.66022289 2.0270002
-0.12355048 0.66022289 2.0270002
-0.11968953 0.66022289 2.0270002
-0.11582857 0.66022289 2.0270002
-0.11130477 0.65631431 2.0150001
-0.10746667 0.65631431 2.0150001
-0.10424571 0.66022289 2.0270002
-0.10097905 0.66413146 2.039
-0.096523814 0.66022289 2.0270002
-0.093211435 0.66413146 2.039
-0.089327626 0.66413146 2.039
-0.08544381 0.66413146 2.039
-0.073720001 0.60029143 1.8430001
-0.070209526 0.60029143 1.8430001
-0.066337146 0.59703434 1.8330001
-0.063188575 0.60029143 1.8430001
-0.059678096 0.60029143 1.8430001
-0.056167621 0.60029143 1.8430001
-0.052657146 0.60029143 1.8430001
-0.049680002 0.60680574 1.863
-0.04689905 0.61690289 1.8940001
-0.043771431 0.62374288 1.9150001
-0.040123813 0.62374288 1.9150001
-0.036666669 0.62700003 1.9250001
-0.033 0.62700003 1.9250001
-0.029180953 0.62374288 1.9150001
-0.025666667 0.62700003 1.9250001
-0.022 0.62700003 1.9250001
-0.018438095 0.63058287 1.9360001
-0.014750477 0.63058287 1.9360001
-0.011125715 0.63416576 1.9470001
-0.0074171433 0.63416576 1.9470001
-0.0037085717 0.63416576 1.9470001
0 0.6377486 1.9580001
0.0037714287 0.64491433 1.9800001
0.0075428574 0.64491433 1.9800001
0.011382857 0.6488229 1.9920001
0.015177144 0.6488229 1.9920001
0.018857144 0.64491433 1.9800001
0.022628572 0.64491433 1.9800001
0.026400002 0.64491433 1.9800001
0.03017143 0.64491433 1.9800001
0.03394286 0.64491433 1.9800001
0.03794286 0.6488229 1.9920001
0.041737143 0.6488229 1.9920001
0.045257144 0.64491433 1.9800001
0.049028572 0.64491433 1.9800001
0.052800003 0.64491433 1.9800001
0.056257144 0.64133143 1.9690001
0.060007621 0.64133143 1.9690001
0.063401908 0.6377486 1.9580001
0.06713143 0.6377486 1.9580001
0.070860952 0.6377486 1.9580001
0.074590482 0.6377486 1.9580001
0.077880003 0.63416576 1.9470001
0.081588574 0.63416576 1.9470001
0.084815241 0.63058287 1.9360001
0.088 0.62700003 1.9250001
0.091666669 0.62700003 1.9250001
0.094838098 0.62374288 1.9150001
0.098485716 0.62374288 1.9150001
0.10213333 0.62374288 1.9150001
0.10578096 0.62374288 1.9150001
0.1088 0.62016004 1.904
0.11242667 0.62016004 1.904
0.11605334 0.62016004 1.904
0.14270477 0.6100629 1.8730001
0.14549144 0.60680574 1.863
0.14904 0.60680574 1.863
0.15258858 0.60680574 1.863
0.15613715 0.60680574 1.863
0.16054286 0.6100629 1.8730001
0.16323429 0.60680574 1.863
0.16588762 0.60354859 1.853
0.17033143 0.60680574 1.863
0.17294668 0.60354859 1.853
0.1764762 0.60354859 1.853
0.18000571 0.60354859 1.853
0.26495239 0.69702858 2.1400001
0.26902857 0.69702858 2.1400001
0.27476382 0.70126289 2.1530001
0.27886477 0.70126289 2.1530001
0.28296572 0.70126289 2.1530001
0.28706667 0.70126289 2.1530001
0.29116762 0.70126289 2.1530001
0.29718858 0.70582289 2.1670001
0.3013162 0.70582289 2.1670001
0.30544382 0.70582289 2.1670001
0.30757144 0.70126289 2.1530001
0.31167239 0.70126289 2.1530001
0.31577334 0.70126289 2.1530001
-0.29343238 0.66408384 2.0270002
-0.29128572 0.66801524 2.039
-0.28571048 0.66408384 2.0270002
-0.28351811 0.66801524 2.039
-0.2796343 0.66801524 2.039
-0.27575049 0.66801524 2.039
-0.27346668 0.6719467 2.0510001
-0.26956001 0.6719467 2.0510001
-0.26565334 0.6719467 2.0510001
-0.2632781 0.67587811 2.0630002
-0.25934857 0.67587811 2.0630002
-0.25541905 0.67587811 2.0630002
-0.25148952 0.67587811 2.0630002
-0.24612001 0.6719467 2.0510001
-0.24079619 0.66801524 2.039
-0.23691238 0.66801524 2.039
-0.23165715 0.66408384 2.0270002
-0.2277962 0.66408384 2.0270002
-0.22393525 0.66408384 2.0270002
-0.2200743 0.66408384 2.0270002
-0.21621335 0.66408384 2.0270002
-0.2123524 0.66408384 2.0270002
-0.20849143 0.66408384 2.0270002
-0.20463048 0.66408384 2.0270002
-0.20076953 0.66408384 2.0270002
-0.19690858 0.66408384 2.0270002
-0.19304763 0.66408384 2.0270002
-0.18918668 0.66408384 2.0270002
-0.18532573 0.66408384 2.0270002
-0.18146476 0.66408384 2.0270002
-0.15718096 0.67587811 2.0630002
-0.15325144 0.67587811 2.0630002
-0.12741144 0.66408384 2.0270002
-0.12355048 0.66408384 2.0270002
-0.11968953 0.66408384 2.0270002
-0.11582857 0.66408384 2.0270002
-0.11196762 0.66408384 2.0270002
-0.10746667 0.66015238 2.0150001
-0.10424571 0.66408384 2.0270002
-0.10038476 0.66408384 2.0270002
-0.096523814 0.66408384 2.0270002
-0.092662863 0.66408384 2.0270002
-0.088801906 0.66408384 2.0270002
-0.08544381 0.66801524 2.039
-0.073320001 0.60052574 1.8330001
-0.069828577 0.60052574 1.8330001
-0.066337146 0.60052574 1.8330001
-0.063188575 0.60380191 1.8430001
-0.059678096 0.60380191 1.8430001
-0.055862859 0.60052574 1.8330001
-0.052657146 0.60380191 1.8430001
-0.049946669 0.61363047 1.8730001
-0.046379048 0.61363047 1.8730001
-0.043771431 0.6273905 1.9150001
-0.040123813 0.6273905 1.9150001
-0.036476191 0.6273905 1.9150001
-0.033 0.63066667 1.9250001
-0.029180953 0.6273905 1.9150001
-0.025666667 0.63066667 1.9250001
-0.022 0.63066667 1.9250001
-0.018438095 0.63427049 1.9360001
-0.014750477 0.63427049 1.9360001
-0.011125715 0.63787431 1.9470001
-0.0074171433 0.63787431 1.9470001
-0.0037295239 0.64147812 1.9580001
0 0.64147812 1.9580001
0.0037714287 0.64868575 1.9800001
0.0075428574 0.64868575 1.9800001
0.011382857 0.65261716 1.9920001
0.015177144 0.65261716 1.9920001
0.01897143 0.65261716 1.9920001
0.022765715 0.65261716 1.9920001
0.026560001 0.65261716 1.9920001
0.030354287 0.65261716 1.9920001
0.034148574 0.65261716 1.9920001
0.03794286 0.65261716 1.9920001
0.041737143 0.65261716 1.9920001
0.045531429 0.65261716 1.9920001
0.049028572 0.64868575 1.9800001
0.05250667 0.64508194 1.9690001
0.056257144 0.64508194 1.9690001
0.060007621 0.64508194 1.9690001
0.063401908 0.64147812 1.9580001
0.06713143 0.64147812 1.9580001
0.070860952 0.64147812 1.9580001
0.074590482 0.64147812 1.9580001
0.077880003 0.63787431 1.9470001
0.081588574 0.63787431 1.9470001
0.084815241 0.63427049 1.9360001
0.088502862 0.63427049 1.9360001
0.092190482 0.63427049 1.9360001
0.095333338 0.63066667 1.9250001
0.099000007 0.63066667 1.9250001
0.10213333 0.6273905 1.9150001
0.10578096 0.6273905 1.9150001
0.1088 0.62378669 1.904
0.11242667 0.62378669 1.904
0.14270477 0.61363047 1.8730001
0.14471048 0.60707814 1.853
0.14824 0.60707814 1.853
0.15258858 0.6103543 1.863
0.15613715 0.6103543 1.863
0.15968572 0.6103543 1.863
0.16323429 0.6103543 1.863
0.16588762 0.60707814 1.853
0.17033143 0.6103543 1.863
0.17388001 0.6103543 1.863
0.17742857 0.6103543 1.863
0.18097715 0.6103543 1.863
0.18452573 0.6103543 1.863
0.28249145 0.71453714 2.181
0.28480572 0.70995051 2.1670001
0.29080001 0.71453714 2.181
0.29306096 0.70995051 2.1670001
0.29718858 0.70995051 2.1670001
0.3013162 0.70995051 2.1670001
0.30544382 0.70995051 2.1670001
0.30957144 0.70995051 2.1670001
0.31369907 0.70995051 2.1670001
0.31782669 0.70995051 2.1670001
-0.30293715 0.67189908 2.039
-0.29905334 0.67189908 2.039
-0.29343238 0.66794479 2.0270002
-0.29128572 0.67189908 2.039
-0.28571048 0.66794479 2.0270002
-0.28351811 0.67189908 2.039
-0.2796343 0.67189908 2.039
-0.27575049 0.67189908 2.039
-0.27346668 0.67585337 2.0510001
-0.26956001 0.67585337 2.0510001
-0.26720762 0.67980766 2.0630002
-0.2632781 0.67980766 2.0630002
-0.25934857 0.67980766 2.0630002
-0.25541905 0.67980766 2.0630002
-0.25148952 0.67980766 2.0630002
-0.24612001 0.67585337 2.0510001
-0.24221334 0.67585337 2.0510001
-0.23691238 0.67189908 2.039
-0.23302858 0.67189908 2.039
-0.2277962 0.66794479 2.0270002
-0.22393525 0.66794479 2.0270002
-0.21877144 0.6639905 2.0150001
-0.21621335 0.66794479 2.0270002
-0.2123524 0.66794479 2.0270002
-0.20849143 0.66794479 2.0270002
-0.20463048 0.66794479 2.0270002
-0.20076953 0.66794479 2.0270002
-0.19690858 0.66794479 2.0270002
-0.19304763 0.66794479 2.0270002
-0.18918668 0.66794479 2.0270002
-0.18532573 0.66794479 2.0270002
-0.18146476 0.66794479 2.0270002
-0.17760381 0.66794479 2.0270002
-0.1688762 0.6639905 2.0150001
-0.16503809 0.6639905 2.0150001
-0.15718096 0.67980766 2.0630002
-0.15325144 0.67980766 2.0630002
-0.11582857 0.66794479 2.0270002
-0.11196762 0.66794479 2.0270002
-0.10746667 0.6639905 2.0150001
-0.10424571 0.66794479 2.0270002
-0.10038476 0.66794479 2.0270002
-0.096523814 0.66794479 2.0270002
-0.083794288 0.60401714 1.8330001
-0.080302857 0.60401714 1.8330001
-0.073320001 0.60401714 1.8330001
-0.069828577 0.60401714 1.8330001
-0.066337146 0.60401714 1.8330001
-0.063188575 0.60731238 1.8430001
-0.059354287 0.60401714 1.8330001
-0.056167621 0.60731238 1.8430001
-0.052657146 0.60731238 1.8430001
-0.049946669 0.61719811 1.8730001
-0.046379048 0.61719811 1.8730001
-0.040123813 0.63103813 1.9150001
-0.036476191 0.63103813 1.9150001
-0.033 0.63433337 1.9250001
-0.029180953 0.63103813 1.9150001
-0.025666667 0.63433337 1.9250001
-0.022 0.63433337 1.9250001
-0.018438095 0.63795811 1.9360001
-0.014750477 0.63795811 1.9360001
-0.011125715 0.64158291 1.9470001
-0.0074171433 0.64158291 1.9470001
-0.0037295239 0.64520764 1.9580001
0 0.64883238 1.9690001
0.0037714287 0.65245718 1.9800001
0.0075428574 0.65245718 1.9800001
0.011314286 0.65245718 1.9800001
0.015085715 0.65245718 1.9800001
0.018857144 0.65245718 1.9800001
0.022628572 0.65245718 1.9800001
0.026560001 0.65641147 1.9920001
0.03017143 0.65245718 1.9800001
0.03394286 0.65245718 1.9800001
0.03794286 0.65641147 1.9920001
0.041737143 0.65641147 1.9920001
0.045531429 0.65641147 1.9920001
0.049028572 0.65245718 1.9800001
0.05250667 0.64883238 1.9690001
0.056257144 0.64883238 1.9690001
0.060007621 0.64883238 1.9690001
0.063401908 0.64520764 1.9580001
0.06713143 0.64520764 1.9580001
0.070860952 0.64520764 1.9580001
0.074590482 0.64520764 1.9580001
0.077880003 0.64158291 1.9470001
0.081588574 0.64158291 1.9470001
0.084333338 0.63433337 1.9250001
0.088 0.63433337 1.9250001
0.091666669 0.63433337 1.9250001
0.095333338 0.63433337 1.9250001
0.099000007 0.63433337 1.9250001
0.14270477 0.61719811 1.8730001
0.14471048 0.61060762 1.853
0.14824 0.61060762 1.853
0.15176953 0.61060762 1.853
0.15613715 0.61390287 1.863
0.15968572 0.61390287 1.863
0.16235811 0.61060762 1.853
0.16499239 0.60731238 1.8430001
0.17033143 0.61390287 1.863
0.17388001 0.61390287 1.863
0.17742857 0.61390287 1.863
0.18194857 0.61719811 1.8730001
0.18551619 0.61719811 1.8730001
0.29253334 0.72297525 2.194
0.29306096 0.71407813 2.1670001
0.29718858 0.71407813 2.1670001
0.3013162 0.71407813 2.1670001
0.30544382 0.71407813 2.1670001
0.30957144 0.71407813 2.1670001
0.31369907 0.71407813 2.1670001
0.31782669 0.71407813 2.1670001
-0.31253335 0.67976004 2.0510001
-0.30682096 0.67578286 2.039
-0.30293715 0.67578286 2.039
-0.29905334 0.67578286 2.039
-0.29516953 0.67578286 2.039
-0.29128572 0.67578286 2.039
-0.28740191 0.67578286 2.039
-0.28351811 0.67578286 2.039
-0.2796343 0.67578286 2.039
-0.27575049 0.67578286 2.039
-0.27346668 0.67976004 2.0510001
-0.26956001 0.67976004 2.0510001
-0.26720762 0.68373716 2.0630002
-0.2632781 0.68373716 2.0630002
-0.25934857 0.68373716 2.0630002
-0.25541905 0.68373716 2.0630002
-0.25148952 0.68373716 2.0630002
-0.24612001 0.67976004 2.0510001
-0.24221334 0.67976004 2.0510001
-0.23691238 0.67578286 2.039
-0.23302858 0.67578286 2.039
-0.2277962 0.67180574 2.0270002
-0.22393525 0.67180574 2.0270002
-0.21877144 0.66782862 2.0150001
-0.21493334 0.66782862 2.0150001
-0.21109524 0.66782862 2.0150001
-0.20725715 0.66782862 2.0150001
-0.20463048 0.67180574 2.0270002
-0.20076953 0.67180574 2.0270002
-0.19690858 0.67180574 2.0270002
-0.19304763 0.67180574 2.0270002
-0.18918668 0.67180574 2.0270002
-0.18532573 0.67180574 2.0270002
-0.18039048 0.66782862 2.0150001
-0.17655239 0.66782862 2.0150001
-0.17271429 0.66782862 2.0150001
-0.1688762 0.66782862 2.0150001
-0.16503809 0.66782862 2.0150001
-0.083794288 0.6075086 1.8330001
-0.080302857 0.6075086 1.8330001
-0.076811433 0.6075086 1.8330001
-0.073320001 0.6075086 1.8330001
-0.069828577 0.6075086 1.8330001
-0.066337146 0.6075086 1.8330001
-0.063188575 0.61082286 1.8430001
-0.059354287 0.6075086 1.8330001
-0.055862859 0.6075086 1.8330001
-0.052657146 0.61082286 1.8430001
-0.049946669 0.62076575 1.8730001
-0.046379048 0.62076575 1.8730001
-0.036476191 0.63468575 1.9150001
-0.033 0.63800001 1.9250001
-0.029180953 0.63468575 1.9150001
-0.025666667 0.63800001 1.9250001
-0.022 0.63800001 1.9250001
-0.018438095 0.64164573 1.9360001
-0.014750477 0.64164573 1.9360001
-0.011062858 0.64164573 1.9360001
-0.0074171433 0.64529145 1.9470001
-0.0037295239 0.64893717 1.9580001
0 0.64893717 1.9580001
0.0037714287 0.6562286 1.9800001
0.0075428574 0.6562286 1.9800001
0.011314286 0.6562286 1.9800001
0.015085715 0.6562286 1.9800001
0.018857144 0.6562286 1.9800001
0.022765715 0.66020572 1.9920001
0.026400002 0.6562286 1.9800001
0.03017143 0.6562286 1.9800001
0.03394286 0.6562286 1.9800001
0.03794286 0.66020572 1.9920001
0.041737143 0.66020572 1.9920001
0.045531429 0.66020572 1.9920001
0.049028572 0.6562286 1.9800001
0.052800003 0.6562286 1.9800001
0.056571431 0.6562286 1.9800001
0.060007621 0.65258288 1.9690001
0.063401908 0.64893717 1.9580001
0.06713143 0.64893717 1.9580001
0.070860952 0.64893717 1.9580001
0.074590482 0.64893717 1.9580001
0.078320004 0.64893717 1.9580001
0.081588574 0.64529145 1.9470001
0.084333338 0.63800001 1.9250001
0.088 0.63800001 1.9250001
0.091666669 0.63800001 1.9250001
0.095333338 0.63800001 1.9250001
0.14194286 0.61745143 1.863
0.14471048 0.61413717 1.853
0.14824 0.61413717 1.853
0.15176953 0.61413717 1.853
0.15697524 0.62076575 1.8730001
0.15968572 0.61745143 1.863
0.16323429 0.61745143 1.863
0.16588762 0.61413717 1.853
0.17033143 0.61745143 1.863
0.17388001 0.61745143 1.863
0.17742857 0.61745143 1.863
0.18194857 0.62076575 1.8730001
0.18551619 0.62076575 1.8730001
0.18908381 0.62076575 1.8730001
0.19265144 0.62076575 1.8730001
0.2949543 0.72284573 2.181
0.29910859 0.72284573 2.181
0.3013162 0.71820575 2.1670001
0.30741715 0.72284573 2.181
0.30957144 0.71820575 2.1670001
0.31369907 0.71820575 2.1670001
0.31782669 0.71820575 2.1670001
-0.31253335 0.68366671 2.0510001
-0.30862668 0.68366671 2.0510001
-0.30472001 0.68366671 2.0510001
-0.30081335 0.68366671 2.0510001
-0.29516953 0.6796667 2.039
-0.29300001 0.68366671 2.0510001
-0.28909335 0.68366671 2.0510001
-0.28518668 0.68366671 2.0510001
-0.28128001 0.68366671 2.0510001
-0.27737334 0.68366671 2.0510001
-0.27346668 0.68366671 2.0510001
-0.26956001 0.68366671 2.0510001
-0.26565334 0.68366671 2.0510001
-0.26174667 0.68366671 2.0510001
-0.25784001 0.68366671 2.0510001
-0.25541905 0.68766671 2.0630002
-0.25002667 0.68366671 2.0510001
-0.24612001 0.68366671 2.0510001
-0.24221334 0.68366671 2.0510001
-0.23691238 0.6796667 2.039
-0.23302858 0.6796667 2.039
-0.22914477 0.6796667 2.039
-0.22526096 0.6796667 2.039
-0.2200743 0.67566669 2.0270002
-0.21621335 0.67566669 2.0270002
-0.21109524 0.67166668 2.0150001
-0.20849143 0.67566669 2.0270002
-0.20463048 0.67566669 2.0270002
-0.19958095 0.67166668 2.0150001
-0.19690858 0.67566669 2.0270002
-0.19304763 0.67566669 2.0270002
-0.18806668 0.67166668 2.0150001
-0.18422858 0.67166668 2.0150001
-0.18039048 0.67166668 2.0150001
-0.17655239 0.67166668 2.0150001
-0.17271429 0.67166668 2.0150001
-0.1688762 0.67166668 2.0150001
-0.16503809 0.67166668 2.0150001
-0.080302857 0.611 1.8330001
-0.076811433 0.611 1.8330001
-0.073320001 0.611 1.8330001
-0.069828577 0.611 1.8330001
-0.066337146 0.611 1.8330001
-0.063188575 0.61433333 1.8430001
-0.059678096 0.61433333 1.8430001
-0.055862859 0.611 1.8330001
-0.033 0.64166671 1.9250001
-0.029180953 0.63833338 1.9150001
-0.025533333 0.63833338 1.9150001
-0.021885715 0.63833338 1.9150001
-0.018438095 0.64533335 1.9360001
-0.014750477 0.64533335 1.9360001
-0.011062858 0.64533335 1.9360001
-0.0074171433 0.64900005 1.9470001
-0.0037295239 0.65266669 1.9580001
0 0.65266669 1.9580001
0.0037714287 0.66000003 1.9800001
0.0075885719 0.66400003 1.9920001
0.011382857 0.66400003 1.9920001
0.015177144 0.66400003 1.9920001
0.01897143 0.66400003 1.9920001
0.022765715 0.66400003 1.9920001
0.026560001 0.66400003 1.9920001
0.03017143 0.66000003 1.9800001
0.034148574 0.66400003 1.9920001
0.038152382 0.66766667 2.003
0.041737143 0.66400003 1.9920001
0.045531429 0.66400003 1.9920001
0.049028572 0.66000003 1.9800001
0.052800003 0.66000003 1.9800001
0.056571431 0.66000003 1.9800001
0.060007621 0.65633339 1.9690001
0.063401908 0.65266669 1.9580001
0.06713143 0.65266669 1.9580001
0.070860952 0.65266669 1.9580001
0.074590482 0.65266669 1.9580001
0.078320004 0.65266669 1.9580001
0.081588574 0.64900005 1.9470001
0.084333338 0.64166671 1.9250001
0.088 0.64166671 1.9250001
0.091666669 0.64166671 1.9250001
0.095333338 0.64166671 1.9250001
0.14270477 0.62433338 1.8730001
0.14549144 0.62100005 1.863
0.14904 0.62100005 1.863
0.15258858 0.62100005 1.863
0.15613715 0.62100005 1.863
0.15968572 0.62100005 1.863
0.16235811 0.61766666 1.853
0.16678286 0.62100005 1.863
0.17033143 0.62100005 1.863
0.17388001 0.62100005 1.863
0.17742857 0.62100005 1.863
0.18194857 0.62433338 1.8730001
0.18551619 0.62433338 1.8730001
0.19009334 0.62766671 1.8830001
0.19481143 0.63133335 1.8940001
0.19841905 0.63133335 1.8940001
0.29910859 0.727 2.181
0.30326286 0.727 2.181
0.30741715 0.727 2.181
0.31157145 0.727 2.181
0.31572571 0.727 2.181
0.31988001 0.727 2.181
0.3240343 0.727 2.181
-0.31829143 0.69159621 2.0630002
-0.31253335 0.68757337 2.0510001
-0.30862668 0.68757337 2.0510001
-0.30472001 0.68757337 2.0510001
-0.30081335 0.68757337 2.0510001
-0.29690668 0.68757337 2.0510001
-0.29300001 0.68757337 2.0510001
-0.28909335 0.68757337 2.0510001
-0.28518668 0.68757337 2.0510001
-0.28128001 0.68757337 2.0510001
-0.27737334 0.68757337 2.0510001
-0.27346668 0.68757337 2.0510001
-0.26798287 0.68355048 2.039
-0.26565334 0.68757337 2.0510001
-0.26021525 0.68355048 2.039
-0.25784001 0.68757337 2.0510001
-0.25393334 0.68757337 2.0510001
-0.25002667 0.68757337 2.0510001
-0.24612001 0.68757337 2.0510001
-0.24221334 0.68757337 2.0510001
-0.23830667 0.68757337 2.0510001
-0.2344 0.68757337 2.0510001
-0.23049334 0.68757337 2.0510001
-0.22526096 0.68355048 2.039
-0.22137715 0.68355048 2.039
-0.21749334 0.68355048 2.039
-0.21486667 0.68757337 2.0510001
-0.20849143 0.67952764 2.0270002
-0.20463048 0.67952764 2.0270002
-0.19958095 0.6755048 2.0150001
-0.19690858 0.67952764 2.0270002
-0.19304763 0.67952764 2.0270002
-0.18918668 0.67952764 2.0270002
-0.18422858 0.6755048 2.0150001
-0.18039048 0.6755048 2.0150001
-0.17655239 0.6755048 2.0150001
-0.085904762 0.60476953 1.8040001
-0.082468577 0.60476953 1.8040001
-0.079032384 0.60476953 1.8040001
-0.075596191 0.60476953 1.8040001
-0.071800001 0.6017524 1.7950001
-0.068380952 0.6017524 1.7950001
-0.06528762 0.60476953 1.8040001
-0.061851431 0.60476953 1.8040001
-0.058415242 0.60476953 1.8040001
-0.025533333 0.64198101 1.9150001
-0.021885715 0.64198101 1.9150001
0.0075885719 0.66779429 1.9920001
0.011382857 0.66779429 1.9920001
0.015177144 0.66779429 1.9920001
0.01897143 0.66779429 1.9920001
0.022765715 0.66779429 1.9920001
0.026560001 0.66779429 1.9920001
0.03017143 0.66377145 1.9800001
0.034148574 0.66779429 1.9920001
0.038152382 0.67148191 2.003
0.041737143 0.66779429 1.9920001
0.045531429 0.66779429 1.9920001
0.14270477 0.62790096 1.8730001
0.14549144 0.62454861 1.863
0.14904 0.62454861 1.863
0.15340762 0.62790096 1.8730001
0.15613715 0.62454861 1.863
0.15968572 0.62454861 1.863
0.16323429 0.62454861 1.863
0.17742857 0.62454861 1.863
0.18194857 0.62790096 1.8730001
0.18650667 0.63125336 1.8830001
0.19221334 0.63829339 1.904
0.19584 0.63829339 1.904
0.19946668 0.63829339 1.904
0.2949543 0.73115432 2.181
0.29910859 0.73115432 2.181
0.30326286 0.73115432 2.181
0.30741715 0.73115432 2.181
0.30957144 0.72646099 2.1670001
0.31369907 0.72646099 2.1670001
0.31577334 0.72176766 2.1530001
0.31987429 0.72176766 2.1530001
-0.31829143 0.69552577 2.0630002
-0.31436193 0.69552577 2.0630002
-0.30862668 0.69148004 2.0510001
-0.30472001 0.69148004 2.0510001
-0.30081335 0.69148004 2.0510001
-0.29690668 0.69148004 2.0510001
-0.29300001 0.69148004 2.0510001
-0.28909335 0.69148004 2.0510001
-0.28518668 0.69148004 2.0510001
-0.28128001 0.69148004 2.0510001
-0.27575049 0.68743432 2.039
-0.27186668 0.68743432 2.039
-0.26798287 0.68743432 2.039
-0.26565334 0.69148004 2.0510001
-0.26021525 0.68743432 2.039
-0.25784001 0.69148004 2.0510001
-0.25393334 0.69148004 2.0510001
-0.25002667 0.69148004 2.0510001
-0.24612001 0.69148004 2.0510001
-0.24221334 0.69148004 2.0510001
-0.23830667 0.69148004 2.0510001
-0.2344 0.69148004 2.0510001
-0.23049334 0.69148004 2.0510001
-0.22658667 0.69148004 2.0510001
-0.22268 0.69148004 2.0510001
-0.21877334 0.69148004 2.0510001
-0.20725715 0.67934287 2.0150001
-0.20341906 0.67934287 2.0150001
-0.19958095 0.67934287 2.0150001
-0.19574286 0.67934287 2.0150001
-0.19076191 0.67529714 2.003
-0.18694668 0.67529714 2.003
-0.18313144 0.67529714 2.003
-0.089340955 0.60820574 1.8040001
-0.085904762 0.60820574 1.8040001
-0.082468577 0.60820574 1.8040001
-0.079032384 0.60820574 1.8040001
-0.075596191 0.60820574 1.8040001
-0.071800001 0.60517144 1.7950001
-0.068380952 0.60517144 1.7950001
-0.06496191 0.60517144 1.7950001
-0.061542861 0.60517144 1.7950001
-0.058123812 0.60517144 1.7950001
0.13056001 0.64192003 1.904
0.13418667 0.64192003 1.904
0.14069715 0.63854861 1.8940001
0.14346667 0.63484001 1.8830001
0.14627239 0.63146859 1.8730001
0.15064001 0.63484001 1.8830001
0.15422668 0.63484001 1.8830001
0.15697524 0.63146859 1.8730001
0.16054286 0.63146859 1.8730001
0.16323429 0.62809718 1.863
0.16678286 0.62809718 1.863
0.30089143 0.73969144 2.194
0.30326286 0.73530859 2.181
0.30741715 0.73530859 2.181
0.30957144 0.73058861 2.1670001
0.31369907 0.73058861 2.1670001
0.31577334 0.72586858 2.1530001
0.31987429 0.72586858 2.1530001
-0.31829143 0.69945526 2.0630002
-0.31436193 0.69945526 2.0630002
-0.30862668 0.69538671 2.0510001
-0.30472001 0.69538671 2.0510001
-0.30081335 0.69538671 2.0510001
-0.29690668 0.69538671 2.0510001
-0.29300001 0.69538671 2.0510001
-0.28909335 0.69538671 2.0510001
-0.28518668 0.69538671 2.0510001
-0.28128001 0.69538671 2.0510001
-0.27737334 0.69538671 2.0510001
-0.27186668 0.69131809 2.039
-0.26798287 0.69131809 2.039
-0.26565334 0.69538671 2.0510001
-0.26174667 0.69538671 2.0510001
-0.25633144 0.69131809 2.039
-0.25393334 0.69538671 2.0510001
-0.25148952 0.69945526 2.0630002
-0.24612001 0.69538671 2.0510001
-0.24363048 0.69945526 2.0630002
-0.23970096 0.69945526 2.0630002
-0.23577143 0.69945526 2.0630002
-0.23184191 0.69945526 2.0630002
-0.20220762 0.67911243 2.003
-0.19839239 0.67911243 2.003
-0.19457714 0.67911243 2.003
-0.19076191 0.67911243 2.003
-0.092777148 0.61164194 1.8040001
-0.089340955 0.61164194 1.8040001
-0.085904762 0.61164194 1.8040001
-0.082468577 0.61164194 1.8040001
-0.079032384 0.61164194 1.8040001
-0.075596191 0.61164194 1.8040001
-0.072160006 0.61164194 1.8040001
-0.068380952 0.60859048 1.7950001
-0.06528762 0.61164194 1.8040001
-0.061851431 0.61164194 1.8040001
-0.058415242 0.61164194 1.8040001
-0.046379048 0.63503623 1.8730001
-0.042811431 0.63503623 1.8730001
-0.0037942859 0.67538285 1.9920001
0 0.67538285 1.9920001
0.0037942859 0.67538285 1.9920001
0.11968 0.64554667 1.904
0.12330667 0.64554667 1.904
0.12693334 0.64554667 1.904
0.13056001 0.64554667 1.904
0.13418667 0.64554667 1.904
0.13781334 0.64554667 1.904
0.14069715 0.64215624 1.8940001
0.14346667 0.63842666 1.8830001
0.14705335 0.63842666 1.8830001
0.15064001 0.63842666 1.8830001
0.15422668 0.63842666 1.8830001
0.15697524 0.63503623 1.8730001
0.16054286 0.63503623 1.8730001
0.16323429 0.63164574 1.863
0.16678286 0.63164574 1.863
0.30089143 0.7438705 2.194
0.30326286 0.73946291 2.181
0.30741715 0.73946291 2.181
0.30957144 0.73471624 2.1670001
0.31369907 0.73471624 2.1670001
0.31577334 0.72996956 2.1530001
0.31987429 0.72996956 2.1530001
0.32397524 0.72996956 2.1530001
0.32807621 0.72996956 2.1530001
-0.31829143 0.70338482 2.0630002
-0.31436193 0.70338482 2.0630002
-0.30682096 0.69520193 2.039
-0.30472001 0.69929338 2.0510001
-0.30081335 0.69929338 2.0510001
-0.29690668 0.69929338 2.0510001
-0.29300001 0.69929338 2.0510001
-0.28909335 0.69929338 2.0510001
-0.28518668 0.69929338 2.0510001
-0.28128001 0.69929338 2.0510001
-0.092777148 0.61507809 1.8040001
-0.089340955 0.61507809 1.8040001
