# .PCD v0.7 - Point Cloud Data file format
VERSION 0.7
FIELDS x y z
SIZE 4 4 4
TYPE F F F
COUNT 1 1 1
WIDTH 1505
HEIGHT 1
VIEWPOINT 0 0 0 1 0 0 0
POINTS 1505
DATA ascii
0.19901143 0.041897144 1.8330001
0.20250286 0.041897144 1.8330001
0.20599429 0.041897144 1.8330001
0.21062858 0.042125717 1.8430001
0.21413906 0.042125717 1.8430001
0.21764953 0.042125717 1.8430001
0.22116001 0.042125717 1.8430001
0.22467048 0.042125717 1.8430001
-0.11216572 0.054005716 2.181
-0.10801143 0.054005716 2.181
-0.10447619 0.054327622 2.194
-0.10093714 0.054674286 2.2080002
-0.096731432 0.054674286 2.2080002
-0.092525721 0.054674286 2.2080002
-0.088320002 0.054674286 2.2080002
-0.084114291 0.054674286 2.2080002
-0.079908572 0.054674286 2.2080002
-0.075702861 0.054674286 2.2080002
-0.071043812 0.054327622 2.194
-0.066864766 0.054327622 2.194
-0.062685713 0.054327622 2.194
-0.058160003 0.054005716 2.181
-0.054005716 0.054005716 2.181
-0.049851429 0.054005716 2.181
-0.045697145 0.054005716 2.181
-0.04127619 0.053659048 2.1670001
-0.037148573 0.053659048 2.1670001
-0.032807622 0.053312384 2.1530001
-0.028706668 0.053312384 2.1530001
-0.024605716 0.053312384 2.1530001
-0.020504763 0.053312384 2.1530001
-0.016510477 0.053659048 2.1670001
-0.012382858 0.053659048 2.1670001
-0.0083085718 0.054005716 2.181
-0.0041276193 0.053659048 2.1670001
0 0.053659048 2.1670001
0.0041009528 0.053312384 2.1530001
0.0082019055 0.053312384 2.1530001
0.012302858 0.053312384 2.1530001
0.016403811 0.053312384 2.1530001
0.020504763 0.053312384 2.1530001
0.024605716 0.053312384 2.1530001
0.028533334 0.052990478 2.1400001
0.032609526 0.052990478 2.1400001
0.036685716 0.052990478 2.1400001
0.040761907 0.052990478 2.1400001
0.044838097 0.052990478 2.1400001
0.048914287 0.052990478 2.1400001
0.052990478 0.052990478 2.1400001
0.056720003 0.052668575 2.1270001
0.060771432 0.052668575 2.1270001
0.06482286 0.052668575 2.1270001
0.068874285 0.052668575 2.1270001
0.072925717 0.052668575 2.1270001
0.076977149 0.052668575 2.1270001
0.081028573 0.052668575 2.1270001
0.085080005 0.052668575 2.1270001
0.08913143 0.052668575 2.1270001
0.091474287 0.051702861 2.0880001
0.10340572 0.051702861 2.0880001
0.10738286 0.051702861 2.0880001
0.12892 0.05078667 2.0510001
0.13282667 0.05078667 2.0510001
0.13673334 0.05078667 2.0510001
0.14064001 0.05078667 2.0510001
0.14370096 0.050489526 2.039
0.14758477 0.050489526 2.039
0.15146858 0.050489526 2.039
0.15443811 0.050192382 2.0270002
0.15642476 0.049598098 2.003
0.16024001 0.049598098 2.003
0.16315429 0.049325716 1.9920001
0.16594286 0.049028572 1.9800001
0.16971429 0.049028572 1.9800001
0.1725219 0.048756193 1.9690001
0.17725715 0.049028572 1.9800001
0.18102857 0.049028572 1.9800001
0.19552001 0.045388572 1.8330001
0.20009714 0.045636192 1.8430001
0.20360763 0.045636192 1.8430001
0.20711811 0.045636192 1.8430001
0.21062858 0.045636192 1.8430001
0.21530096 0.045883812 1.853
0.21764953 0.045636192 1.8430001
0.22116001 0.045636192 1.8430001
0.22467048 0.045636192 1.8430001
-0.11216572 0.058160003 2.181
-0.10865524 0.058506668 2.194
-0.10514286 0.058880001 2.2080002
-0.10093714 0.058880001 2.2080002
-0.096731432 0.058880001 2.2080002
-0.092525721 0.058880001 2.2080002
-0.088320002 0.058880001 2.2080002
-0.084114291 0.058880001 2.2080002
-0.079908572 0.058880001 2.2080002
-0.075222857 0.058506668 2.194
-0.071043812 0.058506668 2.194
-0.066864766 0.058506668 2.194
-0.06308572 0.058880001 2.2080002
-0.058160003 0.058160003 2.181
-0.054005716 0.058160003 2.181
-0.049851429 0.058160003 2.181
-0.045697145 0.058160003 2.181
-0.04127619 0.05778667 2.1670001
-0.037148573 0.05778667 2.1670001
-0.032807622 0.057413336 2.1530001
-0.028706668 0.057413336 2.1530001
-0.024605716 0.057413336 2.1530001
-0.020504763 0.057413336 2.1530001
-0.016510477 0.05778667 2.1670001
-0.012382858 0.05778667 2.1670001
-0.0082552386 0.05778667 2.1670001
-0.0041276193 0.05778667 2.1670001
0 0.05778667 2.1670001
0.0041009528 0.057413336 2.1530001
0.0082019055 0.057413336 2.1530001
0.012302858 0.057413336 2.1530001
0.016403811 0.057413336 2.1530001
0.020504763 0.057413336 2.1530001
0.024605716 0.057413336 2.1530001
0.028706668 0.057413336 2.1530001
0.032807622 0.057413336 2.1530001
0.036685716 0.057066668 2.1400001
0.040761907 0.057066668 2.1400001
0.044838097 0.057066668 2.1400001
0.048914287 0.057066668 2.1400001
0.052990478 0.057066668 2.1400001
0.056720003 0.056720003 2.1270001
0.060771432 0.056720003 2.1270001
0.064426668 0.056373335 2.1140001
0.068874285 0.056720003 2.1270001
0.072925717 0.056720003 2.1270001
0.076977149 0.056720003 2.1270001
0.081028573 0.056720003 2.1270001
0.085080005 0.056720003 2.1270001
0.08913143 0.056720003 2.1270001
0.12892 0.054693334 2.0510001
0.13282667 0.054693334 2.0510001
0.13673334 0.054693334 2.0510001
0.14064001 0.054693334 2.0510001
0.14370096 0.054373335 2.039
0.14758477 0.054373335 2.039
0.15146858 0.054373335 2.039
0.15443811 0.054053336 2.0270002
0.15736191 0.053733334 2.0150001
0.16024001 0.053413335 2.003
0.16315429 0.053120002 1.9920001
0.16694857 0.053120002 1.9920001
0.16971429 0.052800003 1.9800001
0.17348573 0.052800003 1.9800001
0.17725715 0.052800003 1.9800001
0.18102857 0.052800003 1.9800001
0.20118286 0.049413335 1.853
0.20471239 0.049413335 1.853
0.20824191 0.049413335 1.853
0.21062858 0.049146667 1.8430001
0.21413906 0.049146667 1.8430001
0.21883048 0.049413335 1.853
0.21996 0.048880003 1.8330001
0.22710858 0.049680002 1.863
0.23065715 0.049680002 1.863
-0.10865524 0.062685713 2.194
-0.10514286 0.06308572 2.2080002
-0.10093714 0.06308572 2.2080002
-0.096731432 0.06308572 2.2080002
-0.092525721 0.06308572 2.2080002
-0.088320002 0.06308572 2.2080002
-0.084114291 0.06308572 2.2080002
-0.079908572 0.06308572 2.2080002
-0.075702861 0.06308572 2.2080002
-0.071497142 0.06308572 2.2080002
-0.067291431 0.06308572 2.2080002
-0.06308572 0.06308572 2.2080002
-0.058506668 0.062685713 2.194
-0.054005716 0.062314287 2.181
-0.049851429 0.062314287 2.181
-0.045697145 0.062314287 2.181
-0.04127619 0.061914288 2.1670001
-0.037148573 0.061914288 2.1670001
-0.032807622 0.061514288 2.1530001
-0.028893335 0.061914288 2.1670001
-0.024765715 0.061914288 2.1670001
-0.020771429 0.062314287 2.181
-0.016510477 0.061914288 2.1670001
-0.012382858 0.061914288 2.1670001
-0.0082552386 0.061914288 2.1670001
-0.0041276193 0.061914288 2.1670001
0 0.061914288 2.1670001
0.0041009528 0.061514288 2.1530001
0.0082019055 0.061514288 2.1530001
0.012302858 0.061514288 2.1530001
0.016403811 0.061514288 2.1530001
0.020504763 0.061514288 2.1530001
0.024605716 0.061514288 2.1530001
0.028706668 0.061514288 2.1530001
0.032807622 0.061514288 2.1530001
0.036685716 0.061142858 2.1400001
0.040761907 0.061142858 2.1400001
0.044838097 0.061142858 2.1400001
0.048914287 0.061142858 2.1400001
0.052990478 0.061142858 2.1400001
0.056720003 0.060771432 2.1270001
0.060771432 0.060771432 2.1270001
0.06482286 0.060771432 2.1270001
0.068874285 0.060771432 2.1270001
0.072925717 0.060771432 2.1270001
0.12892 0.058600001 2.0510001
0.13360381 0.058942858 2.0630002
0.13753334 0.058942858 2.0630002
0.14064001 0.058600001 2.0510001
0.14454667 0.058600001 2.0510001
0.14758477 0.058257144 2.039
0.15146858 0.058257144 2.039
0.15443811 0.057914287 2.0270002
0.15642476 0.057228573 2.003
0.16024001 0.057228573 2.003
0.16315429 0.056914289 1.9920001
0.16594286 0.056571431 1.9800001
0.16971429 0.056571431 1.9800001
0.17348573 0.056571431 1.9800001
0.17725715 0.056571431 1.9800001
0.18102857 0.056571431 1.9800001
0.20118286 0.052942861 1.853
0.20471239 0.052942861 1.853
0.20824191 0.052942861 1.853
0.21062858 0.052657146 1.8430001
0.21413906 0.052657146 1.8430001
0.21764953 0.052657146 1.8430001
0.22116001 0.052657146 1.8430001
0.22588953 0.052942861 1.853
0.22941905 0.052942861 1.853
-0.10934857 0.067291431 2.2080002
-0.10514286 0.067291431 2.2080002
-0.10093714 0.067291431 2.2080002
-0.096731432 0.067291431 2.2080002
-0.092525721 0.067291431 2.2080002
-0.088320002 0.067291431 2.2080002
-0.084114291 0.067291431 2.2080002
-0.079908572 0.067291431 2.2080002
-0.075222857 0.066864766 2.194
-0.071497142 0.067291431 2.2080002
-0.066864766 0.066864766 2.194
-0.06308572 0.067291431 2.2080002
-0.058506668 0.066864766 2.194
-0.054005716 0.066468574 2.181
-0.049851429 0.066468574 2.181
-0.045969527 0.066864766 2.194
-0.041542858 0.066468574 2.181
-0.037388574 0.066468574 2.181
-0.033020955 0.066041909 2.1670001
-0.028893335 0.066041909 2.1670001
-0.024765715 0.066041909 2.1670001
-0.020638095 0.066041909 2.1670001
-0.016403811 0.065615244 2.1530001
-0.012302858 0.065615244 2.1530001
-0.0082552386 0.066041909 2.1670001
-0.0041276193 0.066041909 2.1670001
0 0.066041909 2.1670001
0.0041009528 0.065615244 2.1530001
0.0082019055 0.065615244 2.1530001
0.012302858 0.065615244 2.1530001
0.016403811 0.065615244 2.1530001
0.020504763 0.065615244 2.1530001
0.024605716 0.065615244 2.1530001
0.028706668 0.065615244 2.1530001
0.032807622 0.065615244 2.1530001
0.036908574 0.065615244 2.1530001
0.040761907 0.065219052 2.1400001
0.044838097 0.065219052 2.1400001
0.048914287 0.065219052 2.1400001
0.052990478 0.065219052 2.1400001
0.056720003 0.06482286 2.1270001
0.060771432 0.06482286 2.1270001
0.06482286 0.06482286 2.1270001
0.068874285 0.06482286 2.1270001
0.13360381 0.06287238 2.0630002
0.13673334 0.062506668 2.0510001
0.14064001 0.062506668 2.0510001
0.14454667 0.062506668 2.0510001
0.14758477 0.062140957 2.039
0.15146858 0.062140957 2.039
0.15642476 0.06104381 2.003
0.15936001 0.060708575 1.9920001
0.16217144 0.060342859 1.9800001
0.16594286 0.060342859 1.9800001
0.16971429 0.060342859 1.9800001
0.17348573 0.060342859 1.9800001
0.17833143 0.060708575 1.9920001
0.18212572 0.060708575 1.9920001
0.20226859 0.056777146 1.863
0.20581715 0.056777146 1.863
0.20824191 0.056472383 1.853
0.21177144 0.056472383 1.853
0.21413906 0.056167621 1.8430001
0.21883048 0.056472383 1.853
0.21996 0.055862859 1.8330001
0.22588953 0.056472383 1.853
0.22694287 0.055862859 1.8330001
0.2304343 0.055862859 1.8330001
-0.10865524 0.071043812 2.194
-0.10514286 0.071497142 2.2080002
-0.10093714 0.071497142 2.2080002
-0.096731432 0.071497142 2.2080002
-0.092525721 0.071497142 2.2080002
-0.088320002 0.071497142 2.2080002
-0.084114291 0.071497142 2.2080002
-0.079908572 0.071497142 2.2080002
-0.075222857 0.071043812 2.194
-0.071497142 0.071497142 2.2080002
-0.067291431 0.071497142 2.2080002
-0.06308572 0.071497142 2.2080002
-0.058506668 0.071043812 2.194
-0.054327622 0.071043812 2.194
-0.049851429 0.070622861 2.181
-0.045969527 0.071043812 2.194
-0.041542858 0.070622861 2.181
-0.037148573 0.070169523 2.1670001
-0.032807622 0.069716193 2.1530001
-0.028706668 0.069716193 2.1530001
-0.024605716 0.069716193 2.1530001
-0.020638095 0.070169523 2.1670001
-0.016403811 0.069716193 2.1530001
-0.012302858 0.069716193 2.1530001
-0.0082552386 0.070169523 2.1670001
-0.0041276193 0.070169523 2.1670001
0 0.070622861 2.181
0.0041009528 0.069716193 2.1530001
0.0082019055 0.069716193 2.1530001
0.012382858 0.070169523 2.1670001
0.016510477 0.070169523 2.1670001
0.020504763 0.069716193 2.1530001
0.024605716 0.069716193 2.1530001
0.028706668 0.069716193 2.1530001
0.032807622 0.069716193 2.1530001
0.036908574 0.069716193 2.1530001
0.041009527 0.069716193 2.1530001
0.045110479 0.069716193 2.1530001
0.048914287 0.069295242 2.1400001
0.052990478 0.069295242 2.1400001
0.056720003 0.068874285 2.1270001
0.060771432 0.068874285 2.1270001
0.06482286 0.068874285 2.1270001
0.14064001 0.066413336 2.0510001
0.15936001 0.064502858 1.9920001
0.16217144 0.064114287 1.9800001
0.16594286 0.064114287 1.9800001
0.16971429 0.064114287 1.9800001
0.17348573 0.064114287 1.9800001
0.17833143 0.064502858 1.9920001
0.18212572 0.064502858 1.9920001
0.19726667 0.060973335 1.8830001
0.19978668 0.060649525 1.8730001
0.2033543 0.060649525 1.8730001
0.20581715 0.060325716 1.863
0.20936573 0.060325716 1.863
0.21177144 0.060001906 1.853
0.21530096 0.060001906 1.853
0.21883048 0.060001906 1.853
0.21996 0.059354287 1.8330001
0.22345144 0.059354287 1.8330001
0.22694287 0.059354287 1.8330001
0.2304343 0.059354287 1.8330001
-0.10865524 0.075222857 2.194
-0.10514286 0.075702861 2.2080002
-0.10093714 0.075702861 2.2080002
-0.096731432 0.075702861 2.2080002
-0.092525721 0.075702861 2.2080002
-0.088320002 0.075702861 2.2080002
-0.084114291 0.075702861 2.2080002
-0.079908572 0.075702861 2.2080002
-0.075222857 0.075222857 2.194
-0.071497142 0.075702861 2.2080002
-0.066864766 0.075222857 2.194
-0.062685713 0.075222857 2.194
-0.058506668 0.075222857 2.194
-0.054327622 0.075222857 2.194
-0.049851429 0.074777149 2.181
-0.045969527 0.075222857 2.194
-0.041542858 0.074777149 2.181
-0.037148573 0.074297145 2.1670001
-0.032807622 0.073817149 2.1530001
-0.028706668 0.073817149 2.1530001
-0.024605716 0.073817149 2.1530001
-0.020504763 0.073817149 2.1530001
-0.016403811 0.073817149 2.1530001
-0.012302858 0.073817149 2.1530001
-0.0082552386 0.074297145 2.1670001
-0.0041542859 0.074777149 2.181
0 0.074777149 2.181
0.0041542859 0.074777149 2.181
0.0083085718 0.074777149 2.181
0.012382858 0.074297145 2.1670001
0.016510477 0.074297145 2.1670001
0.020638095 0.074297145 2.1670001
0.024605716 0.073817149 2.1530001
0.028706668 0.073817149 2.1530001
0.032807622 0.073817149 2.1530001
0.036685716 0.073371433 2.1400001
0.040761907 0.073371433 2.1400001
0.044838097 0.073371433 2.1400001
0.048914287 0.073371433 2.1400001
0.052990478 0.073371433 2.1400001
0.057066668 0.073371433 2.1400001
0.061142858 0.073371433 2.1400001
0.19368 0.064560004 1.8830001
0.19726667 0.064560004 1.8830001
0.19978668 0.064217143 1.8730001
0.2033543 0.064217143 1.8730001
0.20581715 0.063874289 1.863
0.20936573 0.063874289 1.863
0.21177144 0.063531429 1.853
0.21413906 0.063188575 1.8430001
0.21764953 0.063188575 1.8430001
0.21996 0.062845714 1.8330001
0.22345144 0.062845714 1.8330001
0.22694287 0.062845714 1.8330001
0.2304343 0.062845714 1.8330001
-0.10585715 0.080451429 2.223
-0.10093714 0.079908572 2.2080002
-0.096731432 0.079908572 2.2080002
-0.092525721 0.079908572 2.2080002
-0.088320002 0.079908572 2.2080002
-0.084114291 0.079908572 2.2080002
-0.079908572 0.079908572 2.2080002
-0.075702861 0.079908572 2.2080002
-0.071497142 0.079908572 2.2080002
-0.066864766 0.07940191 2.194
-0.06308572 0.079908572 2.2080002
-0.058506668 0.07940191 2.194
-0.054005716 0.078931428 2.181
-0.049851429 0.078931428 2.181
-0.045697145 0.078931428 2.181
-0.041542858 0.078931428 2.181
-0.037148573 0.078424767 2.1670001
-0.032807622 0.077918097 2.1530001
-0.028706668 0.077918097 2.1530001
-0.024605716 0.077918097 2.1530001
-0.020504763 0.077918097 2.1530001
-0.016403811 0.077918097 2.1530001
-0.012302858 0.077918097 2.1530001
-0.0082552386 0.078424767 2.1670001
-0.0041542859 0.078931428 2.181
0 0.078931428 2.181
0.0041542859 0.078931428 2.181
0.0082552386 0.078424767 2.1670001
0.012382858 0.078424767 2.1670001
0.016403811 0.077918097 2.1530001
0.020504763 0.077918097 2.1530001
0.024605716 0.077918097 2.1530001
0.028533334 0.077447623 2.1400001
0.032609526 0.077447623 2.1400001
0.036685716 0.077447623 2.1400001
0.19368 0.068146668 1.8830001
0.19621906 0.067784764 1.8730001
0.19978668 0.067784764 1.8730001
0.2033543 0.067784764 1.8730001
0.20581715 0.067422859 1.863
0.20936573 0.067422859 1.863
0.21177144 0.067060955 1.853
0.21530096 0.067060955 1.853
0.21883048 0.067060955 1.853
0.21996 0.066337146 1.8330001
0.22345144 0.066337146 1.8330001
0.22694287 0.066337146 1.8330001
-0.10585715 0.084685721 2.223
-0.10093714 0.084114291 2.2080002
-0.096731432 0.084114291 2.2080002
-0.092525721 0.084114291 2.2080002
-0.088320002 0.084114291 2.2080002
-0.084114291 0.084114291 2.2080002
-0.079908572 0.084114291 2.2080002
-0.075702861 0.084114291 2.2080002
-0.071497142 0.084114291 2.2080002
-0.066864766 0.083580956 2.194
-0.062685713 0.083580956 2.194
-0.058506668 0.083580956 2.194
-0.054005716 0.083085716 2.181
-0.049851429 0.083085716 2.181
-0.045403812 0.082552381 2.1670001
-0.04127619 0.082552381 2.1670001
-0.037148573 0.082552381 2.1670001
-0.032807622 0.082019053 2.1530001
-0.028706668 0.082019053 2.1530001
-0.024605716 0.082019053 2.1530001
-0.020504763 0.082019053 2.1530001
-0.016403811 0.082019053 2.1530001
-0.012302858 0.082019053 2.1530001
-0.0082552386 0.082552381 2.1670001
-0.0041276193 0.082552381 2.1670001
0 0.083085716 2.181
0.0041276193 0.082552381 2.1670001
0.0082552386 0.082552381 2.1670001
0.012302858 0.082019053 2.1530001
0.016403811 0.082019053 2.1530001
0.020380953 0.081523813 2.1400001
0.024457144 0.081523813 2.1400001
0.028533334 0.081523813 2.1400001
0.032609526 0.081523813 2.1400001
0.19481143 0.072152384 1.8940001
0.19621906 0.071352385 1.8730001
0.19978668 0.071352385 1.8730001
0.2033543 0.071352385 1.8730001
0.20581715 0.070971429 1.863
0.20936573 0.070971429 1.863
0.21177144 0.070590481 1.853
0.21530096 0.070590481 1.853
0.21883048 0.070590481 1.853
0.22116001 0.070209526 1.8430001
0.22467048 0.070209526 1.8430001
0.23065715 0.070971429 1.863
0.23672001 0.071733333 1.8830001
0.24030668 0.071733333 1.8830001
-0.10514286 0.088320002 2.2080002
-0.10093714 0.088320002 2.2080002
-0.096731432 0.088320002 2.2080002
-0.092525721 0.088320002 2.2080002
-0.088320002 0.088320002 2.2080002
-0.084114291 0.088320002 2.2080002
-0.079908572 0.088320002 2.2080002
-0.075702861 0.088320002 2.2080002
-0.071497142 0.088320002 2.2080002
-0.066864766 0.087760001 2.194
-0.062685713 0.087760001 2.194
-0.058506668 0.087760001 2.194
-0.054005716 0.087240003 2.181
-0.049851429 0.087240003 2.181
-0.045697145 0.087240003 2.181
-0.04127619 0.086680003 2.1670001
-0.037148573 0.086680003 2.1670001
-0.032807622 0.086120002 2.1530001
-0.028706668 0.086120002 2.1530001
-0.024605716 0.086120002 2.1530001
-0.020504763 0.086120002 2.1530001
-0.016403811 0.086120002 2.1530001
-0.012302858 0.086120002 2.1530001
-0.0082552386 0.086680003 2.1670001
-0.0041276193 0.086680003 2.1670001
0 0.086680003 2.1670001
0.0041009528 0.086120002 2.1530001
0.0082019055 0.086120002 2.1530001
0.012302858 0.086120002 2.1530001
0.016304763 0.085600004 2.1400001
0.020380953 0.085600004 2.1400001
0.024308572 0.085080005 2.1270001
0.028360002 0.085080005 2.1270001
0.032609526 0.085600004 2.1400001
0.19481143 0.075759999 1.8940001
0.19621906 0.074920006 1.8730001
0.19978668 0.074920006 1.8730001
0.2033543 0.074920006 1.8730001
0.20581715 0.074519999 1.863
0.20936573 0.074519999 1.863
0.21177144 0.07412 1.853
0.21530096 0.07412 1.853
0.21883048 0.07412 1.853
0.22116001 0.073720001 1.8430001
0.22467048 0.073720001 1.8430001
0.22941905 0.07412 1.853
0.23546286 0.074920006 1.8730001
0.23903048 0.074920006 1.8730001
-0.10514286 0.092525721 2.2080002
-0.10093714 0.092525721 2.2080002
-0.097388573 0.093154289 2.223
-0.092525721 0.092525721 2.2080002
-0.088320002 0.092525721 2.2080002
-0.084114291 0.092525721 2.2080002
-0.079908572 0.092525721 2.2080002
-0.075702861 0.092525721 2.2080002
-0.071043812 0.091939054 2.194
-0.066864766 0.091939054 2.194
-0.062685713 0.091939054 2.194
-0.058506668 0.091939054 2.194
-0.054005716 0.09139429 2.181
-0.049851429 0.09139429 2.181
-0.045697145 0.09139429 2.181
-0.041542858 0.09139429 2.181
-0.037388574 0.09139429 2.181
-0.032807622 0.090220958 2.1530001
-0.028706668 0.090220958 2.1530001
-0.024605716 0.090220958 2.1530001
-0.020504763 0.090220958 2.1530001
-0.016403811 0.090220958 2.1530001
-0.012382858 0.090807624 2.1670001
-0.0082019055 0.090220958 2.1530001
-0.0041009528 0.090220958 2.1530001
0 0.090807624 2.1670001
0.0041009528 0.090220958 2.1530001
0.0082019055 0.090220958 2.1530001
0.012302858 0.090220958 2.1530001
0.016205715 0.08913143 2.1270001
0.020257143 0.08913143 2.1270001
0.024308572 0.08913143 2.1270001
0.19621906 0.07848762 1.8730001
0.19978668 0.07848762 1.8730001
0.2033543 0.07848762 1.8730001
0.20581715 0.078068577 1.863
0.20936573 0.078068577 1.863
0.21291429 0.078068577 1.863
0.21646287 0.078068577 1.863
0.21883048 0.077649526 1.853
0.22116001 0.077230476 1.8430001
0.22467048 0.077230476 1.8430001
0.22818096 0.077230476 1.8430001
0.23546286 0.07848762 1.8730001
0.23903048 0.07848762 1.8730001
0.2425981 0.07848762 1.8730001
0.24616572 0.07848762 1.8730001
-0.10585715 0.097388573 2.223
-0.10162286 0.097388573 2.223
-0.097388573 0.097388573 2.223
-0.093154289 0.097388573 2.223
-0.088320002 0.096731432 2.2080002
-0.084114291 0.096731432 2.2080002
-0.079908572 0.096731432 2.2080002
-0.075702861 0.096731432 2.2080002
-0.071043812 0.0961181 2.194
-0.066864766 0.0961181 2.194
-0.062685713 0.0961181 2.194
-0.058506668 0.0961181 2.194
-0.054005716 0.095548578 2.181
-0.04953143 0.094935238 2.1670001
-0.045403812 0.094935238 2.1670001
-0.041542858 0.095548578 2.181
-0.037388574 0.095548578 2.181
-0.033020955 0.094935238 2.1670001
-0.028706668 0.094321907 2.1530001
-0.024605716 0.094321907 2.1530001
-0.020504763 0.094321907 2.1530001
-0.016510477 0.094935238 2.1670001
-0.012302858 0.094321907 2.1530001
-0.0082019055 0.094321907 2.1530001
-0.0041009528 0.094321907 2.1530001
0 0.094321907 2.1530001
0.0041009528 0.094321907 2.1530001
0.0081523815 0.093752384 2.1400001
0.012228572 0.093752384 2.1400001
0.016304763 0.093752384 2.1400001
0.020257143 0.093182862 2.1270001
0.19621906 0.082055241 1.8730001
0.19978668 0.082055241 1.8730001
0.2033543 0.082055241 1.8730001
0.20581715 0.081617147 1.863
0.20936573 0.081617147 1.863
0.21177144 0.081179053 1.853
0.21530096 0.081179053 1.853
0.21883048 0.081179053 1.853
0.22116001 0.080740958 1.8430001
0.22345144 0.080302857 1.8330001
0.22694287 0.080302857 1.8330001
0.23546286 0.082055241 1.8730001
0.23903048 0.082055241 1.8730001
0.2425981 0.082055241 1.8730001
0.24616572 0.082055241 1.8730001
-0.10585715 0.10162286 2.223
-0.10162286 0.10162286 2.223
-0.097388573 0.10162286 2.223
-0.093154289 0.10162286 2.223
-0.088920005 0.10162286 2.223
-0.084114291 0.10093714 2.2080002
-0.079908572 0.10093714 2.2080002
-0.075702861 0.10093714 2.2080002
-0.071043812 0.10029715 2.194
-0.066864766 0.10029715 2.194
-0.062685713 0.10029715 2.194
-0.058160003 0.099702857 2.181
-0.053659048 0.09906286 2.1670001
-0.04953143 0.09906286 2.1670001
-0.045403812 0.09906286 2.1670001
-0.04127619 0.09906286 2.1670001
-0.037148573 0.09906286 2.1670001
-0.032807622 0.098422863 2.1530001
-0.028706668 0.098422863 2.1530001
-0.024605716 0.098422863 2.1530001
-0.020638095 0.09906286 2.1670001
-0.016510477 0.09906286 2.1670001
-0.012302858 0.098422863 2.1530001
-0.0082019055 0.098422863 2.1530001
-0.0041009528 0.098422863 2.1530001
0 0.098422863 2.1530001
0.0040761908 0.097828574 2.1400001
0.0081523815 0.097828574 2.1400001
0.012228572 0.097828574 2.1400001
0.016304763 0.097828574 2.1400001
0.19978668 0.085622862 1.8730001
0.20226859 0.085165717 1.863
0.20581715 0.085165717 1.863
0.20936573 0.085165717 1.863
0.21291429 0.085165717 1.863
0.21646287 0.085165717 1.863
0.21883048 0.084708571 1.853
0.22116001 0.084251434 1.8430001
0.22467048 0.084251434 1.8430001
0.22818096 0.084251434 1.8430001
0.2304343 0.083794288 1.8330001
0.24030668 0.08608 1.8830001
0.24389334 0.08608 1.8830001
0.24748001 0.08608 1.8830001
-0.10585715 0.10585715 2.223
-0.10162286 0.10585715 2.223
-0.097388573 0.10585715 2.223
-0.093154289 0.10585715 2.223
-0.088920005 0.10585715 2.223
-0.084685721 0.10585715 2.223
-0.079908572 0.10514286 2.2080002
-0.075702861 0.10514286 2.2080002
-0.071497142 0.10514286 2.2080002
-0.066864766 0.10447619 2.194
-0.062685713 0.10447619 2.194
-0.058506668 0.10447619 2.194
-0.054005716 0.10385714 2.181
-0.04953143 0.10319048 2.1670001
-0.045403812 0.10319048 2.1670001
-0.04127619 0.10319048 2.1670001
-0.037148573 0.10319048 2.1670001
-0.032807622 0.10252381 2.1530001
-0.028706668 0.10252381 2.1530001
-0.024605716 0.10252381 2.1530001
-0.020504763 0.10252381 2.1530001
-0.016403811 0.10252381 2.1530001
-0.012302858 0.10252381 2.1530001
-0.0082019055 0.10252381 2.1530001
-0.0041009528 0.10252381 2.1530001
0 0.10252381 2.1530001
0.0041009528 0.10252381 2.1530001
0.0081523815 0.10190476 2.1400001
0.20226859 0.088714287 1.863
0.20581715 0.088714287 1.863
0.20936573 0.088714287 1.863
0.21291429 0.088714287 1.863
0.21646287 0.088714287 1.863
0.22001144 0.088714287 1.863
0.22236001 0.088238098 1.853
0.22467048 0.087761909 1.8430001
0.22818096 0.087761909 1.8430001
0.23169143 0.087761909 1.8430001
0.23520191 0.087761909 1.8430001
0.2453181 0.090190478 1.8940001
0.24892573 0.090190478 1.8940001
-0.10162286 0.11009143 2.223
-0.098001905 0.11078477 2.237
-0.093740955 0.11078477 2.237
-0.088920005 0.11009143 2.223
-0.084685721 0.11009143 2.223
-0.080451429 0.11009143 2.223
-0.075702861 0.10934857 2.2080002
-0.071497142 0.10934857 2.2080002
-0.066864766 0.10865524 2.194
-0.062685713 0.10865524 2.194
-0.058506668 0.10865524 2.194
-0.054005716 0.10801143 2.181
-0.04953143 0.1073181 2.1670001
-0.045403812 0.1073181 2.1670001
-0.04127619 0.1073181 2.1670001
-0.037148573 0.1073181 2.1670001
-0.033020955 0.1073181 2.1670001
-0.028706668 0.10662477 2.1530001
-0.024605716 0.10662477 2.1530001
-0.020638095 0.1073181 2.1670001
-0.016510477 0.1073181 2.1670001
-0.012382858 0.1073181 2.1670001
-0.0082019055 0.10662477 2.1530001
-0.0041009528 0.10662477 2.1530001
0 0.10598096 2.1400001
0.0040761908 0.10598096 2.1400001
0.20226859 0.092262864 1.863
0.20581715 0.092262864 1.863
0.20936573 0.092262864 1.863
0.21291429 0.092262864 1.863
0.21646287 0.092262864 1.863
0.22001144 0.092262864 1.863
0.22236001 0.091767624 1.853
0.22588953 0.091767624 1.853
0.22818096 0.091272384 1.8430001
0.23169143 0.091272384 1.8430001
0.23520191 0.091272384 1.8430001
0.2453181 0.093798101 1.8940001
0.24892573 0.093798101 1.8940001
-0.098001905 0.11504572 2.237
-0.093740955 0.11504572 2.237
-0.088920005 0.11432572 2.223
-0.084685721 0.11432572 2.223
-0.080451429 0.11432572 2.223
-0.075702861 0.11355429 2.2080002
-0.071497142 0.11355429 2.2080002
-0.067291431 0.11355429 2.2080002
-0.062685713 0.11283429 2.194
-0.058506668 0.11283429 2.194
-0.054005716 0.11216572 2.181
-0.049851429 0.11216572 2.181
-0.045697145 0.11216572 2.181
-0.041542858 0.11216572 2.181
-0.037388574 0.11216572 2.181
-0.033020955 0.11144572 2.1670001
-0.028893335 0.11144572 2.1670001
-0.024605716 0.11072572 2.1530001
-0.020638095 0.11144572 2.1670001
-0.016510477 0.11144572 2.1670001
-0.012382858 0.11144572 2.1670001
0.2033543 0.096325718 1.8730001
0.20581715 0.095811434 1.863
0.20936573 0.095811434 1.863
0.21291429 0.095811434 1.863
0.21646287 0.095811434 1.863
0.22001144 0.095811434 1.863
0.22236001 0.095297143 1.853
0.22588953 0.095297143 1.853
0.22818096 0.094782859 1.8430001
0.23169143 0.094782859 1.8430001
0.23520191 0.094782859 1.8430001
-0.093740955 0.11930667 2.237
-0.088920005 0.11856 2.223
-0.084685721 0.11856 2.223
-0.080451429 0.11856 2.223
-0.076217145 0.11856 2.223
-0.071497142 0.11776 2.2080002
-0.067291431 0.11776 2.2080002
-0.06308572 0.11776 2.2080002
-0.058506668 0.11701334 2.194
-0.054327622 0.11701334 2.194
-0.050148573 0.11701334 2.194
-0.045697145 0.11632001 2.181
-0.041542858 0.11632001 2.181
-0.037388574 0.11632001 2.181
-0.033020955 0.11557334 2.1670001
-0.028893335 0.11557334 2.1670001
0.2033543 0.099893339 1.8730001
0.20581715 0.099360004 1.863
0.21048953 0.099893339 1.8730001
0.21291429 0.099360004 1.863
0.21646287 0.099360004 1.863
0.22001144 0.099360004 1.863
0.22236001 0.098826669 1.853
0.22588953 0.098826669 1.853
0.22818096 0.098293334 1.8430001
0.23294859 0.098826669 1.853
0.2377543 0.099360004 1.863
0.24130286 0.099360004 1.863
-0.093740955 0.12356763 2.237
-0.089480005 0.12356763 2.237
-0.084685721 0.12279429 2.223
-0.080451429 0.12279429 2.223
-0.076217145 0.12279429 2.223
-0.071982861 0.12279429 2.223
-0.067291431 0.12196572 2.2080002
-0.06308572 0.12196572 2.2080002
-0.058880001 0.12196572 2.2080002
-0.054327622 0.12119239 2.194
-0.050148573 0.12119239 2.194
-0.041542858 0.12047429 2.181
-0.037388574 0.12047429 2.181
0.20692191 0.10346095 1.8730001
0.21048953 0.10346095 1.8730001
0.21405715 0.10346095 1.8730001
0.21646287 0.10290857 1.863
0.22001144 0.10290857 1.863
0.22236001 0.1023562 1.853
0.22588953 0.1023562 1.853
0.23065715 0.10290857 1.863
0.23420572 0.10290857 1.863
0.2377543 0.10290857 1.863
0.24130286 0.10290857 1.863
0.24485144 0.10290857 1.863
-0.089480005 0.12782858 2.237
-0.084685721 0.12702857 2.223
-0.080451429 0.12702857 2.223
-0.076217145 0.12702857 2.223
-0.071982861 0.12702857 2.223
-0.067291431 0.12617144 2.2080002
-0.06308572 0.12617144 2.2080002
-0.058880001 0.12617144 2.2080002
-0.054674286 0.12617144 2.2080002
-0.050468571 0.12617144 2.2080002
0.20581715 0.10645714 1.863
0.21048953 0.10702857 1.8730001
0.21405715 0.10702857 1.8730001
0.21646287 0.10645714 1.863
0.22001144 0.10645714 1.863
0.22236001 0.10588572 1.853
0.22710858 0.10645714 1.863
0.23065715 0.10645714 1.863
0.23420572 0.10645714 1.863
0.23903048 0.10702857 1.8730001
0.2425981 0.10702857 1.8730001
0.24616572 0.10702857 1.8730001
0.24973334 0.10702857 1.8730001
-0.089480005 0.13208953 2.237
-0.085219048 0.13208953 2.237
-0.080958098 0.13208953 2.237
-0.076697148 0.13208953 2.237
-0.072436191 0.13208953 2.237
-0.067748576 0.13126287 2.223
-0.06308572 0.13037714 2.2080002
-0.058880001 0.13037714 2.2080002
-0.054674286 0.13037714 2.2080002
-0.050468571 0.13037714 2.2080002
0.20581715 0.11000572 1.863
0.21048953 0.11059619 1.8730001
0.21405715 0.11059619 1.8730001
0.21646287 0.11000572 1.863
0.22001144 0.11000572 1.863
0.22236001 0.10941524 1.853
0.22710858 0.11000572 1.863
0.23065715 0.11000572 1.863
0.23420572 0.11000572 1.863
0.2377543 0.11000572 1.863
0.24130286 0.11000572 1.863
0.24616572 0.11059619 1.8730001
0.24973334 0.11059619 1.8730001
-0.09008 0.13726477 2.2520001
-0.085790478 0.13726477 2.2520001
-0.080958098 0.13635048 2.237
-0.076697148 0.13635048 2.237
-0.072436191 0.13635048 2.237
-0.067748576 0.13549715 2.223
-0.063514285 0.13549715 2.223
-0.058880001 0.13458286 2.2080002
-0.054674286 0.13458286 2.2080002
-0.050468571 0.13458286 2.2080002
0.21161334 0.11477334 1.8830001
0.21405715 0.11416382 1.8730001
0.21762477 0.11416382 1.8730001
0.22001144 0.11355429 1.863
0.22356001 0.11355429 1.863
0.22710858 0.11355429 1.863
0.23065715 0.11355429 1.863
0.23420572 0.11355429 1.863
0.2377543 0.11355429 1.863
0.24130286 0.11355429 1.863
0.24485144 0.11355429 1.863
0.2484 0.11355429 1.863
0.2519486 0.11355429 1.863
-0.09008 0.1415543 2.2520001
-0.085790478 0.1415543 2.2520001
-0.080958098 0.14061144 2.237
-0.076697148 0.14061144 2.237
-0.072436191 0.14061144 2.237
-0.068175241 0.14061144 2.237
-0.063914292 0.14061144 2.237
-0.059653334 0.14061144 2.237
-0.055392385 0.14061144 2.237
0.21161334 0.11836001 1.8830001
0.21405715 0.11773143 1.8730001
0.21762477 0.11773143 1.8730001
0.22119239 0.11773143 1.8730001
0.22356001 0.11710286 1.863
0.22710858 0.11710286 1.863
0.23065715 0.11710286 1.863
0.23420572 0.11710286 1.863
0.2377543 0.11710286 1.863
0.24130286 0.11710286 1.863
0.24485144 0.11710286 1.863
0.2484 0.11710286 1.863
0.2519486 0.11710286 1.863
-0.090640001 0.14675048 2.266
-0.085790478 0.14584382 2.2520001
-0.080958098 0.14487238 2.237
-0.076697148 0.14487238 2.237
-0.072436191 0.14487238 2.237
-0.068175241 0.14487238 2.237
-0.063914292 0.14487238 2.237
-0.059280001 0.14396572 2.223
-0.055392385 0.14487238 2.237
-0.051131431 0.14487238 2.237
0.21405715 0.12129905 1.8730001
0.21762477 0.12129905 1.8730001
0.22001144 0.12065143 1.863
0.22356001 0.12065143 1.863
0.22710858 0.12065143 1.863
0.23065715 0.12065143 1.863
0.23420572 0.12065143 1.863
0.2377543 0.12065143 1.863
0.24130286 0.12065143 1.863
0.24485144 0.12065143 1.863
0.2484 0.12065143 1.863
0.2519486 0.12065143 1.863
-0.090640001 0.15106668 2.266
-0.084685721 0.14820001 2.223
-0.080958098 0.14913334 2.237
-0.076697148 0.14913334 2.237
-0.071982861 0.14820001 2.223
-0.068175241 0.14913334 2.237
-0.063514285 0.14820001 2.223
-0.059280001 0.14820001 2.223
-0.055045716 0.14820001 2.223
-0.050811432 0.14820001 2.223
0.21405715 0.12486667 1.8730001
0.21762477 0.12486667 1.8730001
0.22119239 0.12486667 1.8730001
0.22356001 0.1242 1.863
0.22710858 0.1242 1.863
0.23065715 0.1242 1.863
0.23420572 0.1242 1.863
0.2377543 0.1242 1.863
0.24130286 0.1242 1.863
0.24485144 0.1242 1.863
0.24706668 0.12353334 1.853
0.2505962 0.12353334 1.853
-0.084685721 0.15243429 2.223
-0.080451429 0.15243429 2.223
-0.076217145 0.15243429 2.223
-0.071982861 0.15243429 2.223
-0.067748576 0.15243429 2.223
-0.06308572 0.15140572 2.2080002
-0.059280001 0.15243429 2.223
-0.055045716 0.15243429 2.223
-0.050811432 0.15243429 2.223
0.044838097 0.14674287 2.1400001
0.048914287 0.14674287 2.1400001
0.21405715 0.12843429 1.8730001
0.21762477 0.12843429 1.8730001
0.22119239 0.12843429 1.8730001
0.22356001 0.12774858 1.863
0.22710858 0.12774858 1.863
0.23065715 0.12774858 1.863
0.23420572 0.12774858 1.863
0.2377543 0.12774858 1.863
0.24000762 0.12706286 1.853
0.24353716 0.12706286 1.853
0.24706668 0.12706286 1.853
0.2505962 0.12706286 1.853
-0.083085716 0.15370858 2.181
-0.078931428 0.15370858 2.181
-0.074777149 0.15370858 2.181
-0.071497142 0.15561144 2.2080002
-0.067291431 0.15561144 2.2080002
-0.06308572 0.15561144 2.2080002
-0.058880001 0.15561144 2.2080002
-0.054674286 0.15561144 2.2080002
-0.050468571 0.15561144 2.2080002
0.040514287 0.14990287 2.1270001
0.044838097 0.15081905 2.1400001
0.048914287 0.15081905 2.1400001
0.052990478 0.15081905 2.1400001
0.057066668 0.15081905 2.1400001
0.061142858 0.15081905 2.1400001
0.21762477 0.13200191 1.8730001
0.22119239 0.13200191 1.8730001
0.22356001 0.13129714 1.863
0.22710858 0.13129714 1.863
0.23065715 0.13129714 1.863
0.23420572 0.13129714 1.863
0.2377543 0.13129714 1.863
0.24130286 0.13129714 1.863
0.24485144 0.13129714 1.863
0.24706668 0.13059239 1.853
0.2505962 0.13059239 1.853
-0.083085716 0.15786286 2.181
-0.078931428 0.15786286 2.181
-0.074777149 0.15786286 2.181
-0.070622861 0.15786286 2.181
-0.066468574 0.15786286 2.181
-0.062685713 0.15880382 2.194
-0.058506668 0.15880382 2.194
-0.054327622 0.15880382 2.194
-0.050148573 0.15880382 2.194
-0.045969527 0.15880382 2.194
0.032213334 0.15301333 2.1140001
0.03624 0.15301333 2.1140001
0.040514287 0.1539543 2.1270001
0.044565715 0.1539543 2.1270001
0.048617143 0.1539543 2.1270001
0.052668575 0.1539543 2.1270001
0.056720003 0.1539543 2.1270001
0.060400002 0.15301333 2.1140001
0.064426668 0.15301333 2.1140001
0.068453334 0.15301333 2.1140001
0.22119239 0.13556953 1.8730001
0.22356001 0.13484572 1.863
0.22710858 0.13484572 1.863
0.23065715 0.13484572 1.863
0.23420572 0.13484572 1.863
0.2377543 0.13484572 1.863
0.24000762 0.13412191 1.853
0.24353716 0.13412191 1.853
0.24706668 0.13412191 1.853
0.2505962 0.13412191 1.853
-0.095548578 0.16201715 2.181
-0.090807624 0.16097715 2.1670001
-0.086680003 0.16097715 2.1670001
-0.083085716 0.16201715 2.181
-0.078931428 0.16201715 2.181
-0.074777149 0.16201715 2.181
-0.070622861 0.16201715 2.181
-0.066864766 0.16298287 2.194
-0.062685713 0.16298287 2.194
-0.058506668 0.16298287 2.194
-0.054327622 0.16298287 2.194
-0.050148573 0.16298287 2.194
-0.045969527 0.16298287 2.194
0.028360002 0.15800571 2.1270001
0.032213334 0.15704 2.1140001
0.03624 0.15704 2.1140001
0.040514287 0.15800571 2.1270001
0.044565715 0.15800571 2.1270001
0.048320003 0.15704 2.1140001
0.052668575 0.15800571 2.1270001
0.056373335 0.15704 2.1140001
0.060400002 0.15704 2.1140001
0.064426668 0.15704 2.1140001
0.068453334 0.15704 2.1140001
0.22119239 0.13913715 1.8730001
0.22476001 0.13913715 1.8730001
0.22832763 0.13913715 1.8730001
0.23065715 0.1383943 1.863
0.23420572 0.1383943 1.863
0.2377543 0.1383943 1.863
0.24130286 0.1383943 1.863
0.24353716 0.13765143 1.853
0.2484 0.1383943 1.863
0.2519486 0.1383943 1.863
-0.094321907 0.16403811 2.1530001
-0.090807624 0.16510476 2.1670001
-0.086680003 0.16510476 2.1670001
-0.082552381 0.16510476 2.1670001
-0.078424767 0.16510476 2.1670001
-0.074297145 0.16510476 2.1670001
-0.070169523 0.16510476 2.1670001
-0.066468574 0.16617143 2.181
-0.062685713 0.16716191 2.194
-0.058506668 0.16716191 2.194
-0.054327622 0.16716191 2.194
-0.050468571 0.16822858 2.2080002
-0.045969527 0.16716191 2.194
-0.041790478 0.16716191 2.194
-0.03785143 0.16822858 2.2080002
-0.033645716 0.16822858 2.2080002
-0.016304763 0.16304763 2.1400001
-0.012228572 0.16304763 2.1400001
-0.0081028575 0.16205715 2.1270001
-0.0040514288 0.16205715 2.1270001
0 0.16304763 2.1400001
0.0040761908 0.16304763 2.1400001
0.016106667 0.16106667 2.1140001
0.020133333 0.16106667 2.1140001
0.024160001 0.16106667 2.1140001
0.028360002 0.16205715 2.1270001
0.032213334 0.16106667 2.1140001
0.03624 0.16106667 2.1140001
0.040266667 0.16106667 2.1140001
0.044293337 0.16106667 2.1140001
0.048022859 0.1600762 2.1010001
0.052024763 0.1600762 2.1010001
0.056026667 0.1600762 2.1010001
0.060028575 0.1600762 2.1010001
0.064030476 0.1600762 2.1010001
0.22476001 0.14270477 1.8730001
0.22954668 0.14346667 1.8830001
0.23313335 0.14346667 1.8830001
0.23672001 0.14346667 1.8830001
0.23903048 0.14270477 1.8730001
0.24130286 0.14194286 1.863
0.24485144 0.14194286 1.863
0.2484 0.14194286 1.863
0.2519486 0.14194286 1.863
-0.09906286 0.16923238 2.1670001
-0.094935238 0.16923238 2.1670001
-0.090220958 0.16813906 2.1530001
-0.086680003 0.16923238 2.1670001
-0.082552381 0.16923238 2.1670001
-0.078424767 0.16923238 2.1670001
-0.074297145 0.16923238 2.1670001
-0.070169523 0.16923238 2.1670001
-0.066468574 0.17032573 2.181
-0.062314287 0.17032573 2.181
-0.058506668 0.17134096 2.194
-0.054327622 0.17134096 2.194
-0.050148573 0.17134096 2.194
-0.045969527 0.17134096 2.194
-0.041790478 0.17134096 2.194
-0.037611429 0.17134096 2.194
-0.033234287 0.17032573 2.181
-0.028706668 0.16813906 2.1530001
-0.024605716 0.16813906 2.1530001
-0.020504763 0.16813906 2.1530001
-0.016403811 0.16813906 2.1530001
-0.012228572 0.16712381 2.1400001
-0.0081523815 0.16712381 2.1400001
-0.0040761908 0.16712381 2.1400001
0 0.16712381 2.1400001
0.0040761908 0.16712381 2.1400001
0.012080001 0.16509333 2.1140001
0.016106667 0.16509333 2.1140001
0.020133333 0.16509333 2.1140001
0.024160001 0.16509333 2.1140001
0.028186668 0.16509333 2.1140001
0.032213334 0.16509333 2.1140001
0.036017146 0.1640781 2.1010001
0.04001905 0.1640781 2.1010001
0.044020955 0.1640781 2.1010001
0.048022859 0.1640781 2.1010001
0.052024763 0.1640781 2.1010001
0.056026667 0.1640781 2.1010001
0.060028575 0.1640781 2.1010001
0.064030476 0.1640781 2.1010001
0.068032384 0.1640781 2.1010001
0.072034292 0.1640781 2.1010001
0.23210667 0.14869334 1.904
0.23573335 0.14869334 1.904
0.23936 0.14869334 1.904
0.23903048 0.14627239 1.8730001
0.2425981 0.14627239 1.8730001
0.24485144 0.14549144 1.863
0.2484 0.14549144 1.863
0.2519486 0.14549144 1.863
-0.098422863 0.17224 2.1530001
-0.094321907 0.17224 2.1530001
-0.090220958 0.17224 2.1530001
-0.086120002 0.17224 2.1530001
-0.082552381 0.17336001 2.1670001
-0.078424767 0.17336001 2.1670001
-0.074297145 0.17336001 2.1670001
-0.070169523 0.17336001 2.1670001
-0.066041909 0.17336001 2.1670001
-0.062314287 0.17448001 2.181
-0.058506668 0.17552 2.194
-0.054327622 0.17552 2.194
-0.050148573 0.17552 2.194
-0.04626286 0.17664 2.2080002
-0.041790478 0.17552 2.194
-0.037611429 0.17552 2.194
-0.033020955 0.17336001 2.1670001
-0.028706668 0.17224 2.1530001
-0.024605716 0.17224 2.1530001
-0.020504763 0.17224 2.1530001
-0.016403811 0.17224 2.1530001
-0.012228572 0.17120001 2.1400001
-0.0081523815 0.17120001 2.1400001
-0.0040761908 0.17120001 2.1400001
0 0.17120001 2.1400001
0.0040761908 0.17120001 2.1400001
0.0080533335 0.16912 2.1140001
0.012005715 0.16808 2.1010001
0.016106667 0.16912 2.1140001
0.020133333 0.16912 2.1140001
0.024160001 0.16912 2.1140001
0.028186668 0.16912 2.1140001
0.032213334 0.16912 2.1140001
0.036017146 0.16808 2.1010001
0.04001905 0.16808 2.1010001
0.044020955 0.16808 2.1010001
0.047725715 0.16704001 2.0880001
0.052024763 0.16808 2.1010001
0.055680003 0.16704001 2.0880001
0.059657145 0.16704001 2.0880001
0.063634291 0.16704001 2.0880001
0.067611434 0.16704001 2.0880001
0.071588576 0.16704001 2.0880001
0.075565718 0.16704001 2.0880001
0.23210667 0.15232001 1.904
0.23573335 0.15232001 1.904
0.23936 0.15232001 1.904
0.24030668 0.15064001 1.8830001
0.2425981 0.14984001 1.8730001
0.24485144 0.14904 1.863
0.2484 0.14904 1.863
0.2505962 0.14824 1.853
0.25412571 0.14824 1.853
-0.098422863 0.17634095 2.1530001
-0.094321907 0.17634095 2.1530001
-0.090220958 0.17634095 2.1530001
-0.086120002 0.17634095 2.1530001
-0.082019053 0.17634095 2.1530001
-0.077918097 0.17634095 2.1530001
-0.074297145 0.17748763 2.1670001
-0.070169523 0.17748763 2.1670001
-0.066041909 0.17748763 2.1670001
-0.061914288 0.17748763 2.1670001
-0.058160003 0.17863429 2.181
-0.054005716 0.17863429 2.181
-0.050468571 0.18084572 2.2080002
-0.045969527 0.17969905 2.194
-0.041790478 0.17969905 2.194
-0.037388574 0.17863429 2.181
-0.033020955 0.17748763 2.1670001
-0.028706668 0.17634095 2.1530001
-0.024765715 0.17748763 2.1670001
-0.020504763 0.17634095 2.1530001
-0.016403811 0.17634095 2.1530001
-0.012302858 0.17634095 2.1530001
-0.0081523815 0.17527619 2.1400001
-0.0040761908 0.17527619 2.1400001
0 0.17527619 2.1400001
0.0040514288 0.17421143 2.1270001
0.0080533335 0.17314668 2.1140001
0.012005715 0.17208192 2.1010001
0.016007619 0.17208192 2.1010001
0.020009525 0.17208192 2.1010001
0.024160001 0.17314668 2.1140001
0.028013334 0.17208192 2.1010001
0.032015238 0.17208192 2.1010001
0.036017146 0.17208192 2.1010001
0.04001905 0.17208192 2.1010001
0.044020955 0.17208192 2.1010001
0.047451429 0.17003429 2.0760002
0.051405717 0.17003429 2.0760002
0.055360001 0.17003429 2.0760002
0.059314288 0.17003429 2.0760002
0.063268572 0.17003429 2.0760002
0.067611434 0.17101716 2.0880001
0.071588576 0.17101716 2.0880001
0.075565718 0.17101716 2.0880001
0.23344763 0.15684763 1.9150001
0.23573335 0.15594667 1.904
0.23936 0.15594667 1.904
0.24030668 0.15422668 1.8830001
0.2425981 0.15340762 1.8730001
0.24616572 0.15340762 1.8730001
0.24973334 0.15340762 1.8730001
0.2519486 0.15258858 1.863
0.25549716 0.15258858 1.863
-0.098422863 0.18044192 2.1530001
-0.094321907 0.18044192 2.1530001
-0.090220958 0.18044192 2.1530001
-0.086120002 0.18044192 2.1530001
-0.082019053 0.18044192 2.1530001
-0.078424767 0.18161525 2.1670001
-0.074297145 0.18161525 2.1670001
-0.070169523 0.18161525 2.1670001
-0.066041909 0.18161525 2.1670001
-0.062314287 0.18278858 2.181
-0.058160003 0.18278858 2.181
-0.054327622 0.18387811 2.194
-0.050148573 0.18387811 2.194
-0.045969527 0.18387811 2.194
-0.041790478 0.18387811 2.194
-0.037388574 0.18278858 2.181
-0.033020955 0.18161525 2.1670001
-0.028706668 0.18044192 2.1530001
-0.024605716 0.18044192 2.1530001
-0.020504763 0.18044192 2.1530001
-0.016304763 0.17935239 2.1400001
-0.012154286 0.17826286 2.1270001
-0.0081028575 0.17826286 2.1270001
-0.0040761908 0.17935239 2.1400001
0 0.17935239 2.1400001
0.0040514288 0.17826286 2.1270001
0.0080533335 0.17717335 2.1140001
0.012005715 0.17608382 2.1010001
0.016007619 0.17608382 2.1010001
0.020133333 0.17717335 2.1140001
0.024160001 0.17717335 2.1140001
0.028013334 0.17608382 2.1010001
0.032015238 0.17608382 2.1010001
0.036017146 0.17608382 2.1010001
0.04001905 0.17608382 2.1010001
0.043748572 0.17499429 2.0880001
0.047451429 0.17398858 2.0760002
0.051083811 0.17289905 2.0630002
0.055013336 0.17289905 2.0630002
0.059314288 0.17398858 2.0760002
0.063268572 0.17398858 2.0760002
0.067222856 0.17398858 2.0760002
0.071177147 0.17398858 2.0760002
0.075565718 0.17499429 2.0880001
0.23210667 0.15957335 1.904
0.23573335 0.15957335 1.904
0.23936 0.15957335 1.904
0.24030668 0.15781334 1.8830001
0.2425981 0.15697524 1.8730001
0.24616572 0.15697524 1.8730001
0.24973334 0.15697524 1.8730001
0.25330096 0.15697524 1.8730001
0.25686857 0.15697524 1.8730001
-0.098422863 0.18454286 2.1530001
-0.094321907 0.18454286 2.1530001
-0.090220958 0.18454286 2.1530001
-0.086120002 0.18454286 2.1530001
-0.082019053 0.18454286 2.1530001
-0.077918097 0.18454286 2.1530001
-0.073817149 0.18454286 2.1530001
-0.070169523 0.18574287 2.1670001
-0.066041909 0.18574287 2.1670001
-0.062314287 0.18694286 2.181
-0.058160003 0.18694286 2.181
-0.054005716 0.18694286 2.181
-0.050468571 0.18925714 2.2080002
-0.045969527 0.18805715 2.194
-0.041542858 0.18694286 2.181
-0.037388574 0.18694286 2.181
-0.032807622 0.18454286 2.1530001
-0.028706668 0.18454286 2.1530001
-0.024457144 0.18342859 2.1400001
-0.020380953 0.18342859 2.1400001
-0.016205715 0.18231429 2.1270001
-0.012080001 0.18120001 2.1140001
-0.0081028575 0.18231429 2.1270001
-0.0040761908 0.18342859 2.1400001
0 0.18231429 2.1270001
0.0040266667 0.18120001 2.1140001
0.0080038095 0.18008572 2.1010001
0.011931429 0.17897144 2.0880001
0.015908573 0.17897144 2.0880001
0.019885715 0.17897144 2.0880001
0.024308572 0.18231429 2.1270001
0.028186668 0.18120001 2.1140001
0.032015238 0.18008572 2.1010001
0.036017146 0.18008572 2.1010001
0.04001905 0.18008572 2.1010001
0.043748572 0.17897144 2.0880001
0.047451429 0.17794286 2.0760002
0.051083811 0.17682858 2.0630002
0.055013336 0.17682858 2.0630002
0.059314288 0.17794286 2.0760002
0.063268572 0.17794286 2.0760002
0.067222856 0.17794286 2.0760002
0.071177147 0.17794286 2.0760002
0.22848001 0.16320001 1.904
0.23210667 0.16320001 1.904
0.23573335 0.16320001 1.904
0.23936 0.16320001 1.904
0.24171048 0.16234286 1.8940001
0.2453181 0.16234286 1.8940001
0.24485144 0.15968572 1.863
0.2484 0.15968572 1.863
0.2519486 0.15968572 1.863
0.25549716 0.15968572 1.863
-0.098422863 0.18864381 2.1530001
-0.094321907 0.18864381 2.1530001
-0.090220958 0.18864381 2.1530001
-0.086120002 0.18864381 2.1530001
-0.082019053 0.18864381 2.1530001
-0.077918097 0.18864381 2.1530001
-0.073817149 0.18864381 2.1530001
-0.058160003 0.19109716 2.181
-0.054005716 0.19109716 2.181
-0.049851429 0.19109716 2.181
-0.045697145 0.19109716 2.181
-0.041542858 0.19109716 2.181
-0.037148573 0.18987048 2.1670001
-0.032807622 0.18864381 2.1530001
-0.028533334 0.18750477 2.1400001
-0.024457144 0.18750477 2.1400001
-0.020257143 0.18636572 2.1270001
-0.016106667 0.18522668 2.1140001
-0.012080001 0.18522668 2.1140001
-0.0080533335 0.18522668 2.1140001
-0.0040514288 0.18636572 2.1270001
0 0.18636572 2.1270001
0.0040266667 0.18522668 2.1140001
0.0080038095 0.18408762 2.1010001
0.011931429 0.18294857 2.0880001
0.015908573 0.18294857 2.0880001
0.019771429 0.18189715 2.0760002
0.023725715 0.18189715 2.0760002
0.027346667 0.17970668 2.0510001
0.032015238 0.18408762 2.1010001
0.036017146 0.18408762 2.1010001
0.04001905 0.18408762 2.1010001
0.14041905 0.16148192 1.8430001
0.14392953 0.16148192 1.8430001
0.15258858 0.16323429 1.863
0.15613715 0.16323429 1.863
0.15968572 0.16323429 1.863
0.22494477 0.16963048 1.9360001
0.22615239 0.16779049 1.9150001
0.22848001 0.16682667 1.904
0.23210667 0.16682667 1.904
0.23573335 0.16682667 1.904
0.23936 0.16682667 1.904
0.24171048 0.16595048 1.8940001
0.2453181 0.16595048 1.8940001
0.24485144 0.16323429 1.863
0.2484 0.16323429 1.863
0.2519486 0.16323429 1.863
0.25549716 0.16323429 1.863
-0.094321907 0.19274476 2.1530001
-0.090220958 0.19274476 2.1530001
-0.086120002 0.19274476 2.1530001
-0.082019053 0.19274476 2.1530001
-0.077918097 0.19274476 2.1530001
-0.049851429 0.19525144 2.181
-0.045697145 0.19525144 2.181
-0.041542858 0.19525144 2.181
-0.037148573 0.1939981 2.1670001
-0.032807622 0.19274476 2.1530001
-0.028360002 0.19041716 2.1270001
-0.024308572 0.19041716 2.1270001
-0.020133333 0.18925335 2.1140001
-0.016106667 0.18925335 2.1140001
-0.012005715 0.18808953 2.1010001
-0.0080533335 0.18925335 2.1140001
-0.0040514288 0.19041716 2.1270001
0 0.19041716 2.1270001
0.0040019047 0.18808953 2.1010001
0.0079542864 0.18692572 2.0880001
0.011862857 0.18585144 2.0760002
0.015908573 0.18692572 2.0880001
0.019771429 0.18585144 2.0760002
0.024308572 0.19041716 2.1270001
0.028360002 0.19041716 2.1270001
0.032213334 0.18925335 2.1140001
0.03624 0.18925335 2.1140001
0.04001905 0.18808953 2.1010001
0.1333981 0.16499239 1.8430001
0.13690858 0.16499239 1.8430001
0.14118096 0.16588762 1.853
0.14471048 0.16588762 1.853
0.14904 0.16678286 1.863
0.15258858 0.16678286 1.863
0.15613715 0.16678286 1.863
0.16054286 0.1676781 1.8730001
0.16411048 0.1676781 1.8730001
0.1676781 0.1676781 1.8730001
0.17124572 0.1676781 1.8730001
0.17481335 0.1676781 1.8730001
