# .PCD v0.7 - Point Cloud Data file format
VERSION 0.7
FIELDS x y z
SIZE 4 4 4
TYPE F F F
COUNT 1 1 1
WIDTH 1493
HEIGHT 1
VIEWPOINT 0 0 0 1 0 0 0
POINTS 1493
DATA ascii
0.018857144 0.59965718 1.9800001
0.022628572 0.59965718 1.9800001
0.026400002 0.59965718 1.9800001
0.030354287 0.60329145 1.9920001
0.03394286 0.59965718 1.9800001
0.037714288 0.59965718 1.9800001
0.041485716 0.59965718 1.9800001
0.045531429 0.60329145 1.9920001
0.049028572 0.59965718 1.9800001
0.052800003 0.59965718 1.9800001
0.056571431 0.59965718 1.9800001
0.060708575 0.60329145 1.9920001
0.065247625 0.61025715 2.0150001
0.069085717 0.61025715 2.0150001
0.073358096 0.61389142 2.0270002
0.077219054 0.61389142 2.0270002
0.081080005 0.61389142 2.0270002
0.0844381 0.61025715 2.0150001
0.088276193 0.61025715 2.0150001
0.091565721 0.60662287 2.003
0.091666669 0.583 1.9250001
0.094838098 0.57997143 1.9150001
0.098485716 0.57997143 1.9150001
0.10213333 0.57997143 1.9150001
0.10578096 0.57997143 1.9150001
0.10942858 0.57997143 1.9150001
0.1130762 0.57997143 1.9150001
0.11672381 0.57997143 1.9150001
0.12037143 0.57997143 1.9150001
0.12466667 0.583 1.9250001
0.12833335 0.583 1.9250001
-0.1172 0.6250667 2.0510001
-0.11329333 0.6250667 2.0510001
-0.10938667 0.6250667 2.0510001
-0.097095244 0.62140954 2.039
-0.092114292 0.61409527 2.0150001
-0.088276193 0.61409527 2.0150001
-0.0844381 0.61409527 2.0150001
-0.080120005 0.61043811 2.003
-0.076304764 0.61043811 2.003
-0.07248953 0.61043811 2.003
-0.068674289 0.61043811 2.003
-0.057721905 0.57721907 1.8940001
-0.054114286 0.57721907 1.8940001
-0.05050667 0.57721907 1.8940001
-0.04689905 0.57721907 1.8940001
-0.043291431 0.57721907 1.8940001
-0.039683811 0.57721907 1.8940001
-0.036076192 0.57721907 1.8940001
-0.032468572 0.57721907 1.8940001
-0.028860953 0.57721907 1.8940001
-0.026866667 0.61409527 2.0150001
-0.02289143 0.61043811 2.003
-0.01897143 0.60708576 1.9920001
-0.015085715 0.6034286 1.9800001
-0.011314286 0.6034286 1.9800001
-0.0075428574 0.6034286 1.9800001
-0.0037714287 0.6034286 1.9800001
0 0.6034286 1.9800001
0.0037714287 0.6034286 1.9800001
0.0075428574 0.6034286 1.9800001
0.011251429 0.6000762 1.9690001
0.015001905 0.6000762 1.9690001
0.018752381 0.6000762 1.9690001
0.022502858 0.6000762 1.9690001
0.026253335 0.6000762 1.9690001
0.03017143 0.6034286 1.9800001
0.03394286 0.6034286 1.9800001
0.037714288 0.6034286 1.9800001
0.041485716 0.6034286 1.9800001
0.045257144 0.6034286 1.9800001
0.049028572 0.6034286 1.9800001
0.052800003 0.6034286 1.9800001
0.056257144 0.6000762 1.9690001
0.060342859 0.6034286 1.9800001
0.064859048 0.61043811 2.003
0.069497146 0.61775243 2.0270002
0.073358096 0.61775243 2.0270002
0.077219054 0.61775243 2.0270002
0.080600001 0.61409527 2.0150001
0.0844381 0.61409527 2.0150001
0.088801906 0.61775243 2.0270002
0.091565721 0.61043811 2.003
0.09119048 0.58361906 1.9150001
0.094838098 0.58361906 1.9150001
0.098485716 0.58361906 1.9150001
0.10213333 0.58361906 1.9150001
0.10578096 0.58361906 1.9150001
0.10942858 0.58361906 1.9150001
0.1130762 0.58361906 1.9150001
0.11672381 0.58361906 1.9150001
0.12037143 0.58361906 1.9150001
0.12401905 0.58361906 1.9150001
0.12693334 0.58026671 1.904
0.13056001 0.58026671 1.904
-0.12741144 0.62161338 2.0270002
-0.12355048 0.62161338 2.0270002
-0.1203981 0.62529337 2.039
-0.11651429 0.62529337 2.039
-0.11263048 0.62529337 2.039
-0.10810667 0.62161338 2.0270002
-0.10486286 0.62529337 2.039
-0.10097905 0.62529337 2.039
-0.097095244 0.62529337 2.039
-0.092662863 0.62161338 2.0270002
-0.088276193 0.61793333 2.0150001
-0.0844381 0.61793333 2.0150001
-0.081080005 0.62161338 2.0270002
-0.076761909 0.61793333 2.0150001
-0.072923809 0.61793333 2.0150001
-0.069085717 0.61793333 2.0150001
-0.061329525 0.5808267 1.8940001
-0.057721905 0.5808267 1.8940001
-0.053800002 0.57745337 1.8830001
-0.05050667 0.5808267 1.8940001
-0.046626668 0.57745337 1.8830001
-0.04304 0.57745337 1.8830001
-0.039453335 0.57745337 1.8830001
-0.035676192 0.57438672 1.8730001
-0.032108571 0.57438672 1.8730001
-0.028540954 0.57438672 1.8730001
-0.026560001 0.61088002 1.9920001
-0.022765715 0.61088002 1.9920001
-0.01897143 0.61088002 1.9920001
-0.015085715 0.60720003 1.9800001
-0.011251429 0.6038267 1.9690001
-0.0075009526 0.6038267 1.9690001
-0.0037714287 0.60720003 1.9800001
0 0.60720003 1.9800001
0.0037504763 0.6038267 1.9690001
0.0075009526 0.6038267 1.9690001
0.011188572 0.60045338 1.9580001
0.014918095 0.60045338 1.9580001
0.01864762 0.60045338 1.9580001
0.022377145 0.60045338 1.9580001
0.026106667 0.60045338 1.9580001
0.029836191 0.60045338 1.9580001
0.033754285 0.6038267 1.9690001
0.037714288 0.60720003 1.9800001
0.041485716 0.60720003 1.9800001
0.045257144 0.60720003 1.9800001
0.048756193 0.6038267 1.9690001
0.052800003 0.60720003 1.9800001
0.056257144 0.6038267 1.9690001
0.060007621 0.6038267 1.9690001
0.064114287 0.60720003 1.9800001
0.068674289 0.61425334 2.003
0.072923809 0.61793333 2.0150001
0.076304764 0.61425334 2.003
0.080120005 0.61425334 2.003
0.083935238 0.61425334 2.003
0.088276193 0.61793333 2.0150001
0.092114292 0.61793333 2.0150001
0.095380954 0.61425334 2.003
0.095333338 0.59033334 1.9250001
0.099000007 0.59033334 1.9250001
0.10266667 0.59033334 1.9250001
0.10633334 0.59033334 1.9250001
0.11000001 0.59033334 1.9250001
0.1130762 0.58726668 1.9150001
0.11672381 0.58726668 1.9150001
0.12037143 0.58726668 1.9150001
0.12401905 0.58726668 1.9150001
0.12693334 0.58389336 1.904
0.13056001 0.58389336 1.904
0.13418667 0.58389336 1.904
-0.1297181 0.61806858 2.003
-0.12665714 0.62177145 2.0150001
-0.12281905 0.62177145 2.0150001
-0.11968953 0.62547433 2.0270002
-0.11582857 0.62547433 2.0270002
-0.11263048 0.62917715 2.039
-0.10874667 0.62917715 2.039
-0.10486286 0.62917715 2.039
-0.10097905 0.62917715 2.039
-0.097095244 0.62917715 2.039
-0.092662863 0.62547433 2.0270002
-0.088276193 0.62177145 2.0150001
-0.084940955 0.62547433 2.0270002
-0.080600001 0.62177145 2.0150001
-0.076304764 0.61806858 2.003
-0.07248953 0.61806858 2.003
-0.064560004 0.58104002 1.8830001
-0.060973335 0.58104002 1.8830001
-0.05738667 0.58104002 1.8830001
-0.053514287 0.57795429 1.8730001
-0.049946669 0.57795429 1.8730001
-0.046379048 0.57795429 1.8730001
-0.042811431 0.57795429 1.8730001
-0.03924381 0.57795429 1.8730001
-0.035676192 0.57795429 1.8730001
-0.032108571 0.57795429 1.8730001
-0.028540954 0.57795429 1.8730001
-0.026560001 0.61467433 1.9920001
-0.022765715 0.61467433 1.9920001
-0.018857144 0.61097145 1.9800001
-0.015085715 0.61097145 1.9800001
-0.011251429 0.60757715 1.9690001
-0.0075428574 0.61097145 1.9800001
-0.0037714287 0.61097145 1.9800001
0 0.61097145 1.9800001
0.0037504763 0.60757715 1.9690001
0.0075009526 0.60757715 1.9690001
0.011188572 0.6041829 1.9580001
0.014918095 0.6041829 1.9580001
0.01864762 0.6041829 1.9580001
0.022377145 0.6041829 1.9580001
0.026106667 0.6041829 1.9580001
0.029836191 0.6041829 1.9580001
0.033754285 0.60757715 1.9690001
0.037504762 0.60757715 1.9690001
0.041485716 0.61097145 1.9800001
0.045257144 0.61097145 1.9800001
0.048756193 0.60757715 1.9690001
0.052800003 0.61097145 1.9800001
0.056257144 0.60757715 1.9690001
0.059672382 0.6041829 1.9580001
0.063758098 0.60757715 1.9690001
0.067508571 0.60757715 1.9690001
0.071657144 0.61097145 1.9800001
0.075885721 0.61467433 1.9920001
0.079680003 0.61467433 1.9920001
0.083935238 0.61806858 2.003
0.08775048 0.61806858 2.003
0.092114292 0.62177145 2.0150001
0.095952384 0.62177145 2.0150001
0.099790476 0.62177145 2.0150001
0.099565715 0.59739429 1.9360001
0.10325333 0.59739429 1.9360001
0.10694095 0.59739429 1.9360001
0.11000001 0.59400004 1.9250001
0.1130762 0.59091431 1.9150001
0.11672381 0.59091431 1.9150001
0.12037143 0.59091431 1.9150001
0.12401905 0.59091431 1.9150001
0.12693334 0.58752 1.904
0.13056001 0.58752 1.904
0.13270667 0.58104002 1.8830001
0.13629334 0.58104002 1.8830001
0.13988 0.58104002 1.8830001
-0.16111048 0.64051241 2.0630002
-0.15626667 0.6367867 2.0510001
-0.14968573 0.62560952 2.0150001
-0.14584762 0.62560952 2.0150001
-0.14200953 0.62560952 2.0150001
-0.13817143 0.62560952 2.0150001
-0.13433334 0.62560952 2.0150001
-0.13049525 0.62560952 2.0150001
-0.12741144 0.62933528 2.0270002
-0.12355048 0.62933528 2.0270002
-0.11968953 0.62933528 2.0270002
-0.11651429 0.63306099 2.039
-0.11263048 0.63306099 2.039
-0.10746667 0.62560952 2.0150001
-0.10362858 0.62560952 2.0150001
-0.10038476 0.62933528 2.0270002
-0.096523814 0.62933528 2.0270002
-0.092662863 0.62933528 2.0270002
-0.088276193 0.62560952 2.0150001
-0.0844381 0.62560952 2.0150001
-0.080600001 0.62560952 2.0150001
-0.076304764 0.62188381 2.003
-0.068544768 0.5880419 1.8940001
-0.064560004 0.58462667 1.8830001
-0.060973335 0.58462667 1.8830001
-0.05738667 0.58462667 1.8830001
-0.053514287 0.58152193 1.8730001
-0.049946669 0.58152193 1.8730001
-0.046379048 0.58152193 1.8730001
-0.042582858 0.57841718 1.863
-0.03924381 0.58152193 1.8730001
-0.035676192 0.58152193 1.8730001
-0.032108571 0.58152193 1.8730001
-0.028540954 0.58152193 1.8730001
-0.026560001 0.61846858 1.9920001
-0.022765715 0.61846858 1.9920001
-0.018857144 0.61474288 1.9800001
-0.015085715 0.61474288 1.9800001
-0.011314286 0.61474288 1.9800001
-0.0075428574 0.61474288 1.9800001
-0.0037714287 0.61474288 1.9800001
0 0.61474288 1.9800001
0.0037714287 0.61474288 1.9800001
0.0074590477 0.60791242 1.9580001
0.011188572 0.60791242 1.9580001
0.014918095 0.60791242 1.9580001
0.01864762 0.60791242 1.9580001
0.022377145 0.60791242 1.9580001
0.026106667 0.60791242 1.9580001
0.029836191 0.60791242 1.9580001
0.033754285 0.61132765 1.9690001
0.037714288 0.61474288 1.9800001
0.041485716 0.61474288 1.9800001
0.045257144 0.61474288 1.9800001
0.048756193 0.61132765 1.9690001
0.05250667 0.61132765 1.9690001
0.05594286 0.60791242 1.9580001
0.059672382 0.60791242 1.9580001
0.063401908 0.60791242 1.9580001
0.06713143 0.60791242 1.9580001
0.070860952 0.60791242 1.9580001
0.074590482 0.60791242 1.9580001
0.078760006 0.61132765 1.9690001
0.082510479 0.61132765 1.9690001
0.086260952 0.61132765 1.9690001
0.092114292 0.62560952 2.0150001
0.095952384 0.62560952 2.0150001
0.099196196 0.62188381 2.003
0.10301143 0.62188381 2.003
0.10325333 0.60108191 1.9360001
0.10694095 0.60108191 1.9360001
0.11000001 0.59766668 1.9250001
0.11366667 0.59766668 1.9250001
0.11672381 0.59456193 1.9150001
0.12037143 0.59456193 1.9150001
0.12401905 0.59456193 1.9150001
0.12693334 0.59114671 1.904
0.13056001 0.59114671 1.904
0.1334819 0.5880419 1.8940001
0.13708954 0.5880419 1.8940001
0.13988 0.58462667 1.8830001
0.14346667 0.58462667 1.8830001
-0.16408001 0.64069337 2.0510001
-0.16017334 0.64069337 2.0510001
-0.15535238 0.63694477 2.039
-0.14968573 0.62944764 2.0150001
-0.14671619 0.63319623 2.0270002
-0.14200953 0.62944764 2.0150001
-0.13817143 0.62944764 2.0150001
-0.13513334 0.63319623 2.0270002
-0.13049525 0.62944764 2.0150001
-0.12665714 0.62944764 2.0150001
-0.12281905 0.62944764 2.0150001
-0.11968953 0.63319623 2.0270002
-0.11582857 0.63319623 2.0270002
-0.11263048 0.63694477 2.039
-0.10746667 0.62944764 2.0150001
-0.10424571 0.63319623 2.0270002
-0.10038476 0.63319623 2.0270002
-0.096523814 0.63319623 2.0270002
-0.092114292 0.62944764 2.0150001
-0.088276193 0.62944764 2.0150001
-0.0844381 0.62944764 2.0150001
-0.080600001 0.62944764 2.0150001
-0.076304764 0.62569904 2.003
-0.068146668 0.58821338 1.8830001
-0.064560004 0.58821338 1.8830001
-0.060973335 0.58821338 1.8830001
-0.05738667 0.58821338 1.8830001
-0.053514287 0.58508956 1.8730001
-0.049946669 0.58508956 1.8730001
-0.046379048 0.58508956 1.8730001
-0.042582858 0.58196574 1.863
-0.039034288 0.58196574 1.863
-0.03687619 0.60476953 1.9360001
-0.033188574 0.60476953 1.9360001
-0.029180953 0.59820956 1.9150001
-0.026400002 0.6185143 1.9800001
-0.022628572 0.6185143 1.9800001
-0.018752381 0.61507809 1.9690001
-0.015001905 0.61507809 1.9690001
-0.011314286 0.6185143 1.9800001
-0.0075428574 0.6185143 1.9800001
-0.0037714287 0.6185143 1.9800001
0 0.6185143 1.9800001
0.0037714287 0.6185143 1.9800001
0.0074590477 0.61164194 1.9580001
0.011188572 0.61164194 1.9580001
0.014918095 0.61164194 1.9580001
0.01864762 0.61164194 1.9580001
0.022377145 0.61164194 1.9580001
0.026106667 0.61164194 1.9580001
0.029836191 0.61164194 1.9580001
0.033754285 0.61507809 1.9690001
0.037714288 0.6185143 1.9800001
0.041485716 0.6185143 1.9800001
0.045005716 0.61507809 1.9690001
0.048756193 0.61507809 1.9690001
0.05250667 0.61507809 1.9690001
0.05594286 0.61164194 1.9580001
0.059672382 0.61164194 1.9580001
0.063401908 0.61164194 1.9580001
0.06713143 0.61164194 1.9580001
0.07046286 0.60820574 1.9470001
0.074171431 0.60820574 1.9470001
0.078320004 0.61164194 1.9580001
0.082049526 0.61164194 1.9580001
0.085779049 0.61164194 1.9580001
0.092114292 0.62944764 2.0150001
0.096523814 0.63319623 2.0270002
0.099790476 0.62944764 2.0150001
0.10362858 0.62944764 2.0150001
0.11000001 0.60133338 1.9250001
0.11366667 0.60133338 1.9250001
0.11733334 0.60133338 1.9250001
0.12037143 0.59820956 1.9150001
0.12401905 0.59820956 1.9150001
0.12693334 0.59477335 1.904
0.12987429 0.59164953 1.8940001
0.13270667 0.58821338 1.8830001
0.13629334 0.58821338 1.8830001
0.13913715 0.58508956 1.8730001
0.14270477 0.58508956 1.8730001
0.14627239 0.58508956 1.8730001
0.28125715 0.66849524 2.1400001
0.28533334 0.66849524 2.1400001
-0.17189334 0.64460003 2.0510001
-0.16700381 0.64082861 2.039
-0.16312 0.64082861 2.039
-0.15829906 0.63705719 2.0270002
-0.15443811 0.63705719 2.0270002
-0.15057714 0.63705719 2.0270002
-0.14671619 0.63705719 2.0270002
-0.14285524 0.63705719 2.0270002
-0.13817143 0.63328576 2.0150001
-0.13513334 0.63705719 2.0270002
-0.13127239 0.63705719 2.0270002
-0.12741144 0.63705719 2.0270002
-0.12281905 0.63328576 2.0150001
-0.11968953 0.63705719 2.0270002
-0.11651429 0.64082861 2.039
-0.11263048 0.64082861 2.039
-0.10810667 0.63705719 2.0270002
-0.10424571 0.63705719 2.0270002
-0.10038476 0.63705719 2.0270002
-0.096523814 0.63705719 2.0270002
-0.092114292 0.63328576 2.0150001
-0.088276193 0.63328576 2.0150001
-0.0844381 0.63328576 2.0150001
-0.080600001 0.63328576 2.0150001
-0.071352385 0.58865714 1.8730001
-0.067784764 0.58865714 1.8730001
-0.064217143 0.58865714 1.8730001
-0.060649525 0.58865714 1.8730001
-0.057081908 0.58865714 1.8730001
-0.053514287 0.58865714 1.8730001
-0.049946669 0.58865714 1.8730001
-0.046131432 0.58551431 1.863
-0.042582858 0.58551431 1.863
-0.039034288 0.58551431 1.863
-0.03687619 0.60845715 1.9360001
-0.033188574 0.60845715 1.9360001
-0.029180953 0.60185719 1.9150001
-0.025666667 0.60500002 1.9250001
-0.022377145 0.61537147 1.9580001
-0.01864762 0.61537147 1.9580001
-0.014834287 0.61191434 1.9470001
-0.011188572 0.61537147 1.9580001
-0.0075009526 0.61882859 1.9690001
-0.0037714287 0.62228572 1.9800001
0 0.62228572 1.9800001
0.0037714287 0.62228572 1.9800001
0.0075009526 0.61882859 1.9690001
0.011188572 0.61537147 1.9580001
0.014918095 0.61537147 1.9580001
0.01864762 0.61537147 1.9580001
0.022377145 0.61537147 1.9580001
0.026106667 0.61537147 1.9580001
0.029836191 0.61537147 1.9580001
0.033565715 0.61537147 1.9580001
0.037504762 0.61882859 1.9690001
0.041255239 0.61882859 1.9690001
0.045005716 0.61882859 1.9690001
0.048483811 0.61537147 1.9580001
0.05250667 0.61882859 1.9690001
0.05594286 0.61537147 1.9580001
0.059672382 0.61537147 1.9580001
0.063045718 0.61191434 1.9470001
0.066754289 0.61191434 1.9470001
0.07046286 0.61191434 1.9470001
0.074171431 0.61191434 1.9470001
0.078320004 0.61537147 1.9580001
0.081588574 0.61191434 1.9470001
0.085297145 0.61191434 1.9470001
0.090011433 0.61882859 1.9690001
0.0932381 0.61537147 1.9580001
0.098651432 0.62605715 1.9920001
0.10244572 0.62605715 1.9920001
0.11366667 0.60500002 1.9250001
0.11733334 0.60500002 1.9250001
0.11968 0.5984 1.904
0.12265905 0.59525716 1.8940001
0.12553334 0.59180003 1.8830001
0.12912001 0.59180003 1.8830001
0.13200191 0.58865714 1.8730001
0.13556953 0.58865714 1.8730001
0.1383943 0.58551431 1.863
0.14194286 0.58551431 1.863
0.14549144 0.58551431 1.863
0.27002859 0.68545717 2.181
0.27066287 0.67665714 2.1530001
0.27655047 0.68105716 2.1670001
0.27718097 0.67257148 2.1400001
0.28125715 0.67257148 2.1400001
0.2784 0.6562286 2.0880001
0.28237715 0.6562286 2.0880001
0.2863543 0.6562286 2.0880001
-0.17289905 0.65230095 2.0630002
-0.16798668 0.6485067 2.0510001
-0.16408001 0.6485067 2.0510001
-0.15923619 0.64471239 2.039
-0.15626667 0.6485067 2.0510001
-0.15057714 0.64091814 2.0270002
-0.14671619 0.64091814 2.0270002
-0.14285524 0.64091814 2.0270002
-0.13899429 0.64091814 2.0270002
-0.13593334 0.64471239 2.039
-0.13127239 0.64091814 2.0270002
-0.12741144 0.64091814 2.0270002
-0.12281905 0.63712382 2.0150001
-0.11968953 0.64091814 2.0270002
-0.11651429 0.64471239 2.039
-0.11263048 0.64471239 2.039
-0.10810667 0.64091814 2.0270002
-0.10424571 0.64091814 2.0270002
-0.10038476 0.64091814 2.0270002
-0.095952384 0.63712382 2.0150001
-0.092114292 0.63712382 2.0150001
-0.088276193 0.63712382 2.0150001
-0.0844381 0.63712382 2.0150001
-0.080120005 0.63332957 2.003
-0.071352385 0.59222478 1.8730001
-0.067784764 0.59222478 1.8730001
-0.064217143 0.59222478 1.8730001
-0.060325716 0.58906287 1.863
-0.057081908 0.59222478 1.8730001
-0.053228572 0.58906287 1.863
-0.049946669 0.59222478 1.8730001
-0.046379048 0.59222478 1.8730001
-0.042811431 0.59222478 1.8730001
-0.041024763 0.61910099 1.9580001
-0.037295241 0.61910099 1.9580001
-0.033565715 0.61910099 1.9580001
-0.029180953 0.60550481 1.9150001
-0.025666667 0.60866672 1.9250001
-0.022251429 0.61562288 1.9470001
-0.018542858 0.61562288 1.9470001
-0.014834287 0.61562288 1.9470001
-0.011188572 0.61910099 1.9580001
-0.0075428574 0.62605715 1.9800001
-0.0037714287 0.62605715 1.9800001
0 0.62605715 1.9800001
0.0037714287 0.62605715 1.9800001
0.0075009526 0.6225791 1.9690001
0.011251429 0.6225791 1.9690001
0.015001905 0.6225791 1.9690001
0.01864762 0.61910099 1.9580001
0.022377145 0.61910099 1.9580001
0.026106667 0.61910099 1.9580001
0.029836191 0.61910099 1.9580001
0.033565715 0.61910099 1.9580001
0.037504762 0.6225791 1.9690001
0.041485716 0.62605715 1.9800001
0.045005716 0.6225791 1.9690001
0.048756193 0.6225791 1.9690001
0.05250667 0.6225791 1.9690001
0.056257144 0.6225791 1.9690001
0.059672382 0.61910099 1.9580001
0.063401908 0.61910099 1.9580001
0.066754289 0.61562288 1.9470001
0.07046286 0.61562288 1.9470001
0.074171431 0.61562288 1.9470001
0.077880003 0.61562288 1.9470001
0.081588574 0.61562288 1.9470001
0.085297145 0.61562288 1.9470001
0.089005716 0.61562288 1.9470001
0.0932381 0.61910099 1.9580001
0.096967623 0.61910099 1.9580001
0.10244572 0.62985146 1.9920001
0.11968 0.6020267 1.904
0.12194667 0.59538668 1.8830001
0.12553334 0.59538668 1.8830001
0.12843429 0.59222478 1.8730001
0.13200191 0.59222478 1.8730001
0.13556953 0.59222478 1.8730001
0.1383943 0.58906287 1.863
0.14194286 0.58906287 1.863
0.14471048 0.58590096 1.853
0.14824 0.58590096 1.853
0.26328 0.69372195 2.194
0.26745906 0.69372195 2.194
0.27002859 0.68961143 2.181
0.27242288 0.68518478 2.1670001
0.27655047 0.68518478 2.1670001
0.27718097 0.67664766 2.1400001
0.28125715 0.67664766 2.1400001
0.28013334 0.66431624 2.1010001
0.28413525 0.66431624 2.1010001
0.28813717 0.66431624 2.1010001
-0.17289905 0.65623051 2.0630002
-0.16798668 0.65241337 2.0510001
-0.16408001 0.65241337 2.0510001
-0.16017334 0.65241337 2.0510001
-0.15626667 0.65241337 2.0510001
-0.15236001 0.65241337 2.0510001
-0.14845334 0.65241337 2.0510001
-0.14370096 0.64859623 2.039
-0.13981715 0.64859623 2.039
-0.13593334 0.64859623 2.039
-0.13127239 0.64477909 2.0270002
-0.12816572 0.64859623 2.039
-0.12355048 0.64477909 2.0270002
-0.11968953 0.64477909 2.0270002
-0.11651429 0.64859623 2.039
-0.11263048 0.64859623 2.039
-0.10810667 0.64477909 2.0270002
-0.10424571 0.64477909 2.0270002
-0.10038476 0.64477909 2.0270002
-0.096523814 0.64477909 2.0270002
-0.092114292 0.64096195 2.0150001
-0.088276193 0.64096195 2.0150001
-0.083935238 0.6371448 2.003
-0.074920006 0.59579241 1.8730001
-0.071352385 0.59579241 1.8730001
-0.067784764 0.59579241 1.8730001
-0.064217143 0.59579241 1.8730001
-0.060325716 0.59261143 1.863
-0.056777146 0.59261143 1.863
-0.053228572 0.59261143 1.863
-0.049946669 0.59579241 1.8730001
-0.046626668 0.59897333 1.8830001
-0.043771431 0.60915238 1.9150001
-0.040333334 0.61233336 1.9250001
-0.036666669 0.61233336 1.9250001
-0.033188574 0.61583239 1.9360001
-0.029180953 0.60915238 1.9150001
-0.025533333 0.60915238 1.9150001
-0.022 0.61233336 1.9250001
-0.018438095 0.61583239 1.9360001
-0.014666667 0.61233336 1.9250001
-0.011188572 0.62283051 1.9580001
-0.0075428574 0.62982857 1.9800001
-0.0037714287 0.62982857 1.9800001
0 0.62982857 1.9800001
0.0037714287 0.62982857 1.9800001
0.0075428574 0.62982857 1.9800001
0.011251429 0.62632954 1.9690001
0.015001905 0.62632954 1.9690001
0.01864762 0.62283051 1.9580001
0.022377145 0.62283051 1.9580001
0.026106667 0.62283051 1.9580001
0.029836191 0.62283051 1.9580001
0.033754285 0.62632954 1.9690001
0.037504762 0.62632954 1.9690001
0.041255239 0.62632954 1.9690001
0.045005716 0.62632954 1.9690001
0.048756193 0.62632954 1.9690001
0.05250667 0.62632954 1.9690001
0.056257144 0.62632954 1.9690001
0.059672382 0.62283051 1.9580001
0.063401908 0.62283051 1.9580001
0.066754289 0.61933148 1.9470001
0.07046286 0.61933148 1.9470001
0.074171431 0.61933148 1.9470001
0.077880003 0.61933148 1.9470001
0.081127621 0.61583239 1.9360001
0.084815241 0.61583239 1.9360001
0.088502862 0.61583239 1.9360001
0.092714287 0.61933148 1.9470001
0.096967623 0.62283051 1.9580001
0.10069714 0.62283051 1.9580001
0.12194667 0.59897333 1.8830001
0.12486667 0.59579241 1.8730001
0.12843429 0.59579241 1.8730001
0.13200191 0.59579241 1.8730001
0.13556953 0.59579241 1.8730001
0.1383943 0.59261143 1.863
0.14118096 0.58943051 1.853
0.14471048 0.58943051 1.853
0.14824 0.58943051 1.853
0.26172 0.69376576 2.181
0.2658743 0.69376576 2.181
0.26829526 0.6893124 2.1670001
0.27066287 0.6848591 2.1530001
0.27655047 0.6893124 2.1670001
0.27886477 0.6848591 2.1530001
0.28125715 0.68072385 2.1400001
0.28533334 0.68072385 2.1400001
0.28940955 0.68072385 2.1400001
0.29348573 0.68072385 2.1400001
0.29756191 0.68072385 2.1400001
0.30347049 0.6848591 2.1530001
0.30757144 0.6848591 2.1530001
-0.24180001 0.64480001 2.0150001
-0.23654477 0.64096004 2.003
-0.23272954 0.64096004 2.003
-0.22644763 0.64480001 2.0150001
-0.22260953 0.64480001 2.0150001
-0.21746857 0.64096004 2.003
-0.21365334 0.64096004 2.003
-0.20983811 0.64096004 2.003
-0.20602286 0.64096004 2.003
-0.16798668 0.65632004 2.0510001
-0.16504 0.66016001 2.0630002
-0.16111048 0.66016001 2.0630002
-0.15718096 0.66016001 2.0630002
-0.15236001 0.65632004 2.0510001
-0.14845334 0.65632004 2.0510001
-0.14454667 0.65632004 2.0510001
-0.14064001 0.65632004 2.0510001
-0.13673334 0.65632004 2.0510001
-0.13204953 0.65248001 2.039
-0.12892 0.65632004 2.0510001
-0.12428191 0.65248001 2.039
-0.12110667 0.65632004 2.0510001
-0.11651429 0.65248001 2.039
-0.11263048 0.65248001 2.039
-0.10810667 0.64864004 2.0270002
-0.10424571 0.64864004 2.0270002
-0.099790476 0.64480001 2.0150001
-0.095952384 0.64480001 2.0150001
-0.092114292 0.64480001 2.0150001
-0.088276193 0.64480001 2.0150001
-0.07890667 0.60256004 1.8830001
-0.075320005 0.60256004 1.8830001
-0.071733333 0.60256004 1.8830001
-0.067784764 0.59936005 1.8730001
-0.064217143 0.59936005 1.8730001
-0.060649525 0.59936005 1.8730001
-0.057081908 0.59936005 1.8730001
-0.053228572 0.59615999 1.863
-0.049946669 0.59936005 1.8730001
-0.046626668 0.60256004 1.8830001
-0.043771431 0.6128 1.9150001
-0.040333334 0.616 1.9250001
-0.03687619 0.61952001 1.9360001
-0.033188574 0.61952001 1.9360001
-0.029180953 0.6128 1.9150001
-0.025666667 0.616 1.9250001
-0.022 0.616 1.9250001
-0.018438095 0.61952001 1.9360001
-0.014750477 0.61952001 1.9360001
-0.011125715 0.62304002 1.9470001
-0.0075009526 0.63008004 1.9690001
-0.0037714287 0.6336 1.9800001
0 0.6336 1.9800001
0.0037714287 0.6336 1.9800001
0.0075428574 0.6336 1.9800001
0.011251429 0.63008004 1.9690001
0.015001905 0.63008004 1.9690001
0.018752381 0.63008004 1.9690001
0.022377145 0.62656003 1.9580001
0.026106667 0.62656003 1.9580001
0.029836191 0.62656003 1.9580001
0.033754285 0.63008004 1.9690001
0.037504762 0.63008004 1.9690001
0.041485716 0.6336 1.9800001
0.045257144 0.6336 1.9800001
0.049028572 0.6336 1.9800001
0.052800003 0.6336 1.9800001
0.056257144 0.63008004 1.9690001
0.059672382 0.62656003 1.9580001
0.063401908 0.62656003 1.9580001
0.066754289 0.62304002 1.9470001
0.07046286 0.62304002 1.9470001
0.074171431 0.62304002 1.9470001
0.077880003 0.62304002 1.9470001
0.081127621 0.61952001 1.9360001
0.084815241 0.61952001 1.9360001
0.088502862 0.61952001 1.9360001
0.092190482 0.61952001 1.9360001
0.095878102 0.61952001 1.9360001
0.10069714 0.62656003 1.9580001
0.10442667 0.62656003 1.9580001
0.12486667 0.59936005 1.8730001
0.12843429 0.59936005 1.8730001
0.13129714 0.59615999 1.863
0.13556953 0.59936005 1.8730001
0.1383943 0.59615999 1.863
0.14194286 0.59615999 1.863
0.14471048 0.59296 1.853
0.14744 0.58976001 1.8430001
0.15013143 0.58656001 1.8330001
0.15362287 0.58656001 1.8330001
0.25836 0.68896002 2.1530001
0.26246098 0.68896002 2.1530001
0.26656193 0.68896002 2.1530001
0.27066287 0.68896002 2.1530001
0.27476382 0.68896002 2.1530001
0.27718097 0.68480003 2.1400001
0.28125715 0.68480003 2.1400001
0.28533334 0.68480003 2.1400001
0.28940955 0.68480003 2.1400001
0.29718858 0.69344002 2.1670001
0.29936954 0.68896002 2.1530001
0.30544382 0.69344002 2.1670001
0.30757144 0.68896002 2.1530001
0.31167239 0.68896002 2.1530001
-0.25244763 0.65636384 2.039
-0.24710096 0.65250099 2.0270002
-0.24180001 0.64863813 2.0150001
-0.23654477 0.64477527 2.003
-0.23412381 0.64863813 2.0150001
-0.23028572 0.64863813 2.0150001
-0.22644763 0.64863813 2.0150001
-0.22260953 0.64863813 2.0150001
-0.21877144 0.64863813 2.0150001
-0.21365334 0.64477527 2.003
-0.21109524 0.64863813 2.0150001
-0.20725715 0.64863813 2.0150001
-0.20220762 0.64477527 2.003
-0.19839239 0.64477527 2.003
-0.16798668 0.6602267 2.0510001
-0.16504 0.66408956 2.0630002
-0.16111048 0.66408956 2.0630002
-0.15817143 0.66827428 2.0760002
-0.15325144 0.66408956 2.0630002
-0.14932191 0.66408956 2.0630002
-0.14539239 0.66408956 2.0630002
-0.14064001 0.6602267 2.0510001
-0.13673334 0.6602267 2.0510001
-0.13282667 0.6602267 2.0510001
-0.12892 0.6602267 2.0510001
-0.12428191 0.65636384 2.039
-0.12110667 0.6602267 2.0510001
-0.11651429 0.65636384 2.039
-0.11263048 0.65636384 2.039
-0.10810667 0.65250099 2.0270002
-0.10424571 0.65250099 2.0270002
-0.10038476 0.65250099 2.0270002
-0.095952384 0.64863813 2.0150001
-0.092114292 0.64863813 2.0150001
-0.088276193 0.64863813 2.0150001
-0.079367623 0.60968763 1.8940001
-0.075759999 0.60968763 1.8940001
-0.071733333 0.60614669 1.8830001
-0.068146668 0.60614669 1.8830001
-0.064217143 0.60292763 1.8730001
-0.060649525 0.60292763 1.8730001
-0.057081908 0.60292763 1.8730001
-0.053228572 0.59970862 1.863
-0.049946669 0.60292763 1.8730001
-0.04689905 0.60968763 1.8940001
-0.043771431 0.61644763 1.9150001
-0.040123813 0.61644763 1.9150001
-0.036666669 0.6196667 1.9250001
-0.033 0.6196667 1.9250001
-0.029180953 0.61644763 1.9150001
-0.025533333 0.61644763 1.9150001
-0.022 0.6196667 1.9250001
-0.018542858 0.62674862 1.9470001
-0.014834287 0.62674862 1.9470001
-0.011188572 0.63028955 1.9580001
-0.0075428574 0.63737148 1.9800001
-0.0037714287 0.63737148 1.9800001
0 0.63737148 1.9800001
0.0037714287 0.63737148 1.9800001
0.0075428574 0.63737148 1.9800001
0.011251429 0.63383049 1.9690001
0.015085715 0.63737148 1.9800001
0.018752381 0.63383049 1.9690001
0.022502858 0.63383049 1.9690001
0.026106667 0.63028955 1.9580001
0.03000381 0.63383049 1.9690001
0.033754285 0.63383049 1.9690001
0.037714288 0.63737148 1.9800001
0.041485716 0.63737148 1.9800001
0.045257144 0.63737148 1.9800001
0.049028572 0.63737148 1.9800001
0.052800003 0.63737148 1.9800001
0.056257144 0.63383049 1.9690001
0.060007621 0.63383049 1.9690001
0.063401908 0.63028955 1.9580001
0.066754289 0.62674862 1.9470001
0.07046286 0.62674862 1.9470001
0.074171431 0.62674862 1.9470001
0.077880003 0.62674862 1.9470001
0.081127621 0.62320763 1.9360001
0.084815241 0.62320763 1.9360001
0.088502862 0.62320763 1.9360001
0.092190482 0.62320763 1.9360001
0.095878102 0.62320763 1.9360001
0.10013143 0.62674862 1.9470001
0.10384 0.62674862 1.9470001
0.13129714 0.59970862 1.863
0.13556953 0.60292763 1.8730001
0.1383943 0.59970862 1.863
0.14194286 0.59970862 1.863
0.14471048 0.59648955 1.853
0.14744 0.59327048 1.8430001
0.15013143 0.59005147 1.8330001
0.15529905 0.59648955 1.853
0.15797144 0.59327048 1.8430001
0.16148192 0.59327048 1.8430001
0.25836 0.69306099 2.1530001
0.26087621 0.68887621 2.1400001
0.26495239 0.68887621 2.1400001
0.27066287 0.69306099 2.1530001
0.27476382 0.69306099 2.1530001
0.27886477 0.69306099 2.1530001
0.28296572 0.69306099 2.1530001
0.28706667 0.69306099 2.1530001
0.29116762 0.69306099 2.1530001
0.29718858 0.69756764 2.1670001
0.3013162 0.69756764 2.1670001
0.30544382 0.69756764 2.1670001
0.30757144 0.69306099 2.1530001
0.31167239 0.69306099 2.1530001
-0.28018096 0.65247619 2.0150001
-0.27634287 0.65247619 2.0150001
-0.27113715 0.66801906 2.0630002
-0.26565334 0.66413337 2.0510001
-0.26174667 0.66413337 2.0510001
-0.25633144 0.66024762 2.039
-0.25244763 0.66024762 2.039
-0.24710096 0.65636194 2.0270002
-0.24180001 0.65247619 2.0150001
-0.23796192 0.65247619 2.0150001
-0.2355181 0.65636194 2.0270002
-0.23165715 0.65636194 2.0270002
-0.2277962 0.65636194 2.0270002
-0.22393525 0.65636194 2.0270002
-0.21877144 0.65247619 2.0150001
-0.21493334 0.65247619 2.0150001
-0.21109524 0.65247619 2.0150001
-0.20725715 0.65247619 2.0150001
-0.20220762 0.64859051 2.003
-0.19839239 0.64859051 2.003
-0.19457714 0.64859051 2.003
-0.15908572 0.67611432 2.0880001
-0.15325144 0.66801906 2.0630002
-0.14932191 0.66801906 2.0630002
-0.14539239 0.66801906 2.0630002
-0.14146286 0.66801906 2.0630002
-0.13753334 0.66801906 2.0630002
-0.13282667 0.66413337 2.0510001
-0.12892 0.66413337 2.0510001
-0.12428191 0.66024762 2.039
-0.12110667 0.66413337 2.0510001
-0.11651429 0.66024762 2.039
-0.11263048 0.66024762 2.039
-0.10810667 0.65636194 2.0270002
-0.10486286 0.66024762 2.039
-0.10038476 0.65636194 2.0270002
-0.096523814 0.65636194 2.0270002
-0.092662863 0.65636194 2.0270002
-0.082493335 0.60973334 1.8830001
-0.07890667 0.60973334 1.8830001
-0.075320005 0.60973334 1.8830001
-0.071352385 0.60649526 1.8730001
-0.067784764 0.60649526 1.8730001
-0.064217143 0.60649526 1.8730001
-0.060649525 0.60649526 1.8730001
-0.057081908 0.60649526 1.8730001
-0.053228572 0.60325718 1.863
-0.049946669 0.60649526 1.8730001
-0.04689905 0.61329526 1.8940001
-0.043771431 0.62009525 1.9150001
-0.040123813 0.62009525 1.9150001
-0.036666669 0.62333333 1.9250001
-0.033 0.62333333 1.9250001
-0.029180953 0.62009525 1.9150001
-0.025533333 0.62009525 1.9150001
-0.022 0.62333333 1.9250001
-0.018438095 0.62689525 1.9360001
-0.014750477 0.62689525 1.9360001
-0.011125715 0.63045716 1.9470001
-0.0075428574 0.6411429 1.9800001
-0.0037714287 0.6411429 1.9800001
0 0.6411429 1.9800001
0.0037714287 0.6411429 1.9800001
0.0075428574 0.6411429 1.9800001
0.011314286 0.6411429 1.9800001
0.015085715 0.6411429 1.9800001
0.018752381 0.63758099 1.9690001
0.022502858 0.63758099 1.9690001
0.026253335 0.63758099 1.9690001
0.03017143 0.6411429 1.9800001
0.03394286 0.6411429 1.9800001
0.037714288 0.6411429 1.9800001
0.041485716 0.6411429 1.9800001
0.045257144 0.6411429 1.9800001
0.049028572 0.6411429 1.9800001
0.052800003 0.6411429 1.9800001
0.056257144 0.63758099 1.9690001
0.059672382 0.63401908 1.9580001
0.063401908 0.63401908 1.9580001
0.066754289 0.63045716 1.9470001
0.07046286 0.63045716 1.9470001
0.074171431 0.63045716 1.9470001
0.077880003 0.63045716 1.9470001
0.081127621 0.62689525 1.9360001
0.084815241 0.62689525 1.9360001
0.088502862 0.62689525 1.9360001
0.092190482 0.62689525 1.9360001
0.095878102 0.62689525 1.9360001
0.099565715 0.62689525 1.9360001
0.10266667 0.62333333 1.9250001
0.10633334 0.62333333 1.9250001
0.1383943 0.60325718 1.863
0.14118096 0.6000191 1.853
0.14392953 0.59678096 1.8430001
0.14664 0.59354287 1.8330001
0.15013143 0.59354287 1.8330001
0.15446095 0.59678096 1.8430001
0.15797144 0.59678096 1.8430001
0.16060571 0.59354287 1.8330001
0.16409715 0.59354287 1.8330001
0.26087621 0.69295239 2.1400001
0.26495239 0.69295239 2.1400001
0.27066287 0.69716191 2.1530001
0.27655047 0.70169526 2.1670001
0.27886477 0.69716191 2.1530001
0.28296572 0.69716191 2.1530001
0.28893334 0.70169526 2.1670001
0.29306096 0.70169526 2.1670001
0.29718858 0.70169526 2.1670001
0.3013162 0.70169526 2.1670001
0.30544382 0.70169526 2.1670001
0.30957144 0.70169526 2.1670001
0.31369907 0.70169526 2.1670001
-0.29417145 0.64491433 1.9800001
-0.29553336 0.65631431 2.0150001
-0.28995812 0.65240574 2.003
-0.28785715 0.65631431 2.0150001
-0.28232762 0.65240574 2.003
-0.28018096 0.65631431 2.0150001
-0.2796343 0.66413146 2.039
-0.27575049 0.66413146 2.039
-0.27186668 0.66413146 2.039
-0.26956001 0.66804004 2.0510001
-0.26409906 0.66413146 2.039
-0.26021525 0.66413146 2.039
-0.25482288 0.66022289 2.0270002
-0.2509619 0.66022289 2.0270002
-0.24710096 0.66022289 2.0270002
-0.24324001 0.66022289 2.0270002
-0.23937906 0.66022289 2.0270002
-0.23691238 0.66413146 2.039
-0.23302858 0.66413146 2.039
-0.22914477 0.66413146 2.039
-0.22526096 0.66413146 2.039
-0.2200743 0.66022289 2.0270002
-0.21749334 0.66413146 2.039
-0.21360953 0.66413146 2.039
-0.20725715 0.65631431 2.0150001
-0.20341906 0.65631431 2.0150001
-0.19958095 0.65631431 2.0150001
-0.19924001 0.66804004 2.0510001
-0.19647619 0.67194861 2.0630002
-0.19254668 0.67194861 2.0630002
-0.18861715 0.67194861 2.0630002
-0.15908572 0.68009144 2.0880001
-0.15325144 0.67194861 2.0630002
-0.14932191 0.67194861 2.0630002
-0.14539239 0.67194861 2.0630002
-0.14146286 0.67194861 2.0630002
-0.13753334 0.67194861 2.0630002
-0.13282667 0.66804004 2.0510001
-0.12816572 0.66413146 2.039
-0.12428191 0.66413146 2.039
-0.12110667 0.66804004 2.0510001
-0.11651429 0.66413146 2.039
-0.11263048 0.66413146 2.039
-0.10810667 0.66022289 2.0270002
-0.10486286 0.66413146 2.039
-0.10097905 0.66413146 2.039
-0.096523814 0.66022289 2.0270002
-0.08608 0.61331999 1.8830001
-0.082493335 0.61331999 1.8830001
-0.07890667 0.61331999 1.8830001
-0.075320005 0.61331999 1.8830001
-0.071352385 0.6100629 1.8730001
-0.067784764 0.6100629 1.8730001
-0.064217143 0.6100629 1.8730001
-0.060649525 0.6100629 1.8730001
-0.057081908 0.6100629 1.8730001
-0.053228572 0.60680574 1.863
-0.049946669 0.6100629 1.8730001
-0.04689905 0.61690289 1.8940001
-0.043291431 0.61690289 1.8940001
-0.040333334 0.62700003 1.9250001
-0.036666669 0.62700003 1.9250001
-0.033 0.62700003 1.9250001
-0.029180953 0.62374288 1.9150001
-0.025533333 0.62374288 1.9150001
-0.022 0.62700003 1.9250001
-0.018438095 0.63058287 1.9360001
-0.014750477 0.63058287 1.9360001
-0.011125715 0.63416576 1.9470001
-0.0074590477 0.6377486 1.9580001
-0.0037714287 0.64491433 1.9800001
0 0.6488229 1.9920001
0.0037714287 0.64491433 1.9800001
0.0075885719 0.6488229 1.9920001
0.011314286 0.64491433 1.9800001
0.015085715 0.64491433 1.9800001
0.018857144 0.64491433 1.9800001
0.022628572 0.64491433 1.9800001
0.026400002 0.64491433 1.9800001
0.03017143 0.64491433 1.9800001
0.03394286 0.64491433 1.9800001
0.03794286 0.6488229 1.9920001
0.041485716 0.64491433 1.9800001
0.045257144 0.64491433 1.9800001
0.049028572 0.64491433 1.9800001
0.052800003 0.64491433 1.9800001
0.056257144 0.64133143 1.9690001
0.060007621 0.64133143 1.9690001
0.063401908 0.6377486 1.9580001
0.066754289 0.63416576 1.9470001
0.07046286 0.63416576 1.9470001
0.074171431 0.63416576 1.9470001
0.077880003 0.63416576 1.9470001
0.081588574 0.63416576 1.9470001
0.084815241 0.63058287 1.9360001
0.088502862 0.63058287 1.9360001
0.092190482 0.63058287 1.9360001
0.095878102 0.63058287 1.9360001
0.099565715 0.63058287 1.9360001
0.10325333 0.63058287 1.9360001
0.10633334 0.62700003 1.9250001
0.14118096 0.60354859 1.853
0.14392953 0.60029143 1.8430001
0.14664 0.59703434 1.8330001
0.15013143 0.59703434 1.8330001
0.15362287 0.59703434 1.8330001
0.15797144 0.60029143 1.8430001
0.16148192 0.60029143 1.8430001
0.16409715 0.59703434 1.8330001
0.27242288 0.70582289 2.1670001
0.27655047 0.70582289 2.1670001
0.27886477 0.70126289 2.1530001
0.28480572 0.70582289 2.1670001
0.28893334 0.70582289 2.1670001
0.29306096 0.70582289 2.1670001
0.29718858 0.70582289 2.1670001
0.30326286 0.71038288 2.181
0.30741715 0.71038288 2.181
0.30957144 0.70582289 2.1670001
0.31369907 0.70582289 2.1670001
-0.29595429 0.65261716 1.9920001
-0.29377335 0.65622097 2.003
-0.28995812 0.65622097 2.003
-0.28614286 0.65622097 2.003
-0.28401905 0.66015238 2.0150001
-0.28018096 0.66015238 2.0150001
-0.2796343 0.66801524 2.039
-0.27575049 0.66801524 2.039
-0.27346668 0.6719467 2.0510001
-0.26956001 0.6719467 2.0510001
-0.26409906 0.66801524 2.039
-0.26021525 0.66801524 2.039
-0.25331429 0.66015238 2.0150001
-0.24947619 0.66015238 2.0150001
-0.24710096 0.66408384 2.0270002
-0.24324001 0.66408384 2.0270002
-0.23937906 0.66408384 2.0270002
-0.23830667 0.6719467 2.0510001
-0.23302858 0.66801524 2.039
-0.23049334 0.6719467 2.0510001
-0.22658667 0.6719467 2.0510001
-0.22137715 0.66801524 2.039
-0.21749334 0.66801524 2.039
-0.21360953 0.66801524 2.039
-0.20849143 0.66408384 2.0270002
-0.20341906 0.66015238 2.0150001
-0.19958095 0.66015238 2.0150001
-0.19924001 0.6719467 2.0510001
-0.19533335 0.6719467 2.0510001
-0.19142668 0.6719467 2.0510001
-0.18752001 0.6719467 2.0510001
-0.18361335 0.6719467 2.0510001
-0.14146286 0.67587811 2.0630002
-0.13753334 0.67587811 2.0630002
-0.13282667 0.6719467 2.0510001
-0.12816572 0.66801524 2.039
-0.12428191 0.66801524 2.039
-0.12110667 0.6719467 2.0510001
-0.11651429 0.66801524 2.039
-0.11263048 0.66801524 2.039
-0.10874667 0.66801524 2.039
-0.10486286 0.66801524 2.039
-0.088895239 0.58807623 1.7950001
-0.085476197 0.58807623 1.7950001
-0.085622862 0.61363047 1.8730001
-0.082055241 0.61363047 1.8730001
-0.07848762 0.61363047 1.8730001
-0.074920006 0.61363047 1.8730001
-0.071352385 0.61363047 1.8730001
-0.067784764 0.61363047 1.8730001
-0.064217143 0.61363047 1.8730001
-0.060649525 0.61363047 1.8730001
-0.057081908 0.61363047 1.8730001
-0.053228572 0.6103543 1.863
-0.049946669 0.61363047 1.8730001
-0.04689905 0.62051052 1.8940001
-0.043771431 0.6273905 1.9150001
-0.040333334 0.63066667 1.9250001
-0.036666669 0.63066667 1.9250001
-0.033 0.63066667 1.9250001
-0.029180953 0.6273905 1.9150001
-0.025533333 0.6273905 1.9150001
-0.022 0.63066667 1.9250001
-0.018438095 0.63427049 1.9360001
-0.014834287 0.63787431 1.9470001
-0.011125715 0.63787431 1.9470001
-0.0074171433 0.63787431 1.9470001
-0.0037714287 0.64868575 1.9800001
0 0.65261716 1.9920001
0.0037942859 0.65261716 1.9920001
0.0075885719 0.65261716 1.9920001
0.011382857 0.65261716 1.9920001
0.015085715 0.64868575 1.9800001
0.018857144 0.64868575 1.9800001
0.022628572 0.64868575 1.9800001
0.026400002 0.64868575 1.9800001
0.03017143 0.64868575 1.9800001
0.034148574 0.65261716 1.9920001
0.03794286 0.65261716 1.9920001
0.041737143 0.65261716 1.9920001
0.045257144 0.64868575 1.9800001
0.049028572 0.64868575 1.9800001
0.052800003 0.64868575 1.9800001
0.056257144 0.64508194 1.9690001
0.060007621 0.64508194 1.9690001
0.063401908 0.64147812 1.9580001
0.06713143 0.64147812 1.9580001
0.070860952 0.64147812 1.9580001
0.074590482 0.64147812 1.9580001
0.078320004 0.64147812 1.9580001
0.081588574 0.63787431 1.9470001
0.085297145 0.63787431 1.9470001
0.089005716 0.63787431 1.9470001
0.092714287 0.63787431 1.9470001
0.096422859 0.63787431 1.9470001
0.099565715 0.63427049 1.9360001
0.10325333 0.63427049 1.9360001
0.15013143 0.60052574 1.8330001
0.15362287 0.60052574 1.8330001
0.15797144 0.60380191 1.8430001
0.16148192 0.60380191 1.8430001
0.27655047 0.70995051 2.1670001
0.28067809 0.70995051 2.1670001
0.28480572 0.70995051 2.1670001
0.29080001 0.71453714 2.181
0.29306096 0.70995051 2.1670001
0.29718858 0.70995051 2.1670001
0.30326286 0.71453714 2.181
0.30741715 0.71453714 2.181
0.31157145 0.71453714 2.181
0.31572571 0.71453714 2.181
0.31988001 0.71453714 2.181
-0.30501524 0.66794479 2.0270002
-0.29937145 0.6639905 2.0150001
-0.29553336 0.6639905 2.0150001
-0.29169524 0.6639905 2.0150001
-0.28957143 0.66794479 2.0270002
-0.28571048 0.66794479 2.0270002
-0.28184953 0.66794479 2.0270002
-0.2796343 0.67189908 2.039
-0.27575049 0.67189908 2.039
-0.27186668 0.67189908 2.039
-0.26798287 0.67189908 2.039
-0.26409906 0.67189908 2.039
-0.25868383 0.66794479 2.0270002
-0.25331429 0.6639905 2.0150001
-0.2509619 0.66794479 2.0270002
-0.24710096 0.66794479 2.0270002
-0.24324001 0.66794479 2.0270002
-0.23937906 0.66794479 2.0270002
-0.23691238 0.67189908 2.039
-0.2344 0.67585337 2.0510001
-0.23049334 0.67585337 2.0510001
-0.22526096 0.67189908 2.039
-0.2200743 0.66794479 2.0270002
-0.21749334 0.67189908 2.039
-0.21360953 0.67189908 2.039
-0.20849143 0.66794479 2.0270002
-0.20463048 0.66794479 2.0270002
-0.20076953 0.66794479 2.0270002
-0.19924001 0.67585337 2.0510001
-0.19533335 0.67585337 2.0510001
-0.19142668 0.67585337 2.0510001
-0.18642287 0.67189908 2.039
-0.18253906 0.67189908 2.039
-0.11651429 0.67189908 2.039
-0.11329333 0.67585337 2.0510001
-0.10938667 0.67585337 2.0510001
-0.092314288 0.59149528 1.7950001
-0.088895239 0.59149528 1.7950001
-0.085476197 0.59149528 1.7950001
-0.085622862 0.61719811 1.8730001
-0.082055241 0.61719811 1.8730001
-0.07848762 0.61719811 1.8730001
-0.074920006 0.61719811 1.8730001
-0.071352385 0.61719811 1.8730001
-0.067784764 0.61719811 1.8730001
-0.064217143 0.61719811 1.8730001
-0.060649525 0.61719811 1.8730001
-0.056777146 0.61390287 1.863
-0.053228572 0.61390287 1.863
-0.050213337 0.62049335 1.8830001
-0.04689905 0.62411809 1.8940001
-0.04352 0.62741333 1.904
-0.040123813 0.63103813 1.9150001
-0.036666669 0.63433337 1.9250001
-0.032828573 0.63103813 1.9150001
-0.029180953 0.63103813 1.9150001
-0.025533333 0.63103813 1.9150001
-0.022 0.63433337 1.9250001
-0.018438095 0.63795811 1.9360001
-0.014750477 0.63795811 1.9360001
-0.011125715 0.64158291 1.9470001
-0.0074171433 0.64158291 1.9470001
-0.0037942859 0.65641147 1.9920001
0 0.65641147 1.9920001
0.0037714287 0.65245718 1.9800001
0.0075428574 0.65245718 1.9800001
0.011314286 0.65245718 1.9800001
0.015085715 0.65245718 1.9800001
0.018857144 0.65245718 1.9800001
0.022628572 0.65245718 1.9800001
0.026400002 0.65245718 1.9800001
0.03017143 0.65245718 1.9800001
0.034148574 0.65641147 1.9920001
0.03794286 0.65641147 1.9920001
0.041737143 0.65641147 1.9920001
0.045257144 0.65245718 1.9800001
0.049028572 0.65245718 1.9800001
0.052800003 0.65245718 1.9800001
0.056571431 0.65245718 1.9800001
0.060007621 0.64883238 1.9690001
0.063401908 0.64520764 1.9580001
0.06713143 0.64520764 1.9580001
0.071259052 0.64883238 1.9690001
0.074590482 0.64520764 1.9580001
0.078320004 0.64520764 1.9580001
0.082049526 0.64520764 1.9580001
0.085779049 0.64520764 1.9580001
0.089005716 0.64158291 1.9470001
0.092714287 0.64158291 1.9470001
0.096422859 0.64158291 1.9470001
0.28067809 0.71407813 2.1670001
0.28480572 0.71407813 2.1670001
0.29080001 0.71869147 2.181
0.29306096 0.71407813 2.1670001
0.29718858 0.71407813 2.1670001
0.3013162 0.71407813 2.1670001
0.30741715 0.71869147 2.181
0.31157145 0.71869147 2.181
0.31572571 0.71869147 2.181
0.31988001 0.71869147 2.181
-0.30501524 0.67180574 2.0270002
-0.30115429 0.67180574 2.0270002
-0.29729334 0.67180574 2.0270002
-0.29343238 0.67180574 2.0270002
-0.28957143 0.67180574 2.0270002
-0.28571048 0.67180574 2.0270002
-0.28351811 0.67578286 2.039
-0.2796343 0.67578286 2.039
-0.27575049 0.67578286 2.039
-0.27346668 0.67976004 2.0510001
-0.26798287 0.67578286 2.039
-0.26409906 0.67578286 2.039
-0.25868383 0.67180574 2.0270002
-0.25331429 0.66782862 2.0150001
-0.2509619 0.67180574 2.0270002
-0.24710096 0.67180574 2.0270002
-0.24324001 0.67180574 2.0270002
-0.23937906 0.67180574 2.0270002
-0.23691238 0.67578286 2.039
-0.2344 0.67976004 2.0510001
-0.23049334 0.67976004 2.0510001
-0.22526096 0.67578286 2.039
-0.22137715 0.67578286 2.039
-0.21621335 0.67180574 2.0270002
-0.21360953 0.67578286 2.039
-0.20849143 0.67180574 2.0270002
-0.20463048 0.67180574 2.0270002
-0.20076953 0.67180574 2.0270002
-0.1980743 0.67578286 2.039
-0.19419049 0.67578286 2.039
-0.19030668 0.67578286 2.039
-0.18532573 0.67180574 2.0270002
-0.18039048 0.66782862 2.0150001
-0.17655239 0.66782862 2.0150001
-0.11329333 0.67976004 2.0510001
-0.095733337 0.59491432 1.7950001
-0.092314288 0.59491432 1.7950001
-0.088895239 0.59491432 1.7950001
-0.085476197 0.59491432 1.7950001
-0.082057148 0.59491432 1.7950001
-0.081617147 0.61745143 1.863
-0.07848762 0.62076575 1.8730001
-0.074920006 0.62076575 1.8730001
-0.071352385 0.62076575 1.8730001
-0.067784764 0.62076575 1.8730001
-0.064217143 0.62076575 1.8730001
-0.060649525 0.62076575 1.8730001
-0.056777146 0.61745143 1.863
-0.053228572 0.61745143 1.863
-0.050213337 0.62408 1.8830001
-0.04689905 0.62772572 1.8940001
-0.04352 0.63104004 1.904
-0.040123813 0.63468575 1.9150001
-0.036476191 0.63468575 1.9150001
-0.032828573 0.63468575 1.9150001
-0.028860953 0.62772572 1.8940001
-0.025386667 0.63104004 1.904
-0.02176 0.63104004 1.904
-0.018238096 0.63468575 1.9150001
-0.014750477 0.64164573 1.9360001
-0.0037714287 0.6562286 1.9800001
0 0.66020572 1.9920001
0.0037942859 0.66020572 1.9920001
0.0075885719 0.66020572 1.9920001
0.011382857 0.66020572 1.9920001
0.015177144 0.66020572 1.9920001
0.018857144 0.6562286 1.9800001
0.022628572 0.6562286 1.9800001
0.026400002 0.6562286 1.9800001
0.030354287 0.66020572 1.9920001
0.034148574 0.66020572 1.9920001
0.03794286 0.66020572 1.9920001
0.041737143 0.66020572 1.9920001
0.045531429 0.66020572 1.9920001
0.049325716 0.66020572 1.9920001
0.053120002 0.66020572 1.9920001
0.056571431 0.6562286 1.9800001
0.060342859 0.6562286 1.9800001
0.063758098 0.65258288 1.9690001
0.067508571 0.65258288 1.9690001
0.071259052 0.65258288 1.9690001
0.075009525 0.65258288 1.9690001
0.078760006 0.65258288 1.9690001
0.082049526 0.64893717 1.9580001
0.085779049 0.64893717 1.9580001
0.089508578 0.64893717 1.9580001
0.0932381 0.64893717 1.9580001
0.096422859 0.64529145 1.9470001
0.28296572 0.71356577 2.1530001
0.28893334 0.71820575 2.1670001
0.29306096 0.71820575 2.1670001
0.2952686 0.71356577 2.1530001
0.3013162 0.71820575 2.1670001
0.30544382 0.71820575 2.1670001
0.30957144 0.71820575 2.1670001
0.31572571 0.72284573 2.181
0.31988001 0.72284573 2.181
-0.31070477 0.6796667 2.039
-0.30501524 0.67566669 2.0270002
-0.30115429 0.67566669 2.0270002
-0.30081335 0.68366671 2.0510001
-0.29690668 0.68366671 2.0510001
-0.29300001 0.68366671 2.0510001
-0.28740191 0.6796667 2.039
-0.28518668 0.68366671 2.0510001
-0.28128001 0.68366671 2.0510001
-0.27737334 0.68366671 2.0510001
-0.27346668 0.68366671 2.0510001
-0.26798287 0.6796667 2.039
-0.26254478 0.67566669 2.0270002
-0.25868383 0.67566669 2.0270002
-0.25331429 0.67166668 2.0150001
-0.24947619 0.67166668 2.0150001
-0.24710096 0.67566669 2.0270002
-0.24324001 0.67566669 2.0270002
-0.23937906 0.67566669 2.0270002
-0.23691238 0.6796667 2.039
-0.2344 0.68366671 2.0510001
-0.23049334 0.68366671 2.0510001
-0.22658667 0.68366671 2.0510001
-0.22137715 0.6796667 2.039
-0.21621335 0.67566669 2.0270002
-0.21360953 0.6796667 2.039
-0.20849143 0.67566669 2.0270002
-0.20463048 0.67566669 2.0270002
-0.20076953 0.67566669 2.0270002
-0.1980743 0.6796667 2.039
-0.19419049 0.6796667 2.039
-0.19030668 0.6796667 2.039
-0.18642287 0.6796667 2.039
-0.18253906 0.6796667 2.039
-0.17865525 0.6796667 2.039
-0.099152386 0.59833336 1.7950001
-0.095733337 0.59833336 1.7950001
-0.092777148 0.60133338 1.8040001
-0.089340955 0.60133338 1.8040001
-0.085904762 0.60133338 1.8040001
-0.082468577 0.60133338 1.8040001
-0.081617147 0.62100005 1.863
-0.07848762 0.62433338 1.8730001
-0.074920006 0.62433338 1.8730001
-0.071352385 0.62433338 1.8730001
-0.068146668 0.62766671 1.8830001
-0.064560004 0.62766671 1.8830001
-0.060649525 0.62433338 1.8730001
-0.057081908 0.62433338 1.8730001
-0.053228572 0.62100005 1.863
-0.050213337 0.62766671 1.8830001
-0.04689905 0.63133335 1.8940001
-0.04352 0.63466668 1.904
