# .PCD v0.7 - Point Cloud Data file format
VERSION 0.7
FIELDS x y z
SIZE 4 4 4
TYPE F F F
COUNT 1 1 1
WIDTH 1499
HEIGHT 1
VIEWPOINT 0 0 0 1 0 0 0
POINTS 1499
DATA ascii
0.11605524 0.67232001 2.1010001
0.12005715 0.67232001 2.1010001
0.12405905 0.67232001 2.1010001
0.12806095 0.67232001 2.1010001
0.13206287 0.67232001 2.1010001
0.13606477 0.67232001 2.1010001
0.14006667 0.67232001 2.1010001
0.12843429 0.59936005 1.8730001
0.13200191 0.59936005 1.8730001
0.13629334 0.60256004 1.8830001
0.13988 0.60256004 1.8830001
0.14270477 0.59936005 1.8730001
0.14549144 0.59615999 1.863
0.14904 0.59615999 1.863
0.17101716 0.66816002 2.0880001
0.17608382 0.67232001 2.1010001
0.18008572 0.67232001 2.1010001
0.18522668 0.67648 2.1140001
0.18808953 0.67232001 2.1010001
0.19209144 0.67232001 2.1010001
0.19609334 0.67232001 2.1010001
0.20009525 0.67232001 2.1010001
0.24864763 0.68480003 2.1400001
0.25272381 0.68480003 2.1400001
0.2568 0.68480003 2.1400001
0.26246098 0.68896002 2.1530001
0.26656193 0.68896002 2.1530001
0.26902857 0.68480003 2.1400001
0.27310476 0.68480003 2.1400001
0.27718097 0.68480003 2.1400001
0.28125715 0.68480003 2.1400001
0.28533334 0.68480003 2.1400001
0.28940955 0.68480003 2.1400001
0.2952686 0.68896002 2.1530001
0.29936954 0.68896002 2.1530001
0.3016381 0.68480003 2.1400001
0.30571431 0.68480003 2.1400001
-0.24180001 0.64863813 2.0150001
-0.23796192 0.64863813 2.0150001
-0.23272954 0.64477527 2.003
-0.22891429 0.64477527 2.003
-0.22509906 0.64477527 2.003
-0.22128382 0.64477527 2.003
-0.21746857 0.64477527 2.003
-0.21365334 0.64477527 2.003
-0.21109524 0.64863813 2.0150001
-0.20725715 0.64863813 2.0150001
-0.16216001 0.65250099 2.0270002
-0.16017334 0.6602267 2.0510001
-0.15817143 0.66827428 2.0760002
-0.15325144 0.66408956 2.0630002
-0.14932191 0.66408956 2.0630002
-0.14454667 0.6602267 2.0510001
-0.14064001 0.6602267 2.0510001
-0.13673334 0.6602267 2.0510001
-0.13204953 0.65636384 2.039
-0.12816572 0.65636384 2.039
-0.12355048 0.65250099 2.0270002
-0.1203981 0.65636384 2.039
-0.1172 0.6602267 2.0510001
-0.11263048 0.65636384 2.039
-0.10810667 0.65250099 2.0270002
-0.10486286 0.65636384 2.039
-0.10038476 0.65250099 2.0270002
-0.095952384 0.64863813 2.0150001
-0.092114292 0.64863813 2.0150001
-0.088276193 0.64863813 2.0150001
-0.078068577 0.59970862 1.863
-0.074519999 0.59970862 1.863
-0.070971429 0.59970862 1.863
-0.067060955 0.59648955 1.853
-0.063531429 0.59648955 1.853
-0.060001906 0.59648955 1.853
-0.055862859 0.59005147 1.8330001
-0.052942861 0.59648955 1.853
-0.049413335 0.59648955 1.853
-0.047666669 0.6196667 1.9250001
-0.043771431 0.61644763 1.9150001
-0.040333334 0.6196667 1.9250001
-0.03687619 0.62320763 1.9360001
-0.033188574 0.62320763 1.9360001
-0.029500954 0.62320763 1.9360001
-0.025666667 0.6196667 1.9250001
-0.022 0.6196667 1.9250001
-0.018438095 0.62320763 1.9360001
-0.014750477 0.62320763 1.9360001
-0.011125715 0.62674862 1.9470001
-0.0074171433 0.62674862 1.9470001
-0.0037504763 0.63383049 1.9690001
0 0.63383049 1.9690001
0.0037714287 0.63737148 1.9800001
0.0075428574 0.63737148 1.9800001
0.011314286 0.63737148 1.9800001
0.015177144 0.64123434 1.9920001
0.018857144 0.63737148 1.9800001
0.022628572 0.63737148 1.9800001
0.026400002 0.63737148 1.9800001
0.03017143 0.63737148 1.9800001
0.033754285 0.63383049 1.9690001
0.037504762 0.63383049 1.9690001
0.041255239 0.63383049 1.9690001
0.045005716 0.63383049 1.9690001
0.048483811 0.63028955 1.9580001
0.052213334 0.63028955 1.9580001
0.05594286 0.63028955 1.9580001
0.059672382 0.63028955 1.9580001
0.063401908 0.63028955 1.9580001
0.066754289 0.62674862 1.9470001
0.070064768 0.62320763 1.9360001
0.073333338 0.6196667 1.9250001
0.077 0.6196667 1.9250001
0.080666669 0.6196667 1.9250001
0.083895244 0.61644763 1.9150001
0.087542862 0.61644763 1.9150001
0.09119048 0.61644763 1.9150001
0.094838098 0.61644763 1.9150001
0.098485716 0.61644763 1.9150001
0.10213333 0.61644763 1.9150001
0.10578096 0.61644763 1.9150001
0.1208 0.68050671 2.1140001
0.12405905 0.67632192 2.1010001
0.12806095 0.67632192 2.1010001
0.13206287 0.67632192 2.1010001
0.13606477 0.67632192 2.1010001
0.14006667 0.67632192 2.1010001
0.14406858 0.67632192 2.1010001
0.14807048 0.67632192 2.1010001
0.13781334 0.61290669 1.904
0.13988 0.60614669 1.8830001
0.14270477 0.60292763 1.8730001
0.14627239 0.60292763 1.8730001
0.14904 0.59970862 1.863
0.15176953 0.59648955 1.853
0.15529905 0.59648955 1.853
0.18008572 0.67632192 2.1010001
0.18522668 0.68050671 2.1140001
0.18808953 0.67632192 2.1010001
0.19209144 0.67632192 2.1010001
0.19609334 0.67632192 2.1010001
0.24864763 0.68887621 2.1400001
0.25272381 0.68887621 2.1400001
0.2568 0.68887621 2.1400001
0.26246098 0.69306099 2.1530001
0.26495239 0.68887621 2.1400001
0.2673943 0.68469143 2.1270001
0.27310476 0.68887621 2.1400001
0.27718097 0.68887621 2.1400001
0.28125715 0.68887621 2.1400001
0.28706667 0.69306099 2.1530001
0.28940955 0.68887621 2.1400001
0.2952686 0.69306099 2.1530001
0.29936954 0.69306099 2.1530001
0.3016381 0.68887621 2.1400001
0.30571431 0.68887621 2.1400001
0.30979049 0.68887621 2.1400001
-0.27113715 0.66801906 2.0630002
-0.26720762 0.66801906 2.0630002
-0.2632781 0.66801906 2.0630002
-0.2456381 0.65247619 2.0150001
-0.24180001 0.65247619 2.0150001
-0.23796192 0.65247619 2.0150001
-0.23272954 0.64859051 2.003
-0.22891429 0.64859051 2.003
-0.22644763 0.65247619 2.0150001
-0.22393525 0.65636194 2.0270002
-0.21877144 0.65247619 2.0150001
-0.21493334 0.65247619 2.0150001
-0.21109524 0.65247619 2.0150001
-0.20849143 0.65636194 2.0270002
-0.20463048 0.65636194 2.0270002
-0.15817143 0.67222857 2.0760002
-0.15421715 0.67222857 2.0760002
-0.15026286 0.67222857 2.0760002
-0.14454667 0.66413337 2.0510001
-0.14064001 0.66413337 2.0510001
-0.13673334 0.66413337 2.0510001
-0.13204953 0.66024762 2.039
-0.12816572 0.66024762 2.039
-0.12355048 0.65636194 2.0270002
-0.1203981 0.66024762 2.039
-0.1172 0.66413337 2.0510001
-0.11263048 0.66024762 2.039
-0.10810667 0.65636194 2.0270002
-0.10486286 0.66024762 2.039
-0.10038476 0.65636194 2.0270002
-0.096523814 0.65636194 2.0270002
-0.092662863 0.65636194 2.0270002
-0.080740958 0.59678096 1.8430001
-0.077230476 0.59678096 1.8430001
-0.07412 0.6000191 1.853
-0.070590481 0.6000191 1.853
-0.067060955 0.6000191 1.853
-0.063531429 0.6000191 1.853
-0.059678096 0.59678096 1.8430001
-0.055862859 0.59354287 1.8330001
-0.052657146 0.59678096 1.8430001
-0.049146667 0.59678096 1.8430001
-0.047419049 0.62009525 1.9150001
-0.044 0.62333333 1.9250001
-0.040333334 0.62333333 1.9250001
-0.03687619 0.62689525 1.9360001
-0.033 0.62333333 1.9250001
-0.029333334 0.62333333 1.9250001
-0.025666667 0.62333333 1.9250001
-0.022 0.62333333 1.9250001
-0.018438095 0.62689525 1.9360001
-0.014834287 0.63045716 1.9470001
-0.011188572 0.63401908 1.9580001
-0.0074590477 0.63401908 1.9580001
-0.0037504763 0.63758099 1.9690001
0 0.63758099 1.9690001
0.0037714287 0.6411429 1.9800001
0.0075428574 0.6411429 1.9800001
0.011314286 0.6411429 1.9800001
0.015177144 0.64502859 1.9920001
0.018857144 0.6411429 1.9800001
0.022628572 0.6411429 1.9800001
0.026400002 0.6411429 1.9800001
0.03017143 0.6411429 1.9800001
0.033754285 0.63758099 1.9690001
0.037504762 0.63758099 1.9690001
0.041255239 0.63758099 1.9690001
0.045005716 0.63758099 1.9690001
0.048756193 0.63758099 1.9690001
0.052213334 0.63401908 1.9580001
0.05594286 0.63401908 1.9580001
0.059672382 0.63401908 1.9580001
0.063401908 0.63401908 1.9580001
0.06713143 0.63401908 1.9580001
0.07046286 0.63045716 1.9470001
0.073752381 0.62689525 1.9360001
0.077 0.62333333 1.9250001
0.080666669 0.62333333 1.9250001
0.083895244 0.62009525 1.9150001
0.087542862 0.62009525 1.9150001
0.09119048 0.62009525 1.9150001
0.094838098 0.62009525 1.9150001
0.098485716 0.62009525 1.9150001
0.10213333 0.62009525 1.9150001
0.10578096 0.62009525 1.9150001
0.10942858 0.62009525 1.9150001
0.12482667 0.68453336 2.1140001
0.12806095 0.68032384 2.1010001
0.13206287 0.68032384 2.1010001
0.13606477 0.68032384 2.1010001
0.14006667 0.68032384 2.1010001
0.14406858 0.68032384 2.1010001
0.14807048 0.68032384 2.1010001
0.13781334 0.61653334 1.904
0.13913715 0.60649526 1.8730001
0.14270477 0.60649526 1.8730001
0.14549144 0.60325718 1.863
0.14824 0.6000191 1.853
0.15176953 0.6000191 1.853
0.15529905 0.6000191 1.853
0.24864763 0.69295239 2.1400001
0.25272381 0.69295239 2.1400001
0.2568 0.69295239 2.1400001
0.26087621 0.69295239 2.1400001
0.26495239 0.69295239 2.1400001
0.2673943 0.68874288 2.1270001
0.27310476 0.69295239 2.1400001
0.27718097 0.69295239 2.1400001
0.28125715 0.69295239 2.1400001
0.28706667 0.69716191 2.1530001
0.28940955 0.69295239 2.1400001
0.2952686 0.69716191 2.1530001
0.29936954 0.69716191 2.1530001
0.3016381 0.69295239 2.1400001
0.30571431 0.69295239 2.1400001
0.30979049 0.69295239 2.1400001
-0.28351811 0.66413146 2.039
-0.28128001 0.66804004 2.0510001
-0.27737334 0.66804004 2.0510001
-0.27506667 0.67194861 2.0630002
-0.27113715 0.67194861 2.0630002
-0.26720762 0.67194861 2.0630002
-0.26174667 0.66804004 2.0510001
-0.25784001 0.66804004 2.0510001
-0.25244763 0.66413146 2.039
-0.24856383 0.66413146 2.039
-0.24324001 0.66022289 2.0270002
-0.23937906 0.66022289 2.0270002
-0.23412381 0.65631431 2.0150001
-0.23028572 0.65631431 2.0150001
-0.2277962 0.66022289 2.0270002
-0.22526096 0.66413146 2.039
-0.2200743 0.66022289 2.0270002
-0.21621335 0.66022289 2.0270002
-0.2123524 0.66022289 2.0270002
-0.20725715 0.65631431 2.0150001
-0.20463048 0.66022289 2.0270002
-0.19958095 0.65631431 2.0150001
-0.19574286 0.65631431 2.0150001
-0.15421715 0.67618287 2.0760002
-0.15026286 0.67618287 2.0760002
-0.13673334 0.66804004 2.0510001
-0.13204953 0.66413146 2.039
-0.12816572 0.66413146 2.039
-0.12281905 0.65631431 2.0150001
-0.1203981 0.66413146 2.039
-0.1172 0.66804004 2.0510001
-0.11263048 0.66413146 2.039
-0.10746667 0.65631431 2.0150001
-0.10424571 0.66022289 2.0270002
-0.10038476 0.66022289 2.0270002
-0.096523814 0.66022289 2.0270002
-0.092662863 0.66022289 2.0270002
-0.080740958 0.60029143 1.8430001
-0.077230476 0.60029143 1.8430001
-0.07412 0.60354859 1.853
-0.070590481 0.60354859 1.853
-0.06669905 0.60029143 1.8430001
-0.063531429 0.60354859 1.853
-0.060001906 0.60354859 1.853
-0.055862859 0.59703434 1.8330001
-0.052371431 0.59703434 1.8330001
-0.049680002 0.60680574 1.863
-0.047419049 0.62374288 1.9150001
-0.044 0.62700003 1.9250001
-0.040333334 0.62700003 1.9250001
-0.036666669 0.62700003 1.9250001
-0.033 0.62700003 1.9250001
-0.029333334 0.62700003 1.9250001
-0.025533333 0.62374288 1.9150001
-0.022 0.62700003 1.9250001
-0.018333334 0.62700003 1.9250001
-0.014834287 0.63416576 1.9470001
-0.011188572 0.6377486 1.9580001
-0.0074590477 0.6377486 1.9580001
-0.0037504763 0.64133143 1.9690001
0 0.64133143 1.9690001
0.0037714287 0.64491433 1.9800001
0.0075428574 0.64491433 1.9800001
0.011314286 0.64491433 1.9800001
0.015085715 0.64491433 1.9800001
0.018857144 0.64491433 1.9800001
0.022628572 0.64491433 1.9800001
0.026400002 0.64491433 1.9800001
0.03017143 0.64491433 1.9800001
0.033754285 0.64133143 1.9690001
0.037504762 0.64133143 1.9690001
0.041255239 0.64133143 1.9690001
0.045005716 0.64133143 1.9690001
0.048756193 0.64133143 1.9690001
0.052213334 0.6377486 1.9580001
0.05594286 0.6377486 1.9580001
0.059672382 0.6377486 1.9580001
0.063401908 0.6377486 1.9580001
0.06713143 0.6377486 1.9580001
0.07046286 0.63416576 1.9470001
0.073752381 0.63058287 1.9360001
0.077 0.62700003 1.9250001
0.080666669 0.62700003 1.9250001
0.083895244 0.62374288 1.9150001
0.087542862 0.62374288 1.9150001
0.09119048 0.62374288 1.9150001
0.094838098 0.62374288 1.9150001
0.098485716 0.62374288 1.9150001
0.10213333 0.62374288 1.9150001
0.10578096 0.62374288 1.9150001
0.10942858 0.62374288 1.9150001
0.12482667 0.68856001 2.1140001
0.12806095 0.68432575 2.1010001
0.13206287 0.68432575 2.1010001
0.13606477 0.68432575 2.1010001
0.14006667 0.68432575 2.1010001
0.14406858 0.68432575 2.1010001
0.14807048 0.68432575 2.1010001
0.13913715 0.6100629 1.8730001
0.14270477 0.6100629 1.8730001
0.14549144 0.60680574 1.863
0.14824 0.60354859 1.853
0.15176953 0.60354859 1.853
0.26334286 0.69279432 2.1270001
0.2673943 0.69279432 2.1270001
0.27310476 0.69702858 2.1400001
0.27718097 0.69702858 2.1400001
0.28125715 0.69702858 2.1400001
0.28706667 0.70126289 2.1530001
0.28940955 0.69702858 2.1400001
0.2952686 0.70126289 2.1530001
0.29936954 0.70126289 2.1530001
0.30347049 0.70126289 2.1530001
0.30571431 0.69702858 2.1400001
0.30979049 0.69702858 2.1400001
-0.29937145 0.66015238 2.0150001
-0.29553336 0.66015238 2.0150001
-0.29169524 0.66015238 2.0150001
-0.28957143 0.66408384 2.0270002
-0.28740191 0.66801524 2.039
-0.28351811 0.66801524 2.039
-0.28128001 0.6719467 2.0510001
-0.2789962 0.67587811 2.0630002
-0.27506667 0.67587811 2.0630002
-0.27113715 0.67587811 2.0630002
-0.26720762 0.67587811 2.0630002
-0.2632781 0.67587811 2.0630002
-0.25784001 0.6719467 2.0510001
-0.25393334 0.6719467 2.0510001
-0.24856383 0.66801524 2.039
-0.24468 0.66801524 2.039
-0.24079619 0.66801524 2.039
-0.2355181 0.66408384 2.0270002
-0.23165715 0.66408384 2.0270002
-0.2277962 0.66408384 2.0270002
-0.22526096 0.66801524 2.039
-0.22137715 0.66801524 2.039
-0.21749334 0.66801524 2.039
-0.21360953 0.66801524 2.039
-0.20849143 0.66408384 2.0270002
-0.20463048 0.66408384 2.0270002
-0.19958095 0.66015238 2.0150001
-0.19574286 0.66015238 2.0150001
-0.19190477 0.66015238 2.0150001
-0.12281905 0.66015238 2.0150001
-0.1203981 0.66801524 2.039
-0.1172 0.6719467 2.0510001
-0.11263048 0.66801524 2.039
-0.10746667 0.66015238 2.0150001
-0.10362858 0.66015238 2.0150001
-0.087558098 0.57923049 1.7680001
-0.08419048 0.57923049 1.7680001
-0.08338286 0.59757715 1.8240001
-0.080302857 0.60052574 1.8330001
-0.076811433 0.60052574 1.8330001
-0.073720001 0.60380191 1.8430001
-0.070590481 0.60707814 1.853
-0.06669905 0.60380191 1.8430001
-0.063531429 0.60707814 1.853
-0.059678096 0.60380191 1.8430001
-0.055588573 0.59757715 1.8240001
-0.052114289 0.59757715 1.8240001
-0.050213337 0.6169067 1.8830001
-0.047419049 0.6273905 1.9150001
-0.043771431 0.6273905 1.9150001
-0.040333334 0.63066667 1.9250001
-0.036666669 0.63066667 1.9250001
-0.033 0.63066667 1.9250001
-0.029333334 0.63066667 1.9250001
-0.025533333 0.6273905 1.9150001
-0.022 0.63066667 1.9250001
-0.018333334 0.63066667 1.9250001
-0.014834287 0.63787431 1.9470001
-0.011188572 0.64147812 1.9580001
-0.0074590477 0.64147812 1.9580001
-0.0037504763 0.64508194 1.9690001
0 0.64508194 1.9690001
0.0037714287 0.64868575 1.9800001
0.0075428574 0.64868575 1.9800001
0.011314286 0.64868575 1.9800001
0.015085715 0.64868575 1.9800001
0.018857144 0.64868575 1.9800001
0.022628572 0.64868575 1.9800001
0.026400002 0.64868575 1.9800001
0.03017143 0.64868575 1.9800001
0.03394286 0.64868575 1.9800001
0.037714288 0.64868575 1.9800001
0.041255239 0.64508194 1.9690001
0.045005716 0.64508194 1.9690001
0.048756193 0.64508194 1.9690001
0.052213334 0.64147812 1.9580001
0.05594286 0.64147812 1.9580001
0.060007621 0.64508194 1.9690001
0.063401908 0.64147812 1.9580001
0.06713143 0.64147812 1.9580001
0.07046286 0.63787431 1.9470001
0.074171431 0.63787431 1.9470001
0.077440001 0.63427049 1.9360001
0.080666669 0.63066667 1.9250001
0.084333338 0.63066667 1.9250001
0.087542862 0.6273905 1.9150001
0.091666669 0.63066667 1.9250001
0.095333338 0.63066667 1.9250001
0.099000007 0.63066667 1.9250001
0.10266667 0.63066667 1.9250001
0.10633334 0.63066667 1.9250001
0.12806095 0.68832767 2.1010001
0.13206287 0.68832767 2.1010001
0.13606477 0.68832767 2.1010001
0.14006667 0.68832767 2.1010001
0.27476382 0.70536381 2.1530001
0.27886477 0.70536381 2.1530001
0.28296572 0.70536381 2.1530001
0.28706667 0.70536381 2.1530001
0.29116762 0.70536381 2.1530001
0.2952686 0.70536381 2.1530001
0.29936954 0.70536381 2.1530001
0.30347049 0.70536381 2.1530001
0.30757144 0.70536381 2.1530001
0.31167239 0.70536381 2.1530001
-0.30704764 0.6639905 2.0150001
-0.30320954 0.6639905 2.0150001
-0.29937145 0.6639905 2.0150001
-0.29553336 0.6639905 2.0150001
-0.29343238 0.66794479 2.0270002
-0.28957143 0.66794479 2.0270002
-0.28740191 0.67189908 2.039
-0.28518668 0.67585337 2.0510001
-0.28292572 0.67980766 2.0630002
-0.2789962 0.67980766 2.0630002
-0.27506667 0.67980766 2.0630002
-0.27113715 0.67980766 2.0630002
-0.26720762 0.67980766 2.0630002
-0.2632781 0.67980766 2.0630002
-0.25784001 0.67585337 2.0510001
-0.25393334 0.67585337 2.0510001
-0.25002667 0.67585337 2.0510001
-0.24612001 0.67585337 2.0510001
-0.24079619 0.67189908 2.039
-0.23691238 0.67189908 2.039
-0.23302858 0.67189908 2.039
-0.22914477 0.67189908 2.039
-0.22526096 0.67189908 2.039
-0.22137715 0.67189908 2.039
-0.21749334 0.67189908 2.039
-0.21109524 0.6639905 2.0150001
-0.20725715 0.6639905 2.0150001
-0.20341906 0.6639905 2.0150001
-0.19958095 0.6639905 2.0150001
-0.19574286 0.6639905 2.0150001
-0.19190477 0.6639905 2.0150001
-0.18806668 0.6639905 2.0150001
-0.18422858 0.6639905 2.0150001
-0.1203981 0.67189908 2.039
-0.1172 0.67585337 2.0510001
-0.11263048 0.67189908 2.039
-0.10746667 0.6639905 2.0150001
-0.10362858 0.6639905 2.0150001
-0.087558098 0.58259809 1.7680001
-0.08419048 0.58259809 1.7680001
-0.08338286 0.60105145 1.8240001
-0.079908572 0.60105145 1.8240001
-0.076811433 0.60401714 1.8330001
-0.073720001 0.60731238 1.8430001
-0.070209526 0.60731238 1.8430001
-0.066337146 0.60401714 1.8330001
-0.063531429 0.61060762 1.853
-0.059678096 0.60731238 1.8430001
-0.054979049 0.59446096 1.8040001
-0.05154286 0.59446096 1.8040001
-0.050213337 0.62049335 1.8830001
-0.047146667 0.62741333 1.904
-0.043771431 0.63103813 1.9150001
-0.040123813 0.63103813 1.9150001
-0.036666669 0.63433337 1.9250001
-0.033 0.63433337 1.9250001
-0.029333334 0.63433337 1.9250001
-0.025666667 0.63433337 1.9250001
-0.022125715 0.63795811 1.9360001
-0.018542858 0.64158291 1.9470001
-0.014918095 0.64520764 1.9580001
-0.011188572 0.64520764 1.9580001
-0.0075009526 0.64883238 1.9690001
-0.0037504763 0.64883238 1.9690001
0 0.64883238 1.9690001
0.0037714287 0.65245718 1.9800001
0.0075009526 0.64883238 1.9690001
0.011251429 0.64883238 1.9690001
0.015085715 0.65245718 1.9800001
0.018857144 0.65245718 1.9800001
0.022765715 0.65641147 1.9920001
0.026560001 0.65641147 1.9920001
0.03017143 0.65245718 1.9800001
0.03394286 0.65245718 1.9800001
0.037714288 0.65245718 1.9800001
0.041485716 0.65245718 1.9800001
0.045257144 0.65245718 1.9800001
0.049028572 0.65245718 1.9800001
0.05250667 0.64883238 1.9690001
0.056257144 0.64883238 1.9690001
0.060007621 0.64883238 1.9690001
0.063758098 0.64883238 1.9690001
0.06713143 0.64520764 1.9580001
0.070860952 0.64520764 1.9580001
0.074590482 0.64520764 1.9580001
0.077880003 0.64158291 1.9470001
0.081127621 0.63795811 1.9360001
0.084333338 0.63433337 1.9250001
0.088 0.63433337 1.9250001
0.091666669 0.63433337 1.9250001
0.095333338 0.63433337 1.9250001
0.099000007 0.63433337 1.9250001
0.10213333 0.63103813 1.9150001
0.10578096 0.63103813 1.9150001
0.27886477 0.70946479 2.1530001
0.28296572 0.70946479 2.1530001
0.28706667 0.70946479 2.1530001
0.29116762 0.70946479 2.1530001
0.2952686 0.70946479 2.1530001
0.29936954 0.70946479 2.1530001
0.30347049 0.70946479 2.1530001
0.30757144 0.70946479 2.1530001
0.31167239 0.70946479 2.1530001
-0.30320954 0.66782862 2.0150001
-0.29937145 0.66782862 2.0150001
-0.29729334 0.67180574 2.0270002
-0.29343238 0.67180574 2.0270002
-0.29128572 0.67578286 2.039
-0.28740191 0.67578286 2.039
-0.28351811 0.67578286 2.039
-0.28128001 0.67976004 2.0510001
-0.27737334 0.67976004 2.0510001
-0.27506667 0.68373716 2.0630002
-0.27113715 0.68373716 2.0630002
-0.26720762 0.68373716 2.0630002
-0.2632781 0.68373716 2.0630002
-0.25784001 0.67976004 2.0510001
-0.25393334 0.67976004 2.0510001
-0.25002667 0.67976004 2.0510001
-0.24468 0.67578286 2.039
-0.24079619 0.67578286 2.039
-0.23691238 0.67578286 2.039
-0.23302858 0.67578286 2.039
-0.22914477 0.67578286 2.039
-0.22526096 0.67578286 2.039
-0.22137715 0.67578286 2.039
-0.21749334 0.67578286 2.039
-0.21109524 0.66782862 2.0150001
-0.20725715 0.66782862 2.0150001
-0.20341906 0.66782862 2.0150001
-0.19958095 0.66782862 2.0150001
-0.19574286 0.66782862 2.0150001
-0.19190477 0.66782862 2.0150001
-0.18806668 0.66782862 2.0150001
-0.18422858 0.66782862 2.0150001
-0.18039048 0.66782862 2.0150001
-0.11263048 0.67578286 2.039
-0.10746667 0.66782862 2.0150001
-0.10362858 0.66782862 2.0150001
-0.087558098 0.58596575 1.7680001
-0.084619053 0.58894861 1.7770001
-0.081234291 0.58894861 1.7770001
-0.07784953 0.58894861 1.7770001
-0.076811433 0.6075086 1.8330001
-0.073720001 0.61082286 1.8430001
-0.070209526 0.61082286 1.8430001
-0.06669905 0.61082286 1.8430001
-0.063531429 0.61413717 1.853
-0.059354287 0.6075086 1.8330001
-0.055862859 0.6075086 1.8330001
-0.05154286 0.59789717 1.8040001
-0.047146667 0.63104004 1.904
-0.043771431 0.63468575 1.9150001
-0.040123813 0.63468575 1.9150001
-0.036476191 0.63468575 1.9150001
-0.033 0.63800001 1.9250001
-0.029333334 0.63800001 1.9250001
-0.025666667 0.63800001 1.9250001
-0.022125715 0.64164573 1.9360001
-0.018542858 0.64529145 1.9470001
-0.014834287 0.64529145 1.9470001
-0.011125715 0.64529145 1.9470001
-0.0074590477 0.64893717 1.9580001
-0.0037295239 0.64893717 1.9580001
0 0.64893717 1.9580001
0.0037295239 0.64893717 1.9580001
0.0075009526 0.65258288 1.9690001
0.011382857 0.66020572 1.9920001
0.015177144 0.66020572 1.9920001
0.01897143 0.66020572 1.9920001
0.022765715 0.66020572 1.9920001
0.026560001 0.66020572 1.9920001
0.030354287 0.66020572 1.9920001
0.03394286 0.6562286 1.9800001
0.03794286 0.66020572 1.9920001
0.041485716 0.6562286 1.9800001
0.045257144 0.6562286 1.9800001
0.049028572 0.6562286 1.9800001
0.05250667 0.65258288 1.9690001
0.056257144 0.65258288 1.9690001
0.060342859 0.6562286 1.9800001
0.063758098 0.65258288 1.9690001
0.067508571 0.65258288 1.9690001
0.071259052 0.65258288 1.9690001
0.074590482 0.64893717 1.9580001
0.078320004 0.64893717 1.9580001
0.081127621 0.64164573 1.9360001
0.084333338 0.63800001 1.9250001
0.089005716 0.64529145 1.9470001
0.092714287 0.64529145 1.9470001
0.096422859 0.64529145 1.9470001
0.099000007 0.63800001 1.9250001
0.10213333 0.63468575 1.9150001
0.10578096 0.63468575 1.9150001
0.28480572 0.71820575 2.1670001
0.28706667 0.71356577 2.1530001
0.29116762 0.71356577 2.1530001
0.29348573 0.70925719 2.1400001
0.29936954 0.71356577 2.1530001
0.30347049 0.71356577 2.1530001
0.30757144 0.71356577 2.1530001
0.31167239 0.71356577 2.1530001
-0.31273717 0.67566669 2.0270002
-0.31070477 0.6796667 2.039
-0.30501524 0.67566669 2.0270002
-0.30115429 0.67566669 2.0270002
-0.29905334 0.6796667 2.039
-0.29516953 0.6796667 2.039
-0.29128572 0.6796667 2.039
-0.28909335 0.68366671 2.0510001
-0.28518668 0.68366671 2.0510001
-0.28128001 0.68366671 2.0510001
-0.27737334 0.68366671 2.0510001
-0.27346668 0.68366671 2.0510001
-0.27113715 0.68766671 2.0630002
-0.26720762 0.68766671 2.0630002
-0.26174667 0.68366671 2.0510001
-0.25784001 0.68366671 2.0510001
-0.25393334 0.68366671 2.0510001
-0.25002667 0.68366671 2.0510001
-0.24468 0.6796667 2.039
-0.24079619 0.6796667 2.039
-0.23691238 0.6796667 2.039
-0.23302858 0.6796667 2.039
-0.22914477 0.6796667 2.039
-0.22526096 0.6796667 2.039
-0.22137715 0.6796667 2.039
-0.21621335 0.67566669 2.0270002
-0.21109524 0.67166668 2.0150001
-0.20725715 0.67166668 2.0150001
-0.20341906 0.67166668 2.0150001
-0.19958095 0.67166668 2.0150001
-0.19574286 0.67166668 2.0150001
-0.19190477 0.67166668 2.0150001
-0.18806668 0.67166668 2.0150001
-0.18313144 0.66766667 2.003
-0.17931619 0.66766667 2.003
-0.17550096 0.66766667 2.003
-0.092314288 0.59833336 1.7950001
-0.088003814 0.59233338 1.7770001
-0.085047625 0.59533334 1.7860001
-0.082057148 0.59833336 1.7950001
-0.080302857 0.611 1.8330001
-0.077230476 0.61433333 1.8430001
-0.073320001 0.611 1.8330001
-0.069828577 0.611 1.8330001
-0.06669905 0.61433333 1.8430001
-0.063531429 0.61766666 1.853
-0.059354287 0.611 1.8330001
-0.055862859 0.611 1.8330001
-0.036476191 0.63833338 1.9150001
-0.033 0.64166671 1.9250001
-0.029333334 0.64166671 1.9250001
-0.025666667 0.64166671 1.9250001
-0.022125715 0.64533335 1.9360001
-0.018542858 0.64900005 1.9470001
-0.014834287 0.64900005 1.9470001
-0.011125715 0.64900005 1.9470001
-0.0074171433 0.64900005 1.9470001
-0.0037295239 0.65266669 1.9580001
0 0.65266669 1.9580001
0.0037295239 0.65266669 1.9580001
0.011382857 0.66400003 1.9920001
0.015177144 0.66400003 1.9920001
0.01897143 0.66400003 1.9920001
0.022765715 0.66400003 1.9920001
0.026560001 0.66400003 1.9920001
0.030354287 0.66400003 1.9920001
0.034148574 0.66400003 1.9920001
0.03794286 0.66400003 1.9920001
0.041737143 0.66400003 1.9920001
0.045531429 0.66400003 1.9920001
0.049028572 0.66000003 1.9800001
0.05250667 0.65633339 1.9690001
0.056257144 0.65633339 1.9690001
0.060342859 0.66000003 1.9800001
0.064114287 0.66000003 1.9800001
0.067885719 0.66000003 1.9800001
0.071657144 0.66000003 1.9800001
0.075428575 0.66000003 1.9800001
0.078320004 0.65266669 1.9580001
0.089005716 0.64900005 1.9470001
0.092714287 0.64900005 1.9470001
0.096422859 0.64900005 1.9470001
0.28706667 0.71766669 2.1530001
0.29116762 0.71766669 2.1530001
0.29348573 0.71333337 2.1400001
0.29936954 0.71766669 2.1530001
0.30347049 0.71766669 2.1530001
0.30757144 0.71766669 2.1530001
0.31167239 0.71766669 2.1530001
0.31577334 0.71766669 2.1530001
-0.31273717 0.67952764 2.0270002
-0.31070477 0.68355048 2.039
-0.30501524 0.67952764 2.0270002
-0.30115429 0.67952764 2.0270002
-0.29729334 0.67952764 2.0270002
-0.29516953 0.68355048 2.039
-0.29128572 0.68355048 2.039
-0.28740191 0.68355048 2.039
-0.28351811 0.68355048 2.039
-0.28128001 0.68757337 2.0510001
-0.27737334 0.68757337 2.0510001
-0.27346668 0.68757337 2.0510001
-0.26956001 0.68757337 2.0510001
-0.26565334 0.68757337 2.0510001
-0.26174667 0.68757337 2.0510001
-0.25633144 0.68355048 2.039
-0.25393334 0.68757337 2.0510001
-0.25002667 0.68757337 2.0510001
-0.24468 0.68355048 2.039
-0.24079619 0.68355048 2.039
-0.23691238 0.68355048 2.039
-0.23302858 0.68355048 2.039
-0.22914477 0.68355048 2.039
-0.22658667 0.68757337 2.0510001
-0.22137715 0.68355048 2.039
-0.21621335 0.67952764 2.0270002
-0.21109524 0.6755048 2.0150001
-0.20725715 0.6755048 2.0150001
-0.20341906 0.6755048 2.0150001
-0.19958095 0.6755048 2.0150001
-0.19574286 0.6755048 2.0150001
-0.19190477 0.6755048 2.0150001
-0.18806668 0.6755048 2.0150001
-0.18212572 0.66779429 1.9920001
-0.17833143 0.66779429 1.9920001
-0.092777148 0.60476953 1.8040001
-0.08844953 0.59873527 1.7860001
-0.085047625 0.59873527 1.7860001
-0.082057148 0.6017524 1.7950001
-0.079032384 0.60476953 1.8040001
-0.075596191 0.60476953 1.8040001
-0.072160006 0.60476953 1.8040001
-0.069104761 0.60812193 1.8140001
-0.065649524 0.60812193 1.8140001
-0.018542858 0.65270859 1.9470001
-0.014834287 0.65270859 1.9470001
-0.011125715 0.65270859 1.9470001
-0.0074171433 0.65270859 1.9470001
0.011514287 0.6755048 2.0150001
0.015260953 0.67148191 2.003
0.019076191 0.67148191 2.003
0.02289143 0.67148191 2.003
0.026706668 0.67148191 2.003
0.030354287 0.66779429 1.9920001
0.034148574 0.66779429 1.9920001
0.03794286 0.66779429 1.9920001
0.041737143 0.66779429 1.9920001
0.045531429 0.66779429 1.9920001
0.049325716 0.66779429 1.9920001
0.05250667 0.66008383 1.9690001
0.056257144 0.66008383 1.9690001
0.060342859 0.66377145 1.9800001
0.071657144 0.66377145 1.9800001
0.075428575 0.66377145 1.9800001
0.14627239 0.62790096 1.8730001
0.14984001 0.62790096 1.8730001
0.29116762 0.72176766 2.1530001
0.29348573 0.71740955 2.1400001
0.29936954 0.72176766 2.1530001
0.30347049 0.72176766 2.1530001
0.30757144 0.72176766 2.1530001
0.30979049 0.71740955 2.1400001
0.31386667 0.71740955 2.1400001
0.31794286 0.71740955 2.1400001
-0.32235619 0.68743432 2.039
-0.31847239 0.68743432 2.039
-0.31458858 0.68743432 2.039
-0.31070477 0.68743432 2.039
-0.30501524 0.68338859 2.0270002
-0.30115429 0.68338859 2.0270002
-0.29905334 0.68743432 2.039
-0.29516953 0.68743432 2.039
-0.29128572 0.68743432 2.039
-0.28740191 0.68743432 2.039
-0.28351811 0.68743432 2.039
-0.28128001 0.69148004 2.0510001
-0.27737334 0.69148004 2.0510001
-0.27346668 0.69148004 2.0510001
-0.27113715 0.69552577 2.0630002
-0.26565334 0.69148004 2.0510001
-0.2632781 0.69552577 2.0630002
-0.25934857 0.69552577 2.0630002
-0.24079619 0.68743432 2.039
-0.23830667 0.69148004 2.0510001
-0.2344 0.69148004 2.0510001
-0.23049334 0.69148004 2.0510001
-0.22658667 0.69148004 2.0510001
-0.22268 0.69148004 2.0510001
-0.21877334 0.69148004 2.0510001
-0.20341906 0.67934287 2.0150001
-0.19958095 0.67934287 2.0150001
-0.19574286 0.67934287 2.0150001
-0.19190477 0.67934287 2.0150001
-0.18694668 0.67529714 2.003
-0.18313144 0.67529714 2.003
-0.092777148 0.60820574 1.8040001
-0.088895239 0.60517144 1.7950001
-0.085476197 0.60517144 1.7950001
-0.082057148 0.60517144 1.7950001
-0.079032384 0.60820574 1.8040001
-0.076015241 0.61157715 1.8140001
-0.072560005 0.61157715 1.8140001
-0.069104761 0.61157715 1.8140001
-0.065649524 0.61157715 1.8140001
-0.018542858 0.65641719 1.9470001
-0.014834287 0.65641719 1.9470001
0.011514287 0.67934287 2.0150001
0.015260953 0.67529714 2.003
0.019076191 0.67529714 2.003
0.02289143 0.67529714 2.003
0.026706668 0.67529714 2.003
0.030521905 0.67529714 2.003
0.034148574 0.6715886 1.9920001
0.03794286 0.6715886 1.9920001
0.041737143 0.6715886 1.9920001
0.045531429 0.6715886 1.9920001
0.049325716 0.6715886 1.9920001
0.12912001 0.63484001 1.8830001
0.13200191 0.63146859 1.8730001
0.13556953 0.63146859 1.8730001
0.13913715 0.63146859 1.8730001
0.14270477 0.63146859 1.8730001
0.14627239 0.63146859 1.8730001
0.15064001 0.63484001 1.8830001
0.15422668 0.63484001 1.8830001
0.15781334 0.63484001 1.8830001
0.16140001 0.63484001 1.8830001
0.28940955 0.72148573 2.1400001
0.29348573 0.72148573 2.1400001
0.29936954 0.72586858 2.1530001
0.30347049 0.72586858 2.1530001
0.30757144 0.72586858 2.1530001
0.30979049 0.72148573 2.1400001
0.31386667 0.72148573 2.1400001
0.31794286 0.72148573 2.1400001
-0.32235619 0.69131809 2.039
-0.31847239 0.69131809 2.039
-0.31458858 0.69131809 2.039
-0.31070477 0.69131809 2.039
-0.30501524 0.68724954 2.0270002
-0.30115429 0.68724954 2.0270002
-0.29729334 0.68724954 2.0270002
-0.29516953 0.69131809 2.039
-0.29128572 0.69131809 2.039
-0.28740191 0.69131809 2.039
-0.28351811 0.69131809 2.039
-0.2796343 0.69131809 2.039
-0.27737334 0.69538671 2.0510001
-0.27346668 0.69538671 2.0510001
-0.26956001 0.69538671 2.0510001
-0.099152386 0.60859048 1.7950001
-0.095733337 0.60859048 1.7950001
-0.092314288 0.60859048 1.7950001
-0.088895239 0.60859048 1.7950001
-0.085476197 0.60859048 1.7950001
-0.082057148 0.60859048 1.7950001
-0.079032384 0.61164194 1.8040001
-0.076015241 0.61503237 1.8140001
-0.073320001 0.62147433 1.8330001
-0.069828577 0.62147433 1.8330001
-0.067784764 0.63503623 1.8730001
-0.064217143 0.63503623 1.8730001
-0.01864762 0.66385525 1.9580001
-0.014918095 0.66385525 1.9580001
0.01544381 0.68724954 2.0270002
0.019304764 0.68724954 2.0270002
0.023165716 0.68724954 2.0270002
0.027026668 0.68724954 2.0270002
0.030521905 0.67911243 2.003
0.034148574 0.67538285 1.9920001
0.03794286 0.67538285 1.9920001
0.11968 0.64554667 1.904
0.12330667 0.64554667 1.904
0.12626667 0.64215624 1.8940001
0.12912001 0.63842666 1.8830001
0.13270667 0.63842666 1.8830001
0.13629334 0.63842666 1.8830001
0.13913715 0.63503623 1.8730001
0.14270477 0.63503623 1.8730001
0.14627239 0.63503623 1.8730001
0.15064001 0.63842666 1.8830001
0.15422668 0.63842666 1.8830001
0.15781334 0.63842666 1.8830001
0.16140001 0.63842666 1.8830001
0.16498667 0.63842666 1.8830001
0.29116762 0.72996956 2.1530001
0.2952686 0.72996956 2.1530001
0.29936954 0.72996956 2.1530001
0.30347049 0.72996956 2.1530001
0.30757144 0.72996956 2.1530001
0.31167239 0.72996956 2.1530001
0.31577334 0.72996956 2.1530001
0.31987429 0.72996956 2.1530001
-0.32045907 0.69111049 2.0270002
-0.31659812 0.69111049 2.0270002
-0.31458858 0.69520193 2.039
-0.31070477 0.69520193 2.039
-0.30501524 0.69111049 2.0270002
-0.30115429 0.69111049 2.0270002
-0.29729334 0.69111049 2.0270002
-0.29343238 0.69111049 2.0270002
-0.28957143 0.69111049 2.0270002
-0.099152386 0.61200953 1.7950001
-0.095733337 0.61200953 1.7950001
-0.092314288 0.61200953 1.7950001
-0.088895239 0.61200953 1.7950001
-0.085476197 0.61200953 1.7950001
-0.082468577 0.61507809 1.8040001
-0.079470478 0.61848766 1.8140001
-0.076434292 0.62189716 1.8240001
-0.073720001 0.62837523 1.8430001
-0.071352385 0.63860381 1.8730001
-0.067784764 0.63860381 1.8730001
-0.064217143 0.63860381 1.8730001
-0.060649525 0.63860381 1.8730001
-0.057081908 0.63860381 1.8730001
-0.022377145 0.66758478 1.9580001
-0.018752381 0.67133528 1.9690001
-0.015001905 0.67133528 1.9690001
-0.0075428574 0.67508572 1.9800001
-0.0037714287 0.67508572 1.9800001
0.01544381 0.69111049 2.0270002
0.019304764 0.69111049 2.0270002
0.023165716 0.69111049 2.0270002
0.027026668 0.69111049 2.0270002
0.099000007 0.65633339 1.9250001
0.10213333 0.65292382 1.9150001
0.10578096 0.65292382 1.9150001
0.10942858 0.65292382 1.9150001
0.11242667 0.64917338 1.904
0.11605334 0.64917338 1.904
0.11905143 0.64576381 1.8940001
0.12265905 0.64576381 1.8940001
0.12553334 0.64201337 1.8830001
0.12912001 0.64201337 1.8830001
0.13270667 0.64201337 1.8830001
0.13629334 0.64201337 1.8830001
0.13988 0.64201337 1.8830001
0.14270477 0.63860381 1.8730001
0.14627239 0.63860381 1.8730001
0.15064001 0.64201337 1.8830001
0.15422668 0.64201337 1.8830001
0.15781334 0.64201337 1.8830001
0.16140001 0.64201337 1.8830001
0.29116762 0.73407048 2.1530001
0.2952686 0.73407048 2.1530001
0.29936954 0.73407048 2.1530001
0.30347049 0.73407048 2.1530001
0.30757144 0.73407048 2.1530001
0.31167239 0.73407048 2.1530001
0.31577334 0.73407048 2.1530001
0.31987429 0.73407048 2.1530001
0.32397524 0.73407048 2.1530001
0.32807621 0.73407048 2.1530001
0.33217716 0.73407048 2.1530001
0.34065145 0.74361718 2.181
-0.32045907 0.69497144 2.0270002
-0.31659812 0.69497144 2.0270002
-0.31458858 0.69908571 2.039
-0.31070477 0.69908571 2.039
-0.30501524 0.69497144 2.0270002
-0.30115429 0.69497144 2.0270002
-0.29729334 0.69497144 2.0270002
-0.29343238 0.69497144 2.0270002
-0.099649526 0.6185143 1.8040001
-0.095733337 0.61542857 1.7950001
-0.092314288 0.61542857 1.7950001
-0.088895239 0.61542857 1.7950001
-0.085476197 0.61542857 1.7950001
-0.082468577 0.6185143 1.8040001
-0.079032384 0.6185143 1.8040001
-0.07848762 0.64217144 1.8730001
-0.074920006 0.64217144 1.8730001
-0.071352385 0.64217144 1.8730001
-0.067784764 0.64217144 1.8730001
-0.064217143 0.64217144 1.8730001
-0.060649525 0.64217144 1.8730001
-0.057081908 0.64217144 1.8730001
-0.053514287 0.64217144 1.8730001
-0.049946669 0.64217144 1.8730001
-0.022377145 0.6713143 1.9580001
-0.018752381 0.67508572 1.9690001
-0.015001905 0.67508572 1.9690001
-0.011382857 0.68297148 1.9920001
-0.0075885719 0.68297148 1.9920001
-0.0037942859 0.68297148 1.9920001
0 0.68297148 1.9920001
0.0037942859 0.68297148 1.9920001
0.0076304763 0.6867429 2.003
0.011445715 0.6867429 2.003
0.015260953 0.6867429 2.003
0.019076191 0.6867429 2.003
0.02289143 0.6867429 2.003
0.026560001 0.68297148 1.9920001
0.030354287 0.68297148 1.9920001
0.099000007 0.66000003 1.9250001
0.10213333 0.65657145 1.9150001
0.10578096 0.65657145 1.9150001
0.10942858 0.65657145 1.9150001
0.1130762 0.65657145 1.9150001
0.11605334 0.65280002 1.904
0.11968 0.65280002 1.904
0.12330667 0.65280002 1.904
0.12626667 0.64937145 1.8940001
0.12912001 0.64560002 1.8830001
0.13270667 0.64560002 1.8830001
0.13629334 0.64560002 1.8830001
0.13988 0.64560002 1.8830001
0.14346667 0.64560002 1.8830001
0.14627239 0.64217144 1.8730001
0.15064001 0.64560002 1.8830001
0.15422668 0.64560002 1.8830001
0.15781334 0.64560002 1.8830001
0.16054286 0.64217144 1.8730001
0.16411048 0.64217144 1.8730001
0.29116762 0.73817146 2.1530001
0.2952686 0.73817146 2.1530001
0.29936954 0.73817146 2.1530001
0.30347049 0.73817146 2.1530001
0.30757144 0.73817146 2.1530001
0.31167239 0.73817146 2.1530001
0.31577334 0.73817146 2.1530001
0.31987429 0.73817146 2.1530001
0.32397524 0.73817146 2.1530001
0.32807621 0.73817146 2.1530001
0.33217716 0.73817146 2.1530001
0.34065145 0.74777144 2.181
0.34480572 0.74777144 2.181
0.34896001 0.74777144 2.181
-0.32425335 0.70710671 2.0510001
-0.32034668 0.70710671 2.0510001
-0.31829143 0.71124381 2.0630002
-0.31253335 0.70710671 2.0510001
-0.30501524 0.69883239 2.0270002
-0.30115429 0.69883239 2.0270002
-0.29729334 0.69883239 2.0270002
-0.099649526 0.62195051 1.8040001
-0.096213333 0.62195051 1.8040001
-0.092314288 0.61884767 1.7950001
-0.088895239 0.61884767 1.7950001
-0.085476197 0.61884767 1.7950001
-0.082925715 0.6253981 1.8140001
-0.080740958 0.63539624 1.8430001
-0.078068577 0.64229143 1.863
-0.074519999 0.64229143 1.863
-0.071352385 0.64573908 1.8730001
-0.067784764 0.64573908 1.8730001
-0.064217143 0.64573908 1.8730001
-0.060649525 0.64573908 1.8730001
-0.057081908 0.64573908 1.8730001
-0.053514287 0.64573908 1.8730001
-0.049946669 0.64573908 1.8730001
-0.046626668 0.64918667 1.8830001
-0.04304 0.64918667 1.8830001
-0.011382857 0.68676573 1.9920001
-0.0075885719 0.68676573 1.9920001
-0.0037714287 0.68262857 1.9800001
0 0.68676573 1.9920001
0.0037942859 0.68676573 1.9920001
0.0075885719 0.68676573 1.9920001
0.011382857 0.68676573 1.9920001
0.015177144 0.68676573 1.9920001
0.01897143 0.68676573 1.9920001
0.022765715 0.68676573 1.9920001
0.026560001 0.68676573 1.9920001
0.030354287 0.68676573 1.9920001
0.095878102 0.66745907 1.9360001
0.099000007 0.66366667 1.9250001
0.10266667 0.66366667 1.9250001
0.10633334 0.66366667 1.9250001
0.11000001 0.66366667 1.9250001
0.1130762 0.66021907 1.9150001
0.11605334 0.65642667 1.904
0.11968 0.65642667 1.904
0.12330667 0.65642667 1.904
0.12626667 0.65297908 1.8940001
0.12912001 0.64918667 1.8830001
0.13270667 0.64918667 1.8830001
0.13629334 0.64918667 1.8830001
0.13988 0.64918667 1.8830001
0.14270477 0.64573908 1.8730001
0.14627239 0.64573908 1.8730001
0.14984001 0.64573908 1.8730001
0.15422668 0.64918667 1.8830001
0.15697524 0.64573908 1.8730001
0.16054286 0.64573908 1.8730001
0.16323429 0.64229143 1.863
0.16678286 0.64229143 1.863
0.29718858 0.7470991 2.1670001
0.3013162 0.7470991 2.1670001
0.30544382 0.7470991 2.1670001
0.30571431 0.73779052 2.1400001
0.30979049 0.73779052 2.1400001
0.31386667 0.73779052 2.1400001
0.31794286 0.73779052 2.1400001
0.32201907 0.73779052 2.1400001
0.32609525 0.73779052 2.1400001
0.33017144 0.73779052 2.1400001
0.33627811 0.74227244 2.1530001
0.34037906 0.74227244 2.1530001
0.34448001 0.74227244 2.1530001
-0.32425335 0.71101338 2.0510001
-0.32034668 0.71101338 2.0510001
-0.31644002 0.71101338 2.0510001
-0.31253335 0.71101338 2.0510001
-0.30682096 0.70685333 2.039
-0.30293715 0.70685333 2.039
-0.099649526 0.62538671 1.8040001
-0.096213333 0.62538671 1.8040001
-0.092314288 0.62226671 1.7950001
-0.088895239 0.62226671 1.7950001
-0.085476197 0.62226671 1.7950001
-0.082468577 0.62538671 1.8040001
-0.079470478 0.62885338 1.8140001
-0.076811433 0.63544005 1.8330001
-0.073720001 0.63890672 1.8430001
-0.070971429 0.64584005 1.863
-0.067422859 0.64584005 1.863
-0.064217143 0.64930671 1.8730001
-0.060325716 0.64584005 1.863
-0.057081908 0.64930671 1.8730001
-0.053514287 0.64930671 1.8730001
-0.050213337 0.65277338 1.8830001
-0.04689905 0.65658671 1.8940001
-0.04352 0.66005337 1.904
-0.040123813 0.6638667 1.9150001
-0.036476191 0.6638667 1.9150001
-0.015085715 0.6864 1.9800001
-0.011382857 0.69056004 1.9920001
-0.0075885719 0.69056004 1.9920001
-0.0037714287 0.6864 1.9800001
0 0.69056004 1.9920001
0.0037942859 0.69056004 1.9920001
0.0075885719 0.69056004 1.9920001
0.011382857 0.69056004 1.9920001
0.015177144 0.69056004 1.9920001
0.01897143 0.69056004 1.9920001
0.022765715 0.69056004 1.9920001
0.026400002 0.6864 1.9800001
0.03017143 0.6864 1.9800001
0.085946672 0.71101338 2.0510001
0.089853339 0.71101338 2.0510001
0.095878102 0.67114669 1.9360001
0.099565715 0.67114669 1.9360001
0.10325333 0.67114669 1.9360001
0.10694095 0.67114669 1.9360001
0.11000001 0.66733336 1.9250001
0.1130762 0.6638667 1.9150001
0.11672381 0.6638667 1.9150001
0.11968 0.66005337 1.904
0.12330667 0.66005337 1.904
0.12693334 0.66005337 1.904
0.12912001 0.65277338 1.8830001
0.13270667 0.65277338 1.8830001
0.13629334 0.65277338 1.8830001
0.13988 0.65277338 1.8830001
0.14270477 0.64930671 1.8730001
0.14627239 0.64930671 1.8730001
0.14984001 0.64930671 1.8730001
0.15340762 0.64930671 1.8730001
0.15697524 0.64930671 1.8730001
0.16054286 0.64930671 1.8730001
0.16323429 0.64584005 1.863
0.16678286 0.64584005 1.863
0.3016381 0.74186671 2.1400001
0.30571431 0.74186671 2.1400001
0.30979049 0.74186671 2.1400001
0.31386667 0.74186671 2.1400001
0.31601143 0.73736 2.1270001
0.32006288 0.73736 2.1270001
0.32609525 0.74186671 2.1400001
0.33017144 0.74186671 2.1400001
0.33627811 0.74637336 2.1530001
-0.32034668 0.71492004 2.0510001
-0.31829143 0.71910286 2.0630002
-0.31253335 0.71492004 2.0510001
-0.30682096 0.71073717 2.039
-0.30293715 0.71073717 2.039
-0.099649526 0.62882286 1.8040001
-0.096213333 0.62882286 1.8040001
-0.092314288 0.62568575 1.7950001
-0.088895239 0.62568575 1.7950001
-0.085904762 0.62882286 1.8040001
-0.084251434 0.64241719 1.8430001
-0.080740958 0.64241719 1.8430001
-0.077230476 0.64241719 1.8430001
-0.07412 0.64590287 1.853
-0.070590481 0.64590287 1.853
-0.067422859 0.64938861 1.863
-0.063874289 0.64938861 1.863
-0.060325716 0.64938861 1.863
-0.057081908 0.65287429 1.8730001
-0.053800002 0.65636003 1.8830001
-0.050213337 0.65636003 1.8830001
-0.04689905 0.66019434 1.8940001
-0.04352 0.66368002 1.904
-0.040123813 0.66751432 1.9150001
-0.036476191 0.66751432 1.9150001
-0.015177144 0.6943543 1.9920001
-0.011382857 0.6943543 1.9920001
-0.0075885719 0.6943543 1.9920001
-0.0037942859 0.6943543 1.9920001
0 0.6943543 1.9920001
0.0037942859 0.6943543 1.9920001
0.0075885719 0.6943543 1.9920001
0.011382857 0.6943543 1.9920001
0.015177144 0.6943543 1.9920001
0.01897143 0.6943543 1.9920001
0.022765715 0.6943543 1.9920001
0.026400002 0.69017148 1.9800001
0.03017143 0.69017148 1.9800001
0.03394286 0.69017148 1.9800001
0.095878102 0.67483431 1.9360001
0.099565715 0.67483431 1.9360001
0.10325333 0.67483431 1.9360001
0.10694095 0.67483431 1.9360001
0.11062858 0.67483431 1.9360001
0.11366667 0.671 1.9250001
0.11672381 0.66751432 1.9150001
0.12037143 0.66751432 1.9150001
0.12330667 0.66368002 1.904
0.12693334 0.66368002 1.904
0.12912001 0.65636003 1.8830001
0.13270667 0.65636003 1.8830001
0.13708954 0.66019434 1.8940001
0.13988 0.65636003 1.8830001
0.14346667 0.65636003 1.8830001
0.14627239 0.65287429 1.8730001
0.14984001 0.65287429 1.8730001
0.15340762 0.65287429 1.8730001
0.15697524 0.65287429 1.8730001
0.16054286 0.65287429 1.8730001
0.16323429 0.64938861 1.863
0.16678286 0.64938861 1.863
0.17033143 0.64938861 1.863
0.17388001 0.64938861 1.863
0.3016381 0.74594289 2.1400001
0.30571431 0.74594289 2.1400001
0.30790859 0.74141145 2.1270001
0.31386667 0.74594289 2.1400001
0.31601143 0.74141145 2.1270001
0.32006288 0.74141145 2.1270001
0.32609525 0.74594289 2.1400001
0.33017144 0.74594289 2.1400001
-0.32034668 0.71882671 2.0510001
-0.31644002 0.71882671 2.0510001
-0.31253335 0.71882671 2.0510001
-0.30682096 0.71462101 2.039
-0.30293715 0.71462101 2.039
-0.099152386 0.62910479 1.7950001
-0.096213333 0.63225907 1.8040001
-0.092314288 0.62910479 1.7950001
-0.089340955 0.63225907 1.8040001
-0.085904762 0.63225907 1.8040001
-0.084251434 0.64592767 1.8430001
-0.080740958 0.64592767 1.8430001
-0.077230476 0.64592767 1.8430001
-0.073720001 0.64592767 1.8430001
-0.070590481 0.64943242 1.853
-0.067060955 0.64943242 1.853
-0.063874289 0.65293717 1.863
-0.060649525 0.65644193 1.8730001
-0.057081908 0.65644193 1.8730001
-0.053800002 0.65994668 1.8830001
-0.05050667 0.66380191 1.8940001
-0.047146667 0.66730666 1.904
-0.043771431 0.67116195 1.9150001
-0.040123813 0.67116195 1.9150001
-0.036476191 0.67116195 1.9150001
-0.015085715 0.6939429 1.9800001
-0.011382857 0.69814861 1.9920001
-0.0075885719 0.69814861 1.9920001
-0.0037942859 0.69814861 1.9920001
0 0.69814861 1.9920001
0.0037942859 0.69814861 1.9920001
0.0075885719 0.69814861 1.9920001
0.011382857 0.69814861 1.9920001
0.015177144 0.69814861 1.9920001
0.01897143 0.69814861 1.9920001
0.022765715 0.69814861 1.9920001
0.026400002 0.6939429 1.9800001
0.03017143 0.6939429 1.9800001
0.034542859 0.70620954 2.0150001
0.038380954 0.70620954 2.0150001
0.096422859 0.68237716 1.9470001
0.10013143 0.68237716 1.9470001
0.10325333 0.67852193 1.9360001
0.10694095 0.67852193 1.9360001
0.11062858 0.67852193 1.9360001
0.11366667 0.6746667 1.9250001
0.11733334 0.6746667 1.9250001
0.12037143 0.67116195 1.9150001
0.12401905 0.67116195 1.9150001
0.12693334 0.66730666 1.904
0.12987429 0.66380191 1.8940001
0.1334819 0.66380191 1.8940001
0.13708954 0.66380191 1.8940001
0.14069715 0.66380191 1.8940001
0.14346667 0.65994668 1.8830001
0.14705335 0.65994668 1.8830001
0.14984001 0.65644193 1.8730001
0.15340762 0.65644193 1.8730001
0.15697524 0.65644193 1.8730001
0.16054286 0.65644193 1.8730001
0.16323429 0.65293717 1.863
0.16678286 0.65293717 1.863
0.17033143 0.65293717 1.863
0.17388001 0.65293717 1.863
0.17742857 0.65293717 1.863
0.18097715 0.65293717 1.863
0.32006288 0.74546289 2.1270001
-0.31644002 0.72273338 2.0510001
-0.31253335 0.72273338 2.0510001
-0.30682096 0.71850479 2.039
-0.30293715 0.71850479 2.039
-0.099649526 0.63569528 1.8040001
-0.096213333 0.63569528 1.8040001
-0.092777148 0.63569528 1.8040001
-0.091272384 0.64943814 1.8430001
-0.087761909 0.64943814 1.8430001
-0.084251434 0.64943814 1.8430001
-0.080740958 0.64943814 1.8430001
-0.077649526 0.65296191 1.853
-0.07412 0.65296191 1.853
-0.070590481 0.65296191 1.853
-0.067422859 0.65648574 1.863
-0.063874289 0.65648574 1.863
-0.060649525 0.66000956 1.8730001
-0.05738667 0.66353333 1.8830001
-0.053800002 0.66353333 1.8830001
-0.05050667 0.66740954 1.8940001
-0.047146667 0.67093337 1.904
-0.04352 0.67093337 1.904
-0.039893337 0.67093337 1.904
-0.03626667 0.67093337 1.904
-0.015177144 0.70194286 1.9920001
-0.011382857 0.70194286 1.9920001
-0.0075885719 0.70194286 1.9920001
-0.0037942859 0.70194286 1.9920001
0 0.70194286 1.9920001
0.0037942859 0.70194286 1.9920001
0.0075885719 0.70194286 1.9920001
0.011382857 0.70194286 1.9920001
0.015177144 0.70194286 1.9920001
0.01897143 0.70194286 1.9920001
0.022765715 0.70194286 1.9920001
0.026400002 0.69771433 1.9800001
0.03017143 0.69771433 1.9800001
0.033754285 0.69383812 1.9690001
0.037504762 0.69383812 1.9690001
0.11188572 0.68996191 1.9580001
0.11496572 0.68608576 1.9470001
0.11800382 0.68220955 1.9360001
0.12037143 0.67480958 1.9150001
0.12401905 0.67480958 1.9150001
0.12693334 0.67093337 1.904
0.13056001 0.67093337 1.904
0.1334819 0.66740954 1.8940001
0.13708954 0.66740954 1.8940001
0.14069715 0.66740954 1.8940001
0.14346667 0.66353333 1.8830001
0.14627239 0.66000956 1.8730001
0.14984001 0.66000956 1.8730001
0.15340762 0.66000956 1.8730001
0.15613715 0.65648574 1.863
0.15968572 0.65648574 1.863
0.16323429 0.65648574 1.863
0.16678286 0.65648574 1.863
0.17033143 0.65648574 1.863
0.17388001 0.65648574 1.863
0.17742857 0.65648574 1.863
0.18097715 0.65648574 1.863
0.18452573 0.65648574 1.863
-0.31644002 0.72664005 2.0510001
-0.31253335 0.72664005 2.0510001
-0.099649526 0.63913143 1.8040001
-0.096213333 0.63913143 1.8040001
-0.093291432 0.64267433 1.8140001
-0.091272384 0.65294862 1.8430001
-0.087761909 0.65294862 1.8430001
-0.084251434 0.65294862 1.8430001
-0.080740958 0.65294862 1.8430001
-0.077230476 0.65294862 1.8430001
-0.073720001 0.65294862 1.8430001
-0.070590481 0.65649146 1.853
-0.067422859 0.6600343 1.863
-0.064217143 0.66357714 1.8730001
-0.060649525 0.66357714 1.8730001
-0.05738667 0.66712004 1.8830001
-0.053800002 0.66712004 1.8830001
-0.050213337 0.66712004 1.8830001
-0.046626668 0.66712004 1.8830001
-0.04352 0.67456001 1.904
-0.039893337 0.67456001 1.904
-0.03626667 0.67456001 1.904
-0.015260953 0.7096343 2.003
-0.011382857 0.70573717 1.9920001
-0.0075885719 0.70573717 1.9920001
-0.0037942859 0.70573717 1.9920001
0 0.70573717 1.9920001
0.0038152381 0.7096343 2.003
0.0076304763 0.7096343 2.003
0.011382857 0.70573717 1.9920001
0.015177144 0.70573717 1.9920001
0.01897143 0.70573717 1.9920001
0.022765715 0.70573717 1.9920001
