# .PCD v0.7 - Point Cloud Data file format
VERSION 0.7
FIELDS x y z
SIZE 4 4 4
TYPE F F F
COUNT 1 1 1
WIDTH 1510
HEIGHT 1
VIEWPOINT 0 0 0 1 0 0 0
POINTS 1510
DATA ascii
0.0037714287 0.6864 1.9800001
0.0075428574 0.6864 1.9800001
0.011314286 0.6864 1.9800001
0.015085715 0.6864 1.9800001
0.01897143 0.69056004 1.9920001
0.022765715 0.69056004 1.9920001
0.026560001 0.69056004 1.9920001
0.078068577 0.64584005 1.863
0.082055241 0.64930671 1.8730001
0.085622862 0.64930671 1.8730001
0.09119048 0.6638667 1.9150001
0.094838098 0.6638667 1.9150001
0.098485716 0.6638667 1.9150001
0.10213333 0.6638667 1.9150001
0.10578096 0.6638667 1.9150001
0.10942858 0.6638667 1.9150001
0.1130762 0.6638667 1.9150001
0.11605334 0.66005337 1.904
0.11968 0.66005337 1.904
0.12330667 0.66005337 1.904
0.12693334 0.66005337 1.904
0.12987429 0.65658671 1.8940001
0.1334819 0.65658671 1.8940001
0.13708954 0.65658671 1.8940001
0.13988 0.65277338 1.8830001
0.14346667 0.65277338 1.8830001
0.14705335 0.65277338 1.8830001
0.14984001 0.64930671 1.8730001
0.15422668 0.65277338 1.8830001
0.15697524 0.64930671 1.8730001
0.16054286 0.64930671 1.8730001
0.16323429 0.64584005 1.863
0.16678286 0.64584005 1.863
0.29116762 0.74637336 2.1530001
0.30347049 0.74637336 2.1530001
0.31987429 0.74637336 2.1530001
0.32397524 0.74637336 2.1530001
0.32807621 0.74637336 2.1530001
0.33433715 0.75122672 2.1670001
0.33846477 0.75122672 2.1670001
-0.32034668 0.71492004 2.0510001
-0.31644002 0.71492004 2.0510001
-0.31253335 0.71492004 2.0510001
-0.30862668 0.71492004 2.0510001
-0.30472001 0.71492004 2.0510001
-0.1002019 0.6323086 1.8140001
-0.096746668 0.6323086 1.8140001
-0.093291432 0.6323086 1.8140001
-0.089836195 0.6323086 1.8140001
-0.086857148 0.63579428 1.8240001
-0.084251434 0.64241719 1.8430001
-0.080302857 0.63893145 1.8330001
-0.076811433 0.63893145 1.8330001
-0.073720001 0.64241719 1.8430001
-0.070209526 0.64241719 1.8430001
-0.06669905 0.64241719 1.8430001
-0.063531429 0.64590287 1.853
-0.060001906 0.64590287 1.853
-0.056777146 0.64938861 1.863
-0.053514287 0.65287429 1.8730001
-0.05050667 0.66019434 1.8940001
-0.04689905 0.66019434 1.8940001
-0.043771431 0.66751432 1.9150001
-0.040333334 0.671 1.9250001
-0.036666669 0.671 1.9250001
-0.033 0.671 1.9250001
-0.015085715 0.69017148 1.9800001
-0.011382857 0.6943543 1.9920001
-0.0075885719 0.6943543 1.9920001
-0.0037942859 0.6943543 1.9920001
0 0.6943543 1.9920001
0.0037942859 0.6943543 1.9920001
0.0075885719 0.6943543 1.9920001
0.011314286 0.69017148 1.9800001
0.015085715 0.69017148 1.9800001
0.018857144 0.69017148 1.9800001
0.022628572 0.69017148 1.9800001
0.026400002 0.69017148 1.9800001
0.03017143 0.69017148 1.9800001
0.081617147 0.64938861 1.863
0.085165717 0.64938861 1.863
0.09119048 0.66751432 1.9150001
0.094838098 0.66751432 1.9150001
0.098485716 0.66751432 1.9150001
0.10213333 0.66751432 1.9150001
0.10578096 0.66751432 1.9150001
0.10942858 0.66751432 1.9150001
0.1130762 0.66751432 1.9150001
0.11605334 0.66368002 1.904
0.11968 0.66368002 1.904
0.12330667 0.66368002 1.904
0.12693334 0.66368002 1.904
0.12987429 0.66019434 1.8940001
0.1334819 0.66019434 1.8940001
0.13629334 0.65636003 1.8830001
0.13988 0.65636003 1.8830001
0.14270477 0.65287429 1.8730001
0.14627239 0.65287429 1.8730001
0.14984001 0.65287429 1.8730001
0.15340762 0.65287429 1.8730001
0.15697524 0.65287429 1.8730001
0.16054286 0.65287429 1.8730001
0.16323429 0.64938861 1.863
0.16678286 0.64938861 1.863
0.17033143 0.64938861 1.863
0.17388001 0.64938861 1.863
0.2952686 0.75047433 2.1530001
0.29936954 0.75047433 2.1530001
0.30347049 0.75047433 2.1530001
0.30757144 0.75047433 2.1530001
0.31987429 0.75047433 2.1530001
0.32397524 0.75047433 2.1530001
0.32807621 0.75047433 2.1530001
0.33217716 0.75047433 2.1530001
-0.32034668 0.71882671 2.0510001
-0.31644002 0.71882671 2.0510001
-0.31070477 0.71462101 2.039
-0.30682096 0.71462101 2.039
-0.1002019 0.63576382 1.8140001
-0.096746668 0.63576382 1.8140001
-0.093291432 0.63576382 1.8140001
-0.090331435 0.63926858 1.8240001
-0.087761909 0.64592767 1.8430001
-0.084251434 0.64592767 1.8430001
-0.080740958 0.64592767 1.8430001
-0.077230476 0.64592767 1.8430001
-0.073720001 0.64592767 1.8430001
-0.070209526 0.64592767 1.8430001
-0.067060955 0.64943242 1.853
-0.063531429 0.64943242 1.853
-0.060325716 0.65293717 1.863
-0.057081908 0.65644193 1.8730001
-0.053800002 0.65994668 1.8830001
-0.05050667 0.66380191 1.8940001
-0.047146667 0.66730666 1.904
-0.043771431 0.67116195 1.9150001
-0.040333334 0.6746667 1.9250001
-0.03687619 0.67852193 1.9360001
-0.033188574 0.67852193 1.9360001
-0.015001905 0.69008762 1.9690001
-0.011382857 0.69814861 1.9920001
-0.0075885719 0.69814861 1.9920001
-0.0037942859 0.69814861 1.9920001
0 0.69814861 1.9920001
0.0037942859 0.69814861 1.9920001
0.0075428574 0.6939429 1.9800001
0.011314286 0.6939429 1.9800001
0.015085715 0.6939429 1.9800001
0.018857144 0.6939429 1.9800001
0.022628572 0.6939429 1.9800001
0.026400002 0.6939429 1.9800001
0.029836191 0.68623239 1.9580001
0.033565715 0.68623239 1.9580001
0.09119048 0.67116195 1.9150001
0.095333338 0.6746667 1.9250001
0.098485716 0.67116195 1.9150001
0.10213333 0.67116195 1.9150001
0.10578096 0.67116195 1.9150001
0.10942858 0.67116195 1.9150001
0.1130762 0.67116195 1.9150001
0.11672381 0.67116195 1.9150001
0.11968 0.66730666 1.904
0.12330667 0.66730666 1.904
0.12693334 0.66730666 1.904
0.12987429 0.66380191 1.8940001
0.1334819 0.66380191 1.8940001
0.13708954 0.66380191 1.8940001
0.13988 0.65994668 1.8830001
0.14270477 0.65644193 1.8730001
0.14627239 0.65644193 1.8730001
0.14984001 0.65644193 1.8730001
0.15258858 0.65293717 1.863
0.15613715 0.65293717 1.863
0.15968572 0.65293717 1.863
0.16235811 0.64943242 1.853
0.16588762 0.64943242 1.853
0.17033143 0.65293717 1.863
0.17388001 0.65293717 1.863
0.17742857 0.65293717 1.863
-0.31644002 0.72273338 2.0510001
-0.31070477 0.71850479 2.039
-0.30682096 0.71850479 2.039
-0.1002019 0.63921905 1.8140001
-0.096746668 0.63921905 1.8140001
-0.093805715 0.64274287 1.8240001
-0.091272384 0.64943814 1.8430001
-0.087761909 0.64943814 1.8430001
-0.084251434 0.64943814 1.8430001
-0.080740958 0.64943814 1.8430001
-0.077230476 0.64943814 1.8430001
-0.073720001 0.64943814 1.8430001
-0.070209526 0.64943814 1.8430001
-0.067060955 0.65296191 1.853
-0.063531429 0.65296191 1.853
-0.060325716 0.65648574 1.863
-0.057081908 0.66000956 1.8730001
-0.053514287 0.66000956 1.8730001
-0.05050667 0.66740954 1.8940001
-0.047146667 0.67093337 1.904
-0.043771431 0.67480958 1.9150001
-0.040123813 0.67480958 1.9150001
-0.036476191 0.67480958 1.9150001
-0.033188574 0.68220955 1.9360001
-0.01897143 0.70194286 1.9920001
-0.015177144 0.70194286 1.9920001
-0.011382857 0.70194286 1.9920001
-0.0075885719 0.70194286 1.9920001
-0.0037942859 0.70194286 1.9920001
0 0.70194286 1.9920001
0.0037942859 0.70194286 1.9920001
0.0075428574 0.69771433 1.9800001
0.011314286 0.69771433 1.9800001
0.015085715 0.69771433 1.9800001
0.01897143 0.70194286 1.9920001
0.022765715 0.70194286 1.9920001
0.026400002 0.69771433 1.9800001
0.03017143 0.69771433 1.9800001
0.11672381 0.67480958 1.9150001
0.12037143 0.67480958 1.9150001
0.12330667 0.67093337 1.904
0.12693334 0.67093337 1.904
0.13056001 0.67093337 1.904
0.1334819 0.66740954 1.8940001
0.13708954 0.66740954 1.8940001
0.13988 0.66353333 1.8830001
0.14270477 0.66000956 1.8730001
0.14627239 0.66000956 1.8730001
0.14904 0.65648574 1.863
0.15258858 0.65648574 1.863
0.15613715 0.65648574 1.863
0.15968572 0.65648574 1.863
0.16323429 0.65648574 1.863
0.16678286 0.65648574 1.863
0.17033143 0.65648574 1.863
0.17388001 0.65648574 1.863
0.17742857 0.65648574 1.863
0.18097715 0.65648574 1.863
-0.1002019 0.64267433 1.8140001
-0.096746668 0.64267433 1.8140001
-0.094782859 0.65294862 1.8430001
-0.091272384 0.65294862 1.8430001
-0.087761909 0.65294862 1.8430001
-0.084251434 0.65294862 1.8430001
-0.080740958 0.65294862 1.8430001
-0.077230476 0.65294862 1.8430001
-0.073720001 0.65294862 1.8430001
-0.070209526 0.65294862 1.8430001
-0.067060955 0.65649146 1.853
-0.063531429 0.65649146 1.853
-0.060325716 0.6600343 1.863
-0.057081908 0.66357714 1.8730001
-0.053800002 0.66712004 1.8830001
-0.05050667 0.67101717 1.8940001
-0.04689905 0.67101717 1.8940001
-0.043771431 0.67845714 1.9150001
-0.040123813 0.67845714 1.9150001
-0.036476191 0.67845714 1.9150001
-0.01897143 0.70573717 1.9920001
-0.015177144 0.70573717 1.9920001
-0.011382857 0.70573717 1.9920001
-0.0075885719 0.70573717 1.9920001
-0.0037942859 0.70573717 1.9920001
0 0.70573717 1.9920001
0.0037942859 0.70573717 1.9920001
0.0075885719 0.70573717 1.9920001
0.011382857 0.70573717 1.9920001
0.015177144 0.70573717 1.9920001
0.01897143 0.70573717 1.9920001
0.022765715 0.70573717 1.9920001
0.026560001 0.70573717 1.9920001
0.030354287 0.70573717 1.9920001
0.12037143 0.67845714 1.9150001
0.12330667 0.67456001 1.904
0.12693334 0.67456001 1.904
0.13056001 0.67456001 1.904
0.1334819 0.67101717 1.8940001
0.13708954 0.67101717 1.8940001
0.13988 0.66712004 1.8830001
0.14270477 0.66357714 1.8730001
0.14627239 0.66357714 1.8730001
0.14904 0.6600343 1.863
0.15258858 0.6600343 1.863
0.15613715 0.6600343 1.863
0.15968572 0.6600343 1.863
0.16323429 0.6600343 1.863
0.16678286 0.6600343 1.863
0.17033143 0.6600343 1.863
0.17388001 0.6600343 1.863
0.17742857 0.6600343 1.863
0.18097715 0.6600343 1.863
0.18452573 0.6600343 1.863
-0.10075429 0.64969146 1.8240001
-0.097280003 0.64969146 1.8240001
-0.094782859 0.65645909 1.8430001
-0.091272384 0.65645909 1.8430001
-0.087761909 0.65645909 1.8430001
-0.084251434 0.65645909 1.8430001
-0.080740958 0.65645909 1.8430001
-0.077230476 0.65645909 1.8430001
-0.073720001 0.65645909 1.8430001
-0.070209526 0.65645909 1.8430001
-0.067060955 0.66002095 1.853
-0.063874289 0.66358286 1.863
-0.060325716 0.66358286 1.863
-0.057081908 0.66714478 1.8730001
-0.053800002 0.67070669 1.8830001
-0.05050667 0.6746248 1.8940001
-0.04689905 0.6746248 1.8940001
-0.043291431 0.6746248 1.8940001
-0.022765715 0.70953143 1.9920001
-0.01897143 0.70953143 1.9920001
-0.015177144 0.70953143 1.9920001
-0.011382857 0.70953143 1.9920001
-0.0075885719 0.70953143 1.9920001
-0.0037942859 0.70953143 1.9920001
0 0.70953143 1.9920001
0.0037942859 0.70953143 1.9920001
0.0075885719 0.70953143 1.9920001
0.011382857 0.70953143 1.9920001
0.015177144 0.70953143 1.9920001
0.01897143 0.70953143 1.9920001
0.022765715 0.70953143 1.9920001
0.026400002 0.70525718 1.9800001
0.03017143 0.70525718 1.9800001
0.12330667 0.67818671 1.904
0.12693334 0.67818671 1.904
0.12987429 0.6746248 1.8940001
0.1334819 0.6746248 1.8940001
0.13629334 0.67070669 1.8830001
0.13988 0.67070669 1.8830001
0.14270477 0.66714478 1.8730001
0.14627239 0.66714478 1.8730001
0.14984001 0.66714478 1.8730001
0.15258858 0.66358286 1.863
0.15613715 0.66358286 1.863
0.15968572 0.66358286 1.863
0.16323429 0.66358286 1.863
0.16678286 0.66358286 1.863
0.17033143 0.66358286 1.863
0.17294668 0.66002095 1.853
0.17552382 0.65645909 1.8430001
0.17903429 0.65645909 1.8430001
0.18254477 0.65645909 1.8430001
0.18605524 0.65645909 1.8430001
-0.29905334 0.73015624 2.039
-0.29516953 0.73015624 2.039
-0.29128572 0.73015624 2.039
-0.28740191 0.73015624 2.039
-0.28351811 0.73015624 2.039
-0.10180382 0.65996957 1.8430001
-0.098293334 0.65996957 1.8430001
-0.094782859 0.65996957 1.8430001
-0.091272384 0.65996957 1.8430001
-0.087761909 0.65996957 1.8430001
-0.084251434 0.65996957 1.8430001
-0.080740958 0.65996957 1.8430001
-0.077230476 0.65996957 1.8430001
-0.073720001 0.65996957 1.8430001
-0.070209526 0.65996957 1.8430001
-0.067060955 0.6635505 1.853
-0.063531429 0.6635505 1.853
-0.060649525 0.67071241 1.8730001
-0.057081908 0.67071241 1.8730001
-0.053800002 0.67429334 1.8830001
-0.050213337 0.67429334 1.8830001
-0.046626668 0.67429334 1.8830001
-0.01897143 0.71332574 1.9920001
-0.015085715 0.7090286 1.9800001
-0.011382857 0.71332574 1.9920001
-0.0075885719 0.71332574 1.9920001
-0.0037942859 0.71332574 1.9920001
0 0.71332574 1.9920001
0.0037942859 0.71332574 1.9920001
0.0075885719 0.71332574 1.9920001
0.011382857 0.71332574 1.9920001
0.015177144 0.71332574 1.9920001
0.01897143 0.71332574 1.9920001
0.022765715 0.71332574 1.9920001
0.026400002 0.7090286 1.9800001
0.03017143 0.7090286 1.9800001
0.12987429 0.67823243 1.8940001
0.1334819 0.67823243 1.8940001
0.13708954 0.67823243 1.8940001
0.13988 0.67429334 1.8830001
0.14270477 0.67071241 1.8730001
0.14627239 0.67071241 1.8730001
0.14984001 0.67071241 1.8730001
0.15340762 0.67071241 1.8730001
0.15613715 0.66713142 1.863
0.15968572 0.66713142 1.863
0.16323429 0.66713142 1.863
0.16678286 0.66713142 1.863
0.16941714 0.6635505 1.853
0.17294668 0.6635505 1.853
0.17552382 0.65996957 1.8430001
0.17903429 0.65996957 1.8430001
0.18254477 0.65996957 1.8430001
0.18504572 0.65638858 1.8330001
0.18761143 0.65316576 1.8240001
0.19108573 0.65316576 1.8240001
-0.30320954 0.72540003 2.0150001
-0.30115429 0.72972006 2.0270002
-0.29905334 0.73404002 2.039
-0.29516953 0.73404002 2.039
-0.29128572 0.73404002 2.039
-0.28740191 0.73404002 2.039
-0.28518668 0.73836005 2.0510001
-0.2796343 0.73404002 2.039
-0.27575049 0.73404002 2.039
-0.10180382 0.66348004 1.8430001
-0.098293334 0.66348004 1.8430001
-0.094268575 0.65988004 1.8330001
-0.090777144 0.65988004 1.8330001
-0.08728572 0.65988004 1.8330001
-0.083794288 0.65988004 1.8330001
-0.080302857 0.65988004 1.8330001
-0.076811433 0.65988004 1.8330001
-0.073320001 0.65988004 1.8330001
-0.069828577 0.65988004 1.8330001
-0.06669905 0.66348004 1.8430001
-0.063531429 0.66708004 1.853
-0.060649525 0.67428005 1.8730001
-0.057081908 0.67428005 1.8730001
-0.053514287 0.67428005 1.8730001
-0.050213337 0.67788005 1.8830001
-0.022765715 0.71712005 1.9920001
-0.01897143 0.71712005 1.9920001
-0.015177144 0.71712005 1.9920001
-0.011445715 0.72108001 2.003
-0.0075885719 0.71712005 1.9920001
-0.0037942859 0.71712005 1.9920001
0 0.71712005 1.9920001
0.0037942859 0.71712005 1.9920001
0.0075885719 0.71712005 1.9920001
0.011382857 0.71712005 1.9920001
0.015177144 0.71712005 1.9920001
0.01897143 0.71712005 1.9920001
0.022765715 0.71712005 1.9920001
0.026400002 0.71280003 1.9800001
0.03017143 0.71280003 1.9800001
0.12987429 0.68184 1.8940001
0.13270667 0.67788005 1.8830001
0.13629334 0.67788005 1.8830001
0.13988 0.67788005 1.8830001
0.14270477 0.67428005 1.8730001
0.14627239 0.67428005 1.8730001
0.14984001 0.67428005 1.8730001
0.15340762 0.67428005 1.8730001
0.15697524 0.67428005 1.8730001
0.16054286 0.67428005 1.8730001
0.16323429 0.67068005 1.863
0.16678286 0.67068005 1.863
0.17033143 0.67068005 1.863
0.17294668 0.66708004 1.853
0.1764762 0.66708004 1.853
0.18000571 0.66708004 1.853
0.18353525 0.66708004 1.853
0.18504572 0.65988004 1.8330001
0.18761143 0.65664005 1.8240001
0.19108573 0.65664005 1.8240001
-0.30320954 0.72923809 2.0150001
-0.30115429 0.73358101 2.0270002
-0.29905334 0.73792386 2.039
-0.29516953 0.73792386 2.039
-0.2796343 0.73792386 2.039
-0.10474286 0.66337144 1.8330001
-0.10125143 0.66337144 1.8330001
-0.097760007 0.66337144 1.8330001
-0.094268575 0.66337144 1.8330001
-0.090777144 0.66337144 1.8330001
-0.08728572 0.66337144 1.8330001
-0.083794288 0.66337144 1.8330001
-0.080302857 0.66337144 1.8330001
-0.076811433 0.66337144 1.8330001
-0.073320001 0.66337144 1.8330001
-0.069828577 0.66337144 1.8330001
-0.06669905 0.66699052 1.8430001
-0.063188575 0.66699052 1.8430001
-0.059678096 0.66699052 1.8430001
-0.056167621 0.66699052 1.8430001
-0.02289143 0.72489524 2.003
-0.019076191 0.72489524 2.003
-0.015260953 0.72489524 2.003
-0.011445715 0.72489524 2.003
-0.0076304763 0.72489524 2.003
-0.0037942859 0.7209143 1.9920001
0 0.7209143 1.9920001
0.0037942859 0.7209143 1.9920001
0.0075885719 0.7209143 1.9920001
0.011382857 0.7209143 1.9920001
0.015177144 0.7209143 1.9920001
0.01897143 0.7209143 1.9920001
0.022765715 0.7209143 1.9920001
0.026560001 0.7209143 1.9920001
0.030354287 0.7209143 1.9920001
0.12843429 0.67784762 1.8730001
0.13200191 0.67784762 1.8730001
0.13629334 0.6814667 1.8830001
0.13913715 0.67784762 1.8730001
0.14270477 0.67784762 1.8730001
0.14627239 0.67784762 1.8730001
0.15064001 0.6814667 1.8830001
0.15340762 0.67784762 1.8730001
0.15697524 0.67784762 1.8730001
0.16054286 0.67784762 1.8730001
0.16411048 0.67784762 1.8730001
0.16678286 0.67422861 1.863
0.17033143 0.67422861 1.863
0.17294668 0.67060953 1.853
0.17552382 0.66699052 1.8430001
0.17903429 0.66699052 1.8430001
0.18254477 0.66699052 1.8430001
0.18504572 0.66337144 1.8330001
0.18853715 0.66337144 1.8330001
0.19202858 0.66337144 1.8330001
0.19552001 0.66337144 1.8330001
-0.30115429 0.73744196 2.0270002
-0.29729334 0.73744196 2.0270002
-0.29516953 0.74180764 2.039
-0.29128572 0.74180764 2.039
-0.28740191 0.74180764 2.039
-0.28351811 0.74180764 2.039
-0.27798858 0.73744196 2.0270002
-0.27412763 0.73744196 2.0270002
-0.10652191 0.65631241 1.8040001
-0.10422858 0.66358858 1.8240001
-0.10075429 0.66358858 1.8240001
-0.097280003 0.66358858 1.8240001
-0.093805715 0.66358858 1.8240001
-0.090777144 0.66686291 1.8330001
-0.08728572 0.66686291 1.8330001
-0.083794288 0.66686291 1.8330001
-0.080302857 0.66686291 1.8330001
-0.076811433 0.66686291 1.8330001
-0.073320001 0.66686291 1.8330001
-0.069828577 0.66686291 1.8330001
-0.066337146 0.66686291 1.8330001
-0.063188575 0.67050099 1.8430001
-0.059678096 0.67050099 1.8430001
-0.056167621 0.67050099 1.8430001
-0.023028573 0.73307621 2.0150001
-0.019076191 0.72871053 2.003
-0.015260953 0.72871053 2.003
-0.011445715 0.72871053 2.003
-0.0076304763 0.72871053 2.003
-0.0037942859 0.72470862 1.9920001
0 0.72470862 1.9920001
0.0037942859 0.72470862 1.9920001
0.0075885719 0.72470862 1.9920001
0.011445715 0.72871053 2.003
0.015260953 0.72871053 2.003
0.01897143 0.72470862 1.9920001
0.022765715 0.72470862 1.9920001
0.026560001 0.72470862 1.9920001
0.030354287 0.72470862 1.9920001
0.13059239 0.67413908 1.853
0.13484572 0.67777717 1.863
0.13913715 0.68141526 1.8730001
0.14270477 0.68141526 1.8730001
0.14627239 0.68141526 1.8730001
0.15064001 0.68505335 1.8830001
0.15340762 0.68141526 1.8730001
0.15697524 0.68141526 1.8730001
0.16054286 0.68141526 1.8730001
0.16411048 0.68141526 1.8730001
0.1676781 0.68141526 1.8730001
0.17033143 0.67777717 1.863
0.17388001 0.67777717 1.863
0.1764762 0.67413908 1.853
0.17903429 0.67050099 1.8430001
0.18254477 0.67050099 1.8430001
0.18504572 0.66686291 1.8330001
0.18853715 0.66686291 1.8330001
0.19202858 0.66686291 1.8330001
0.19552001 0.66686291 1.8330001
0.19694857 0.65995049 1.8140001
0.20040381 0.65995049 1.8140001
-0.30501524 0.74130291 2.0270002
-0.30115429 0.74130291 2.0270002
-0.29729334 0.74130291 2.0270002
-0.28957143 0.74130291 2.0270002
-0.28571048 0.74130291 2.0270002
-0.28184953 0.74130291 2.0270002
-0.27634287 0.73691434 2.0150001
-0.27412763 0.74130291 2.0270002
-0.11339429 0.65974861 1.8040001
-0.1099581 0.65974861 1.8040001
-0.10652191 0.65974861 1.8040001
-0.10308572 0.65974861 1.8040001
-0.099649526 0.65974861 1.8040001
-0.096213333 0.65974861 1.8040001
-0.092777148 0.65974861 1.8040001
-0.090331435 0.66706288 1.8240001
-0.086857148 0.66706288 1.8240001
-0.08338286 0.66706288 1.8240001
-0.079908572 0.66706288 1.8240001
-0.076811433 0.67035431 1.8330001
-0.073320001 0.67035431 1.8330001
-0.069828577 0.67035431 1.8330001
-0.066337146 0.67035431 1.8330001
-0.062845714 0.67035431 1.8330001
-0.059354287 0.67035431 1.8330001
-0.02289143 0.73252577 2.003
-0.019076191 0.73252577 2.003
-0.015260953 0.73252577 2.003
-0.011445715 0.73252577 2.003
-0.0076304763 0.73252577 2.003
-0.0037942859 0.72850287 1.9920001
0 0.72850287 1.9920001
0.0037942859 0.72850287 1.9920001
0.0075885719 0.72850287 1.9920001
0.011445715 0.73252577 2.003
0.015177144 0.72850287 1.9920001
0.01897143 0.72850287 1.9920001
0.022628572 0.7241143 1.9800001
0.026253335 0.72009146 1.9690001
0.03000381 0.72009146 1.9690001
0.033754285 0.72009146 1.9690001
0.12918286 0.67035431 1.8330001
0.13267429 0.67035431 1.8330001
0.1383943 0.68132573 1.863
0.14194286 0.68132573 1.863
0.14627239 0.6849829 1.8730001
0.14984001 0.6849829 1.8730001
0.15340762 0.6849829 1.8730001
0.15697524 0.6849829 1.8730001
0.16054286 0.6849829 1.8730001
0.16411048 0.6849829 1.8730001
0.1676781 0.6849829 1.8730001
0.17033143 0.68132573 1.863
0.17388001 0.68132573 1.863
0.1764762 0.67766857 1.853
0.18000571 0.67766857 1.853
0.18254477 0.67401147 1.8430001
0.18504572 0.67035431 1.8330001
0.18853715 0.67035431 1.8330001
0.19202858 0.67035431 1.8330001
0.19552001 0.67035431 1.8330001
0.19803429 0.66706288 1.8240001
0.20040381 0.66340572 1.8140001
0.20385906 0.66340572 1.8140001
-0.30320954 0.7407524 2.0150001
-0.29937145 0.7407524 2.0150001
-0.29553336 0.7407524 2.0150001
-0.11339429 0.66318476 1.8040001
-0.1099581 0.66318476 1.8040001
-0.10711239 0.666861 1.8140001
-0.10365715 0.666861 1.8140001
-0.099649526 0.66318476 1.8040001
-0.096213333 0.66318476 1.8040001
-0.093291432 0.666861 1.8140001
-0.089836195 0.666861 1.8140001
-0.086857148 0.67053717 1.8240001
-0.08338286 0.67053717 1.8240001
-0.080302857 0.67384577 1.8330001
-0.076811433 0.67384577 1.8330001
-0.073320001 0.67384577 1.8330001
-0.069828577 0.67384577 1.8330001
-0.066337146 0.67384577 1.8330001
-0.019190477 0.7407524 2.0150001
-0.015260953 0.736341 2.003
-0.011445715 0.736341 2.003
-0.0076304763 0.736341 2.003
-0.0037942859 0.73229718 1.9920001
0 0.73229718 1.9920001
0.0037942859 0.73229718 1.9920001
0.0075885719 0.73229718 1.9920001
0.011382857 0.73229718 1.9920001
0.015177144 0.73229718 1.9920001
0.01897143 0.73229718 1.9920001
0.022628572 0.72788572 1.9800001
0.026253335 0.72384191 1.9690001
0.03000381 0.72384191 1.9690001
0.033754285 0.72384191 1.9690001
0.14549144 0.6848743 1.863
0.14984001 0.68855047 1.8730001
0.15340762 0.68855047 1.8730001
0.15781334 0.69222671 1.8830001
0.16054286 0.68855047 1.8730001
0.16411048 0.68855047 1.8730001
0.1676781 0.68855047 1.8730001
0.17033143 0.6848743 1.863
0.17388001 0.6848743 1.863
0.1764762 0.68119812 1.853
0.18000571 0.68119812 1.853
0.18254477 0.67752194 1.8430001
0.18504572 0.67384577 1.8330001
0.18761143 0.67053717 1.8240001
0.19108573 0.67053717 1.8240001
0.19552001 0.67384577 1.8330001
0.19694857 0.666861 1.8140001
0.20040381 0.666861 1.8140001
0.20385906 0.666861 1.8140001
-0.11339429 0.66662097 1.8040001
-0.1099581 0.66662097 1.8040001
-0.10652191 0.66662097 1.8040001
-0.10308572 0.66662097 1.8040001
-0.099649526 0.66662097 1.8040001
-0.096213333 0.66662097 1.8040001
-0.093291432 0.67031622 1.8140001
-0.089836195 0.67031622 1.8140001
-0.086857148 0.67401147 1.8240001
-0.083794288 0.67733717 1.8330001
-0.080302857 0.67733717 1.8330001
-0.076811433 0.67733717 1.8330001
-0.073320001 0.67733717 1.8330001
-0.069828577 0.67733717 1.8330001
-0.066337146 0.67733717 1.8330001
-0.019076191 0.74015623 2.003
-0.015260953 0.74015623 2.003
-0.011445715 0.74015623 2.003
-0.0075885719 0.73609143 1.9920001
-0.0037942859 0.73609143 1.9920001
0 0.73609143 1.9920001
0.0037942859 0.73609143 1.9920001
0.0075885719 0.73609143 1.9920001
0.011382857 0.73609143 1.9920001
0.015177144 0.73609143 1.9920001
0.01897143 0.73609143 1.9920001
0.022628572 0.73165715 1.9800001
0.026400002 0.73165715 1.9800001
0.030354287 0.73609143 1.9920001
0.034148574 0.73609143 1.9920001
0.15064001 0.69581336 1.8830001
0.15422668 0.69581336 1.8830001
0.15873525 0.6998781 1.8940001
0.16140001 0.69581336 1.8830001
0.16498667 0.69581336 1.8830001
0.1676781 0.69211811 1.8730001
0.17124572 0.69211811 1.8730001
0.17388001 0.68842286 1.863
0.1764762 0.68472767 1.853
0.18000571 0.68472767 1.853
0.18254477 0.68103242 1.8430001
0.18504572 0.67733717 1.8330001
0.18761143 0.67401147 1.8240001
0.19108573 0.67401147 1.8240001
0.19456001 0.67401147 1.8240001
0.19803429 0.67401147 1.8240001
0.20040381 0.67031622 1.8140001
0.20273525 0.66662097 1.8040001
0.20617144 0.66662097 1.8040001
0.20960763 0.66662097 1.8040001
-0.11624762 0.66671431 1.7950001
-0.11282858 0.66671431 1.7950001
-0.10940953 0.66671431 1.7950001
-0.10652191 0.67005718 1.8040001
-0.10308572 0.67005718 1.8040001
-0.099649526 0.67005718 1.8040001
-0.096213333 0.67005718 1.8040001
-0.093291432 0.67377144 1.8140001
-0.090331435 0.67748576 1.8240001
-0.086857148 0.67748576 1.8240001
-0.083794288 0.68082857 1.8330001
-0.080302857 0.68082857 1.8330001
-0.076811433 0.68082857 1.8330001
-0.073720001 0.68454289 1.8430001
-0.070209526 0.68454289 1.8430001
-0.011445715 0.74397147 2.003
-0.0076304763 0.74397147 2.003
-0.0037942859 0.73988575 1.9920001
0 0.73988575 1.9920001
0.0037942859 0.73988575 1.9920001
0.0075885719 0.73988575 1.9920001
0.011382857 0.73988575 1.9920001
0.015177144 0.73988575 1.9920001
0.01897143 0.73988575 1.9920001
0.022765715 0.73988575 1.9920001
0.026560001 0.73988575 1.9920001
0.030354287 0.73988575 1.9920001
0.034148574 0.73988575 1.9920001
0.03794286 0.73988575 1.9920001
0.15873525 0.70348573 1.8940001
0.16234286 0.70348573 1.8940001
0.16498667 0.69940001 1.8830001
0.1676781 0.69568574 1.8730001
0.17124572 0.69568574 1.8730001
0.17388001 0.69197148 1.863
0.1764762 0.68825716 1.853
0.18000571 0.68825716 1.853
0.18254477 0.68454289 1.8430001
0.18504572 0.68082857 1.8330001
0.18853715 0.68082857 1.8330001
0.19202858 0.68082857 1.8330001
0.19456001 0.67748576 1.8240001
0.19901143 0.68082857 1.8330001
0.20150858 0.67748576 1.8240001
0.20385906 0.67377144 1.8140001
0.20617144 0.67005718 1.8040001
0.20960763 0.67005718 1.8040001
0.21304382 0.67005718 1.8040001
-0.11566477 0.66677338 1.7860001
-0.11226286 0.66677338 1.7860001
-0.10940953 0.67013335 1.7950001
-0.10599048 0.67013335 1.7950001
-0.10308572 0.67349339 1.8040001
-0.099152386 0.67013335 1.7950001
-0.096213333 0.67349339 1.8040001
-0.092777148 0.67349339 1.8040001
-0.089836195 0.67722666 1.8140001
-0.086857148 0.68096 1.8240001
-0.083794288 0.68432003 1.8330001
-0.080302857 0.68432003 1.8330001
-0.076811433 0.68432003 1.8330001
-0.073320001 0.68432003 1.8330001
-0.0076304763 0.7477867 2.003
-0.0038152381 0.7477867 2.003
0 0.7477867 2.003
0.0038152381 0.7477867 2.003
0.0076304763 0.7477867 2.003
0.011445715 0.7477867 2.003
0.015177144 0.74368 1.9920001
0.01897143 0.74368 1.9920001
0.022765715 0.74368 1.9920001
0.026560001 0.74368 1.9920001
0.030354287 0.74368 1.9920001
0.034148574 0.74368 1.9920001
0.03794286 0.74368 1.9920001
0.041737143 0.74368 1.9920001
0.16498667 0.70298672 1.8830001
0.1676781 0.69925338 1.8730001
0.17033143 0.69552004 1.863
0.17388001 0.69552004 1.863
0.17742857 0.69552004 1.863
0.18000571 0.69178671 1.853
0.18254477 0.68805337 1.8430001
0.18504572 0.68432003 1.8330001
0.18853715 0.68432003 1.8330001
0.19202858 0.68432003 1.8330001
0.19552001 0.68432003 1.8330001
0.19901143 0.68432003 1.8330001
0.20150858 0.68096 1.8240001
0.20385906 0.67722666 1.8140001
0.2073143 0.67722666 1.8140001
0.20960763 0.67349339 1.8040001
0.21304382 0.67349339 1.8040001
0.21768001 0.67722666 1.8140001
0.21991619 0.67349339 1.8040001
0.22335239 0.67349339 1.8040001
-0.11449905 0.66342098 1.7680001
-0.11226286 0.67017525 1.7860001
-0.10886095 0.67017525 1.7860001
-0.10599048 0.67355239 1.7950001
-0.10257144 0.67355239 1.7950001
-0.099152386 0.67355239 1.7950001
-0.095733337 0.67355239 1.7950001
-0.092777148 0.67692953 1.8040001
-0.089340955 0.67692953 1.8040001
-0.086380959 0.68068194 1.8140001
-0.082925715 0.68068194 1.8140001
-0.079470478 0.68068194 1.8140001
0.0075885719 0.74747431 1.9920001
0.011382857 0.74747431 1.9920001
0.015177144 0.74747431 1.9920001
0.01897143 0.74747431 1.9920001
0.022765715 0.74747431 1.9920001
0.026560001 0.74747431 1.9920001
0.030354287 0.74747431 1.9920001
0.1676781 0.70282096 1.8730001
0.17124572 0.70282096 1.8730001
0.17388001 0.69906861 1.863
0.1764762 0.6953162 1.853
0.18000571 0.6953162 1.853
0.18254477 0.69156384 1.8430001
0.18504572 0.68781143 1.8330001
0.18853715 0.68781143 1.8330001
0.19202858 0.68781143 1.8330001
0.19552001 0.68781143 1.8330001
0.19901143 0.68781143 1.8330001
0.20250286 0.68781143 1.8330001
0.20385906 0.68068194 1.8140001
0.2073143 0.68068194 1.8140001
0.21076953 0.68068194 1.8140001
0.21422477 0.68068194 1.8140001
0.21768001 0.68068194 1.8140001
0.22113524 0.68068194 1.8140001
0.22335239 0.67692953 1.8040001
0.22678858 0.67692953 1.8040001
-0.11508191 0.67018288 1.7770001
-0.11226286 0.67357719 1.7860001
-0.10886095 0.67357719 1.7860001
-0.10599048 0.67697144 1.7950001
-0.10257144 0.67697144 1.7950001
-0.099152386 0.67697144 1.7950001
-0.095733337 0.67697144 1.7950001
-0.092777148 0.68036574 1.8040001
-0.089340955 0.68036574 1.8040001
-0.085904762 0.68036574 1.8040001
-0.082468577 0.68036574 1.8040001
-0.079032384 0.68036574 1.8040001
0.18000571 0.69884574 1.853
0.18254477 0.69507432 1.8430001
0.18605524 0.69507432 1.8430001
0.18956572 0.69507432 1.8430001
0.19202858 0.6913029 1.8330001
0.19658667 0.69507432 1.8430001
0.20009714 0.69507432 1.8430001
0.20250286 0.6913029 1.8330001
0.20498286 0.68790859 1.8240001
0.20845716 0.68790859 1.8240001
0.21193144 0.68790859 1.8240001
0.21540572 0.68790859 1.8240001
0.21768001 0.68413717 1.8140001
0.22113524 0.68413717 1.8140001
0.22335239 0.68036574 1.8040001
0.22678858 0.68036574 1.8040001
0.23022477 0.68036574 1.8040001
-0.11786667 0.67015624 1.7680001
-0.11449905 0.67015624 1.7680001
-0.11169714 0.67356765 1.7770001
-0.10886095 0.67697906 1.7860001
-0.10545905 0.67697906 1.7860001
-0.10257144 0.68039048 1.7950001
-0.099152386 0.68039048 1.7950001
-0.095733337 0.68039048 1.7950001
-0.092777148 0.68380195 1.8040001
-0.089340955 0.68380195 1.8040001
-0.085904762 0.68380195 1.8040001
0.18254477 0.69858479 1.8430001
0.18605524 0.69858479 1.8430001
0.18956572 0.69858479 1.8430001
0.19307619 0.69858479 1.8430001
0.19658667 0.69858479 1.8430001
0.20009714 0.69858479 1.8430001
0.20250286 0.6947943 1.8330001
0.20498286 0.69138288 1.8240001
0.20845716 0.69138288 1.8240001
0.21193144 0.69138288 1.8240001
0.21422477 0.68759239 1.8140001
0.21768001 0.68759239 1.8140001
0.22113524 0.68759239 1.8140001
0.22335239 0.68380195 1.8040001
0.22678858 0.68380195 1.8040001
0.23022477 0.68380195 1.8040001
0.23366097 0.68380195 1.8040001
-0.12123429 0.67352384 1.7680001
-0.11786667 0.67352384 1.7680001
-0.11508191 0.67695242 1.7770001
-0.11169714 0.67695242 1.7770001
-0.10831238 0.67695242 1.7770001
-0.10545905 0.680381 1.7860001
-0.10205714 0.680381 1.7860001
-0.099152386 0.68380958 1.7950001
-0.095733337 0.68380958 1.7950001
0.20009714 0.70209527 1.8430001
0.20250286 0.69828576 1.8330001
0.20498286 0.69485718 1.8240001
0.20845716 0.69485718 1.8240001
0.21193144 0.69485718 1.8240001
0.21422477 0.69104767 1.8140001
0.21768001 0.69104767 1.8140001
0.21991619 0.6872381 1.8040001
0.22335239 0.6872381 1.8040001
0.22678858 0.6872381 1.8040001
0.23022477 0.6872381 1.8040001
0.23366097 0.6872381 1.8040001
0.23709716 0.6872381 1.8040001
0.24053334 0.6872381 1.8040001
-0.12460191 0.67689145 1.7680001
-0.12123429 0.67689145 1.7680001
-0.11786667 0.67689145 1.7680001
-0.11449905 0.67689145 1.7680001
-0.11113143 0.67689145 1.7680001
-0.10831238 0.68033719 1.7770001
-0.10492762 0.68033719 1.7770001
-0.10205714 0.68378288 1.7860001
-0.098655239 0.68378288 1.7860001
-0.095253333 0.68378288 1.7860001
0.20250286 0.70177716 1.8330001
0.20599429 0.70177716 1.8330001
0.20845716 0.69833148 1.8240001
0.21193144 0.69833148 1.8240001
0.21540572 0.69833148 1.8240001
0.21768001 0.69450289 1.8140001
0.22113524 0.69450289 1.8140001
0.22335239 0.6906743 1.8040001
0.22678858 0.6906743 1.8040001
0.23022477 0.6906743 1.8040001
0.23366097 0.6906743 1.8040001
0.23709716 0.6906743 1.8040001
0.23933335 0.68722862 1.7950001
0.24275239 0.68722862 1.7950001
-0.1273181 0.6767962 1.7590001
-0.12396763 0.6767962 1.7590001
-0.12061714 0.6767962 1.7590001
-0.11726667 0.6767962 1.7590001
-0.11449905 0.68025905 1.7680001
-0.11113143 0.68025905 1.7680001
-0.10776381 0.68025905 1.7680001
-0.10439619 0.68025905 1.7680001
-0.10154286 0.68372196 1.7770001
-0.098655239 0.68718481 1.7860001
-0.095253333 0.68718481 1.7860001
0.20599429 0.70526862 1.8330001
0.20845716 0.70180571 1.8240001
0.21193144 0.70180571 1.8240001
0.21540572 0.70180571 1.8240001
0.21768001 0.69795811 1.8140001
0.22113524 0.69795811 1.8140001
0.22335239 0.69411051 1.8040001
0.22678858 0.69411051 1.8040001
0.23022477 0.69411051 1.8040001
0.23249525 0.69064766 1.7950001
0.23591429 0.69064766 1.7950001
0.23933335 0.69064766 1.7950001
0.24153525 0.68718481 1.7860001
0.24493715 0.68718481 1.7860001
-0.1273181 0.68014669 1.7590001
-0.12396763 0.68014669 1.7590001
-0.12061714 0.68014669 1.7590001
-0.11726667 0.68014669 1.7590001
-0.11449905 0.68362671 1.7680001
-0.11113143 0.68362671 1.7680001
-0.10776381 0.68362671 1.7680001
-0.10439619 0.68362671 1.7680001
-0.10102858 0.68362671 1.7680001
-0.097660959 0.68362671 1.7680001
0.21193144 0.70528001 1.8240001
0.21540572 0.70528001 1.8240001
0.21888001 0.70528001 1.8240001
0.22113524 0.70141333 1.8140001
0.22459048 0.70141333 1.8140001
0.22804572 0.70141333 1.8140001
0.23022477 0.69754672 1.8040001
0.23366097 0.69754672 1.8040001
0.23591429 0.6940667 1.7950001
0.23813334 0.69058669 1.7860001
0.24153525 0.69058669 1.7860001
0.24493715 0.69058669 1.7860001
0.24833906 0.69058669 1.7860001
-0.12933144 0.67650288 1.7410001
-0.1273181 0.68349719 1.7590001
-0.12396763 0.68349719 1.7590001
-0.12061714 0.68349719 1.7590001
-0.11726667 0.68349719 1.7590001
-0.11449905 0.68699431 1.7680001
-0.11113143 0.68699431 1.7680001
-0.10776381 0.68699431 1.7680001
-0.10439619 0.68699431 1.7680001
-0.10102858 0.68699431 1.7680001
-0.097660959 0.68699431 1.7680001
0.21540572 0.7087543 1.8240001
0.21768001 0.70486861 1.8140001
0.22113524 0.70486861 1.8140001
0.22459048 0.70486861 1.8140001
0.22804572 0.70486861 1.8140001
0.23022477 0.70098287 1.8040001
0.23249525 0.69748574 1.7950001
0.23591429 0.69748574 1.7950001
0.23813334 0.69398862 1.7860001
0.24153525 0.69398862 1.7860001
0.24493715 0.69398862 1.7860001
0.24833906 0.69398862 1.7860001
-0.12933144 0.67981905 1.7410001
-0.12601525 0.67981905 1.7410001
-0.12396763 0.68684763 1.7590001
-0.12061714 0.68684763 1.7590001
-0.11666667 0.68333334 1.7500001
-0.1139162 0.68684763 1.7590001
-0.11056572 0.68684763 1.7590001
-0.10776381 0.69036192 1.7680001
-0.10386477 0.68684763 1.7590001
-0.10051429 0.68684763 1.7590001
-0.097163811 0.68684763 1.7590001
0.22113524 0.70832384 1.8140001
0.22459048 0.70832384 1.8140001
0.22804572 0.70832384 1.8140001
0.23022477 0.70441908 1.8040001
0.23249525 0.70090479 1.7950001
0.23473144 0.6973905 1.7860001
0.23813334 0.6973905 1.7860001
0.24153525 0.6973905 1.7860001
0.24493715 0.6973905 1.7860001
0.24708763 0.69387621 1.7770001
0.2504724 0.69387621 1.7770001
0.25385717 0.69387621 1.7770001
-0.13596381 0.68313527 1.7410001
-0.13264762 0.68313527 1.7410001
-0.12601525 0.68313527 1.7410001
-0.12333333 0.68666667 1.7500001
-0.12 0.68666667 1.7500001
-0.11666667 0.68666667 1.7500001
-0.1139162 0.69019812 1.7590001
-0.11056572 0.69019812 1.7590001
-0.10721524 0.69019812 1.7590001
-0.10386477 0.69019812 1.7590001
-0.10051429 0.69019812 1.7590001
0.22335239 0.70785528 1.8040001
0.22678858 0.70785528 1.8040001
0.22907619 0.70432383 1.7950001
0.23249525 0.70432383 1.7950001
0.23591429 0.70432383 1.7950001
0.23813334 0.70079243 1.7860001
0.24153525 0.70079243 1.7860001
0.24493715 0.70079243 1.7860001
0.24708763 0.69726098 1.7770001
0.2504724 0.69726098 1.7770001
0.25385717 0.69726098 1.7770001
-0.13596381 0.68645144 1.7410001
-0.13264762 0.68645144 1.7410001
-0.12933144 0.68645144 1.7410001
-0.12601525 0.68645144 1.7410001
-0.12269905 0.68645144 1.7410001
-0.11938286 0.68645144 1.7410001
-0.11666667 0.69 1.7500001
-0.11333334 0.69 1.7500001
-0.11056572 0.69354862 1.7590001
-0.10721524 0.69354862 1.7590001
-0.10386477 0.69354862 1.7590001
-0.10051429 0.69354862 1.7590001
0.22678858 0.71129143 1.8040001
0.22907619 0.70774287 1.7950001
0.23249525 0.70774287 1.7950001
0.23591429 0.70774287 1.7950001
0.23813334 0.70419431 1.7860001
0.24153525 0.70419431 1.7860001
0.24493715 0.70419431 1.7860001
0.24708763 0.70064574 1.7770001
0.2504724 0.70064574 1.7770001
0.25257143 0.69709718 1.7680001
0.25593907 0.69709718 1.7680001
-0.13526095 0.68620193 1.7320001
-0.13196191 0.68620193 1.7320001
-0.12866285 0.68620193 1.7320001
-0.12601525 0.68976766 1.7410001
-0.12269905 0.68976766 1.7410001
-0.11938286 0.68976766 1.7410001
-0.11666667 0.69333339 1.7500001
-0.11333334 0.69333339 1.7500001
-0.11056572 0.69689906 1.7590001
-0.10776381 0.70046479 1.7680001
-0.10439619 0.70046479 1.7680001
-0.10102858 0.70046479 1.7680001
0.22907619 0.71116191 1.7950001
0.23249525 0.71116191 1.7950001
0.23591429 0.71116191 1.7950001
0.23933335 0.71116191 1.7950001
0.24153525 0.70759624 1.7860001
0.24493715 0.70759624 1.7860001
0.24708763 0.70403051 1.7770001
0.2504724 0.70403051 1.7770001
0.25257143 0.70046479 1.7680001
0.25593907 0.70046479 1.7680001
-0.13928001 0.69308382 1.7410001
-0.13526095 0.68950099 1.7320001
-0.13196191 0.68950099 1.7320001
-0.12866285 0.68950099 1.7320001
-0.12536381 0.68950099 1.7320001
-0.12269905 0.69308382 1.7410001
-0.11938286 0.69308382 1.7410001
-0.11606667 0.69308382 1.7410001
-0.11275048 0.69308382 1.7410001
0.22907619 0.71458095 1.7950001
0.23249525 0.71458095 1.7950001
0.23591429 0.71458095 1.7950001
0.23933335 0.71458095 1.7950001
0.24153525 0.71099812 1.7860001
0.24493715 0.71099812 1.7860001
0.24708763 0.70741528 1.7770001
0.24920382 0.70383239 1.7680001
0.25128573 0.70024955 1.7590001
0.2546362 0.70024955 1.7590001
-0.13856001 0.69280005 1.7320001
-0.13526095 0.69280005 1.7320001
-0.13196191 0.69280005 1.7320001
-0.12866285 0.69280005 1.7320001
-0.12536381 0.69280005 1.7320001
-0.12206477 0.69280005 1.7320001
-0.11876572 0.69280005 1.7320001
-0.11606667 0.69640005 1.7410001
-0.11275048 0.69640005 1.7410001
0.22792763 0.71440005 1.7860001
0.23132953 0.71440005 1.7860001
0.23473144 0.71440005 1.7860001
0.23813334 0.71440005 1.7860001
0.24153525 0.71440005 1.7860001
0.24493715 0.71440005 1.7860001
0.24708763 0.71080005 1.7770001
0.24793525 0.70360005 1.7590001
0.25 0.70000005 1.7500001
0.25333333 0.70000005 1.7500001
-0.1425962 0.69971621 1.7410001
-0.13856001 0.6960991 1.7320001
-0.1345581 0.69248194 1.723
-0.13196191 0.6960991 1.7320001
-0.12866285 0.6960991 1.7320001
-0.12536381 0.6960991 1.7320001
-0.12269905 0.69971621 1.7410001
-0.11876572 0.6960991 1.7320001
-0.11546667 0.6960991 1.7320001
0.23132953 0.71780193 1.7860001
0.23591429 0.7214191 1.7950001
0.23933335 0.7214191 1.7950001
0.24275239 0.7214191 1.7950001
0.24493715 0.71780193 1.7860001
0.24708763 0.71418476 1.7770001
0.2504724 0.71418476 1.7770001
0.25257143 0.71056765 1.7680001
0.25593907 0.71056765 1.7680001
-0.14591238 0.70303243 1.7410001
-0.1425962 0.70303243 1.7410001
-0.13856001 0.6993981 1.7320001
-0.1345581 0.69576383 1.723
-0.13196191 0.6993981 1.7320001
-0.12866285 0.6993981 1.7320001
-0.12536381 0.6993981 1.7320001
-0.12206477 0.6993981 1.7320001
-0.11876572 0.6993981 1.7320001
0.23591429 0.72483814 1.7950001
0.23933335 0.72483814 1.7950001
0.24275239 0.72483814 1.7950001
0.24617144 0.72483814 1.7950001
0.24833906 0.72120386 1.7860001
0.25174096 0.72120386 1.7860001
0.25385717 0.71756953 1.7770001
0.2572419 0.71756953 1.7770001
-0.14591238 0.7063486 1.7410001
-0.14185905 0.70269716 1.7320001
-0.13784 0.69904572 1.723
-0.13393334 0.69580001 1.715
-0.13127619 0.69904572 1.723
-0.12866285 0.70269716 1.7320001
-0.12471239 0.69904572 1.723
-0.12143048 0.69904572 1.723
0.23933335 0.72825718 1.7950001
0.24275239 0.72825718 1.7950001
0.24617144 0.72825718 1.7950001
0.24833906 0.72460574 1.7860001
0.25174096 0.72460574 1.7860001
0.25514287 0.72460574 1.7860001
0.25854477 0.72460574 1.7860001
0.26194668 0.72460574 1.7860001
0.26534858 0.72460574 1.7860001
-0.15026668 0.6990667 1.715
-0.14768572 0.70232767 1.723
-0.1451581 0.70599622 1.7320001
-0.14185905 0.70599622 1.7320001
-0.13784 0.70232767 1.723
-0.13393334 0.6990667 1.715
-0.13127619 0.70232767 1.723
-0.12740001 0.6990667 1.715
-0.12413334 0.6990667 1.715
0.23933335 0.73167622 1.7950001
0.24153525 0.72800767 1.7860001
0.24617144 0.73167622 1.7950001
0.24833906 0.72800767 1.7860001
0.25300953 0.73167622 1.7950001
0.25514287 0.72800767 1.7860001
0.25854477 0.72800767 1.7860001
0.26194668 0.72800767 1.7860001
0.26401144 0.72433907 1.7770001
0.26739621 0.72433907 1.7770001
0.27078095 0.72433907 1.7770001
-0.15026668 0.70233333 1.715
-0.147 0.70233333 1.715
-0.14440382 0.70560956 1.723
-0.14112191 0.70560956 1.723
-0.13784 0.70560956 1.723
-0.13393334 0.70233333 1.715
-0.13066667 0.70233333 1.715
-0.12740001 0.70233333 1.715
0.24275239 0.73509526 1.7950001
0.24617144 0.73509526 1.7950001
0.24959049 0.73509526 1.7950001
0.25300953 0.73509526 1.7950001
0.25642857 0.73509526 1.7950001
0.25854477 0.73140955 1.7860001
0.26326668 0.73509526 1.7950001
0.26534858 0.73140955 1.7860001
0.26739621 0.72772384 1.7770001
0.26803809 0.72035241 1.7590001
0.27416572 0.72772384 1.7770001
0.27755049 0.72772384 1.7770001
0.28093526 0.72772384 1.7770001
-0.15026668 0.70560002 1.715
-0.147 0.70560002 1.715
-0.14440382 0.70889145 1.723
-0.14112191 0.70889145 1.723
-0.13784 0.70889145 1.723
-0.13393334 0.70560002 1.715
-0.13066667 0.70560002 1.715
-0.12740001 0.70560002 1.715
0.24275239 0.7385143 1.7950001
0.24617144 0.7385143 1.7950001
0.24959049 0.7385143 1.7950001
0.25300953 0.7385143 1.7950001
0.25642857 0.7385143 1.7950001
0.25854477 0.73481148 1.7860001
0.26326668 0.7385143 1.7950001
0.26534858 0.73481148 1.7860001
0.26875049 0.73481148 1.7860001
0.27078095 0.73110861 1.7770001
0.27416572 0.73110861 1.7770001
0.2789562 0.73481148 1.7860001
0.28093526 0.73110861 1.7770001
-0.15272762 0.70514667 1.7060001
-0.14947811 0.70514667 1.7060001
-0.14622858 0.70514667 1.7060001
-0.14373334 0.70886672 1.715
-0.14112191 0.71217334 1.723
-0.1372 0.70886672 1.715
-0.13323048 0.70514667 1.7060001
-0.12998095 0.70514667 1.7060001
-0.12673144 0.70514667 1.7060001
0.24275239 0.74193335 1.7950001
0.24617144 0.74193335 1.7950001
0.24959049 0.74193335 1.7950001
0.25300953 0.74193335 1.7950001
0.25642857 0.74193335 1.7950001
0.25984764 0.74193335 1.7950001
0.26326668 0.74193335 1.7950001
0.26668572 0.74193335 1.7950001
0.26875049 0.73821336 1.7860001
0.27215239 0.73821336 1.7860001
0.2755543 0.73821336 1.7860001
0.2789562 0.73821336 1.7860001
0.28235811 0.73821336 1.7860001
-0.15353334 0.71213335 1.715
-0.15026668 0.71213335 1.715
-0.147 0.71213335 1.715
-0.14373334 0.71213335 1.715
-0.14112191 0.71545529 1.723
-0.1372 0.71213335 1.715
-0.13323048 0.7083962 1.7060001
-0.12998095 0.7083962 1.7060001
-0.12554286 0.70175242 1.6900001
-0.12232381 0.70175242 1.6900001
0.23933335 0.74535239 1.7950001
0.24275239 0.74535239 1.7950001
0.24617144 0.74535239 1.7950001
0.24959049 0.74535239 1.7950001
0.25300953 0.74535239 1.7950001
0.25642857 0.74535239 1.7950001
0.25854477 0.74161524 1.7860001
0.26326668 0.74535239 1.7950001
0.26534858 0.74161524 1.7860001
0.26875049 0.74161524 1.7860001
0.27215239 0.74161524 1.7860001
0.2755543 0.74161524 1.7860001
0.2789562 0.74161524 1.7860001
0.28235811 0.74161524 1.7860001
-0.15026668 0.71540004 1.715
-0.147 0.71540004 1.715
-0.14373334 0.71540004 1.715
-0.14112191 0.71873719 1.723
-0.1372 0.71540004 1.715
-0.13323048 0.71164572 1.7060001
-0.12937143 0.70830858 1.6980001
-0.12554286 0.70497143 1.6900001
-0.12232381 0.70497143 1.6900001
0.23933335 0.74877143 1.7950001
0.24275239 0.74877143 1.7950001
0.24617144 0.74877143 1.7950001
0.24959049 0.74877143 1.7950001
0.25300953 0.74877143 1.7950001
0.25642857 0.74877143 1.7950001
0.25854477 0.74501717 1.7860001
0.26194668 0.74501717 1.7860001
0.26534858 0.74501717 1.7860001
0.26875049 0.74501717 1.7860001
0.27215239 0.74501717 1.7860001
0.2755543 0.74501717 1.7860001
0.2789562 0.74501717 1.7860001
0.28235811 0.74501717 1.7860001
0.28576002 0.74501717 1.7860001
-0.15096763 0.72201908 1.723
-0.14768572 0.72201908 1.723
-0.14440382 0.72201908 1.723
-0.14112191 0.72201908 1.723
-0.1372 0.71866667 1.715
-0.13393334 0.71866667 1.715
-0.12998095 0.71489525 1.7060001
-0.12613715 0.7115429 1.6980001
-0.12290286 0.7115429 1.6980001
-0.11966857 0.7115429 1.6980001
0.24053334 0.75596195 1.8040001
0.24396953 0.75596195 1.8040001
0.24617144 0.75219053 1.7950001
0.24959049 0.75219053 1.7950001
0.25174096 0.74841905 1.7860001
0.25514287 0.74841905 1.7860001
0.25854477 0.74841905 1.7860001
0.26194668 0.74841905 1.7860001
0.26534858 0.74841905 1.7860001
0.26875049 0.74841905 1.7860001
0.27215239 0.74841905 1.7860001
0.2755543 0.74841905 1.7860001
0.2789562 0.74841905 1.7860001
0.28235811 0.74841905 1.7860001
0.28576002 0.74841905 1.7860001
0.28916192 0.74841905 1.7860001
-0.1517562 0.72908956 1.7320001
-0.14845715 0.72908956 1.7320001
-0.1451581 0.72908956 1.7320001
-0.14185905 0.72908956 1.7320001
-0.13784 0.72530097 1.723
-0.13393334 0.72193336 1.715
-0.13066667 0.72193336 1.715
-0.12554286 0.71140957 1.6900001
-0.12232381 0.71140957 1.6900001
-0.11910477 0.71140957 1.6900001
0.24053334 0.7593981 1.8040001
0.24396953 0.7593981 1.8040001
0.24617144 0.75560957 1.7950001
0.24959049 0.75560957 1.7950001
0.25174096 0.75182098 1.7860001
0.25514287 0.75182098 1.7860001
0.25854477 0.75182098 1.7860001
0.26194668 0.75182098 1.7860001
0.26534858 0.75182098 1.7860001
0.26739621 0.74803239 1.7770001
0.27215239 0.75182098 1.7860001
0.2755543 0.75182098 1.7860001
0.2789562 0.75182098 1.7860001
0.28235811 0.75182098 1.7860001
0.28576002 0.75182098 1.7860001
0.28916192 0.75182098 1.7860001
-0.14768572 0.72858286 1.723
-0.14440382 0.72858286 1.723
-0.14185905 0.73238862 1.7320001
-0.13784 0.72858286 1.723
-0.1345581 0.72858286 1.723
-0.13127619 0.72858286 1.723
-0.12673144 0.7213943 1.7060001
-0.12348191 0.7213943 1.7060001
-0.12023239 0.7213943 1.7060001
0.24617144 0.75902861 1.7950001
0.24833906 0.75522286 1.7860001
0.25174096 0.75522286 1.7860001
0.25514287 0.75522286 1.7860001
0.25854477 0.75522286 1.7860001
0.26194668 0.75522286 1.7860001
0.26534858 0.75522286 1.7860001
0.26739621 0.75141716 1.7770001
0.27078095 0.75141716 1.7770001
0.2755543 0.75522286 1.7860001
0.2789562 0.75522286 1.7860001
0.28235811 0.75522286 1.7860001
0.28576002 0.75522286 1.7860001
0.28916192 0.75522286 1.7860001
0.29256383 0.75522286 1.7860001
-0.14922857 0.73951048 1.7410001
-0.14591238 0.73951048 1.7410001
-0.1425962 0.73951048 1.7410001
-0.13856001 0.73568767 1.7320001
-0.1345581 0.73186481 1.723
-0.13127619 0.73186481 1.723
-0.12673144 0.72464383 1.7060001
-0.12348191 0.72464383 1.7060001
-0.12023239 0.72464383 1.7060001
0.24493715 0.75862479 1.7860001
0.24833906 0.75862479 1.7860001
0.25174096 0.75862479 1.7860001
0.25514287 0.75862479 1.7860001
0.25854477 0.75862479 1.7860001
0.26194668 0.75862479 1.7860001
0.26534858 0.75862479 1.7860001
0.26739621 0.75480193 1.7770001
0.27215239 0.75862479 1.7860001
0.2755543 0.75862479 1.7860001
0.2789562 0.75862479 1.7860001
0.28235811 0.75862479 1.7860001
0.28576002 0.75862479 1.7860001
0.28916192 0.75862479 1.7860001
0.29256383 0.75862479 1.7860001
0.29596573 0.75862479 1.7860001
-0.14591238 0.7428267 1.7410001
-0.1425962 0.7428267 1.7410001
-0.13856001 0.73898667 1.7320001
-0.1345581 0.7351467 1.723
-0.13127619 0.7351467 1.723
-0.12740001 0.73173338 1.715
-0.12413334 0.73173338 1.715
-0.11966857 0.72448003 1.6980001
-0.11643429 0.72448003 1.6980001
-0.1132 0.72448003 1.6980001
0.26739621 0.7581867 1.7770001
-0.14591238 0.74614286 1.7410001
-0.1425962 0.74614286 1.7410001
-0.13856001 0.74228573 1.7320001
-0.1345581 0.73842859 1.723
-0.13127619 0.73842859 1.723
-0.12740001 0.73500001 1.715
-0.12413334 0.73500001 1.715
-0.12086667 0.73500001 1.715
-0.11698286 0.73114288 1.7060001
-0.11373334 0.73114288 1.7060001
-0.13856001 0.74558479 1.7320001
-0.13526095 0.74558479 1.7320001
-0.13127619 0.74171048 1.723
-0.12740001 0.73826671 1.715
-0.12471239 0.74171048 1.723
-0.12086667 0.73826671 1.715
-0.11698286 0.7343924 1.7060001
-0.11373334 0.7343924 1.7060001
-0.14112191 0.74499243 1.723
-0.13784 0.74499243 1.723
-0.1345581 0.74499243 1.723
-0.13127619 0.74499243 1.723
-0.12740001 0.74153334 1.715
-0.12413334 0.74153334 1.715
-0.12023239 0.73764193 1.7060001
-0.11698286 0.73764193 1.7060001
-0.11373334 0.73764193 1.7060001
-0.11048381 0.73764193 1.7060001
-0.14230858 0.73741716 1.6980001
-0.14112191 0.74827433 1.723
-0.13784 0.74827433 1.723
-0.1345581 0.74827433 1.723
-0.13127619 0.74827433 1.723
