# .PCD v0.7 - Point Cloud Data file format
VERSION 0.7
FIELDS x y z
SIZE 4 4 4
TYPE F F F
COUNT 1 1 1
WIDTH 1491
HEIGHT 1
VIEWPOINT 0 0 0 1 0 0 0
POINTS 1491
DATA ascii
-0.092853338 0.16249333 1.7410001
-0.090925716 0.16501334 1.7680001
-0.087558098 0.16501334 1.7680001
-0.08419048 0.16501334 1.7680001
-0.080822863 0.16501334 1.7680001
-0.07784953 0.16585334 1.7770001
-0.074464768 0.16585334 1.7770001
-0.071440004 0.16669334 1.7860001
-0.067695238 0.16585334 1.7770001
-0.064310476 0.16585334 1.7770001
-0.061851431 0.16837335 1.8040001
-0.058415242 0.16837335 1.8040001
-0.054704763 0.16753334 1.7950001
-0.051285718 0.16753334 1.7950001
-0.047866669 0.16753334 1.7950001
-0.044447619 0.16753334 1.7950001
-0.041028574 0.16753334 1.7950001
-0.037609525 0.16753334 1.7950001
-0.034190476 0.16753334 1.7950001
-0.030925715 0.16837335 1.8040001
-0.027352381 0.16753334 1.7950001
-0.023933334 0.16753334 1.7950001
-0.02041143 0.16669334 1.7860001
-0.017095238 0.16753334 1.7950001
-0.013676191 0.16753334 1.7950001
-0.010257144 0.16753334 1.7950001
-0.0068380954 0.16753334 1.7950001
-0.0034190477 0.16753334 1.7950001
0 0.16753334 1.7950001
0.0034190477 0.16753334 1.7950001
0.0068380954 0.16753334 1.7950001
0.010257144 0.16753334 1.7950001
0.013676191 0.16753334 1.7950001
0.017180953 0.16837335 1.8040001
0.020617144 0.16837335 1.8040001
0.023933334 0.16753334 1.7950001
0.027489524 0.16837335 1.8040001
0.030925715 0.16837335 1.8040001
0.03455238 0.16930667 1.8140001
0.038007621 0.16930667 1.8140001
0.041462857 0.16930667 1.8140001
0.044918098 0.16930667 1.8140001
0.048373334 0.16930667 1.8140001
0.051828574 0.16930667 1.8140001
0.055283811 0.16930667 1.8140001
0.059062861 0.17024 1.8240001
0.062537149 0.17024 1.8240001
0.065649524 0.16930667 1.8140001
0.069485717 0.17024 1.8240001
0.072960004 0.17024 1.8240001
0.076434292 0.17024 1.8240001
0.079908572 0.17024 1.8240001
0.08338286 0.17024 1.8240001
0.086857148 0.17024 1.8240001
0.090331435 0.17024 1.8240001
0.093805715 0.17024 1.8240001
0.097760007 0.17108001 1.8330001
0.10180382 0.17201334 1.8430001
0.10588572 0.17294668 1.853
0.10941524 0.17294668 1.853
0.11355429 0.17388001 1.863
0.11710286 0.17388001 1.863
0.12065143 0.17388001 1.863
0.1242 0.17388001 1.863
0.12774858 0.17388001 1.863
0.13129714 0.17388001 1.863
0.13556953 0.17481335 1.8730001
0.13913715 0.17481335 1.8730001
0.14270477 0.17481335 1.8730001
0.14627239 0.17481335 1.8730001
0.15064001 0.17574668 1.8830001
0.15422668 0.17574668 1.8830001
0.15781334 0.17574668 1.8830001
0.16234286 0.17677334 1.8940001
0.16595048 0.17677334 1.8940001
0.17045334 0.17770667 1.904
0.17408 0.17770667 1.904
0.17574668 0.17574668 1.8830001
0.18038096 0.17677334 1.8940001
0.18292001 0.17574668 1.8830001
0.18650667 0.17574668 1.8830001
0.18908381 0.17481335 1.8730001
0.19162287 0.17388001 1.863
0.19307619 0.17201334 1.8430001
0.19658667 0.17201334 1.8430001
0.20009714 0.17201334 1.8430001
0.20360763 0.17201334 1.8430001
0.20711811 0.17201334 1.8430001
0.21062858 0.17201334 1.8430001
0.21413906 0.17201334 1.8430001
-0.30724573 0.17457144 1.8330001
-0.30541143 0.17552382 1.8430001
-0.30353907 0.1764762 1.853
-0.30000955 0.1764762 1.853
-0.29488 0.17552382 1.8430001
-0.28978857 0.17457144 1.8330001
-0.28629714 0.17457144 1.8330001
-0.14407048 0.16752382 1.7590001
-0.14 0.16666667 1.7500001
-0.13666667 0.16666667 1.7500001
-0.13264762 0.16580953 1.7410001
-0.12933144 0.16580953 1.7410001
-0.12601525 0.16580953 1.7410001
-0.12269905 0.16580953 1.7410001
-0.11938286 0.16580953 1.7410001
-0.11606667 0.16580953 1.7410001
-0.11216763 0.16495238 1.7320001
-0.10886858 0.16495238 1.7320001
-0.10556953 0.16495238 1.7320001
-0.10227048 0.16495238 1.7320001
-0.098971434 0.16495238 1.7320001
-0.096169524 0.16580953 1.7410001
-0.092853338 0.16580953 1.7410001
-0.090925716 0.16838096 1.7680001
-0.087558098 0.16838096 1.7680001
-0.08419048 0.16838096 1.7680001
-0.081234291 0.16923811 1.7770001
-0.07784953 0.16923811 1.7770001
-0.074464768 0.16923811 1.7770001
-0.071440004 0.17009525 1.7860001
-0.068038099 0.17009525 1.7860001
-0.06496191 0.17095239 1.7950001
-0.061851431 0.17180952 1.8040001
-0.058415242 0.17180952 1.8040001
-0.054979049 0.17180952 1.8040001
-0.05154286 0.17180952 1.8040001
-0.048106667 0.17180952 1.8040001
-0.044670478 0.17180952 1.8040001
-0.041028574 0.17095239 1.7950001
-0.037609525 0.17095239 1.7950001
-0.034361906 0.17180952 1.8040001
-0.030925715 0.17180952 1.8040001
-0.027352381 0.17095239 1.7950001
-0.023933334 0.17095239 1.7950001
-0.020514287 0.17095239 1.7950001
-0.017095238 0.17095239 1.7950001
-0.013676191 0.17095239 1.7950001
-0.010257144 0.17095239 1.7950001
-0.0068380954 0.17095239 1.7950001
-0.0034190477 0.17095239 1.7950001
0 0.17095239 1.7950001
0.0034190477 0.17095239 1.7950001
0.0068380954 0.17095239 1.7950001
0.010257144 0.17095239 1.7950001
0.013676191 0.17095239 1.7950001
0.017180953 0.17180952 1.8040001
0.020617144 0.17180952 1.8040001
0.024186667 0.17276192 1.8140001
0.027641905 0.17276192 1.8140001
0.030925715 0.17180952 1.8040001
0.03455238 0.17276192 1.8140001
0.038007621 0.17276192 1.8140001
0.041462857 0.17276192 1.8140001
0.044918098 0.17276192 1.8140001
0.048373334 0.17276192 1.8140001
0.051828574 0.17276192 1.8140001
0.055588573 0.1737143 1.8240001
0.059062861 0.1737143 1.8240001
0.062537149 0.1737143 1.8240001
0.065649524 0.17276192 1.8140001
0.069485717 0.1737143 1.8240001
0.072960004 0.1737143 1.8240001
0.076434292 0.1737143 1.8240001
0.079908572 0.1737143 1.8240001
0.083794288 0.17457144 1.8330001
0.086857148 0.1737143 1.8240001
0.090331435 0.1737143 1.8240001
0.093805715 0.1737143 1.8240001
0.097760007 0.17457144 1.8330001
0.1023562 0.1764762 1.853
0.10588572 0.1764762 1.853
0.11000572 0.17742857 1.863
0.11355429 0.17742857 1.863
0.11710286 0.17742857 1.863
0.12065143 0.17742857 1.863
0.1242 0.17742857 1.863
0.12774858 0.17742857 1.863
0.13129714 0.17742857 1.863
0.13556953 0.17838097 1.8730001
0.13913715 0.17838097 1.8730001
0.14270477 0.17838097 1.8730001
0.14627239 0.17838097 1.8730001
0.15064001 0.17933334 1.8830001
0.15422668 0.17933334 1.8830001
0.15873525 0.18038096 1.8940001
0.16234286 0.18038096 1.8940001
0.16595048 0.18038096 1.8940001
0.17045334 0.18133333 1.904
0.17408 0.18133333 1.904
0.17574668 0.17933334 1.8830001
0.17933334 0.17933334 1.8830001
0.18292001 0.17933334 1.8830001
0.18551619 0.17838097 1.8730001
0.18807429 0.17742857 1.863
0.19059429 0.1764762 1.853
0.19202858 0.17457144 1.8330001
0.19658667 0.17552382 1.8430001
0.20009714 0.17552382 1.8430001
0.20360763 0.17552382 1.8430001
0.20711811 0.17552382 1.8430001
0.21062858 0.17552382 1.8430001
0.21413906 0.17552382 1.8430001
-0.30724573 0.17806287 1.8330001
-0.30541143 0.17903429 1.8430001
-0.30190095 0.17903429 1.8430001
-0.29839048 0.17903429 1.8430001
-0.29488 0.17903429 1.8430001
-0.28978857 0.17806287 1.8330001
-0.28629714 0.17806287 1.8330001
-0.14407048 0.1708743 1.7590001
-0.14 0.17 1.7500001
-0.13666667 0.17 1.7500001
-0.13264762 0.16912572 1.7410001
-0.12933144 0.16912572 1.7410001
-0.12601525 0.16912572 1.7410001
-0.12269905 0.16912572 1.7410001
-0.11938286 0.16912572 1.7410001
-0.11606667 0.16912572 1.7410001
-0.11216763 0.16825144 1.7320001
-0.10886858 0.16825144 1.7320001
-0.10556953 0.16825144 1.7320001
-0.10227048 0.16825144 1.7320001
-0.098971434 0.16825144 1.7320001
-0.096169524 0.16912572 1.7410001
-0.092853338 0.16912572 1.7410001
-0.090462863 0.1708743 1.7590001
-0.087558098 0.17174858 1.7680001
-0.08419048 0.17174858 1.7680001
-0.080822863 0.17174858 1.7680001
-0.07784953 0.17262286 1.7770001
-0.074464768 0.17262286 1.7770001
-0.071440004 0.17349716 1.7860001
-0.067695238 0.17262286 1.7770001
-0.06496191 0.17437144 1.7950001
-0.061542861 0.17437144 1.7950001
-0.058415242 0.17524572 1.8040001
-0.054979049 0.17524572 1.8040001
-0.05154286 0.17524572 1.8040001
-0.048106667 0.17524572 1.8040001
-0.044670478 0.17524572 1.8040001
-0.041028574 0.17437144 1.7950001
-0.037609525 0.17437144 1.7950001
-0.034361906 0.17524572 1.8040001
-0.030925715 0.17524572 1.8040001
-0.027352381 0.17437144 1.7950001
-0.023933334 0.17437144 1.7950001
-0.02041143 0.17349716 1.7860001
-0.017095238 0.17437144 1.7950001
-0.013676191 0.17437144 1.7950001
-0.010257144 0.17437144 1.7950001
-0.0068380954 0.17437144 1.7950001
-0.0034190477 0.17437144 1.7950001
0 0.17437144 1.7950001
0.0034190477 0.17437144 1.7950001
0.0068380954 0.17437144 1.7950001
0.010257144 0.17437144 1.7950001
0.013676191 0.17437144 1.7950001
0.017180953 0.17524572 1.8040001
0.020617144 0.17524572 1.8040001
0.024186667 0.17621715 1.8140001
0.027641905 0.17621715 1.8140001
0.031097144 0.17621715 1.8140001
0.03455238 0.17621715 1.8140001
0.038007621 0.17621715 1.8140001
0.041462857 0.17621715 1.8140001
0.044918098 0.17621715 1.8140001
0.048373334 0.17621715 1.8140001
0.051828574 0.17621715 1.8140001
0.055588573 0.17718858 1.8240001
0.059062861 0.17718858 1.8240001
0.062537149 0.17718858 1.8240001
0.066011429 0.17718858 1.8240001
0.069485717 0.17718858 1.8240001
0.072960004 0.17718858 1.8240001
0.076434292 0.17718858 1.8240001
0.079908572 0.17718858 1.8240001
0.083794288 0.17806287 1.8330001
0.08728572 0.17806287 1.8330001
0.090331435 0.17718858 1.8240001
0.094268575 0.17806287 1.8330001
0.098293334 0.17903429 1.8430001
0.10180382 0.17903429 1.8430001
0.10588572 0.18000571 1.853
0.10941524 0.18000571 1.853
0.11294477 0.18000571 1.853
0.11710286 0.18097715 1.863
0.12065143 0.18097715 1.863
0.1242 0.18097715 1.863
0.12774858 0.18097715 1.863
0.13129714 0.18097715 1.863
0.13484572 0.18097715 1.863
0.13913715 0.18194857 1.8730001
0.14270477 0.18194857 1.8730001
0.14627239 0.18194857 1.8730001
0.15064001 0.18292001 1.8830001
0.15422668 0.18292001 1.8830001
0.15781334 0.18292001 1.8830001
0.16140001 0.18292001 1.8830001
0.16498667 0.18292001 1.8830001
0.16857333 0.18292001 1.8830001
0.17216 0.18292001 1.8830001
0.17388001 0.18097715 1.863
0.17742857 0.18097715 1.863
0.18000571 0.18000571 1.853
0.18254477 0.17903429 1.8430001
0.18605524 0.17903429 1.8430001
0.18956572 0.17903429 1.8430001
0.19202858 0.17806287 1.8330001
0.19658667 0.17903429 1.8430001
0.20009714 0.17903429 1.8430001
0.20471239 0.18000571 1.853
0.20824191 0.18000571 1.853
0.21177144 0.18000571 1.853
0.21530096 0.18000571 1.853
-0.30541143 0.18254477 1.8430001
-0.30353907 0.18353525 1.853
-0.30000955 0.18353525 1.853
-0.29488 0.18254477 1.8430001
-0.28978857 0.18155429 1.8330001
-0.28785905 0.18254477 1.8430001
-0.28434858 0.18254477 1.8430001
-0.14407048 0.17422476 1.7590001
-0.13928001 0.17244191 1.7410001
-0.13596381 0.17244191 1.7410001
-0.13264762 0.17244191 1.7410001
-0.12933144 0.17244191 1.7410001
-0.12536381 0.17155048 1.7320001
-0.12269905 0.17244191 1.7410001
-0.11938286 0.17244191 1.7410001
-0.11546667 0.17155048 1.7320001
-0.11275048 0.17244191 1.7410001
-0.10886858 0.17155048 1.7320001
-0.10556953 0.17155048 1.7320001
-0.10227048 0.17155048 1.7320001
-0.099485718 0.17244191 1.7410001
-0.096169524 0.17244191 1.7410001
-0.092853338 0.17244191 1.7410001
-0.090462863 0.17422476 1.7590001
-0.087112382 0.17422476 1.7590001
-0.08419048 0.1751162 1.7680001
-0.080822863 0.1751162 1.7680001
-0.07784953 0.17600763 1.7770001
-0.074464768 0.17600763 1.7770001
-0.071440004 0.17689906 1.7860001
-0.067695238 0.17600763 1.7770001
-0.064636193 0.17689906 1.7860001
-0.061234288 0.17689906 1.7860001
-0.058123812 0.17779048 1.7950001
-0.054704763 0.17779048 1.7950001
-0.05154286 0.17868191 1.8040001
-0.048106667 0.17868191 1.8040001
-0.044670478 0.17868191 1.8040001
-0.041028574 0.17779048 1.7950001
-0.037609525 0.17779048 1.7950001
-0.034190476 0.17779048 1.7950001
-0.030925715 0.17868191 1.8040001
-0.027352381 0.17779048 1.7950001
-0.023933334 0.17779048 1.7950001
-0.02041143 0.17689906 1.7860001
-0.017095238 0.17779048 1.7950001
-0.013676191 0.17779048 1.7950001
-0.010257144 0.17779048 1.7950001
-0.0068380954 0.17779048 1.7950001
-0.0034190477 0.17779048 1.7950001
0 0.17779048 1.7950001
0.0034190477 0.17779048 1.7950001
0.0068380954 0.17779048 1.7950001
0.010257144 0.17779048 1.7950001
0.013676191 0.17779048 1.7950001
0.017180953 0.17868191 1.8040001
0.020617144 0.17868191 1.8040001
0.024186667 0.17967239 1.8140001
0.027641905 0.17967239 1.8140001
0.030925715 0.17868191 1.8040001
0.03455238 0.17967239 1.8140001
0.038007621 0.17967239 1.8140001
0.041462857 0.17967239 1.8140001
0.045165718 0.18066287 1.8240001
0.048640002 0.18066287 1.8240001
0.052114289 0.18066287 1.8240001
0.055588573 0.18066287 1.8240001
0.059062861 0.18066287 1.8240001
0.062537149 0.18066287 1.8240001
0.066011429 0.18066287 1.8240001
0.069485717 0.18066287 1.8240001
0.072960004 0.18066287 1.8240001
0.076811433 0.18155429 1.8330001
0.080302857 0.18155429 1.8330001
0.083794288 0.18155429 1.8330001
0.08728572 0.18155429 1.8330001
0.090777144 0.18155429 1.8330001
0.094782859 0.18254477 1.8430001
0.098293334 0.18254477 1.8430001
0.10180382 0.18254477 1.8430001
0.10531429 0.18254477 1.8430001
0.10941524 0.18353525 1.853
0.11294477 0.18353525 1.853
0.11647429 0.18353525 1.853
0.12000381 0.18353525 1.853
0.12353334 0.18353525 1.853
0.12706286 0.18353525 1.853
0.13129714 0.18452573 1.863
0.13484572 0.18452573 1.863
0.1383943 0.18452573 1.863
0.14194286 0.18452573 1.863
0.14627239 0.18551619 1.8730001
0.14984001 0.18551619 1.8730001
0.15340762 0.18551619 1.8730001
0.15781334 0.18650667 1.8830001
0.16140001 0.18650667 1.8830001
0.16498667 0.18650667 1.8830001
0.1676781 0.18551619 1.8730001
0.17124572 0.18551619 1.8730001
0.17388001 0.18452573 1.863
0.1764762 0.18353525 1.853
0.18000571 0.18353525 1.853
0.18254477 0.18254477 1.8430001
0.18605524 0.18254477 1.8430001
0.18956572 0.18254477 1.8430001
0.19202858 0.18155429 1.8330001
0.19658667 0.18254477 1.8430001
0.20009714 0.18254477 1.8430001
0.20471239 0.18353525 1.853
0.20824191 0.18353525 1.853
0.21177144 0.18353525 1.853
0.21530096 0.18353525 1.853
-0.30706859 0.18706477 1.853
-0.30353907 0.18706477 1.853
-0.30000955 0.18706477 1.853
-0.29488 0.18605524 1.8430001
-0.29136953 0.18605524 1.8430001
-0.28785905 0.18605524 1.8430001
-0.28434858 0.18605524 1.8430001
-0.13928001 0.17575811 1.7410001
-0.13596381 0.17575811 1.7410001
-0.13264762 0.17575811 1.7410001
-0.12933144 0.17575811 1.7410001
-0.12601525 0.17575811 1.7410001
-0.12269905 0.17575811 1.7410001
-0.11938286 0.17575811 1.7410001
-0.11606667 0.17575811 1.7410001
-0.11275048 0.17575811 1.7410001
-0.10943429 0.17575811 1.7410001
-0.1061181 0.17575811 1.7410001
-0.10227048 0.17484953 1.7320001
-0.099485718 0.17575811 1.7410001
-0.096169524 0.17575811 1.7410001
-0.092853338 0.17575811 1.7410001
-0.090000004 0.17666668 1.7500001
-0.087112382 0.17757525 1.7590001
-0.08419048 0.17848381 1.7680001
-0.080822863 0.17848381 1.7680001
-0.07784953 0.17939238 1.7770001
-0.074464768 0.17939238 1.7770001
-0.071440004 0.18030097 1.7860001
-0.068038099 0.18030097 1.7860001
-0.06496191 0.18120953 1.7950001
-0.061542861 0.18120953 1.7950001
-0.058415242 0.1821181 1.8040001
-0.054979049 0.1821181 1.8040001
-0.05154286 0.1821181 1.8040001
-0.048106667 0.1821181 1.8040001
-0.044670478 0.1821181 1.8040001
-0.041028574 0.18120953 1.7950001
-0.037609525 0.18120953 1.7950001
-0.034190476 0.18120953 1.7950001
-0.030925715 0.1821181 1.8040001
-0.027352381 0.18120953 1.7950001
-0.023933334 0.18120953 1.7950001
-0.02041143 0.18030097 1.7860001
-0.017009525 0.18030097 1.7860001
-0.013676191 0.18120953 1.7950001
-0.010257144 0.18120953 1.7950001
-0.0068380954 0.18120953 1.7950001
-0.0034190477 0.18120953 1.7950001
0 0.18120953 1.7950001
0.0034190477 0.18120953 1.7950001
0.0068380954 0.18120953 1.7950001
0.010257144 0.18120953 1.7950001
0.013676191 0.18120953 1.7950001
0.017180953 0.1821181 1.8040001
0.020617144 0.1821181 1.8040001
0.024186667 0.18312763 1.8140001
0.027641905 0.18312763 1.8140001
0.030925715 0.1821181 1.8040001
0.03455238 0.18312763 1.8140001
0.038007621 0.18312763 1.8140001
0.04169143 0.18413715 1.8240001
0.045165718 0.18413715 1.8240001
0.048640002 0.18413715 1.8240001
0.052114289 0.18413715 1.8240001
0.055588573 0.18413715 1.8240001
0.059062861 0.18413715 1.8240001
0.062537149 0.18413715 1.8240001
0.066011429 0.18413715 1.8240001
0.069485717 0.18413715 1.8240001
0.072960004 0.18413715 1.8240001
0.076811433 0.18504572 1.8330001
0.080302857 0.18504572 1.8330001
0.083794288 0.18504572 1.8330001
0.08728572 0.18504572 1.8330001
0.090777144 0.18504572 1.8330001
0.094268575 0.18504572 1.8330001
0.098293334 0.18605524 1.8430001
0.10180382 0.18605524 1.8430001
0.10531429 0.18605524 1.8430001
0.10882477 0.18605524 1.8430001
0.11294477 0.18706477 1.853
0.11647429 0.18706477 1.853
0.12000381 0.18706477 1.853
0.1242 0.18807429 1.863
0.12774858 0.18807429 1.863
0.13129714 0.18807429 1.863
0.13484572 0.18807429 1.863
0.13913715 0.18908381 1.8730001
0.14270477 0.18908381 1.8730001
0.14627239 0.18908381 1.8730001
0.14984001 0.18908381 1.8730001
0.15340762 0.18908381 1.8730001
0.15781334 0.19009334 1.8830001
0.16140001 0.19009334 1.8830001
0.16411048 0.18908381 1.8730001
0.1676781 0.18908381 1.8730001
0.17033143 0.18807429 1.863
0.17388001 0.18807429 1.863
0.17552382 0.18605524 1.8430001
0.17903429 0.18605524 1.8430001
0.18254477 0.18605524 1.8430001
0.18605524 0.18605524 1.8430001
0.18956572 0.18605524 1.8430001
0.19307619 0.18605524 1.8430001
0.19658667 0.18605524 1.8430001
0.20118286 0.18706477 1.853
0.20471239 0.18706477 1.853
0.20824191 0.18706477 1.853
0.21177144 0.18706477 1.853
0.21530096 0.18706477 1.853
-0.30706859 0.19059429 1.853
-0.30681524 0.19265144 1.8730001
-0.30000955 0.19059429 1.853
-0.29648 0.19059429 1.853
-0.29136953 0.18956572 1.8430001
-0.28942096 0.19059429 1.853
-0.28589144 0.19059429 1.853
-0.12601525 0.17907429 1.7410001
-0.12269905 0.17907429 1.7410001
-0.11938286 0.17907429 1.7410001
-0.11606667 0.17907429 1.7410001
-0.11275048 0.17907429 1.7410001
-0.10943429 0.17907429 1.7410001
-0.10556953 0.17814858 1.7320001
-0.10227048 0.17814858 1.7320001
-0.099485718 0.17907429 1.7410001
-0.096169524 0.17907429 1.7410001
-0.092853338 0.17907429 1.7410001
-0.089537144 0.17907429 1.7410001
-0.086666673 0.18000001 1.7500001
-0.083761908 0.18092573 1.7590001
-0.080822863 0.18185143 1.7680001
-0.07784953 0.18277715 1.7770001
-0.074464768 0.18277715 1.7770001
-0.071440004 0.18370287 1.7860001
-0.068038099 0.18370287 1.7860001
-0.06496191 0.18462858 1.7950001
-0.061234288 0.18370287 1.7860001
-0.059062861 0.18761143 1.8240001
-0.055588573 0.18761143 1.8240001
-0.051828574 0.18658286 1.8140001
-0.048373334 0.18658286 1.8140001
-0.044670478 0.1855543 1.8040001
-0.041234288 0.1855543 1.8040001
-0.037609525 0.18462858 1.7950001
-0.034361906 0.1855543 1.8040001
-0.030925715 0.1855543 1.8040001
-0.027352381 0.18462858 1.7950001
-0.023933334 0.18462858 1.7950001
-0.02041143 0.18370287 1.7860001
-0.017009525 0.18370287 1.7860001
-0.013676191 0.18462858 1.7950001
-0.010257144 0.18462858 1.7950001
-0.0068380954 0.18462858 1.7950001
-0.0034190477 0.18462858 1.7950001
0 0.18462858 1.7950001
0.0034361905 0.1855543 1.8040001
0.0068380954 0.18462858 1.7950001
0.010257144 0.18462858 1.7950001
0.013676191 0.18462858 1.7950001
0.017095238 0.18462858 1.7950001
0.020617144 0.1855543 1.8040001
0.024053333 0.1855543 1.8040001
0.027489524 0.1855543 1.8040001
0.030925715 0.1855543 1.8040001
0.034361906 0.1855543 1.8040001
0.037798095 0.1855543 1.8040001
0.041462857 0.18658286 1.8140001
0.044918098 0.18658286 1.8140001
0.048373334 0.18658286 1.8140001
0.051828574 0.18658286 1.8140001
0.055283811 0.18658286 1.8140001
0.059062861 0.18761143 1.8240001
0.062537149 0.18761143 1.8240001
0.066011429 0.18761143 1.8240001
0.069485717 0.18761143 1.8240001
0.073320001 0.18853715 1.8330001
0.076811433 0.18853715 1.8330001
0.080302857 0.18853715 1.8330001
0.083794288 0.18853715 1.8330001
0.08728572 0.18853715 1.8330001
0.090777144 0.18853715 1.8330001
0.094268575 0.18853715 1.8330001
0.097760007 0.18853715 1.8330001
0.10180382 0.18956572 1.8430001
0.10531429 0.18956572 1.8430001
0.10882477 0.18956572 1.8430001
0.11294477 0.19059429 1.853
0.11647429 0.19059429 1.853
0.12000381 0.19059429 1.853
0.12353334 0.19059429 1.853
0.12774858 0.19162287 1.863
0.13129714 0.19162287 1.863
0.13484572 0.19162287 1.863
0.1383943 0.19162287 1.863
0.14270477 0.19265144 1.8730001
0.14627239 0.19265144 1.8730001
0.14984001 0.19265144 1.8730001
0.15340762 0.19265144 1.8730001
0.15697524 0.19265144 1.8730001
0.16054286 0.19265144 1.8730001
0.16411048 0.19265144 1.8730001
0.1676781 0.19265144 1.8730001
0.17124572 0.19265144 1.8730001
0.17024 0.18761143 1.8240001
0.1737143 0.18761143 1.8240001
0.17718858 0.18761143 1.8240001
0.18066287 0.18761143 1.8240001
0.18605524 0.18956572 1.8430001
0.19059429 0.19059429 1.853
0.19307619 0.18956572 1.8430001
0.19658667 0.18956572 1.8430001
0.20118286 0.19059429 1.853
0.20471239 0.19059429 1.853
0.20824191 0.19059429 1.853
0.20845716 0.18761143 1.8240001
0.21193144 0.18761143 1.8240001
-0.30681524 0.19621906 1.8730001
-0.30162859 0.19517143 1.863
-0.29648 0.19412382 1.853
-0.29295048 0.19412382 1.853
-0.28942096 0.19412382 1.853
-0.28589144 0.19412382 1.853
-0.12269905 0.18239048 1.7410001
-0.11938286 0.18239048 1.7410001
-0.11606667 0.18239048 1.7410001
-0.11275048 0.18239048 1.7410001
-0.10943429 0.18239048 1.7410001
-0.1061181 0.18239048 1.7410001
-0.10280191 0.18239048 1.7410001
-0.099485718 0.18239048 1.7410001
-0.096169524 0.18239048 1.7410001
-0.092853338 0.18239048 1.7410001
-0.089537144 0.18239048 1.7410001
-0.086666673 0.18333334 1.7500001
-0.083761908 0.18427619 1.7590001
-0.080822863 0.18521905 1.7680001
-0.077455238 0.18521905 1.7680001
-0.07408762 0.18521905 1.7680001
-0.070720002 0.18521905 1.7680001
-0.067352384 0.18521905 1.7680001
-0.063984767 0.18521905 1.7680001
-0.061234288 0.18710476 1.7860001
-0.059062861 0.19108573 1.8240001
-0.055588573 0.19108573 1.8240001
-0.051828574 0.1900381 1.8140001
-0.048106667 0.18899049 1.8040001
-0.044670478 0.18899049 1.8040001
-0.041028574 0.18804763 1.7950001
-0.037609525 0.18804763 1.7950001
-0.034361906 0.18899049 1.8040001
-0.030771431 0.18804763 1.7950001
-0.027215239 0.18710476 1.7860001
-0.023813333 0.18710476 1.7860001
-0.02041143 0.18710476 1.7860001
-0.017009525 0.18710476 1.7860001
-0.013607619 0.18710476 1.7860001
-0.010205715 0.18710476 1.7860001
-0.0068038097 0.18710476 1.7860001
-0.0034019048 0.18710476 1.7860001
0 0.18804763 1.7950001
0.0034190477 0.18804763 1.7950001
0.0068380954 0.18804763 1.7950001
0.010257144 0.18804763 1.7950001
0.013676191 0.18804763 1.7950001
0.017180953 0.18899049 1.8040001
0.020617144 0.18899049 1.8040001
0.024053333 0.18899049 1.8040001
0.027489524 0.18899049 1.8040001
0.030925715 0.18899049 1.8040001
0.03455238 0.1900381 1.8140001
0.038007621 0.1900381 1.8140001
0.04169143 0.19108573 1.8240001
0.045165718 0.19108573 1.8240001
0.048373334 0.1900381 1.8140001
0.051828574 0.1900381 1.8140001
0.055588573 0.19108573 1.8240001
0.059354287 0.19202858 1.8330001
0.062537149 0.19108573 1.8240001
0.066337146 0.19202858 1.8330001
0.069485717 0.19108573 1.8240001
0.073320001 0.19202858 1.8330001
0.076811433 0.19202858 1.8330001
0.080302857 0.19202858 1.8330001
0.083794288 0.19202858 1.8330001
0.08728572 0.19202858 1.8330001
0.090777144 0.19202858 1.8330001
0.094268575 0.19202858 1.8330001
0.097760007 0.19202858 1.8330001
0.10125143 0.19202858 1.8330001
0.10531429 0.19307619 1.8430001
0.10882477 0.19307619 1.8430001
0.11233524 0.19307619 1.8430001
0.11584572 0.19307619 1.8430001
0.12000381 0.19412382 1.853
0.1242 0.19517143 1.863
0.12774858 0.19517143 1.863
0.13129714 0.19517143 1.863
0.13484572 0.19517143 1.863
0.13913715 0.19621906 1.8730001
0.14270477 0.19621906 1.8730001
0.14627239 0.19621906 1.8730001
0.14984001 0.19621906 1.8730001
0.15340762 0.19621906 1.8730001
0.15697524 0.19621906 1.8730001
0.16054286 0.19621906 1.8730001
0.16148192 0.19307619 1.8430001
0.16499239 0.19307619 1.8430001
0.16850287 0.19307619 1.8430001
0.17024 0.19108573 1.8240001
0.1737143 0.19108573 1.8240001
0.17718858 0.19108573 1.8240001
0.18066287 0.19108573 1.8240001
0.18605524 0.19307619 1.8430001
0.18956572 0.19307619 1.8430001
0.19307619 0.19307619 1.8430001
0.19456001 0.19108573 1.8240001
0.20009714 0.19307619 1.8430001
0.20471239 0.19412382 1.853
0.20599429 0.19202858 1.8330001
0.20845716 0.19108573 1.8240001
0.20960763 0.18899049 1.8040001
0.21304382 0.18899049 1.8040001
-0.30845335 0.20085335 1.8830001
-0.30324763 0.19978668 1.8730001
-0.29808 0.19872001 1.863
-0.29453143 0.19872001 1.863
-0.29098287 0.19872001 1.863
-0.28743431 0.19872001 1.863
-0.12269905 0.18570668 1.7410001
-0.11938286 0.18570668 1.7410001
-0.11606667 0.18570668 1.7410001
-0.1139162 0.18762667 1.7590001
-0.11000001 0.18666667 1.7500001
-0.1061181 0.18570668 1.7410001
-0.10333334 0.18666667 1.7500001
-0.1 0.18666667 1.7500001
-0.096169524 0.18570668 1.7410001
-0.092853338 0.18570668 1.7410001
-0.089074291 0.18474667 1.7320001
-0.086666673 0.18666667 1.7500001
-0.083761908 0.18762667 1.7590001
-0.080411434 0.18762667 1.7590001
-0.077455238 0.18858667 1.7680001
-0.07408762 0.18858667 1.7680001
-0.070360005 0.18762667 1.7590001
-0.067009524 0.18762667 1.7590001
-0.063333333 0.18666667 1.7500001
-0.060000002 0.18666667 1.7500001
-0.055588573 0.19456001 1.8240001
-0.05154286 0.19242667 1.8040001
-0.048106667 0.19242667 1.8040001
-0.044670478 0.19242667 1.8040001
-0.041234288 0.19242667 1.8040001
-0.037609525 0.19146667 1.7950001
-0.034190476 0.19146667 1.7950001
-0.030771431 0.19146667 1.7950001
-0.027215239 0.19050667 1.7860001
-0.023813333 0.19050667 1.7860001
-0.02041143 0.19050667 1.7860001
-0.017009525 0.19050667 1.7860001
-0.013607619 0.19050667 1.7860001
-0.010205715 0.19050667 1.7860001
-0.0068038097 0.19050667 1.7860001
-0.0034190477 0.19146667 1.7950001
0 0.19146667 1.7950001
0.0034190477 0.19146667 1.7950001
0.0068380954 0.19146667 1.7950001
0.010308572 0.19242667 1.8040001
0.013676191 0.19146667 1.7950001
0.017180953 0.19242667 1.8040001
0.020617144 0.19242667 1.8040001
0.024053333 0.19242667 1.8040001
0.027489524 0.19242667 1.8040001
0.031097144 0.19349334 1.8140001
0.03455238 0.19349334 1.8140001
0.038007621 0.19349334 1.8140001
0.04169143 0.19456001 1.8240001
0.045165718 0.19456001 1.8240001
0.048640002 0.19456001 1.8240001
0.052114289 0.19456001 1.8240001
0.055862859 0.19552001 1.8330001
0.059354287 0.19552001 1.8330001
0.062845714 0.19552001 1.8330001
0.066337146 0.19552001 1.8330001
0.069828577 0.19552001 1.8330001
0.073320001 0.19552001 1.8330001
0.077230476 0.19658667 1.8430001
0.080302857 0.19552001 1.8330001
0.083794288 0.19552001 1.8330001
0.08728572 0.19552001 1.8330001
0.090777144 0.19552001 1.8330001
0.094782859 0.19658667 1.8430001
0.098293334 0.19658667 1.8430001
0.10180382 0.19658667 1.8430001
0.10531429 0.19658667 1.8430001
0.10882477 0.19658667 1.8430001
0.11294477 0.19765334 1.853
0.11584572 0.19658667 1.8430001
0.12000381 0.19765334 1.853
0.1242 0.19872001 1.863
0.12774858 0.19872001 1.863
0.13129714 0.19872001 1.863
0.13484572 0.19872001 1.863
0.13913715 0.19978668 1.8730001
0.14270477 0.19978668 1.8730001
0.14627239 0.19978668 1.8730001
0.14984001 0.19978668 1.8730001
0.15258858 0.19872001 1.863
0.15613715 0.19872001 1.863
0.15968572 0.19872001 1.863
0.16148192 0.19658667 1.8430001
0.16499239 0.19658667 1.8430001
0.16850287 0.19658667 1.8430001
0.17108001 0.19552001 1.8330001
0.1737143 0.19456001 1.8240001
0.17718858 0.19456001 1.8240001
0.18066287 0.19456001 1.8240001
0.18605524 0.19658667 1.8430001
0.18956572 0.19658667 1.8430001
0.19307619 0.19658667 1.8430001
0.19456001 0.19456001 1.8240001
0.20009714 0.19658667 1.8430001
0.20360763 0.19658667 1.8430001
0.20498286 0.19456001 1.8240001
0.2073143 0.19349334 1.8140001
0.21076953 0.19349334 1.8140001
0.21422477 0.19349334 1.8140001
-0.31204 0.20444001 1.8830001
-0.30845335 0.20444001 1.8830001
-0.30324763 0.2033543 1.8730001
-0.29808 0.20226859 1.863
-0.29611239 0.2033543 1.8730001
-0.29098287 0.20226859 1.863
-0.28743431 0.20226859 1.863
-0.11814857 0.18706858 1.723
-0.11546667 0.18804573 1.7320001
-0.11275048 0.18902287 1.7410001
-0.11000001 0.19000001 1.7500001
-0.10666667 0.19000001 1.7500001
-0.10333334 0.19000001 1.7500001
-0.1 0.19000001 1.7500001
-0.096666671 0.19000001 1.7500001
-0.093333334 0.19000001 1.7500001
-0.090000004 0.19000001 1.7500001
-0.086666673 0.19000001 1.7500001
-0.083333336 0.19000001 1.7500001
-0.080000006 0.19000001 1.7500001
-0.076666668 0.19000001 1.7500001
-0.073333338 0.19000001 1.7500001
-0.070360005 0.19097716 1.7590001
-0.06666667 0.19000001 1.7500001
-0.063333333 0.19000001 1.7500001
-0.060308572 0.19097716 1.7590001
-0.056958098 0.19097716 1.7590001
-0.055588573 0.19803429 1.8240001
-0.05154286 0.19586286 1.8040001
-0.047866669 0.19488572 1.7950001
-0.044447619 0.19488572 1.7950001
-0.041028574 0.19488572 1.7950001
-0.037420955 0.19390857 1.7860001
-0.034190476 0.19488572 1.7950001
-0.030771431 0.19488572 1.7950001
-0.027215239 0.19390857 1.7860001
-0.023813333 0.19390857 1.7860001
-0.02041143 0.19390857 1.7860001
-0.017009525 0.19390857 1.7860001
-0.013607619 0.19390857 1.7860001
-0.010205715 0.19390857 1.7860001
-0.0068038097 0.19390857 1.7860001
-0.0034019048 0.19390857 1.7860001
0 0.19488572 1.7950001
0.0034190477 0.19488572 1.7950001
0.0068380954 0.19488572 1.7950001
0.010308572 0.19586286 1.8040001
0.013676191 0.19488572 1.7950001
0.017180953 0.19586286 1.8040001
0.020617144 0.19586286 1.8040001
0.024053333 0.19586286 1.8040001
0.027489524 0.19586286 1.8040001
0.031097144 0.19694857 1.8140001
0.03455238 0.19694857 1.8140001
0.038217146 0.19803429 1.8240001
0.04169143 0.19803429 1.8240001
0.045165718 0.19803429 1.8240001
0.048640002 0.19803429 1.8240001
0.052114289 0.19803429 1.8240001
0.055588573 0.19803429 1.8240001
0.059062861 0.19803429 1.8240001
0.062537149 0.19803429 1.8240001
0.066337146 0.19901143 1.8330001
0.069485717 0.19803429 1.8240001
0.072960004 0.19803429 1.8240001
0.076811433 0.19901143 1.8330001
0.080302857 0.19901143 1.8330001
0.083794288 0.19901143 1.8330001
0.08728572 0.19901143 1.8330001
0.090777144 0.19901143 1.8330001
0.094268575 0.19901143 1.8330001
0.098293334 0.20009714 1.8430001
0.10180382 0.20009714 1.8430001
0.10531429 0.20009714 1.8430001
0.10882477 0.20009714 1.8430001
0.11233524 0.20009714 1.8430001
0.11584572 0.20009714 1.8430001
0.12000381 0.20118286 1.853
0.12353334 0.20118286 1.853
0.12706286 0.20118286 1.853
0.13059239 0.20118286 1.853
0.13484572 0.20226859 1.863
0.1383943 0.20226859 1.863
0.14194286 0.20226859 1.863
0.14549144 0.20226859 1.863
0.14904 0.20226859 1.863
0.15258858 0.20226859 1.863
0.15446095 0.20009714 1.8430001
0.15797144 0.20009714 1.8430001
0.16060571 0.19901143 1.8330001
0.16499239 0.20009714 1.8430001
0.16850287 0.20009714 1.8430001
0.17108001 0.19901143 1.8330001
0.17457144 0.19901143 1.8330001
0.17718858 0.19803429 1.8240001
0.18066287 0.19803429 1.8240001
0.18605524 0.20009714 1.8430001
0.18956572 0.20009714 1.8430001
0.19108573 0.19803429 1.8240001
0.19456001 0.19803429 1.8240001
0.19803429 0.19803429 1.8240001
0.20150858 0.19803429 1.8240001
0.20498286 0.19803429 1.8240001
0.2073143 0.19694857 1.8140001
0.20960763 0.19586286 1.8040001
0.21304382 0.19586286 1.8040001
0.21648 0.19586286 1.8040001
-0.31747049 0.20924191 1.8940001
-0.31204 0.20802668 1.8830001
-0.30681524 0.20692191 1.8730001
-0.30324763 0.20692191 1.8730001
-0.29968002 0.20692191 1.8730001
-0.29769334 0.20802668 1.8830001
-0.29410669 0.20802668 1.8830001
-0.29052001 0.20802668 1.8830001
-0.28693333 0.20802668 1.8830001
-0.18468763 0.2279124 2.0630002
-0.1807581 0.2279124 2.0630002
-0.17682858 0.2279124 2.0630002
-0.17189334 0.22658667 2.0510001
-0.16798668 0.22658667 2.0510001
-0.16408001 0.22658667 2.0510001
-0.15923619 0.22526096 2.039
-0.15535238 0.22526096 2.039
-0.11814857 0.19035049 1.723
-0.11486667 0.19035049 1.723
-0.11216763 0.19134477 1.7320001
-0.10943429 0.19233905 1.7410001
-0.10666667 0.19333334 1.7500001
-0.10333334 0.19333334 1.7500001
-0.1 0.19333334 1.7500001
-0.096666671 0.19333334 1.7500001
-0.093333334 0.19333334 1.7500001
-0.089537144 0.19233905 1.7410001
-0.086666673 0.19333334 1.7500001
-0.083333336 0.19333334 1.7500001
-0.080000006 0.19333334 1.7500001
-0.076666668 0.19333334 1.7500001
-0.073333338 0.19333334 1.7500001
-0.07 0.19333334 1.7500001
-0.06666667 0.19333334 1.7500001
-0.063333333 0.19333334 1.7500001
-0.060308572 0.19432762 1.7590001
-0.057249527 0.19532192 1.7680001
-0.053881906 0.19532192 1.7680001
-0.051028572 0.19731048 1.7860001
-0.047626667 0.19731048 1.7860001
-0.044224765 0.19731048 1.7860001
-0.04082286 0.19731048 1.7860001
-0.037232384 0.1963162 1.7770001
-0.034019049 0.19731048 1.7860001
-0.030617144 0.19731048 1.7860001
-0.027215239 0.19731048 1.7860001
-0.023813333 0.19731048 1.7860001
-0.02041143 0.19731048 1.7860001
-0.017009525 0.19731048 1.7860001
-0.013607619 0.19731048 1.7860001
-0.010205715 0.19731048 1.7860001
-0.0068038097 0.19731048 1.7860001
-0.0034019048 0.19731048 1.7860001
0 0.19830477 1.7950001
0.0034190477 0.19830477 1.7950001
0.0068380954 0.19830477 1.7950001
0.010257144 0.19830477 1.7950001
0.013676191 0.19830477 1.7950001
0.017095238 0.19830477 1.7950001
0.020514287 0.19830477 1.7950001
0.024053333 0.19929905 1.8040001
0.027489524 0.19929905 1.8040001
0.031097144 0.20040381 1.8140001
0.03455238 0.20040381 1.8140001
0.038217146 0.20150858 1.8240001
0.04169143 0.20150858 1.8240001
0.045165718 0.20150858 1.8240001
0.048640002 0.20150858 1.8240001
0.052114289 0.20150858 1.8240001
0.055588573 0.20150858 1.8240001
0.059062861 0.20150858 1.8240001
0.062537149 0.20150858 1.8240001
0.066337146 0.20250286 1.8330001
0.069828577 0.20250286 1.8330001
0.073320001 0.20250286 1.8330001
0.077230476 0.20360763 1.8430001
0.080302857 0.20250286 1.8330001
0.083794288 0.20250286 1.8330001
0.08728572 0.20250286 1.8330001
0.090777144 0.20250286 1.8330001
0.094268575 0.20250286 1.8330001
0.098293334 0.20360763 1.8430001
0.10180382 0.20360763 1.8430001
0.10531429 0.20360763 1.8430001
0.10882477 0.20360763 1.8430001
0.11294477 0.20471239 1.853
0.11647429 0.20471239 1.853
0.12000381 0.20471239 1.853
0.12353334 0.20471239 1.853
0.12706286 0.20471239 1.853
0.13059239 0.20471239 1.853
0.13412191 0.20471239 1.853
0.13765143 0.20471239 1.853
0.14118096 0.20471239 1.853
0.14471048 0.20471239 1.853
0.14744 0.20360763 1.8430001
0.15013143 0.20250286 1.8330001
0.15362287 0.20250286 1.8330001
0.1571143 0.20250286 1.8330001
0.16060571 0.20250286 1.8330001
0.16499239 0.20360763 1.8430001
0.16850287 0.20360763 1.8430001
0.17108001 0.20250286 1.8330001
0.17457144 0.20250286 1.8330001
0.17806287 0.20250286 1.8330001
0.18254477 0.20360763 1.8430001
0.18605524 0.20360763 1.8430001
0.19059429 0.20471239 1.853
0.19307619 0.20360763 1.8430001
0.19456001 0.20150858 1.8240001
0.19803429 0.20150858 1.8240001
0.20150858 0.20150858 1.8240001
0.20498286 0.20150858 1.8240001
0.20845716 0.20150858 1.8240001
0.21193144 0.20150858 1.8240001
0.21304382 0.19929905 1.8040001
0.21648 0.19929905 1.8040001
-0.31747049 0.21284953 1.8940001
-0.31204 0.21161334 1.8830001
-0.30845335 0.21161334 1.8830001
-0.30324763 0.21048953 1.8730001
-0.29968002 0.21048953 1.8730001
-0.29769334 0.21161334 1.8830001
-0.29410669 0.21161334 1.8830001
-0.29052001 0.21161334 1.8830001
-0.28693333 0.21161334 1.8830001
-0.28401905 0.22644763 2.0150001
-0.27851239 0.22509906 2.003
-0.27469715 0.22509906 2.003
-0.23760001 0.22251429 1.9800001
-0.23382857 0.22251429 1.9800001
-0.21486667 0.23049334 2.0510001
-0.20972572 0.22914477 2.039
-0.20584191 0.22914477 2.039
-0.2019581 0.22914477 2.039
-0.1980743 0.22914477 2.039
-0.19419049 0.22914477 2.039
-0.19030668 0.22914477 2.039
-0.18752001 0.23049334 2.0510001
-0.18361335 0.23049334 2.0510001
-0.17865525 0.22914477 2.039
-0.17477143 0.22914477 2.039
-0.17088762 0.22914477 2.039
-0.16700381 0.22914477 2.039
-0.16312 0.22914477 2.039
-0.15923619 0.22914477 2.039
-0.15535238 0.22914477 2.039
-0.15146858 0.22914477 2.039
-0.14758477 0.22914477 2.039
-0.11814857 0.19363239 1.723
-0.11486667 0.19363239 1.723
-0.11216763 0.19464381 1.7320001
-0.11000001 0.19666667 1.7500001
-0.10666667 0.19666667 1.7500001
-0.10333334 0.19666667 1.7500001
-0.1 0.19666667 1.7500001
-0.096666671 0.19666667 1.7500001
-0.093333334 0.19666667 1.7500001
-0.089537144 0.19565524 1.7410001
-0.086666673 0.19666667 1.7500001
-0.083333336 0.19666667 1.7500001
-0.079588577 0.19565524 1.7410001
-0.076666668 0.19666667 1.7500001
-0.073333338 0.19666667 1.7500001
-0.07 0.19666667 1.7500001
-0.066323809 0.19565524 1.7410001
-0.063333333 0.19666667 1.7500001
-0.060000002 0.19666667 1.7500001
-0.056958098 0.1976781 1.7590001
-0.053881906 0.19868954 1.7680001
-0.05077143 0.19970097 1.7770001
-0.047146667 0.19868954 1.7680001
-0.044001907 0.19970097 1.7770001
-0.040617146 0.19970097 1.7770001
-0.037232384 0.19970097 1.7770001
-0.033847619 0.19970097 1.7770001
-0.030462857 0.19970097 1.7770001
-0.027078096 0.19970097 1.7770001
-0.023693334 0.19970097 1.7770001
-0.020308573 0.19970097 1.7770001
-0.016923809 0.19970097 1.7770001
-0.013607619 0.20071238 1.7860001
-0.010154286 0.19970097 1.7770001
-0.0068038097 0.20071238 1.7860001
-0.0034019048 0.20071238 1.7860001
0 0.20172381 1.7950001
0.0034190477 0.20172381 1.7950001
0.0068380954 0.20172381 1.7950001
0.010308572 0.20273525 1.8040001
0.013676191 0.20172381 1.7950001
0.017095238 0.20172381 1.7950001
0.020617144 0.20273525 1.8040001
0.024053333 0.20273525 1.8040001
0.027489524 0.20273525 1.8040001
0.031097144 0.20385906 1.8140001
0.03455238 0.20385906 1.8140001
0.038007621 0.20385906 1.8140001
0.04169143 0.20498286 1.8240001
0.045165718 0.20498286 1.8240001
0.048640002 0.20498286 1.8240001
0.052114289 0.20498286 1.8240001
0.055588573 0.20498286 1.8240001
0.059062861 0.20498286 1.8240001
0.062537149 0.20498286 1.8240001
0.066011429 0.20498286 1.8240001
0.069485717 0.20498286 1.8240001
0.072960004 0.20498286 1.8240001
0.076811433 0.20599429 1.8330001
0.080302857 0.20599429 1.8330001
0.083794288 0.20599429 1.8330001
0.08728572 0.20599429 1.8330001
0.090777144 0.20599429 1.8330001
0.094268575 0.20599429 1.8330001
0.097760007 0.20599429 1.8330001
0.10125143 0.20599429 1.8330001
0.10474286 0.20599429 1.8330001
0.10882477 0.20711811 1.8430001
0.11294477 0.20824191 1.853
0.11584572 0.20711811 1.8430001
0.12000381 0.20824191 1.853
0.12353334 0.20824191 1.853
0.12706286 0.20824191 1.853
0.13059239 0.20824191 1.853
0.13412191 0.20824191 1.853
0.13690858 0.20711811 1.8430001
0.13965715 0.20599429 1.8330001
0.14392953 0.20711811 1.8430001
0.14664 0.20599429 1.8330001
0.14939429 0.20498286 1.8240001
0.15362287 0.20599429 1.8330001
0.1571143 0.20599429 1.8330001
0.16060571 0.20599429 1.8330001
0.16499239 0.20711811 1.8430001
0.16850287 0.20711811 1.8430001
0.17108001 0.20599429 1.8330001
0.17457144 0.20599429 1.8330001
0.17806287 0.20599429 1.8330001
0.18254477 0.20711811 1.8430001
0.18706477 0.20824191 1.853
0.19059429 0.20824191 1.853
0.19202858 0.20599429 1.8330001
0.19552001 0.20599429 1.8330001
0.19901143 0.20599429 1.8330001
0.20250286 0.20599429 1.8330001
0.20498286 0.20498286 1.8240001
0.20845716 0.20498286 1.8240001
0.21193144 0.20498286 1.8240001
-0.31204 0.21520001 1.8830001
-0.30845335 0.21520001 1.8830001
-0.30486667 0.21520001 1.8830001
-0.30128002 0.21520001 1.8830001
-0.29769334 0.21520001 1.8830001
-0.29410669 0.21520001 1.8830001
-0.29052001 0.21520001 1.8830001
-0.28693333 0.21520001 1.8830001
-0.28785715 0.23028572 2.0150001
-0.28401905 0.23028572 2.0150001
-0.27698287 0.22765715 1.9920001
-0.27318859 0.22765715 1.9920001
-0.264 0.22628573 1.9800001
-0.25878286 0.22502857 1.9690001
-0.25503239 0.22502857 1.9690001
-0.25128192 0.22502857 1.9690001
-0.24614859 0.22377144 1.9580001
-0.24241905 0.22377144 1.9580001
-0.24003048 0.22502857 1.9690001
-0.23628001 0.22502857 1.9690001
-0.23252954 0.22502857 1.9690001
-0.23005715 0.22628573 1.9800001
-0.22765715 0.22765715 1.9920001
-0.22509906 0.22891429 2.003
-0.22260953 0.23028572 2.0150001
-0.21877144 0.23028572 2.0150001
-0.21621335 0.23165715 2.0270002
-0.21486667 0.2344 2.0510001
-0.20849143 0.23165715 2.0270002
-0.20341906 0.23028572 2.0150001
-0.19958095 0.23028572 2.0150001
-0.19690858 0.23165715 2.0270002
-0.19304763 0.23165715 2.0270002
-0.18918668 0.23165715 2.0270002
-0.18532573 0.23165715 2.0270002
-0.18146476 0.23165715 2.0270002
-0.17760381 0.23165715 2.0270002
-0.17374286 0.23165715 2.0270002
-0.17088762 0.23302858 2.039
-0.16700381 0.23302858 2.039
-0.16312 0.23302858 2.039
-0.15923619 0.23302858 2.039
-0.15443811 0.23165715 2.0270002
-0.15057714 0.23165715 2.0270002
-0.14758477 0.23302858 2.039
-0.14370096 0.23302858 2.039
-0.11216763 0.19794287 1.7320001
-0.10943429 0.19897144 1.7410001
-0.10666667 0.2 1.7500001
-0.10333334 0.2 1.7500001
-0.1 0.2 1.7500001
-0.096666671 0.2 1.7500001
-0.093333334 0.2 1.7500001
-0.090000004 0.2 1.7500001
-0.086666673 0.2 1.7500001
-0.082904764 0.19897144 1.7410001
-0.079588577 0.19897144 1.7410001
-0.076272383 0.19897144 1.7410001
-0.07295619 0.19897144 1.7410001
-0.07 0.2 1.7500001
-0.066323809 0.19897144 1.7410001
-0.063333333 0.2 1.7500001
-0.060000002 0.2 1.7500001
-0.056958098 0.20102859 1.7590001
-0.053881906 0.20205715 1.7680001
-0.050514288 0.20205715 1.7680001
-0.047146667 0.20205715 1.7680001
-0.043779049 0.20205715 1.7680001
-0.040411431 0.20205715 1.7680001
-0.03704381 0.20205715 1.7680001
-0.033676192 0.20205715 1.7680001
-0.030308573 0.20205715 1.7680001
-0.026940953 0.20205715 1.7680001
-0.023453334 0.20102859 1.7590001
-0.020205716 0.20205715 1.7680001
-0.016923809 0.20308572 1.7770001
-0.013539048 0.20308572 1.7770001
-0.010154286 0.20308572 1.7770001
-0.0068038097 0.20411429 1.7860001
-0.0034019048 0.20411429 1.7860001
0 0.20514287 1.7950001
0.0034190477 0.20514287 1.7950001
0.0068380954 0.20514287 1.7950001
0.010308572 0.20617144 1.8040001
0.013676191 0.20514287 1.7950001
0.017180953 0.20617144 1.8040001
0.020514287 0.20514287 1.7950001
0.024053333 0.20617144 1.8040001
0.027489524 0.20617144 1.8040001
0.031097144 0.2073143 1.8140001
0.03455238 0.2073143 1.8140001
0.038007621 0.2073143 1.8140001
0.041462857 0.2073143 1.8140001
0.045165718 0.20845716 1.8240001
0.048640002 0.20845716 1.8240001
0.052114289 0.20845716 1.8240001
0.055588573 0.20845716 1.8240001
0.059062861 0.20845716 1.8240001
0.062537149 0.20845716 1.8240001
0.066011429 0.20845716 1.8240001
0.069485717 0.20845716 1.8240001
0.072960004 0.20845716 1.8240001
0.076811433 0.20948572 1.8330001
0.080302857 0.20948572 1.8330001
0.083794288 0.20948572 1.8330001
0.08728572 0.20948572 1.8330001
0.090777144 0.20948572 1.8330001
0.094268575 0.20948572 1.8330001
0.097760007 0.20948572 1.8330001
0.10125143 0.20948572 1.8330001
0.10474286 0.20948572 1.8330001
0.10823429 0.20948572 1.8330001
0.11233524 0.21062858 1.8430001
0.11584572 0.21062858 1.8430001
0.12000381 0.21177144 1.853
0.12286667 0.21062858 1.8430001
0.12637715 0.21062858 1.8430001
0.12918286 0.20948572 1.8330001
0.13202286 0.20845716 1.8240001
0.13616572 0.20948572 1.8330001
0.13897143 0.20845716 1.8240001
0.14244571 0.20845716 1.8240001
0.14664 0.20948572 1.8330001
0.14939429 0.20845716 1.8240001
0.15362287 0.20948572 1.8330001
0.1571143 0.20948572 1.8330001
0.16060571 0.20948572 1.8330001
0.16409715 0.20948572 1.8330001
0.16850287 0.21062858 1.8430001
0.17024 0.20845716 1.8240001
0.17457144 0.20948572 1.8330001
0.17806287 0.20948572 1.8330001
0.18254477 0.21062858 1.8430001
0.18706477 0.21177144 1.853
0.19059429 0.21177144 1.853
0.19412382 0.21177144 1.853
0.19658667 0.21062858 1.8430001
0.20009714 0.21062858 1.8430001
0.20360763 0.21062858 1.8430001
-0.31204 0.21878667 1.8830001
-0.30845335 0.21878667 1.8830001
-0.30486667 0.21878667 1.8830001
-0.30128002 0.21878667 1.8830001
-0.29769334 0.21878667 1.8830001
-0.29410669 0.21878667 1.8830001
-0.29221717 0.22006477 1.8940001
-0.28860953 0.22006477 1.8940001
-0.2850019 0.22006477 1.8940001
-0.29377335 0.23272954 2.003
-0.28995812 0.23272954 2.003
-0.28785715 0.23412381 2.0150001
-0.28232762 0.23272954 2.003
-0.27698287 0.23145144 1.9920001
-0.27318859 0.23145144 1.9920001
-0.26777145 0.23005715 1.9800001
-0.26253334 0.22877906 1.9690001
-0.25878286 0.22877906 1.9690001
-0.25503239 0.22877906 1.9690001
-0.25128192 0.22877906 1.9690001
-0.24753144 0.22877906 1.9690001
-0.24241905 0.22750096 1.9580001
-0.24003048 0.22877906 1.9690001
-0.23628001 0.22877906 1.9690001
-0.23252954 0.22877906 1.9690001
-0.22877906 0.22877906 1.9690001
-0.22502857 0.22877906 1.9690001
-0.22251429 0.23005715 1.9800001
-0.22128382 0.23272954 2.003
-0.21746857 0.23272954 2.003
-0.21493334 0.23412381 2.0150001
-0.21109524 0.23412381 2.0150001
-0.20725715 0.23412381 2.0150001
-0.20220762 0.23272954 2.003
-0.19958095 0.23412381 2.0150001
-0.19574286 0.23412381 2.0150001
-0.19190477 0.23412381 2.0150001
-0.18806668 0.23412381 2.0150001
-0.18422858 0.23412381 2.0150001
-0.18146476 0.2355181 2.0270002
-0.17760381 0.2355181 2.0270002
-0.17374286 0.2355181 2.0270002
-0.16988191 0.2355181 2.0270002
-0.16602096 0.2355181 2.0270002
-0.16216001 0.2355181 2.0270002
-0.15736191 0.23412381 2.0150001
-0.15352382 0.23412381 2.0150001
-0.14968573 0.23412381 2.0150001
-0.14671619 0.2355181 2.0270002
-0.14285524 0.2355181 2.0270002
-0.13817143 0.23412381 2.0150001
-0.13433334 0.23412381 2.0150001
-0.10943429 0.20228763 1.7410001
-0.10721524 0.20437905 1.7590001
-0.10386477 0.20437905 1.7590001
-0.1 0.20333335 1.7500001
-0.096666671 0.20333335 1.7500001
-0.093333334 0.20333335 1.7500001
-0.090000004 0.20333335 1.7500001
-0.086666673 0.20333335 1.7500001
-0.083333336 0.20333335 1.7500001
-0.079588577 0.20228763 1.7410001
-0.076272383 0.20228763 1.7410001
-0.07295619 0.20228763 1.7410001
-0.07 0.20333335 1.7500001
-0.06666667 0.20333335 1.7500001
-0.063333333 0.20333335 1.7500001
-0.060000002 0.20333335 1.7500001
-0.056958098 0.20437905 1.7590001
-0.05360762 0.20437905 1.7590001
-0.050514288 0.20542477 1.7680001
-0.046906669 0.20437905 1.7590001
-0.043556191 0.20437905 1.7590001
-0.040411431 0.20542477 1.7680001
-0.036855239 0.20437905 1.7590001
-0.033676192 0.20542477 1.7680001
-0.030308573 0.20542477 1.7680001
-0.02680381 0.20437905 1.7590001
-0.023453334 0.20437905 1.7590001
-0.020102859 0.20437905 1.7590001
-0.016838096 0.20542477 1.7680001
-0.013539048 0.20647049 1.7770001
-0.010154286 0.20647049 1.7770001
-0.006769524 0.20647049 1.7770001
-0.003384762 0.20647049 1.7770001
0 0.20751619 1.7860001
0.0034019048 0.20751619 1.7860001
0.0068380954 0.20856191 1.7950001
0.010308572 0.20960763 1.8040001
0.013676191 0.20856191 1.7950001
0.017095238 0.20856191 1.7950001
0.020514287 0.20856191 1.7950001
0.023933334 0.20856191 1.7950001
0.027352381 0.20856191 1.7950001
0.031097144 0.21076953 1.8140001
0.03455238 0.21076953 1.8140001
0.038007621 0.21076953 1.8140001
0.04169143 0.21193144 1.8240001
0.045165718 0.21193144 1.8240001
0.048640002 0.21193144 1.8240001
0.052114289 0.21193144 1.8240001
0.055588573 0.21193144 1.8240001
0.059062861 0.21193144 1.8240001
0.062194288 0.21076953 1.8140001
0.065649524 0.21076953 1.8140001
0.069485717 0.21193144 1.8240001
0.072960004 0.21193144 1.8240001
0.076811433 0.21297716 1.8330001
0.080302857 0.21297716 1.8330001
0.083794288 0.21297716 1.8330001
0.08728572 0.21297716 1.8330001
0.090777144 0.21297716 1.8330001
0.093805715 0.21193144 1.8240001
0.097280003 0.21193144 1.8240001
0.10075429 0.21193144 1.8240001
0.10474286 0.21297716 1.8330001
0.10770286 0.21193144 1.8240001
0.11172572 0.21297716 1.8330001
0.11521715 0.21297716 1.8330001
0.11935619 0.21413906 1.8430001
0.1222 0.21297716 1.8330001
0.12569143 0.21297716 1.8330001
0.12854858 0.21193144 1.8240001
0.13202286 0.21193144 1.8240001
0.13549715 0.21193144 1.8240001
0.13897143 0.21193144 1.8240001
0.14244571 0.21193144 1.8240001
0.14592001 0.21193144 1.8240001
0.14939429 0.21193144 1.8240001
0.15286858 0.21193144 1.8240001
0.15634286 0.21193144 1.8240001
0.15981714 0.21193144 1.8240001
0.16409715 0.21297716 1.8330001
0.16758858 0.21297716 1.8330001
0.17024 0.21193144 1.8240001
0.17457144 0.21297716 1.8330001
0.17806287 0.21297716 1.8330001
0.18254477 0.21413906 1.8430001
0.18706477 0.21530096 1.853
0.19059429 0.21530096 1.853
0.19412382 0.21530096 1.853
0.19658667 0.21413906 1.8430001
0.20009714 0.21413906 1.8430001
