# .PCD v0.7 - Point Cloud Data file format
VERSION 0.7
FIELDS x y z
SIZE 4 4 4
TYPE F F F
COUNT 1 1 1
WIDTH 1506
HEIGHT 1
VIEWPOINT 0 0 0 1 0 0 0
POINTS 1506
DATA ascii
-0.037609525 0.19830477 1.7950001
-0.034190476 0.19830477 1.7950001
-0.030771431 0.19830477 1.7950001
-0.027215239 0.19731048 1.7860001
-0.023813333 0.19731048 1.7860001
-0.02041143 0.19731048 1.7860001
-0.016923809 0.1963162 1.7770001
-0.013539048 0.1963162 1.7770001
-0.010154286 0.1963162 1.7770001
-0.006769524 0.1963162 1.7770001
-0.0033676191 0.19532192 1.7680001
0 0.1963162 1.7770001
0.0033676191 0.19532192 1.7680001
0.0067009525 0.19432762 1.7590001
0.010051429 0.19432762 1.7590001
0.013401905 0.19432762 1.7590001
0.016580952 0.19233905 1.7410001
0.019897144 0.19233905 1.7410001
0.023213334 0.19233905 1.7410001
0.026529524 0.19233905 1.7410001
0.029537143 0.19035049 1.723
0.032990478 0.19134477 1.7320001
0.036289524 0.19134477 1.7320001
0.039588574 0.19134477 1.7320001
0.042887621 0.19134477 1.7320001
0.046186667 0.19134477 1.7320001
0.049485717 0.19134477 1.7320001
0.053059049 0.19233905 1.7410001
0.056375239 0.19233905 1.7410001
0.060000002 0.19333334 1.7500001
0.063333333 0.19333334 1.7500001
0.066323809 0.19233905 1.7410001
0.070360005 0.19432762 1.7590001
0.073710479 0.19432762 1.7590001
0.089853339 0.22658667 2.0510001
0.093760006 0.22658667 2.0510001
0.097666673 0.22658667 2.0510001
0.10157334 0.22658667 2.0510001
0.10548 0.22658667 2.0510001
0.10938667 0.22658667 2.0510001
0.11329333 0.22658667 2.0510001
0.11651429 0.22526096 2.039
0.1203981 0.22526096 2.039
0.12428191 0.22526096 2.039
0.12741144 0.22393525 2.0270002
0.13049525 0.22260953 2.0150001
0.13353334 0.22128382 2.003
0.13734858 0.22128382 2.003
0.14116381 0.22128382 2.003
0.14497906 0.22128382 2.003
0.15057714 0.22393525 2.0270002
0.15443811 0.22393525 2.0270002
0.15829906 0.22393525 2.0270002
0.16216001 0.22393525 2.0270002
0.16602096 0.22393525 2.0270002
0.1688762 0.22260953 2.0150001
0.17168573 0.22128382 2.003
0.17655239 0.22260953 2.0150001
0.17931619 0.22128382 2.003
0.18212572 0.22006857 1.9920001
0.18480001 0.21874286 1.9800001
0.18752381 0.21752763 1.9690001
0.19127429 0.21752763 1.9690001
0.19611429 0.21874286 1.9800001
0.19988573 0.21874286 1.9800001
0.20365715 0.21874286 1.9800001
0.20868573 0.22006857 1.9920001
0.21248001 0.22006857 1.9920001
0.21627429 0.22006857 1.9920001
0.21874286 0.21874286 1.9800001
0.22251429 0.21874286 1.9800001
0.22628573 0.21874286 1.9800001
0.23005715 0.21874286 1.9800001
0.23382857 0.21874286 1.9800001
0.23628001 0.21752763 1.9690001
0.24003048 0.21752763 1.9690001
0.24378096 0.21752763 1.9690001
0.23420572 0.20581715 1.863
0.23903048 0.20692191 1.8730001
0.24130286 0.20581715 1.863
0.24485144 0.20581715 1.863
0.2484 0.20581715 1.863
0.2519486 0.20581715 1.863
0.25549716 0.20581715 1.863
0.25904572 0.20581715 1.863
-0.22476001 0.21048953 1.8730001
-0.22119239 0.21048953 1.8730001
-0.21762477 0.21048953 1.8730001
-0.21405715 0.21048953 1.8730001
-0.21048953 0.21048953 1.8730001
-0.20692191 0.21048953 1.8730001
-0.2033543 0.21048953 1.8730001
-0.19978668 0.21048953 1.8730001
-0.19621906 0.21048953 1.8730001
-0.19368 0.21161334 1.8830001
-0.18908381 0.21048953 1.8730001
-0.18551619 0.21048953 1.8730001
-0.18194857 0.21048953 1.8730001
-0.17742857 0.20936573 1.863
-0.17388001 0.20936573 1.863
-0.17033143 0.20936573 1.863
-0.16588762 0.20824191 1.853
-0.16235811 0.20824191 1.853
-0.15797144 0.20711811 1.8430001
-0.15446095 0.20711811 1.8430001
-0.15095048 0.20711811 1.8430001
-0.14744 0.20711811 1.8430001
-0.14392953 0.20711811 1.8430001
-0.13965715 0.20599429 1.8330001
-0.13690858 0.20711811 1.8430001
-0.13267429 0.20599429 1.8330001
-0.12988763 0.20711811 1.8430001
-0.12637715 0.20711811 1.8430001
-0.1222 0.20599429 1.8330001
-0.11870857 0.20599429 1.8330001
-0.11521715 0.20599429 1.8330001
-0.11172572 0.20599429 1.8330001
-0.10823429 0.20599429 1.8330001
-0.10474286 0.20599429 1.8330001
-0.10075429 0.20498286 1.8240001
-0.097280003 0.20498286 1.8240001
-0.094268575 0.20599429 1.8330001
-0.090777144 0.20599429 1.8330001
-0.08728572 0.20599429 1.8330001
-0.08338286 0.20498286 1.8240001
-0.079908572 0.20498286 1.8240001
-0.076434292 0.20498286 1.8240001
-0.072960004 0.20498286 1.8240001
-0.069485717 0.20498286 1.8240001
-0.065649524 0.20385906 1.8140001
-0.062194288 0.20385906 1.8140001
-0.058415242 0.20273525 1.8040001
-0.055283811 0.20385906 1.8140001
-0.05154286 0.20273525 1.8040001
-0.048106667 0.20273525 1.8040001
-0.044447619 0.20172381 1.7950001
-0.041028574 0.20172381 1.7950001
-0.037609525 0.20172381 1.7950001
-0.034190476 0.20172381 1.7950001
-0.030617144 0.20071238 1.7860001
-0.027215239 0.20071238 1.7860001
-0.023693334 0.19970097 1.7770001
-0.020205716 0.19868954 1.7680001
-0.016838096 0.19868954 1.7680001
-0.013470476 0.19868954 1.7680001
-0.010051429 0.1976781 1.7590001
-0.0067009525 0.1976781 1.7590001
-0.0033333334 0.19666667 1.7500001
0 0.19666667 1.7500001
0.0033333334 0.19666667 1.7500001
0.0066666668 0.19666667 1.7500001
0.010000001 0.19666667 1.7500001
0.013333334 0.19666667 1.7500001
0.016666668 0.19666667 1.7500001
0.019897144 0.19565524 1.7410001
0.023213334 0.19565524 1.7410001
0.026529524 0.19565524 1.7410001
0.02969143 0.19464381 1.7320001
0.032990478 0.19464381 1.7320001
0.036289524 0.19464381 1.7320001
0.039588574 0.19464381 1.7320001
0.042887621 0.19464381 1.7320001
0.046186667 0.19464381 1.7320001
0.049485717 0.19464381 1.7320001
0.053059049 0.19565524 1.7410001
0.056666669 0.19666667 1.7500001
0.060000002 0.19666667 1.7500001
0.063333333 0.19666667 1.7500001
0.06666667 0.19666667 1.7500001
0.07 0.19666667 1.7500001
0.085946672 0.23049334 2.0510001
0.089327626 0.22914477 2.039
0.093211435 0.22914477 2.039
0.097095244 0.22914477 2.039
0.10097905 0.22914477 2.039
0.10486286 0.22914477 2.039
0.10874667 0.22914477 2.039
0.11263048 0.22914477 2.039
0.11651429 0.22914477 2.039
0.11968953 0.2277962 2.0270002
0.12355048 0.2277962 2.0270002
0.12665714 0.22644763 2.0150001
0.13049525 0.22644763 2.0150001
0.13433334 0.22644763 2.0150001
0.13734858 0.22509906 2.003
0.14200953 0.22644763 2.0150001
0.14584762 0.22644763 2.0150001
0.14879429 0.22509906 2.003
0.15352382 0.22644763 2.0150001
0.15736191 0.22644763 2.0150001
0.1612 0.22644763 2.0150001
0.16503809 0.22644763 2.0150001
0.16787048 0.22509906 2.003
0.17168573 0.22509906 2.003
0.17550096 0.22509906 2.003
0.17931619 0.22509906 2.003
0.18102857 0.22251429 1.9800001
0.18377334 0.2212781 1.9690001
0.1864762 0.22004192 1.9580001
0.19020572 0.22004192 1.9580001
0.19393525 0.22004192 1.9580001
0.19766477 0.22004192 1.9580001
0.20139429 0.22004192 1.9580001
0.20742857 0.22251429 1.9800001
0.21120001 0.22251429 1.9800001
0.21497144 0.22251429 1.9800001
0.21874286 0.22251429 1.9800001
0.2212781 0.2212781 1.9690001
0.22628573 0.22251429 1.9800001
0.22877906 0.2212781 1.9690001
0.23252954 0.2212781 1.9690001
0.23628001 0.2212781 1.9690001
0.23868953 0.22004192 1.9580001
0.23573335 0.21397334 1.904
0.23546286 0.21048953 1.8730001
0.23903048 0.21048953 1.8730001
0.24130286 0.20936573 1.863
0.24485144 0.20936573 1.863
0.2484 0.20936573 1.863
0.2519486 0.20936573 1.863
0.25549716 0.20936573 1.863
0.25904572 0.20936573 1.863
-0.23420572 0.21291429 1.863
-0.22941905 0.21177144 1.853
-0.22588953 0.21177144 1.853
-0.22236001 0.21177144 1.853
-0.21883048 0.21177144 1.853
-0.21530096 0.21177144 1.853
-0.21177144 0.21177144 1.853
-0.20824191 0.21177144 1.853
-0.20360763 0.21062858 1.8430001
-0.20118286 0.21177144 1.853
-0.19978668 0.21405715 1.8730001
-0.19621906 0.21405715 1.8730001
-0.19265144 0.21405715 1.8730001
-0.18908381 0.21405715 1.8730001
-0.18551619 0.21405715 1.8730001
-0.18194857 0.21405715 1.8730001
-0.17838097 0.21405715 1.8730001
-0.17388001 0.21291429 1.863
-0.17033143 0.21291429 1.863
-0.16588762 0.21177144 1.853
-0.16235811 0.21177144 1.853
-0.15882857 0.21177144 1.853
-0.15529905 0.21177144 1.853
-0.15095048 0.21062858 1.8430001
-0.14824 0.21177144 1.853
-0.14392953 0.21062858 1.8430001
-0.14041905 0.21062858 1.8430001
-0.13690858 0.21062858 1.8430001
-0.13267429 0.20948572 1.8330001
-0.12988763 0.21062858 1.8430001
-0.12637715 0.21062858 1.8430001
-0.1222 0.20948572 1.8330001
-0.11870857 0.20948572 1.8330001
-0.11521715 0.20948572 1.8330001
-0.11172572 0.20948572 1.8330001
-0.10823429 0.20948572 1.8330001
-0.10474286 0.20948572 1.8330001
-0.10075429 0.20845716 1.8240001
-0.097280003 0.20845716 1.8240001
-0.093805715 0.20845716 1.8240001
-0.090777144 0.20948572 1.8330001
-0.08728572 0.20948572 1.8330001
-0.082925715 0.2073143 1.8140001
-0.079032384 0.20617144 1.8040001
-0.076015241 0.2073143 1.8140001
-0.072560005 0.2073143 1.8140001
-0.069104761 0.2073143 1.8140001
-0.065649524 0.2073143 1.8140001
-0.062194288 0.2073143 1.8140001
-0.058415242 0.20617144 1.8040001
-0.055283811 0.2073143 1.8140001
-0.05154286 0.20617144 1.8040001
-0.048106667 0.20617144 1.8040001
-0.044447619 0.20514287 1.7950001
-0.041028574 0.20514287 1.7950001
-0.037420955 0.20411429 1.7860001
-0.034190476 0.20514287 1.7950001
-0.030617144 0.20411429 1.7860001
-0.027078096 0.20308572 1.7770001
-0.023573333 0.20205715 1.7680001
-0.020102859 0.20102859 1.7590001
-0.016752381 0.20102859 1.7590001
-0.013401905 0.20102859 1.7590001
-0.010000001 0.2 1.7500001
-0.0066666668 0.2 1.7500001
-0.0033333334 0.2 1.7500001
0 0.2 1.7500001
0.0033333334 0.2 1.7500001
0.0066666668 0.2 1.7500001
0.010000001 0.2 1.7500001
0.013333334 0.2 1.7500001
0.016580952 0.19897144 1.7410001
0.019897144 0.19897144 1.7410001
0.023213334 0.19897144 1.7410001
0.026529524 0.19897144 1.7410001
0.02969143 0.19794287 1.7320001
0.032990478 0.19794287 1.7320001
0.036289524 0.19794287 1.7320001
0.039588574 0.19794287 1.7320001
0.042664763 0.1969143 1.723
0.045946669 0.1969143 1.723
0.049485717 0.19794287 1.7320001
0.053059049 0.19897144 1.7410001
0.056666669 0.2 1.7500001
0.060000002 0.2 1.7500001
0.063333333 0.2 1.7500001
0.06666667 0.2 1.7500001
0.07 0.2 1.7500001
0.08544381 0.23302858 2.039
0.089327626 0.23302858 2.039
0.092662863 0.23165715 2.0270002
0.096523814 0.23165715 2.0270002
0.10038476 0.23165715 2.0270002
0.10424571 0.23165715 2.0270002
0.10874667 0.23302858 2.039
0.11263048 0.23302858 2.039
0.11582857 0.23165715 2.0270002
0.11898096 0.23028572 2.0150001
0.12208762 0.22891429 2.003
0.12590286 0.22891429 2.003
0.1297181 0.22891429 2.003
0.13353334 0.22891429 2.003
0.13734858 0.22891429 2.003
0.14038858 0.22765715 1.9920001
0.14418286 0.22765715 1.9920001
0.14879429 0.22891429 2.003
0.15177144 0.22765715 1.9920001
0.15642476 0.22891429 2.003
0.16024001 0.22891429 2.003
0.16315429 0.22765715 1.9920001
0.16694857 0.22765715 1.9920001
0.16971429 0.22628573 1.9800001
0.17348573 0.22628573 1.9800001
0.17725715 0.22628573 1.9800001
0.18002287 0.22502857 1.9690001
0.18172 0.22251429 1.9470001
0.18542857 0.22251429 1.9470001
0.18913715 0.22251429 1.9470001
0.19284572 0.22251429 1.9470001
0.19655429 0.22251429 1.9470001
0.20026286 0.22251429 1.9470001
0.20397143 0.22251429 1.9470001
0.20885333 0.22377144 1.9580001
0.21258287 0.22377144 1.9580001
0.21631239 0.22377144 1.9580001
0.22004192 0.22377144 1.9580001
0.22377144 0.22377144 1.9580001
0.22750096 0.22377144 1.9580001
0.23123048 0.22377144 1.9580001
0.23496 0.22377144 1.9580001
0.23734859 0.22251429 1.9470001
0.23573335 0.2176 1.904
0.23546286 0.21405715 1.8730001
0.23903048 0.21405715 1.8730001
0.24130286 0.21291429 1.863
0.24485144 0.21291429 1.863
0.2484 0.21291429 1.863
0.2519486 0.21291429 1.863
0.25549716 0.21291429 1.863
0.25904572 0.21291429 1.863
-0.23294859 0.21530096 1.853
-0.22818096 0.21413906 1.8430001
-0.22467048 0.21413906 1.8430001
-0.22116001 0.21413906 1.8430001
-0.21764953 0.21413906 1.8430001
-0.21413906 0.21413906 1.8430001
-0.21062858 0.21413906 1.8430001
-0.20711811 0.21413906 1.8430001
-0.20360763 0.21413906 1.8430001
-0.20009714 0.21413906 1.8430001
-0.19765334 0.21530096 1.853
-0.19621906 0.21762477 1.8730001
-0.19265144 0.21762477 1.8730001
-0.18807429 0.21646287 1.863
-0.18551619 0.21762477 1.8730001
-0.18292001 0.21878667 1.8830001
-0.17838097 0.21762477 1.8730001
-0.17481335 0.21762477 1.8730001
-0.17033143 0.21646287 1.863
-0.16588762 0.21530096 1.853
-0.16235811 0.21530096 1.853
-0.15882857 0.21530096 1.853
-0.15529905 0.21530096 1.853
-0.15095048 0.21413906 1.8430001
-0.14824 0.21530096 1.853
-0.14392953 0.21413906 1.8430001
-0.14041905 0.21413906 1.8430001
-0.13616572 0.21297716 1.8330001
-0.13267429 0.21297716 1.8330001
-0.12988763 0.21413906 1.8430001
-0.12637715 0.21413906 1.8430001
-0.12286667 0.21413906 1.8430001
-0.11935619 0.21413906 1.8430001
-0.11521715 0.21297716 1.8330001
-0.11233524 0.21413906 1.8430001
-0.10823429 0.21297716 1.8330001
-0.10474286 0.21297716 1.8330001
-0.10125143 0.21297716 1.8330001
-0.097760007 0.21297716 1.8330001
-0.093805715 0.21193144 1.8240001
-0.091272384 0.21413906 1.8430001
-0.08728572 0.21297716 1.8330001
-0.082468577 0.20960763 1.8040001
-0.079032384 0.20960763 1.8040001
-0.075596191 0.20960763 1.8040001
-0.072160006 0.20960763 1.8040001
-0.069104761 0.21076953 1.8140001
-0.06528762 0.20960763 1.8040001
-0.061851431 0.20960763 1.8040001
-0.058415242 0.20960763 1.8040001
-0.054979049 0.20960763 1.8040001
-0.05154286 0.20960763 1.8040001
-0.047866669 0.20856191 1.7950001
-0.044447619 0.20856191 1.7950001
-0.04082286 0.20751619 1.7860001
-0.037420955 0.20751619 1.7860001
-0.033847619 0.20647049 1.7770001
-0.030462857 0.20647049 1.7770001
-0.02680381 0.20437905 1.7590001
-0.023453334 0.20437905 1.7590001
-0.020102859 0.20437905 1.7590001
-0.016666668 0.20333335 1.7500001
-0.013333334 0.20333335 1.7500001
-0.010000001 0.20333335 1.7500001
-0.0066323811 0.20228763 1.7410001
-0.0033161906 0.20228763 1.7410001
0 0.20228763 1.7410001
0.0033161906 0.20228763 1.7410001
0.0066323811 0.20228763 1.7410001
0.010000001 0.20333335 1.7500001
0.013333334 0.20333335 1.7500001
0.016580952 0.20228763 1.7410001
0.019897144 0.20228763 1.7410001
0.023213334 0.20228763 1.7410001
0.026392382 0.20124191 1.7320001
0.02969143 0.20124191 1.7320001
0.032990478 0.20124191 1.7320001
0.036289524 0.20124191 1.7320001
0.039588574 0.20124191 1.7320001
0.042887621 0.20124191 1.7320001
0.045946669 0.20019619 1.723
0.049742859 0.20228763 1.7410001
0.053059049 0.20228763 1.7410001
0.056666669 0.20333335 1.7500001
0.060000002 0.20333335 1.7500001
0.063333333 0.20333335 1.7500001
0.06666667 0.20333335 1.7500001
0.070360005 0.20437905 1.7590001
0.073710479 0.20437905 1.7590001
0.088276193 0.23412381 2.0150001
0.092114292 0.23412381 2.0150001
0.095952384 0.23412381 2.0150001
0.099790476 0.23412381 2.0150001
0.10362858 0.23412381 2.0150001
0.10810667 0.2355181 2.0270002
0.11130477 0.23412381 2.0150001
0.11445715 0.23272954 2.003
0.11827239 0.23272954 2.003
0.12208762 0.23272954 2.003
0.12590286 0.23272954 2.003
0.1297181 0.23272954 2.003
0.1328 0.23145144 1.9920001
0.1365943 0.23145144 1.9920001
0.14038858 0.23145144 1.9920001
0.14418286 0.23145144 1.9920001
0.14708573 0.23005715 1.9800001
0.15001905 0.22877906 1.9690001
0.15462857 0.23005715 1.9800001
0.15752001 0.22877906 1.9690001
0.16127048 0.22877906 1.9690001
0.16409905 0.22750096 1.9580001
0.16782857 0.22750096 1.9580001
0.17059429 0.22622287 1.9470001
0.1733181 0.22494477 1.9360001
0.17801143 0.22622287 1.9470001
0.18069334 0.22494477 1.9360001
0.18438096 0.22494477 1.9360001
0.18806858 0.22494477 1.9360001
0.1917562 0.22494477 1.9360001
0.19544382 0.22494477 1.9360001
0.19913143 0.22494477 1.9360001
0.20281905 0.22494477 1.9360001
0.20768 0.22622287 1.9470001
0.21019429 0.22494477 1.9360001
0.21388191 0.22494477 1.9360001
0.21756953 0.22494477 1.9360001
0.22125715 0.22494477 1.9360001
0.22494477 0.22494477 1.9360001
0.22863239 0.22494477 1.9360001
0.23364002 0.22622287 1.9470001
0.23600763 0.22494477 1.9360001
0.23573335 0.22122668 1.904
0.23546286 0.21762477 1.8730001
0.23903048 0.21762477 1.8730001
0.24130286 0.21646287 1.863
0.24485144 0.21646287 1.863
0.2484 0.21646287 1.863
0.2519486 0.21646287 1.863
0.25549716 0.21646287 1.863
0.25904572 0.21646287 1.863
-0.23647811 0.21883048 1.853
-0.23294859 0.21883048 1.853
-0.22818096 0.21764953 1.8430001
-0.22345144 0.21646857 1.8330001
-0.21996 0.21646857 1.8330001
-0.21646857 0.21646857 1.8330001
-0.21297716 0.21646857 1.8330001
-0.20948572 0.21646857 1.8330001
-0.20498286 0.21540572 1.8240001
-0.20250286 0.21646857 1.8330001
-0.19901143 0.21646857 1.8330001
-0.19658667 0.21764953 1.8430001
-0.19412382 0.21883048 1.853
-0.19162287 0.22001144 1.863
-0.18807429 0.22001144 1.863
-0.18551619 0.22119239 1.8730001
-0.18292001 0.22237334 1.8830001
-0.17838097 0.22119239 1.8730001
-0.17481335 0.22119239 1.8730001
-0.16235811 0.21883048 1.853
-0.15882857 0.21883048 1.853
-0.15529905 0.21883048 1.853
-0.15095048 0.21764953 1.8430001
-0.14824 0.21883048 1.853
-0.14471048 0.21883048 1.853
-0.14041905 0.21764953 1.8430001
-0.13616572 0.21646857 1.8330001
-0.1333981 0.21764953 1.8430001
-0.12988763 0.21764953 1.8430001
-0.12637715 0.21764953 1.8430001
-0.12286667 0.21764953 1.8430001
-0.11935619 0.21764953 1.8430001
-0.11584572 0.21764953 1.8430001
-0.11233524 0.21764953 1.8430001
-0.10823429 0.21646857 1.8330001
-0.10474286 0.21646857 1.8330001
-0.10125143 0.21646857 1.8330001
-0.097280003 0.21540572 1.8240001
-0.093805715 0.21540572 1.8240001
-0.090777144 0.21646857 1.8330001
-0.085904762 0.21304382 1.8040001
-0.082468577 0.21304382 1.8040001
-0.078638099 0.21198095 1.7950001
-0.07521905 0.21198095 1.7950001
-0.071800001 0.21198095 1.7950001
-0.068723813 0.21304382 1.8040001
-0.06496191 0.21198095 1.7950001
-0.061851431 0.21304382 1.8040001
-0.058415242 0.21304382 1.8040001
-0.054979049 0.21304382 1.8040001
-0.051285718 0.21198095 1.7950001
-0.047866669 0.21198095 1.7950001
-0.044224765 0.2109181 1.7860001
-0.04082286 0.2109181 1.7860001
-0.037232384 0.20985524 1.7770001
-0.033676192 0.20879239 1.7680001
-0.030308573 0.20879239 1.7680001
-0.02680381 0.20772953 1.7590001
-0.023333333 0.20666668 1.7500001
-0.020000001 0.20666668 1.7500001
-0.016495239 0.20454095 1.7320001
-0.013196191 0.20454095 1.7320001
-0.0098971436 0.20454095 1.7320001
-0.0066323811 0.20560382 1.7410001
-0.0033161906 0.20560382 1.7410001
0 0.20560382 1.7410001
0.0033161906 0.20560382 1.7410001
0.0066323811 0.20560382 1.7410001
0.010000001 0.20666668 1.7500001
0.013333334 0.20666668 1.7500001
0.016580952 0.20560382 1.7410001
0.019897144 0.20560382 1.7410001
0.023093333 0.20454095 1.7320001
0.026392382 0.20454095 1.7320001
0.02969143 0.20454095 1.7320001
0.032990478 0.20454095 1.7320001
0.036289524 0.20454095 1.7320001
0.039794289 0.20560382 1.7410001
0.043110479 0.20560382 1.7410001
0.046426669 0.20560382 1.7410001
0.049742859 0.20560382 1.7410001
0.053333335 0.20666668 1.7500001
0.056958098 0.20772953 1.7590001
0.060000002 0.20666668 1.7500001
0.063333333 0.20666668 1.7500001
0.067009524 0.20772953 1.7590001
0.070360005 0.20772953 1.7590001
0.073710479 0.20772953 1.7590001
0.08775048 0.23654477 2.003
0.091565721 0.23654477 2.003
0.095380954 0.23654477 2.003
0.099196196 0.23654477 2.003
0.10301143 0.23654477 2.003
0.10682667 0.23654477 2.003
0.11003429 0.23524572 1.9920001
0.11382858 0.23524572 1.9920001
0.11762286 0.23524572 1.9920001
0.12141715 0.23524572 1.9920001
0.12521143 0.23524572 1.9920001
0.12900572 0.23524572 1.9920001
0.1328 0.23524572 1.9920001
0.13577144 0.23382857 1.9800001
0.13954286 0.23382857 1.9800001
0.14331429 0.23382857 1.9800001
0.14545143 0.23123048 1.9580001
0.14918096 0.23123048 1.9580001
0.15376952 0.23252954 1.9690001
0.15664001 0.23123048 1.9580001
0.15766667 0.22733334 1.9250001
0.16133334 0.22733334 1.9250001
0.16500001 0.22733334 1.9250001
0.16779049 0.22615239 1.9150001
0.1714381 0.22615239 1.9150001
0.17508572 0.22615239 1.9150001
0.17770667 0.22485334 1.904
0.18238096 0.22615239 1.9150001
0.18602858 0.22615239 1.9150001
0.1896762 0.22615239 1.9150001
0.19433334 0.22733334 1.9250001
0.19697143 0.22615239 1.9150001
0.20061906 0.22615239 1.9150001
0.20533334 0.22733334 1.9250001
0.20900001 0.22733334 1.9250001
0.21266668 0.22733334 1.9250001
0.21633334 0.22733334 1.9250001
0.22125715 0.22863239 1.9360001
0.22494477 0.22863239 1.9360001
0.22863239 0.22863239 1.9360001
0.23232001 0.22863239 1.9360001
0.23466668 0.22733334 1.9250001
0.23573335 0.22485334 1.904
0.23672001 0.22237334 1.8830001
0.24030668 0.22237334 1.8830001
0.2425981 0.22119239 1.8730001
0.24485144 0.22001144 1.863
0.2484 0.22001144 1.863
0.2519486 0.22001144 1.863
0.25549716 0.22001144 1.863
0.25904572 0.22001144 1.863
-0.23647811 0.22236001 1.853
-0.23294859 0.22236001 1.853
-0.22818096 0.22116001 1.8430001
-0.22345144 0.21996 1.8330001
-0.21996 0.21996 1.8330001
-0.21646857 0.21996 1.8330001
-0.21297716 0.21996 1.8330001
-0.20845716 0.21888001 1.8240001
-0.20385906 0.21768001 1.8140001
-0.19830477 0.21540001 1.7950001
-0.19586286 0.21648 1.8040001
-0.19552001 0.21996 1.8330001
-0.19202858 0.21996 1.8330001
-0.1855543 0.21648 1.8040001
-0.1821181 0.21648 1.8040001
-0.17868191 0.21648 1.8040001
-0.16323429 0.22356001 1.863
-0.15968572 0.22356001 1.863
-0.15529905 0.22236001 1.853
-0.15176953 0.22236001 1.853
-0.14904 0.22356001 1.863
-0.14471048 0.22236001 1.853
-0.14041905 0.22116001 1.8430001
-0.13616572 0.21996 1.8330001
-0.13267429 0.21996 1.8330001
-0.12988763 0.22116001 1.8430001
-0.12637715 0.22116001 1.8430001
-0.12286667 0.22116001 1.8430001
-0.11935619 0.22116001 1.8430001
-0.11521715 0.21996 1.8330001
-0.11233524 0.22116001 1.8430001
-0.10823429 0.21996 1.8330001
-0.10474286 0.21996 1.8330001
-0.10075429 0.21888001 1.8240001
-0.097280003 0.21888001 1.8240001
-0.093805715 0.21888001 1.8240001
-0.089836195 0.21768001 1.8140001
-0.085476197 0.21540001 1.7950001
-0.082057148 0.21540001 1.7950001
-0.078243814 0.21432 1.7860001
-0.074464768 0.21324001 1.7770001
-0.071440004 0.21432 1.7860001
-0.068380952 0.21540001 1.7950001
-0.064636193 0.21432 1.7860001
-0.061542861 0.21540001 1.7950001
-0.058123812 0.21540001 1.7950001
-0.054430477 0.21432 1.7860001
-0.051028572 0.21432 1.7860001
-0.047626667 0.21432 1.7860001
-0.044001907 0.21324001 1.7770001
-0.040617146 0.21324001 1.7770001
-0.03704381 0.21216001 1.7680001
-0.033676192 0.21216001 1.7680001
-0.030308573 0.21216001 1.7680001
-0.02680381 0.21108001 1.7590001
-0.023333333 0.21000001 1.7500001
-0.019897144 0.20892 1.7410001
-0.016580952 0.20892 1.7410001
-0.013264762 0.20892 1.7410001
-0.0099485721 0.20892 1.7410001
-0.0066323811 0.20892 1.7410001
-0.0032990477 0.20784001 1.7320001
0 0.20676 1.723
0.0033161906 0.20892 1.7410001
0.0066323811 0.20892 1.7410001
0.010000001 0.21000001 1.7500001
0.013333334 0.21000001 1.7500001
0.016580952 0.20892 1.7410001
0.019897144 0.20892 1.7410001
0.023213334 0.20892 1.7410001
0.026392382 0.20784001 1.7320001
0.02969143 0.20784001 1.7320001
0.032990478 0.20784001 1.7320001
0.036289524 0.20784001 1.7320001
0.039794289 0.20892 1.7410001
0.043110479 0.20892 1.7410001
0.046426669 0.20892 1.7410001
0.050000001 0.21000001 1.7500001
0.053333335 0.21000001 1.7500001
0.056958098 0.21108001 1.7590001
0.060000002 0.21000001 1.7500001
0.063333333 0.21000001 1.7500001
0.06666667 0.21000001 1.7500001
0.07 0.21000001 1.7500001
0.073333338 0.21000001 1.7500001
0.087268576 0.23904 1.9920001
0.091062859 0.23904 1.9920001
0.094857149 0.23904 1.9920001
0.098057143 0.23760001 1.9800001
0.10244572 0.23904 1.9920001
0.10560001 0.23760001 1.9800001
0.10937143 0.23760001 1.9800001
0.11188572 0.23496 1.9580001
0.11561524 0.23496 1.9580001
0.12001524 0.23628001 1.9690001
0.12307429 0.23496 1.9580001
0.12680382 0.23496 1.9580001
0.13053334 0.23496 1.9580001
0.13426286 0.23496 1.9580001
0.13799238 0.23496 1.9580001
0.1417219 0.23496 1.9580001
0.14463429 0.23364002 1.9470001
0.14750476 0.23232001 1.9360001
0.15119238 0.23232001 1.9360001
0.154 0.23100001 1.9250001
0.15684763 0.22980002 1.9150001
0.16049525 0.22980002 1.9150001
0.16414286 0.22980002 1.9150001
0.16779049 0.22980002 1.9150001
0.1714381 0.22980002 1.9150001
0.17508572 0.22980002 1.9150001
0.17770667 0.22848001 1.904
0.18133333 0.22848001 1.904
0.18496001 0.22848001 1.904
0.18858667 0.22848001 1.904
0.19221334 0.22848001 1.904
0.19697143 0.22980002 1.9150001
0.19946668 0.22848001 1.904
0.20426667 0.22980002 1.9150001
0.20791429 0.22980002 1.9150001
0.21156192 0.22980002 1.9150001
0.21633334 0.23100001 1.9250001
0.22000001 0.23100001 1.9250001
0.22494477 0.23232001 1.9360001
0.22863239 0.23232001 1.9360001
0.23232001 0.23232001 1.9360001
0.23466668 0.23100001 1.9250001
0.23709525 0.22980002 1.9150001
0.23810287 0.22728001 1.8940001
0.24030668 0.22596 1.8830001
0.24389334 0.22596 1.8830001
0.24485144 0.22356001 1.863
0.2484 0.22356001 1.863
0.25330096 0.22476001 1.8730001
0.25549716 0.22356001 1.863
0.25904572 0.22356001 1.863
-0.23520191 0.22467048 1.8430001
-0.23169143 0.22467048 1.8430001
-0.22694287 0.22345144 1.8330001
-0.22345144 0.22345144 1.8330001
-0.21996 0.22345144 1.8330001
-0.21646857 0.22345144 1.8330001
-0.21297716 0.22345144 1.8330001
-0.20845716 0.22235429 1.8240001
-0.20273525 0.21991619 1.8040001
-0.19830477 0.21881905 1.7950001
-0.19586286 0.21991619 1.8040001
-0.19242667 0.21991619 1.8040001
-0.18899049 0.21991619 1.8040001
-0.1855543 0.21991619 1.8040001
-0.1821181 0.21991619 1.8040001
-0.17868191 0.21991619 1.8040001
-0.17524572 0.21991619 1.8040001
-0.16323429 0.22710858 1.863
-0.15968572 0.22710858 1.863
-0.15529905 0.22588953 1.853
-0.15176953 0.22588953 1.853
-0.14824 0.22588953 1.853
-0.14471048 0.22588953 1.853
-0.14041905 0.22467048 1.8430001
-0.13690858 0.22467048 1.8430001
-0.13267429 0.22345144 1.8330001
-0.12988763 0.22467048 1.8430001
-0.12637715 0.22467048 1.8430001
-0.12286667 0.22467048 1.8430001
-0.11870857 0.22345144 1.8330001
-0.11521715 0.22345144 1.8330001
-0.11172572 0.22345144 1.8330001
-0.10823429 0.22345144 1.8330001
-0.10474286 0.22345144 1.8330001
-0.10075429 0.22235429 1.8240001
-0.097280003 0.22235429 1.8240001
-0.093291432 0.22113524 1.8140001
-0.089340955 0.21991619 1.8040001
-0.085047625 0.21772191 1.7860001
-0.081234291 0.21662477 1.7770001
-0.077455238 0.21552762 1.7680001
-0.07408762 0.21552762 1.7680001
-0.071079999 0.21662477 1.7770001
-0.068038099 0.21772191 1.7860001
-0.064310476 0.21662477 1.7770001
-0.061234288 0.21772191 1.7860001
-0.057832383 0.21772191 1.7860001
-0.054156192 0.21662477 1.7770001
-0.05077143 0.21662477 1.7770001
-0.047146667 0.21552762 1.7680001
-0.043779049 0.21552762 1.7680001
-0.040411431 0.21552762 1.7680001
-0.036855239 0.21443048 1.7590001
-0.033504762 0.21443048 1.7590001
-0.030154286 0.21443048 1.7590001
-0.026666667 0.21333334 1.7500001
-0.023333333 0.21333334 1.7500001
-0.019897144 0.2122362 1.7410001
-0.016495239 0.21113905 1.7320001
-0.013264762 0.2122362 1.7410001
-0.0099485721 0.2122362 1.7410001
-0.0066323811 0.2122362 1.7410001
-0.0033161906 0.2122362 1.7410001
0 0.2122362 1.7410001
0.0033161906 0.2122362 1.7410001
0.0066323811 0.2122362 1.7410001
0.010000001 0.21333334 1.7500001
0.013333334 0.21333334 1.7500001
0.016580952 0.2122362 1.7410001
0.019897144 0.2122362 1.7410001
0.023213334 0.2122362 1.7410001
0.026392382 0.21113905 1.7320001
0.02969143 0.21113905 1.7320001
0.032990478 0.21113905 1.7320001
0.036478095 0.2122362 1.7410001
0.039794289 0.2122362 1.7410001
0.043110479 0.2122362 1.7410001
0.046426669 0.2122362 1.7410001
0.050000001 0.21333334 1.7500001
0.053333335 0.21333334 1.7500001
0.056958098 0.21443048 1.7590001
0.060308572 0.21443048 1.7590001
0.063333333 0.21333334 1.7500001
0.06666667 0.21333334 1.7500001
0.07 0.21333334 1.7500001
0.073333338 0.21333334 1.7500001
0.086742863 0.24137144 1.9800001
0.090514287 0.24137144 1.9800001
0.093761906 0.24003048 1.9690001
0.097512387 0.24003048 1.9690001
0.10069714 0.23868953 1.9580001
0.10442667 0.23868953 1.9580001
0.1081562 0.23868953 1.9580001
0.11188572 0.23868953 1.9580001
0.11496572 0.23734859 1.9470001
0.11867429 0.23734859 1.9470001
0.12238286 0.23734859 1.9470001
0.12609144 0.23734859 1.9470001
0.12980001 0.23734859 1.9470001
0.13350858 0.23734859 1.9470001
0.13721715 0.23734859 1.9470001
0.14092572 0.23734859 1.9470001
0.14381714 0.23600763 1.9360001
0.14666668 0.23466668 1.9250001
0.15033334 0.23466668 1.9250001
0.1532 0.23344763 1.9150001
0.15684763 0.23344763 1.9150001
0.15957335 0.23210667 1.904
0.16320001 0.23210667 1.904
0.16682667 0.23210667 1.904
0.17045334 0.23210667 1.904
0.17408 0.23210667 1.904
0.17677334 0.23088762 1.8940001
0.18038096 0.23088762 1.8940001
0.18398857 0.23088762 1.8940001
0.1875962 0.23088762 1.8940001
0.19221334 0.23210667 1.904
0.19584 0.23210667 1.904
0.19946668 0.23210667 1.904
0.20309334 0.23210667 1.904
0.20672001 0.23210667 1.904
0.21156192 0.23344763 1.9150001
0.21520953 0.23344763 1.9150001
0.22000001 0.23466668 1.9250001
0.22494477 0.23600763 1.9360001
0.22863239 0.23600763 1.9360001
0.23232001 0.23600763 1.9360001
0.23466668 0.23466668 1.9250001
0.23709525 0.23344763 1.9150001
0.23936 0.23210667 1.904
0.24171048 0.23088762 1.8940001
0.2425981 0.22832763 1.8730001
0.24485144 0.22710858 1.863
0.2484 0.22710858 1.863
0.2519486 0.22710858 1.863
0.25549716 0.22710858 1.863
0.26043621 0.22832763 1.8730001
0.26400381 0.22832763 1.8730001
-0.23392573 0.22694287 1.8330001
-0.23169143 0.22818096 1.8430001
-0.22694287 0.22694287 1.8330001
-0.22345144 0.22694287 1.8330001
-0.21888001 0.22582857 1.8240001
-0.21540572 0.22582857 1.8240001
-0.21193144 0.22582857 1.8240001
-0.2073143 0.22459048 1.8140001
-0.20273525 0.22335239 1.8040001
-0.19830477 0.22223811 1.7950001
-0.19586286 0.22335239 1.8040001
-0.19242667 0.22335239 1.8040001
-0.18899049 0.22335239 1.8040001
-0.1855543 0.22335239 1.8040001
-0.1821181 0.22335239 1.8040001
-0.17868191 0.22335239 1.8040001
-0.17524572 0.22335239 1.8040001
-0.16235811 0.22941905 1.853
-0.15882857 0.22941905 1.853
-0.15446095 0.22818096 1.8430001
-0.15095048 0.22818096 1.8430001
-0.14824 0.22941905 1.853
-0.14392953 0.22818096 1.8430001
-0.14041905 0.22818096 1.8430001
-0.13616572 0.22694287 1.8330001
-0.13267429 0.22694287 1.8330001
-0.12918286 0.22694287 1.8330001
-0.12569143 0.22694287 1.8330001
-0.1222 0.22694287 1.8330001
-0.11870857 0.22694287 1.8330001
-0.11521715 0.22694287 1.8330001
-0.11172572 0.22694287 1.8330001
-0.10823429 0.22694287 1.8330001
-0.10422858 0.22582857 1.8240001
-0.1002019 0.22459048 1.8140001
-0.096213333 0.22335239 1.8040001
-0.092314288 0.22223811 1.7950001
-0.08844953 0.22112381 1.7860001
-0.084619053 0.22000954 1.7770001
-0.081234291 0.22000954 1.7770001
-0.077455238 0.21889524 1.7680001
-0.07408762 0.21889524 1.7680001
-0.070720002 0.21889524 1.7680001
-0.067695238 0.22000954 1.7770001
-0.063984767 0.21889524 1.7680001
-0.060617145 0.21889524 1.7680001
-0.056958098 0.21778096 1.7590001
-0.05360762 0.21778096 1.7590001
-0.050257146 0.21778096 1.7590001
-0.046906669 0.21778096 1.7590001
-0.043556191 0.21778096 1.7590001
-0.040205717 0.21778096 1.7590001
-0.036666669 0.21666667 1.7500001
-0.033333335 0.21666667 1.7500001
-0.030000001 0.21666667 1.7500001
-0.026529524 0.21555239 1.7410001
-0.023213334 0.21555239 1.7410001
-0.019794287 0.2144381 1.7320001
-0.016495239 0.2144381 1.7320001
-0.013264762 0.21555239 1.7410001
-0.0099485721 0.21555239 1.7410001
-0.0066323811 0.21555239 1.7410001
-0.0033161906 0.21555239 1.7410001
0 0.21555239 1.7410001
0.0033161906 0.21555239 1.7410001
0.0066666668 0.21666667 1.7500001
0.010000001 0.21666667 1.7500001
0.013333334 0.21666667 1.7500001
0.016666668 0.21666667 1.7500001
0.020000001 0.21666667 1.7500001
0.023213334 0.21555239 1.7410001
0.026392382 0.2144381 1.7320001
0.02969143 0.2144381 1.7320001
0.033161905 0.21555239 1.7410001
0.036478095 0.21555239 1.7410001
0.039794289 0.21555239 1.7410001
0.043110479 0.21555239 1.7410001
0.046426669 0.21555239 1.7410001
0.050000001 0.21666667 1.7500001
0.053333335 0.21666667 1.7500001
0.056958098 0.21778096 1.7590001
0.060000002 0.21666667 1.7500001
0.063333333 0.21666667 1.7500001
0.067009524 0.21778096 1.7590001
0.070360005 0.21778096 1.7590001
0.073710479 0.21778096 1.7590001
0.085297145 0.24105716 1.9470001
0.089508578 0.24241905 1.9580001
0.0932381 0.24241905 1.9580001
0.096422859 0.24105716 1.9470001
0.099565715 0.23969525 1.9360001
0.10325333 0.23969525 1.9360001
0.10694095 0.23969525 1.9360001
0.11062858 0.23969525 1.9360001
0.1143162 0.23969525 1.9360001
0.11800382 0.23969525 1.9360001
0.12169144 0.23969525 1.9360001
0.12537906 0.23969525 1.9360001
0.12906668 0.23969525 1.9360001
0.1327543 0.23969525 1.9360001
0.13721715 0.24105716 1.9470001
0.14012954 0.23969525 1.9360001
0.14225715 0.23709525 1.9150001
0.14590476 0.23709525 1.9150001
0.14869334 0.23573335 1.904
0.15232001 0.23573335 1.904
0.15594667 0.23573335 1.904
0.15873525 0.23449525 1.8940001
0.16234286 0.23449525 1.8940001
0.16595048 0.23449525 1.8940001
0.16955811 0.23449525 1.8940001
0.17316572 0.23449525 1.8940001
0.17574668 0.23313335 1.8830001
0.17933334 0.23313335 1.8830001
0.18292001 0.23313335 1.8830001
0.1875962 0.23449525 1.8940001
0.19120382 0.23449525 1.8940001
0.19584 0.23573335 1.904
0.19946668 0.23573335 1.904
0.20309334 0.23573335 1.904
0.20672001 0.23573335 1.904
0.21034667 0.23573335 1.904
0.21520953 0.23709525 1.9150001
0.21885715 0.23709525 1.9150001
0.22366667 0.23833334 1.9250001
0.22863239 0.23969525 1.9360001
0.23100001 0.23833334 1.9250001
0.23466668 0.23833334 1.9250001
0.23709525 0.23709525 1.9150001
0.23936 0.23573335 1.904
0.24030668 0.23313335 1.8830001
0.2425981 0.23189525 1.8730001
0.24485144 0.23065715 1.863
0.2484 0.23065715 1.863
0.2519486 0.23065715 1.863
0.25549716 0.23065715 1.863
0.26043621 0.23189525 1.8730001
0.26400381 0.23189525 1.8730001
-0.23392573 0.2304343 1.8330001
-0.2304343 0.2304343 1.8330001
-0.22582857 0.22930287 1.8240001
-0.22235429 0.22930287 1.8240001
-0.21648 0.22678858 1.8040001
-0.21422477 0.22804572 1.8140001
-0.21076953 0.22804572 1.8140001
-0.20617144 0.22678858 1.8040001
-0.20273525 0.22678858 1.8040001
-0.19830477 0.22565715 1.7950001
-0.19488572 0.22565715 1.7950001
-0.19146667 0.22565715 1.7950001
-0.18899049 0.22678858 1.8040001
-0.1855543 0.22678858 1.8040001
-0.1821181 0.22678858 1.8040001
-0.17868191 0.22678858 1.8040001
-0.17524572 0.22678858 1.8040001
-0.16235811 0.23294859 1.853
-0.15797144 0.23169143 1.8430001
-0.15362287 0.2304343 1.8330001
-0.15013143 0.2304343 1.8330001
-0.14664 0.2304343 1.8330001
-0.14314857 0.2304343 1.8330001
-0.13965715 0.2304343 1.8330001
-0.13549715 0.22930287 1.8240001
-0.13202286 0.22930287 1.8240001
-0.12854858 0.22930287 1.8240001
-0.12569143 0.2304343 1.8330001
-0.1222 0.2304343 1.8330001
-0.11812572 0.22930287 1.8240001
-0.11465143 0.22930287 1.8240001
-0.11117715 0.22930287 1.8240001
-0.10711239 0.22804572 1.8140001
-0.10365715 0.22804572 1.8140001
-0.099649526 0.22678858 1.8040001
-0.095733337 0.22565715 1.7950001
-0.091851436 0.22452572 1.7860001
-0.088003814 0.22339429 1.7770001
-0.08419048 0.22226286 1.7680001
-0.080822863 0.22226286 1.7680001
-0.077455238 0.22226286 1.7680001
-0.07408762 0.22226286 1.7680001
-0.070720002 0.22226286 1.7680001
-0.067352384 0.22226286 1.7680001
-0.06365905 0.22113144 1.7590001
-0.060308572 0.22113144 1.7590001
-0.056958098 0.22113144 1.7590001
-0.05360762 0.22113144 1.7590001
-0.050257146 0.22113144 1.7590001
-0.046906669 0.22113144 1.7590001
-0.043556191 0.22113144 1.7590001
-0.040205717 0.22113144 1.7590001
-0.036855239 0.22113144 1.7590001
-0.033504762 0.22113144 1.7590001
-0.030154286 0.22113144 1.7590001
-0.026666667 0.22000001 1.7500001
-0.023213334 0.21886858 1.7410001
-0.019794287 0.21773715 1.7320001
-0.016495239 0.21773715 1.7320001
-0.013264762 0.21886858 1.7410001
-0.0099485721 0.21886858 1.7410001
-0.0066323811 0.21886858 1.7410001
-0.0033161906 0.21886858 1.7410001
0 0.21886858 1.7410001
0.0033161906 0.21886858 1.7410001
0.0066666668 0.22000001 1.7500001
0.010000001 0.22000001 1.7500001
0.013264762 0.21886858 1.7410001
0.016580952 0.21886858 1.7410001
0.019897144 0.21886858 1.7410001
0.023213334 0.21886858 1.7410001
0.026392382 0.21773715 1.7320001
0.029845715 0.21886858 1.7410001
0.032990478 0.21773715 1.7320001
0.036478095 0.21886858 1.7410001
0.039794289 0.21886858 1.7410001
0.043110479 0.21886858 1.7410001
0.046666667 0.22000001 1.7500001
0.050000001 0.22000001 1.7500001
0.053333335 0.22000001 1.7500001
0.056958098 0.22113144 1.7590001
0.060308572 0.22113144 1.7590001
0.06365905 0.22113144 1.7590001
0.071733333 0.23672001 1.8830001
0.0766 0.24074286 1.9150001
0.080247626 0.24074286 1.9150001
0.084815241 0.24338287 1.9360001
0.088502862 0.24338287 1.9360001
0.092190482 0.24338287 1.9360001
0.094293334 0.23936 1.904
0.098485716 0.24074286 1.9150001
0.10154667 0.23936 1.904
0.10462096 0.23810287 1.8940001
0.1088 0.23936 1.904
0.1130762 0.24074286 1.9150001
0.11672381 0.24074286 1.9150001
0.12100001 0.24200001 1.9250001
0.12401905 0.24074286 1.9150001
0.12766667 0.24074286 1.9150001
0.132 0.24200001 1.9250001
0.1349619 0.24074286 1.9150001
0.13708954 0.23810287 1.8940001
0.14069715 0.23810287 1.8940001
0.14430477 0.23810287 1.8940001
0.14791238 0.23810287 1.8940001
0.15152 0.23810287 1.8940001
0.15512763 0.23810287 1.8940001
0.15873525 0.23810287 1.8940001
0.16234286 0.23810287 1.8940001
0.16595048 0.23810287 1.8940001
0.16857333 0.23672001 1.8830001
0.17216 0.23672001 1.8830001
0.17481335 0.23546286 1.8730001
0.17838097 0.23546286 1.8730001
0.18194857 0.23546286 1.8730001
0.18650667 0.23672001 1.8830001
0.19120382 0.23810287 1.8940001
0.19481143 0.23810287 1.8940001
0.19841905 0.23810287 1.8940001
0.20309334 0.23936 1.904
0.20672001 0.23936 1.904
0.21034667 0.23936 1.904
0.21520953 0.24074286 1.9150001
0.21885715 0.24074286 1.9150001
0.22366667 0.24200001 1.9250001
0.22733334 0.24200001 1.9250001
0.23100001 0.24200001 1.9250001
0.23466668 0.24200001 1.9250001
0.23573335 0.23936 1.904
0.23936 0.23936 1.904
0.24030668 0.23672001 1.8830001
0.2425981 0.23546286 1.8730001
0.24485144 0.23420572 1.863
0.2484 0.23420572 1.863
0.2519486 0.23420572 1.863
0.25412571 0.23294859 1.853
0.25765523 0.23294859 1.853
0.26400381 0.23546286 1.8730001
-0.2304343 0.23392573 1.8330001
-0.22582857 0.23277715 1.8240001
-0.22113524 0.23150097 1.8140001
-0.21768001 0.23150097 1.8140001
-0.21304382 0.23022477 1.8040001
-0.20960763 0.23022477 1.8040001
-0.20617144 0.23022477 1.8040001
-0.20172381 0.22907619 1.7950001
-0.19830477 0.22907619 1.7950001
-0.19488572 0.22907619 1.7950001
-0.19146667 0.22907619 1.7950001
-0.18804763 0.22907619 1.7950001
-0.18462858 0.22907619 1.7950001
-0.18120953 0.22907619 1.7950001
-0.17779048 0.22907619 1.7950001
-0.17437144 0.22907619 1.7950001
-0.16753334 0.22907619 1.7950001
-0.1641143 0.22907619 1.7950001
-0.16069524 0.22907619 1.7950001
-0.15648763 0.22792763 1.7860001
-0.15548572 0.23150097 1.8140001
-0.15203048 0.23150097 1.8140001
-0.14857525 0.23150097 1.8140001
-0.14512001 0.23150097 1.8140001
-0.14166477 0.23150097 1.8140001
-0.13820952 0.23150097 1.8140001
-0.13401143 0.23022477 1.8040001
-0.12862095 0.22677906 1.7770001
-0.12713905 0.23022477 1.8040001
-0.12370286 0.23022477 1.8040001
-0.1216 0.23277715 1.8240001
-0.1174781 0.23150097 1.8140001
-0.11339429 0.23022477 1.8040001
-0.1099581 0.23022477 1.8040001
-0.10599048 0.22907619 1.7950001
-0.10308572 0.23022477 1.8040001
-0.099152386 0.22907619 1.7950001
-0.094773337 0.22677906 1.7770001
-0.091388576 0.22677906 1.7770001
-0.087558098 0.22563048 1.7680001
-0.08419048 0.22563048 1.7680001
-0.080411434 0.22448191 1.7590001
-0.077060953 0.22448191 1.7590001
-0.073710479 0.22448191 1.7590001
-0.070360005 0.22448191 1.7590001
-0.067009524 0.22448191 1.7590001
-0.063333333 0.22333334 1.7500001
-0.060000002 0.22333334 1.7500001
-0.056666669 0.22333334 1.7500001
-0.053333335 0.22333334 1.7500001
-0.050000001 0.22333334 1.7500001
-0.046666667 0.22333334 1.7500001
-0.043333337 0.22333334 1.7500001
-0.040000003 0.22333334 1.7500001
-0.036855239 0.22448191 1.7590001
-0.033504762 0.22448191 1.7590001
-0.030154286 0.22448191 1.7590001
-0.026666667 0.22333334 1.7500001
-0.023333333 0.22333334 1.7500001
-0.019897144 0.22218478 1.7410001
-0.016580952 0.22218478 1.7410001
-0.013264762 0.22218478 1.7410001
-0.0099485721 0.22218478 1.7410001
-0.0066323811 0.22218478 1.7410001
-0.0033161906 0.22218478 1.7410001
0 0.22218478 1.7410001
0.0033333334 0.22333334 1.7500001
0.0066323811 0.22218478 1.7410001
0.010000001 0.22333334 1.7500001
0.013264762 0.22218478 1.7410001
0.016495239 0.2210362 1.7320001
0.019897144 0.22218478 1.7410001
0.023213334 0.22218478 1.7410001
0.026392382 0.2210362 1.7320001
0.029845715 0.22218478 1.7410001
0.032990478 0.2210362 1.7320001
0.036478095 0.22218478 1.7410001
0.040000003 0.22333334 1.7500001
0.043110479 0.22218478 1.7410001
0.046666667 0.22333334 1.7500001
0.050000001 0.22333334 1.7500001
0.05360762 0.22448191 1.7590001
0.056958098 0.22448191 1.7590001
0.060308572 0.22448191 1.7590001
0.067422859 0.2377543 1.863
0.071733333 0.24030668 1.8830001
0.075320005 0.24030668 1.8830001
0.079367623 0.24171048 1.8940001
0.082055241 0.23903048 1.8730001
0.085622862 0.23903048 1.8730001
0.089666672 0.24030668 1.8830001
0.093253337 0.24030668 1.8830001
0.097405717 0.24171048 1.8940001
0.10042667 0.24030668 1.8830001
0.10401334 0.24030668 1.8830001
0.1076 0.24030668 1.8830001
0.11183619 0.24171048 1.8940001
0.11544381 0.24171048 1.8940001
0.11968 0.24298668 1.904
0.12330667 0.24298668 1.904
0.12693334 0.24298668 1.904
0.13056001 0.24298668 1.904
0.13200191 0.23903048 1.8730001
0.13556953 0.23903048 1.8730001
0.13913715 0.23903048 1.8730001
0.14270477 0.23903048 1.8730001
0.14627239 0.23903048 1.8730001
0.15064001 0.24030668 1.8830001
0.15422668 0.24030668 1.8830001
0.15781334 0.24030668 1.8830001
0.16140001 0.24030668 1.8830001
0.16498667 0.24030668 1.8830001
0.1676781 0.23903048 1.8730001
0.17216 0.24030668 1.8830001
0.17481335 0.23903048 1.8730001
0.17838097 0.23903048 1.8730001
0.18194857 0.23903048 1.8730001
0.18650667 0.24030668 1.8830001
0.19009334 0.24030668 1.8830001
0.19481143 0.24171048 1.8940001
0.19841905 0.24171048 1.8940001
0.20202668 0.24171048 1.8940001
0.2056343 0.24171048 1.8940001
0.21034667 0.24298668 1.904
0.21397334 0.24298668 1.904
0.2176 0.24298668 1.904
0.22250476 0.24439049 1.9150001
0.22733334 0.24566668 1.9250001
0.23100001 0.24566668 1.9250001
0.23466668 0.24566668 1.9250001
0.23573335 0.24298668 1.904
0.23936 0.24298668 1.904
0.24030668 0.24030668 1.8830001
0.2425981 0.23903048 1.8730001
0.24485144 0.2377543 1.863
0.2484 0.2377543 1.863
0.2519486 0.2377543 1.863
0.25549716 0.2377543 1.863
0.25765523 0.23647811 1.853
-0.22930287 0.23625144 1.8240001
-0.22582857 0.23625144 1.8240001
-0.22113524 0.2349562 1.8140001
-0.21648 0.23366097 1.8040001
-0.21304382 0.23366097 1.8040001
-0.20960763 0.23366097 1.8040001
-0.20617144 0.23366097 1.8040001
-0.20172381 0.23249525 1.7950001
-0.19830477 0.23249525 1.7950001
-0.19488572 0.23249525 1.7950001
-0.19146667 0.23249525 1.7950001
-0.18804763 0.23249525 1.7950001
-0.18462858 0.23249525 1.7950001
-0.18120953 0.23249525 1.7950001
-0.17779048 0.23249525 1.7950001
-0.17437144 0.23249525 1.7950001
-0.17009525 0.23132953 1.7860001
-0.16669334 0.23132953 1.7860001
-0.16329144 0.23132953 1.7860001
-0.15988953 0.23132953 1.7860001
-0.15648763 0.23132953 1.7860001
-0.15385714 0.23249525 1.7950001
-0.15119238 0.23366097 1.8040001
-0.14701906 0.23249525 1.7950001
-0.1436 0.23249525 1.7950001
-0.14018096 0.23249525 1.7950001
-0.1367619 0.23249525 1.7950001
-0.13334286 0.23249525 1.7950001
-0.12862095 0.23016381 1.7770001
-0.1252362 0.23016381 1.7770001
-0.12185143 0.23016381 1.7770001
-0.11846667 0.23016381 1.7770001
-0.11508191 0.23016381 1.7770001
-0.11169714 0.23016381 1.7770001
-0.10776381 0.22899811 1.7680001
-0.10492762 0.23016381 1.7770001
-0.10154286 0.23016381 1.7770001
-0.098158099 0.23016381 1.7770001
-0.094773337 0.23016381 1.7770001
-0.090925716 0.22899811 1.7680001
-0.087558098 0.22899811 1.7680001
-0.083761908 0.22783239 1.7590001
-0.080411434 0.22783239 1.7590001
-0.077060953 0.22783239 1.7590001
-0.073710479 0.22783239 1.7590001
-0.070360005 0.22783239 1.7590001
-0.067009524 0.22783239 1.7590001
-0.063333333 0.22666667 1.7500001
-0.060000002 0.22666667 1.7500001
-0.056666669 0.22666667 1.7500001
-0.053333335 0.22666667 1.7500001
-0.050257146 0.22783239 1.7590001
-0.046666667 0.22666667 1.7500001
-0.043556191 0.22783239 1.7590001
-0.040205717 0.22783239 1.7590001
-0.036855239 0.22783239 1.7590001
-0.033504762 0.22783239 1.7590001
-0.030154286 0.22783239 1.7590001
-0.026666667 0.22666667 1.7500001
-0.023333333 0.22666667 1.7500001
-0.019897144 0.22550096 1.7410001
-0.016580952 0.22550096 1.7410001
-0.013264762 0.22550096 1.7410001
-0.0099485721 0.22550096 1.7410001
-0.0066323811 0.22550096 1.7410001
-0.0033161906 0.22550096 1.7410001
0 0.22550096 1.7410001
0.0033161906 0.22550096 1.7410001
0.0065980954 0.22433525 1.7320001
0.0099485721 0.22550096 1.7410001
0.013196191 0.22433525 1.7320001
0.016495239 0.22433525 1.7320001
0.019794287 0.22433525 1.7320001
0.023213334 0.22550096 1.7410001
0.026392382 0.22433525 1.7320001
0.029845715 0.22550096 1.7410001
0.033161905 0.22550096 1.7410001
0.036478095 0.22550096 1.7410001
0.039794289 0.22550096 1.7410001
0.043110479 0.22550096 1.7410001
0.046666667 0.22666667 1.7500001
0.050000001 0.22666667 1.7500001
0.053333335 0.22666667 1.7500001
0.056666669 0.22666667 1.7500001
0.063531429 0.24000762 1.853
0.067422859 0.24130286 1.863
0.070971429 0.24130286 1.863
0.074920006 0.2425981 1.8730001
0.07890667 0.24389334 1.8830001
0.082493335 0.24389334 1.8830001
0.085622862 0.2425981 1.8730001
0.089190483 0.2425981 1.8730001
0.092758097 0.2425981 1.8730001
0.096325718 0.2425981 1.8730001
0.099893339 0.2425981 1.8730001
0.10346095 0.2425981 1.8730001
0.10702857 0.2425981 1.8730001
0.11059619 0.2425981 1.8730001
0.11416382 0.2425981 1.8730001
0.11773143 0.2425981 1.8730001
0.12065143 0.24130286 1.863
0.1242 0.24130286 1.863
0.12706286 0.24000762 1.853
0.13129714 0.24130286 1.863
0.13484572 0.24130286 1.863
0.1383943 0.24130286 1.863
0.14194286 0.24130286 1.863
0.14549144 0.24130286 1.863
0.14984001 0.2425981 1.8730001
0.15340762 0.2425981 1.8730001
0.15697524 0.2425981 1.8730001
0.16054286 0.2425981 1.8730001
0.16411048 0.2425981 1.8730001
0.1676781 0.2425981 1.8730001
0.17124572 0.2425981 1.8730001
0.17388001 0.24130286 1.863
0.17838097 0.2425981 1.8730001
0.18194857 0.2425981 1.8730001
0.18551619 0.2425981 1.8730001
0.19009334 0.24389334 1.8830001
0.19481143 0.2453181 1.8940001
0.19841905 0.2453181 1.8940001
0.20202668 0.2453181 1.8940001
0.2056343 0.2453181 1.8940001
0.21034667 0.24661334 1.904
0.21397334 0.24661334 1.904
0.21885715 0.2480381 1.9150001
0.22366667 0.24933334 1.9250001
0.22733334 0.24933334 1.9250001
0.23100001 0.24933334 1.9250001
0.23466668 0.24933334 1.9250001
0.23709525 0.2480381 1.9150001
0.24074286 0.2480381 1.9150001
0.24171048 0.2453181 1.8940001
0.2425981 0.2425981 1.8730001
0.24616572 0.2425981 1.8730001
0.2484 0.24130286 1.863
0.2519486 0.24130286 1.863
0.25549716 0.24130286 1.863
-0.22930287 0.23972572 1.8240001
-0.22459048 0.23841144 1.8140001
-0.22113524 0.23841144 1.8140001
-0.21648 0.23709716 1.8040001
-0.21304382 0.23709716 1.8040001
-0.20856191 0.23591429 1.7950001
-0.20514287 0.23591429 1.7950001
-0.20172381 0.23591429 1.7950001
-0.19830477 0.23591429 1.7950001
-0.19488572 0.23591429 1.7950001
-0.19146667 0.23591429 1.7950001
-0.18804763 0.23591429 1.7950001
-0.18462858 0.23591429 1.7950001
-0.18120953 0.23591429 1.7950001
-0.17779048 0.23591429 1.7950001
-0.17437144 0.23591429 1.7950001
-0.17009525 0.23473144 1.7860001
-0.16669334 0.23473144 1.7860001
-0.16329144 0.23473144 1.7860001
-0.15988953 0.23473144 1.7860001
-0.15648763 0.23473144 1.7860001
-0.15308572 0.23473144 1.7860001
-0.1504381 0.23591429 1.7950001
-0.14628191 0.23473144 1.7860001
-0.14288001 0.23473144 1.7860001
-0.13877524 0.23354858 1.7770001
-0.13539048 0.23354858 1.7770001
-0.13133715 0.23236573 1.7680001
-0.12796953 0.23236573 1.7680001
-0.12460191 0.23236573 1.7680001
-0.12123429 0.23236573 1.7680001
-0.11786667 0.23236573 1.7680001
-0.11449905 0.23236573 1.7680001
-0.11113143 0.23236573 1.7680001
-0.10776381 0.23236573 1.7680001
-0.10439619 0.23236573 1.7680001
-0.10102858 0.23236573 1.7680001
