# .PCD v0.7 - Point Cloud Data file format
VERSION 0.7
FIELDS x y z
SIZE 4 4 4
TYPE F F F
COUNT 1 1 1
WIDTH 1449
HEIGHT 1
VIEWPOINT 0 0 0 1 0 0 0
POINTS 1449
DATA ascii
0.17939238 -0.13877524 1.7770001
0.18277715 -0.13877524 1.7770001
0.18616191 -0.13877524 1.7770001
0.19050667 -0.1394781 1.7860001
0.19488572 -0.14018096 1.7950001
0.19929905 -0.14088382 1.8040001
0.20385906 -0.14166477 1.8140001
0.20845716 -0.14244571 1.8240001
0.21297716 -0.14314857 1.8330001
0.21764953 -0.14392953 1.8430001
0.22236001 -0.14471048 1.853
0.22710858 -0.14549144 1.863
0.23065715 -0.14549144 1.863
0.23420572 -0.14549144 1.863
0.2377543 -0.14549144 1.863
0.26254478 -0.15829906 2.0270002
0.26640573 -0.15829906 2.0270002
0.27026668 -0.15829906 2.0270002
0.27250478 -0.15736191 2.0150001
0.27634287 -0.15736191 2.0150001
0.27851239 -0.15642476 2.003
0.28232762 -0.15642476 2.003
0.082457148 -0.12685715 1.6650001
0.085628577 -0.12685715 1.6650001
0.088800006 -0.12685715 1.6650001
0.091529526 -0.12624763 1.6570001
0.095142864 -0.12685715 1.6650001
0.097841911 -0.12624763 1.6570001
0.10148571 -0.12685715 1.6650001
0.10465714 -0.12685715 1.6650001
0.10834667 -0.12746668 1.6730001
0.11153334 -0.12746668 1.6730001
0.11526857 -0.1280762 1.6810001
0.11847048 -0.1280762 1.6810001
0.12167238 -0.1280762 1.6810001
0.12554286 -0.1287619 1.6900001
0.12937143 -0.12937143 1.6980001
0.13393334 -0.13066667 1.715
0.13784 -0.13127619 1.723
0.14112191 -0.13127619 1.723
0.14440382 -0.13127619 1.723
0.14922857 -0.13264762 1.7410001
0.15254477 -0.13264762 1.7410001
0.15666667 -0.13333334 1.7500001
0.16000001 -0.13333334 1.7500001
0.16333334 -0.13333334 1.7500001
0.16752382 -0.13401905 1.7590001
0.1708743 -0.13401905 1.7590001
0.1751162 -0.13470477 1.7680001
0.17939238 -0.13539048 1.7770001
0.18277715 -0.13539048 1.7770001
0.18616191 -0.13539048 1.7770001
0.19050667 -0.1360762 1.7860001
0.19390857 -0.1360762 1.7860001
0.20040381 -0.13820952 1.8140001
0.20498286 -0.13897143 1.8240001
0.20948572 -0.13965715 1.8330001
0.21413906 -0.14041905 1.8430001
0.21883048 -0.14118096 1.853
0.22236001 -0.14118096 1.853
0.22710858 -0.14194286 1.863
0.23065715 -0.14194286 1.863
0.23420572 -0.14194286 1.863
0.2377543 -0.14194286 1.863
0.2609905 -0.15352382 2.0150001
0.26640573 -0.15443811 2.0270002
0.27026668 -0.15443811 2.0270002
0.27250478 -0.15352382 2.0150001
0.27634287 -0.15352382 2.0150001
0.27851239 -0.15260953 2.003
0.28232762 -0.15260953 2.003
0.082060955 -0.12309143 1.6570001
0.085628577 -0.12368572 1.6650001
0.088800006 -0.12368572 1.6650001
0.091529526 -0.12309143 1.6570001
0.095142864 -0.12368572 1.6650001
0.098314293 -0.12368572 1.6650001
0.10148571 -0.12368572 1.6650001
0.10516001 -0.12428001 1.6730001
0.10834667 -0.12428001 1.6730001
0.11206667 -0.12487429 1.6810001
0.11526857 -0.12487429 1.6810001
0.11847048 -0.12487429 1.6810001
0.12232381 -0.12554286 1.6900001
0.12554286 -0.12554286 1.6900001
0.12937143 -0.12613715 1.6980001
0.13393334 -0.12740001 1.715
0.13784 -0.12799428 1.723
0.14112191 -0.12799428 1.723
0.1451581 -0.12866285 1.7320001
0.14922857 -0.12933144 1.7410001
0.15333334 -0.13000001 1.7500001
0.15666667 -0.13000001 1.7500001
0.16000001 -0.13000001 1.7500001
0.16333334 -0.13000001 1.7500001
0.16752382 -0.13066858 1.7590001
0.1708743 -0.13066858 1.7590001
0.1751162 -0.13133715 1.7680001
0.17848381 -0.13133715 1.7680001
0.18277715 -0.13200572 1.7770001
0.18616191 -0.13200572 1.7770001
0.19050667 -0.13267429 1.7860001
0.19488572 -0.13334286 1.7950001
0.20040381 -0.13475429 1.8140001
0.20498286 -0.13549715 1.8240001
0.21062858 -0.13690858 1.8430001
0.21530096 -0.13765143 1.853
0.22001144 -0.1383943 1.863
0.22356001 -0.1383943 1.863
0.22832763 -0.13913715 1.8730001
0.23189525 -0.13913715 1.8730001
0.23546286 -0.13913715 1.8730001
0.23903048 -0.13913715 1.8730001
0.26254478 -0.15057714 2.0270002
0.26640573 -0.15057714 2.0270002
0.27026668 -0.15057714 2.0270002
0.27412763 -0.15057714 2.0270002
0.27634287 -0.14968573 2.0150001
0.082060955 -0.11993524 1.6570001
0.085217148 -0.11993524 1.6570001
0.088373333 -0.11993524 1.6570001
0.091529526 -0.11993524 1.6570001
0.094685718 -0.11993524 1.6570001
0.097841911 -0.11993524 1.6570001
0.10148571 -0.12051429 1.6650001
0.10516001 -0.12109334 1.6730001
0.10834667 -0.12109334 1.6730001
0.11153334 -0.12109334 1.6730001
0.11526857 -0.12167238 1.6810001
0.11847048 -0.12167238 1.6810001
0.12167238 -0.12167238 1.6810001
0.12554286 -0.12232381 1.6900001
0.12937143 -0.12290286 1.6980001
0.13393334 -0.12413334 1.715
0.1372 -0.12413334 1.715
0.14112191 -0.12471239 1.723
0.1451581 -0.12536381 1.7320001
0.14845715 -0.12536381 1.7320001
0.15333334 -0.12666667 1.7500001
0.15747239 -0.1273181 1.7590001
0.16000001 -0.12666667 1.7500001
0.16417333 -0.1273181 1.7590001
0.16752382 -0.1273181 1.7590001
0.17174858 -0.12796953 1.7680001
0.1751162 -0.12796953 1.7680001
0.17939238 -0.12862095 1.7770001
0.18370287 -0.12927239 1.7860001
0.18804763 -0.12992382 1.7950001
0.19242667 -0.13057524 1.8040001
0.19694857 -0.13129905 1.8140001
0.20150858 -0.13202286 1.8240001
0.20711811 -0.1333981 1.8430001
0.21062858 -0.1333981 1.8430001
0.21646287 -0.13484572 1.863
0.22001144 -0.13484572 1.863
0.22476001 -0.13556953 1.8730001
0.22832763 -0.13556953 1.8730001
0.23449525 -0.13708954 1.8940001
0.23810287 -0.13708954 1.8940001
0.24171048 -0.13708954 1.8940001
0.2609905 -0.14584762 2.0150001
0.26640573 -0.14671619 2.0270002
0.27026668 -0.14671619 2.0270002
0.27412763 -0.14671619 2.0270002
0.082060955 -0.11677905 1.6570001
0.085217148 -0.11677905 1.6570001
0.088373333 -0.11677905 1.6570001
0.091529526 -0.11677905 1.6570001
0.094685718 -0.11677905 1.6570001
0.098314293 -0.11734286 1.6650001
0.10148571 -0.11734286 1.6650001
0.10465714 -0.11734286 1.6650001
0.10834667 -0.11790667 1.6730001
0.11153334 -0.11790667 1.6730001
0.11526857 -0.11847048 1.6810001
0.11847048 -0.11847048 1.6810001
0.12232381 -0.11910477 1.6900001
0.12554286 -0.11910477 1.6900001
0.12998095 -0.12023239 1.7060001
0.13393334 -0.12086667 1.715
0.13784 -0.12143048 1.723
0.14185905 -0.12206477 1.7320001
0.14591238 -0.12269905 1.7410001
0.15000001 -0.12333333 1.7500001
0.15333334 -0.12333333 1.7500001
0.15747239 -0.12396763 1.7590001
0.16082287 -0.12396763 1.7590001
0.16417333 -0.12396763 1.7590001
0.16838096 -0.12460191 1.7680001
0.17174858 -0.12460191 1.7680001
0.17600763 -0.1252362 1.7770001
0.18030097 -0.12587048 1.7860001
0.18370287 -0.12587048 1.7860001
0.18804763 -0.12650476 1.7950001
0.19349334 -0.12784381 1.8140001
0.19803429 -0.12854858 1.8240001
0.20250286 -0.12918286 1.8330001
0.20711811 -0.12988763 1.8430001
0.21177144 -0.13059239 1.853
0.21646287 -0.13129714 1.863
0.22119239 -0.13200191 1.8730001
0.22476001 -0.13200191 1.8730001
0.22954668 -0.13270667 1.8830001
0.23449525 -0.1334819 1.8940001
0.23810287 -0.1334819 1.8940001
0.25715238 -0.14200953 2.0150001
0.26254478 -0.14285524 2.0270002
0.26640573 -0.14285524 2.0270002
0.27026668 -0.14285524 2.0270002
0.27412763 -0.14285524 2.0270002
0.07294286 -0.11417143 1.6650001
0.076114289 -0.11417143 1.6650001
0.079285719 -0.11417143 1.6650001
0.082060955 -0.11362286 1.6570001
0.085628577 -0.11417143 1.6650001
0.088800006 -0.11417143 1.6650001
0.091971435 -0.11417143 1.6650001
0.095142864 -0.11417143 1.6650001
0.098314293 -0.11417143 1.6650001
0.10148571 -0.11417143 1.6650001
0.10516001 -0.11472 1.6730001
0.10886477 -0.11526857 1.6810001
0.11206667 -0.11526857 1.6810001
0.11526857 -0.11526857 1.6810001
0.11910477 -0.11588572 1.6900001
0.12232381 -0.11588572 1.6900001
0.12613715 -0.11643429 1.6980001
0.12998095 -0.11698286 1.7060001
0.13393334 -0.1176 1.715
0.13856001 -0.11876572 1.7320001
0.14185905 -0.11876572 1.7320001
0.14591238 -0.11938286 1.7410001
0.15000001 -0.12 1.7500001
0.15333334 -0.12 1.7500001
0.15747239 -0.12061714 1.7590001
0.16082287 -0.12061714 1.7590001
0.16417333 -0.12061714 1.7590001
0.16752382 -0.12061714 1.7590001
0.17174858 -0.12123429 1.7680001
0.17600763 -0.12185143 1.7770001
0.18030097 -0.12246858 1.7860001
0.18462858 -0.12308572 1.7950001
0.18899049 -0.12370286 1.8040001
0.19349334 -0.12438858 1.8140001
0.19803429 -0.1250743 1.8240001
0.20250286 -0.12569143 1.8330001
0.20711811 -0.12637715 1.8430001
0.21177144 -0.12706286 1.853
0.21646287 -0.12774858 1.863
0.22119239 -0.12843429 1.8730001
0.22596 -0.12912001 1.8830001
0.23210667 -0.13056001 1.904
0.23573335 -0.13056001 1.904
0.25331429 -0.13817143 2.0150001
0.25715238 -0.13817143 2.0150001
0.26254478 -0.13899429 2.0270002
0.26640573 -0.13899429 2.0270002
0.27026668 -0.13899429 2.0270002
0.069436193 -0.11046667 1.6570001
0.07294286 -0.111 1.6650001
0.076114289 -0.111 1.6650001
0.079285719 -0.111 1.6650001
0.082060955 -0.11046667 1.6570001
0.085217148 -0.11046667 1.6570001
0.088373333 -0.11046667 1.6570001
0.091971435 -0.111 1.6650001
0.095142864 -0.111 1.6650001
0.098314293 -0.111 1.6650001
0.10148571 -0.111 1.6650001
0.10516001 -0.11153334 1.6730001
0.10886477 -0.11206667 1.6810001
0.11206667 -0.11206667 1.6810001
0.11526857 -0.11206667 1.6810001
0.11910477 -0.11266667 1.6900001
0.12290286 -0.1132 1.6980001
0.12613715 -0.1132 1.6980001
0.13066667 -0.11433334 1.715
0.1345581 -0.11486667 1.723
0.13784 -0.11486667 1.723
0.1425962 -0.11606667 1.7410001
0.14666668 -0.11666667 1.7500001
0.15000001 -0.11666667 1.7500001
0.15333334 -0.11666667 1.7500001
0.15747239 -0.11726667 1.7590001
0.16000001 -0.11666667 1.7500001
0.16417333 -0.11726667 1.7590001
0.16838096 -0.11786667 1.7680001
0.17174858 -0.11786667 1.7680001
0.17600763 -0.11846667 1.7770001
0.18030097 -0.11906667 1.7860001
0.18462858 -0.11966667 1.7950001
0.1900381 -0.12093334 1.8140001
0.19456001 -0.1216 1.8240001
0.19901143 -0.1222 1.8330001
0.20360763 -0.12286667 1.8430001
0.20824191 -0.12353334 1.853
0.21177144 -0.12353334 1.853
0.21762477 -0.12486667 1.8730001
0.22237334 -0.12553334 1.8830001
0.22848001 -0.12693334 1.904
0.23210667 -0.12693334 1.904
0.24241905 -0.13053334 1.9580001
0.25331429 -0.13433334 2.0150001
0.25715238 -0.13433334 2.0150001
0.26254478 -0.13513334 2.0270002
0.26640573 -0.13513334 2.0270002
0.27026668 -0.13513334 2.0270002
0.069436193 -0.10731048 1.6570001
0.07294286 -0.10782857 1.6650001
0.076480001 -0.10834667 1.6730001
0.079285719 -0.10782857 1.6650001
0.082060955 -0.10731048 1.6570001
0.085628577 -0.10782857 1.6650001
0.088800006 -0.10782857 1.6650001
0.091971435 -0.10782857 1.6650001
0.095142864 -0.10782857 1.6650001
0.098786667 -0.10834667 1.6730001
0.10197334 -0.10834667 1.6730001
0.10566286 -0.10886477 1.6810001
0.10886477 -0.10886477 1.6810001
0.11206667 -0.10886477 1.6810001
0.11526857 -0.10886477 1.6810001
0.11910477 -0.10944762 1.6900001
0.12232381 -0.10944762 1.6900001
0.12613715 -0.10996572 1.6980001
0.13066667 -0.11106667 1.715
0.1345581 -0.11158477 1.723
0.13784 -0.11158477 1.723
0.1425962 -0.11275048 1.7410001
0.14666668 -0.11333334 1.7500001
0.15000001 -0.11333334 1.7500001
0.15412191 -0.1139162 1.7590001
0.15747239 -0.1139162 1.7590001
0.16082287 -0.1139162 1.7590001
0.16501334 -0.11449905 1.7680001
0.16838096 -0.11449905 1.7680001
0.17262286 -0.11508191 1.7770001
0.17600763 -0.11508191 1.7770001
0.18030097 -0.11566477 1.7860001
0.1855543 -0.11683048 1.8040001
0.1900381 -0.1174781 1.8140001
0.19456001 -0.11812572 1.8240001
0.20009714 -0.11935619 1.8430001
0.20360763 -0.11935619 1.8430001
0.20824191 -0.12000381 1.853
0.21291429 -0.12065143 1.863
0.21762477 -0.12129905 1.8730001
0.22237334 -0.12194667 1.8830001
0.22848001 -0.12330667 1.904
0.23210667 -0.12330667 1.904
0.24662858 -0.12900572 1.9920001
0.25331429 -0.13049525 2.0150001
0.25715238 -0.13049525 2.0150001
0.26254478 -0.13127239 2.0270002
0.26640573 -0.13127239 2.0270002
0.27026668 -0.13127239 2.0270002
0.069436193 -0.10415429 1.6570001
0.07294286 -0.10465714 1.6650001
0.076480001 -0.10516001 1.6730001
0.079285719 -0.10465714 1.6650001
0.082060955 -0.10415429 1.6570001
0.085217148 -0.10415429 1.6570001
0.088800006 -0.10465714 1.6650001
0.091971435 -0.10465714 1.6650001
0.095142864 -0.10465714 1.6650001
0.098786667 -0.10516001 1.6730001
0.10197334 -0.10516001 1.6730001
0.10566286 -0.10566286 1.6810001
0.10886477 -0.10566286 1.6810001
0.11206667 -0.10566286 1.6810001
0.11588572 -0.10622858 1.6900001
0.11910477 -0.10622858 1.6900001
0.12290286 -0.10673143 1.6980001
0.12673144 -0.10723429 1.7060001
0.13066667 -0.10780001 1.715
0.1345581 -0.10830286 1.723
0.13784 -0.10830286 1.723
0.1425962 -0.10943429 1.7410001
0.14666668 -0.11000001 1.7500001
0.15000001 -0.11000001 1.7500001
0.15412191 -0.11056572 1.7590001
0.15747239 -0.11056572 1.7590001
0.16082287 -0.11056572 1.7590001
0.16501334 -0.11113143 1.7680001
0.16838096 -0.11113143 1.7680001
0.17262286 -0.11169714 1.7770001
0.17689906 -0.11226286 1.7860001
0.18120953 -0.11282858 1.7950001
0.1855543 -0.11339429 1.8040001
0.1900381 -0.11402286 1.8140001
0.19456001 -0.11465143 1.8240001
0.20009714 -0.11584572 1.8430001
0.20360763 -0.11584572 1.8430001
0.20936573 -0.11710286 1.863
0.21291429 -0.11710286 1.863
0.21762477 -0.11773143 1.8730001
0.22367239 -0.11905143 1.8940001
0.22848001 -0.11968 1.904
0.23210667 -0.11968 1.904
0.24799049 -0.12590286 2.003
0.25331429 -0.12665714 2.0150001
0.25715238 -0.12665714 2.0150001
0.26254478 -0.12741144 2.0270002
0.26640573 -0.12741144 2.0270002
0.27026668 -0.12741144 2.0270002
0.069436193 -0.1009981 1.6570001
0.07294286 -0.10148571 1.6650001
0.076114289 -0.10148571 1.6650001
0.079285719 -0.10148571 1.6650001
0.082457148 -0.10148571 1.6650001
0.085628577 -0.10148571 1.6650001
0.088800006 -0.10148571 1.6650001
0.092413336 -0.10197334 1.6730001
0.095600002 -0.10197334 1.6730001
0.098786667 -0.10197334 1.6730001
0.10197334 -0.10197334 1.6730001
0.10566286 -0.10246096 1.6810001
0.10886477 -0.10246096 1.6810001
0.11206667 -0.10246096 1.6810001
0.11588572 -0.10300953 1.6900001
0.11966857 -0.10349715 1.6980001
0.12290286 -0.10349715 1.6980001
0.12740001 -0.10453334 1.715
0.13127619 -0.10502096 1.723
0.13526095 -0.10556953 1.7320001
0.13856001 -0.10556953 1.7320001
0.1425962 -0.1061181 1.7410001
0.14666668 -0.10666667 1.7500001
0.15000001 -0.10666667 1.7500001
0.15412191 -0.10721524 1.7590001
0.15747239 -0.10721524 1.7590001
0.16082287 -0.10721524 1.7590001
0.16501334 -0.10776381 1.7680001
0.16923811 -0.10831238 1.7770001
0.17349716 -0.10886095 1.7860001
0.17689906 -0.10886095 1.7860001
0.18120953 -0.10940953 1.7950001
0.18658286 -0.11056762 1.8140001
0.1900381 -0.11056762 1.8140001
0.19456001 -0.11117715 1.8240001
0.20009714 -0.11233524 1.8430001
0.20471239 -0.11294477 1.853
0.20936573 -0.11355429 1.863
0.21405715 -0.11416382 1.8730001
0.21878667 -0.11477334 1.8830001
0.22367239 -0.11544381 1.8940001
0.22848001 -0.11605334 1.904
0.23210667 -0.11605334 1.904
0.24378096 -0.12001524 1.9690001
0.25331429 -0.12281905 2.0150001
0.25715238 -0.12281905 2.0150001
0.26254478 -0.12355048 2.0270002
0.26640573 -0.12355048 2.0270002
0.27026668 -0.12355048 2.0270002
0.06628 -0.097841911 1.6570001
0.069436193 -0.097841911 1.6570001
0.07294286 -0.098314293 1.6650001
0.076114289 -0.098314293 1.6650001
0.079285719 -0.098314293 1.6650001
0.082457148 -0.098314293 1.6650001
0.085628577 -0.098314293 1.6650001
0.089226671 -0.098786667 1.6730001
0.092413336 -0.098786667 1.6730001
0.095600002 -0.098786667 1.6730001
0.098786667 -0.098786667 1.6730001
0.10197334 -0.098786667 1.6730001
0.10566286 -0.099259049 1.6810001
0.10886477 -0.099259049 1.6810001
0.11206667 -0.099259049 1.6810001
0.11588572 -0.099790476 1.6900001
0.11966857 -0.10026286 1.6980001
0.12348191 -0.10073524 1.7060001
0.12799428 -0.10173905 1.723
0.13196191 -0.10227048 1.7320001
0.13596381 -0.10280191 1.7410001
0.13928001 -0.10280191 1.7410001
0.1425962 -0.10280191 1.7410001
0.14666668 -0.10333334 1.7500001
0.15000001 -0.10333334 1.7500001
0.15412191 -0.10386477 1.7590001
0.15827811 -0.10439619 1.7680001
0.16164573 -0.10439619 1.7680001
0.16501334 -0.10439619 1.7680001
0.16923811 -0.10492762 1.7770001
0.17349716 -0.10545905 1.7860001
0.17689906 -0.10545905 1.7860001
0.18120953 -0.10599048 1.7950001
0.18658286 -0.10711239 1.8140001
0.19108573 -0.10770286 1.8240001
0.19552001 -0.10823429 1.8330001
0.20009714 -0.10882477 1.8430001
0.20471239 -0.10941524 1.853
0.21048953 -0.11059619 1.8730001
0.21405715 -0.11059619 1.8730001
0.21878667 -0.11118667 1.8830001
0.22367239 -0.11183619 1.8940001
0.22848001 -0.11242667 1.904
0.23210667 -0.11242667 1.904
0.24799049 -0.11827239 2.003
0.25331429 -0.11898096 2.0150001
0.25715238 -0.11898096 2.0150001
0.26254478 -0.11968953 2.0270002
0.26640573 -0.11968953 2.0270002
0.27026668 -0.11968953 2.0270002
0.06628 -0.094685718 1.6570001
0.069771431 -0.095142864 1.6650001
0.073293336 -0.095600002 1.6730001
0.076480001 -0.095600002 1.6730001
0.079666667 -0.095600002 1.6730001
0.08285334 -0.095600002 1.6730001
0.086040005 -0.095600002 1.6730001
0.089653336 -0.096057147 1.6810001
0.092413336 -0.095600002 1.6730001
0.095600002 -0.095600002 1.6730001
0.098786667 -0.095600002 1.6730001
0.10197334 -0.095600002 1.6730001
0.10566286 -0.096057147 1.6810001
0.10886477 -0.096057147 1.6810001
0.11206667 -0.096057147 1.6810001
0.11588572 -0.096571431 1.6900001
0.12023239 -0.097485721 1.7060001
0.12413334 -0.098000005 1.715
0.12799428 -0.09845715 1.723
0.13264762 -0.099485718 1.7410001
0.13596381 -0.099485718 1.7410001
0.13928001 -0.099485718 1.7410001
0.14333335 -0.1 1.7500001
0.14666668 -0.1 1.7500001
0.15000001 -0.1 1.7500001
0.15412191 -0.10051429 1.7590001
0.15827811 -0.10102858 1.7680001
0.16164573 -0.10102858 1.7680001
0.16585334 -0.10154286 1.7770001
0.17009525 -0.10205714 1.7860001
0.17349716 -0.10205714 1.7860001
0.17779048 -0.10257144 1.7950001
0.1821181 -0.10308572 1.8040001
0.18658286 -0.10365715 1.8140001
0.19108573 -0.10422858 1.8240001
0.19552001 -0.10474286 1.8330001
0.20009714 -0.10531429 1.8430001
0.20471239 -0.10588572 1.853
0.21048953 -0.10702857 1.8730001
0.21405715 -0.10702857 1.8730001
0.22006477 -0.10822857 1.8940001
0.22367239 -0.10822857 1.8940001
0.24180001 -0.11514286 2.0150001
0.2456381 -0.11514286 2.0150001
0.24947619 -0.11514286 2.0150001
0.25331429 -0.11514286 2.0150001
0.25715238 -0.11514286 2.0150001
0.26254478 -0.11582857 2.0270002
0.26640573 -0.11582857 2.0270002
0.063123815 -0.091529526 1.6570001
0.06628 -0.091529526 1.6570001
0.069771431 -0.091971435 1.6650001
0.073293336 -0.092413336 1.6730001
0.076480001 -0.092413336 1.6730001
0.079666667 -0.092413336 1.6730001
0.08285334 -0.092413336 1.6730001
0.086040005 -0.092413336 1.6730001
0.089653336 -0.092855245 1.6810001
0.092413336 -0.092413336 1.6730001
0.095600002 -0.092413336 1.6730001
0.098786667 -0.092413336 1.6730001
0.10197334 -0.092413336 1.6730001
0.10566286 -0.092855245 1.6810001
0.10886477 -0.092855245 1.6810001
0.11266667 -0.093352385 1.6900001
0.11643429 -0.093794286 1.6980001
0.12086667 -0.094733335 1.715
0.12471239 -0.095175244 1.723
0.12866285 -0.095672384 1.7320001
0.13264762 -0.096169524 1.7410001
0.13596381 -0.096169524 1.7410001
0.13928001 -0.096169524 1.7410001
0.14333335 -0.096666671 1.7500001
0.14742096 -0.097163811 1.7590001
0.15077144 -0.097163811 1.7590001
0.15491048 -0.097660959 1.7680001
0.15908381 -0.098158099 1.7770001
0.16246858 -0.098158099 1.7770001
0.16585334 -0.098158099 1.7770001
0.17009525 -0.098655239 1.7860001
0.17437144 -0.099152386 1.7950001
0.17779048 -0.099152386 1.7950001
0.1821181 -0.099649526 1.8040001
0.18761143 -0.10075429 1.8240001
0.19108573 -0.10075429 1.8240001
0.19552001 -0.10125143 1.8330001
0.20009714 -0.10180382 1.8430001
0.20471239 -0.1023562 1.853
0.21048953 -0.10346095 1.8730001
0.21520001 -0.10401334 1.8830001
0.22006477 -0.10462096 1.8940001
0.23382857 -0.10937143 1.9800001
0.24180001 -0.11130477 2.0150001
0.2456381 -0.11130477 2.0150001
0.24947619 -0.11130477 2.0150001
0.25331429 -0.11130477 2.0150001
0.25715238 -0.11130477 2.0150001
0.2609905 -0.11130477 2.0150001
0.26640573 -0.11196762 2.0270002
0.063123815 -0.088373333 1.6570001
0.06628 -0.088373333 1.6570001
0.069771431 -0.088800006 1.6650001
0.073293336 -0.089226671 1.6730001
0.076480001 -0.089226671 1.6730001
0.079666667 -0.089226671 1.6730001
0.08285334 -0.089226671 1.6730001
0.086040005 -0.089226671 1.6730001
0.089653336 -0.089653336 1.6810001
0.092413336 -0.089226671 1.6730001
0.095600002 -0.089226671 1.6730001
0.099259049 -0.089653336 1.6810001
0.10246096 -0.089653336 1.6810001
0.10566286 -0.089653336 1.6810001
0.10944762 -0.090133339 1.6900001
0.11266667 -0.090133339 1.6900001
0.11698286 -0.090986669 1.7060001
0.12086667 -0.091466673 1.715
0.12471239 -0.091893338 1.723
0.12866285 -0.092373334 1.7320001
0.13264762 -0.092853338 1.7410001
0.13596381 -0.092853338 1.7410001
0.14 -0.093333334 1.7500001
0.14333335 -0.093333334 1.7500001
0.14742096 -0.093813337 1.7590001
0.15077144 -0.093813337 1.7590001
0.15569906 -0.094773337 1.7770001
0.15988953 -0.095253333 1.7860001
0.16246858 -0.094773337 1.7770001
0.16585334 -0.094773337 1.7770001
0.17009525 -0.095253333 1.7860001
0.17437144 -0.095733337 1.7950001
0.17868191 -0.096213333 1.8040001
0.18312763 -0.096746668 1.8140001
0.18761143 -0.097280003 1.8240001
0.19202858 -0.097760007 1.8330001
0.19658667 -0.098293334 1.8430001
0.20118286 -0.098826669 1.853
0.20581715 -0.099360004 1.863
0.21048953 -0.099893339 1.8730001
0.21520001 -0.10042667 1.8830001
0.22006477 -0.10101334 1.8940001
0.22367239 -0.10101334 1.8940001
0.24180001 -0.10746667 2.0150001
0.2456381 -0.10746667 2.0150001
0.2509619 -0.10810667 2.0270002
0.25331429 -0.10746667 2.0150001
0.25715238 -0.10746667 2.0150001
0.2609905 -0.10746667 2.0150001
0.059967622 -0.085217148 1.6570001
0.063123815 -0.085217148 1.6570001
0.06628 -0.085217148 1.6570001
0.069771431 -0.085628577 1.6650001
0.073293336 -0.086040005 1.6730001
0.076480001 -0.086040005 1.6730001
0.079666667 -0.086040005 1.6730001
0.08285334 -0.086040005 1.6730001
0.086040005 -0.086040005 1.6730001
0.089653336 -0.086451434 1.6810001
0.092855245 -0.086451434 1.6810001
0.095600002 -0.086040005 1.6730001
0.099259049 -0.086451434 1.6810001
0.10246096 -0.086451434 1.6810001
0.10566286 -0.086451434 1.6810001
0.10944762 -0.086914286 1.6900001
0.11266667 -0.086914286 1.6900001
0.11698286 -0.087737143 1.7060001
0.12086667 -0.088200003 1.715
0.12471239 -0.088611431 1.723
0.12866285 -0.089074291 1.7320001
0.13264762 -0.089537144 1.7410001
0.13666667 -0.090000004 1.7500001
0.14 -0.090000004 1.7500001
0.14333335 -0.090000004 1.7500001
0.14742096 -0.090462863 1.7590001
0.15154286 -0.090925716 1.7680001
0.15491048 -0.090925716 1.7680001
0.15988953 -0.091851436 1.7860001
0.16246858 -0.091388576 1.7770001
0.16669334 -0.091851436 1.7860001
0.17009525 -0.091851436 1.7860001
0.17524572 -0.092777148 1.8040001
0.17967239 -0.093291432 1.8140001
0.18413715 -0.093805715 1.8240001
0.18956572 -0.094782859 1.8430001
0.19307619 -0.094782859 1.8430001
0.19765334 -0.095297143 1.853
0.20226859 -0.095811434 1.863
0.20581715 -0.095811434 1.863
0.21048953 -0.096325718 1.8730001
0.21520001 -0.096840002 1.8830001
0.22122668 -0.097920001 1.904
0.23796192 -0.10362858 2.0150001
0.24324001 -0.10424571 2.0270002
0.24710096 -0.10424571 2.0270002
0.2509619 -0.10424571 2.0270002
0.25482288 -0.10424571 2.0270002
0.25715238 -0.10362858 2.0150001
0.2609905 -0.10362858 2.0150001
0.059678096 -0.081664763 1.649
0.063123815 -0.082060955 1.6570001
0.06628 -0.082060955 1.6570001
0.069771431 -0.082457148 1.6650001
0.07294286 -0.082457148 1.6650001
0.076480001 -0.08285334 1.6730001
0.079666667 -0.08285334 1.6730001
0.08285334 -0.08285334 1.6730001
0.086451434 -0.083249524 1.6810001
0.089653336 -0.083249524 1.6810001
0.092855245 -0.083249524 1.6810001
0.095600002 -0.08285334 1.6730001
0.098786667 -0.08285334 1.6730001
0.10246096 -0.083249524 1.6810001
0.10566286 -0.083249524 1.6810001
0.10886477 -0.083249524 1.6810001
0.11266667 -0.08369524 1.6900001
0.1176 -0.084933333 1.715
0.12206477 -0.085775241 1.7320001
0.12536381 -0.085775241 1.7320001
0.12933144 -0.086220957 1.7410001
0.13264762 -0.086220957 1.7410001
0.13666667 -0.086666673 1.7500001
0.14 -0.086666673 1.7500001
0.14407048 -0.087112382 1.7590001
0.14817524 -0.087558098 1.7680001
0.15231429 -0.088003814 1.7770001
0.15648763 -0.08844953 1.7860001
0.16069524 -0.088895239 1.7950001
0.16329144 -0.08844953 1.7860001
0.16753334 -0.088895239 1.7950001
0.17180952 -0.089340955 1.8040001
0.17621715 -0.089836195 1.8140001
0.18066287 -0.090331435 1.8240001
0.18413715 -0.090331435 1.8240001
0.18956572 -0.091272384 1.8430001
0.19307619 -0.091272384 1.8430001
0.19765334 -0.091767624 1.853
0.20226859 -0.092262864 1.863
0.20581715 -0.092262864 1.863
0.21048953 -0.092758097 1.8730001
0.21520001 -0.093253337 1.8830001
0.22250476 -0.094838098 1.9150001
0.23937906 -0.10038476 2.0270002
0.24324001 -0.10038476 2.0270002
0.24710096 -0.10038476 2.0270002
0.2509619 -0.10038476 2.0270002
0.25482288 -0.10038476 2.0270002
0.25868383 -0.10038476 2.0270002
0.26254478 -0.10038476 2.0270002
0.26640573 -0.10038476 2.0270002
0.05681143 -0.078904763 1.6570001
0.059967622 -0.078904763 1.6570001
0.063123815 -0.078904763 1.6570001
0.06628 -0.078904763 1.6570001
0.069771431 -0.079285719 1.6650001
0.07294286 -0.079285719 1.6650001
0.076480001 -0.079666667 1.6730001
0.079666667 -0.079666667 1.6730001
0.08285334 -0.079666667 1.6730001
0.086040005 -0.079666667 1.6730001
0.089653336 -0.080047622 1.6810001
0.092855245 -0.080047622 1.6810001
0.096057147 -0.080047622 1.6810001
0.099259049 -0.080047622 1.6810001
0.10246096 -0.080047622 1.6810001
0.10566286 -0.080047622 1.6810001
0.10944762 -0.080476195 1.6900001
0.1132 -0.080857143 1.6980001
0.11814857 -0.082047619 1.723
0.12206477 -0.082476191 1.7320001
0.12601525 -0.082904764 1.7410001
0.12933144 -0.082904764 1.7410001
0.13333334 -0.083333336 1.7500001
0.13666667 -0.083333336 1.7500001
0.14 -0.083333336 1.7500001
0.14407048 -0.083761908 1.7590001
0.14742096 -0.083761908 1.7590001
0.15231429 -0.084619053 1.7770001
0.15648763 -0.085047625 1.7860001
0.16069524 -0.085476197 1.7950001
0.1641143 -0.085476197 1.7950001
0.16837335 -0.085904762 1.8040001
0.17180952 -0.085904762 1.8040001
0.17621715 -0.086380959 1.8140001
0.18066287 -0.086857148 1.8240001
0.18413715 -0.086857148 1.8240001
0.18956572 -0.087761909 1.8430001
0.19307619 -0.087761909 1.8430001
0.19765334 -0.088238098 1.853
0.20226859 -0.088714287 1.863
0.20692191 -0.089190483 1.8730001
0.21048953 -0.089190483 1.8730001
0.21520001 -0.089666672 1.8830001
0.2355181 -0.096523814 2.0270002
0.23937906 -0.096523814 2.0270002
0.24324001 -0.096523814 2.0270002
0.24710096 -0.096523814 2.0270002
0.2509619 -0.096523814 2.0270002
0.25482288 -0.096523814 2.0270002
0.25868383 -0.096523814 2.0270002
0.26254478 -0.096523814 2.0270002
0.26640573 -0.096523814 2.0270002
0.05681143 -0.075748578 1.6570001
0.059967622 -0.075748578 1.6570001
0.063123815 -0.075748578 1.6570001
0.066600002 -0.076114289 1.6650001
0.069771431 -0.076114289 1.6650001
0.073293336 -0.076480001 1.6730001
0.076480001 -0.076480001 1.6730001
0.079666667 -0.076480001 1.6730001
0.08285334 -0.076480001 1.6730001
0.086040005 -0.076480001 1.6730001
0.089653336 -0.07684572 1.6810001
0.092855245 -0.07684572 1.6810001
0.096057147 -0.07684572 1.6810001
0.099259049 -0.07684572 1.6810001
0.10246096 -0.07684572 1.6810001
0.10622858 -0.077257149 1.6900001
0.11048381 -0.077988572 1.7060001
0.11433334 -0.078400001 1.715
0.11814857 -0.07876572 1.723
0.12206477 -0.079177149 1.7320001
0.12601525 -0.079588577 1.7410001
0.12933144 -0.079588577 1.7410001
0.13333334 -0.080000006 1.7500001
0.13666667 -0.080000006 1.7500001
0.14072001 -0.080411434 1.7590001
0.14407048 -0.080411434 1.7590001
0.14817524 -0.080822863 1.7680001
0.15231429 -0.081234291 1.7770001
0.15648763 -0.08164572 1.7860001
0.16069524 -0.082057148 1.7950001
0.1641143 -0.082057148 1.7950001
0.16837335 -0.082468577 1.8040001
0.17180952 -0.082468577 1.8040001
0.17621715 -0.082925715 1.8140001
0.18066287 -0.08338286 1.8240001
0.18504572 -0.083794288 1.8330001
0.18956572 -0.084251434 1.8430001
0.19412382 -0.084708571 1.853
0.19765334 -0.084708571 1.853
0.20226859 -0.085165717 1.863
0.20692191 -0.085622862 1.8730001
0.21161334 -0.08608 1.8830001
0.21520001 -0.08608 1.8830001
0.2355181 -0.092662863 2.0270002
0.23937906 -0.092662863 2.0270002
0.24468 -0.093211435 2.039
0.24710096 -0.092662863 2.0270002
0.25244763 -0.093211435 2.039
0.25482288 -0.092662863 2.0270002
0.25868383 -0.092662863 2.0270002
0.26254478 -0.092662863 2.0270002
0.053655241 -0.072592385 1.6570001
0.05681143 -0.072592385 1.6570001
0.059967622 -0.072592385 1.6570001
0.063123815 -0.072592385 1.6570001
0.066600002 -0.07294286 1.6650001
0.069771431 -0.07294286 1.6650001
0.07294286 -0.07294286 1.6650001
0.076480001 -0.073293336 1.6730001
0.079666667 -0.073293336 1.6730001
0.08285334 -0.073293336 1.6730001
0.086040005 -0.073293336 1.6730001
0.089653336 -0.073643811 1.6810001
0.092855245 -0.073643811 1.6810001
0.096057147 -0.073643811 1.6810001
0.099790476 -0.074038096 1.6900001
0.10300953 -0.074038096 1.6900001
0.10723429 -0.074739054 1.7060001
0.11106667 -0.075133339 1.715
0.11486667 -0.075483814 1.723
0.11876572 -0.075878099 1.7320001
0.12269905 -0.076272383 1.7410001
0.12601525 -0.076272383 1.7410001
0.12933144 -0.076272383 1.7410001
0.13333334 -0.076666668 1.7500001
0.13666667 -0.076666668 1.7500001
0.14072001 -0.077060953 1.7590001
0.14480762 -0.077455238 1.7680001
0.14892954 -0.07784953 1.7770001
0.15308572 -0.078243814 1.7860001
0.1572762 -0.078638099 1.7950001
0.16069524 -0.078638099 1.7950001
0.1641143 -0.078638099 1.7950001
0.16837335 -0.079032384 1.8040001
0.17276192 -0.079470478 1.8140001
0.17718858 -0.079908572 1.8240001
0.18155429 -0.080302857 1.8330001
0.18504572 -0.080302857 1.8330001
0.19059429 -0.081179053 1.853
0.19412382 -0.081179053 1.853
0.19872001 -0.081617147 1.863
0.20226859 -0.081617147 1.863
0.20692191 -0.082055241 1.8730001
0.21048953 -0.082055241 1.8730001
0.21405715 -0.082055241 1.8730001
0.2355181 -0.088801906 2.0270002
0.24079619 -0.089327626 2.039
0.24468 -0.089327626 2.039
0.24710096 -0.088801906 2.0270002
0.2509619 -0.088801906 2.0270002
0.25482288 -0.088801906 2.0270002
0.25715238 -0.088276193 2.0150001
0.2609905 -0.088276193 2.0150001
0.053655241 -0.069436193 1.6570001
0.05681143 -0.069436193 1.6570001
0.059967622 -0.069436193 1.6570001
0.063123815 -0.069436193 1.6570001
0.066600002 -0.069771431 1.6650001
0.069771431 -0.069771431 1.6650001
0.073293336 -0.07010667 1.6730001
0.076480001 -0.07010667 1.6730001
0.079666667 -0.07010667 1.6730001
0.08285334 -0.07010667 1.6730001
0.086451434 -0.070441909 1.6810001
0.089653336 -0.070441909 1.6810001
0.092855245 -0.070441909 1.6810001
0.096571431 -0.07081905 1.6900001
0.099790476 -0.07081905 1.6900001
0.10398477 -0.071489528 1.7060001
0.10780001 -0.071866669 1.715
0.11106667 -0.071866669 1.715
0.11546667 -0.072579049 1.7320001
0.11876572 -0.072579049 1.7320001
0.12269905 -0.07295619 1.7410001
0.12601525 -0.07295619 1.7410001
0.13000001 -0.073333338 1.7500001
0.13333334 -0.073333338 1.7500001
0.13736953 -0.073710479 1.7590001
0.14072001 -0.073710479 1.7590001
0.14480762 -0.07408762 1.7680001
0.14892954 -0.074464768 1.7770001
0.15308572 -0.074841909 1.7860001
0.1572762 -0.07521905 1.7950001
0.16069524 -0.07521905 1.7950001
0.16493715 -0.075596191 1.8040001
0.16837335 -0.075596191 1.8040001
0.17276192 -0.076015241 1.8140001
0.17718858 -0.076434292 1.8240001
0.18155429 -0.076811433 1.8330001
0.18504572 -0.076811433 1.8330001
0.19059429 -0.077649526 1.853
0.19517143 -0.078068577 1.863
0.19872001 -0.078068577 1.863
0.2033543 -0.07848762 1.8730001
0.20692191 -0.07848762 1.8730001
0.21161334 -0.07890667 1.8830001
0.21405715 -0.07848762 1.8730001
0.21762477 -0.07848762 1.8730001
0.24079619 -0.08544381 2.039
0.24468 -0.08544381 2.039
0.24710096 -0.084940955 2.0270002
0.2509619 -0.084940955 2.0270002
0.25482288 -0.084940955 2.0270002
0.25715238 -0.0844381 2.0150001
0.2609905 -0.0844381 2.0150001
0.053655241 -0.06628 1.6570001
0.05681143 -0.06628 1.6570001
0.059967622 -0.06628 1.6570001
0.063123815 -0.06628 1.6570001
0.066600002 -0.066600002 1.6650001
0.07010667 -0.066920005 1.6730001
0.073293336 -0.066920005 1.6730001
0.076480001 -0.066920005 1.6730001
0.079666667 -0.066920005 1.6730001
0.083249524 -0.06724 1.6810001
0.086451434 -0.06724 1.6810001
0.089653336 -0.06724 1.6810001
0.092855245 -0.06724 1.6810001
0.096571431 -0.067600004 1.6900001
0.10026286 -0.067919999 1.6980001
0.10398477 -0.068240002 1.7060001
0.10780001 -0.068599999 1.715
0.11106667 -0.068599999 1.715
0.11546667 -0.069280006 1.7320001
0.11938286 -0.069640003 1.7410001
0.12333333 -0.07 1.7500001
0.12666667 -0.07 1.7500001
0.13000001 -0.07 1.7500001
0.13333334 -0.07 1.7500001
0.13736953 -0.070360005 1.7590001
0.14072001 -0.070360005 1.7590001
0.14480762 -0.070720002 1.7680001
0.14892954 -0.071079999 1.7770001
0.15308572 -0.071440004 1.7860001
0.1572762 -0.071800001 1.7950001
0.16069524 -0.071800001 1.7950001
0.16493715 -0.072160006 1.8040001
0.16930667 -0.072560005 1.8140001
0.17276192 -0.072560005 1.8140001
0.17718858 -0.072960004 1.8240001
0.18155429 -0.073320001 1.8330001
0.18605524 -0.073720001 1.8430001
0.19059429 -0.07412 1.853
0.19517143 -0.074519999 1.863
0.19978668 -0.074920006 1.8730001
0.2033543 -0.074920006 1.8730001
0.20692191 -0.074920006 1.8730001
0.21397334 -0.076160006 1.904
0.2176 -0.076160006 1.904
0.23830667 -0.082040004 2.0510001
0.24221334 -0.082040004 2.0510001
0.24612001 -0.082040004 2.0510001
0.24856383 -0.081560001 2.039
0.25244763 -0.081560001 2.039
0.25482288 -0.081080005 2.0270002
0.25868383 -0.081080005 2.0270002
0.26254478 -0.081080005 2.0270002
0.050499048 -0.063123815 1.6570001
0.053655241 -0.063123815 1.6570001
0.05681143 -0.063123815 1.6570001
0.060257144 -0.063428573 1.6650001
0.063428573 -0.063428573 1.6650001
0.066600002 -0.063428573 1.6650001
0.07010667 -0.063733339 1.6730001
0.073293336 -0.063733339 1.6730001
0.076480001 -0.063733339 1.6730001
0.079666667 -0.063733339 1.6730001
0.08285334 -0.063733339 1.6730001
0.086451434 -0.064038098 1.6810001
0.089653336 -0.064038098 1.6810001
0.092855245 -0.064038098 1.6810001
0.097028576 -0.064685717 1.6980001
0.10073524 -0.064990476 1.7060001
0.10453334 -0.065333337 1.715
0.10780001 -0.065333337 1.715
0.11158477 -0.065638095 1.723
0.11546667 -0.065980956 1.7320001
0.11938286 -0.066323809 1.7410001
0.12333333 -0.06666667 1.7500001
0.12666667 -0.06666667 1.7500001
0.13000001 -0.06666667 1.7500001
0.13401905 -0.067009524 1.7590001
0.13736953 -0.067009524 1.7590001
0.14144 -0.067352384 1.7680001
0.14480762 -0.067352384 1.7680001
0.14892954 -0.067695238 1.7770001
0.15308572 -0.068038099 1.7860001
0.1572762 -0.068380952 1.7950001
0.16069524 -0.068380952 1.7950001
0.1641143 -0.068380952 1.7950001
0.16837335 -0.068723813 1.8040001
0.17276192 -0.069104761 1.8140001
0.17718858 -0.069485717 1.8240001
0.18155429 -0.069828577 1.8330001
0.18605524 -0.070209526 1.8430001
0.19162287 -0.070971429 1.863
0.19621906 -0.071352385 1.8730001
0.19978668 -0.071352385 1.8730001
0.2033543 -0.071352385 1.8730001
0.20692191 -0.071352385 1.8730001
0.21284953 -0.072152384 1.8940001
0.23725715 -0.079085715 2.0760002
0.23970096 -0.078590482 2.0630002
0.24221334 -0.078133337 2.0510001
0.24612001 -0.078133337 2.0510001
0.24856383 -0.077676192 2.039
0.25244763 -0.077676192 2.039
0.25633144 -0.077676192 2.039
0.26021525 -0.077676192 2.039
0.26254478 -0.077219054 2.0270002
0.050499048 -0.059967622 1.6570001
0.053655241 -0.059967622 1.6570001
0.057085715 -0.060257144 1.6650001
0.060257144 -0.060257144 1.6650001
0.063428573 -0.060257144 1.6650001
0.066920005 -0.06054667 1.6730001
0.07010667 -0.06054667 1.6730001
0.073293336 -0.06054667 1.6730001
0.076480001 -0.06054667 1.6730001
0.080047622 -0.060836192 1.6810001
0.083249524 -0.060836192 1.6810001
0.086451434 -0.060836192 1.6810001
0.089653336 -0.060836192 1.6810001
0.092855245 -0.060836192 1.6810001
0.097485721 -0.061740953 1.7060001
0.10126667 -0.062066671 1.715
0.10453334 -0.062066671 1.715
0.10830286 -0.062356193 1.723
0.11158477 -0.062356193 1.723
0.11546667 -0.062681906 1.7320001
0.11938286 -0.063007623 1.7410001
0.12333333 -0.063333333 1.7500001
0.12666667 -0.063333333 1.7500001
0.13000001 -0.063333333 1.7500001
0.13401905 -0.06365905 1.7590001
0.13736953 -0.06365905 1.7590001
0.14144 -0.063984767 1.7680001
0.14480762 -0.063984767 1.7680001
0.14892954 -0.064310476 1.7770001
0.15308572 -0.064636193 1.7860001
0.1572762 -0.06496191 1.7950001
0.16069524 -0.06496191 1.7950001
0.1641143 -0.06496191 1.7950001
0.16837335 -0.06528762 1.8040001
0.1737143 -0.066011429 1.8240001
0.17806287 -0.066337146 1.8330001
0.18254477 -0.06669905 1.8430001
0.18706477 -0.067060955 1.853
0.19162287 -0.067422859 1.863
0.19621906 -0.067784764 1.8730001
0.19978668 -0.067784764 1.8730001
0.2033543 -0.067784764 1.8730001
0.20924191 -0.068544768 1.8940001
0.21284953 -0.068544768 1.8940001
0.23577143 -0.074660957 2.0630002
0.23830667 -0.07422667 2.0510001
0.24221334 -0.07422667 2.0510001
0.24612001 -0.07422667 2.0510001
0.25002667 -0.07422667 2.0510001
0.25244763 -0.073792383 2.039
0.25633144 -0.073792383 2.039
0.26021525 -0.073792383 2.039
0.050499048 -0.05681143 1.6570001
0.053655241 -0.05681143 1.6570001
0.057085715 -0.057085715 1.6650001
0.060257144 -0.057085715 1.6650001
0.063428573 -0.057085715 1.6650001
0.066600002 -0.057085715 1.6650001
0.07010667 -0.057360001 1.6730001
0.073293336 -0.057360001 1.6730001
0.076480001 -0.057360001 1.6730001
0.079666667 -0.057360001 1.6730001
0.083249524 -0.057634287 1.6810001
0.086451434 -0.057634287 1.6810001
0.089653336 -0.057634287 1.6810001
0.093352385 -0.05794286 1.6900001
0.097485721 -0.058491431 1.7060001
0.10126667 -0.058800001 1.715
0.10502096 -0.059074286 1.723
0.10830286 -0.059074286 1.723
0.11216763 -0.05938286 1.7320001
0.11606667 -0.059691429 1.7410001
0.11938286 -0.059691429 1.7410001
0.12333333 -0.060000002 1.7500001
0.12666667 -0.060000002 1.7500001
0.13066858 -0.060308572 1.7590001
0.13401905 -0.060308572 1.7590001
0.13736953 -0.060308572 1.7590001
0.14144 -0.060617145 1.7680001
0.14554477 -0.060925715 1.7770001
0.14892954 -0.060925715 1.7770001
0.15308572 -0.061234288 1.7860001
0.1572762 -0.061542861 1.7950001
0.16150096 -0.061851431 1.8040001
0.1641143 -0.061542861 1.7950001
0.16930667 -0.062194288 1.8140001
0.17457144 -0.062845714 1.8330001
0.17903429 -0.063188575 1.8430001
0.18353525 -0.063531429 1.853
0.18807429 -0.063874289 1.863
0.19265144 -0.064217143 1.8730001
0.19621906 -0.064217143 1.8730001
0.19978668 -0.064217143 1.8730001
0.2056343 -0.064937145 1.8940001
0.20924191 -0.064937145 1.8940001
0.21284953 -0.064937145 1.8940001
0.23725715 -0.071177147 2.0760002
0.23970096 -0.070731431 2.0630002
0.24363048 -0.070731431 2.0630002
0.24756001 -0.070731431 2.0630002
0.25002667 -0.070320003 2.0510001
0.25541905 -0.070731431 2.0630002
0.25934857 -0.070731431 2.0630002
0.26021525 -0.069908574 2.039
0.050499048 -0.053655241 1.6570001
0.053655241 -0.053655241 1.6570001
0.057085715 -0.053914286 1.6650001
0.060257144 -0.053914286 1.6650001
0.063428573 -0.053914286 1.6650001
0.066600002 -0.053914286 1.6650001
0.07010667 -0.054173335 1.6730001
0.073293336 -0.054173335 1.6730001
0.076480001 -0.054173335 1.6730001
0.079666667 -0.054173335 1.6730001
0.083249524 -0.054432385 1.6810001
0.086451434 -0.054432385 1.6810001
0.089653336 -0.054432385 1.6810001
0.093794286 -0.05498286 1.6980001
0.097485721 -0.055241905 1.7060001
0.10126667 -0.055533335 1.715
0.10502096 -0.055792384 1.723
0.10886858 -0.056083813 1.7320001
0.11275048 -0.056375239 1.7410001
0.11606667 -0.056375239 1.7410001
0.12 -0.056666669 1.7500001
0.12396763 -0.056958098 1.7590001
0.1273181 -0.056958098 1.7590001
0.13066858 -0.056958098 1.7590001
0.13401905 -0.056958098 1.7590001
0.13807239 -0.057249527 1.7680001
0.14216 -0.057540953 1.7770001
0.14628191 -0.057832383 1.7860001
0.14968382 -0.057832383 1.7860001
0.15385714 -0.058123812 1.7950001
0.15806477 -0.058415242 1.8040001
0.16150096 -0.058415242 1.8040001
0.1641143 -0.058123812 1.7950001
0.16930667 -0.058739051 1.8140001
0.17552382 -0.059678096 1.8430001
0.17903429 -0.059678096 1.8430001
0.18452573 -0.060325716 1.863
0.18807429 -0.060325716 1.863
0.19265144 -0.060649525 1.8730001
0.19726667 -0.060973335 1.8830001
0.20085335 -0.060973335 1.8830001
0.2056343 -0.061329525 1.8940001
0.20924191 -0.061329525 1.8940001
0.21284953 -0.061329525 1.8940001
0.23725715 -0.067222856 2.0760002
0.24121144 -0.067222856 2.0760002
0.24516572 -0.067222856 2.0760002
0.24756001 -0.066801906 2.0630002
0.25148952 -0.066801906 2.0630002
0.25702858 -0.067222856 2.0760002
0.26098287 -0.067222856 2.0760002
0.26493716 -0.067222856 2.0760002
0.047342859 -0.050499048 1.6570001
0.050499048 -0.050499048 1.6570001
0.053655241 -0.050499048 1.6570001
0.057085715 -0.050742857 1.6650001
0.060257144 -0.050742857 1.6650001
0.063428573 -0.050742857 1.6650001
0.066600002 -0.050742857 1.6650001
0.07010667 -0.05098667 1.6730001
0.073293336 -0.05098667 1.6730001
0.076480001 -0.05098667 1.6730001
0.079666667 -0.05098667 1.6730001
0.083249524 -0.051230479 1.6810001
0.086451434 -0.051230479 1.6810001
0.089653336 -0.051230479 1.6810001
0.094236195 -0.051992383 1.7060001
0.098000005 -0.052266669 1.715
0.10173905 -0.052510478 1.723
0.10556953 -0.052784763 1.7320001
0.10886858 -0.052784763 1.7320001
0.11275048 -0.053059049 1.7410001
0.11666667 -0.053333335 1.7500001
0.12 -0.053333335 1.7500001
0.12396763 -0.05360762 1.7590001
0.1273181 -0.05360762 1.7590001
0.13066858 -0.05360762 1.7590001
0.13470477 -0.053881906 1.7680001
0.13807239 -0.053881906 1.7680001
0.14288001 -0.054430477 1.7860001
0.14628191 -0.054430477 1.7860001
0.14968382 -0.054430477 1.7860001
0.15462857 -0.054979049 1.8040001
0.15806477 -0.054979049 1.8040001
0.16239619 -0.055283811 1.8140001
0.16585143 -0.055283811 1.8140001
0.17108001 -0.055862859 1.8330001
0.17552382 -0.056167621 1.8430001
0.18000571 -0.056472383 1.853
0.18452573 -0.056777146 1.863
0.18908381 -0.057081908 1.8730001
0.19265144 -0.057081908 1.8730001
0.19621906 -0.057081908 1.8730001
0.20085335 -0.05738667 1.8830001
0.2056343 -0.057721905 1.8940001
0.20802668 -0.05738667 1.8830001
0.21161334 -0.05738667 1.8830001
0.23725715 -0.063268572 2.0760002
0.24121144 -0.063268572 2.0760002
0.24516572 -0.063268572 2.0760002
0.24912001 -0.063268572 2.0760002
0.25307429 -0.063268572 2.0760002
0.25702858 -0.063268572 2.0760002
0.26098287 -0.063268572 2.0760002
0.26493716 -0.063268572 2.0760002
0.047342859 -0.047342859 1.6570001
0.050499048 -0.047342859 1.6570001
0.053914286 -0.047571432 1.6650001
0.057085715 -0.047571432 1.6650001
0.060257144 -0.047571432 1.6650001
0.063428573 -0.047571432 1.6650001
0.066920005 -0.047800001 1.6730001
0.07010667 -0.047800001 1.6730001
0.073293336 -0.047800001 1.6730001
0.076480001 -0.047800001 1.6730001
0.079666667 -0.047800001 1.6730001
0.083249524 -0.048028573 1.6810001
0.086451434 -0.048028573 1.6810001
0.090133339 -0.048285715 1.6900001
0.094236195 -0.048742861 1.7060001
0.098000005 -0.049000002 1.715
0.10173905 -0.049228575 1.723
0.10556953 -0.049485717 1.7320001
0.10886858 -0.049485717 1.7320001
0.11275048 -0.049742859 1.7410001
0.11606667 -0.049742859 1.7410001
0.12061714 -0.050257146 1.7590001
0.12396763 -0.050257146 1.7590001
0.12796953 -0.050514288 1.7680001
0.13133715 -0.050514288 1.7680001
0.13470477 -0.050514288 1.7680001
0.13877524 -0.05077143 1.7770001
0.14216 -0.05077143 1.7770001
0.14628191 -0.051028572 1.7860001
0.1504381 -0.051285718 1.7950001
0.15385714 -0.051285718 1.7950001
0.15806477 -0.05154286 1.8040001
0.16239619 -0.051828574 1.8140001
0.16676572 -0.052114289 1.8240001
0.17024 -0.052114289 1.8240001
0.17552382 -0.052657146 1.8430001
0.18097715 -0.053228572 1.863
0.18551619 -0.053514287 1.8730001
0.18908381 -0.053514287 1.8730001
0.19368 -0.053800002 1.8830001
0.19841905 -0.054114286 1.8940001
0.20202668 -0.054114286 1.8940001
0.2056343 -0.054114286 1.8940001
0.20802668 -0.053800002 1.8830001
0.21161334 -0.053800002 1.8830001
0.23862858 -0.059657145 2.0880001
0.24260572 -0.059657145 2.0880001
0.24658287 -0.059657145 2.0880001
0.24912001 -0.059314288 2.0760002
0.25307429 -0.059314288 2.0760002
0.25702858 -0.059314288 2.0760002
0.26098287 -0.059314288 2.0760002
0.047342859 -0.044186667 1.6570001
0.050499048 -0.044186667 1.6570001
0.053914286 -0.044400003 1.6650001
0.057085715 -0.044400003 1.6650001
0.060257144 -0.044400003 1.6650001
0.063733339 -0.044613335 1.6730001
0.066920005 -0.044613335 1.6730001
0.07010667 -0.044613335 1.6730001
0.073293336 -0.044613335 1.6730001
0.076480001 -0.044613335 1.6730001
0.079666667 -0.044613335 1.6730001
0.083249524 -0.044826668 1.6810001
0.086914286 -0.04506667 1.6900001
0.090133339 -0.04506667 1.6900001
0.094236195 -0.045493335 1.7060001
0.098000005 -0.045733336 1.715
0.10173905 -0.045946669 1.723
0.10502096 -0.045946669 1.723
0.10830286 -0.045946669 1.723
0.11275048 -0.046426669 1.7410001
0.11666667 -0.046666667 1.7500001
0.12061714 -0.046906669 1.7590001
0.12460191 -0.047146667 1.7680001
0.12862095 -0.047386669 1.7770001
0.13200572 -0.047386669 1.7770001
0.13539048 -0.047386669 1.7770001
0.1394781 -0.047626667 1.7860001
0.14288001 -0.047626667 1.7860001
0.14701906 -0.047866669 1.7950001
0.15119238 -0.048106667 1.8040001
0.15548572 -0.048373334 1.8140001
0.15894096 -0.048373334 1.8140001
0.16329144 -0.048640002 1.8240001
0.16676572 -0.048640002 1.8240001
0.17108001 -0.048880003 1.8330001
0.17552382 -0.049146667 1.8430001
0.18097715 -0.049680002 1.863
0.18551619 -0.049946669 1.8730001
0.19009334 -0.050213337 1.8830001
0.19481143 -0.05050667 1.8940001
0.19841905 -0.05050667 1.8940001
0.20202668 -0.05050667 1.8940001
0.2056343 -0.05050667 1.8940001
0.20924191 -0.05050667 1.8940001
0.21284953 -0.05050667 1.8940001
0.23862858 -0.055680003 2.0880001
0.24260572 -0.055680003 2.0880001
0.24658287 -0.055680003 2.0880001
0.24912001 -0.055360001 2.0760002
0.25307429 -0.055360001 2.0760002
0.25702858 -0.055360001 2.0760002
0.047571432 -0.041228574 1.6650001
0.050742857 -0.041228574 1.6650001
0.053914286 -0.041228574 1.6650001
0.057085715 -0.041228574 1.6650001
0.06054667 -0.04142667 1.6730001
0.063733339 -0.04142667 1.6730001
0.066920005 -0.04142667 1.6730001
0.070441909 -0.041624762 1.6810001
0.073643811 -0.041624762 1.6810001
0.07684572 -0.041624762 1.6810001
0.080047622 -0.041624762 1.6810001
0.08369524 -0.04184762 1.6900001
0.086914286 -0.04184762 1.6900001
0.090560004 -0.042045716 1.6980001
0.094236195 -0.042243812 1.7060001
0.098000005 -0.042466667 1.715
0.10173905 -0.042664763 1.723
0.10556953 -0.042887621 1.7320001
0.10943429 -0.043110479 1.7410001
0.11275048 -0.043110479 1.7410001
0.11666667 -0.043333337 1.7500001
0.12061714 -0.043556191 1.7590001
0.12460191 -0.043779049 1.7680001
0.12862095 -0.044001907 1.7770001
0.13200572 -0.044001907 1.7770001
0.1360762 -0.044224765 1.7860001
0.1394781 -0.044224765 1.7860001
0.1436 -0.044447619 1.7950001
0.14701906 -0.044447619 1.7950001
0.15119238 -0.044670478 1.8040001
0.15548572 -0.044918098 1.8140001
0.15981714 -0.045165718 1.8240001
0.16329144 -0.045165718 1.8240001
0.16758858 -0.045388572 1.8330001
0.17108001 -0.045388572 1.8330001
0.17552382 -0.045636192 1.8430001
0.18097715 -0.046131432 1.863
0.18551619 -0.046379048 1.8730001
0.19009334 -0.046626668 1.8830001
0.19481143 -0.04689905 1.8940001
0.19946668 -0.047146667 1.904
0.20309334 -0.047146667 1.904
0.2056343 -0.04689905 1.8940001
0.20924191 -0.04689905 1.8940001
0.21284953 -0.04689905 1.8940001
0.23862858 -0.051702861 2.0880001
0.24260572 -0.051702861 2.0880001
0.24658287 -0.051702861 2.0880001
0.24912001 -0.051405717 2.0760002
0.25307429 -0.051405717 2.0760002
0.25702858 -0.051405717 2.0760002
0.041228574 -0.038057145 1.6650001
0.044400003 -0.038057145 1.6650001
0.047571432 -0.038057145 1.6650001
0.050742857 -0.038057145 1.6650001
0.053914286 -0.038057145 1.6650001
0.057360001 -0.038240001 1.6730001
0.06054667 -0.038240001 1.6730001
0.063733339 -0.038240001 1.6730001
0.066920005 -0.038240001 1.6730001
0.070441909 -0.03842286 1.6810001
0.073643811 -0.03842286 1.6810001
0.07684572 -0.03842286 1.6810001
0.080047622 -0.03842286 1.6810001
0.08369524 -0.038628574 1.6900001
0.086914286 -0.038628574 1.6900001
0.090560004 -0.03881143 1.6980001
0.094236195 -0.038994286 1.7060001
0.098000005 -0.0392 1.715
0.10173905 -0.03938286 1.723
0.10502096 -0.03938286 1.723
0.10943429 -0.039794289 1.7410001
