# .PCD v0.7 - Point Cloud Data file format
VERSION 0.7
FIELDS x y z
SIZE 4 4 4
TYPE F F F
COUNT 1 1 1
WIDTH 1505
HEIGHT 1
VIEWPOINT 0 0 0 1 0 0 0
POINTS 1505
DATA ascii
-0.064685717 0.22316572 1.6980001
-0.061451431 0.22316572 1.6980001
-0.058217146 0.22316572 1.6980001
-0.05498286 0.22316572 1.6980001
-0.051748574 0.22316572 1.6980001
-0.048514288 0.22316572 1.6980001
-0.045280002 0.22316572 1.6980001
-0.042045716 0.22316572 1.6980001
-0.03881143 0.22316572 1.6980001
-0.035577144 0.22316572 1.6980001
-0.032342859 0.22316572 1.6980001
-0.02897143 0.22211429 1.6900001
-0.025752382 0.22211429 1.6900001
-0.022533335 0.22211429 1.6900001
-0.020000001 0.23 1.7500001
-0.016580952 0.22881715 1.7410001
-0.013264762 0.22881715 1.7410001
-0.011188572 0.25733715 1.9580001
-0.0074590477 0.25733715 1.9580001
-0.0037295239 0.25733715 1.9580001
0 0.25733715 1.9580001
0.0074590477 0.25733715 1.9580001
0.011188572 0.25733715 1.9580001
0.014918095 0.25733715 1.9580001
0.018333334 0.25300002 1.9250001
0.020102859 0.23118286 1.7590001
0.023453334 0.23118286 1.7590001
0.02680381 0.23118286 1.7590001
0.030154286 0.23118286 1.7590001
0.033504762 0.23118286 1.7590001
0.037232384 0.23354858 1.7770001
0.040411431 0.23236573 1.7680001
0.043779049 0.23236573 1.7680001
0.047146667 0.23236573 1.7680001
0.050514288 0.23236573 1.7680001
0.05360762 0.23118286 1.7590001
0.056958098 0.23118286 1.7590001
0.060000002 0.23 1.7500001
0.06365905 0.23118286 1.7590001
0.06666667 0.23 1.7500001
0.070360005 0.23118286 1.7590001
0.073710479 0.23118286 1.7590001
0.077060953 0.23118286 1.7590001
0.080411434 0.23118286 1.7590001
0.083761908 0.23118286 1.7590001
0.087558098 0.23236573 1.7680001
0.090925716 0.23236573 1.7680001
0.094773337 0.23354858 1.7770001
0.098158099 0.23354858 1.7770001
0.10154286 0.23354858 1.7770001
0.10492762 0.23354858 1.7770001
0.10886095 0.23473144 1.7860001
0.11169714 0.23354858 1.7770001
0.11566477 0.23473144 1.7860001
0.11846667 0.23354858 1.7770001
0.12185143 0.23354858 1.7770001
0.12396763 0.23118286 1.7590001
0.13129905 0.23841144 1.8140001
0.13334286 0.23591429 1.7950001
0.13897143 0.23972572 1.8240001
0.14549144 0.24485144 1.863
0.14984001 0.24616572 1.8730001
0.15258858 0.24485144 1.863
0.15613715 0.24485144 1.863
0.15882857 0.24353716 1.853
0.16235811 0.24353716 1.853
0.16588762 0.24353716 1.853
0.16941714 0.24353716 1.853
0.17108001 0.24090858 1.8330001
0.17457144 0.24090858 1.8330001
0.17806287 0.24090858 1.8330001
0.18254477 0.24222286 1.8430001
0.18504572 0.24090858 1.8330001
0.18956572 0.24222286 1.8430001
0.19108573 0.23972572 1.8240001
0.19456001 0.23972572 1.8240001
0.19901143 0.24090858 1.8330001
0.20250286 0.24090858 1.8330001
0.20711811 0.24222286 1.8430001
0.21177144 0.24353716 1.853
0.21530096 0.24353716 1.853
0.21883048 0.24353716 1.853
0.22236001 0.24353716 1.853
0.22588953 0.24353716 1.853
0.23065715 0.24485144 1.863
0.23420572 0.24485144 1.863
0.24707049 0.25444573 1.9360001
0.25075811 0.25444573 1.9360001
0.25444573 0.25444573 1.9360001
0.24973334 0.24616572 1.8730001
0.25330096 0.24616572 1.8730001
0.26112002 0.25024 1.904
0.26919621 0.25444573 1.9360001
0.2744343 0.25589144 1.9470001
0.27814287 0.25589144 1.9470001
0.28662857 0.26022857 1.9800001
0.2904 0.26022857 1.9800001
-0.24353716 0.24706668 1.853
-0.24130286 0.2484 1.863
-0.23903048 0.24973334 1.8730001
-0.23546286 0.24973334 1.8730001
-0.23065715 0.2484 1.863
-0.22710858 0.2484 1.863
-0.22356001 0.2484 1.863
-0.22119239 0.24973334 1.8730001
-0.21762477 0.24973334 1.8730001
-0.23165715 0.27026668 2.0270002
-0.2277962 0.27026668 2.0270002
-0.22260953 0.26866668 2.0150001
-0.21877144 0.26866668 2.0150001
-0.21621335 0.27026668 2.0270002
-0.21360953 0.27186668 2.039
-0.21096 0.27346668 2.0510001
-0.20705333 0.27346668 2.0510001
-0.20433524 0.27506667 2.0630002
-0.20040572 0.27506667 2.0630002
-0.1977143 0.27680001 2.0760002
-0.19376001 0.27680001 2.0760002
-0.19209144 0.28013334 2.1010001
-0.1733181 0.25813335 1.9360001
-0.16963048 0.25813335 1.9360001
-0.16500001 0.25666669 1.9250001
-0.16049525 0.25533333 1.9150001
-0.15594667 0.25386667 1.904
-0.15152 0.25253335 1.8940001
-0.14705335 0.25106668 1.8830001
-0.14270477 0.24973334 1.8730001
-0.13913715 0.24973334 1.8730001
-0.13556953 0.24973334 1.8730001
-0.13270667 0.25106668 1.8830001
-0.12912001 0.25106668 1.8830001
-0.13053334 0.26106668 1.9580001
-0.12680382 0.26106668 1.9580001
-0.12307429 0.26106668 1.9580001
-0.11867429 0.25960001 1.9470001
-0.11496572 0.25960001 1.9470001
-0.11188572 0.26106668 1.9580001
-0.1081562 0.26106668 1.9580001
-0.10442667 0.26106668 1.9580001
-0.10069714 0.26106668 1.9580001
-0.096967623 0.26106668 1.9580001
-0.077988572 0.22746667 1.7060001
-0.074739054 0.22746667 1.7060001
-0.071489528 0.22746667 1.7060001
-0.067919999 0.2264 1.6980001
-0.064685717 0.2264 1.6980001
-0.061451431 0.2264 1.6980001
-0.058217146 0.2264 1.6980001
-0.05498286 0.2264 1.6980001
-0.051992383 0.22746667 1.7060001
-0.048514288 0.2264 1.6980001
-0.045280002 0.2264 1.6980001
-0.042045716 0.2264 1.6980001
-0.03881143 0.2264 1.6980001
-0.035577144 0.2264 1.6980001
-0.032342859 0.2264 1.6980001
-0.02897143 0.22533335 1.6900001
-0.025752382 0.22533335 1.6900001
-0.022533335 0.22533335 1.6900001
-0.020000001 0.23333335 1.7500001
-0.016580952 0.23213334 1.7410001
-0.013264762 0.23213334 1.7410001
-0.0066323811 0.23213334 1.7410001
-0.0033161906 0.23213334 1.7410001
0.0074590477 0.26106668 1.9580001
0.010000001 0.23333335 1.7500001
0.013333334 0.23333335 1.7500001
0.016752381 0.23453334 1.7590001
0.020102859 0.23453334 1.7590001
0.023453334 0.23453334 1.7590001
0.02680381 0.23453334 1.7590001
0.030154286 0.23453334 1.7590001
0.033504762 0.23453334 1.7590001
0.036855239 0.23453334 1.7590001
0.040205717 0.23453334 1.7590001
0.043556191 0.23453334 1.7590001
0.046906669 0.23453334 1.7590001
0.050257146 0.23453334 1.7590001
0.05360762 0.23453334 1.7590001
0.056958098 0.23453334 1.7590001
0.060000002 0.23333335 1.7500001
0.063333333 0.23333335 1.7500001
0.06666667 0.23333335 1.7500001
0.07 0.23333335 1.7500001
0.073333338 0.23333335 1.7500001
0.076666668 0.23333335 1.7500001
0.080000006 0.23333335 1.7500001
0.083761908 0.23453334 1.7590001
0.087112382 0.23453334 1.7590001
0.090462863 0.23453334 1.7590001
0.093813337 0.23453334 1.7590001
0.097660959 0.23573335 1.7680001
0.10102858 0.23573335 1.7680001
0.10439619 0.23573335 1.7680001
0.10776381 0.23573335 1.7680001
0.11056572 0.23453334 1.7590001
0.11449905 0.23573335 1.7680001
0.11786667 0.23573335 1.7680001
0.12123429 0.23573335 1.7680001
0.12396763 0.23453334 1.7590001
0.1273181 0.23453334 1.7590001
0.13133715 0.23573335 1.7680001
0.13401905 0.23453334 1.7590001
0.13807239 0.23573335 1.7680001
0.14144 0.23573335 1.7680001
0.15258858 0.2484 1.863
0.15613715 0.2484 1.863
0.15634286 0.2432 1.8240001
0.16060571 0.24440001 1.8330001
0.16409715 0.24440001 1.8330001
0.16758858 0.24440001 1.8330001
0.16930667 0.24186668 1.8140001
0.1737143 0.2432 1.8240001
0.17718858 0.2432 1.8240001
0.18066287 0.2432 1.8240001
0.18413715 0.2432 1.8240001
0.18761143 0.2432 1.8240001
0.18899049 0.24053334 1.8040001
0.19456001 0.2432 1.8240001
0.19803429 0.2432 1.8240001
0.20150858 0.2432 1.8240001
0.20599429 0.24440001 1.8330001
0.21062858 0.24573334 1.8430001
0.21297716 0.24440001 1.8330001
0.21764953 0.24573334 1.8430001
0.22116001 0.24573334 1.8430001
0.22467048 0.24573334 1.8430001
0.22941905 0.24706668 1.853
0.23294859 0.24706668 1.853
0.23520191 0.24573334 1.8430001
0.24000762 0.24706668 1.853
0.24485144 0.2484 1.863
0.2484 0.2484 1.863
0.2519486 0.2484 1.863
0.25686857 0.24973334 1.8730001
0.26335621 0.25253335 1.8940001
0.27133334 0.25666669 1.9250001
0.27500001 0.25666669 1.9250001
-0.24353716 0.2505962 1.853
-0.24130286 0.2519486 1.863
-0.2377543 0.2519486 1.863
-0.23420572 0.2519486 1.863
-0.22941905 0.2505962 1.853
-0.22588953 0.2505962 1.853
-0.22356001 0.2519486 1.863
-0.22001144 0.2519486 1.863
-0.21762477 0.25330096 1.8730001
-0.22891429 0.27088192 2.003
-0.22509906 0.27088192 2.003
-0.22128382 0.27088192 2.003
-0.21877144 0.27250478 2.0150001
-0.21621335 0.27412763 2.0270002
-0.2123524 0.27412763 2.0270002
-0.21096 0.27737334 2.0510001
-0.20826477 0.2789962 2.0630002
-0.20562287 0.2807543 2.0760002
-0.20283429 0.28237715 2.0880001
-0.1977143 0.2807543 2.0760002
-0.19609334 0.28413525 2.1010001
-0.19565715 0.28940955 2.1400001
-0.17233334 0.26033333 1.9250001
-0.16779049 0.25898096 1.9150001
-0.16320001 0.25749335 1.904
-0.15957335 0.25749335 1.904
-0.15422668 0.25465333 1.8830001
-0.14984001 0.25330096 1.8730001
-0.14627239 0.25330096 1.8730001
-0.14194286 0.2519486 1.863
-0.13765143 0.2505962 1.853
-0.13412191 0.2505962 1.853
-0.13129714 0.2519486 1.863
-0.12843429 0.25330096 1.8730001
-0.12553334 0.25465333 1.8830001
-0.12330667 0.25749335 1.904
-0.12238286 0.26330858 1.9470001
-0.11867429 0.26330858 1.9470001
-0.11496572 0.26330858 1.9470001
-0.11125714 0.26330858 1.9470001
-0.099649526 0.24396953 1.8040001
-0.096213333 0.24396953 1.8040001
-0.092777148 0.24396953 1.8040001
-0.089340955 0.24396953 1.8040001
-0.077622861 0.2296343 1.6980001
-0.074388571 0.2296343 1.6980001
-0.071154289 0.2296343 1.6980001
-0.067919999 0.2296343 1.6980001
-0.064685717 0.2296343 1.6980001
-0.061451431 0.2296343 1.6980001
-0.058217146 0.2296343 1.6980001
-0.055241905 0.2307162 1.7060001
-0.051992383 0.2307162 1.7060001
-0.048742861 0.2307162 1.7060001
-0.045280002 0.2296343 1.6980001
-0.042045716 0.2296343 1.6980001
-0.03881143 0.2296343 1.6980001
-0.035577144 0.2296343 1.6980001
-0.032342859 0.2296343 1.6980001
-0.029108573 0.2296343 1.6980001
-0.025874287 0.2296343 1.6980001
-0.022640001 0.2296343 1.6980001
-0.020000001 0.23666668 1.7500001
-0.016580952 0.23544954 1.7410001
-0.013264762 0.23544954 1.7410001
-0.0099485721 0.23544954 1.7410001
-0.0066323811 0.23544954 1.7410001
-0.0033161906 0.23544954 1.7410001
0.0033161906 0.23544954 1.7410001
0.0066323811 0.23544954 1.7410001
0.010000001 0.23666668 1.7500001
0.013333334 0.23666668 1.7500001
0.016666668 0.23666668 1.7500001
0.020000001 0.23666668 1.7500001
0.023333333 0.23666668 1.7500001
0.026666667 0.23666668 1.7500001
0.030000001 0.23666668 1.7500001
0.033333335 0.23666668 1.7500001
0.036855239 0.23788382 1.7590001
0.040205717 0.23788382 1.7590001
0.043556191 0.23788382 1.7590001
0.046906669 0.23788382 1.7590001
0.050000001 0.23666668 1.7500001
0.05360762 0.23788382 1.7590001
0.056666669 0.23666668 1.7500001
0.060000002 0.23666668 1.7500001
0.063333333 0.23666668 1.7500001
0.06666667 0.23666668 1.7500001
0.07 0.23666668 1.7500001
0.073333338 0.23666668 1.7500001
0.076666668 0.23666668 1.7500001
0.080000006 0.23666668 1.7500001
0.083761908 0.23788382 1.7590001
0.087112382 0.23788382 1.7590001
0.090462863 0.23788382 1.7590001
0.093813337 0.23788382 1.7590001
0.097163811 0.23788382 1.7590001
0.10051429 0.23788382 1.7590001
0.10386477 0.23788382 1.7590001
0.10721524 0.23788382 1.7590001
0.11056572 0.23788382 1.7590001
0.1139162 0.23788382 1.7590001
0.11726667 0.23788382 1.7590001
0.12061714 0.23788382 1.7590001
0.12396763 0.23788382 1.7590001
0.1273181 0.23788382 1.7590001
0.13066858 0.23788382 1.7590001
0.13401905 0.23788382 1.7590001
0.13736953 0.23788382 1.7590001
0.14072001 0.23788382 1.7590001
0.14480762 0.23910096 1.7680001
0.14892954 0.2403181 1.7770001
0.15308572 0.24153525 1.7860001
0.1572762 0.24275239 1.7950001
0.16069524 0.24275239 1.7950001
0.16493715 0.24396953 1.8040001
0.16753334 0.24275239 1.7950001
0.17095239 0.24275239 1.7950001
0.17437144 0.24275239 1.7950001
0.17868191 0.24396953 1.8040001
0.1821181 0.24396953 1.8040001
0.1855543 0.24396953 1.8040001
0.18804763 0.24275239 1.7950001
0.19349334 0.24532191 1.8140001
0.19694857 0.24532191 1.8140001
0.20040381 0.24532191 1.8140001
0.20498286 0.2466743 1.8240001
0.20948572 0.24789144 1.8330001
0.21193144 0.2466743 1.8240001
0.21646857 0.24789144 1.8330001
0.21996 0.24789144 1.8330001
0.22345144 0.24789144 1.8330001
0.22694287 0.24789144 1.8330001
0.2304343 0.24789144 1.8330001
0.23392573 0.24789144 1.8330001
0.23871239 0.24924383 1.8430001
0.24353716 0.2505962 1.853
0.24706668 0.2505962 1.853
0.2505962 0.2505962 1.853
0.25549716 0.2519486 1.863
0.25904572 0.2519486 1.863
0.26400381 0.25330096 1.8730001
0.26757145 0.25330096 1.8730001
-0.24130286 0.25549716 1.863
-0.2377543 0.25549716 1.863
-0.23420572 0.25549716 1.863
-0.23065715 0.25549716 1.863
-0.22710858 0.25549716 1.863
-0.22356001 0.25549716 1.863
-0.22119239 0.25686857 1.8730001
-0.22750096 0.26852572 1.9580001
-0.22765715 0.27318859 1.9920001
-0.22509906 0.27469715 2.003
-0.22128382 0.27469715 2.003
-0.21877144 0.27634287 2.0150001
-0.21621335 0.27798858 2.0270002
-0.21360953 0.2796343 2.039
-0.21096 0.28128001 2.0510001
-0.20826477 0.28292572 2.0630002
-0.20562287 0.28470859 2.0760002
-0.20283429 0.2863543 2.0880001
-0.1977143 0.28470859 2.0760002
-0.19609334 0.28813717 2.1010001
-0.17508572 0.26262859 1.9150001
-0.1714381 0.26262859 1.9150001
-0.16595048 0.25974858 1.8940001
-0.16054286 0.25686857 1.8730001
-0.15697524 0.25686857 1.8730001
-0.15258858 0.25549716 1.863
-0.14824 0.25412571 1.853
-0.14471048 0.25412571 1.853
-0.14041905 0.2527543 1.8430001
-0.13690858 0.2527543 1.8430001
-0.1333981 0.2527543 1.8430001
-0.12988763 0.2527543 1.8430001
-0.12706286 0.25412571 1.853
-0.12286667 0.2527543 1.8430001
-0.11935619 0.2527543 1.8430001
-0.11584572 0.2527543 1.8430001
-0.11733334 0.264 1.9250001
-0.11366667 0.264 1.9250001
-0.10308572 0.24740572 1.8040001
-0.099649526 0.24740572 1.8040001
-0.096213333 0.24740572 1.8040001
-0.092777148 0.24740572 1.8040001
-0.088895239 0.24617144 1.7950001
-0.085476197 0.24617144 1.7950001
-0.077622861 0.23286858 1.6980001
-0.074388571 0.23286858 1.6980001
-0.071154289 0.23286858 1.6980001
-0.067919999 0.23286858 1.6980001
-0.064685717 0.23286858 1.6980001
-0.061451431 0.23286858 1.6980001
-0.058217146 0.23286858 1.6980001
-0.055241905 0.23396572 1.7060001
-0.051992383 0.23396572 1.7060001
-0.048742861 0.23396572 1.7060001
-0.045280002 0.23286858 1.6980001
-0.042045716 0.23286858 1.6980001
-0.03881143 0.23286858 1.6980001
-0.035577144 0.23286858 1.6980001
-0.032342859 0.23286858 1.6980001
-0.029108573 0.23286858 1.6980001
-0.025874287 0.23286858 1.6980001
-0.023213334 0.23876572 1.7410001
-0.020000001 0.24000001 1.7500001
-0.016666668 0.24000001 1.7500001
-0.013333334 0.24000001 1.7500001
-0.0099485721 0.23876572 1.7410001
-0.0066323811 0.23876572 1.7410001
-0.0033161906 0.23876572 1.7410001
0 0.23876572 1.7410001
0.0033161906 0.23876572 1.7410001
0.0066323811 0.23876572 1.7410001
0.010000001 0.24000001 1.7500001
0.013333334 0.24000001 1.7500001
0.016666668 0.24000001 1.7500001
0.020000001 0.24000001 1.7500001
0.023333333 0.24000001 1.7500001
0.026529524 0.23876572 1.7410001
0.029845715 0.23876572 1.7410001
0.033333335 0.24000001 1.7500001
0.036666669 0.24000001 1.7500001
0.040000003 0.24000001 1.7500001
0.043333337 0.24000001 1.7500001
0.046666667 0.24000001 1.7500001
0.050000001 0.24000001 1.7500001
0.053333335 0.24000001 1.7500001
0.056666669 0.24000001 1.7500001
0.060000002 0.24000001 1.7500001
0.063333333 0.24000001 1.7500001
0.06666667 0.24000001 1.7500001
0.07 0.24000001 1.7500001
0.073333338 0.24000001 1.7500001
0.076666668 0.24000001 1.7500001
0.080000006 0.24000001 1.7500001
0.083333336 0.24000001 1.7500001
0.086666673 0.24000001 1.7500001
0.090000004 0.24000001 1.7500001
0.093333334 0.24000001 1.7500001
0.096666671 0.24000001 1.7500001
0.1 0.24000001 1.7500001
0.10333334 0.24000001 1.7500001
0.10666667 0.24000001 1.7500001
0.11000001 0.24000001 1.7500001
0.11333334 0.24000001 1.7500001
0.11666667 0.24000001 1.7500001
0.12061714 0.24123429 1.7590001
0.12396763 0.24123429 1.7590001
0.1273181 0.24123429 1.7590001
0.13066858 0.24123429 1.7590001
0.13401905 0.24123429 1.7590001
0.13736953 0.24123429 1.7590001
0.14072001 0.24123429 1.7590001
0.14407048 0.24123429 1.7590001
0.14817524 0.24246858 1.7680001
0.15077144 0.24123429 1.7590001
0.15491048 0.24246858 1.7680001
0.15908381 0.24370286 1.7770001
0.16329144 0.24493715 1.7860001
0.16669334 0.24493715 1.7860001
0.17009525 0.24493715 1.7860001
0.17349716 0.24493715 1.7860001
0.17689906 0.24493715 1.7860001
0.18120953 0.24617144 1.7950001
0.18370287 0.24493715 1.7860001
0.18804763 0.24617144 1.7950001
0.19242667 0.24740572 1.8040001
0.19390857 0.24493715 1.7860001
0.19830477 0.24617144 1.7950001
0.20172381 0.24617144 1.7950001
0.20617144 0.24740572 1.8040001
0.20960763 0.24740572 1.8040001
0.21422477 0.24877715 1.8140001
0.21768001 0.24877715 1.8140001
0.22113524 0.24877715 1.8140001
0.22459048 0.24877715 1.8140001
0.22804572 0.24877715 1.8140001
0.23277715 0.25014859 1.8240001
0.23625144 0.25014859 1.8240001
0.24090858 0.25138286 1.8330001
0.24573334 0.2527543 1.8430001
0.2505962 0.25412571 1.853
0.25412571 0.25412571 1.853
0.25904572 0.25549716 1.863
0.26259428 0.25549716 1.863
0.26614287 0.25549716 1.863
-0.24130286 0.25904572 1.863
-0.2377543 0.25904572 1.863
-0.23420572 0.25904572 1.863
-0.23065715 0.25904572 1.863
-0.22710858 0.25904572 1.863
-0.22356001 0.25904572 1.863
-0.22119239 0.26043621 1.8730001
-0.22750096 0.27225524 1.9580001
-0.22765715 0.27698287 1.9920001
-0.22509906 0.27851239 2.003
-0.22260953 0.28018096 2.0150001
-0.21877144 0.28018096 2.0150001
-0.21749334 0.28351811 2.039
-0.21486667 0.28518668 2.0510001
-0.21219429 0.28685525 2.0630002
-0.20826477 0.28685525 2.0630002
-0.20562287 0.28866288 2.0760002
-0.20166858 0.28866288 2.0760002
-0.1977143 0.28866288 2.0760002
-0.17770667 0.26474667 1.904
-0.17408 0.26474667 1.904
-0.16955811 0.26335621 1.8940001
-0.16498667 0.26182666 1.8830001
-0.15968572 0.25904572 1.863
-0.15529905 0.25765523 1.853
-0.15176953 0.25765523 1.853
-0.14744 0.25626478 1.8430001
-0.14392953 0.25626478 1.8430001
-0.13965715 0.25487429 1.8330001
-0.13616572 0.25487429 1.8330001
-0.13202286 0.25362286 1.8240001
-0.12918286 0.25487429 1.8330001
-0.12637715 0.25626478 1.8430001
-0.12286667 0.25626478 1.8430001
-0.11870857 0.25487429 1.8330001
-0.11465143 0.25362286 1.8240001
-0.11056762 0.2522324 1.8140001
-0.10652191 0.25084192 1.8040001
-0.10308572 0.25084192 1.8040001
-0.099649526 0.25084192 1.8040001
-0.095733337 0.24959049 1.7950001
-0.092314288 0.24959049 1.7950001
-0.08844953 0.24833906 1.7860001
-0.085047625 0.24833906 1.7860001
-0.077622861 0.23610286 1.6980001
-0.074388571 0.23610286 1.6980001
-0.071154289 0.23610286 1.6980001
-0.067919999 0.23610286 1.6980001
-0.064685717 0.23610286 1.6980001
-0.061451431 0.23610286 1.6980001
-0.058217146 0.23610286 1.6980001
-0.055241905 0.23721525 1.7060001
-0.051992383 0.23721525 1.7060001
-0.048742861 0.23721525 1.7060001
-0.045280002 0.23610286 1.6980001
-0.042045716 0.23610286 1.6980001
-0.03881143 0.23610286 1.6980001
-0.035577144 0.23610286 1.6980001
-0.032342859 0.23610286 1.6980001
-0.029245716 0.23721525 1.7060001
-0.026133334 0.23846668 1.715
-0.023213334 0.24208191 1.7410001
-0.019897144 0.24208191 1.7410001
-0.016580952 0.24208191 1.7410001
-0.013264762 0.24208191 1.7410001
-0.0099485721 0.24208191 1.7410001
-0.0066323811 0.24208191 1.7410001
-0.0033161906 0.24208191 1.7410001
0 0.24208191 1.7410001
0.0033161906 0.24208191 1.7410001
0.0066323811 0.24208191 1.7410001
0.0099485721 0.24208191 1.7410001
0.013264762 0.24208191 1.7410001
0.016580952 0.24208191 1.7410001
0.019897144 0.24208191 1.7410001
0.023213334 0.24208191 1.7410001
0.026529524 0.24208191 1.7410001
0.029845715 0.24208191 1.7410001
0.033161905 0.24208191 1.7410001
0.036666669 0.24333334 1.7500001
0.040000003 0.24333334 1.7500001
0.043333337 0.24333334 1.7500001
0.046666667 0.24333334 1.7500001
0.049742859 0.24208191 1.7410001
0.053333335 0.24333334 1.7500001
0.056666669 0.24333334 1.7500001
0.059691429 0.24208191 1.7410001
0.063007623 0.24208191 1.7410001
0.066323809 0.24208191 1.7410001
0.069640003 0.24208191 1.7410001
0.07295619 0.24208191 1.7410001
0.076272383 0.24208191 1.7410001
0.079588577 0.24208191 1.7410001
0.082904764 0.24208191 1.7410001
0.086220957 0.24208191 1.7410001
0.089537144 0.24208191 1.7410001
0.092853338 0.24208191 1.7410001
0.096169524 0.24208191 1.7410001
0.099485718 0.24208191 1.7410001
0.10280191 0.24208191 1.7410001
0.1061181 0.24208191 1.7410001
0.10943429 0.24208191 1.7410001
0.11275048 0.24208191 1.7410001
0.11666667 0.24333334 1.7500001
0.12 0.24333334 1.7500001
0.12333333 0.24333334 1.7500001
0.12666667 0.24333334 1.7500001
0.13000001 0.24333334 1.7500001
0.13333334 0.24333334 1.7500001
0.13666667 0.24333334 1.7500001
0.14 0.24333334 1.7500001
0.14407048 0.24458477 1.7590001
0.14742096 0.24458477 1.7590001
0.15077144 0.24458477 1.7590001
0.15412191 0.24458477 1.7590001
0.15747239 0.24458477 1.7590001
0.16082287 0.24458477 1.7590001
0.16501334 0.2458362 1.7680001
0.16838096 0.2458362 1.7680001
0.17174858 0.2458362 1.7680001
0.1751162 0.2458362 1.7680001
0.17848381 0.2458362 1.7680001
0.18092573 0.24458477 1.7590001
0.18521905 0.2458362 1.7680001
0.18954667 0.24708763 1.7770001
0.19293143 0.24708763 1.7770001
0.1963162 0.24708763 1.7770001
0.20071238 0.24833906 1.7860001
0.20411429 0.24833906 1.7860001
0.20856191 0.24959049 1.7950001
0.21198095 0.24959049 1.7950001
0.21540001 0.24959049 1.7950001
0.21991619 0.25084192 1.8040001
0.22335239 0.25084192 1.8040001
0.22678858 0.25084192 1.8040001
0.23150097 0.2522324 1.8140001
0.23625144 0.25362286 1.8240001
0.24090858 0.25487429 1.8330001
0.24440001 0.25487429 1.8330001
0.24924383 0.25626478 1.8430001
0.25412571 0.25765523 1.853
0.25765523 0.25765523 1.853
0.26259428 0.25904572 1.863
0.26757145 0.26043621 1.8730001
0.27113906 0.26043621 1.8730001
-0.2425981 0.26400381 1.8730001
-0.23903048 0.26400381 1.8730001
-0.23546286 0.26400381 1.8730001
-0.23189525 0.26400381 1.8730001
-0.22710858 0.26259428 1.863
-0.22476001 0.26400381 1.8730001
-0.22237334 0.26541334 1.8830001
-0.22622287 0.2744343 1.9470001
-0.22502857 0.27753526 1.9690001
-0.22251429 0.27908573 1.9800001
-0.22128382 0.28232762 2.003
-0.21746857 0.28232762 2.003
-0.21621335 0.28571048 2.0270002
-0.21486667 0.28909335 2.0510001
-0.21219429 0.29078478 2.0630002
-0.20826477 0.29078478 2.0630002
-0.20433524 0.29078478 2.0630002
-0.20166858 0.29261714 2.0760002
-0.17933334 0.26541334 1.8830001
-0.17574668 0.26541334 1.8830001
-0.17216 0.26541334 1.8830001
-0.16857333 0.26541334 1.8830001
-0.16411048 0.26400381 1.8730001
-0.15882857 0.26118478 1.853
-0.15529905 0.26118478 1.853
-0.15095048 0.25977525 1.8430001
-0.14744 0.25977525 1.8430001
-0.14314857 0.25836572 1.8330001
-0.13897143 0.25709715 1.8240001
-0.13549715 0.25709715 1.8240001
-0.13129905 0.25568762 1.8140001
-0.12854858 0.25709715 1.8240001
-0.1250743 0.25709715 1.8240001
-0.1216 0.25709715 1.8240001
-0.1174781 0.25568762 1.8140001
-0.11402286 0.25568762 1.8140001
-0.1099581 0.25427809 1.8040001
-0.10599048 0.25300953 1.7950001
-0.10257144 0.25300953 1.7950001
-0.099152386 0.25300953 1.7950001
-0.095733337 0.25300953 1.7950001
-0.091851436 0.25174096 1.7860001
-0.08844953 0.25174096 1.7860001
-0.085047625 0.25174096 1.7860001
-0.077622861 0.23933715 1.6980001
-0.074388571 0.23933715 1.6980001
-0.071154289 0.23933715 1.6980001
-0.067919999 0.23933715 1.6980001
-0.064685717 0.23933715 1.6980001
-0.061451431 0.23933715 1.6980001
-0.058491431 0.24046478 1.7060001
-0.055241905 0.24046478 1.7060001
-0.051992383 0.24046478 1.7060001
-0.048742861 0.24046478 1.7060001
-0.045280002 0.23933715 1.6980001
-0.042045716 0.23933715 1.6980001
-0.03881143 0.23933715 1.6980001
-0.035577144 0.23933715 1.6980001
-0.032495238 0.24046478 1.7060001
-0.029537143 0.24286096 1.723
-0.026255239 0.24286096 1.723
-0.023213334 0.2453981 1.7410001
-0.020000001 0.24666667 1.7500001
-0.016666668 0.24666667 1.7500001
-0.013264762 0.2453981 1.7410001
-0.0099485721 0.2453981 1.7410001
-0.0066323811 0.2453981 1.7410001
-0.0033161906 0.2453981 1.7410001
0 0.2453981 1.7410001
0.0033161906 0.2453981 1.7410001
0.0066323811 0.2453981 1.7410001
0.0099485721 0.2453981 1.7410001
0.013264762 0.2453981 1.7410001
0.016580952 0.2453981 1.7410001
0.019897144 0.2453981 1.7410001
0.023213334 0.2453981 1.7410001
0.026529524 0.2453981 1.7410001
0.02969143 0.24412954 1.7320001
0.032990478 0.24412954 1.7320001
0.036478095 0.2453981 1.7410001
0.039794289 0.2453981 1.7410001
0.043110479 0.2453981 1.7410001
0.046426669 0.2453981 1.7410001
0.049742859 0.2453981 1.7410001
0.053059049 0.2453981 1.7410001
0.056375239 0.2453981 1.7410001
0.059691429 0.2453981 1.7410001
0.063007623 0.2453981 1.7410001
0.066323809 0.2453981 1.7410001
0.069280006 0.24412954 1.7320001
0.07295619 0.2453981 1.7410001
0.075878099 0.24412954 1.7320001
0.079177149 0.24412954 1.7320001
0.082476191 0.24412954 1.7320001
0.085775241 0.24412954 1.7320001
0.089074291 0.24412954 1.7320001
0.092373334 0.24412954 1.7320001
0.095672384 0.24412954 1.7320001
0.098971434 0.24412954 1.7320001
0.10227048 0.24412954 1.7320001
0.10556953 0.24412954 1.7320001
0.10886858 0.24412954 1.7320001
0.11216763 0.24412954 1.7320001
0.11546667 0.24412954 1.7320001
0.11938286 0.2453981 1.7410001
0.12269905 0.2453981 1.7410001
0.12601525 0.2453981 1.7410001
0.12933144 0.2453981 1.7410001
0.13264762 0.2453981 1.7410001
0.13666667 0.24666667 1.7500001
0.14 0.24666667 1.7500001
0.14333335 0.24666667 1.7500001
0.14742096 0.24793525 1.7590001
0.15000001 0.24666667 1.7500001
0.15412191 0.24793525 1.7590001
0.15666667 0.24666667 1.7500001
0.16082287 0.24793525 1.7590001
0.16417333 0.24793525 1.7590001
0.16752382 0.24793525 1.7590001
0.1708743 0.24793525 1.7590001
0.17422476 0.24793525 1.7590001
0.17757525 0.24793525 1.7590001
0.18092573 0.24793525 1.7590001
0.18427619 0.24793525 1.7590001
0.18858667 0.24920382 1.7680001
0.1919543 0.24920382 1.7680001
0.19532192 0.24920382 1.7680001
0.19970097 0.2504724 1.7770001
0.20308572 0.2504724 1.7770001
0.20751619 0.25174096 1.7860001
0.2109181 0.25174096 1.7860001
0.21432 0.25174096 1.7860001
0.21772191 0.25174096 1.7860001
0.22223811 0.25300953 1.7950001
0.22565715 0.25300953 1.7950001
0.22907619 0.25300953 1.7950001
0.2349562 0.25568762 1.8140001
0.23972572 0.25709715 1.8240001
0.2432 0.25709715 1.8240001
0.24789144 0.25836572 1.8330001
0.2527543 0.25977525 1.8430001
0.25765523 0.26118478 1.853
0.26118478 0.26118478 1.853
0.26614287 0.26259428 1.863
0.26969144 0.26259428 1.863
-0.2425981 0.26757145 1.8730001
-0.23903048 0.26757145 1.8730001
-0.23546286 0.26757145 1.8730001
-0.23189525 0.26757145 1.8730001
-0.22832763 0.26757145 1.8730001
-0.22596 0.26900002 1.8830001
-0.22237334 0.26900002 1.8830001
-0.22622287 0.27814287 1.9470001
-0.22502857 0.28128573 1.9690001
-0.22251429 0.28285715 1.9800001
-0.22006857 0.28457144 1.9920001
-0.21746857 0.28614286 2.003
-0.21749334 0.29128572 2.039
-0.21486667 0.29300001 2.0510001
-0.21219429 0.2947143 2.0630002
-0.20957714 0.29657143 2.0760002
-0.20433524 0.2947143 2.0630002
-0.20166858 0.29657143 2.0760002
-0.17933334 0.26900002 1.8830001
-0.17574668 0.26900002 1.8830001
-0.17124572 0.26757145 1.8730001
-0.1676781 0.26757145 1.8730001
-0.16235811 0.2647143 1.853
-0.15797144 0.26328573 1.8430001
-0.15446095 0.26328573 1.8430001
-0.15013143 0.26185715 1.8330001
-0.14664 0.26185715 1.8330001
-0.14244571 0.26057145 1.8240001
-0.13820952 0.25914288 1.8140001
-0.13475429 0.25914288 1.8140001
-0.13129905 0.25914288 1.8140001
-0.12784381 0.25914288 1.8140001
-0.12438858 0.25914288 1.8140001
-0.12093334 0.25914288 1.8140001
-0.1174781 0.25914288 1.8140001
-0.11339429 0.2577143 1.8040001
-0.1099581 0.2577143 1.8040001
-0.10599048 0.25642857 1.7950001
-0.10257144 0.25642857 1.7950001
-0.099152386 0.25642857 1.7950001
-0.095733337 0.25642857 1.7950001
-0.091851436 0.25514287 1.7860001
-0.08844953 0.25514287 1.7860001
-0.085047625 0.25514287 1.7860001
-0.077622861 0.24257144 1.6980001
-0.074388571 0.24257144 1.6980001
-0.071154289 0.24257144 1.6980001
-0.067919999 0.24257144 1.6980001
-0.064685717 0.24257144 1.6980001
-0.061451431 0.24257144 1.6980001
-0.058217146 0.24257144 1.6980001
-0.055241905 0.24371429 1.7060001
-0.051992383 0.24371429 1.7060001
-0.048742861 0.24371429 1.7060001
-0.045280002 0.24257144 1.6980001
-0.042045716 0.24257144 1.6980001
-0.038994286 0.24371429 1.7060001
-0.035744764 0.24371429 1.7060001
-0.032819048 0.24614286 1.723
-0.029845715 0.2487143 1.7410001
-0.026529524 0.2487143 1.7410001
-0.023333333 0.25 1.7500001
-0.020000001 0.25 1.7500001
-0.016666668 0.25 1.7500001
-0.013264762 0.2487143 1.7410001
-0.0099485721 0.2487143 1.7410001
-0.0066323811 0.2487143 1.7410001
-0.0032990477 0.24742858 1.7320001
0 0.24742858 1.7320001
0.0032990477 0.24742858 1.7320001
0.0065980954 0.24742858 1.7320001
0.0098971436 0.24742858 1.7320001
0.013196191 0.24742858 1.7320001
0.016580952 0.2487143 1.7410001
0.019897144 0.2487143 1.7410001
0.023213334 0.2487143 1.7410001
0.026392382 0.24742858 1.7320001
0.02969143 0.24742858 1.7320001
0.032990478 0.24742858 1.7320001
0.036478095 0.2487143 1.7410001
0.039794289 0.2487143 1.7410001
0.043110479 0.2487143 1.7410001
0.046186667 0.24742858 1.7320001
0.049485717 0.24742858 1.7320001
0.052784763 0.24742858 1.7320001
0.056375239 0.2487143 1.7410001
0.05938286 0.24742858 1.7320001
0.062681906 0.24742858 1.7320001
0.065980956 0.24742858 1.7320001
0.069280006 0.24742858 1.7320001
0.072579049 0.24742858 1.7320001
0.075878099 0.24742858 1.7320001
0.079177149 0.24742858 1.7320001
0.082047619 0.24614286 1.723
0.085329525 0.24614286 1.723
0.088611431 0.24614286 1.723
0.091893338 0.24614286 1.723
0.095175244 0.24614286 1.723
0.09845715 0.24614286 1.723
0.10173905 0.24614286 1.723
0.10556953 0.24742858 1.7320001
0.10830286 0.24614286 1.723
0.11216763 0.24742858 1.7320001
0.11546667 0.24742858 1.7320001
0.11876572 0.24742858 1.7320001
0.12206477 0.24742858 1.7320001
0.12601525 0.2487143 1.7410001
0.12933144 0.2487143 1.7410001
0.13264762 0.2487143 1.7410001
0.13596381 0.2487143 1.7410001
0.13928001 0.2487143 1.7410001
0.14333335 0.25 1.7500001
0.14666668 0.25 1.7500001
0.15000001 0.25 1.7500001
0.15333334 0.25 1.7500001
0.15666667 0.25 1.7500001
0.16000001 0.25 1.7500001
0.16333334 0.25 1.7500001
0.16666667 0.25 1.7500001
0.17 0.25 1.7500001
0.17333335 0.25 1.7500001
0.17757525 0.25128573 1.7590001
0.18000001 0.25 1.7500001
0.18333334 0.25 1.7500001
0.18762667 0.25128573 1.7590001
0.19097716 0.25128573 1.7590001
0.19532192 0.25257143 1.7680001
0.19868954 0.25257143 1.7680001
0.20205715 0.25257143 1.7680001
0.20647049 0.25385717 1.7770001
0.20985524 0.25385717 1.7770001
0.21324001 0.25385717 1.7770001
0.21772191 0.25514287 1.7860001
0.22112381 0.25514287 1.7860001
0.22452572 0.25514287 1.7860001
0.22907619 0.25642857 1.7950001
0.23366097 0.2577143 1.8040001
0.23841144 0.25914288 1.8140001
0.24186668 0.25914288 1.8140001
0.2466743 0.26057145 1.8240001
0.2527543 0.26328573 1.8430001
0.25626478 0.26328573 1.8430001
0.26118478 0.2647143 1.853
0.26614287 0.26614287 1.863
0.26969144 0.26614287 1.863
0.27324 0.26614287 1.863
-0.24973334 0.27113906 1.8730001
-0.24616572 0.27113906 1.8730001
-0.24389334 0.27258667 1.8830001
-0.23903048 0.27113906 1.8730001
-0.23672001 0.27258667 1.8830001
-0.23313335 0.27258667 1.8830001
-0.22954668 0.27258667 1.8830001
-0.22848001 0.27562669 1.904
-0.22367239 0.27417907 1.8940001
-0.22622287 0.28185144 1.9470001
-0.22502857 0.28503621 1.9690001
-0.22251429 0.28662857 1.9800001
-0.22006857 0.28836572 1.9920001
-0.21746857 0.28995812 2.003
-0.21621335 0.29343238 2.0270002
-0.21360953 0.29516953 2.039
-0.21096 0.29690668 2.0510001
-0.20826477 0.29864383 2.0630002
-0.20433524 0.29864383 2.0630002
-0.18097715 0.26969144 1.863
-0.17838097 0.27113906 1.8730001
-0.17481335 0.27113906 1.8730001
-0.17033143 0.26969144 1.863
-0.16678286 0.26969144 1.863
-0.16148192 0.2667962 1.8430001
-0.15797144 0.2667962 1.8430001
-0.15362287 0.26534858 1.8330001
-0.15013143 0.26534858 1.8330001
-0.14592001 0.26404572 1.8240001
-0.14166477 0.2625981 1.8140001
-0.13820952 0.2625981 1.8140001
-0.13475429 0.2625981 1.8140001
-0.13057524 0.26115048 1.8040001
-0.12713905 0.26115048 1.8040001
-0.12370286 0.26115048 1.8040001
-0.12026667 0.26115048 1.8040001
-0.11683048 0.26115048 1.8040001
-0.11339429 0.26115048 1.8040001
-0.10940953 0.25984764 1.7950001
-0.10599048 0.25984764 1.7950001
-0.10257144 0.25984764 1.7950001
-0.099152386 0.25984764 1.7950001
-0.095253333 0.25854477 1.7860001
-0.091851436 0.25854477 1.7860001
-0.08844953 0.25854477 1.7860001
-0.080857143 0.24580573 1.6980001
-0.077622861 0.24580573 1.6980001
-0.074388571 0.24580573 1.6980001
-0.071154289 0.24580573 1.6980001
-0.067919999 0.24580573 1.6980001
-0.064685717 0.24580573 1.6980001
-0.061451431 0.24580573 1.6980001
-0.058217146 0.24580573 1.6980001
-0.055241905 0.24696381 1.7060001
-0.051992383 0.24696381 1.7060001
-0.048514288 0.24580573 1.6980001
-0.045280002 0.24580573 1.6980001
-0.042045716 0.24580573 1.6980001
-0.038994286 0.24696381 1.7060001
-0.035933334 0.24826668 1.715
-0.032990478 0.25072762 1.7320001
-0.02969143 0.25072762 1.7320001
-0.026392382 0.25072762 1.7320001
-0.023213334 0.25203049 1.7410001
-0.019897144 0.25203049 1.7410001
-0.016580952 0.25203049 1.7410001
-0.013264762 0.25203049 1.7410001
-0.0098971436 0.25072762 1.7320001
-0.0065980954 0.25072762 1.7320001
-0.0032990477 0.25072762 1.7320001
0 0.25072762 1.7320001
0.0032819049 0.24942477 1.723
0.0065980954 0.25072762 1.7320001
0.0098971436 0.25072762 1.7320001
0.013196191 0.25072762 1.7320001
0.016495239 0.25072762 1.7320001
0.019794287 0.25072762 1.7320001
0.023093333 0.25072762 1.7320001
0.026392382 0.25072762 1.7320001
0.029537143 0.24942477 1.723
0.032819048 0.24942477 1.723
0.036100954 0.24942477 1.723
0.03938286 0.24942477 1.723
0.042664763 0.24942477 1.723
0.045946669 0.24942477 1.723
0.049228575 0.24942477 1.723
0.052510478 0.24942477 1.723
0.055792384 0.24942477 1.723
0.05938286 0.25072762 1.7320001
0.062681906 0.25072762 1.7320001
0.065980956 0.25072762 1.7320001
0.068920001 0.24942477 1.723
0.072579049 0.25072762 1.7320001
0.075878099 0.25072762 1.7320001
0.07876572 0.24942477 1.723
0.082047619 0.24942477 1.723
0.085775241 0.25072762 1.7320001
0.088611431 0.24942477 1.723
0.091893338 0.24942477 1.723
0.095175244 0.24942477 1.723
0.09845715 0.24942477 1.723
0.10173905 0.24942477 1.723
0.10556953 0.25072762 1.7320001
0.10886858 0.25072762 1.7320001
0.11216763 0.25072762 1.7320001
0.11546667 0.25072762 1.7320001
0.11938286 0.25203049 1.7410001
0.12206477 0.25072762 1.7320001
0.12601525 0.25203049 1.7410001
0.12933144 0.25203049 1.7410001
0.13264762 0.25203049 1.7410001
0.13596381 0.25203049 1.7410001
0.13928001 0.25203049 1.7410001
0.14333335 0.25333333 1.7500001
0.14666668 0.25333333 1.7500001
0.15000001 0.25333333 1.7500001
0.15333334 0.25333333 1.7500001
0.15666667 0.25333333 1.7500001
0.16000001 0.25333333 1.7500001
0.16333334 0.25333333 1.7500001
0.16666667 0.25333333 1.7500001
0.17 0.25333333 1.7500001
0.17333335 0.25333333 1.7500001
0.17666668 0.25333333 1.7500001
0.18000001 0.25333333 1.7500001
0.18333334 0.25333333 1.7500001
0.18666667 0.25333333 1.7500001
0.19097716 0.2546362 1.7590001
0.19532192 0.25593907 1.7680001
0.19868954 0.25593907 1.7680001
0.20205715 0.25593907 1.7680001
0.20542477 0.25593907 1.7680001
0.20985524 0.2572419 1.7770001
0.21324001 0.2572419 1.7770001
0.21662477 0.2572419 1.7770001
0.22112381 0.25854477 1.7860001
0.22452572 0.25854477 1.7860001
0.22907619 0.25984764 1.7950001
0.23249525 0.25984764 1.7950001
0.23709716 0.26115048 1.8040001
0.24186668 0.2625981 1.8140001
0.2466743 0.26404572 1.8240001
0.25138286 0.26534858 1.8330001
0.25626478 0.2667962 1.8430001
0.25977525 0.2667962 1.8430001
0.2647143 0.26824382 1.853
0.26969144 0.26969144 1.863
0.27324 0.26969144 1.863
-0.24973334 0.27470669 1.8730001
-0.24616572 0.27470669 1.8730001
-0.24389334 0.27617335 1.8830001
-0.24030668 0.27617335 1.8830001
-0.23672001 0.27617335 1.8830001
-0.23313335 0.27617335 1.8830001
-0.22954668 0.27617335 1.8830001
-0.22848001 0.27925333 1.904
-0.22367239 0.27778667 1.8940001
-0.22494477 0.28394666 1.9360001
-0.22502857 0.28878668 1.9690001
-0.22251429 0.2904 1.9800001
-0.22006857 0.29216 1.9920001
-0.21746857 0.29377335 2.003
-0.21493334 0.29553336 2.0150001
-0.2123524 0.29729334 2.0270002
-0.21096 0.30081335 2.0510001
-0.20705333 0.30081335 2.0510001
-0.18452573 0.27324 1.863
-0.18097715 0.27324 1.863
-0.17742857 0.27324 1.863
-0.17388001 0.27324 1.863
-0.17033143 0.27324 1.863
-0.16588762 0.27177334 1.853
-0.16148192 0.27030668 1.8430001
-0.1571143 0.26884001 1.8330001
-0.15362287 0.26884001 1.8330001
-0.14939429 0.26752001 1.8240001
-0.14512001 0.26605335 1.8140001
-0.14166477 0.26605335 1.8140001
-0.13744763 0.26458669 1.8040001
-0.13401143 0.26458669 1.8040001
-0.13057524 0.26458669 1.8040001
-0.12713905 0.26458669 1.8040001
-0.12308572 0.26326668 1.7950001
-0.11966667 0.26326668 1.7950001
-0.11624762 0.26326668 1.7950001
-0.11282858 0.26326668 1.7950001
-0.10940953 0.26326668 1.7950001
-0.10599048 0.26326668 1.7950001
-0.10205714 0.26194668 1.7860001
-0.099152386 0.26326668 1.7950001
-0.095253333 0.26194668 1.7860001
-0.091851436 0.26194668 1.7860001
-0.08844953 0.26194668 1.7860001
-0.080857143 0.24904001 1.6980001
-0.077622861 0.24904001 1.6980001
-0.074388571 0.24904001 1.6980001
-0.071154289 0.24904001 1.6980001
-0.067600004 0.24786668 1.6900001
-0.064685717 0.24904001 1.6980001
-0.061451431 0.24904001 1.6980001
-0.058217146 0.24904001 1.6980001
-0.05498286 0.24904001 1.6980001
-0.051748574 0.24904001 1.6980001
-0.048514288 0.24904001 1.6980001
-0.045280002 0.24904001 1.6980001
-0.042045716 0.24904001 1.6980001
-0.038994286 0.25021335 1.7060001
-0.036100954 0.25270668 1.723
-0.032990478 0.25402668 1.7320001
-0.029845715 0.25534669 1.7410001
-0.026529524 0.25534669 1.7410001
-0.023213334 0.25534669 1.7410001
-0.019897144 0.25534669 1.7410001
-0.016580952 0.25534669 1.7410001
-0.013196191 0.25402668 1.7320001
-0.0098971436 0.25402668 1.7320001
-0.0065980954 0.25402668 1.7320001
-0.0032990477 0.25402668 1.7320001
0 0.25270668 1.723
0.0032819049 0.25270668 1.723
0.0065638097 0.25270668 1.723
0.009845715 0.25270668 1.723
0.013127619 0.25270668 1.723
0.016409524 0.25270668 1.723
0.019794287 0.25402668 1.7320001
0.023093333 0.25402668 1.7320001
0.026392382 0.25402668 1.7320001
0.029537143 0.25270668 1.723
0.032819048 0.25270668 1.723
0.036100954 0.25270668 1.723
0.03938286 0.25270668 1.723
0.042664763 0.25270668 1.723
0.045946669 0.25270668 1.723
0.049228575 0.25270668 1.723
0.052510478 0.25270668 1.723
0.056083813 0.25402668 1.7320001
0.059074286 0.25270668 1.723
0.062681906 0.25402668 1.7320001
0.065980956 0.25402668 1.7320001
0.069280006 0.25402668 1.7320001
0.072579049 0.25402668 1.7320001
0.075878099 0.25402668 1.7320001
0.079177149 0.25402668 1.7320001
0.082047619 0.25270668 1.723
0.085775241 0.25402668 1.7320001
0.088611431 0.25270668 1.723
0.091893338 0.25270668 1.723
0.095175244 0.25270668 1.723
0.09845715 0.25270668 1.723
0.10173905 0.25270668 1.723
0.10556953 0.25402668 1.7320001
0.10830286 0.25270668 1.723
0.11216763 0.25402668 1.7320001
0.11546667 0.25402668 1.7320001
0.11876572 0.25402668 1.7320001
0.12206477 0.25402668 1.7320001
0.12601525 0.25534669 1.7410001
0.12933144 0.25534669 1.7410001
0.13264762 0.25534669 1.7410001
0.13596381 0.25534669 1.7410001
0.13928001 0.25534669 1.7410001
0.1425962 0.25534669 1.7410001
0.14666668 0.25666669 1.7500001
0.15000001 0.25666669 1.7500001
0.15333334 0.25666669 1.7500001
0.15586096 0.25534669 1.7410001
0.15917715 0.25534669 1.7410001
0.16249333 0.25534669 1.7410001
0.16666667 0.25666669 1.7500001
0.16912572 0.25534669 1.7410001
0.17333335 0.25666669 1.7500001
0.17666668 0.25666669 1.7500001
0.17907429 0.25534669 1.7410001
0.18333334 0.25666669 1.7500001
0.18666667 0.25666669 1.7500001
0.19000001 0.25666669 1.7500001
0.19432762 0.25798666 1.7590001
0.1976781 0.25798666 1.7590001
0.20102859 0.25798666 1.7590001
0.20542477 0.25930667 1.7680001
0.20985524 0.26062667 1.7770001
0.21324001 0.26062667 1.7770001
0.21662477 0.26062667 1.7770001
0.22000954 0.26062667 1.7770001
0.22452572 0.26194668 1.7860001
0.22792763 0.26194668 1.7860001
0.23249525 0.26326668 1.7950001
0.23709716 0.26458669 1.8040001
0.24186668 0.26605335 1.8140001
0.2466743 0.26752001 1.8240001
0.25138286 0.26884001 1.8330001
0.25626478 0.27030668 1.8430001
0.25977525 0.27030668 1.8430001
0.2647143 0.27177334 1.853
0.26824382 0.27177334 1.853
0.27177334 0.27177334 1.853
-0.24973334 0.2782743 1.8730001
-0.24616572 0.2782743 1.8730001
-0.24389334 0.27976 1.8830001
-0.24030668 0.27976 1.8830001
-0.23672001 0.27976 1.8830001
-0.23313335 0.27976 1.8830001
-0.22954668 0.27976 1.8830001
-0.22728001 0.2813943 1.8940001
-0.22237334 0.27976 1.8830001
-0.21878667 0.27976 1.8830001
-0.22377144 0.29090285 1.9580001
-0.22251429 0.29417145 1.9800001
-0.22006857 0.29595429 1.9920001
-0.21746857 0.29758859 2.003
-0.21493334 0.29937145 2.0150001
-0.2123524 0.30115429 2.0270002
-0.19265144 0.2782743 1.8730001
-0.18908381 0.2782743 1.8730001
-0.18551619 0.2782743 1.8730001
-0.18194857 0.2782743 1.8730001
-0.17742857 0.27678859 1.863
-0.17388001 0.27678859 1.863
-0.17033143 0.27678859 1.863
-0.16588762 0.27530286 1.853
-0.16148192 0.27381715 1.8430001
-0.1571143 0.27233145 1.8330001
-0.15362287 0.27233145 1.8330001
-0.14939429 0.27099431 1.8240001
-0.14512001 0.26950857 1.8140001
-0.14088382 0.26802287 1.8040001
-0.13744763 0.26802287 1.8040001
-0.13401143 0.26802287 1.8040001
-0.12992382 0.26668572 1.7950001
-0.12650476 0.26668572 1.7950001
-0.12308572 0.26668572 1.7950001
-0.11966667 0.26668572 1.7950001
-0.11624762 0.26668572 1.7950001
-0.11282858 0.26668572 1.7950001
-0.10940953 0.26668572 1.7950001
-0.10599048 0.26668572 1.7950001
-0.10205714 0.26534858 1.7860001
-0.099152386 0.26668572 1.7950001
-0.095253333 0.26534858 1.7860001
-0.091388576 0.26401144 1.7770001
-0.087558098 0.2626743 1.7680001
-0.08419048 0.2626743 1.7680001
-0.077622861 0.2522743 1.6980001
-0.074388571 0.2522743 1.6980001
-0.071154289 0.2522743 1.6980001
-0.067919999 0.2522743 1.6980001
-0.064685717 0.2522743 1.6980001
-0.061451431 0.2522743 1.6980001
-0.058217146 0.2522743 1.6980001
-0.05498286 0.2522743 1.6980001
-0.051748574 0.2522743 1.6980001
-0.048514288 0.2522743 1.6980001
-0.045280002 0.2522743 1.6980001
-0.042243812 0.25346288 1.7060001
-0.03938286 0.25598857 1.723
-0.036289524 0.25732571 1.7320001
-0.033161905 0.25866288 1.7410001
-0.029845715 0.25866288 1.7410001
-0.026529524 0.25866288 1.7410001
-0.023213334 0.25866288 1.7410001
-0.019897144 0.25866288 1.7410001
-0.016580952 0.25866288 1.7410001
-0.013196191 0.25732571 1.7320001
-0.0098971436 0.25732571 1.7320001
-0.0065980954 0.25732571 1.7320001
-0.0032990477 0.25732571 1.7320001
0 0.25598857 1.723
0.0032819049 0.25598857 1.723
0.0065638097 0.25598857 1.723
0.009845715 0.25598857 1.723
0.013127619 0.25598857 1.723
0.016409524 0.25598857 1.723
0.01969143 0.25598857 1.723
0.022973334 0.25598857 1.723
0.026255239 0.25598857 1.723
0.029537143 0.25598857 1.723
0.032819048 0.25598857 1.723
0.036100954 0.25598857 1.723
0.03938286 0.25598857 1.723
0.042664763 0.25598857 1.723
0.045946669 0.25598857 1.723
0.049228575 0.25598857 1.723
0.052510478 0.25598857 1.723
0.055792384 0.25598857 1.723
0.059074286 0.25598857 1.723
0.062681906 0.25732571 1.7320001
0.065980956 0.25732571 1.7320001
0.068920001 0.25598857 1.723
0.072201908 0.25598857 1.723
0.075878099 0.25732571 1.7320001
0.07876572 0.25598857 1.723
0.082047619 0.25598857 1.723
0.085775241 0.25732571 1.7320001
0.089074291 0.25732571 1.7320001
0.092373334 0.25732571 1.7320001
0.095175244 0.25598857 1.723
0.09845715 0.25598857 1.723
0.10173905 0.25598857 1.723
0.10502096 0.25598857 1.723
0.10830286 0.25598857 1.723
0.11158477 0.25598857 1.723
0.11486667 0.25598857 1.723
0.11876572 0.25732571 1.7320001
0.12206477 0.25732571 1.7320001
0.12536381 0.25732571 1.7320001
0.12866285 0.25732571 1.7320001
0.13196191 0.25732571 1.7320001
0.13526095 0.25732571 1.7320001
0.13856001 0.25732571 1.7320001
0.1425962 0.25866288 1.7410001
0.14591238 0.25866288 1.7410001
0.14922857 0.25866288 1.7410001
0.15254477 0.25866288 1.7410001
0.15586096 0.25866288 1.7410001
0.15917715 0.25866288 1.7410001
0.16249333 0.25866288 1.7410001
0.16580953 0.25866288 1.7410001
0.16912572 0.25866288 1.7410001
0.17244191 0.25866288 1.7410001
0.17666668 0.26000002 1.7500001
0.17907429 0.25866288 1.7410001
0.18239048 0.25866288 1.7410001
0.18666667 0.26000002 1.7500001
0.19000001 0.26000002 1.7500001
0.19333334 0.26000002 1.7500001
0.1976781 0.26133716 1.7590001
0.20102859 0.26133716 1.7590001
0.20437905 0.26133716 1.7590001
0.20879239 0.2626743 1.7680001
0.21216001 0.2626743 1.7680001
0.21662477 0.26401144 1.7770001
0.22000954 0.26401144 1.7770001
0.22339429 0.26401144 1.7770001
0.22792763 0.26534858 1.7860001
0.23132953 0.26534858 1.7860001
0.23591429 0.26668572 1.7950001
0.24053334 0.26802287 1.8040001
0.2466743 0.27099431 1.8240001
0.25138286 0.27233145 1.8330001
0.25487429 0.27233145 1.8330001
0.25836572 0.27233145 1.8330001
0.26328573 0.27381715 1.8430001
0.2667962 0.27381715 1.8430001
0.27177334 0.27530286 1.853
-0.25106668 0.28334668 1.8830001
-0.24748001 0.28334668 1.8830001
-0.24389334 0.28334668 1.8830001
-0.24030668 0.28334668 1.8830001
-0.23672001 0.28334668 1.8830001
-0.23189525 0.2818419 1.8730001
-0.22832763 0.2818419 1.8730001
-0.22596 0.28334668 1.8830001
-0.22237334 0.28334668 1.8830001
-0.21878667 0.28334668 1.8830001
-0.21520001 0.28334668 1.8830001
-0.21633334 0.28966668 1.9250001
-0.22006857 0.29974857 1.9920001
-0.21746857 0.30140382 2.003
-0.21493334 0.30320954 2.0150001
-0.21109524 0.30320954 2.0150001
-0.19265144 0.2818419 1.8730001
-0.18908381 0.2818419 1.8730001
-0.18551619 0.2818419 1.8730001
-0.18194857 0.2818419 1.8730001
-0.17742857 0.28033715 1.863
-0.17388001 0.28033715 1.863
-0.16941714 0.27883241 1.853
-0.16499239 0.27732763 1.8430001
-0.16060571 0.27582288 1.8330001
-0.1571143 0.27582288 1.8330001
-0.15286858 0.27446857 1.8240001
-0.14939429 0.27446857 1.8240001
-0.14432001 0.27145904 1.8040001
-0.14088382 0.27145904 1.8040001
-0.1367619 0.27010477 1.7950001
-0.13334286 0.27010477 1.7950001
-0.12992382 0.27010477 1.7950001
-0.12650476 0.27010477 1.7950001
-0.12308572 0.27010477 1.7950001
-0.11966667 0.27010477 1.7950001
-0.11624762 0.27010477 1.7950001
-0.11282858 0.27010477 1.7950001
-0.10940953 0.27010477 1.7950001
-0.10599048 0.27010477 1.7950001
-0.10205714 0.26875049 1.7860001
-0.099152386 0.27010477 1.7950001
-0.095253333 0.26875049 1.7860001
-0.091851436 0.26875049 1.7860001
-0.087558098 0.2660419 1.7680001
-0.08419048 0.2660419 1.7680001
-0.077988572 0.25671238 1.7060001
-0.074388571 0.25550857 1.6980001
-0.071154289 0.25550857 1.6980001
-0.067919999 0.25550857 1.6980001
-0.064685717 0.25550857 1.6980001
-0.061451431 0.25550857 1.6980001
-0.058217146 0.25550857 1.6980001
-0.05498286 0.25550857 1.6980001
-0.051748574 0.25550857 1.6980001
-0.048742861 0.25671238 1.7060001
-0.045493335 0.25671238 1.7060001
-0.042466667 0.25806668 1.715
-0.03938286 0.25927049 1.723
-0.036478095 0.26197904 1.7410001
-0.033333335 0.26333335 1.7500001
-0.030000001 0.26333335 1.7500001
-0.026529524 0.26197904 1.7410001
-0.023213334 0.26197904 1.7410001
-0.019897144 0.26197904 1.7410001
-0.016580952 0.26197904 1.7410001
-0.013196191 0.26062477 1.7320001
-0.0098971436 0.26062477 1.7320001
-0.0065980954 0.26062477 1.7320001
-0.0032990477 0.26062477 1.7320001
0 0.25927049 1.723
0.0032819049 0.25927049 1.723
0.0065638097 0.25927049 1.723
0.009845715 0.25927049 1.723
0.013127619 0.25927049 1.723
0.016409524 0.25927049 1.723
0.019794287 0.26062477 1.7320001
0.023093333 0.26062477 1.7320001
0.026255239 0.25927049 1.723
0.029537143 0.25927049 1.723
0.032819048 0.25927049 1.723
0.036100954 0.25927049 1.723
0.03938286 0.25927049 1.723
0.042664763 0.25927049 1.723
0.045946669 0.25927049 1.723
0.049228575 0.25927049 1.723
0.052510478 0.25927049 1.723
0.055792384 0.25927049 1.723
0.059074286 0.25927049 1.723
0.062356193 0.25927049 1.723
0.065638095 0.25927049 1.723
0.068920001 0.25927049 1.723
0.072201908 0.25927049 1.723
0.075878099 0.26062477 1.7320001
0.07876572 0.25927049 1.723
0.082047619 0.25927049 1.723
0.085775241 0.26062477 1.7320001
0.088611431 0.25927049 1.723
0.092373334 0.26062477 1.7320001
0.095175244 0.25927049 1.723
