# .PCD v0.7 - Point Cloud Data file format
VERSION 0.7
FIELDS x y z
SIZE 4 4 4
TYPE F F F
COUNT 1 1 1
WIDTH 1509
HEIGHT 1
VIEWPOINT 0 0 0 1 0 0 0
POINTS 1509
DATA ascii
-0.11275048 0.15917715 1.7410001
-0.10886858 0.1583543 1.7320001
-0.10556953 0.1583543 1.7320001
-0.10227048 0.1583543 1.7320001
-0.098971434 0.1583543 1.7320001
-0.11856 0.20324573 2.223
-0.11581714 0.20589715 2.2520001
-0.11222096 0.20717715 2.266
-0.10790477 0.20717715 2.266
-0.10358857 0.20717715 2.266
-0.099272385 0.20717715 2.266
-0.094956197 0.20717715 2.266
0.03785143 0.20187429 2.2080002
0.042057145 0.20187429 2.2080002
0.04626286 0.20187429 2.2080002
0.050468571 0.20187429 2.2080002
0.054674286 0.20187429 2.2080002
0.058880001 0.20187429 2.2080002
0.063514285 0.20324573 2.223
0.067748576 0.20324573 2.223
0.071982861 0.20324573 2.223
0.076697148 0.20452572 2.237
0.080958098 0.20452572 2.237
0.068920001 0.15753144 1.723
0.071866669 0.1568 1.715
0.075133339 0.1568 1.715
0.077988572 0.15597714 1.7060001
0.081666671 0.1568 1.715
0.084487624 0.15597714 1.7060001
0.087737143 0.15597714 1.7060001
0.090986669 0.15597714 1.7060001
0.094236195 0.15597714 1.7060001
0.097485721 0.15597714 1.7060001
0.10073524 0.15597714 1.7060001
0.10398477 0.15597714 1.7060001
0.10723429 0.15597714 1.7060001
0.11048381 0.15597714 1.7060001
0.11433334 0.1568 1.715
0.1176 0.1568 1.715
0.12086667 0.1568 1.715
0.12413334 0.1568 1.715
0.12799428 0.15753144 1.723
0.13127619 0.15753144 1.723
-0.27680001 0.19376001 2.0760002
-0.27284572 0.19376001 2.0760002
-0.26889142 0.19376001 2.0760002
-0.2632781 0.19254668 2.0630002
-0.25784001 0.19142668 2.0510001
-0.25393334 0.19142668 2.0510001
-0.25002667 0.19142668 2.0510001
-0.24612001 0.19142668 2.0510001
-0.24079619 0.19030668 2.039
-0.2355181 0.18918668 2.0270002
-0.23028572 0.18806668 2.0150001
-0.22509906 0.18694668 2.003
-0.21874286 0.18480001 1.9800001
-0.21377715 0.18377334 1.9690001
-0.20885333 0.18274668 1.9580001
-0.20281905 0.18069334 1.9360001
-0.19800001 0.17966667 1.9250001
-0.19332382 0.17873333 1.9150001
-0.18858667 0.17770667 1.904
-0.18398857 0.17677334 1.8940001
-0.17933334 0.17574668 1.8830001
-0.17481335 0.17481335 1.8730001
-0.17033143 0.17388001 1.863
-0.16678286 0.17388001 1.863
-0.15491048 0.16501334 1.7680001
-0.15154286 0.16501334 1.7680001
-0.14742096 0.16417333 1.7590001
-0.14407048 0.16417333 1.7590001
-0.14 0.16333334 1.7500001
-0.13666667 0.16333334 1.7500001
-0.13333334 0.16333334 1.7500001
-0.12933144 0.16249333 1.7410001
-0.12601525 0.16249333 1.7410001
-0.12269905 0.16249333 1.7410001
-0.12 0.16333334 1.7500001
-0.11666667 0.16333334 1.7500001
-0.11333334 0.16333334 1.7500001
-0.10886858 0.16165334 1.7320001
-0.1061181 0.16249333 1.7410001
-0.10227048 0.16165334 1.7320001
-0.098971434 0.16165334 1.7320001
-0.11930667 0.20878668 2.237
-0.11581714 0.21018668 2.2520001
-0.11152762 0.21018668 2.2520001
-0.10790477 0.21149334 2.266
-0.10358857 0.21149334 2.266
-0.099272385 0.21149334 2.266
-0.094956197 0.21149334 2.266
-0.020638095 0.20225334 2.1670001
-0.016510477 0.20225334 2.1670001
-0.012537143 0.20477334 2.194
-0.0084114289 0.20608 2.2080002
-0.0042057144 0.20608 2.2080002
0 0.20608 2.2080002
0.0042057144 0.20608 2.2080002
0.0084114289 0.20608 2.2080002
0.012617143 0.20608 2.2080002
0.016822858 0.20608 2.2080002
0.021028573 0.20608 2.2080002
0.025234286 0.20608 2.2080002
0.029440001 0.20608 2.2080002
0.033645716 0.20608 2.2080002
0.03785143 0.20608 2.2080002
0.041790478 0.20477334 2.194
0.045969527 0.20477334 2.194
0.050148573 0.20477334 2.194
0.054327622 0.20477334 2.194
0.058880001 0.20608 2.2080002
0.062685713 0.20477334 2.194
0.066864766 0.20477334 2.194
0.071497142 0.20608 2.2080002
0.075702861 0.20608 2.2080002
0.079908572 0.20608 2.2080002
0.068920001 0.16081335 1.723
0.071866669 0.16006668 1.715
0.075133339 0.16006668 1.715
0.078400001 0.16006668 1.715
0.081666671 0.16006668 1.715
0.084487624 0.15922667 1.7060001
0.087737143 0.15922667 1.7060001
0.090986669 0.15922667 1.7060001
0.094236195 0.15922667 1.7060001
0.097485721 0.15922667 1.7060001
0.10073524 0.15922667 1.7060001
0.10398477 0.15922667 1.7060001
0.10723429 0.15922667 1.7060001
0.11048381 0.15922667 1.7060001
0.11433334 0.16006668 1.715
0.1176 0.16006668 1.715
0.12086667 0.16006668 1.715
0.12413334 0.16006668 1.715
0.12799428 0.16081335 1.723
0.13127619 0.16081335 1.723
-0.2807543 0.1977143 2.0760002
-0.27680001 0.1977143 2.0760002
-0.27284572 0.1977143 2.0760002
-0.26889142 0.1977143 2.0760002
-0.2632781 0.19647619 2.0630002
-0.25934857 0.19647619 2.0630002
-0.25393334 0.19533335 2.0510001
-0.25002667 0.19533335 2.0510001
-0.24468 0.19419049 2.039
-0.23937906 0.19304763 2.0270002
-0.23412381 0.19190477 2.0150001
-0.23028572 0.19190477 2.0150001
-0.22509906 0.19076191 2.003
-0.21874286 0.18857144 1.9800001
-0.21377715 0.18752381 1.9690001
-0.20885333 0.1864762 1.9580001
-0.20281905 0.18438096 1.9360001
-0.19800001 0.18333334 1.9250001
-0.19332382 0.18238096 1.9150001
-0.18858667 0.18133333 1.904
-0.18496001 0.18133333 1.904
-0.17933334 0.17933334 1.8830001
-0.17481335 0.17838097 1.8730001
-0.17124572 0.17838097 1.8730001
-0.15827811 0.16838096 1.7680001
-0.15491048 0.16838096 1.7680001
-0.15154286 0.16838096 1.7680001
-0.14742096 0.16752382 1.7590001
-0.14407048 0.16752382 1.7590001
-0.14072001 0.16752382 1.7590001
-0.13736953 0.16752382 1.7590001
-0.13333334 0.16666667 1.7500001
-0.13000001 0.16666667 1.7500001
-0.12666667 0.16666667 1.7500001
-0.12269905 0.16580953 1.7410001
-0.12 0.16666667 1.7500001
-0.11666667 0.16666667 1.7500001
-0.11333334 0.16666667 1.7500001
-0.10886858 0.16495238 1.7320001
-0.10556953 0.16495238 1.7320001
-0.10227048 0.16495238 1.7320001
-0.098971434 0.16495238 1.7320001
-0.095672384 0.16495238 1.7320001
-0.11930667 0.21304762 2.237
-0.11581714 0.2144762 2.2520001
-0.11152762 0.2144762 2.2520001
-0.10790477 0.21580954 2.266
-0.10358857 0.21580954 2.266
-0.099272385 0.21580954 2.266
-0.094956197 0.21580954 2.266
-0.050468571 0.21028572 2.2080002
-0.04626286 0.21028572 2.2080002
-0.042057145 0.21028572 2.2080002
-0.03785143 0.21028572 2.2080002
-0.033645716 0.21028572 2.2080002
-0.020638095 0.20638096 2.1670001
-0.016510477 0.20638096 2.1670001
-0.012537143 0.20895238 2.194
-0.0083580958 0.20895238 2.194
-0.0041542859 0.20771429 2.181
0 0.20895238 2.194
0.0041790479 0.20895238 2.194
0.0084114289 0.21028572 2.2080002
0.012617143 0.21028572 2.2080002
0.016822858 0.21028572 2.2080002
0.021028573 0.21028572 2.2080002
0.025234286 0.21028572 2.2080002
0.029440001 0.21028572 2.2080002
0.033645716 0.21028572 2.2080002
0.03785143 0.21028572 2.2080002
0.041790478 0.20895238 2.194
0.045969527 0.20895238 2.194
0.050148573 0.20895238 2.194
0.054327622 0.20895238 2.194
0.058506668 0.20895238 2.194
0.062314287 0.20771429 2.181
0.066468574 0.20771429 2.181
0.071043812 0.20895238 2.194
0.075222857 0.20895238 2.194
0.079908572 0.21028572 2.2080002
0.071866669 0.16333334 1.715
0.075133339 0.16333334 1.715
0.078400001 0.16333334 1.715
0.081666671 0.16333334 1.715
0.084487624 0.1624762 1.7060001
0.087737143 0.1624762 1.7060001
0.090986669 0.1624762 1.7060001
0.094236195 0.1624762 1.7060001
0.097485721 0.1624762 1.7060001
0.10073524 0.1624762 1.7060001
0.10398477 0.1624762 1.7060001
0.10723429 0.1624762 1.7060001
0.11106667 0.16333334 1.715
0.11433334 0.16333334 1.715
0.1176 0.16333334 1.715
0.12086667 0.16333334 1.715
0.12413334 0.16333334 1.715
0.12740001 0.16333334 1.715
0.13127619 0.16409524 1.723
-0.2807543 0.20166858 2.0760002
-0.27506667 0.20040572 2.0630002
-0.27113715 0.20040572 2.0630002
-0.26720762 0.20040572 2.0630002
-0.2632781 0.20040572 2.0630002
-0.25934857 0.20040572 2.0630002
-0.25541905 0.20040572 2.0630002
-0.25002667 0.19924001 2.0510001
-0.24324001 0.19690858 2.0270002
-0.23937906 0.19690858 2.0270002
-0.23412381 0.19574286 2.0150001
-0.22891429 0.19457714 2.003
-0.22386287 0.19350858 1.9920001
-0.21874286 0.19234286 1.9800001
-0.21377715 0.19127429 1.9690001
-0.20885333 0.19020572 1.9580001
-0.20281905 0.18806858 1.9360001
-0.19800001 0.18700001 1.9250001
-0.19332382 0.18602858 1.9150001
-0.1896762 0.18602858 1.9150001
-0.18496001 0.18496001 1.904
-0.18133333 0.18496001 1.904
-0.17770667 0.18496001 1.904
-0.17408 0.18496001 1.904
-0.15827811 0.17174858 1.7680001
-0.15491048 0.17174858 1.7680001
-0.15154286 0.17174858 1.7680001
-0.14742096 0.1708743 1.7590001
-0.14407048 0.1708743 1.7590001
-0.14072001 0.1708743 1.7590001
-0.13736953 0.1708743 1.7590001
-0.13333334 0.17 1.7500001
-0.13000001 0.17 1.7500001
-0.12666667 0.17 1.7500001
-0.12333333 0.17 1.7500001
-0.12 0.17 1.7500001
-0.11666667 0.17 1.7500001
-0.11333334 0.17 1.7500001
-0.10943429 0.16912572 1.7410001
-0.1061181 0.16912572 1.7410001
-0.10227048 0.16825144 1.7320001
-0.098971434 0.16825144 1.7320001
-0.095672384 0.16825144 1.7320001
-0.12010667 0.21876572 2.2520001
-0.11581714 0.21876572 2.2520001
-0.11152762 0.21876572 2.2520001
-0.10790477 0.22012572 2.266
-0.10358857 0.22012572 2.266
-0.098659053 0.21876572 2.2520001
-0.094369531 0.21876572 2.2520001
-0.054674286 0.21449144 2.2080002
-0.050468571 0.21449144 2.2080002
-0.04626286 0.21449144 2.2080002
-0.042057145 0.21449144 2.2080002
-0.03785143 0.21449144 2.2080002
-0.033645716 0.21449144 2.2080002
-0.029253334 0.21313144 2.194
-0.024925714 0.21186858 2.181
-0.020638095 0.21050858 2.1670001
-0.016510477 0.21050858 2.1670001
-0.012382858 0.21050858 2.1670001
-0.0083085718 0.21186858 2.181
-0.0041542859 0.21186858 2.181
0 0.21186858 2.181
0.0041790479 0.21313144 2.194
0.0084114289 0.21449144 2.2080002
0.012617143 0.21449144 2.2080002
0.016822858 0.21449144 2.2080002
0.021028573 0.21449144 2.2080002
0.025234286 0.21449144 2.2080002
0.029440001 0.21449144 2.2080002
0.033645716 0.21449144 2.2080002
0.037611429 0.21313144 2.194
0.041790478 0.21313144 2.194
0.045969527 0.21313144 2.194
0.050148573 0.21313144 2.194
0.054327622 0.21313144 2.194
0.058506668 0.21313144 2.194
0.062314287 0.21186858 2.181
0.066041909 0.21050858 2.1670001
0.069716193 0.20914859 2.1530001
0.073817149 0.20914859 2.1530001
0.077918097 0.20914859 2.1530001
0.071866669 0.1666 1.715
0.075133339 0.1666 1.715
0.078400001 0.1666 1.715
0.081666671 0.1666 1.715
0.084487624 0.16572572 1.7060001
0.087737143 0.16572572 1.7060001
0.090986669 0.16572572 1.7060001
0.094236195 0.16572572 1.7060001
0.097485721 0.16572572 1.7060001
0.10073524 0.16572572 1.7060001
0.10453334 0.1666 1.715
0.10780001 0.1666 1.715
0.11106667 0.1666 1.715
0.11433334 0.1666 1.715
0.1176 0.1666 1.715
0.12086667 0.1666 1.715
0.12413334 0.1666 1.715
0.12740001 0.1666 1.715
-0.2789962 0.20433524 2.0630002
-0.27506667 0.20433524 2.0630002
-0.27113715 0.20433524 2.0630002
-0.26720762 0.20433524 2.0630002
-0.2632781 0.20433524 2.0630002
-0.25934857 0.20433524 2.0630002
-0.25541905 0.20433524 2.0630002
-0.25002667 0.20314668 2.0510001
-0.24612001 0.20314668 2.0510001
-0.23937906 0.20076953 2.0270002
-0.23412381 0.19958095 2.0150001
-0.22891429 0.19839239 2.003
-0.22509906 0.19839239 2.003
-0.22006857 0.19730286 1.9920001
-0.21377715 0.19502477 1.9690001
-0.20885333 0.19393525 1.9580001
-0.20281905 0.1917562 1.9360001
-0.19800001 0.19066668 1.9250001
-0.19332382 0.1896762 1.9150001
-0.1896762 0.1896762 1.9150001
-0.18602858 0.1896762 1.9150001
-0.18238096 0.1896762 1.9150001
-0.17873333 0.1896762 1.9150001
-0.16082287 0.17422476 1.7590001
-0.15747239 0.17422476 1.7590001
-0.15412191 0.17422476 1.7590001
-0.15077144 0.17422476 1.7590001
-0.14742096 0.17422476 1.7590001
-0.14407048 0.17422476 1.7590001
-0.14072001 0.17422476 1.7590001
-0.13736953 0.17422476 1.7590001
-0.13333334 0.17333335 1.7500001
-0.13000001 0.17333335 1.7500001
-0.12666667 0.17333335 1.7500001
-0.12269905 0.17244191 1.7410001
-0.11938286 0.17244191 1.7410001
-0.11606667 0.17244191 1.7410001
-0.11333334 0.17333335 1.7500001
-0.10886858 0.17155048 1.7320001
-0.10556953 0.17155048 1.7320001
-0.10227048 0.17155048 1.7320001
-0.098971434 0.17155048 1.7320001
-0.12010667 0.22305524 2.2520001
-0.11581714 0.22305524 2.2520001
-0.11152762 0.22305524 2.2520001
-0.1072381 0.22305524 2.2520001
-0.10294858 0.22305524 2.2520001
-0.098001905 0.22156954 2.237
-0.093740955 0.22156954 2.237
-0.058506668 0.21731049 2.194
-0.054674286 0.21869715 2.2080002
-0.050468571 0.21869715 2.2080002
-0.04626286 0.21869715 2.2080002
-0.041790478 0.21731049 2.194
-0.03785143 0.21869715 2.2080002
-0.033645716 0.21869715 2.2080002
-0.029253334 0.21731049 2.194
-0.024925714 0.21602286 2.181
-0.020638095 0.21463619 2.1670001
-0.016510477 0.21463619 2.1670001
-0.012382858 0.21463619 2.1670001
-0.0083085718 0.21602286 2.181
-0.0041276193 0.21463619 2.1670001
0 0.21602286 2.181
0.0041542859 0.21602286 2.181
0.0083580958 0.21731049 2.194
0.012537143 0.21731049 2.194
0.016716192 0.21731049 2.194
0.020895239 0.21731049 2.194
0.025074286 0.21731049 2.194
0.029440001 0.21869715 2.2080002
0.033645716 0.21869715 2.2080002
0.037611429 0.21731049 2.194
0.041790478 0.21731049 2.194
0.045697145 0.21602286 2.181
0.049851429 0.21602286 2.181
0.054005716 0.21602286 2.181
0.057413336 0.21324953 2.1530001
0.061514288 0.21324953 2.1530001
0.065615244 0.21324953 2.1530001
0.069716193 0.21324953 2.1530001
0.073817149 0.21324953 2.1530001
0.077918097 0.21324953 2.1530001
0.082019053 0.21324953 2.1530001
0.071866669 0.16986667 1.715
0.075133339 0.16986667 1.715
0.078400001 0.16986667 1.715
0.081666671 0.16986667 1.715
0.084487624 0.16897525 1.7060001
0.087737143 0.16897525 1.7060001
0.090986669 0.16897525 1.7060001
0.094236195 0.16897525 1.7060001
0.097485721 0.16897525 1.7060001
0.10073524 0.16897525 1.7060001
0.10453334 0.16986667 1.715
0.10780001 0.16986667 1.715
0.11106667 0.16986667 1.715
0.11433334 0.16986667 1.715
0.1176 0.16986667 1.715
0.12086667 0.16986667 1.715
0.12413334 0.16986667 1.715
-0.2789962 0.20826477 2.0630002
-0.27506667 0.20826477 2.0630002
-0.27113715 0.20826477 2.0630002
-0.26720762 0.20826477 2.0630002
-0.26493716 0.20957714 2.0760002
-0.25934857 0.20826477 2.0630002
-0.25541905 0.20826477 2.0630002
-0.25002667 0.20705333 2.0510001
-0.24468 0.20584191 2.039
-0.23796192 0.20341906 2.0150001
-0.23272954 0.20220762 2.003
-0.22891429 0.20220762 2.003
-0.22386287 0.20109715 1.9920001
-0.21874286 0.19988573 1.9800001
-0.21377715 0.19877525 1.9690001
-0.20885333 0.19766477 1.9580001
-0.20281905 0.19544382 1.9360001
-0.19800001 0.19433334 1.9250001
-0.19433334 0.19433334 1.9250001
-0.19066668 0.19433334 1.9250001
-0.18602858 0.19332382 1.9150001
-0.18238096 0.19332382 1.9150001
-0.16417333 0.17757525 1.7590001
-0.16082287 0.17757525 1.7590001
-0.15747239 0.17757525 1.7590001
-0.15412191 0.17757525 1.7590001
-0.15077144 0.17757525 1.7590001
-0.14742096 0.17757525 1.7590001
-0.14407048 0.17757525 1.7590001
-0.14072001 0.17757525 1.7590001
-0.13736953 0.17757525 1.7590001
-0.13333334 0.17666668 1.7500001
-0.13000001 0.17666668 1.7500001
-0.12666667 0.17666668 1.7500001
-0.12333333 0.17666668 1.7500001
-0.12061714 0.17757525 1.7590001
-0.11726667 0.17757525 1.7590001
-0.1139162 0.17757525 1.7590001
-0.11000001 0.17666668 1.7500001
-0.10666667 0.17666668 1.7500001
-0.13380191 0.2287581 2.266
-0.12948573 0.2287581 2.266
-0.1243962 0.22734477 2.2520001
-0.12010667 0.22734477 2.2520001
-0.11581714 0.22734477 2.2520001
-0.11152762 0.22734477 2.2520001
-0.10652381 0.22583048 2.237
-0.10226286 0.22583048 2.237
-0.097388573 0.22441715 2.223
-0.092525721 0.22290286 2.2080002
-0.088320002 0.22290286 2.2080002
-0.079908572 0.22290286 2.2080002
-0.075222857 0.22148953 2.194
-0.071043812 0.22148953 2.194
-0.066864766 0.22148953 2.194
-0.062314287 0.22017714 2.181
-0.058506668 0.22148953 2.194
-0.054327622 0.22148953 2.194
-0.050148573 0.22148953 2.194
-0.045969527 0.22148953 2.194
-0.041790478 0.22148953 2.194
-0.037611429 0.22148953 2.194
-0.033432383 0.22148953 2.194
-0.029080002 0.22017714 2.181
-0.024765715 0.21876381 2.1670001
-0.020638095 0.21876381 2.1670001
-0.016403811 0.21735048 2.1530001
-0.012302858 0.21735048 2.1530001
-0.0082552386 0.21876381 2.1670001
-0.0041276193 0.21876381 2.1670001
0 0.21735048 2.1530001
0.0041276193 0.21876381 2.1670001
0.0083085718 0.22017714 2.181
0.012462857 0.22017714 2.181
0.016617144 0.22017714 2.181
0.020771429 0.22017714 2.181
0.024925714 0.22017714 2.181
0.029080002 0.22017714 2.181
0.033234287 0.22017714 2.181
0.037388574 0.22017714 2.181
0.041542858 0.22017714 2.181
0.045697145 0.22017714 2.181
0.04953143 0.21876381 2.1670001
0.053312384 0.21735048 2.1530001
0.057413336 0.21735048 2.1530001
0.061514288 0.21735048 2.1530001
0.065219052 0.21603811 2.1400001
0.069716193 0.21735048 2.1530001
0.073371433 0.21603811 2.1400001
0.077447623 0.21603811 2.1400001
0.081523813 0.21603811 2.1400001
0.071489528 0.17222477 1.7060001
0.074739054 0.17222477 1.7060001
0.078400001 0.17313334 1.715
0.081238098 0.17222477 1.7060001
0.084487624 0.17222477 1.7060001
0.087737143 0.17222477 1.7060001
0.090986669 0.17222477 1.7060001
0.094236195 0.17222477 1.7060001
0.098000005 0.17313334 1.715
0.10126667 0.17313334 1.715
0.10453334 0.17313334 1.715
0.10780001 0.17313334 1.715
0.11106667 0.17313334 1.715
0.11486667 0.17394096 1.723
0.11814857 0.17394096 1.723
0.12143048 0.17394096 1.723
0.12471239 0.17394096 1.723
-0.26493716 0.21353143 2.0760002
-0.25934857 0.21219429 2.0630002
-0.25541905 0.21219429 2.0630002
-0.25002667 0.21096 2.0510001
-0.24324001 0.20849143 2.0270002
-0.23796192 0.20725715 2.0150001
-0.23272954 0.20602286 2.003
-0.22765715 0.20489144 1.9920001
-0.22386287 0.20489144 1.9920001
-0.21874286 0.20365715 1.9800001
-0.21377715 0.20252572 1.9690001
-0.20885333 0.20139429 1.9580001
-0.20397143 0.20026286 1.9470001
-0.19913143 0.19913143 1.9360001
-0.19433334 0.19800001 1.9250001
-0.19066668 0.19800001 1.9250001
-0.18700001 0.19800001 1.9250001
-0.18238096 0.19697143 1.9150001
-0.16417333 0.18092573 1.7590001
-0.16082287 0.18092573 1.7590001
-0.15747239 0.18092573 1.7590001
-0.15412191 0.18092573 1.7590001
-0.15077144 0.18092573 1.7590001
-0.14742096 0.18092573 1.7590001
-0.14407048 0.18092573 1.7590001
-0.14072001 0.18092573 1.7590001
-0.13736953 0.18092573 1.7590001
-0.13401905 0.18092573 1.7590001
-0.13066858 0.18092573 1.7590001
-0.1273181 0.18092573 1.7590001
-0.12396763 0.18092573 1.7590001
-0.12061714 0.18092573 1.7590001
-0.11726667 0.18092573 1.7590001
-0.1139162 0.18092573 1.7590001
-0.11056572 0.18092573 1.7590001
-0.10721524 0.18092573 1.7590001
-0.13380191 0.23307429 2.266
-0.12948573 0.23307429 2.266
-0.1243962 0.23163429 2.2520001
-0.11930667 0.23009144 2.237
-0.11581714 0.23163429 2.2520001
-0.11152762 0.23163429 2.2520001
-0.10652381 0.23009144 2.237
-0.10162286 0.22865143 2.223
-0.097388573 0.22865143 2.223
-0.092525721 0.22710858 2.2080002
-0.087760001 0.22566858 2.194
-0.083580956 0.22566858 2.194
-0.07940191 0.22566858 2.194
-0.075222857 0.22566858 2.194
-0.070622861 0.22433144 2.181
-0.066864766 0.22566858 2.194
-0.062314287 0.22433144 2.181
-0.058160003 0.22433144 2.181
-0.054327622 0.22566858 2.194
-0.049851429 0.22433144 2.181
-0.045697145 0.22433144 2.181
-0.041542858 0.22433144 2.181
-0.037388574 0.22433144 2.181
-0.033234287 0.22433144 2.181
-0.028893335 0.22289144 2.1670001
-0.024765715 0.22289144 2.1670001
-0.020504763 0.22145143 2.1530001
-0.016403811 0.22145143 2.1530001
-0.012302858 0.22145143 2.1530001
-0.0082019055 0.22145143 2.1530001
-0.0041009528 0.22145143 2.1530001
0 0.22145143 2.1530001
0.0041276193 0.22289144 2.1670001
0.0082552386 0.22289144 2.1670001
0.012382858 0.22289144 2.1670001
0.016510477 0.22289144 2.1670001
0.020504763 0.22145143 2.1530001
0.024605716 0.22145143 2.1530001
0.028706668 0.22145143 2.1530001
0.032807622 0.22145143 2.1530001
0.036685716 0.22011429 2.1400001
0.040761907 0.22011429 2.1400001
0.045110479 0.22145143 2.1530001
0.048617143 0.21877715 2.1270001
0.052668575 0.21877715 2.1270001
0.056720003 0.21877715 2.1270001
0.060771432 0.21877715 2.1270001
0.06482286 0.21877715 2.1270001
0.068874285 0.21877715 2.1270001
0.072925717 0.21877715 2.1270001
0.076977149 0.21877715 2.1270001
0.081028573 0.21877715 2.1270001
0.085080005 0.21877715 2.1270001
0.071489528 0.17547429 1.7060001
0.075133339 0.17640001 1.715
0.078400001 0.17640001 1.715
0.081238098 0.17547429 1.7060001
0.084487624 0.17547429 1.7060001
0.087737143 0.17547429 1.7060001
0.090986669 0.17547429 1.7060001
0.094236195 0.17547429 1.7060001
0.098000005 0.17640001 1.715
0.10126667 0.17640001 1.715
0.10453334 0.17640001 1.715
0.10780001 0.17640001 1.715
0.11106667 0.17640001 1.715
0.11486667 0.17722286 1.723
0.11814857 0.17722286 1.723
0.12143048 0.17722286 1.723
0.12471239 0.17722286 1.723
-0.26493716 0.21748573 2.0760002
-0.25784001 0.21486667 2.0510001
-0.25393334 0.21486667 2.0510001
-0.24856383 0.21360953 2.039
-0.24468 0.21360953 2.039
-0.23796192 0.21109524 2.0150001
-0.23272954 0.20983811 2.003
-0.22765715 0.20868573 1.9920001
-0.22251429 0.20742857 1.9800001
-0.21874286 0.20742857 1.9800001
-0.21377715 0.20627619 1.9690001
-0.20885333 0.20512381 1.9580001
-0.20397143 0.20397143 1.9470001
-0.19913143 0.20281905 1.9360001
-0.19544382 0.20281905 1.9360001
-0.19066668 0.20166667 1.9250001
-0.18700001 0.20166667 1.9250001
-0.16417333 0.18427619 1.7590001
-0.16082287 0.18427619 1.7590001
-0.15827811 0.18521905 1.7680001
-0.15491048 0.18521905 1.7680001
-0.15077144 0.18427619 1.7590001
-0.14742096 0.18427619 1.7590001
-0.14407048 0.18427619 1.7590001
-0.14072001 0.18427619 1.7590001
-0.13736953 0.18427619 1.7590001
-0.13401905 0.18427619 1.7590001
-0.13066858 0.18427619 1.7590001
-0.1273181 0.18427619 1.7590001
-0.12396763 0.18427619 1.7590001
-0.12061714 0.18427619 1.7590001
-0.11726667 0.18427619 1.7590001
-0.1139162 0.18427619 1.7590001
-0.11056572 0.18427619 1.7590001
-0.10721524 0.18427619 1.7590001
-0.13380191 0.23739049 2.266
-0.12948573 0.23739049 2.266
-0.1243962 0.23592381 2.2520001
-0.11930667 0.23435239 2.237
-0.11504572 0.23435239 2.237
-0.11078477 0.23435239 2.237
-0.10585715 0.23288572 2.223
-0.10093714 0.2313143 2.2080002
-0.096731432 0.2313143 2.2080002
-0.091939054 0.22984762 2.194
-0.087240003 0.22848572 2.181
-0.083085716 0.22848572 2.181
-0.078931428 0.22848572 2.181
-0.074777149 0.22848572 2.181
-0.070622861 0.22848572 2.181
-0.066468574 0.22848572 2.181
-0.061914288 0.22701906 2.1670001
-0.05778667 0.22701906 2.1670001
-0.054005716 0.22848572 2.181
-0.049851429 0.22848572 2.181
-0.045403812 0.22701906 2.1670001
-0.04127619 0.22701906 2.1670001
-0.037148573 0.22701906 2.1670001
-0.033234287 0.22848572 2.181
-0.028893335 0.22701906 2.1670001
-0.024605716 0.22555239 2.1530001
-0.020504763 0.22555239 2.1530001
-0.016403811 0.22555239 2.1530001
-0.012228572 0.22419049 2.1400001
-0.0081523815 0.22419049 2.1400001
-0.0040761908 0.22419049 2.1400001
0 0.22419049 2.1400001
0.0040761908 0.22419049 2.1400001
0.0081523815 0.22419049 2.1400001
0.012228572 0.22419049 2.1400001
0.016304763 0.22419049 2.1400001
0.020380953 0.22419049 2.1400001
0.024457144 0.22419049 2.1400001
0.028533334 0.22419049 2.1400001
0.032609526 0.22419049 2.1400001
0.03624 0.22146668 2.1140001
0.040266667 0.22146668 2.1140001
0.044293337 0.22146668 2.1140001
0.048320003 0.22146668 2.1140001
0.052346669 0.22146668 2.1140001
0.056720003 0.22282858 2.1270001
0.060771432 0.22282858 2.1270001
0.06482286 0.22282858 2.1270001
0.068874285 0.22282858 2.1270001
0.072480001 0.22146668 2.1140001
0.076506667 0.22146668 2.1140001
0.080533333 0.22146668 2.1140001
0.084559999 0.22146668 2.1140001
0.071154289 0.17788573 1.6980001
0.074739054 0.17872381 1.7060001
0.078400001 0.17966667 1.715
0.081238098 0.17872381 1.7060001
0.084933333 0.17966667 1.715
0.087737143 0.17872381 1.7060001
0.091466673 0.17966667 1.715
0.094733335 0.17966667 1.715
0.098000005 0.17966667 1.715
0.10126667 0.17966667 1.715
0.10453334 0.17966667 1.715
0.10830286 0.18050477 1.723
0.11158477 0.18050477 1.723
0.11546667 0.18144763 1.7320001
0.11876572 0.18144763 1.7320001
0.12143048 0.18050477 1.723
-0.2632781 0.22005334 2.0630002
-0.25784001 0.21877334 2.0510001
-0.25393334 0.21877334 2.0510001
-0.24856383 0.21749334 2.039
-0.24180001 0.21493334 2.0150001
-0.23796192 0.21493334 2.0150001
-0.23272954 0.21365334 2.003
-0.22765715 0.21248001 1.9920001
-0.22251429 0.21120001 1.9800001
-0.21874286 0.21120001 1.9800001
-0.21377715 0.21002668 1.9690001
-0.20885333 0.20885333 1.9580001
-0.20397143 0.20768 1.9470001
-0.19913143 0.20650667 1.9360001
-0.19544382 0.20650667 1.9360001
-0.1917562 0.20650667 1.9360001
-0.18700001 0.20533334 1.9250001
-0.16501334 0.18858667 1.7680001
-0.16164573 0.18858667 1.7680001
-0.15827811 0.18858667 1.7680001
-0.15491048 0.18858667 1.7680001
-0.15077144 0.18762667 1.7590001
-0.14742096 0.18762667 1.7590001
-0.14407048 0.18762667 1.7590001
-0.14072001 0.18762667 1.7590001
-0.13736953 0.18762667 1.7590001
-0.13401905 0.18762667 1.7590001
-0.13066858 0.18762667 1.7590001
-0.12796953 0.18858667 1.7680001
-0.12396763 0.18762667 1.7590001
-0.12061714 0.18762667 1.7590001
-0.11726667 0.18762667 1.7590001
-0.11449905 0.18858667 1.7680001
-0.11056572 0.18762667 1.7590001
-0.10721524 0.18762667 1.7590001
-0.12868571 0.24021335 2.2520001
-0.12356763 0.23861334 2.237
-0.11930667 0.23861334 2.237
-0.11432572 0.23712 2.223
-0.11009143 0.23712 2.223
-0.10514286 0.23552001 2.2080002
-0.10093714 0.23552001 2.2080002
-0.0961181 0.23402667 2.194
-0.09139429 0.23264001 2.181
-0.086680003 0.23114668 2.1670001
-0.082552381 0.23114668 2.1670001
-0.078424767 0.23114668 2.1670001
-0.074297145 0.23114668 2.1670001
-0.070169523 0.23114668 2.1670001
-0.066041909 0.23114668 2.1670001
-0.061514288 0.22965334 2.1530001
-0.057413336 0.22965334 2.1530001
-0.053312384 0.22965334 2.1530001
-0.049211431 0.22965334 2.1530001
-0.045110479 0.22965334 2.1530001
-0.041009527 0.22965334 2.1530001
-0.036908574 0.22965334 2.1530001
-0.033020955 0.23114668 2.1670001
-0.028533334 0.22826667 2.1400001
-0.024457144 0.22826667 2.1400001
-0.020380953 0.22826667 2.1400001
-0.016304763 0.22826667 2.1400001
-0.012228572 0.22826667 2.1400001
-0.0081523815 0.22826667 2.1400001
-0.0040514288 0.22688001 2.1270001
0 0.22688001 2.1270001
0.0040514288 0.22688001 2.1270001
0.0081028575 0.22688001 2.1270001
0.012154286 0.22688001 2.1270001
0.016205715 0.22688001 2.1270001
0.020257143 0.22688001 2.1270001
0.024308572 0.22688001 2.1270001
0.028360002 0.22688001 2.1270001
0.032213334 0.22549334 2.1140001
0.036017146 0.22410667 2.1010001
0.04001905 0.22410667 2.1010001
0.044020955 0.22410667 2.1010001
0.048022859 0.22410667 2.1010001
0.051702861 0.22272001 2.0880001
0.056026667 0.22410667 2.1010001
0.060028575 0.22410667 2.1010001
0.063634291 0.22272001 2.0880001
0.068032384 0.22410667 2.1010001
0.071588576 0.22272001 2.0880001
0.075565718 0.22272001 2.0880001
0.080533333 0.22549334 2.1140001
0.067919999 0.18112001 1.6980001
0.071154289 0.18112001 1.6980001
0.074739054 0.18197334 1.7060001
0.077988572 0.18197334 1.7060001
0.081238098 0.18197334 1.7060001
0.084487624 0.18197334 1.7060001
0.087737143 0.18197334 1.7060001
0.090986669 0.18197334 1.7060001
0.094733335 0.18293335 1.715
0.098000005 0.18293335 1.715
0.10173905 0.18378668 1.723
0.10502096 0.18378668 1.723
0.10830286 0.18378668 1.723
0.11158477 0.18378668 1.723
0.11606667 0.18570668 1.7410001
0.12 0.18666667 1.7500001
0.12333333 0.18666667 1.7500001
-0.2632781 0.22398287 2.0630002
-0.25784001 0.22268 2.0510001
-0.25393334 0.22268 2.0510001
-0.24856383 0.22137715 2.039
-0.24180001 0.21877144 2.0150001
-0.23796192 0.21877144 2.0150001
-0.23272954 0.21746857 2.003
-0.22765715 0.21627429 1.9920001
-0.22251429 0.21497144 1.9800001
-0.21874286 0.21497144 1.9800001
-0.21377715 0.21377715 1.9690001
-0.20885333 0.21258287 1.9580001
-0.20397143 0.21138857 1.9470001
-0.20026286 0.21138857 1.9470001
-0.19655429 0.21138857 1.9470001
-0.1917562 0.21019429 1.9360001
-0.16501334 0.1919543 1.7680001
-0.16164573 0.1919543 1.7680001
-0.15827811 0.1919543 1.7680001
-0.15491048 0.1919543 1.7680001
-0.15077144 0.19097716 1.7590001
-0.14742096 0.19097716 1.7590001
-0.14407048 0.19097716 1.7590001
-0.14072001 0.19097716 1.7590001
-0.13736953 0.19097716 1.7590001
-0.13401905 0.19097716 1.7590001
-0.13066858 0.19097716 1.7590001
-0.12796953 0.1919543 1.7680001
-0.12460191 0.1919543 1.7680001
-0.12061714 0.19097716 1.7590001
-0.11786667 0.1919543 1.7680001
-0.11449905 0.1919543 1.7680001
-0.11056572 0.19097716 1.7590001
-0.10721524 0.19097716 1.7590001
-0.1279562 0.2352743 2.1670001
-0.12462857 0.23679429 2.181
-0.12047429 0.23679429 2.181
-0.11557334 0.2352743 2.1670001
-0.11216572 0.23679429 2.181
-0.10801143 0.23679429 2.181
-0.10319048 0.2352743 2.1670001
-0.09906286 0.2352743 2.1670001
-0.094935238 0.2352743 2.1670001
-0.090807624 0.2352743 2.1670001
-0.086120002 0.23375429 2.1530001
-0.082019053 0.23375429 2.1530001
-0.077918097 0.23375429 2.1530001
-0.073817149 0.23375429 2.1530001
-0.069716193 0.23375429 2.1530001
-0.065219052 0.23234287 2.1400001
-0.061142858 0.23234287 2.1400001
-0.057066668 0.23234287 2.1400001
-0.052990478 0.23234287 2.1400001
-0.048914287 0.23234287 2.1400001
-0.044838097 0.23234287 2.1400001
-0.040761907 0.23234287 2.1400001
-0.036685716 0.23234287 2.1400001
-0.032609526 0.23234287 2.1400001
-0.028360002 0.23093143 2.1270001
-0.024457144 0.23234287 2.1400001
-0.020380953 0.23234287 2.1400001
-0.016205715 0.23093143 2.1270001
-0.012154286 0.23093143 2.1270001
-0.0081028575 0.23093143 2.1270001
-0.0040514288 0.23093143 2.1270001
0 0.22952001 2.1140001
0.0040266667 0.22952001 2.1140001
0.0080533335 0.22952001 2.1140001
0.012080001 0.22952001 2.1140001
0.016106667 0.22952001 2.1140001
0.020133333 0.22952001 2.1140001
0.024011429 0.22810858 2.1010001
0.028013334 0.22810858 2.1010001
0.032015238 0.22810858 2.1010001
0.035794288 0.22669715 2.0880001
0.03977143 0.22669715 2.0880001
0.043748572 0.22669715 2.0880001
0.047725715 0.22669715 2.0880001
0.051405717 0.22539429 2.0760002
0.055680003 0.22669715 2.0880001
0.059314288 0.22539429 2.0760002
0.06287238 0.22398287 2.0630002
0.066413336 0.22268 2.0510001
0.070320003 0.22268 2.0510001
0.07209143 0.21627429 1.9920001
0.075009525 0.21377715 1.9690001
0.078760006 0.21377715 1.9690001
0.071154289 0.18435429 1.6980001
0.074739054 0.18522286 1.7060001
0.077988572 0.18522286 1.7060001
0.081238098 0.18522286 1.7060001
0.084487624 0.18522286 1.7060001
0.087737143 0.18522286 1.7060001
0.090986669 0.18522286 1.7060001
0.094733335 0.18620001 1.715
0.098000005 0.18620001 1.715
0.10173905 0.18706858 1.723
0.10502096 0.18706858 1.723
0.10830286 0.18706858 1.723
0.11216763 0.18804573 1.7320001
0.11606667 0.18902287 1.7410001
0.12 0.19000001 1.7500001
0.12333333 0.19000001 1.7500001
-0.24180001 0.22260953 2.0150001
-0.23796192 0.22260953 2.0150001
-0.23272954 0.22128382 2.003
-0.22765715 0.22006857 1.9920001
-0.22251429 0.21874286 1.9800001
-0.21874286 0.21874286 1.9800001
-0.21377715 0.21752763 1.9690001
-0.21002668 0.21752763 1.9690001
-0.20512381 0.21631239 1.9580001
-0.20139429 0.21631239 1.9580001
-0.19766477 0.21631239 1.9580001
-0.16838096 0.19532192 1.7680001
-0.16501334 0.19532192 1.7680001
-0.16164573 0.19532192 1.7680001
-0.15827811 0.19532192 1.7680001
-0.15491048 0.19532192 1.7680001
-0.15077144 0.19432762 1.7590001
-0.14742096 0.19432762 1.7590001
-0.14407048 0.19432762 1.7590001
-0.14072001 0.19432762 1.7590001
-0.13736953 0.19432762 1.7590001
-0.13401905 0.19432762 1.7590001
-0.13066858 0.19432762 1.7590001
-0.1273181 0.19432762 1.7590001
-0.12460191 0.19532192 1.7680001
-0.12061714 0.19432762 1.7590001
-0.11726667 0.19432762 1.7590001
-0.1139162 0.19432762 1.7590001
-0.11000001 0.19333334 1.7500001
-0.10666667 0.19333334 1.7500001
-0.12559429 0.23498286 2.1270001
-0.12154286 0.23498286 2.1270001
-0.11820953 0.23641905 2.1400001
-0.11413334 0.23641905 2.1400001
-0.11072572 0.23785524 2.1530001
-0.10662477 0.23785524 2.1530001
-0.10252381 0.23785524 2.1530001
-0.097828574 0.23641905 2.1400001
-0.094321907 0.23785524 2.1530001
-0.089676194 0.23641905 2.1400001
-0.085600004 0.23641905 2.1400001
-0.081523813 0.23641905 2.1400001
-0.077447623 0.23641905 2.1400001
-0.073371433 0.23641905 2.1400001
-0.069295242 0.23641905 2.1400001
-0.06482286 0.23498286 2.1270001
-0.060771432 0.23498286 2.1270001
-0.056720003 0.23498286 2.1270001
-0.052668575 0.23498286 2.1270001
-0.048617143 0.23498286 2.1270001
-0.044565715 0.23498286 2.1270001
-0.040266667 0.23354667 2.1140001
-0.036462858 0.23498286 2.1270001
-0.032213334 0.23354667 2.1140001
-0.028013334 0.23211049 2.1010001
-0.024160001 0.23354667 2.1140001
-0.020257143 0.23498286 2.1270001
-0.016106667 0.23354667 2.1140001
-0.012080001 0.23354667 2.1140001
-0.0080533335 0.23354667 2.1140001
-0.0040019047 0.23211049 2.1010001
0 0.23211049 2.1010001
0.0040019047 0.23211049 2.1010001
0.0079542864 0.2306743 2.0880001
0.011931429 0.2306743 2.0880001
0.015908573 0.2306743 2.0880001
0.019885715 0.2306743 2.0880001
0.023862857 0.2306743 2.0880001
0.027840002 0.2306743 2.0880001
0.031817146 0.2306743 2.0880001
0.035588574 0.22934859 2.0760002
0.039542858 0.22934859 2.0760002
0.043497145 0.22934859 2.0760002
0.047154289 0.2279124 2.0630002
0.051083811 0.2279124 2.0630002
0.055013336 0.2279124 2.0630002
0.058600001 0.22658667 2.0510001
0.062140957 0.22526096 2.039
0.065636195 0.22393525 2.0270002
0.069085717 0.22260953 2.0150001
0.07209143 0.22006857 1.9920001
0.075009525 0.21752763 1.9690001
0.078760006 0.21752763 1.9690001
0.071866669 0.18946667 1.715
0.074739054 0.18847239 1.7060001
0.077988572 0.18847239 1.7060001
0.081238098 0.18847239 1.7060001
0.084933333 0.18946667 1.715
0.087737143 0.18847239 1.7060001
0.091466673 0.18946667 1.715
0.094733335 0.18946667 1.715
0.098000005 0.18946667 1.715
0.10126667 0.18946667 1.715
0.10502096 0.19035049 1.723
0.10830286 0.19035049 1.723
0.11158477 0.19035049 1.723
0.11546667 0.19134477 1.7320001
0.11938286 0.19233905 1.7410001
0.12269905 0.19233905 1.7410001
-0.23796192 0.22644763 2.0150001
-0.23272954 0.22509906 2.003
-0.22765715 0.22386287 1.9920001
-0.22386287 0.22386287 1.9920001
-0.22006857 0.22386287 1.9920001
-0.21497144 0.22251429 1.9800001
-0.21120001 0.22251429 1.9800001
-0.20742857 0.22251429 1.9800001
-0.18277715 0.19970097 1.7770001
-0.17939238 0.19970097 1.7770001
-0.1751162 0.19868954 1.7680001
-0.17174858 0.19868954 1.7680001
-0.16838096 0.19868954 1.7680001
-0.16501334 0.19868954 1.7680001
-0.16164573 0.19868954 1.7680001
-0.15827811 0.19868954 1.7680001
-0.15491048 0.19868954 1.7680001
-0.15154286 0.19868954 1.7680001
-0.14742096 0.1976781 1.7590001
-0.14407048 0.1976781 1.7590001
-0.14072001 0.1976781 1.7590001
-0.13736953 0.1976781 1.7590001
-0.13401905 0.1976781 1.7590001
-0.13133715 0.19868954 1.7680001
-0.12796953 0.19868954 1.7680001
-0.12460191 0.19868954 1.7680001
-0.12123429 0.19868954 1.7680001
-0.11786667 0.19868954 1.7680001
-0.1139162 0.1976781 1.7590001
-0.11056572 0.1976781 1.7590001
-0.12885334 0.23757334 2.1140001
-0.12482667 0.23757334 2.1140001
-0.1208 0.23757334 2.1140001
-0.11677334 0.23757334 2.1140001
-0.11274667 0.23757334 2.1140001
-0.10938857 0.2390343 2.1270001
-0.10533715 0.2390343 2.1270001
-0.10128572 0.2390343 2.1270001
-0.097234286 0.2390343 2.1270001
-0.093182862 0.2390343 2.1270001
-0.08913143 0.2390343 2.1270001
-0.085080005 0.2390343 2.1270001
-0.081028573 0.2390343 2.1270001
-0.076506667 0.23757334 2.1140001
-0.072480001 0.23757334 2.1140001
-0.068453334 0.23757334 2.1140001
-0.064426668 0.23757334 2.1140001
-0.060400002 0.23757334 2.1140001
-0.056373335 0.23757334 2.1140001
-0.052346669 0.23757334 2.1140001
-0.048320003 0.23757334 2.1140001
-0.044293337 0.23757334 2.1140001
-0.04001905 0.23611239 2.1010001
-0.036017146 0.23611239 2.1010001
-0.032015238 0.23611239 2.1010001
-0.027840002 0.23465143 2.0880001
-0.023862857 0.23465143 2.0880001
-0.019885715 0.23465143 2.0880001
-0.015908573 0.23465143 2.0880001
-0.011931429 0.23465143 2.0880001
-0.0079542864 0.23465143 2.0880001
-0.0039771432 0.23465143 2.0880001
0 0.23465143 2.0880001
0.0039771432 0.23465143 2.0880001
0.0079085715 0.23330286 2.0760002
0.011862857 0.23330286 2.0760002
0.015817143 0.23330286 2.0760002
0.019771429 0.23330286 2.0760002
0.023725715 0.23330286 2.0760002
0.02768 0.23330286 2.0760002
0.031634286 0.23330286 2.0760002
0.035365716 0.23184191 2.0630002
0.039295241 0.23184191 2.0630002
0.042973336 0.23049334 2.0510001
0.046880003 0.23049334 2.0510001
0.05078667 0.23049334 2.0510001
0.054373335 0.22914477 2.039
0.058257144 0.22914477 2.039
0.061775241 0.2277962 2.0270002
0.065247625 0.22644763 2.0150001
0.069497146 0.2277962 2.0270002
0.073358096 0.2277962 2.0270002
0.076761909 0.22644763 2.0150001
0.068599999 0.19273335 1.715
0.071866669 0.19273335 1.715
0.075133339 0.19273335 1.715
0.077988572 0.19172192 1.7060001
0.081238098 0.19172192 1.7060001
0.084933333 0.19273335 1.715
0.087737143 0.19172192 1.7060001
0.091466673 0.19273335 1.715
0.094733335 0.19273335 1.715
0.098000005 0.19273335 1.715
0.10126667 0.19273335 1.715
0.10502096 0.19363239 1.723
0.10830286 0.19363239 1.723
0.11158477 0.19363239 1.723
0.11546667 0.19464381 1.7320001
0.11876572 0.19464381 1.7320001
0.12206477 0.19464381 1.7320001
-0.22765715 0.22765715 1.9920001
-0.22386287 0.22765715 1.9920001
-0.22006857 0.22765715 1.9920001
-0.19694857 0.2073143 1.8140001
-0.19349334 0.2073143 1.8140001
-0.20742857 0.22628573 1.9800001
-0.18277715 0.20308572 1.7770001
-0.17939238 0.20308572 1.7770001
-0.17600763 0.20308572 1.7770001
-0.17174858 0.20205715 1.7680001
-0.16838096 0.20205715 1.7680001
-0.16501334 0.20205715 1.7680001
-0.16164573 0.20205715 1.7680001
-0.15827811 0.20205715 1.7680001
-0.15491048 0.20205715 1.7680001
-0.15154286 0.20205715 1.7680001
-0.14742096 0.20102859 1.7590001
-0.14407048 0.20102859 1.7590001
-0.14072001 0.20102859 1.7590001
-0.13736953 0.20102859 1.7590001
-0.13470477 0.20205715 1.7680001
-0.13066858 0.20102859 1.7590001
-0.1273181 0.20102859 1.7590001
-0.12460191 0.20205715 1.7680001
-0.12061714 0.20102859 1.7590001
-0.11786667 0.20205715 1.7680001
-0.1139162 0.20102859 1.7590001
-0.11056572 0.20102859 1.7590001
-0.12806095 0.2401143 2.1010001
-0.12405905 0.2401143 2.1010001
-0.12005715 0.2401143 2.1010001
-0.11677334 0.24160001 2.1140001
-0.11274667 0.24160001 2.1140001
-0.10872 0.24160001 2.1140001
-0.10469334 0.24160001 2.1140001
-0.10066667 0.24160001 2.1140001
-0.096640006 0.24160001 2.1140001
-0.092613339 0.24160001 2.1140001
-0.088586673 0.24160001 2.1140001
-0.084559999 0.24160001 2.1140001
-0.080533333 0.24160001 2.1140001
-0.076506667 0.24160001 2.1140001
-0.072480001 0.24160001 2.1140001
-0.068453334 0.24160001 2.1140001
-0.064030476 0.2401143 2.1010001
-0.060028575 0.2401143 2.1010001
-0.056026667 0.2401143 2.1010001
-0.052024763 0.2401143 2.1010001
-0.048022859 0.2401143 2.1010001
-0.044020955 0.2401143 2.1010001
-0.04001905 0.2401143 2.1010001
-0.035794288 0.23862858 2.0880001
-0.031817146 0.23862858 2.0880001
-0.027506668 0.23577143 2.0630002
-0.023577144 0.23577143 2.0630002
-0.019771429 0.23725715 2.0760002
-0.015817143 0.23725715 2.0760002
-0.011862857 0.23725715 2.0760002
-0.0079085715 0.23725715 2.0760002
-0.0039542858 0.23725715 2.0760002
0 0.23725715 2.0760002
0.0039542858 0.23725715 2.0760002
0.0078590475 0.23577143 2.0630002
0.011788572 0.23577143 2.0630002
0.015626667 0.2344 2.0510001
0.019533334 0.2344 2.0510001
0.023440002 0.2344 2.0510001
0.027346667 0.2344 2.0510001
0.031253334 0.2344 2.0510001
0.035160001 0.2344 2.0510001
0.039066669 0.2344 2.0510001
0.042721905 0.23302858 2.039
0.046605717 0.23302858 2.039
0.050489526 0.23302858 2.039
0.054373335 0.23302858 2.039
0.057914287 0.23165715 2.0270002
0.061409526 0.23028572 2.0150001
0.064859048 0.22891429 2.003
0.068674289 0.22891429 2.003
0.07248953 0.22891429 2.003
0.074590482 0.22377144 1.9580001
0.078320004 0.22377144 1.9580001
0.071866669 0.19600001 1.715
0.074739054 0.19497144 1.7060001
0.078400001 0.19600001 1.715
0.081238098 0.19497144 1.7060001
0.084933333 0.19600001 1.715
0.088200003 0.19600001 1.715
0.091466673 0.19600001 1.715
0.094733335 0.19600001 1.715
0.098000005 0.19600001 1.715
0.10126667 0.19600001 1.715
0.10502096 0.1969143 1.723
0.10830286 0.1969143 1.723
0.11158477 0.1969143 1.723
0.11486667 0.1969143 1.723
0.11876572 0.19794287 1.7320001
0.12206477 0.19794287 1.7320001
0.12536381 0.19794287 1.7320001
0.23904 0.22765715 1.9920001
0.24137144 0.22628573 1.9800001
0.24378096 0.22502857 1.9690001
0.24753144 0.22502857 1.9690001
0.25128192 0.22502857 1.9690001
-0.22006857 0.23145144 1.9920001
-0.19694857 0.21076953 1.8140001
-0.19349334 0.21076953 1.8140001
-0.18277715 0.20647049 1.7770001
-0.17939238 0.20647049 1.7770001
-0.17600763 0.20647049 1.7770001
-0.17174858 0.20542477 1.7680001
-0.16838096 0.20542477 1.7680001
-0.16501334 0.20542477 1.7680001
-0.16164573 0.20542477 1.7680001
-0.15827811 0.20542477 1.7680001
-0.15491048 0.20542477 1.7680001
-0.15154286 0.20542477 1.7680001
-0.14817524 0.20542477 1.7680001
-0.14480762 0.20542477 1.7680001
-0.14144 0.20542477 1.7680001
-0.13807239 0.20542477 1.7680001
-0.13470477 0.20542477 1.7680001
-0.13133715 0.20542477 1.7680001
-0.12796953 0.20542477 1.7680001
-0.12460191 0.20542477 1.7680001
-0.12123429 0.20542477 1.7680001
-0.11786667 0.20542477 1.7680001
-0.11449905 0.20542477 1.7680001
-0.11113143 0.20542477 1.7680001
-0.12726858 0.24260572 2.0880001
-0.12329143 0.24260572 2.0880001
-0.12005715 0.2441162 2.1010001
-0.11605524 0.2441162 2.1010001
-0.11205333 0.2441162 2.1010001
-0.10805143 0.2441162 2.1010001
-0.10404953 0.2441162 2.1010001
-0.10004763 0.2441162 2.1010001
-0.096045718 0.2441162 2.1010001
-0.092613339 0.24562667 2.1140001
-0.088041909 0.2441162 2.1010001
-0.084040001 0.2441162 2.1010001
-0.0800381 0.2441162 2.1010001
-0.076036192 0.2441162 2.1010001
-0.072034292 0.2441162 2.1010001
-0.068032384 0.2441162 2.1010001
-0.063634291 0.24260572 2.0880001
-0.059657145 0.24260572 2.0880001
-0.055680003 0.24260572 2.0880001
-0.051702861 0.24260572 2.0880001
-0.047725715 0.24260572 2.0880001
-0.043748572 0.24260572 2.0880001
-0.03977143 0.24260572 2.0880001
-0.035794288 0.24260572 2.0880001
-0.031634286 0.24121144 2.0760002
-0.027506668 0.23970096 2.0630002
-0.023577144 0.23970096 2.0630002
-0.019533334 0.23830667 2.0510001
-0.015718095 0.23970096 2.0630002
-0.011720001 0.23830667 2.0510001
-0.0078590475 0.23970096 2.0630002
-0.0039295238 0.23970096 2.0630002
0 0.23830667 2.0510001
0.0039066668 0.23830667 2.0510001
0.0078133335 0.23830667 2.0510001
0.011651429 0.23691238 2.039
0.015535239 0.23691238 2.039
0.019533334 0.23830667 2.0510001
0.023302859 0.23691238 2.039
0.027186668 0.23691238 2.039
0.031070478 0.23691238 2.039
0.034954287 0.23691238 2.039
0.038838096 0.23691238 2.039
0.042721905 0.23691238 2.039
0.046331432 0.2355181 2.0270002
0.050192382 0.2355181 2.0270002
0.053733334 0.23412381 2.0150001
0.05757143 0.23412381 2.0150001
0.06104381 0.23272954 2.003
0.064502858 0.23145144 1.9920001
0.067885719 0.23005715 1.9800001
0.071259052 0.22877906 1.9690001
0.074590482 0.22750096 1.9580001
0.078320004 0.22750096 1.9580001
0.071866669 0.19926667 1.715
0.075133339 0.19926667 1.715
0.078400001 0.19926667 1.715
0.081238098 0.19822095 1.7060001
0.084487624 0.19822095 1.7060001
0.087737143 0.19822095 1.7060001
0.091466673 0.19926667 1.715
0.094733335 0.19926667 1.715
0.098000005 0.19926667 1.715
0.10126667 0.19926667 1.715
0.10502096 0.20019619 1.723
0.10830286 0.20019619 1.723
0.11158477 0.20019619 1.723
0.11486667 0.20019619 1.723
0.11876572 0.20124191 1.7320001
0.12206477 0.20124191 1.7320001
0.12536381 0.20124191 1.7320001
0.12866285 0.20124191 1.7320001
0.22001144 0.21646287 1.863
0.22356001 0.21646287 1.863
0.23600763 0.22494477 1.9360001
0.23969525 0.22494477 1.9360001
0.24338287 0.22494477 1.9360001
0.24707049 0.22494477 1.9360001
-0.21764953 0.21764953 1.8430001
-0.21413906 0.21764953 1.8430001
-0.21062858 0.21764953 1.8430001
-0.20711811 0.21764953 1.8430001
-0.20250286 0.21646857 1.8330001
-0.19694857 0.21422477 1.8140001
-0.19146667 0.21198095 1.7950001
-0.18804763 0.21198095 1.7950001
-0.18277715 0.20985524 1.7770001
-0.17939238 0.20985524 1.7770001
-0.17600763 0.20985524 1.7770001
-0.17174858 0.20879239 1.7680001
-0.16838096 0.20879239 1.7680001
-0.16501334 0.20879239 1.7680001
-0.16164573 0.20879239 1.7680001
-0.15827811 0.20879239 1.7680001
-0.15491048 0.20879239 1.7680001
-0.15154286 0.20879239 1.7680001
-0.14817524 0.20879239 1.7680001
-0.14480762 0.20879239 1.7680001
-0.14144 0.20879239 1.7680001
-0.13807239 0.20879239 1.7680001
-0.13470477 0.20879239 1.7680001
-0.13133715 0.20879239 1.7680001
-0.12796953 0.20879239 1.7680001
-0.12460191 0.20879239 1.7680001
-0.12123429 0.20879239 1.7680001
-0.11786667 0.20879239 1.7680001
-0.11449905 0.20879239 1.7680001
-0.12967429 0.24363048 2.0630002
-0.12653714 0.24516572 2.0760002
-0.12258286 0.24516572 2.0760002
-0.11862858 0.24516572 2.0760002
-0.11533715 0.24658287 2.0880001
-0.11136001 0.24658287 2.0880001
-0.10738286 0.24658287 2.0880001
-0.10340572 0.24658287 2.0880001
-0.098857149 0.24516572 2.0760002
-0.095451429 0.24658287 2.0880001
-0.091474287 0.24658287 2.0880001
-0.087497145 0.24658287 2.0880001
-0.083520003 0.24658287 2.0880001
-0.07954286 0.24658287 2.0880001
-0.075565718 0.24658287 2.0880001
-0.071588576 0.24658287 2.0880001
-0.067611434 0.24658287 2.0880001
-0.063268572 0.24516572 2.0760002
-0.059314288 0.24516572 2.0760002
-0.055360001 0.24516572 2.0760002
-0.051405717 0.24516572 2.0760002
-0.047451429 0.24516572 2.0760002
-0.043224763 0.24363048 2.0630002
-0.039542858 0.24516572 2.0760002
-0.035365716 0.24363048 2.0630002
-0.03143619 0.24363048 2.0630002
-0.027186668 0.24079619 2.039
-0.023302859 0.24079619 2.039
-0.019419048 0.24079619 2.039
-0.01544381 0.23937906 2.0270002
-0.011582858 0.23937906 2.0270002
-0.0077676196 0.24079619 2.039
-0.0038838098 0.24079619 2.039
0 0.24079619 2.039
0.0038838098 0.24079619 2.039
0.0077676196 0.24079619 2.039
0.011582858 0.23937906 2.0270002
0.015352381 0.23796192 2.0150001
0.019304764 0.23937906 2.0270002
0.023165716 0.23937906 2.0270002
0.027026668 0.23937906 2.0270002
0.030887621 0.23937906 2.0270002
0.034748573 0.23937906 2.0270002
0.038609527 0.23937906 2.0270002
0.04221905 0.23796192 2.0150001
0.046057146 0.23796192 2.0150001
0.049598098 0.23654477 2.003
0.053413335 0.23654477 2.003
0.057228573 0.23654477 2.003
0.06104381 0.23654477 2.003
0.064114287 0.23382857 1.9800001
0.067508571 0.23252954 1.9690001
0.070860952 0.23123048 1.9580001
0.074171431 0.22993144 1.9470001
0.077880003 0.22993144 1.9470001
0.071866669 0.20253333 1.715
0.075133339 0.20253333 1.715
0.078400001 0.20253333 1.715
0.081238098 0.20147048 1.7060001
0.084487624 0.20147048 1.7060001
0.087737143 0.20147048 1.7060001
0.091466673 0.20253333 1.715
0.094733335 0.20253333 1.715
0.098000005 0.20253333 1.715
0.10126667 0.20253333 1.715
0.10502096 0.2034781 1.723
0.10830286 0.2034781 1.723
0.11158477 0.2034781 1.723
0.11486667 0.2034781 1.723
0.11876572 0.20454095 1.7320001
0.12206477 0.20454095 1.7320001
0.12471239 0.2034781 1.723
0.12799428 0.2034781 1.723
0.15340762 0.22119239 1.8730001
0.15613715 0.22001144 1.863
0.15882857 0.21883048 1.853
0.16235811 0.21883048 1.853
0.1676781 0.22119239 1.8730001
0.20085335 0.22237334 1.8830001
0.20444001 0.22237334 1.8830001
0.20802668 0.22237334 1.8830001
0.20936573 0.22001144 1.863
0.21291429 0.22001144 1.863
0.22001144 0.22001144 1.863
0.22356001 0.22001144 1.863
0.22832763 0.22119239 1.8730001
0.23573335 0.22485334 1.904
0.23546286 0.22119239 1.8730001
0.23903048 0.22119239 1.8730001
0.2425981 0.22119239 1.8730001
0.24485144 0.22001144 1.863
0.24706668 0.21883048 1.853
0.2505962 0.21883048 1.853
0.2527543 0.21764953 1.8430001
0.25626478 0.21764953 1.8430001
-0.22941905 0.22236001 1.853
-0.22588953 0.22236001 1.853
-0.22116001 0.22116001 1.8430001
-0.21764953 0.22116001 1.8430001
-0.21413906 0.22116001 1.8430001
-0.20948572 0.21996 1.8330001
-0.20599429 0.21996 1.8330001
-0.20250286 0.21996 1.8330001
-0.19694857 0.21768001 1.8140001
-0.19242667 0.21648 1.8040001
-0.18804763 0.21540001 1.7950001
-0.1855543 0.21648 1.8040001
-0.17939238 0.21324001 1.7770001
-0.17600763 0.21324001 1.7770001
-0.17174858 0.21216001 1.7680001
-0.16838096 0.21216001 1.7680001
-0.16501334 0.21216001 1.7680001
-0.16164573 0.21216001 1.7680001
