# .PCD v0.7 - Point Cloud Data file format
VERSION 0.7
FIELDS x y z
SIZE 4 4 4
TYPE F F F
COUNT 1 1 1
WIDTH 1497
HEIGHT 1
VIEWPOINT 0 0 0 1 0 0 0
POINTS 1497
DATA ascii
0.22289334 -0.0061066668 1.603
0.22594668 -0.0061066668 1.603
0.22800002 -0.0060800002 1.5960001
0.23104002 -0.0060800002 1.5960001
0.23510668 -0.0061066668 1.603
0.23712 -0.0060800002 1.5960001
0.24016 -0.0060800002 1.5960001
0.24213335 -0.0060533336 1.5890001
0.24732001 -0.0061066668 1.603
0.25162286 -0.0061371429 1.6110001
0.2557981 -0.0061638099 1.618
0.25888002 -0.0061638099 1.618
0.26082858 -0.0061371429 1.6110001
0.26389715 -0.0061371429 1.6110001
0.26812571 -0.0061638099 1.618
0.27120763 -0.0061638099 1.618
0.27428955 -0.0061638099 1.618
0.28011429 -0.0062247622 1.6340001
0.28444001 -0.0062514287 1.641
0.28756574 -0.0062514287 1.641
0.2921086 -0.0062819049 1.649
0.2981143 -0.0063428571 1.6650001
0.30128571 -0.0063428571 1.6650001
0.30445716 -0.0063428571 1.6650001
0.30910668 -0.0063733337 1.6730001
0.31378669 -0.0064038099 1.6810001
0.31698859 -0.0064038099 1.6810001
0.32019049 -0.0064038099 1.6810001
0.32512382 -0.0064380956 1.6900001
0.32989717 -0.0064685717 1.6980001
0.33470097 -0.0064990479 1.7060001
0.3379505 -0.0064990479 1.7060001
0.34300002 -0.0065333336 1.715
0.34444955 -0.0064990479 1.7060001
0.34769905 -0.0064990479 1.7060001
0.35094857 -0.0064990479 1.7060001
0.35606667 -0.0065333336 1.715
0.36100954 -0.0065638097 1.723
0.36429143 -0.0065638097 1.723
0.36757335 -0.0065638097 1.723
0.37279239 -0.0065980954 1.7320001
0.37609145 -0.0065980954 1.7320001
0.38136193 -0.0066323811 1.7410001
0.38666669 -0.0066666668 1.7500001
0.39000002 -0.0066666668 1.7500001
0.39333335 -0.0066666668 1.7500001
0.39666668 -0.0066666668 1.7500001
0.40000001 -0.0066666668 1.7500001
-0.34073335 -0.0035866669 1.8830001
-0.33714667 -0.0035866669 1.8830001
-0.33356002 -0.0035866669 1.8830001
-0.32997334 -0.0035866669 1.8830001
-0.32465336 -0.0035676192 1.8730001
-0.32108572 -0.0035676192 1.8730001
-0.31751812 -0.0035676192 1.8730001
-0.31395048 -0.0035676192 1.8730001
-0.31038287 -0.0035676192 1.8730001
-0.30681524 -0.0035676192 1.8730001
-0.30162859 -0.0035485716 1.863
-0.29808 -0.0035485716 1.863
-0.29453143 -0.0035485716 1.863
-0.29098287 -0.0035485716 1.863
-0.28743431 -0.0035485716 1.863
-0.28540954 -0.0035676192 1.8730001
-0.2818419 -0.0035676192 1.8730001
-0.2782743 -0.0035676192 1.8730001
-0.27470669 -0.0035676192 1.8730001
-0.27113906 -0.0035676192 1.8730001
-0.26900002 -0.0035866669 1.8830001
-0.26541334 -0.0035866669 1.8830001
-0.26182666 -0.0035866669 1.8830001
-0.25824001 -0.0035866669 1.8830001
-0.25465333 -0.0035866669 1.8830001
-0.25253335 -0.0036076191 1.8940001
-0.24892573 -0.0036076191 1.8940001
-0.24661334 -0.0036266667 1.904
-0.24298668 -0.0036266667 1.904
-0.23936 -0.0036266667 1.904
-0.23573335 -0.0036266667 1.904
-0.23344763 -0.0036476192 1.9150001
-0.22980002 -0.0036476192 1.9150001
-0.22615239 -0.0036476192 1.9150001
-0.22366667 -0.0036666668 1.9250001
-0.22000001 -0.0036666668 1.9250001
-0.21756953 -0.0036876192 1.9360001
-0.21388191 -0.0036876192 1.9360001
-0.21138857 -0.0037085717 1.9470001
-0.20768 -0.0037085717 1.9470001
-0.20397143 -0.0037085717 1.9470001
-0.20139429 -0.0037295239 1.9580001
-0.19766477 -0.0037295239 1.9580001
-0.19393525 -0.0037295239 1.9580001
-0.19020572 -0.0037295239 1.9580001
-0.18752381 -0.0037504763 1.9690001
-0.18377334 -0.0037504763 1.9690001
-0.18002287 -0.0037504763 1.9690001
-0.17725715 -0.0037714287 1.9800001
-0.17453715 -0.0037942859 1.9920001
-0.17074287 -0.0037942859 1.9920001
-0.16787048 -0.0038152381 2.003
-0.16405524 -0.0038152381 2.003
-0.16024001 -0.0038152381 2.003
-0.15642476 -0.0038152381 2.003
-0.15352382 -0.0038380953 2.0150001
-0.14968573 -0.0038380953 2.0150001
-0.14584762 -0.0038380953 2.0150001
-0.14200953 -0.0038380953 2.0150001
-0.13899429 -0.0038609526 2.0270002
-0.13513334 -0.0038609526 2.0270002
-0.13204953 -0.0038838098 2.039
-0.12892 -0.0039066668 2.0510001
-0.12501334 -0.0039066668 2.0510001
-0.12181524 -0.0039295238 2.0630002
-0.11788572 -0.0039295238 2.0630002
-0.1139562 -0.0039295238 2.0630002
-0.11002667 -0.0039295238 2.0630002
-0.10609715 -0.0039295238 2.0630002
-0.10216762 -0.0039295238 2.0630002
-0.098238096 -0.0039295238 2.0630002
-0.094902858 -0.0039542858 2.0760002
-0.090948574 -0.0039542858 2.0760002
-0.08699429 -0.0039542858 2.0760002
-0.083520003 -0.0039771432 2.0880001
-0.07954286 -0.0039771432 2.0880001
-0.075565718 -0.0039771432 2.0880001
-0.071588576 -0.0039771432 2.0880001
-0.068032384 -0.0040019047 2.1010001
-0.064030476 -0.0040019047 2.1010001
-0.060028575 -0.0040019047 2.1010001
-0.056026667 -0.0040019047 2.1010001
-0.052346669 -0.0040266667 2.1140001
-0.048320003 -0.0040266667 2.1140001
-0.044293337 -0.0040266667 2.1140001
-0.040266667 -0.0040266667 2.1140001
-0.03624 -0.0040266667 2.1140001
-0.032015238 -0.0040019047 2.1010001
-0.028013334 -0.0040019047 2.1010001
-0.024011429 -0.0040019047 2.1010001
-0.020009525 -0.0040019047 2.1010001
-0.016007619 -0.0040019047 2.1010001
-0.012005715 -0.0040019047 2.1010001
-0.0080533335 -0.0040266667 2.1140001
-0.0040266667 -0.0040266667 2.1140001
0 -0.0040514288 2.1270001
0.0040266667 -0.0040266667 2.1140001
0.0080533335 -0.0040266667 2.1140001
0.012080001 -0.0040266667 2.1140001
0.016106667 -0.0040266667 2.1140001
0.020133333 -0.0040266667 2.1140001
0.024308572 -0.0040514288 2.1270001
0.028360002 -0.0040514288 2.1270001
0.03241143 -0.0040514288 2.1270001
0.036462858 -0.0040514288 2.1270001
0.040514287 -0.0040514288 2.1270001
0.044565715 -0.0040514288 2.1270001
0.048617143 -0.0040514288 2.1270001
0.052668575 -0.0040514288 2.1270001
0.056720003 -0.0040514288 2.1270001
0.060771432 -0.0040514288 2.1270001
0.06482286 -0.0040514288 2.1270001
0.068874285 -0.0040514288 2.1270001
0.072925717 -0.0040514288 2.1270001
0.076977149 -0.0040514288 2.1270001
0.081523813 -0.0040761908 2.1400001
0.085080005 -0.0040514288 2.1270001
0.08913143 -0.0040514288 2.1270001
0.093182862 -0.0040514288 2.1270001
0.097234286 -0.0040514288 2.1270001
0.10190476 -0.0040761908 2.1400001
0.10598096 -0.0040761908 2.1400001
0.11005715 -0.0040761908 2.1400001
0.11344001 -0.0040514288 2.1270001
0.11820953 -0.0040761908 2.1400001
0.12228572 -0.0040761908 2.1400001
0.12636191 -0.0040761908 2.1400001
0.1304381 -0.0040761908 2.1400001
0.13451429 -0.0040761908 2.1400001
0.13859048 -0.0040761908 2.1400001
0.14266667 -0.0040761908 2.1400001
0.14674287 -0.0040761908 2.1400001
0.15081905 -0.0040761908 2.1400001
0.1539543 -0.0040514288 2.1270001
0.15800571 -0.0040514288 2.1270001
0.16205715 -0.0040514288 2.1270001
0.16610858 -0.0040514288 2.1270001
0.16912 -0.0040266667 2.1140001
0.17314668 -0.0040266667 2.1140001
0.17717335 -0.0040266667 2.1140001
0.18120001 -0.0040266667 2.1140001
0.18522668 -0.0040266667 2.1140001
0.18925335 -0.0040266667 2.1140001
0.19209144 -0.0040019047 2.1010001
0.19609334 -0.0040019047 2.1010001
0.19885714 -0.0039771432 2.0880001
0.20409715 -0.0040019047 2.1010001
0.20681144 -0.0039771432 2.0880001
0.21078858 -0.0039771432 2.0880001
0.15973715 -0.0029580954 1.5530001
0.16269524 -0.0029580954 1.5530001
0.16565333 -0.0029580954 1.5530001
0.16861144 -0.0029580954 1.5530001
0.17156953 -0.0029580954 1.5530001
0.17452763 -0.0029580954 1.5530001
0.17748572 -0.0029580954 1.5530001
0.18044382 -0.0029580954 1.5530001
0.18257524 -0.0029447621 1.5460001
0.18552001 -0.0029447621 1.5460001
0.18846478 -0.0029447621 1.5460001
0.19140953 -0.0029447621 1.5460001
0.19347429 -0.0029314286 1.539
0.19640572 -0.0029314286 1.539
0.20115048 -0.0029580954 1.5530001
0.20226859 -0.0029314286 1.539
0.2052 -0.0029314286 1.539
0.21584001 -0.0030400001 1.5960001
0.22093715 -0.0030685714 1.6110001
0.22289334 -0.0030533334 1.603
0.22594668 -0.0030533334 1.603
0.22800002 -0.0030400001 1.5960001
0.23104002 -0.0030400001 1.5960001
0.23510668 -0.0030533334 1.603
0.23712 -0.0030400001 1.5960001
0.24016 -0.0030400001 1.5960001
0.2432 -0.0030400001 1.5960001
0.24624 -0.0030400001 1.5960001
0.25037333 -0.0030533334 1.603
0.25469145 -0.0030685714 1.6110001
0.25776002 -0.0030685714 1.6110001
0.26196191 -0.003081905 1.618
0.26389715 -0.0030685714 1.6110001
0.26812571 -0.003081905 1.618
0.27120763 -0.003081905 1.618
0.27428955 -0.003081905 1.618
0.27737144 -0.003081905 1.618
0.28045335 -0.003081905 1.618
0.28633904 -0.0031123811 1.6340001
0.29069144 -0.0031257144 1.641
0.29668191 -0.0031561905 1.6570001
0.2998381 -0.0031561905 1.6570001
0.30445716 -0.0031714286 1.6650001
0.30910668 -0.0031866669 1.6730001
0.31229335 -0.0031866669 1.6730001
0.31548002 -0.0031866669 1.6730001
0.32019049 -0.0032019049 1.6810001
0.32339239 -0.0032019049 1.6810001
0.32659429 -0.0032019049 1.6810001
0.33156192 -0.0032190478 1.6900001
0.33636573 -0.0032342859 1.6980001
0.34120002 -0.0032495239 1.7060001
0.34283429 -0.0032342859 1.6980001
0.34606859 -0.0032342859 1.6980001
0.35094857 -0.0032495239 1.7060001
0.3541981 -0.0032495239 1.7060001
0.35933334 -0.0032666668 1.715
0.3626 -0.0032666668 1.715
0.36586669 -0.0032666668 1.715
0.37085524 -0.0032819049 1.723
0.37609145 -0.0032990477 1.7320001
0.38136193 -0.0033161906 1.7410001
0.3846781 -0.0033161906 1.7410001
0.38799429 -0.0033161906 1.7410001
0.39333335 -0.0033333334 1.7500001
0.39666668 -0.0033333334 1.7500001
0.39794287 -0.0033161906 1.7410001
0.40125906 -0.0033161906 1.7410001
-0.34272382 0 1.8940001
-0.33911622 0 1.8940001
-0.33356002 0 1.8830001
-0.32997334 0 1.8830001
-0.32465336 0 1.8730001
-0.32108572 0 1.8730001
-0.31751812 0 1.8730001
-0.31395048 0 1.8730001
-0.31038287 0 1.8730001
-0.30681524 0 1.8730001
-0.30162859 0 1.863
-0.29808 0 1.863
-0.29453143 0 1.863
-0.29098287 0 1.863
-0.28743431 0 1.863
-0.28388572 0 1.863
-0.2818419 0 1.8730001
-0.2782743 0 1.8730001
-0.27470669 0 1.8730001
-0.27113906 0 1.8730001
-0.26757145 0 1.8730001
-0.26400381 0 1.8730001
-0.26043621 0 1.8730001
-0.25686857 0 1.8730001
-0.25465333 0 1.8830001
-0.25106668 0 1.8830001
-0.24892573 0 1.8940001
-0.2453181 0 1.8940001
-0.24171048 0 1.8940001
-0.23810287 0 1.8940001
-0.23573335 0 1.904
-0.23344763 0 1.9150001
-0.22980002 0 1.9150001
-0.22615239 0 1.9150001
-0.22366667 0 1.9250001
-0.22000001 0 1.9250001
-0.21756953 0 1.9360001
-0.21388191 0 1.9360001
-0.21138857 0 1.9470001
-0.20768 0 1.9470001
-0.20397143 0 1.9470001
-0.20139429 0 1.9580001
-0.19766477 0 1.9580001
-0.19393525 0 1.9580001
-0.19020572 0 1.9580001
-0.18752381 0 1.9690001
-0.18377334 0 1.9690001
-0.18002287 0 1.9690001
-0.17725715 0 1.9800001
-0.17453715 0 1.9920001
-0.17074287 0 1.9920001
-0.16787048 0 2.003
-0.16405524 0 2.003
-0.16024001 0 2.003
-0.15736191 0 2.0150001
-0.15352382 0 2.0150001
-0.14968573 0 2.0150001
-0.14584762 0 2.0150001
-0.14285524 0 2.0270002
-0.13899429 0 2.0270002
-0.13513334 0 2.0270002
-0.13204953 0 2.039
-0.12892 0 2.0510001
-0.12501334 0 2.0510001
-0.12110667 0 2.0510001
-0.11788572 0 2.0630002
-0.1139562 0 2.0630002
-0.11002667 0 2.0630002
-0.10609715 0 2.0630002
-0.10216762 0 2.0630002
-0.098857149 0 2.0760002
-0.094902858 0 2.0760002
-0.090948574 0 2.0760002
-0.08699429 0 2.0760002
-0.083520003 0 2.0880001
-0.07954286 0 2.0880001
-0.075565718 0 2.0880001
-0.071588576 0 2.0880001
-0.068032384 0 2.1010001
-0.064030476 0 2.1010001
-0.060028575 0 2.1010001
-0.056026667 0 2.1010001
-0.052346669 0 2.1140001
-0.048320003 0 2.1140001
-0.044293337 0 2.1140001
-0.040266667 0 2.1140001
-0.03624 0 2.1140001
-0.032015238 0 2.1010001
-0.028013334 0 2.1010001
-0.024011429 0 2.1010001
-0.020009525 0 2.1010001
-0.016007619 0 2.1010001
-0.012005715 0 2.1010001
-0.0080038095 0 2.1010001
-0.0040019047 0 2.1010001
0 0 2.1140001
0.0040266667 0 2.1140001
0.0080533335 0 2.1140001
0.012080001 0 2.1140001
0.016106667 0 2.1140001
0.020133333 0 2.1140001
0.024308572 0 2.1270001
0.028186668 0 2.1140001
0.03241143 0 2.1270001
0.036462858 0 2.1270001
0.040514287 0 2.1270001
0.044565715 0 2.1270001
0.048617143 0 2.1270001
0.052668575 0 2.1270001
0.056720003 0 2.1270001
0.060771432 0 2.1270001
0.06482286 0 2.1270001
0.068874285 0 2.1270001
0.072925717 0 2.1270001
0.076977149 0 2.1270001
0.081028573 0 2.1270001
0.085080005 0 2.1270001
0.08913143 0 2.1270001
0.093182862 0 2.1270001
0.097234286 0 2.1270001
0.10128572 0 2.1270001
0.10598096 0 2.1400001
0.10938857 0 2.1270001
0.11344001 0 2.1270001
0.11820953 0 2.1400001
0.12228572 0 2.1400001
0.12636191 0 2.1400001
0.1304381 0 2.1400001
0.13451429 0 2.1400001
0.13859048 0 2.1400001
0.14266667 0 2.1400001
0.14585143 0 2.1270001
0.14990287 0 2.1270001
0.1539543 0 2.1270001
0.15800571 0 2.1270001
0.16205715 0 2.1270001
0.16509333 0 2.1140001
0.16912 0 2.1140001
0.17314668 0 2.1140001
0.17717335 0 2.1140001
0.18120001 0 2.1140001
0.18522668 0 2.1140001
0.18808953 0 2.1010001
0.19209144 0 2.1010001
0.19609334 0 2.1010001
0.19885714 0 2.0880001
0.20409715 0 2.1010001
0.20681144 0 2.0880001
0.21210095 0 2.1010001
0.15973715 0 1.5530001
0.16269524 0 1.5530001
0.16565333 0 1.5530001
0.16861144 0 1.5530001
0.17156953 0 1.5530001
0.17374095 0 1.5460001
0.17668572 0 1.5460001
0.17881715 0 1.539
0.18174858 0 1.539
0.18384001 0 1.5320001
0.18761143 0 1.539
0.19054286 0 1.539
0.19259429 0 1.5320001
0.19640572 0 1.539
0.19933715 0 1.539
0.20226859 0 1.539
0.2052 0 1.539
0.21286477 0 1.5740001
0.21984001 0 1.603
0.22094667 0 1.5890001
0.22397335 0 1.5890001
0.22700001 0 1.5890001
0.23002668 0 1.5890001
0.23408 0 1.5960001
0.23608001 0 1.5890001
0.24016 0 1.5960001
0.24213335 0 1.5890001
0.24624 0 1.5960001
0.24928001 0 1.5960001
0.25342667 0 1.603
0.25776002 0 1.6110001
0.26082858 0 1.6110001
0.26389715 0 1.6110001
0.26696572 0 1.6110001
0.27120763 0 1.618
0.27428955 0 1.618
0.27874288 0 1.626
0.28184 0 1.626
0.28493714 0 1.626
0.28803429 0 1.626
0.29256383 0 1.6340001
0.29694286 0 1.641
0.30153143 0 1.649
0.30762857 0 1.6650001
0.30930668 0 1.6570001
0.31397143 0 1.6650001
0.31866667 0 1.6730001
0.32185334 0 1.6730001
0.32504001 0 1.6730001
0.3297962 0 1.6810001
0.33478096 0 1.6900001
0.33960003 0 1.6980001
0.34121907 0 1.6900001
0.34606859 0 1.6980001
0.34930286 0 1.6980001
0.3541981 0 1.7060001
0.35744762 0 1.7060001
0.36069715 0 1.7060001
0.36586669 0 1.715
0.37085524 0 1.723
0.37413716 0 1.723
0.37939048 0 1.7320001
0.3846781 0 1.7410001
0.38799429 0 1.7410001
0.39131048 0 1.7410001
0.39870667 0 1.7590001
0.40000001 0 1.7500001
0.40125906 0 1.7410001
0.40457526 0 1.7410001
-0.34272382 0.0036076191 1.8940001
-0.33714667 0.0035866669 1.8830001
-0.33356002 0.0035866669 1.8830001
-0.32997334 0.0035866669 1.8830001
-0.32465336 0.0035676192 1.8730001
-0.32108572 0.0035676192 1.8730001
-0.31751812 0.0035676192 1.8730001
-0.31395048 0.0035676192 1.8730001
-0.31038287 0.0035676192 1.8730001
-0.30517715 0.0035485716 1.863
-0.30162859 0.0035485716 1.863
-0.29808 0.0035485716 1.863
-0.29295048 0.003529524 1.853
-0.29098287 0.0035485716 1.863
-0.28589144 0.003529524 1.853
-0.28236192 0.003529524 1.853
-0.27883241 0.003529524 1.853
-0.27530286 0.003529524 1.853
-0.27324 0.0035485716 1.863
-0.26969144 0.0035485716 1.863
-0.26614287 0.0035485716 1.863
-0.26400381 0.0035676192 1.8730001
-0.26182666 0.0035866669 1.8830001
-0.25824001 0.0035866669 1.8830001
-0.25465333 0.0035866669 1.8830001
-0.25253335 0.0036076191 1.8940001
-0.24892573 0.0036076191 1.8940001
-0.2453181 0.0036076191 1.8940001
-0.24171048 0.0036076191 1.8940001
-0.23810287 0.0036076191 1.8940001
-0.23573335 0.0036266667 1.904
-0.23344763 0.0036476192 1.9150001
-0.23100001 0.0036666668 1.9250001
-0.22733334 0.0036666668 1.9250001
-0.22366667 0.0036666668 1.9250001
-0.22000001 0.0036666668 1.9250001
-0.21756953 0.0036876192 1.9360001
-0.21388191 0.0036876192 1.9360001
-0.21019429 0.0036876192 1.9360001
-0.20768 0.0037085717 1.9470001
-0.20397143 0.0037085717 1.9470001
-0.20139429 0.0037295239 1.9580001
-0.19766477 0.0037295239 1.9580001
-0.19393525 0.0037295239 1.9580001
-0.19020572 0.0037295239 1.9580001
-0.18752381 0.0037504763 1.9690001
-0.18377334 0.0037504763 1.9690001
-0.18002287 0.0037504763 1.9690001
-0.17725715 0.0037714287 1.9800001
-0.17348573 0.0037714287 1.9800001
-0.17074287 0.0037942859 1.9920001
-0.16787048 0.0038152381 2.003
-0.16405524 0.0038152381 2.003
-0.1612 0.0038380953 2.0150001
-0.15736191 0.0038380953 2.0150001
-0.15352382 0.0038380953 2.0150001
-0.14968573 0.0038380953 2.0150001
-0.14584762 0.0038380953 2.0150001
-0.14200953 0.0038380953 2.0150001
-0.13899429 0.0038609526 2.0270002
-0.13513334 0.0038609526 2.0270002
-0.13204953 0.0038838098 2.039
-0.12892 0.0039066668 2.0510001
-0.12501334 0.0039066668 2.0510001
-0.12110667 0.0039066668 2.0510001
-0.11788572 0.0039295238 2.0630002
-0.1139562 0.0039295238 2.0630002
-0.11002667 0.0039295238 2.0630002
-0.10676572 0.0039542858 2.0760002
-0.10216762 0.0039295238 2.0630002
-0.098238096 0.0039295238 2.0630002
-0.094902858 0.0039542858 2.0760002
-0.090948574 0.0039542858 2.0760002
-0.08699429 0.0039542858 2.0760002
-0.083040006 0.0039542858 2.0760002
-0.079085715 0.0039542858 2.0760002
-0.075131431 0.0039542858 2.0760002
-0.071177147 0.0039542858 2.0760002
-0.067611434 0.0039771432 2.0880001
-0.063634291 0.0039771432 2.0880001
-0.060028575 0.0040019047 2.1010001
-0.056026667 0.0040019047 2.1010001
-0.052346669 0.0040266667 2.1140001
-0.048320003 0.0040266667 2.1140001
-0.044293337 0.0040266667 2.1140001
-0.040266667 0.0040266667 2.1140001
-0.03624 0.0040266667 2.1140001
-0.032015238 0.0040019047 2.1010001
-0.028013334 0.0040019047 2.1010001
-0.024011429 0.0040019047 2.1010001
-0.020133333 0.0040266667 2.1140001
-0.016007619 0.0040019047 2.1010001
-0.012005715 0.0040019047 2.1010001
-0.0080038095 0.0040019047 2.1010001
-0.0040019047 0.0040019047 2.1010001
0 0.0040266667 2.1140001
0.0040266667 0.0040266667 2.1140001
0.0080533335 0.0040266667 2.1140001
0.012080001 0.0040266667 2.1140001
0.016106667 0.0040266667 2.1140001
0.020133333 0.0040266667 2.1140001
0.024160001 0.0040266667 2.1140001
0.028360002 0.0040514288 2.1270001
0.03241143 0.0040514288 2.1270001
0.036462858 0.0040514288 2.1270001
0.040514287 0.0040514288 2.1270001
0.044565715 0.0040514288 2.1270001
0.048617143 0.0040514288 2.1270001
0.052668575 0.0040514288 2.1270001
0.056720003 0.0040514288 2.1270001
0.060771432 0.0040514288 2.1270001
0.06482286 0.0040514288 2.1270001
0.068453334 0.0040266667 2.1140001
0.072480001 0.0040266667 2.1140001
0.076977149 0.0040514288 2.1270001
0.081028573 0.0040514288 2.1270001
0.085080005 0.0040514288 2.1270001
0.08913143 0.0040514288 2.1270001
0.093182862 0.0040514288 2.1270001
0.097234286 0.0040514288 2.1270001
0.10128572 0.0040514288 2.1270001
0.10598096 0.0040761908 2.1400001
0.11005715 0.0040761908 2.1400001
0.11344001 0.0040514288 2.1270001
0.11820953 0.0040761908 2.1400001
0.12228572 0.0040761908 2.1400001
0.12636191 0.0040761908 2.1400001
0.1304381 0.0040761908 2.1400001
0.13451429 0.0040761908 2.1400001
0.13859048 0.0040761908 2.1400001
0.14266667 0.0040761908 2.1400001
0.14585143 0.0040514288 2.1270001
0.15081905 0.0040761908 2.1400001
0.1539543 0.0040514288 2.1270001
0.15800571 0.0040514288 2.1270001
0.16205715 0.0040514288 2.1270001
0.16509333 0.0040266667 2.1140001
0.16912 0.0040266667 2.1140001
0.17314668 0.0040266667 2.1140001
0.17717335 0.0040266667 2.1140001
0.18120001 0.0040266667 2.1140001
0.18408762 0.0040019047 2.1010001
0.18925335 0.0040266667 2.1140001
0.19209144 0.0040019047 2.1010001
0.19609334 0.0040019047 2.1010001
0.19885714 0.0039771432 2.0880001
0.20409715 0.0040019047 2.1010001
0.20809905 0.0040019047 2.1010001
0.21210095 0.0040019047 2.1010001
0.15829715 0.0029314286 1.539
0.16196191 0.0029447621 1.5460001
0.16490667 0.0029447621 1.5460001
0.16785143 0.0029447621 1.5460001
0.17002286 0.0029314286 1.539
0.17295429 0.0029314286 1.539
0.17588572 0.0029314286 1.539
0.17881715 0.0029314286 1.539
0.18092191 0.0029180953 1.5320001
0.18384001 0.0029180953 1.5320001
0.1867581 0.0029180953 1.5320001
0.1896762 0.0029180953 1.5320001
0.19259429 0.0029180953 1.5320001
0.19640572 0.0029314286 1.539
0.19933715 0.0029314286 1.539
0.20226859 0.0029314286 1.539
0.2052 0.0029314286 1.539
0.21002477 0.0029580954 1.5530001
0.21394287 0.0029714287 1.5600001
0.21788763 0.002984762 1.567
0.22185905 0.0029980952 1.5740001
0.22585715 0.0030114288 1.5810001
0.22886857 0.0030114288 1.5810001
0.23305334 0.0030266668 1.5890001
0.23608001 0.0030266668 1.5890001
0.23910667 0.0030266668 1.5890001
0.24213335 0.0030266668 1.5890001
0.24516001 0.0030266668 1.5890001
0.24818668 0.0030266668 1.5890001
0.25232002 0.0030400001 1.5960001
0.25648001 0.0030533334 1.603
0.26082858 0.0030685714 1.6110001
0.26389715 0.0030685714 1.6110001
0.26696572 0.0030685714 1.6110001
0.27120763 0.003081905 1.618
0.27428955 0.003081905 1.618
0.27737144 0.003081905 1.618
0.28184 0.003097143 1.626
0.28493714 0.003097143 1.626
0.28803429 0.003097143 1.626
0.29113144 0.003097143 1.626
0.2956762 0.0031123811 1.6340001
0.29878858 0.0031123811 1.6340001
0.30319428 0.0031257144 1.641
0.30781335 0.0031409524 1.649
0.31246287 0.0031561905 1.6570001
0.31714287 0.0031714286 1.6650001
0.32031429 0.0031714286 1.6650001
0.32504001 0.0031866669 1.6730001
0.32822669 0.0031866669 1.6730001
0.3329981 0.0032019049 1.6810001
0.338 0.0032190478 1.6900001
0.33940193 0.0032019049 1.6810001
0.34443811 0.0032190478 1.6900001
0.34930286 0.0032342859 1.6980001
0.35253716 0.0032342859 1.6980001
0.35577145 0.0032342859 1.6980001
0.36069715 0.0032495239 1.7060001
0.36394668 0.0032495239 1.7060001
0.36913335 0.0032666668 1.715
0.37240002 0.0032666668 1.715
0.37939048 0.0032990477 1.7320001
0.3846781 0.0033161906 1.7410001
0.38799429 0.0033161906 1.7410001
0.39131048 0.0033161906 1.7410001
0.39870667 0.0033504763 1.7590001
0.40411431 0.0033676191 1.7680001
0.40333334 0.0033333334 1.7500001
0.4066667 0.0033333334 1.7500001
-0.34432 0.0071733338 1.8830001
-0.34073335 0.0071733338 1.8830001
-0.33714667 0.0071733338 1.8830001
-0.33356002 0.0071733338 1.8830001
-0.32997334 0.0071733338 1.8830001
-0.32465336 0.0071352385 1.8730001
-0.32108572 0.0071352385 1.8730001
-0.31582287 0.0070971432 1.863
-0.31227431 0.0070971432 1.863
-0.30872571 0.0070971432 1.863
-0.30517715 0.0070971432 1.863
-0.30000955 0.0070590479 1.853
-0.29808 0.0070971432 1.863
-0.29295048 0.0070590479 1.853
-0.28942096 0.0070590479 1.853
-0.28589144 0.0070590479 1.853
-0.28236192 0.0070590479 1.853
-0.27883241 0.0070590479 1.853
-0.27530286 0.0070590479 1.853
-0.27177334 0.0070590479 1.853
-0.26969144 0.0070971432 1.863
-0.26614287 0.0070971432 1.863
-0.26400381 0.0071352385 1.8730001
-0.26043621 0.0071352385 1.8730001
-0.25686857 0.0071352385 1.8730001
-0.25465333 0.0071733338 1.8830001
-0.25106668 0.0071733338 1.8830001
-0.24892573 0.0072152382 1.8940001
-0.2453181 0.0072152382 1.8940001
-0.24171048 0.0072152382 1.8940001
-0.23810287 0.0072152382 1.8940001
-0.23573335 0.0072533335 1.904
-0.23344763 0.0072952383 1.9150001
-0.22980002 0.0072952383 1.9150001
-0.22733334 0.0073333336 1.9250001
-0.22366667 0.0073333336 1.9250001
-0.22000001 0.0073333336 1.9250001
-0.21756953 0.0073752385 1.9360001
-0.21388191 0.0073752385 1.9360001
-0.21019429 0.0073752385 1.9360001
-0.20768 0.0074171433 1.9470001
-0.20397143 0.0074171433 1.9470001
-0.20139429 0.0074590477 1.9580001
-0.19766477 0.0074590477 1.9580001
-0.19393525 0.0074590477 1.9580001
-0.19020572 0.0074590477 1.9580001
-0.18752381 0.0075009526 1.9690001
-0.18377334 0.0075009526 1.9690001
-0.18102857 0.0075428574 1.9800001
-0.17725715 0.0075428574 1.9800001
-0.17453715 0.0075885719 1.9920001
-0.17074287 0.0075885719 1.9920001
-0.16787048 0.0076304763 2.003
-0.16405524 0.0076304763 2.003
-0.1612 0.0076761907 2.0150001
-0.15736191 0.0076761907 2.0150001
-0.15352382 0.0076761907 2.0150001
-0.14968573 0.0076761907 2.0150001
-0.14584762 0.0076761907 2.0150001
-0.14200953 0.0076761907 2.0150001
-0.13899429 0.0077219051 2.0270002
-0.13513334 0.0077219051 2.0270002
-0.13204953 0.0077676196 2.039
-0.12892 0.0078133335 2.0510001
-0.12501334 0.0078133335 2.0510001
-0.12110667 0.0078133335 2.0510001
-0.1172 0.0078133335 2.0510001
-0.1139562 0.0078590475 2.0630002
-0.11002667 0.0078590475 2.0630002
-0.10609715 0.0078590475 2.0630002
-0.10281143 0.0079085715 2.0760002
-0.098857149 0.0079085715 2.0760002
-0.094902858 0.0079085715 2.0760002
-0.090948574 0.0079085715 2.0760002
-0.08699429 0.0079085715 2.0760002
-0.083520003 0.0079542864 2.0880001
-0.079085715 0.0079085715 2.0760002
-0.075131431 0.0079085715 2.0760002
-0.071588576 0.0079542864 2.0880001
-0.067611434 0.0079542864 2.0880001
-0.064030476 0.0080038095 2.1010001
-0.060028575 0.0080038095 2.1010001
-0.056026667 0.0080038095 2.1010001
-0.052346669 0.0080533335 2.1140001
-0.048320003 0.0080533335 2.1140001
-0.044293337 0.0080533335 2.1140001
-0.040266667 0.0080533335 2.1140001
-0.03624 0.0080533335 2.1140001
-0.032015238 0.0080038095 2.1010001
-0.028013334 0.0080038095 2.1010001
-0.024011429 0.0080038095 2.1010001
-0.020009525 0.0080038095 2.1010001
-0.016007619 0.0080038095 2.1010001
-0.012005715 0.0080038095 2.1010001
-0.0080038095 0.0080038095 2.1010001
-0.0040019047 0.0080038095 2.1010001
0 0.0080038095 2.1010001
0.0040266667 0.0080533335 2.1140001
0.0080533335 0.0080533335 2.1140001
0.012080001 0.0080533335 2.1140001
0.016106667 0.0080533335 2.1140001
0.020133333 0.0080533335 2.1140001
0.024160001 0.0080533335 2.1140001
0.028360002 0.0081028575 2.1270001
0.03241143 0.0081028575 2.1270001
0.036462858 0.0081028575 2.1270001
0.040514287 0.0081028575 2.1270001
0.044565715 0.0081028575 2.1270001
0.048617143 0.0081028575 2.1270001
0.052668575 0.0081028575 2.1270001
0.056720003 0.0081028575 2.1270001
0.060771432 0.0081028575 2.1270001
0.064426668 0.0080533335 2.1140001
0.068453334 0.0080533335 2.1140001
0.072480001 0.0080533335 2.1140001
0.076977149 0.0081028575 2.1270001
0.081028573 0.0081028575 2.1270001
0.085080005 0.0081028575 2.1270001
0.08913143 0.0081028575 2.1270001
0.093182862 0.0081028575 2.1270001
0.097234286 0.0081028575 2.1270001
0.10128572 0.0081028575 2.1270001
0.10598096 0.0081523815 2.1400001
0.10938857 0.0081028575 2.1270001
0.11413334 0.0081523815 2.1400001
0.11820953 0.0081523815 2.1400001
0.12228572 0.0081523815 2.1400001
0.12636191 0.0081523815 2.1400001
0.1304381 0.0081523815 2.1400001
0.13369715 0.0081028575 2.1270001
0.13774857 0.0081028575 2.1270001
0.1418 0.0081028575 2.1270001
0.14585143 0.0081028575 2.1270001
0.14990287 0.0081028575 2.1270001
0.1539543 0.0081028575 2.1270001
0.15800571 0.0081028575 2.1270001
0.16205715 0.0081028575 2.1270001
0.16610858 0.0081028575 2.1270001
0.16912 0.0080533335 2.1140001
0.17314668 0.0080533335 2.1140001
0.17717335 0.0080533335 2.1140001
0.18120001 0.0080533335 2.1140001
0.18522668 0.0080533335 2.1140001
0.13652381 0.0058095241 1.5250001
0.13942857 0.0058095241 1.5250001
0.14233334 0.0058095241 1.5250001
0.1452381 0.0058095241 1.5250001
0.14882286 0.0058361907 1.5320001
0.15174095 0.0058361907 1.5320001
0.15395239 0.0058095241 1.5250001
0.15757714 0.0058361907 1.5320001
0.16122858 0.0058628572 1.539
0.16416001 0.0058628572 1.539
0.16633144 0.0058361907 1.5320001
0.16924953 0.0058361907 1.5320001
0.17216763 0.0058361907 1.5320001
0.17508572 0.0058361907 1.5320001
0.17800382 0.0058361907 1.5320001
0.18092191 0.0058361907 1.5320001
0.18384001 0.0058361907 1.5320001
0.1867581 0.0058361907 1.5320001
0.1896762 0.0058361907 1.5320001
0.19259429 0.0058361907 1.5320001
0.19551238 0.0058361907 1.5320001
0.19843048 0.0058361907 1.5320001
0.20226859 0.0058628572 1.539
0.2052 0.0058628572 1.539
0.2090781 0.0058895242 1.5460001
0.21298286 0.0059161908 1.5530001
0.2169143 0.0059428574 1.5600001
0.21988572 0.0059428574 1.5600001
0.22385715 0.0059695239 1.567
0.22785525 0.0059961905 1.5740001
0.23188001 0.0060228575 1.5810001
0.23489144 0.0060228575 1.5810001
0.23790286 0.0060228575 1.5810001
0.2409143 0.0060228575 1.5810001
0.24392572 0.0060228575 1.5810001
0.24818668 0.0060533336 1.5890001
0.25121334 0.0060533336 1.5890001
0.25536001 0.0060800002 1.5960001
0.25953335 0.0061066668 1.603
0.26258668 0.0061066668 1.603
0.26696572 0.0061371429 1.6110001
0.27003428 0.0061371429 1.6110001
0.27428955 0.0061638099 1.618
0.27737144 0.0061638099 1.618
0.28045335 0.0061638099 1.618
0.28353524 0.0061638099 1.618
0.28661716 0.0061638099 1.618
0.28969905 0.0061638099 1.618
0.29422858 0.006194286 1.626
0.29732573 0.006194286 1.626
0.30042288 0.006194286 1.626
0.30632001 0.0062514287 1.641
0.3109543 0.0062819049 1.649
0.31409526 0.0062819049 1.649
0.31877524 0.006312381 1.6570001
0.32193145 0.006312381 1.6570001
0.32665715 0.0063428571 1.6650001
0.32982859 0.0063428571 1.6650001
0.3346 0.0063733337 1.6730001
0.33778667 0.0063733337 1.6730001
0.34260383 0.0064038099 1.6810001
0.34765714 0.0064380956 1.6900001
0.35253716 0.0064685717 1.6980001
0.35577145 0.0064685717 1.6980001
0.36069715 0.0064990479 1.7060001
0.36394668 0.0064990479 1.7060001
0.36913335 0.0065333336 1.715
0.37413716 0.0065638097 1.723
0.37939048 0.0065980954 1.7320001
0.3846781 0.0066323811 1.7410001
0.38799429 0.0066323811 1.7410001
0.39333335 0.0066666668 1.7500001
0.39870667 0.0067009525 1.7590001
0.40205717 0.0067009525 1.7590001
0.40748191 0.0067352382 1.7680001
0.41084954 0.0067352382 1.7680001
-0.34432 0.01076 1.8830001
-0.34073335 0.01076 1.8830001
-0.33714667 0.01076 1.8830001
-0.33356002 0.01076 1.8830001
-0.32822096 0.010702858 1.8730001
-0.32465336 0.010702858 1.8730001
-0.32108572 0.010702858 1.8730001
-0.31582287 0.010645715 1.863
-0.31227431 0.010645715 1.863
-0.30872571 0.010645715 1.863
-0.30353907 0.010588571 1.853
-0.30000955 0.010588571 1.853
-0.29648 0.010588571 1.853
-0.29295048 0.010588571 1.853
-0.28942096 0.010588571 1.853
-0.28589144 0.010588571 1.853
-0.28236192 0.010588571 1.853
-0.27883241 0.010588571 1.853
-0.27530286 0.010588571 1.853
-0.27177334 0.010588571 1.853
-0.26824382 0.010588571 1.853
-0.26614287 0.010645715 1.863
-0.26400381 0.010702858 1.8730001
-0.26043621 0.010702858 1.8730001
-0.25686857 0.010702858 1.8730001
-0.25465333 0.01076 1.8830001
-0.25106668 0.01076 1.8830001
-0.24748001 0.01076 1.8830001
-0.2453181 0.010822858 1.8940001
-0.24171048 0.010822858 1.8940001
-0.23810287 0.010822858 1.8940001
-0.23573335 0.01088 1.904
-0.23210667 0.01088 1.904
-0.22980002 0.010942858 1.9150001
-0.22733334 0.011 1.9250001
-0.22366667 0.011 1.9250001
-0.22000001 0.011 1.9250001
-0.21756953 0.011062858 1.9360001
-0.21388191 0.011062858 1.9360001
-0.21019429 0.011062858 1.9360001
-0.20768 0.011125715 1.9470001
-0.20397143 0.011125715 1.9470001
-0.20026286 0.011125715 1.9470001
-0.19766477 0.011188572 1.9580001
-0.19393525 0.011188572 1.9580001
-0.19020572 0.011188572 1.9580001
-0.1864762 0.011188572 1.9580001
-0.18377334 0.011251429 1.9690001
-0.18002287 0.011251429 1.9690001
-0.17725715 0.011314286 1.9800001
-0.17348573 0.011314286 1.9800001
-0.17074287 0.011382857 1.9920001
-0.16694857 0.011382857 1.9920001
-0.16405524 0.011445715 2.003
-0.1612 0.011514287 2.0150001
-0.15736191 0.011514287 2.0150001
-0.15352382 0.011514287 2.0150001
-0.14968573 0.011514287 2.0150001
-0.14584762 0.011514287 2.0150001
-0.14285524 0.011582858 2.0270002
-0.13981715 0.011651429 2.039
-0.13593334 0.011651429 2.039
-0.13282667 0.011720001 2.0510001
-0.12892 0.011720001 2.0510001
-0.12501334 0.011720001 2.0510001
-0.12110667 0.011720001 2.0510001
-0.11788572 0.011788572 2.0630002
-0.1139562 0.011788572 2.0630002
-0.11002667 0.011788572 2.0630002
-0.10609715 0.011788572 2.0630002
-0.10281143 0.011862857 2.0760002
-0.098857149 0.011862857 2.0760002
-0.094902858 0.011862857 2.0760002
-0.090948574 0.011862857 2.0760002
-0.08699429 0.011862857 2.0760002
-0.083520003 0.011931429 2.0880001
-0.079085715 0.011862857 2.0760002
-0.075131431 0.011862857 2.0760002
-0.071588576 0.011931429 2.0880001
-0.067611434 0.011931429 2.0880001
-0.063634291 0.011931429 2.0880001
-0.060028575 0.012005715 2.1010001
-0.056026667 0.012005715 2.1010001
-0.052024763 0.012005715 2.1010001
-0.048320003 0.012080001 2.1140001
-0.044293337 0.012080001 2.1140001
-0.040266667 0.012080001 2.1140001
-0.03624 0.012080001 2.1140001
-0.032015238 0.012005715 2.1010001
-0.028013334 0.012005715 2.1010001
-0.024011429 0.012005715 2.1010001
-0.020009525 0.012005715 2.1010001
-0.016007619 0.012005715 2.1010001
-0.012005715 0.012005715 2.1010001
-0.0080038095 0.012005715 2.1010001
-0.0040019047 0.012005715 2.1010001
0 0.012005715 2.1010001
0.0040019047 0.012005715 2.1010001
0.0080038095 0.012005715 2.1010001
0.012005715 0.012005715 2.1010001
0.016106667 0.012080001 2.1140001
0.020133333 0.012080001 2.1140001
0.024160001 0.012080001 2.1140001
0.028360002 0.012154286 2.1270001
0.03241143 0.012154286 2.1270001
0.036462858 0.012154286 2.1270001
0.040514287 0.012154286 2.1270001
0.044838097 0.012228572 2.1400001
0.048617143 0.012154286 2.1270001
0.052668575 0.012154286 2.1270001
0.056720003 0.012154286 2.1270001
0.060771432 0.012154286 2.1270001
0.064426668 0.012080001 2.1140001
0.068453334 0.012080001 2.1140001
0.072480001 0.012080001 2.1140001
0.076977149 0.012154286 2.1270001
0.081028573 0.012154286 2.1270001
0.085080005 0.012154286 2.1270001
0.08913143 0.012154286 2.1270001
0.093182862 0.012154286 2.1270001
0.096640006 0.012080001 2.1140001
0.10066667 0.012080001 2.1140001
0.10533715 0.012154286 2.1270001
0.10938857 0.012154286 2.1270001
0.11344001 0.012154286 2.1270001
0.11749143 0.012154286 2.1270001
0.12154286 0.012154286 2.1270001
0.12559429 0.012154286 2.1270001
0.12964572 0.012154286 2.1270001
0.13369715 0.012154286 2.1270001
0.13774857 0.012154286 2.1270001
0.14266667 0.012228572 2.1400001
0.14674287 0.012228572 2.1400001
0.15081905 0.012228572 2.1400001
0.1539543 0.012154286 2.1270001
0.15800571 0.012154286 2.1270001
0.16205715 0.012154286 2.1270001
0.16610858 0.012154286 2.1270001
0.16912 0.012080001 2.1140001
0.17314668 0.012080001 2.1140001
0.1283962 0.008754286 1.5320001
0.13131429 0.008754286 1.5320001
0.13423239 0.008754286 1.5320001
0.13652381 0.0087142857 1.5250001
0.13942857 0.0087142857 1.5250001
0.14233334 0.0087142857 1.5250001
0.1452381 0.0087142857 1.5250001
0.14814286 0.0087142857 1.5250001
0.15104762 0.0087142857 1.5250001
0.15334667 0.00868 1.5190001
0.15685715 0.0087142857 1.5250001
0.15976191 0.0087142857 1.5250001
0.16341335 0.008754286 1.5320001
0.16557144 0.0087142857 1.5250001
0.16847619 0.0087142857 1.5250001
0.17138095 0.0087142857 1.5250001
0.17508572 0.008754286 1.5320001
0.17719048 0.0087142857 1.5250001
0.18009524 0.0087142857 1.5250001
0.18300001 0.0087142857 1.5250001
0.18590477 0.0087142857 1.5250001
0.18880953 0.0087142857 1.5250001
0.19171429 0.0087142857 1.5250001
0.19551238 0.008754286 1.5320001
0.19843048 0.008754286 1.5320001
0.20134857 0.008754286 1.5320001
0.20426667 0.008754286 1.5320001
0.20813143 0.0087942863 1.539
0.21202287 0.0088342857 1.5460001
0.21496762 0.0088342857 1.5460001
0.21889906 0.008874286 1.5530001
0.22185715 0.008874286 1.5530001
0.22582857 0.0089142863 1.5600001
0.22982667 0.0089542856 1.567
0.23385143 0.0089942859 1.5740001
0.23684953 0.0089942859 1.5740001
0.23984763 0.0089942859 1.5740001
0.24392572 0.0090342863 1.5810001
0.24693716 0.0090342863 1.5810001
0.24994858 0.0090342863 1.5810001
0.25424001 0.0090800002 1.5890001
0.25726667 0.0090800002 1.5890001
0.26144001 0.0091200005 1.5960001
0.26564002 0.0091599999 1.603
0.26869336 0.0091599999 1.603
0.27174667 0.0091599999 1.603
0.27617145 0.0092057148 1.6110001
0.27924001 0.0092057148 1.6110001
0.28230858 0.0092057148 1.6110001
0.28537714 0.0092057148 1.6110001
0.28969905 0.0092457142 1.618
0.29422858 0.0092914291 1.626
0.29732573 0.0092914291 1.626
0.30190095 0.009337143 1.6340001
0.30632001 0.0093771433 1.641
0.3109543 0.0094228573 1.649
0.31561905 0.0094685722 1.6570001
0.31877524 0.0094685722 1.6570001
0.32348573 0.0095142862 1.6650001
0.32665715 0.0095142862 1.6650001
0.33141336 0.0095600002 1.6730001
0.3362 0.0096057151 1.6810001
0.33778667 0.0095600002 1.6730001
0.34260383 0.0096057151 1.6810001
0.34765714 0.0096571436 1.6900001
0.35087621 0.0096571436 1.6900001
0.35577145 0.0097028576 1.6980001
0.35900572 0.0097028576 1.6980001
0.36394668 0.0097485716 1.7060001
0.36913335 0.0098000001 1.715
0.37240002 0.0098000001 1.715
0.37741905 0.009845715 1.723
0.38268954 0.0098971436 1.7320001
0.38799429 0.0099485721 1.7410001
0.39333335 0.010000001 1.7500001
0.39870667 0.010051429 1.7590001
0.40205717 0.010051429 1.7590001
0.40748191 0.010102858 1.7680001
0.41084954 0.010102858 1.7680001
0.41421714 0.010102858 1.7680001
-0.34790668 0.014346668 1.8830001
-0.34432 0.014346668 1.8830001
-0.34073335 0.014346668 1.8830001
-0.33714667 0.014346668 1.8830001
-0.33356002 0.014346668 1.8830001
-0.32822096 0.014270477 1.8730001
-0.32292002 0.014194286 1.863
-0.31937143 0.014194286 1.863
-0.31582287 0.014194286 1.863
-0.31227431 0.014194286 1.863
-0.30872571 0.014194286 1.863
-0.30353907 0.014118096 1.853
-0.30000955 0.014118096 1.853
-0.29648 0.014118096 1.853
-0.29295048 0.014118096 1.853
-0.28942096 0.014118096 1.853
-0.28434858 0.014041905 1.8430001
-0.28236192 0.014118096 1.853
-0.27732763 0.014041905 1.8430001
-0.27530286 0.014118096 1.853
-0.27177334 0.014118096 1.853
-0.26824382 0.014118096 1.853
-0.26614287 0.014194286 1.863
-0.26259428 0.014194286 1.863
-0.26043621 0.014270477 1.8730001
-0.25686857 0.014270477 1.8730001
-0.25465333 0.014346668 1.8830001
-0.25106668 0.014346668 1.8830001
-0.24748001 0.014346668 1.8830001
-0.2453181 0.014430476 1.8940001
-0.24030668 0.014346668 1.8830001
-0.23810287 0.014430476 1.8940001
-0.23449525 0.014430476 1.8940001
-0.23210667 0.014506667 1.904
-0.22848001 0.014506667 1.904
-0.22615239 0.014590477 1.9150001
-0.22366667 0.014666667 1.9250001
-0.22000001 0.014666667 1.9250001
-0.21633334 0.014666667 1.9250001
-0.21509714 0.014834287 1.9470001
-0.21019429 0.014750477 1.9360001
-0.20768 0.014834287 1.9470001
-0.20397143 0.014834287 1.9470001
-0.20139429 0.014918095 1.9580001
-0.19766477 0.014918095 1.9580001
-0.19393525 0.014918095 1.9580001
-0.19127429 0.015001905 1.9690001
-0.18752381 0.015001905 1.9690001
-0.18377334 0.015001905 1.9690001
-0.18102857 0.015085715 1.9800001
-0.17725715 0.015085715 1.9800001
-0.17348573 0.015085715 1.9800001
-0.17074287 0.015177144 1.9920001
-0.16787048 0.015260953 2.003
-0.16405524 0.015260953 2.003
-0.1612 0.015352381 2.0150001
-0.15736191 0.015352381 2.0150001
-0.15352382 0.015352381 2.0150001
-0.15057714 0.01544381 2.0270002
-0.14671619 0.01544381 2.0270002
-0.14285524 0.01544381 2.0270002
-0.13981715 0.015535239 2.039
-0.13673334 0.015626667 2.0510001
-0.13282667 0.015626667 2.0510001
-0.12892 0.015626667 2.0510001
-0.12501334 0.015626667 2.0510001
-0.12110667 0.015626667 2.0510001
-0.1172 0.015626667 2.0510001
-0.1139562 0.015718095 2.0630002
-0.11002667 0.015718095 2.0630002
-0.10609715 0.015718095 2.0630002
-0.10216762 0.015718095 2.0630002
-0.098238096 0.015718095 2.0630002
-0.094902858 0.015817143 2.0760002
-0.090948574 0.015817143 2.0760002
-0.08699429 0.015817143 2.0760002
-0.083040006 0.015817143 2.0760002
-0.079085715 0.015817143 2.0760002
-0.075131431 0.015817143 2.0760002
-0.071588576 0.015908573 2.0880001
-0.067611434 0.015908573 2.0880001
-0.064030476 0.016007619 2.1010001
-0.060028575 0.016007619 2.1010001
-0.056026667 0.016007619 2.1010001
-0.052024763 0.016007619 2.1010001
-0.048320003 0.016106667 2.1140001
-0.044293337 0.016106667 2.1140001
-0.040266667 0.016106667 2.1140001
-0.03624 0.016106667 2.1140001
-0.032015238 0.016007619 2.1010001
-0.028013334 0.016007619 2.1010001
-0.024011429 0.016007619 2.1010001
-0.020009525 0.016007619 2.1010001
-0.016007619 0.016007619 2.1010001
-0.012005715 0.016007619 2.1010001
-0.0080038095 0.016007619 2.1010001
-0.0040019047 0.016007619 2.1010001
0 0.016007619 2.1010001
0.0040019047 0.016007619 2.1010001
0.0080038095 0.016007619 2.1010001
0.012005715 0.016007619 2.1010001
0.016106667 0.016106667 2.1140001
0.020133333 0.016106667 2.1140001
0.024160001 0.016106667 2.1140001
0.028186668 0.016106667 2.1140001
0.032213334 0.016106667 2.1140001
0.036462858 0.016205715 2.1270001
0.040514287 0.016205715 2.1270001
0.044565715 0.016205715 2.1270001
0.048617143 0.016205715 2.1270001
0.052668575 0.016205715 2.1270001
0.056720003 0.016205715 2.1270001
0.060771432 0.016205715 2.1270001
0.064426668 0.016106667 2.1140001
0.068453334 0.016106667 2.1140001
0.072925717 0.016205715 2.1270001
0.076977149 0.016205715 2.1270001
0.081028573 0.016205715 2.1270001
0.085080005 0.016205715 2.1270001
0.08913143 0.016205715 2.1270001
0.093182862 0.016205715 2.1270001
0.097234286 0.016205715 2.1270001
0.10066667 0.016106667 2.1140001
0.10533715 0.016205715 2.1270001
0.10938857 0.016205715 2.1270001
0.11344001 0.016205715 2.1270001
0.11749143 0.016205715 2.1270001
0.12154286 0.016205715 2.1270001
0.12559429 0.016205715 2.1270001
0.12964572 0.016205715 2.1270001
0.13369715 0.016205715 2.1270001
0.13774857 0.016205715 2.1270001
0.1418 0.016205715 2.1270001
0.14585143 0.016205715 2.1270001
0.14990287 0.016205715 2.1270001
0.1539543 0.016205715 2.1270001
0.15800571 0.016205715 2.1270001
0.16106667 0.016106667 2.1140001
0.16610858 0.016205715 2.1270001
0.16912 0.016106667 2.1140001
0.1254781 0.011672381 1.5320001
0.1283962 0.011672381 1.5320001
0.13131429 0.011672381 1.5320001
0.13423239 0.011672381 1.5320001
0.13652381 0.011619048 1.5250001
0.13942857 0.011619048 1.5250001
0.14233334 0.011619048 1.5250001
0.1452381 0.011619048 1.5250001
0.14814286 0.011619048 1.5250001
0.15104762 0.011619048 1.5250001
0.15395239 0.011619048 1.5250001
0.15624 0.011573334 1.5190001
0.15913334 0.011573334 1.5190001
0.16266668 0.011619048 1.5250001
0.16492 0.011573334 1.5190001
0.16847619 0.011619048 1.5250001
0.17138095 0.011619048 1.5250001
0.1736 0.011573334 1.5190001
0.17719048 0.011619048 1.5250001
0.17938668 0.011573334 1.5190001
0.18228 0.011573334 1.5190001
0.18517335 0.011573334 1.5190001
0.18806668 0.011573334 1.5190001
0.19096 0.011573334 1.5190001
0.19461906 0.011619048 1.5250001
0.19752382 0.011619048 1.5250001
0.20134857 0.011672381 1.5320001
0.20426667 0.011672381 1.5320001
0.20718478 0.011672381 1.5320001
0.21010287 0.011672381 1.5320001
0.21399429 0.011725714 1.539
0.21692573 0.011725714 1.539
0.22085716 0.011779048 1.5460001
0.22481525 0.011832382 1.5530001
0.22777334 0.011832382 1.5530001
0.23177144 0.011885715 1.5600001
0.23474286 0.011885715 1.5600001
0.23878096 0.011939048 1.567
0.24284573 0.011992381 1.5740001
0.24584381 0.011992381 1.5740001
0.24994858 0.012045715 1.5810001
0.25296 0.012045715 1.5810001
0.25726667 0.012106667 1.5890001
0.26029333 0.012106667 1.5890001
0.26448002 0.01216 1.5960001
0.26752001 0.01216 1.5960001
0.27174667 0.012213334 1.603
0.27617145 0.012274286 1.6110001
0.27924001 0.012274286 1.6110001
0.28230858 0.012274286 1.6110001
0.28661716 0.01232762 1.618
0.28969905 0.01232762 1.618
0.29422858 0.012388572 1.626
0.29732573 0.012388572 1.626
0.30190095 0.012449524 1.6340001
0.30632001 0.012502857 1.641
0.3109543 0.01256381 1.649
0.31409526 0.01256381 1.649
0.31877524 0.012624762 1.6570001
0.32348573 0.012685714 1.6650001
0.32665715 0.012685714 1.6650001
0.33141336 0.012746667 1.6730001
0.3362 0.01280762 1.6810001
0.33778667 0.012746667 1.6730001
0.34260383 0.01280762 1.6810001
0.34765714 0.012876191 1.6900001
0.35087621 0.012876191 1.6900001
0.35577145 0.012937143 1.6980001
0.35900572 0.012937143 1.6980001
0.36394668 0.012998096 1.7060001
0.36913335 0.013066667 1.715
0.37240002 0.013066667 1.715
0.37741905 0.013127619 1.723
0.38268954 0.013196191 1.7320001
0.38799429 0.013264762 1.7410001
0.39535621 0.013401905 1.7590001
0.39870667 0.013401905 1.7590001
0.40411431 0.013470476 1.7680001
0.40748191 0.013470476 1.7680001
0.41294098 0.013539048 1.7770001
0.41632572 0.013539048 1.7770001
-0.34790668 0.017933333 1.8830001
-0.34432 0.017933333 1.8830001
-0.34073335 0.017933333 1.8830001
-0.33714667 0.017933333 1.8830001
-0.33356002 0.017933333 1.8830001
-0.32822096 0.017838096 1.8730001
-0.32465336 0.017838096 1.8730001
-0.32108572 0.017838096 1.8730001
-0.31582287 0.017742857 1.863
-0.31227431 0.017742857 1.863
-0.30872571 0.017742857 1.863
-0.30353907 0.01764762 1.853
-0.30000955 0.01764762 1.853
-0.29648 0.01764762 1.853
-0.29295048 0.01764762 1.853
-0.28942096 0.01764762 1.853
-0.28434858 0.017552381 1.8430001
-0.2808381 0.017552381 1.8430001
-0.27732763 0.017552381 1.8430001
-0.27381715 0.017552381 1.8430001
-0.27030668 0.017552381 1.8430001
-0.26824382 0.01764762 1.853
-0.2647143 0.01764762 1.853
-0.26259428 0.017742857 1.863
-0.26043621 0.017838096 1.8730001
-0.25824001 0.017933333 1.8830001
-0.25465333 0.017933333 1.8830001
-0.25253335 0.018038096 1.8940001
-0.24892573 0.018038096 1.8940001
-0.24661334 0.018133335 1.904
-0.24171048 0.018038096 1.8940001
-0.23810287 0.018038096 1.8940001
-0.23573335 0.018133335 1.904
-0.23344763 0.018238096 1.9150001
-0.22980002 0.018238096 1.9150001
-0.22733334 0.018333334 1.9250001
-0.22366667 0.018333334 1.9250001
-0.22000001 0.018333334 1.9250001
-0.21756953 0.018438095 1.9360001
-0.21388191 0.018438095 1.9360001
-0.21019429 0.018438095 1.9360001
-0.20768 0.018542858 1.9470001
-0.20397143 0.018542858 1.9470001
-0.20139429 0.01864762 1.9580001
-0.19766477 0.01864762 1.9580001
-0.19502477 0.018752381 1.9690001
-0.19127429 0.018752381 1.9690001
-0.18752381 0.018752381 1.9690001
-0.18480001 0.018857144 1.9800001
-0.18102857 0.018857144 1.9800001
-0.17725715 0.018857144 1.9800001
-0.17453715 0.01897143 1.9920001
-0.17074287 0.01897143 1.9920001
-0.16787048 0.019076191 2.003
-0.16405524 0.019076191 2.003
-0.1612 0.019190477 2.0150001
-0.15736191 0.019190477 2.0150001
-0.15352382 0.019190477 2.0150001
-0.15057714 0.019304764 2.0270002
-0.14671619 0.019304764 2.0270002
-0.14285524 0.019304764 2.0270002
-0.13981715 0.019419048 2.039
-0.13673334 0.019533334 2.0510001
-0.13282667 0.019533334 2.0510001
-0.12892 0.019533334 2.0510001
-0.12501334 0.019533334 2.0510001
-0.12110667 0.019533334 2.0510001
-0.1172 0.019533334 2.0510001
-0.1139562 0.019647621 2.0630002
-0.11002667 0.019647621 2.0630002
-0.10609715 0.019647621 2.0630002
-0.10216762 0.019647621 2.0630002
-0.098238096 0.019647621 2.0630002
-0.094902858 0.019771429 2.0760002
-0.090379052 0.019647621 2.0630002
-0.08699429 0.019771429 2.0760002
-0.083040006 0.019771429 2.0760002
-0.079085715 0.019771429 2.0760002
-0.075131431 0.019771429 2.0760002
-0.071588576 0.019885715 2.0880001
-0.067611434 0.019885715 2.0880001
-0.064030476 0.020009525 2.1010001
-0.060028575 0.020009525 2.1010001
-0.056026667 0.020009525 2.1010001
-0.052024763 0.020009525 2.1010001
-0.048022859 0.020009525 2.1010001
-0.044293337 0.020133333 2.1140001
-0.04001905 0.020009525 2.1010001
-0.036017146 0.020009525 2.1010001
-0.031817146 0.019885715 2.0880001
-0.027840002 0.019885715 2.0880001
-0.023862857 0.019885715 2.0880001
-0.020009525 0.020009525 2.1010001
-0.016007619 0.020009525 2.1010001
-0.012005715 0.020009525 2.1010001
-0.0080038095 0.020009525 2.1010001
-0.0040019047 0.020009525 2.1010001
0 0.020009525 2.1010001
0.0040019047 0.020009525 2.1010001
0.0080038095 0.020009525 2.1010001
0.012005715 0.020009525 2.1010001
0.016007619 0.020009525 2.1010001
0.020133333 0.020133333 2.1140001
0.024160001 0.020133333 2.1140001
0.028186668 0.020133333 2.1140001
0.032213334 0.020133333 2.1140001
0.036462858 0.020257143 2.1270001
0.040514287 0.020257143 2.1270001
0.044565715 0.020257143 2.1270001
0.048617143 0.020257143 2.1270001
0.052668575 0.020257143 2.1270001
0.056720003 0.020257143 2.1270001
0.060400002 0.020133333 2.1140001
0.064426668 0.020133333 2.1140001
0.068453334 0.020133333 2.1140001
0.072480001 0.020133333 2.1140001
0.076506667 0.020133333 2.1140001
0.081028573 0.020257143 2.1270001
0.085080005 0.020257143 2.1270001
0.08913143 0.020257143 2.1270001
0.093182862 0.020257143 2.1270001
0.097234286 0.020257143 2.1270001
0.10066667 0.020133333 2.1140001
0.10533715 0.020257143 2.1270001
0.10872 0.020133333 2.1140001
0.11344001 0.020257143 2.1270001
0.11749143 0.020257143 2.1270001
0.12154286 0.020257143 2.1270001
0.12559429 0.020257143 2.1270001
0.12964572 0.020257143 2.1270001
0.13369715 0.020257143 2.1270001
0.13774857 0.020257143 2.1270001
0.14266667 0.020380953 2.1400001
0.14585143 0.020257143 2.1270001
0.15081905 0.020380953 2.1400001
0.15489525 0.020380953 2.1400001
