# .PCD v0.7 - Point Cloud Data file format
VERSION 0.7
FIELDS x y z
SIZE 4 4 4
TYPE F F F
COUNT 1 1 1
WIDTH 1511
HEIGHT 1
VIEWPOINT 0 0 0 1 0 0 0
POINTS 1511
DATA ascii
-0.12206477 0.0065980954 1.7320001
-0.11814857 0.0065638097 1.723
-0.11486667 0.0065638097 1.723
-0.11158477 0.0065638097 1.723
-0.10830286 0.0065638097 1.723
-0.10502096 0.0065638097 1.723
-0.10173905 0.0065638097 1.723
-0.098000005 0.0065333336 1.715
-0.094236195 0.0064990479 1.7060001
-0.090986669 0.0064990479 1.7060001
-0.087325715 0.0064685717 1.6980001
-0.084091432 0.0064685717 1.6980001
-0.080476195 0.0064380956 1.6900001
-0.077257149 0.0064380956 1.6900001
-0.074038096 0.0064380956 1.6900001
-0.07081905 0.0064380956 1.6900001
-0.067600004 0.0064380956 1.6900001
-0.064038098 0.0064038099 1.6810001
-0.060836192 0.0064038099 1.6810001
-0.057634287 0.0064038099 1.6810001
-0.054432385 0.0064038099 1.6810001
-0.05098667 0.0063733337 1.6730001
-0.047571432 0.0063428571 1.6650001
-0.044613335 0.0063733337 1.6730001
-0.04142667 0.0063733337 1.6730001
-0.038057145 0.0063428571 1.6650001
-0.034885716 0.0063428571 1.6650001
-0.031714287 0.0063428571 1.6650001
-0.028405715 0.006312381 1.6570001
-0.025249524 0.006312381 1.6570001
-0.022093333 0.006312381 1.6570001
-0.018845715 0.0062819049 1.649
-0.015704762 0.0062819049 1.649
-0.01256381 0.0062819049 1.649
-0.0094228573 0.0062819049 1.649
-0.0062514287 0.0062514287 1.641
-0.0031257144 0.0062514287 1.641
0 0.0062514287 1.641
0.0031257144 0.0062514287 1.641
0.0062514287 0.0062514287 1.641
0.0093771433 0.0062514287 1.641
0.012502857 0.0062514287 1.641
0.015561906 0.0062247622 1.6340001
0.018674286 0.0062247622 1.6340001
0.021786667 0.0062247622 1.6340001
0.024899049 0.0062247622 1.6340001
0.027874287 0.006194286 1.626
0.03097143 0.006194286 1.626
0.034068573 0.006194286 1.626
0.037165716 0.006194286 1.626
0.040460955 0.0062247622 1.6340001
0.043573335 0.0062247622 1.6340001
0.046685714 0.0062247622 1.6340001
0.049554288 0.006194286 1.626
0.052651431 0.006194286 1.626
0.055748574 0.006194286 1.626
0.058845717 0.006194286 1.626
0.06194286 0.006194286 1.626
0.06504 0.006194286 1.626
0.068137147 0.006194286 1.626
0.071234286 0.006194286 1.626
0.074331433 0.006194286 1.626
0.077428572 0.006194286 1.626
0.080525719 0.006194286 1.626
0.083622858 0.006194286 1.626
0.086720005 0.006194286 1.626
0.089817144 0.006194286 1.626
0.092914291 0.006194286 1.626
0.09601143 0.006194286 1.626
0.099108577 0.006194286 1.626
0.10270858 0.0062247622 1.6340001
0.10582095 0.0062247622 1.6340001
0.1084 0.006194286 1.626
0.11149715 0.006194286 1.626
0.1151581 0.0062247622 1.6340001
0.11769143 0.006194286 1.626
0.12078857 0.006194286 1.626
0.12449525 0.0062247622 1.6340001
0.12760763 0.0062247622 1.6340001
0.13008 0.006194286 1.626
0.13317715 0.006194286 1.626
0.13627429 0.006194286 1.626
0.13937144 0.006194286 1.626
0.14246857 0.006194286 1.626
0.14484952 0.0061638099 1.618
0.14793143 0.0061638099 1.618
0.15176001 0.006194286 1.626
0.15485714 0.006194286 1.626
0.15795429 0.006194286 1.626
0.16105144 0.006194286 1.626
0.16414858 0.006194286 1.626
0.16724572 0.006194286 1.626
0.17034286 0.006194286 1.626
0.17344001 0.006194286 1.626
0.17566858 0.0061638099 1.618
0.17963429 0.006194286 1.626
0.18273143 0.006194286 1.626
0.18582858 0.006194286 1.626
0.18892573 0.006194286 1.626
0.19202286 0.006194286 1.626
0.19512001 0.006194286 1.626
0.19821715 0.006194286 1.626
0.20230477 0.0062247622 1.6340001
0.20541716 0.0062247622 1.6340001
0.20942287 0.0062514287 1.641
0.21254858 0.0062514287 1.641
0.2156743 0.0062514287 1.641
0.21986668 0.0062819049 1.649
0.22300763 0.0062819049 1.649
0.22614858 0.0062819049 1.649
0.22928953 0.0062819049 1.649
0.23243049 0.0062819049 1.649
0.23557144 0.0062819049 1.649
0.23871239 0.0062819049 1.649
0.24185334 0.0062819049 1.649
0.2449943 0.0062819049 1.649
0.24813525 0.0062819049 1.649
0.2512762 0.0062819049 1.649
0.25441715 0.0062819049 1.649
0.25880763 0.006312381 1.6570001
0.26196381 0.006312381 1.6570001
0.26512 0.006312381 1.6570001
0.26827621 0.006312381 1.6570001
0.2701219 0.0062819049 1.649
0.27458858 0.006312381 1.6570001
0.27774477 0.006312381 1.6570001
0.28090096 0.006312381 1.6570001
0.28542858 0.0063428571 1.6650001
0.2886 0.0063428571 1.6650001
0.29177144 0.0063428571 1.6650001
0.29494286 0.0063428571 1.6650001
0.29954669 0.0063733337 1.6730001
0.30273333 0.0063733337 1.6730001
0.30592 0.0063733337 1.6730001
0.30910668 0.0063733337 1.6730001
0.31229335 0.0063733337 1.6730001
0.31548002 0.0063733337 1.6730001
0.31866667 0.0063733337 1.6730001
0.32339239 0.0064038099 1.6810001
0.32659429 0.0064038099 1.6810001
0.3297962 0.0064038099 1.6810001
0.33141336 0.0063733337 1.6730001
0.3362 0.0064038099 1.6810001
0.33940193 0.0064038099 1.6810001
0.34443811 0.0064380956 1.6900001
0.34765714 0.0064380956 1.6900001
0.35253716 0.0064685717 1.6980001
0.35577145 0.0064685717 1.6980001
0.35900572 0.0064685717 1.6980001
0.36224002 0.0064685717 1.6980001
0.36547431 0.0064685717 1.6980001
0.36870858 0.0064685717 1.6980001
0.37369525 0.0064990479 1.7060001
0.37694478 0.0064990479 1.7060001
0.38019431 0.0064990479 1.7060001
0.38546669 0.0065333336 1.715
0.38873336 0.0065333336 1.715
0.3938286 0.0065638097 1.723
0.39711049 0.0065638097 1.723
0.40039238 0.0065638097 1.723
0.4036743 0.0065638097 1.723
0.40908191 0.0065980954 1.7320001
0.41238096 0.0065980954 1.7320001
0.41568002 0.0065980954 1.7320001
0.41897905 0.0065980954 1.7320001
0.42227811 0.0065980954 1.7320001
0.42557716 0.0065980954 1.7320001
0.43110478 0.0066323811 1.7410001
0.43442097 0.0066323811 1.7410001
0.43773717 0.0066323811 1.7410001
0.44105336 0.0066323811 1.7410001
0.44666669 0.0066666668 1.7500001
0.45000002 0.0066666668 1.7500001
0.45566478 0.0067009525 1.7590001
0.46136382 0.0067352382 1.7680001
0.46473145 0.0067352382 1.7680001
0.46809906 0.0067352382 1.7680001
0.47146669 0.0067352382 1.7680001
0.47483429 0.0067352382 1.7680001
0.47820193 0.0067352382 1.7680001
0.48402098 0.006769524 1.7770001
0.48740572 0.006769524 1.7770001
0.49079049 0.006769524 1.7770001
0.49417526 0.006769524 1.7770001
0.50007999 0.0068038097 1.7860001
0.50348192 0.0068038097 1.7860001
0.5068838 0.0068038097 1.7860001
0.51028574 0.0068038097 1.7860001
0.51368761 0.0068038097 1.7860001
0.51969528 0.0068380954 1.7950001
0.52311432 0.0068380954 1.7950001
0.52653337 0.0068380954 1.7950001
0.52995241 0.0068380954 1.7950001
0.53337145 0.0068380954 1.7950001
0.53948194 0.0068723811 1.8040001
0.54592764 0.0069104764 1.8140001
0.54938287 0.0069104764 1.8140001
0.55588573 0.0069485717 1.8240001
0.55936003 0.0069485717 1.8240001
-0.20581715 0.010645715 1.863
-0.20009714 0.010531429 1.8430001
-0.19552001 0.010474286 1.8330001
-0.19108573 0.010422857 1.8240001
-0.1855543 0.010308572 1.8040001
-0.18120953 0.010257144 1.7950001
-0.17779048 0.010257144 1.7950001
-0.17437144 0.010257144 1.7950001
-0.17009525 0.010205715 1.7860001
-0.16585334 0.010154286 1.7770001
-0.16246858 0.010154286 1.7770001
-0.15827811 0.010102858 1.7680001
-0.15491048 0.010102858 1.7680001
-0.15077144 0.010051429 1.7590001
-0.14742096 0.010051429 1.7590001
-0.14407048 0.010051429 1.7590001
-0.14072001 0.010051429 1.7590001
-0.13666667 0.010000001 1.7500001
-0.13333334 0.010000001 1.7500001
-0.12933144 0.0099485721 1.7410001
-0.12601525 0.0099485721 1.7410001
-0.12206477 0.0098971436 1.7320001
-0.11814857 0.009845715 1.723
-0.11486667 0.009845715 1.723
-0.11158477 0.009845715 1.723
-0.10780001 0.0098000001 1.715
-0.10453334 0.0098000001 1.715
-0.10073524 0.0097485716 1.7060001
-0.097485721 0.0097485716 1.7060001
-0.093794286 0.0097028576 1.6980001
-0.090560004 0.0097028576 1.6980001
-0.087325715 0.0097028576 1.6980001
-0.084091432 0.0097028576 1.6980001
-0.080476195 0.0096571436 1.6900001
-0.077257149 0.0096571436 1.6900001
-0.074038096 0.0096571436 1.6900001
-0.07081905 0.0096571436 1.6900001
-0.06724 0.0096057151 1.6810001
-0.064038098 0.0096057151 1.6810001
-0.060836192 0.0096057151 1.6810001
-0.057634287 0.0096057151 1.6810001
-0.054173335 0.0095600002 1.6730001
-0.050742857 0.0095142862 1.6650001
-0.047571432 0.0095142862 1.6650001
-0.044400003 0.0095142862 1.6650001
-0.04142667 0.0095600002 1.6730001
-0.038057145 0.0095142862 1.6650001
-0.034885716 0.0095142862 1.6650001
-0.031714287 0.0095142862 1.6650001
-0.028405715 0.0094685722 1.6570001
-0.025249524 0.0094685722 1.6570001
-0.022093333 0.0094685722 1.6570001
-0.018937144 0.0094685722 1.6570001
-0.015704762 0.0094228573 1.649
-0.012502857 0.0093771433 1.641
-0.0093771433 0.0093771433 1.641
-0.0062819049 0.0094228573 1.649
-0.0031409524 0.0094228573 1.649
0 0.0093771433 1.641
0.0031257144 0.0093771433 1.641
0.0062514287 0.0093771433 1.641
0.0093771433 0.0093771433 1.641
0.012502857 0.0093771433 1.641
0.015561906 0.009337143 1.6340001
0.018674286 0.009337143 1.6340001
0.021786667 0.009337143 1.6340001
0.024899049 0.009337143 1.6340001
0.027874287 0.0092914291 1.626
0.03097143 0.0092914291 1.626
0.034068573 0.0092914291 1.626
0.037165716 0.0092914291 1.626
0.040262859 0.0092914291 1.626
0.043573335 0.009337143 1.6340001
0.046457145 0.0092914291 1.626
0.049554288 0.0092914291 1.626
0.052651431 0.0092914291 1.626
0.055748574 0.0092914291 1.626
0.058845717 0.0092914291 1.626
0.06194286 0.0092914291 1.626
0.06504 0.0092914291 1.626
0.068137147 0.0092914291 1.626
0.071234286 0.0092914291 1.626
0.074331433 0.0092914291 1.626
0.077428572 0.0092914291 1.626
0.080525719 0.0092914291 1.626
0.083622858 0.0092914291 1.626
0.086720005 0.0092914291 1.626
0.089817144 0.0092914291 1.626
0.092914291 0.0092914291 1.626
0.09601143 0.0092914291 1.626
0.099108577 0.0092914291 1.626
0.10220572 0.0092914291 1.626
0.10530286 0.0092914291 1.626
0.1084 0.0092914291 1.626
0.11149715 0.0092914291 1.626
0.11459429 0.0092914291 1.626
0.11769143 0.0092914291 1.626
0.12078857 0.0092914291 1.626
0.12388572 0.0092914291 1.626
0.12698287 0.0092914291 1.626
0.13008 0.0092914291 1.626
0.13252191 0.0092457142 1.618
0.13627429 0.0092914291 1.626
0.13937144 0.0092914291 1.626
0.14246857 0.0092914291 1.626
0.14484952 0.0092457142 1.618
0.14793143 0.0092457142 1.618
0.15101334 0.0092457142 1.618
0.15409525 0.0092457142 1.618
0.15717715 0.0092457142 1.618
0.16105144 0.0092914291 1.626
0.16414858 0.0092914291 1.626
0.16642286 0.0092457142 1.618
0.16950476 0.0092457142 1.618
0.17258668 0.0092457142 1.618
0.17566858 0.0092457142 1.618
0.17875049 0.0092457142 1.618
0.18183239 0.0092457142 1.618
0.18491429 0.0092457142 1.618
0.18799619 0.0092457142 1.618
0.19202286 0.0092914291 1.626
0.19512001 0.0092914291 1.626
0.19821715 0.0092914291 1.626
0.2013143 0.0092914291 1.626
0.20541716 0.009337143 1.6340001
0.20852953 0.009337143 1.6340001
0.21164191 0.009337143 1.6340001
0.2156743 0.0093771433 1.641
0.21880001 0.0093771433 1.641
0.22192572 0.0093771433 1.641
0.22505143 0.0093771433 1.641
0.22817715 0.0093771433 1.641
0.23130287 0.0093771433 1.641
0.23442858 0.0093771433 1.641
0.23871239 0.0094228573 1.649
0.24185334 0.0094228573 1.649
0.2449943 0.0094228573 1.649
0.24813525 0.0094228573 1.649
0.2512762 0.0094228573 1.649
0.25441715 0.0094228573 1.649
0.25755811 0.0094228573 1.649
0.26069906 0.0094228573 1.649
0.26384002 0.0094228573 1.649
0.26698098 0.0094228573 1.649
0.2701219 0.0094228573 1.649
0.27326286 0.0094228573 1.649
0.27640381 0.0094228573 1.649
0.27954477 0.0094228573 1.649
0.28405714 0.0094685722 1.6570001
0.28721336 0.0094685722 1.6570001
0.29177144 0.0095142862 1.6650001
0.29494286 0.0095142862 1.6650001
0.2981143 0.0095142862 1.6650001
0.30273333 0.0095600002 1.6730001
0.30592 0.0095600002 1.6730001
0.30910668 0.0095600002 1.6730001
0.31229335 0.0095600002 1.6730001
0.31548002 0.0095600002 1.6730001
0.32019049 0.0096057151 1.6810001
0.32339239 0.0096057151 1.6810001
0.32659429 0.0096057151 1.6810001
0.3297962 0.0096057151 1.6810001
0.33141336 0.0095600002 1.6730001
0.3362 0.0096057151 1.6810001
0.33940193 0.0096057151 1.6810001
0.34443811 0.0096571436 1.6900001
0.34765714 0.0096571436 1.6900001
0.35253716 0.0097028576 1.6980001
0.35577145 0.0097028576 1.6980001
0.35900572 0.0097028576 1.6980001
0.36224002 0.0097028576 1.6980001
0.36547431 0.0097028576 1.6980001
0.36870858 0.0097028576 1.6980001
0.37369525 0.0097485716 1.7060001
0.37694478 0.0097485716 1.7060001
0.38019431 0.0097485716 1.7060001
0.38344383 0.0097485716 1.7060001
0.38873336 0.0098000001 1.715
0.39200002 0.0098000001 1.715
0.39711049 0.009845715 1.723
0.40039238 0.009845715 1.723
0.4036743 0.009845715 1.723
0.40908191 0.0098971436 1.7320001
0.41238096 0.0098971436 1.7320001
0.41568002 0.0098971436 1.7320001
0.41897905 0.0098971436 1.7320001
0.42227811 0.0098971436 1.7320001
0.42557716 0.0098971436 1.7320001
0.42887619 0.0098971436 1.7320001
0.43442097 0.0099485721 1.7410001
0.43773717 0.0099485721 1.7410001
0.44105336 0.0099485721 1.7410001
0.44666669 0.010000001 1.7500001
0.45000002 0.010000001 1.7500001
0.45566478 0.010051429 1.7590001
0.45901525 0.010051429 1.7590001
0.46236572 0.010051429 1.7590001
0.46809906 0.010102858 1.7680001
0.47146669 0.010102858 1.7680001
0.47483429 0.010102858 1.7680001
0.47820193 0.010102858 1.7680001
0.48156953 0.010102858 1.7680001
0.48740572 0.010154286 1.7770001
0.49079049 0.010154286 1.7770001
0.49417526 0.010154286 1.7770001
0.49756002 0.010154286 1.7770001
0.50348192 0.010205715 1.7860001
0.5068838 0.010205715 1.7860001
0.51028574 0.010205715 1.7860001
0.51368761 0.010205715 1.7860001
0.51969528 0.010257144 1.7950001
0.52311432 0.010257144 1.7950001
0.52653337 0.010257144 1.7950001
0.52995241 0.010257144 1.7950001
0.53337145 0.010257144 1.7950001
0.53948194 0.010308572 1.8040001
0.54291809 0.010308572 1.8040001
0.54938287 0.010365714 1.8140001
0.55283809 0.010365714 1.8140001
0.55629337 0.010365714 1.8140001
-0.21520001 0.014346668 1.8830001
-0.21048953 0.014270477 1.8730001
-0.20692191 0.014270477 1.8730001
-0.20118286 0.014118096 1.853
-0.19658667 0.014041905 1.8430001
-0.19202858 0.013965715 1.8330001
-0.1855543 0.013744762 1.8040001
-0.1821181 0.013744762 1.8040001
-0.17779048 0.013676191 1.7950001
-0.17437144 0.013676191 1.7950001
-0.17009525 0.013607619 1.7860001
-0.16585334 0.013539048 1.7770001
-0.16246858 0.013539048 1.7770001
-0.15827811 0.013470476 1.7680001
-0.15491048 0.013470476 1.7680001
-0.15077144 0.013401905 1.7590001
-0.14742096 0.013401905 1.7590001
-0.14407048 0.013401905 1.7590001
-0.14072001 0.013401905 1.7590001
-0.13666667 0.013333334 1.7500001
-0.13333334 0.013333334 1.7500001
-0.12933144 0.013264762 1.7410001
-0.12601525 0.013264762 1.7410001
-0.12206477 0.013196191 1.7320001
-0.11814857 0.013127619 1.723
-0.11486667 0.013127619 1.723
-0.11158477 0.013127619 1.723
-0.10780001 0.013066667 1.715
-0.10398477 0.012998096 1.7060001
-0.10073524 0.012998096 1.7060001
-0.097485721 0.012998096 1.7060001
-0.093794286 0.012937143 1.6980001
-0.090560004 0.012937143 1.6980001
-0.087325715 0.012937143 1.6980001
-0.08369524 0.012876191 1.6900001
-0.080476195 0.012876191 1.6900001
-0.077257149 0.012876191 1.6900001
-0.074038096 0.012876191 1.6900001
-0.070441909 0.01280762 1.6810001
-0.06724 0.01280762 1.6810001
-0.064038098 0.01280762 1.6810001
-0.060836192 0.01280762 1.6810001
-0.057634287 0.01280762 1.6810001
-0.054173335 0.012746667 1.6730001
-0.050742857 0.012685714 1.6650001
-0.047571432 0.012685714 1.6650001
-0.044400003 0.012685714 1.6650001
-0.041228574 0.012685714 1.6650001
-0.038057145 0.012685714 1.6650001
-0.034885716 0.012685714 1.6650001
-0.031714287 0.012685714 1.6650001
-0.028405715 0.012624762 1.6570001
-0.025249524 0.012624762 1.6570001
-0.022093333 0.012624762 1.6570001
-0.018845715 0.01256381 1.649
-0.015704762 0.01256381 1.649
-0.01256381 0.01256381 1.649
-0.0094228573 0.01256381 1.649
-0.0062819049 0.01256381 1.649
-0.0031409524 0.01256381 1.649
0 0.012502857 1.641
0.0031257144 0.012502857 1.641
0.0062514287 0.012502857 1.641
0.0093771433 0.012502857 1.641
0.012449524 0.012449524 1.6340001
0.015485715 0.012388572 1.626
0.018582858 0.012388572 1.626
0.021680001 0.012388572 1.626
0.024777144 0.012388572 1.626
0.027874287 0.012388572 1.626
0.03097143 0.012388572 1.626
0.034068573 0.012388572 1.626
0.037165716 0.012388572 1.626
0.040262859 0.012388572 1.626
0.043360002 0.012388572 1.626
0.046457145 0.012388572 1.626
0.049554288 0.012388572 1.626
0.052651431 0.012388572 1.626
0.055748574 0.012388572 1.626
0.058845717 0.012388572 1.626
0.06194286 0.012388572 1.626
0.06504 0.012388572 1.626
0.068137147 0.012388572 1.626
0.071234286 0.012388572 1.626
0.074331433 0.012388572 1.626
0.077428572 0.012388572 1.626
0.080129527 0.01232762 1.618
0.083622858 0.012388572 1.626
0.08629334 0.01232762 1.618
0.089817144 0.012388572 1.626
0.092457145 0.01232762 1.618
0.09601143 0.012388572 1.626
0.099108577 0.012388572 1.626
0.10220572 0.012388572 1.626
0.10530286 0.012388572 1.626
0.1084 0.012388572 1.626
0.11149715 0.012388572 1.626
0.11459429 0.012388572 1.626
0.11769143 0.012388572 1.626
0.12078857 0.012388572 1.626
0.12388572 0.012388572 1.626
0.12698287 0.012388572 1.626
0.12944001 0.01232762 1.618
0.13252191 0.01232762 1.618
0.13560382 0.01232762 1.618
0.13868572 0.01232762 1.618
0.14176762 0.01232762 1.618
0.14484952 0.01232762 1.618
0.14729144 0.012274286 1.6110001
0.15101334 0.01232762 1.618
0.15409525 0.01232762 1.618
0.15717715 0.01232762 1.618
0.16025905 0.01232762 1.618
0.16334096 0.01232762 1.618
0.16642286 0.01232762 1.618
0.16950476 0.01232762 1.618
0.17258668 0.01232762 1.618
0.17566858 0.01232762 1.618
0.17875049 0.01232762 1.618
0.18183239 0.01232762 1.618
0.18491429 0.01232762 1.618
0.18799619 0.01232762 1.618
0.19202286 0.012388572 1.626
0.19512001 0.012388572 1.626
0.19821715 0.012388572 1.626
0.2013143 0.012388572 1.626
0.20541716 0.012449524 1.6340001
0.20852953 0.012449524 1.6340001
0.21164191 0.012449524 1.6340001
0.2147543 0.012449524 1.6340001
0.21786667 0.012449524 1.6340001
0.22192572 0.012502857 1.641
0.22505143 0.012502857 1.641
0.22817715 0.012502857 1.641
0.23130287 0.012502857 1.641
0.23442858 0.012502857 1.641
0.2375543 0.012502857 1.641
0.24068001 0.012502857 1.641
0.24380572 0.012502857 1.641
0.24693143 0.012502857 1.641
0.2512762 0.01256381 1.649
0.25318286 0.012502857 1.641
0.25630859 0.012502857 1.641
0.26069906 0.01256381 1.649
0.26384002 0.01256381 1.649
0.26698098 0.01256381 1.649
0.2701219 0.01256381 1.649
0.27326286 0.01256381 1.649
0.27640381 0.01256381 1.649
0.28090096 0.012624762 1.6570001
0.28405714 0.012624762 1.6570001
0.28721336 0.012624762 1.6570001
0.29177144 0.012685714 1.6650001
0.29494286 0.012685714 1.6650001
0.2981143 0.012685714 1.6650001
0.30273333 0.012746667 1.6730001
0.30592 0.012746667 1.6730001
0.30910668 0.012746667 1.6730001
0.31229335 0.012746667 1.6730001
0.31548002 0.012746667 1.6730001
0.31866667 0.012746667 1.6730001
0.32339239 0.01280762 1.6810001
0.32659429 0.01280762 1.6810001
0.3297962 0.01280762 1.6810001
0.33141336 0.012746667 1.6730001
0.3362 0.01280762 1.6810001
0.33940193 0.01280762 1.6810001
0.34443811 0.012876191 1.6900001
0.34765714 0.012876191 1.6900001
0.35253716 0.012937143 1.6980001
0.35577145 0.012937143 1.6980001
0.35900572 0.012937143 1.6980001
0.36224002 0.012937143 1.6980001
0.36547431 0.012937143 1.6980001
0.36870858 0.012937143 1.6980001
0.37369525 0.012998096 1.7060001
0.37694478 0.012998096 1.7060001
0.38019431 0.012998096 1.7060001
0.38546669 0.013066667 1.715
0.38873336 0.013066667 1.715
0.39200002 0.013066667 1.715
0.39711049 0.013127619 1.723
0.40039238 0.013127619 1.723
0.4036743 0.013127619 1.723
0.40908191 0.013196191 1.7320001
0.41238096 0.013196191 1.7320001
0.41568002 0.013196191 1.7320001
0.41897905 0.013196191 1.7320001
0.42227811 0.013196191 1.7320001
0.42557716 0.013196191 1.7320001
0.42887619 0.013196191 1.7320001
0.43442097 0.013264762 1.7410001
0.43773717 0.013264762 1.7410001
0.44105336 0.013264762 1.7410001
0.44666669 0.013333334 1.7500001
0.45000002 0.013333334 1.7500001
0.45566478 0.013401905 1.7590001
0.45901525 0.013401905 1.7590001
0.46236572 0.013401905 1.7590001
0.46809906 0.013470476 1.7680001
0.47146669 0.013470476 1.7680001
0.47483429 0.013470476 1.7680001
0.47820193 0.013470476 1.7680001
0.48156953 0.013470476 1.7680001
0.48493716 0.013470476 1.7680001
0.49079049 0.013539048 1.7770001
0.49417526 0.013539048 1.7770001
0.49756002 0.013539048 1.7770001
0.50348192 0.013607619 1.7860001
0.5068838 0.013607619 1.7860001
0.50771433 0.013539048 1.7770001
0.51368761 0.013607619 1.7860001
0.51969528 0.013676191 1.7950001
0.52311432 0.013676191 1.7950001
0.52653337 0.013676191 1.7950001
0.52995241 0.013676191 1.7950001
0.53337145 0.013676191 1.7950001
0.53948194 0.013744762 1.8040001
0.54592764 0.013820953 1.8140001
0.54938287 0.013820953 1.8140001
0.55283809 0.013820953 1.8140001
0.55629337 0.013820953 1.8140001
-0.21878667 0.017933333 1.8830001
-0.21520001 0.017933333 1.8830001
-0.21048953 0.017838096 1.8730001
-0.20581715 0.017742857 1.863
-0.20118286 0.01764762 1.853
-0.19658667 0.017552381 1.8430001
-0.19202858 0.017457144 1.8330001
-0.1855543 0.017180953 1.8040001
-0.1821181 0.017180953 1.8040001
-0.17779048 0.017095238 1.7950001
-0.17437144 0.017095238 1.7950001
-0.17095239 0.017095238 1.7950001
-0.16669334 0.017009525 1.7860001
-0.16246858 0.016923809 1.7770001
-0.15908381 0.016923809 1.7770001
-0.15491048 0.016838096 1.7680001
-0.15077144 0.016752381 1.7590001
-0.14742096 0.016752381 1.7590001
-0.14407048 0.016752381 1.7590001
-0.14072001 0.016752381 1.7590001
-0.13666667 0.016666668 1.7500001
-0.13333334 0.016666668 1.7500001
-0.12933144 0.016580952 1.7410001
-0.12601525 0.016580952 1.7410001
-0.12269905 0.016580952 1.7410001
-0.11814857 0.016409524 1.723
-0.11486667 0.016409524 1.723
-0.11158477 0.016409524 1.723
-0.10780001 0.016333334 1.715
-0.10453334 0.016333334 1.715
-0.10073524 0.016247619 1.7060001
-0.097485721 0.016247619 1.7060001
-0.094236195 0.016247619 1.7060001
-0.090560004 0.016171429 1.6980001
-0.087325715 0.016171429 1.6980001
-0.08369524 0.016095238 1.6900001
-0.080476195 0.016095238 1.6900001
-0.077257149 0.016095238 1.6900001
-0.073643811 0.016009524 1.6810001
-0.070441909 0.016009524 1.6810001
-0.06724 0.016009524 1.6810001
-0.063733339 0.015933335 1.6730001
-0.06054667 0.015933335 1.6730001
-0.057360001 0.015933335 1.6730001
-0.054173335 0.015933335 1.6730001
-0.050742857 0.015857143 1.6650001
-0.047571432 0.015857143 1.6650001
-0.044400003 0.015857143 1.6650001
-0.041228574 0.015857143 1.6650001
-0.038057145 0.015857143 1.6650001
-0.034885716 0.015857143 1.6650001
-0.031714287 0.015857143 1.6650001
-0.028405715 0.015780954 1.6570001
-0.025249524 0.015780954 1.6570001
-0.021986667 0.015704762 1.649
-0.018845715 0.015704762 1.649
-0.015704762 0.015704762 1.649
-0.012502857 0.015628573 1.641
-0.0093771433 0.015628573 1.641
-0.0062514287 0.015628573 1.641
-0.0031257144 0.015628573 1.641
0 0.015628573 1.641
0.0031257144 0.015628573 1.641
0.0062514287 0.015628573 1.641
0.0093771433 0.015628573 1.641
0.012388572 0.015485715 1.626
0.015485715 0.015485715 1.626
0.018582858 0.015485715 1.626
0.021680001 0.015485715 1.626
0.024777144 0.015485715 1.626
0.027874287 0.015485715 1.626
0.03097143 0.015485715 1.626
0.034068573 0.015485715 1.626
0.037165716 0.015485715 1.626
0.040262859 0.015485715 1.626
0.043360002 0.015485715 1.626
0.046457145 0.015485715 1.626
0.049554288 0.015485715 1.626
0.052651431 0.015485715 1.626
0.055748574 0.015485715 1.626
0.058845717 0.015485715 1.626
0.06194286 0.015485715 1.626
0.06504 0.015485715 1.626
0.067801908 0.015409525 1.618
0.071234286 0.015485715 1.626
0.074331433 0.015485715 1.626
0.077428572 0.015485715 1.626
0.080129527 0.015409525 1.618
0.083211429 0.015409525 1.618
0.08629334 0.015409525 1.618
0.089817144 0.015485715 1.626
0.092914291 0.015485715 1.626
0.09601143 0.015485715 1.626
0.099108577 0.015485715 1.626
0.10220572 0.015485715 1.626
0.10478476 0.015409525 1.618
0.10786667 0.015409525 1.618
0.11149715 0.015485715 1.626
0.11403048 0.015409525 1.618
0.11711238 0.015409525 1.618
0.12019429 0.015409525 1.618
0.1232762 0.015409525 1.618
0.12635811 0.015409525 1.618
0.12944001 0.015409525 1.618
0.13252191 0.015409525 1.618
0.13560382 0.015409525 1.618
0.13868572 0.015409525 1.618
0.14176762 0.015409525 1.618
0.14422286 0.015342858 1.6110001
0.14729144 0.015342858 1.6110001
0.15101334 0.015409525 1.618
0.15409525 0.015409525 1.618
0.15717715 0.015409525 1.618
0.16025905 0.015409525 1.618
0.16334096 0.015409525 1.618
0.16642286 0.015409525 1.618
0.16950476 0.015409525 1.618
0.17258668 0.015409525 1.618
0.17566858 0.015409525 1.618
0.17875049 0.015409525 1.618
0.18183239 0.015409525 1.618
0.18491429 0.015409525 1.618
0.18799619 0.015409525 1.618
0.1910781 0.015409525 1.618
0.19416001 0.015409525 1.618
0.19724192 0.015409525 1.618
0.20032382 0.015409525 1.618
0.20441143 0.015485715 1.626
0.20750858 0.015485715 1.626
0.21060573 0.015485715 1.626
0.21370287 0.015485715 1.626
0.2168 0.015485715 1.626
0.22097905 0.015561906 1.6340001
0.22409144 0.015561906 1.6340001
0.22720382 0.015561906 1.6340001
0.23031619 0.015561906 1.6340001
0.23442858 0.015628573 1.641
0.2375543 0.015628573 1.641
0.24068001 0.015628573 1.641
0.24380572 0.015628573 1.641
0.24693143 0.015628573 1.641
0.25005716 0.015628573 1.641
0.25318286 0.015628573 1.641
0.25755811 0.015704762 1.649
0.26069906 0.015704762 1.649
0.26384002 0.015704762 1.649
0.26698098 0.015704762 1.649
0.2701219 0.015704762 1.649
0.27326286 0.015704762 1.649
0.27640381 0.015704762 1.649
0.27954477 0.015704762 1.649
0.28405714 0.015780954 1.6570001
0.2886 0.015857143 1.6650001
0.29177144 0.015857143 1.6650001
0.29494286 0.015857143 1.6650001
0.29954669 0.015933335 1.6730001
0.30273333 0.015933335 1.6730001
0.30592 0.015933335 1.6730001
0.30910668 0.015933335 1.6730001
0.31229335 0.015933335 1.6730001
0.31548002 0.015933335 1.6730001
0.31866667 0.015933335 1.6730001
0.32339239 0.016009524 1.6810001
0.32659429 0.016009524 1.6810001
0.3297962 0.016009524 1.6810001
0.33141336 0.015933335 1.6730001
0.3362 0.016009524 1.6810001
0.33940193 0.016009524 1.6810001
0.34443811 0.016095238 1.6900001
0.34765714 0.016095238 1.6900001
0.35253716 0.016171429 1.6980001
0.35577145 0.016171429 1.6980001
0.35900572 0.016171429 1.6980001
0.36224002 0.016171429 1.6980001
0.36547431 0.016171429 1.6980001
0.37044573 0.016247619 1.7060001
0.37369525 0.016247619 1.7060001
0.37694478 0.016247619 1.7060001
0.38019431 0.016247619 1.7060001
0.38546669 0.016333334 1.715
0.38873336 0.016333334 1.715
0.39200002 0.016333334 1.715
0.39526668 0.016333334 1.715
0.40039238 0.016409524 1.723
0.4036743 0.016409524 1.723
0.40908191 0.016495239 1.7320001
0.41238096 0.016495239 1.7320001
0.41568002 0.016495239 1.7320001
0.41897905 0.016495239 1.7320001
0.42227811 0.016495239 1.7320001
0.42557716 0.016495239 1.7320001
0.42887619 0.016495239 1.7320001
0.43442097 0.016580952 1.7410001
0.43773717 0.016580952 1.7410001
0.44105336 0.016580952 1.7410001
0.44666669 0.016666668 1.7500001
0.45000002 0.016666668 1.7500001
0.45566478 0.016752381 1.7590001
0.45901525 0.016752381 1.7590001
0.46236572 0.016752381 1.7590001
0.46809906 0.016838096 1.7680001
0.47146669 0.016838096 1.7680001
0.47483429 0.016838096 1.7680001
0.47820193 0.016838096 1.7680001
0.48156953 0.016838096 1.7680001
0.48493716 0.016838096 1.7680001
0.49079049 0.016923809 1.7770001
0.49417526 0.016923809 1.7770001
0.49756002 0.016923809 1.7770001
0.50094479 0.016923809 1.7770001
0.5068838 0.017009525 1.7860001
0.50771433 0.016923809 1.7770001
0.51368761 0.017009525 1.7860001
0.51969528 0.017095238 1.7950001
0.52311432 0.017095238 1.7950001
0.52653337 0.017095238 1.7950001
0.52995241 0.017095238 1.7950001
0.53337145 0.017095238 1.7950001
0.53948194 0.017180953 1.8040001
0.54592764 0.01727619 1.8140001
0.54938287 0.01727619 1.8140001
0.55283809 0.01727619 1.8140001
0.55629337 0.01727619 1.8140001
-0.21878667 0.02152 1.8830001
-0.21520001 0.02152 1.8830001
-0.21048953 0.021405715 1.8730001
-0.20581715 0.021291429 1.863
-0.20118286 0.021177143 1.853
-0.19658667 0.021062858 1.8430001
-0.19202858 0.020948572 1.8330001
-0.1855543 0.020617144 1.8040001
-0.1821181 0.020617144 1.8040001
-0.17868191 0.020617144 1.8040001
-0.17437144 0.020514287 1.7950001
-0.17095239 0.020514287 1.7950001
-0.16669334 0.02041143 1.7860001
-0.16246858 0.020308573 1.7770001
-0.15908381 0.020308573 1.7770001
-0.15491048 0.020205716 1.7680001
-0.15077144 0.020102859 1.7590001
-0.14742096 0.020102859 1.7590001
-0.14407048 0.020102859 1.7590001
-0.14072001 0.020102859 1.7590001
-0.13666667 0.020000001 1.7500001
-0.13264762 0.019897144 1.7410001
-0.12933144 0.019897144 1.7410001
-0.12601525 0.019897144 1.7410001
-0.12206477 0.019794287 1.7320001
-0.11814857 0.01969143 1.723
-0.11486667 0.01969143 1.723
-0.11158477 0.01969143 1.723
-0.10723429 0.019497143 1.7060001
-0.10398477 0.019497143 1.7060001
-0.10073524 0.019497143 1.7060001
-0.097028576 0.019405715 1.6980001
-0.093794286 0.019405715 1.6980001
-0.090560004 0.019405715 1.6980001
-0.087325715 0.019405715 1.6980001
-0.08369524 0.019314287 1.6900001
-0.080476195 0.019314287 1.6900001
-0.077257149 0.019314287 1.6900001
-0.073643811 0.01921143 1.6810001
-0.070441909 0.01921143 1.6810001
-0.06724 0.01921143 1.6810001
-0.063733339 0.01912 1.6730001
-0.06054667 0.01912 1.6730001
-0.057360001 0.01912 1.6730001
-0.054173335 0.01912 1.6730001
-0.050742857 0.019028572 1.6650001
-0.047571432 0.019028572 1.6650001
-0.044400003 0.019028572 1.6650001
-0.041228574 0.019028572 1.6650001
-0.038057145 0.019028572 1.6650001
-0.034885716 0.019028572 1.6650001
-0.031714287 0.019028572 1.6650001
-0.028405715 0.018937144 1.6570001
-0.02512762 0.018845715 1.649
-0.021986667 0.018845715 1.649
-0.018845715 0.018845715 1.649
-0.015704762 0.018845715 1.649
-0.012502857 0.018754287 1.641
-0.0093771433 0.018754287 1.641
-0.0062514287 0.018754287 1.641
-0.0031123811 0.018674286 1.6340001
0 0.018674286 1.6340001
0.0031123811 0.018674286 1.6340001
0.0062247622 0.018674286 1.6340001
0.0093771433 0.018754287 1.641
0.012449524 0.018674286 1.6340001
0.015485715 0.018582858 1.626
0.018582858 0.018582858 1.626
0.021680001 0.018582858 1.626
0.024777144 0.018582858 1.626
0.027874287 0.018582858 1.626
0.03097143 0.018582858 1.626
0.034068573 0.018582858 1.626
0.037165716 0.018582858 1.626
0.040262859 0.018582858 1.626
0.043360002 0.018582858 1.626
0.046457145 0.018582858 1.626
0.049554288 0.018582858 1.626
0.052651431 0.018582858 1.626
0.055748574 0.018582858 1.626
0.058845717 0.018582858 1.626
0.06194286 0.018582858 1.626
0.06504 0.018582858 1.626
0.067801908 0.018491428 1.618
0.070883811 0.018491428 1.618
0.073965713 0.018491428 1.618
0.077047624 0.018491428 1.618
0.080129527 0.018491428 1.618
0.083211429 0.018491428 1.618
0.08629334 0.018491428 1.618
0.089817144 0.018582858 1.626
0.092457145 0.018491428 1.618
0.09601143 0.018582858 1.626
0.099108577 0.018582858 1.626
0.10220572 0.018582858 1.626
0.10478476 0.018491428 1.618
0.10786667 0.018491428 1.618
0.11149715 0.018582858 1.626
0.11459429 0.018582858 1.626
0.11711238 0.018491428 1.618
0.12019429 0.018491428 1.618
0.1232762 0.018491428 1.618
0.12635811 0.018491428 1.618
0.12944001 0.018491428 1.618
0.13252191 0.018491428 1.618
0.13560382 0.018491428 1.618
0.13868572 0.018491428 1.618
0.14176762 0.018491428 1.618
0.14422286 0.01841143 1.6110001
0.14729144 0.01841143 1.6110001
0.15036 0.01841143 1.6110001
0.15342858 0.01841143 1.6110001
0.15649715 0.01841143 1.6110001
0.15956572 0.01841143 1.6110001
0.16334096 0.018491428 1.618
0.16642286 0.018491428 1.618
0.16950476 0.018491428 1.618
0.17258668 0.018491428 1.618
0.17566858 0.018491428 1.618
0.17875049 0.018491428 1.618
0.18183239 0.018491428 1.618
0.18491429 0.018491428 1.618
0.18799619 0.018491428 1.618
0.1910781 0.018491428 1.618
0.19512001 0.018582858 1.626
0.19821715 0.018582858 1.626
0.2013143 0.018582858 1.626
0.20441143 0.018582858 1.626
0.20750858 0.018582858 1.626
0.21060573 0.018582858 1.626
0.21370287 0.018582858 1.626
0.21786667 0.018674286 1.6340001
0.22097905 0.018674286 1.6340001
0.22409144 0.018674286 1.6340001
0.22720382 0.018674286 1.6340001
0.23031619 0.018674286 1.6340001
0.23442858 0.018754287 1.641
0.2375543 0.018754287 1.641
0.24068001 0.018754287 1.641
0.24380572 0.018754287 1.641
0.24693143 0.018754287 1.641
0.25005716 0.018754287 1.641
0.25318286 0.018754287 1.641
0.25755811 0.018845715 1.649
0.26069906 0.018845715 1.649
0.26384002 0.018845715 1.649
0.26698098 0.018845715 1.649
0.2701219 0.018845715 1.649
0.27326286 0.018845715 1.649
0.27640381 0.018845715 1.649
0.27954477 0.018845715 1.649
0.28405714 0.018937144 1.6570001
0.28721336 0.018937144 1.6570001
0.29177144 0.019028572 1.6650001
0.29494286 0.019028572 1.6650001
0.2981143 0.019028572 1.6650001
0.30273333 0.01912 1.6730001
0.30592 0.01912 1.6730001
0.30910668 0.01912 1.6730001
0.31229335 0.01912 1.6730001
0.31548002 0.01912 1.6730001
0.31866667 0.01912 1.6730001
0.32185334 0.01912 1.6730001
0.32659429 0.01921143 1.6810001
0.3297962 0.01921143 1.6810001
0.33141336 0.01912 1.6730001
0.3362 0.01921143 1.6810001
0.33940193 0.01921143 1.6810001
0.34443811 0.019314287 1.6900001
0.34765714 0.019314287 1.6900001
0.35087621 0.019314287 1.6900001
0.35577145 0.019405715 1.6980001
0.35900572 0.019405715 1.6980001
0.36224002 0.019405715 1.6980001
0.36547431 0.019405715 1.6980001
0.36870858 0.019405715 1.6980001
0.37369525 0.019497143 1.7060001
0.37694478 0.019497143 1.7060001
0.38019431 0.019497143 1.7060001
0.38546669 0.0196 1.715
0.38873336 0.0196 1.715
0.39200002 0.0196 1.715
0.39711049 0.01969143 1.723
0.40039238 0.01969143 1.723
0.4036743 0.01969143 1.723
0.40908191 0.019794287 1.7320001
0.41238096 0.019794287 1.7320001
0.41352001 0.01969143 1.723
0.41897905 0.019794287 1.7320001
0.42227811 0.019794287 1.7320001
0.42557716 0.019794287 1.7320001
0.42887619 0.019794287 1.7320001
0.43217525 0.019794287 1.7320001
0.43773717 0.019897144 1.7410001
0.44105336 0.019897144 1.7410001
0.44666669 0.020000001 1.7500001
0.45000002 0.020000001 1.7500001
0.45566478 0.020102859 1.7590001
0.45901525 0.020102859 1.7590001
0.46236572 0.020102859 1.7590001
0.46571621 0.020102859 1.7590001
0.46906668 0.020102859 1.7590001
0.47483429 0.020205716 1.7680001
0.47576764 0.020102859 1.7590001
0.48156953 0.020205716 1.7680001
0.48493716 0.020205716 1.7680001
0.48830479 0.020205716 1.7680001
0.49417526 0.020308573 1.7770001
0.49756002 0.020308573 1.7770001
0.50094479 0.020308573 1.7770001
0.5068838 0.02041143 1.7860001
0.50771433 0.020308573 1.7770001
0.51368761 0.02041143 1.7860001
0.51969528 0.020514287 1.7950001
0.52311432 0.020514287 1.7950001
0.52653337 0.020514287 1.7950001
0.52995241 0.020514287 1.7950001
0.53337145 0.020514287 1.7950001
0.53948194 0.020617144 1.8040001
0.54291809 0.020617144 1.8040001
0.54635429 0.020617144 1.8040001
0.55283809 0.020731429 1.8140001
0.55629337 0.020731429 1.8140001
-0.21878667 0.025106668 1.8830001
-0.21520001 0.025106668 1.8830001
-0.21048953 0.024973335 1.8730001
-0.20581715 0.024840001 1.863
-0.20009714 0.024573334 1.8430001
-0.19658667 0.024573334 1.8430001
-0.19202858 0.024440002 1.8330001
-0.18761143 0.024320001 1.8240001
-0.1821181 0.024053333 1.8040001
-0.17868191 0.024053333 1.8040001
-0.17437144 0.023933334 1.7950001
-0.17095239 0.023933334 1.7950001
-0.16669334 0.023813333 1.7860001
-0.16329144 0.023813333 1.7860001
-0.15908381 0.023693334 1.7770001
-0.15491048 0.023573333 1.7680001
-0.15077144 0.023453334 1.7590001
-0.14742096 0.023453334 1.7590001
-0.14407048 0.023453334 1.7590001
-0.14 0.023333333 1.7500001
-0.13666667 0.023333333 1.7500001
-0.13264762 0.023213334 1.7410001
-0.12933144 0.023213334 1.7410001
-0.12536381 0.023093333 1.7320001
-0.12206477 0.023093333 1.7320001
-0.11814857 0.022973334 1.723
-0.11486667 0.022973334 1.723
-0.11158477 0.022973334 1.723
-0.10723429 0.022746667 1.7060001
-0.10398477 0.022746667 1.7060001
-0.10026286 0.022640001 1.6980001
-0.097028576 0.022640001 1.6980001
-0.093794286 0.022640001 1.6980001
-0.090133339 0.022533335 1.6900001
-0.086914286 0.022533335 1.6900001
-0.08369524 0.022533335 1.6900001
-0.080476195 0.022533335 1.6900001
-0.077257149 0.022533335 1.6900001
-0.073643811 0.022413334 1.6810001
-0.070441909 0.022413334 1.6810001
-0.06724 0.022413334 1.6810001
-0.063733339 0.022306668 1.6730001
-0.06054667 0.022306668 1.6730001
-0.057360001 0.022306668 1.6730001
-0.054173335 0.022306668 1.6730001
-0.050742857 0.022200001 1.6650001
-0.047571432 0.022200001 1.6650001
-0.044400003 0.022200001 1.6650001
-0.041228574 0.022200001 1.6650001
-0.038057145 0.022200001 1.6650001
-0.034885716 0.022200001 1.6650001
-0.031714287 0.022200001 1.6650001
-0.028405715 0.022093333 1.6570001
-0.02512762 0.021986667 1.649
-0.021986667 0.021986667 1.649
-0.018754287 0.021880001 1.641
-0.015628573 0.021880001 1.641
-0.012502857 0.021880001 1.641
-0.0093771433 0.021880001 1.641
-0.0062514287 0.021880001 1.641
-0.0031257144 0.021880001 1.641
0 0.021786667 1.6340001
0.0031123811 0.021786667 1.6340001
0.0062247622 0.021786667 1.6340001
0.0093771433 0.021880001 1.641
0.012449524 0.021786667 1.6340001
0.015485715 0.021680001 1.626
0.018582858 0.021680001 1.626
0.021680001 0.021680001 1.626
0.024777144 0.021680001 1.626
0.027874287 0.021680001 1.626
0.03097143 0.021680001 1.626
0.034068573 0.021680001 1.626
0.037165716 0.021680001 1.626
0.040262859 0.021680001 1.626
0.043360002 0.021680001 1.626
0.046457145 0.021680001 1.626
0.049554288 0.021680001 1.626
0.052392382 0.021573335 1.618
0.055748574 0.021680001 1.626
0.058845717 0.021680001 1.626
0.06194286 0.021680001 1.626
0.06504 0.021680001 1.626
0.067801908 0.021573335 1.618
0.070883811 0.021573335 1.618
0.073965713 0.021573335 1.618
0.077047624 0.021573335 1.618
0.080129527 0.021573335 1.618
0.083211429 0.021573335 1.618
0.08629334 0.021573335 1.618
0.089817144 0.021680001 1.626
0.092457145 0.021573335 1.618
0.095539048 0.021573335 1.618
0.099108577 0.021680001 1.626
0.10220572 0.021680001 1.626
0.10478476 0.021573335 1.618
0.1084 0.021680001 1.626
0.11149715 0.021680001 1.626
0.11459429 0.021680001 1.626
0.11711238 0.021573335 1.618
0.12019429 0.021573335 1.618
0.1232762 0.021573335 1.618
0.12635811 0.021573335 1.618
0.12944001 0.021573335 1.618
0.13252191 0.021573335 1.618
0.13560382 0.021573335 1.618
0.13868572 0.021573335 1.618
0.14176762 0.021573335 1.618
0.14422286 0.021480002 1.6110001
0.14729144 0.021480002 1.6110001
0.15036 0.021480002 1.6110001
0.15342858 0.021480002 1.6110001
0.15649715 0.021480002 1.6110001
0.16025905 0.021573335 1.618
0.16334096 0.021573335 1.618
0.16642286 0.021573335 1.618
0.16950476 0.021573335 1.618
0.17258668 0.021573335 1.618
0.17566858 0.021573335 1.618
0.17875049 0.021573335 1.618
0.18183239 0.021573335 1.618
0.18491429 0.021573335 1.618
0.18799619 0.021573335 1.618
0.1910781 0.021573335 1.618
0.19416001 0.021573335 1.618
0.19724192 0.021573335 1.618
0.2013143 0.021680001 1.626
0.20441143 0.021680001 1.626
0.20750858 0.021680001 1.626
0.21060573 0.021680001 1.626
0.21370287 0.021680001 1.626
0.21786667 0.021786667 1.6340001
0.22097905 0.021786667 1.6340001
0.22409144 0.021786667 1.6340001
0.22720382 0.021786667 1.6340001
0.23031619 0.021786667 1.6340001
0.23442858 0.021880001 1.641
0.2375543 0.021880001 1.641
0.24068001 0.021880001 1.641
0.24380572 0.021880001 1.641
0.24693143 0.021880001 1.641
0.25005716 0.021880001 1.641
0.25318286 0.021880001 1.641
0.25755811 0.021986667 1.649
0.26069906 0.021986667 1.649
0.26384002 0.021986667 1.649
0.26698098 0.021986667 1.649
0.2701219 0.021986667 1.649
0.27326286 0.021986667 1.649
0.27640381 0.021986667 1.649
0.27954477 0.021986667 1.649
0.28405714 0.022093333 1.6570001
0.28721336 0.022093333 1.6570001
0.29177144 0.022200001 1.6650001
0.29494286 0.022200001 1.6650001
0.2981143 0.022200001 1.6650001
0.30273333 0.022306668 1.6730001
0.30592 0.022306668 1.6730001
0.30910668 0.022306668 1.6730001
0.31229335 0.022306668 1.6730001
0.31548002 0.022306668 1.6730001
0.31866667 0.022306668 1.6730001
0.32339239 0.022413334 1.6810001
0.32659429 0.022413334 1.6810001
0.3297962 0.022413334 1.6810001
0.33141336 0.022306668 1.6730001
0.3362 0.022413334 1.6810001
0.33940193 0.022413334 1.6810001
0.34260383 0.022413334 1.6810001
0.34765714 0.022533335 1.6900001
0.35087621 0.022533335 1.6900001
0.35577145 0.022640001 1.6980001
0.35900572 0.022640001 1.6980001
0.36224002 0.022640001 1.6980001
0.36547431 0.022640001 1.6980001
0.37044573 0.022746667 1.7060001
0.37369525 0.022746667 1.7060001
0.37694478 0.022746667 1.7060001
0.38019431 0.022746667 1.7060001
0.38546669 0.022866668 1.715
0.38873336 0.022866668 1.715
0.3938286 0.022973334 1.723
0.39711049 0.022973334 1.723
0.40039238 0.022973334 1.723
0.4036743 0.022973334 1.723
0.40908191 0.023093333 1.7320001
0.41238096 0.023093333 1.7320001
0.41352001 0.022973334 1.723
0.41897905 0.023093333 1.7320001
0.42227811 0.023093333 1.7320001
0.42557716 0.023093333 1.7320001
0.42887619 0.023093333 1.7320001
0.43217525 0.023093333 1.7320001
0.43773717 0.023213334 1.7410001
0.44105336 0.023213334 1.7410001
0.44666669 0.023333333 1.7500001
0.45000002 0.023333333 1.7500001
0.45566478 0.023453334 1.7590001
0.45901525 0.023453334 1.7590001
0.46236572 0.023453334 1.7590001
0.46571621 0.023453334 1.7590001
0.46906668 0.023453334 1.7590001
0.47483429 0.023573333 1.7680001
0.47820193 0.023573333 1.7680001
0.48156953 0.023573333 1.7680001
0.48493716 0.023573333 1.7680001
0.48830479 0.023573333 1.7680001
0.49417526 0.023693334 1.7770001
0.49756002 0.023693334 1.7770001
0.50094479 0.023693334 1.7770001
0.50432956 0.023693334 1.7770001
0.50771433 0.023693334 1.7770001
0.51109904 0.023693334 1.7770001
0.51708955 0.023813333 1.7860001
0.52311432 0.023933334 1.7950001
0.52653337 0.023933334 1.7950001
0.52995241 0.023933334 1.7950001
0.53337145 0.023933334 1.7950001
0.53948194 0.024053333 1.8040001
0.54291809 0.024053333 1.8040001
0.54635429 0.024053333 1.8040001
0.5497905 0.024053333 1.8040001
0.55629337 0.024186667 1.8140001
-0.21405715 0.028540954 1.8730001
-0.20936573 0.028388573 1.863
-0.20581715 0.028388573 1.863
-0.20009714 0.028083811 1.8430001
-0.19658667 0.028083811 1.8430001
-0.19202858 0.027931429 1.8330001
-0.1855543 0.027489524 1.8040001
-0.1821181 0.027489524 1.8040001
-0.17779048 0.027352381 1.7950001
-0.17437144 0.027352381 1.7950001
-0.17095239 0.027352381 1.7950001
-0.16669334 0.027215239 1.7860001
-0.16246858 0.027078096 1.7770001
-0.15908381 0.027078096 1.7770001
-0.15491048 0.026940953 1.7680001
-0.15077144 0.02680381 1.7590001
-0.14742096 0.02680381 1.7590001
-0.14333335 0.026666667 1.7500001
-0.14 0.026666667 1.7500001
-0.13596381 0.026529524 1.7410001
-0.13264762 0.026529524 1.7410001
-0.12866285 0.026392382 1.7320001
-0.12536381 0.026392382 1.7320001
-0.12206477 0.026392382 1.7320001
-0.11814857 0.026255239 1.723
-0.11486667 0.026255239 1.723
-0.11158477 0.026255239 1.723
-0.10723429 0.025996191 1.7060001
-0.10398477 0.025996191 1.7060001
-0.10026286 0.025874287 1.6980001
-0.097028576 0.025874287 1.6980001
-0.093794286 0.025874287 1.6980001
-0.090560004 0.025874287 1.6980001
-0.086914286 0.025752382 1.6900001
-0.08369524 0.025752382 1.6900001
-0.080476195 0.025752382 1.6900001
-0.077257149 0.025752382 1.6900001
-0.073643811 0.02561524 1.6810001
-0.070441909 0.02561524 1.6810001
-0.06724 0.02561524 1.6810001
-0.063733339 0.025493335 1.6730001
-0.06054667 0.025493335 1.6730001
-0.057360001 0.025493335 1.6730001
-0.054173335 0.025493335 1.6730001
-0.050742857 0.025371429 1.6650001
-0.047571432 0.025371429 1.6650001
-0.044400003 0.025371429 1.6650001
-0.041228574 0.025371429 1.6650001
-0.038057145 0.025371429 1.6650001
-0.034885716 0.025371429 1.6650001
-0.031714287 0.025371429 1.6650001
-0.028405715 0.025249524 1.6570001
-0.02512762 0.02512762 1.649
-0.022093333 0.025249524 1.6570001
-0.018754287 0.025005715 1.641
-0.015704762 0.02512762 1.649
-0.012502857 0.025005715 1.641
-0.0093771433 0.025005715 1.641
-0.0062514287 0.025005715 1.641
-0.0031257144 0.025005715 1.641
0 0.025005715 1.641
0.0031123811 0.024899049 1.6340001
0.0062514287 0.025005715 1.641
0.0093771433 0.025005715 1.641
0.012449524 0.024899049 1.6340001
0.015485715 0.024777144 1.626
0.018582858 0.024777144 1.626
0.021680001 0.024777144 1.626
0.024777144 0.024777144 1.626
0.027874287 0.024777144 1.626
0.03097143 0.024777144 1.626
0.034068573 0.024777144 1.626
0.037165716 0.024777144 1.626
0.040262859 0.024777144 1.626
0.043360002 0.024777144 1.626
0.046457145 0.024777144 1.626
0.049554288 0.024777144 1.626
0.052392382 0.02465524 1.618
0.055748574 0.024777144 1.626
0.058845717 0.024777144 1.626
0.06194286 0.024777144 1.626
0.06504 0.024777144 1.626
0.067801908 0.02465524 1.618
0.070883811 0.02465524 1.618
0.073965713 0.02465524 1.618
0.077428572 0.024777144 1.626
0.080129527 0.02465524 1.618
0.083211429 0.02465524 1.618
0.08629334 0.02465524 1.618
0.089375243 0.02465524 1.618
0.092457145 0.02465524 1.618
0.095539048 0.02465524 1.618
0.099108577 0.024777144 1.626
0.10220572 0.024777144 1.626
0.10478476 0.02465524 1.618
0.1084 0.024777144 1.626
0.11149715 0.024777144 1.626
0.11459429 0.024777144 1.626
0.11769143 0.024777144 1.626
0.12078857 0.024777144 1.626
0.12388572 0.024777144 1.626
0.12698287 0.024777144 1.626
0.12944001 0.02465524 1.618
0.13252191 0.02465524 1.618
0.13560382 0.02465524 1.618
0.13868572 0.02465524 1.618
0.14176762 0.02465524 1.618
0.14422286 0.024548572 1.6110001
0.14729144 0.024548572 1.6110001
0.15036 0.024548572 1.6110001
0.15342858 0.024548572 1.6110001
0.15649715 0.024548572 1.6110001
0.15956572 0.024548572 1.6110001
0.1626343 0.024548572 1.6110001
0.16642286 0.02465524 1.618
0.16950476 0.02465524 1.618
0.17258668 0.02465524 1.618
0.17566858 0.02465524 1.618
0.17875049 0.02465524 1.618
0.18183239 0.02465524 1.618
0.18491429 0.02465524 1.618
0.18799619 0.02465524 1.618
0.1910781 0.02465524 1.618
0.19416001 0.02465524 1.618
0.19724192 0.02465524 1.618
0.20032382 0.02465524 1.618
0.20441143 0.024777144 1.626
0.20750858 0.024777144 1.626
0.21164191 0.024899049 1.6340001
0.21370287 0.024777144 1.626
0.21786667 0.024899049 1.6340001
0.21989715 0.024777144 1.626
0.2229943 0.024777144 1.626
0.22720382 0.024899049 1.6340001
0.23031619 0.024899049 1.6340001
0.23442858 0.025005715 1.641
0.2375543 0.025005715 1.641
0.24068001 0.025005715 1.641
0.24380572 0.025005715 1.641
0.24693143 0.025005715 1.641
0.25005716 0.025005715 1.641
0.25318286 0.025005715 1.641
0.25755811 0.02512762 1.649
0.26069906 0.02512762 1.649
0.26384002 0.02512762 1.649
0.26698098 0.02512762 1.649
0.2701219 0.02512762 1.649
0.27326286 0.02512762 1.649
0.27640381 0.02512762 1.649
0.27954477 0.02512762 1.649
0.28405714 0.025249524 1.6570001
0.28721336 0.025249524 1.6570001
0.29177144 0.025371429 1.6650001
0.29494286 0.025371429 1.6650001
0.2981143 0.025371429 1.6650001
0.30128571 0.025371429 1.6650001
0.30592 0.025493335 1.6730001
0.30910668 0.025493335 1.6730001
0.31229335 0.025493335 1.6730001
0.31548002 0.025493335 1.6730001
0.31866667 0.025493335 1.6730001
0.32339239 0.02561524 1.6810001
0.32659429 0.02561524 1.6810001
0.3297962 0.02561524 1.6810001
0.3329981 0.02561524 1.6810001
0.3362 0.02561524 1.6810001
0.34121907 0.025752382 1.6900001
0.34443811 0.025752382 1.6900001
0.34765714 0.025752382 1.6900001
0.35087621 0.025752382 1.6900001
0.35577145 0.025874287 1.6980001
0.35900572 0.025874287 1.6980001
0.36224002 0.025874287 1.6980001
0.36547431 0.025874287 1.6980001
0.36870858 0.025874287 1.6980001
0.37369525 0.025996191 1.7060001
0.37694478 0.025996191 1.7060001
0.38019431 0.025996191 1.7060001
0.38546669 0.026133334 1.715
0.38873336 0.026133334 1.715
0.3938286 0.026255239 1.723
0.39711049 0.026255239 1.723
0.40039238 0.026255239 1.723
0.4036743 0.026255239 1.723
0.40908191 0.026392382 1.7320001
0.41238096 0.026392382 1.7320001
0.41352001 0.026255239 1.723
0.41897905 0.026392382 1.7320001
0.42227811 0.026392382 1.7320001
0.42557716 0.026392382 1.7320001
0.42887619 0.026392382 1.7320001
0.43217525 0.026392382 1.7320001
0.43773717 0.026529524 1.7410001
0.44105336 0.026529524 1.7410001
0.44436955 0.026529524 1.7410001
0.45000002 0.026666667 1.7500001
0.45566478 0.02680381 1.7590001
0.45901525 0.02680381 1.7590001
0.46236572 0.02680381 1.7590001
0.46571621 0.02680381 1.7590001
0.47146669 0.026940953 1.7680001
