# .PCD v0.7 - Point Cloud Data file format
VERSION 0.7
FIELDS x y z
SIZE 4 4 4
TYPE F F F
COUNT 1 1 1
WIDTH 1530
HEIGHT 1
VIEWPOINT 0 0 0 1 0 0 0
POINTS 1530
DATA ascii
0.16565333 0.10944953 1.5530001
0.16937144 0.10994286 1.5600001
0.17234287 0.10994286 1.5600001
0.17531429 0.10994286 1.5600001
0.17828572 0.10994286 1.5600001
0.18207048 0.11043619 1.567
0.18588191 0.11092953 1.5740001
0.18888001 0.11092953 1.5740001
0.19273144 0.11142286 1.5810001
0.19574286 0.11142286 1.5810001
0.1987543 0.11142286 1.5810001
0.28249145 0.15370858 2.181
0.28480572 0.15272191 2.1670001
0.28893334 0.15272191 2.1670001
0.29116762 0.15173525 2.1530001
0.2952686 0.15173525 2.1530001
0.29936954 0.15173525 2.1530001
0.30347049 0.15173525 2.1530001
0.30571431 0.15081905 2.1400001
0.30979049 0.15081905 2.1400001
0.31386667 0.15081905 2.1400001
0.31794286 0.15081905 2.1400001
0.32201907 0.15081905 2.1400001
0.32609525 0.15081905 2.1400001
0.33017144 0.15081905 2.1400001
0.33424762 0.15081905 2.1400001
0.33626857 0.14990287 2.1270001
0.34032002 0.14990287 2.1270001
0.34226668 0.14898667 2.1140001
0.34629336 0.14898667 2.1140001
0.35032001 0.14898667 2.1140001
0.35434669 0.14898667 2.1140001
0.35837334 0.14898667 2.1140001
0.36017144 0.14807048 2.1010001
0.36417335 0.14807048 2.1010001
0.36817524 0.14807048 2.1010001
0.37217715 0.14807048 2.1010001
0.37617907 0.14807048 2.1010001
0.38018095 0.14807048 2.1010001
0.38418287 0.14807048 2.1010001
0.38818479 0.14807048 2.1010001
0.38976002 0.14715429 2.0880001
0.39373717 0.14715429 2.0880001
0.39771429 0.14715429 2.0880001
0.40169144 0.14715429 2.0880001
0.40566859 0.14715429 2.0880001
0.40964574 0.14715429 2.0880001
0.41124573 0.14630857 2.0760002
0.41520002 0.14630857 2.0760002
0.41652954 0.14539239 2.0630002
0.42045906 0.14539239 2.0630002
0.42438859 0.14539239 2.0630002
0.42831811 0.14539239 2.0630002
0.43224764 0.14539239 2.0630002
0.43364 0.14454667 2.0510001
0.43754667 0.14454667 2.0510001
0.44145334 0.14454667 2.0510001
0.44536 0.14454667 2.0510001
0.44663811 0.14370096 2.039
0.45052192 0.14370096 2.039
0.45173144 0.14285524 2.0270002
0.45559239 0.14285524 2.0270002
0.45945334 0.14285524 2.0270002
0.46331429 0.14285524 2.0270002
0.46717525 0.14285524 2.0270002
0.46824762 0.14200953 2.0150001
0.47208574 0.14200953 2.0150001
0.47592384 0.14200953 2.0150001
0.47976193 0.14200953 2.0150001
0.48360002 0.14200953 2.0150001
0.48743811 0.14200953 2.0150001
0.48835048 0.14116381 2.003
0.48946288 0.14038858 1.9920001
0.49325716 0.14038858 1.9920001
0.49705145 0.14038858 1.9920001
0.4978286 0.13954286 1.9800001
0.50160003 0.13954286 1.9800001
0.50537145 0.13954286 1.9800001
0.50631428 0.13876763 1.9690001
0.51006478 0.13876763 1.9690001
0.51381528 0.13876763 1.9690001
0.51756573 0.13876763 1.9690001
0.52131623 0.13876763 1.9690001
0.52506667 0.13876763 1.9690001
0.52881718 0.13876763 1.9690001
0.53554291 0.13954286 1.9800001
0.53931433 0.13954286 1.9800001
0.54308575 0.13954286 1.9800001
0.54685718 0.13954286 1.9800001
0.5506286 0.13954286 1.9800001
0.55440003 0.13954286 1.9800001
0.56155431 0.14038858 1.9920001
0.56534857 0.14038858 1.9920001
-0.19726667 0.13629334 1.8830001
-0.19265144 0.13556953 1.8730001
-0.18908381 0.13556953 1.8730001
-0.18650667 0.13629334 1.8830001
-0.18097715 0.13484572 1.863
-0.1764762 0.13412191 1.853
-0.17201334 0.1333981 1.8430001
-0.16758858 0.13267429 1.8330001
-0.16409715 0.13267429 1.8330001
-0.16060571 0.13267429 1.8330001
-0.15634286 0.13202286 1.8240001
-0.15203048 0.13129905 1.8140001
-0.14857525 0.13129905 1.8140001
-0.14432001 0.13057524 1.8040001
-0.14088382 0.13057524 1.8040001
-0.1367619 0.12992382 1.7950001
-0.13334286 0.12992382 1.7950001
-0.12927239 0.12927239 1.7860001
-0.1252362 0.12862095 1.7770001
-0.12185143 0.12862095 1.7770001
-0.11786667 0.12796953 1.7680001
-0.11449905 0.12796953 1.7680001
-0.11056572 0.1273181 1.7590001
-0.10666667 0.12666667 1.7500001
-0.10333334 0.12666667 1.7500001
-0.1 0.12666667 1.7500001
-0.096169524 0.12601525 1.7410001
-0.092853338 0.12601525 1.7410001
-0.089537144 0.12601525 1.7410001
-0.085775241 0.12536381 1.7320001
-0.082476191 0.12536381 1.7320001
-0.079177149 0.12536381 1.7320001
-0.075878099 0.12536381 1.7320001
-0.072579049 0.12536381 1.7320001
-0.068920001 0.12471239 1.723
-0.065638095 0.12471239 1.723
-0.062356193 0.12471239 1.723
-0.059074286 0.12471239 1.723
-0.055533335 0.12413334 1.715
-0.051992383 0.12348191 1.7060001
-0.048514288 0.12290286 1.6980001
-0.045280002 0.12290286 1.6980001
-0.042045716 0.12290286 1.6980001
-0.038628574 0.12232381 1.6900001
-0.035409525 0.12232381 1.6900001
-0.032190476 0.12232381 1.6900001
-0.028817143 0.12167238 1.6810001
-0.02561524 0.12167238 1.6810001
-0.022413334 0.12167238 1.6810001
-0.01921143 0.12167238 1.6810001
-0.015933335 0.12109334 1.6730001
-0.012746667 0.12109334 1.6730001
-0.0095600002 0.12109334 1.6730001
-0.0063428571 0.12051429 1.6650001
-0.0031561905 0.11993524 1.6570001
0 0.11993524 1.6570001
0.0031561905 0.11993524 1.6570001
0.0062819049 0.11935619 1.649
0.0094228573 0.11935619 1.649
0.01256381 0.11935619 1.649
0.015628573 0.11877715 1.641
0.018754287 0.11877715 1.641
0.021786667 0.11827048 1.6340001
0.024899049 0.11827048 1.6340001
0.027874287 0.11769143 1.626
0.03097143 0.11769143 1.626
0.034068573 0.11769143 1.626
0.037165716 0.11769143 1.626
0.040262859 0.11769143 1.626
0.04314667 0.11711238 1.618
0.046228573 0.11711238 1.618
0.049310479 0.11711238 1.618
0.052392382 0.11711238 1.618
0.055234287 0.11660572 1.6110001
0.058013335 0.11602667 1.603
0.061066668 0.11602667 1.603
0.063840002 0.11552001 1.5960001
0.066880003 0.11552001 1.5960001
0.069920003 0.11552001 1.5960001
0.072960004 0.11552001 1.5960001
0.076000005 0.11552001 1.5960001
0.079040006 0.11552001 1.5960001
0.081720002 0.11501334 1.5890001
0.084746666 0.11501334 1.5890001
0.087331429 0.11443429 1.5810001
0.089942858 0.11392763 1.5740001
0.092940956 0.11392763 1.5740001
0.095939048 0.11392763 1.5740001
0.098497145 0.11342096 1.567
0.10148191 0.11342096 1.567
0.10446667 0.11342096 1.567
0.10745143 0.11342096 1.567
0.11043619 0.11342096 1.567
0.11291429 0.11291429 1.5600001
0.11588572 0.11291429 1.5600001
0.11885715 0.11291429 1.5600001
0.12182858 0.11291429 1.5600001
0.1248 0.11291429 1.5600001
0.1271981 0.11240762 1.5530001
0.13015619 0.11240762 1.5530001
0.13311429 0.11240762 1.5530001
0.13607238 0.11240762 1.5530001
0.13840382 0.11190096 1.5460001
0.14134857 0.11190096 1.5460001
0.14494666 0.11240762 1.5530001
0.14790477 0.11240762 1.5530001
0.15086286 0.11240762 1.5530001
0.15382096 0.11240762 1.5530001
0.15677905 0.11240762 1.5530001
0.15973715 0.11240762 1.5530001
0.16269524 0.11240762 1.5530001
0.16565333 0.11240762 1.5530001
0.16937144 0.11291429 1.5600001
0.17234287 0.11291429 1.5600001
0.17531429 0.11291429 1.5600001
0.17828572 0.11291429 1.5600001
0.18207048 0.11342096 1.567
0.18588191 0.11392763 1.5740001
0.18972 0.11443429 1.5810001
0.19273144 0.11443429 1.5810001
0.19574286 0.11443429 1.5810001
0.1987543 0.11443429 1.5810001
0.28067809 0.15684953 2.1670001
0.28480572 0.15684953 2.1670001
0.28893334 0.15684953 2.1670001
0.29116762 0.15583619 2.1530001
0.2952686 0.15583619 2.1530001
0.3013162 0.15684953 2.1670001
0.3016381 0.15489525 2.1400001
0.30571431 0.15489525 2.1400001
0.30979049 0.15489525 2.1400001
0.31386667 0.15489525 2.1400001
0.31794286 0.15489525 2.1400001
0.32201907 0.15489525 2.1400001
0.32609525 0.15489525 2.1400001
0.33017144 0.15489525 2.1400001
0.33424762 0.15489525 2.1400001
0.33832383 0.15489525 2.1400001
0.34032002 0.1539543 2.1270001
0.34437144 0.1539543 2.1270001
0.34842286 0.1539543 2.1270001
0.3524743 0.1539543 2.1270001
0.35434669 0.15301333 2.1140001
0.35837334 0.15301333 2.1140001
0.36240003 0.15301333 2.1140001
0.36642668 0.15301333 2.1140001
0.37045336 0.15301333 2.1140001
0.37217715 0.15207238 2.1010001
0.37617907 0.15207238 2.1010001
0.38018095 0.15207238 2.1010001
0.38418287 0.15207238 2.1010001
0.38818479 0.15207238 2.1010001
0.38976002 0.15113144 2.0880001
0.39373717 0.15113144 2.0880001
0.39771429 0.15113144 2.0880001
0.40169144 0.15113144 2.0880001
0.40566859 0.15113144 2.0880001
0.40964574 0.15113144 2.0880001
0.41124573 0.15026286 2.0760002
0.41260001 0.14932191 2.0630002
0.41652954 0.14932191 2.0630002
0.42045906 0.14932191 2.0630002
0.42438859 0.14932191 2.0630002
0.42831811 0.14932191 2.0630002
0.43224764 0.14932191 2.0630002
0.43364 0.14845334 2.0510001
0.43754667 0.14845334 2.0510001
0.44145334 0.14845334 2.0510001
0.44536 0.14845334 2.0510001
0.44663811 0.14758477 2.039
0.45052192 0.14758477 2.039
0.45440573 0.14758477 2.039
0.45559239 0.14671619 2.0270002
0.45945334 0.14671619 2.0270002
0.46331429 0.14671619 2.0270002
0.46717525 0.14671619 2.0270002
0.46824762 0.14584762 2.0150001
0.47208574 0.14584762 2.0150001
0.47592384 0.14584762 2.0150001
0.47976193 0.14584762 2.0150001
0.48360002 0.14584762 2.0150001
0.48453525 0.14497906 2.003
0.48835048 0.14497906 2.003
0.49216574 0.14497906 2.003
0.49325716 0.14418286 1.9920001
0.49705145 0.14418286 1.9920001
0.4978286 0.14331429 1.9800001
0.50160003 0.14331429 1.9800001
0.50537145 0.14331429 1.9800001
0.50914288 0.14331429 1.9800001
0.5129143 0.14331429 1.9800001
0.51668572 0.14331429 1.9800001
0.52045715 0.14331429 1.9800001
0.52422857 0.14331429 1.9800001
0.528 0.14331429 1.9800001
0.53177142 0.14331429 1.9800001
0.53554291 0.14331429 1.9800001
0.53931433 0.14331429 1.9800001
0.54308575 0.14331429 1.9800001
0.54685718 0.14331429 1.9800001
0.55396575 0.14418286 1.9920001
0.55776 0.14418286 1.9920001
0.55817145 0.14331429 1.9800001
0.56194288 0.14331429 1.9800001
-0.19841905 0.14069715 1.8940001
-0.19368 0.13988 1.8830001
-0.18908381 0.13913715 1.8730001
-0.18551619 0.13913715 1.8730001
-0.18097715 0.1383943 1.863
-0.1764762 0.13765143 1.853
-0.17201334 0.13690858 1.8430001
-0.16758858 0.13616572 1.8330001
-0.16409715 0.13616572 1.8330001
-0.16060571 0.13616572 1.8330001
-0.15634286 0.13549715 1.8240001
-0.15203048 0.13475429 1.8140001
-0.14775619 0.13401143 1.8040001
-0.14432001 0.13401143 1.8040001
-0.14018096 0.13334286 1.7950001
-0.1367619 0.13334286 1.7950001
-0.13334286 0.13334286 1.7950001
-0.12927239 0.13267429 1.7860001
-0.1252362 0.13200572 1.7770001
-0.12185143 0.13200572 1.7770001
-0.11846667 0.13200572 1.7770001
-0.11449905 0.13133715 1.7680001
-0.11056572 0.13066858 1.7590001
-0.10721524 0.13066858 1.7590001
-0.10333334 0.13000001 1.7500001
-0.1 0.13000001 1.7500001
-0.096169524 0.12933144 1.7410001
-0.092853338 0.12933144 1.7410001
-0.089537144 0.12933144 1.7410001
-0.085775241 0.12866285 1.7320001
-0.082476191 0.12866285 1.7320001
-0.079177149 0.12866285 1.7320001
-0.075878099 0.12866285 1.7320001
-0.072579049 0.12866285 1.7320001
-0.069280006 0.12866285 1.7320001
-0.065638095 0.12799428 1.723
-0.062356193 0.12799428 1.723
-0.059074286 0.12799428 1.723
-0.055533335 0.12740001 1.715
-0.052266669 0.12740001 1.715
-0.048742861 0.12673144 1.7060001
-0.045280002 0.12613715 1.6980001
-0.042045716 0.12613715 1.6980001
-0.038628574 0.12554286 1.6900001
-0.035409525 0.12554286 1.6900001
-0.032190476 0.12554286 1.6900001
-0.028817143 0.12487429 1.6810001
-0.02561524 0.12487429 1.6810001
-0.022413334 0.12487429 1.6810001
-0.01921143 0.12487429 1.6810001
-0.015933335 0.12428001 1.6730001
-0.012746667 0.12428001 1.6730001
-0.0095600002 0.12428001 1.6730001
-0.0063428571 0.12368572 1.6650001
-0.0031561905 0.12309143 1.6570001
0 0.12309143 1.6570001
0.0031561905 0.12309143 1.6570001
0.0062819049 0.12249715 1.649
0.0094228573 0.12249715 1.649
0.01256381 0.12249715 1.649
0.015704762 0.12249715 1.649
0.018754287 0.12190286 1.641
0.021786667 0.12138286 1.6340001
0.024777144 0.12078857 1.626
0.027874287 0.12078857 1.626
0.03097143 0.12078857 1.626
0.034068573 0.12078857 1.626
0.037165716 0.12078857 1.626
0.040064763 0.12019429 1.618
0.04314667 0.12019429 1.618
0.046228573 0.12019429 1.618
0.049310479 0.12019429 1.618
0.052392382 0.12019429 1.618
0.055234287 0.11967429 1.6110001
0.058013335 0.11908001 1.603
0.061066668 0.11908001 1.603
0.063840002 0.11856 1.5960001
0.066880003 0.11856 1.5960001
0.069920003 0.11856 1.5960001
0.072960004 0.11856 1.5960001
0.076000005 0.11856 1.5960001
0.078693338 0.11804 1.5890001
0.081720002 0.11804 1.5890001
0.084746666 0.11804 1.5890001
0.087331429 0.11744572 1.5810001
0.090342857 0.11744572 1.5810001
0.092940956 0.11692572 1.5740001
0.095939048 0.11692572 1.5740001
0.098497145 0.11640572 1.567
0.10148191 0.11640572 1.567
0.10446667 0.11640572 1.567
0.10745143 0.11640572 1.567
0.10994286 0.11588572 1.5600001
0.11291429 0.11588572 1.5600001
0.11588572 0.11588572 1.5600001
0.11885715 0.11588572 1.5600001
0.12182858 0.11588572 1.5600001
0.1248 0.11588572 1.5600001
0.1271981 0.11536572 1.5530001
0.13015619 0.11536572 1.5530001
0.13371429 0.11588572 1.5600001
0.13607238 0.11536572 1.5530001
0.13903049 0.11536572 1.5530001
0.14134857 0.11484572 1.5460001
0.14494666 0.11536572 1.5530001
0.14790477 0.11536572 1.5530001
0.15086286 0.11536572 1.5530001
0.15382096 0.11536572 1.5530001
0.15677905 0.11536572 1.5530001
0.15973715 0.11536572 1.5530001
0.16269524 0.11536572 1.5530001
0.16565333 0.11536572 1.5530001
0.16937144 0.11588572 1.5600001
0.17234287 0.11588572 1.5600001
0.17531429 0.11588572 1.5600001
0.17828572 0.11588572 1.5600001
0.18207048 0.11640572 1.567
0.18588191 0.11692572 1.5740001
0.18972 0.11744572 1.5810001
0.19273144 0.11744572 1.5810001
0.19574286 0.11744572 1.5810001
0.1987543 0.11744572 1.5810001
0.28067809 0.16097715 2.1670001
0.28480572 0.16097715 2.1670001
0.28893334 0.16097715 2.1670001
0.28940955 0.15897143 2.1400001
0.2952686 0.15993714 2.1530001
0.3013162 0.16097715 2.1670001
0.30347049 0.15993714 2.1530001
0.30757144 0.15993714 2.1530001
0.31167239 0.15993714 2.1530001
0.31782669 0.16097715 2.1670001
0.31987429 0.15993714 2.1530001
0.32397524 0.15993714 2.1530001
0.32609525 0.15897143 2.1400001
0.33017144 0.15897143 2.1400001
0.33424762 0.15897143 2.1400001
0.33832383 0.15897143 2.1400001
0.34032002 0.15800571 2.1270001
0.34437144 0.15800571 2.1270001
0.34842286 0.15800571 2.1270001
0.3524743 0.15800571 2.1270001
0.35434669 0.15704 2.1140001
0.35837334 0.15704 2.1140001
0.36240003 0.15704 2.1140001
0.36642668 0.15704 2.1140001
0.37045336 0.15704 2.1140001
0.37217715 0.15607429 2.1010001
0.37617907 0.15607429 2.1010001
0.38018095 0.15607429 2.1010001
0.38418287 0.15607429 2.1010001
0.38818479 0.15607429 2.1010001
0.39218667 0.15607429 2.1010001
0.39373717 0.15510857 2.0880001
0.39771429 0.15510857 2.0880001
0.40169144 0.15510857 2.0880001
0.40566859 0.15510857 2.0880001
0.40964574 0.15510857 2.0880001
0.41124573 0.15421715 2.0760002
0.41260001 0.15325144 2.0630002
0.41652954 0.15325144 2.0630002
0.42045906 0.15325144 2.0630002
0.42438859 0.15325144 2.0630002
0.42831811 0.15325144 2.0630002
0.43224764 0.15325144 2.0630002
0.43364 0.15236001 2.0510001
0.43498668 0.15146858 2.039
0.43887049 0.15146858 2.039
0.4427543 0.15146858 2.039
0.44663811 0.15146858 2.039
0.45052192 0.15146858 2.039
0.45173144 0.15057714 2.0270002
0.45559239 0.15057714 2.0270002
0.45945334 0.15057714 2.0270002
0.46331429 0.15057714 2.0270002
0.46440953 0.14968573 2.0150001
0.46824762 0.14968573 2.0150001
0.47208574 0.14968573 2.0150001
0.47592384 0.14968573 2.0150001
0.47976193 0.14968573 2.0150001
0.48360002 0.14968573 2.0150001
0.48743811 0.14968573 2.0150001
0.48835048 0.14879429 2.003
0.49216574 0.14879429 2.003
0.49325716 0.14797714 1.9920001
0.49705145 0.14797714 1.9920001
0.4978286 0.14708573 1.9800001
0.50160003 0.14708573 1.9800001
0.50537145 0.14708573 1.9800001
0.50914288 0.14708573 1.9800001
0.51006478 0.14626858 1.9690001
0.51668572 0.14708573 1.9800001
0.52045715 0.14708573 1.9800001
0.52422857 0.14708573 1.9800001
0.528 0.14708573 1.9800001
0.53177142 0.14708573 1.9800001
0.53554291 0.14708573 1.9800001
0.53931433 0.14708573 1.9800001
0.54308575 0.14708573 1.9800001
0.55017143 0.14797714 1.9920001
0.55396575 0.14797714 1.9920001
0.56084001 0.14879429 2.003
0.55817145 0.14708573 1.9800001
0.56194288 0.14708573 1.9800001
-0.20426667 0.14590476 1.9150001
-0.19946668 0.14506668 1.904
-0.19368 0.14346667 1.8830001
-0.18908381 0.14270477 1.8730001
-0.18551619 0.14270477 1.8730001
-0.18097715 0.14194286 1.863
-0.1764762 0.14118096 1.853
-0.17201334 0.14041905 1.8430001
-0.16758858 0.13965715 1.8330001
-0.16409715 0.13965715 1.8330001
-0.16060571 0.13965715 1.8330001
-0.15634286 0.13897143 1.8240001
-0.15203048 0.13820952 1.8140001
-0.14775619 0.13744763 1.8040001
-0.14432001 0.13744763 1.8040001
-0.14018096 0.1367619 1.7950001
-0.1367619 0.1367619 1.7950001
-0.13334286 0.1367619 1.7950001
-0.12927239 0.1360762 1.7860001
-0.12587048 0.1360762 1.7860001
-0.12185143 0.13539048 1.7770001
-0.11846667 0.13539048 1.7770001
-0.11449905 0.13470477 1.7680001
-0.11113143 0.13470477 1.7680001
-0.10721524 0.13401905 1.7590001
-0.10386477 0.13401905 1.7590001
-0.1 0.13333334 1.7500001
-0.096666671 0.13333334 1.7500001
-0.092853338 0.13264762 1.7410001
-0.089537144 0.13264762 1.7410001
-0.085775241 0.13196191 1.7320001
-0.082476191 0.13196191 1.7320001
-0.079177149 0.13196191 1.7320001
-0.075878099 0.13196191 1.7320001
-0.072579049 0.13196191 1.7320001
-0.068920001 0.13127619 1.723
-0.065638095 0.13127619 1.723
-0.062356193 0.13127619 1.723
-0.059074286 0.13127619 1.723
-0.055533335 0.13066667 1.715
-0.051992383 0.12998095 1.7060001
-0.048742861 0.12998095 1.7060001
-0.045280002 0.12937143 1.6980001
-0.042045716 0.12937143 1.6980001
-0.03881143 0.12937143 1.6980001
-0.035409525 0.1287619 1.6900001
-0.032190476 0.1287619 1.6900001
-0.02897143 0.1287619 1.6900001
-0.025752382 0.1287619 1.6900001
-0.022413334 0.1280762 1.6810001
-0.01921143 0.1280762 1.6810001
-0.016009524 0.1280762 1.6810001
-0.012746667 0.12746668 1.6730001
-0.0095600002 0.12746668 1.6730001
-0.0063428571 0.12685715 1.6650001
-0.0031561905 0.12624763 1.6570001
0 0.12624763 1.6570001
0.0031409524 0.1256381 1.649
0.0062819049 0.1256381 1.649
0.0094228573 0.1256381 1.649
0.01256381 0.1256381 1.649
0.015704762 0.1256381 1.649
0.018754287 0.12502858 1.641
0.021786667 0.12449525 1.6340001
0.024899049 0.12449525 1.6340001
0.027874287 0.12388572 1.626
0.03097143 0.12388572 1.626
0.034068573 0.12388572 1.626
0.037165716 0.12388572 1.626
0.040262859 0.12388572 1.626
0.04314667 0.1232762 1.618
0.046228573 0.1232762 1.618
0.049310479 0.1232762 1.618
0.052392382 0.1232762 1.618
0.055234287 0.12274286 1.6110001
0.058013335 0.12213334 1.603
0.061066668 0.12213334 1.603
0.063840002 0.1216 1.5960001
0.066880003 0.1216 1.5960001
0.069920003 0.1216 1.5960001
0.072960004 0.1216 1.5960001
0.076000005 0.1216 1.5960001
0.078693338 0.12106667 1.5890001
0.081720002 0.12106667 1.5890001
0.084746666 0.12106667 1.5890001
0.087331429 0.12045715 1.5810001
0.089942858 0.11992382 1.5740001
0.092940956 0.11992382 1.5740001
0.095939048 0.11992382 1.5740001
0.098497145 0.11939048 1.567
0.10148191 0.11939048 1.567
0.10446667 0.11939048 1.567
0.10745143 0.11939048 1.567
0.10994286 0.11885715 1.5600001
0.11291429 0.11885715 1.5600001
0.11588572 0.11885715 1.5600001
0.11885715 0.11885715 1.5600001
0.12182858 0.11885715 1.5600001
0.1248 0.11885715 1.5600001
0.1271981 0.11832381 1.5530001
0.13015619 0.11832381 1.5530001
0.13311429 0.11832381 1.5530001
0.13668571 0.11885715 1.5600001
0.13903049 0.11832381 1.5530001
0.14134857 0.11779048 1.5460001
0.14429334 0.11779048 1.5460001
0.14790477 0.11832381 1.5530001
0.15086286 0.11832381 1.5530001
0.15382096 0.11832381 1.5530001
0.15677905 0.11832381 1.5530001
0.15973715 0.11832381 1.5530001
0.16342857 0.11885715 1.5600001
0.1664 0.11885715 1.5600001
0.16937144 0.11885715 1.5600001
0.17234287 0.11885715 1.5600001
0.17531429 0.11885715 1.5600001
0.17908572 0.11939048 1.567
0.18288381 0.11992382 1.5740001
0.18670858 0.12045715 1.5810001
0.18972 0.12045715 1.5810001
0.19370668 0.12106667 1.5890001
0.19673334 0.12106667 1.5890001
0.1987543 0.12045715 1.5810001
0.28067809 0.16510476 2.1670001
0.28296572 0.16403811 2.1530001
0.28706667 0.16403811 2.1530001
0.28940955 0.16304763 2.1400001
0.29348573 0.16304763 2.1400001
0.29756191 0.16304763 2.1400001
0.3016381 0.16304763 2.1400001
0.30757144 0.16403811 2.1530001
0.31167239 0.16403811 2.1530001
0.31577334 0.16403811 2.1530001
0.32195431 0.16510476 2.1670001
0.32397524 0.16403811 2.1530001
0.32807621 0.16403811 2.1530001
0.33217716 0.16403811 2.1530001
0.33424762 0.16304763 2.1400001
0.33832383 0.16304763 2.1400001
0.34240001 0.16304763 2.1400001
0.34437144 0.16205715 2.1270001
0.34842286 0.16205715 2.1270001
0.3524743 0.16205715 2.1270001
0.35652572 0.16205715 2.1270001
0.36057717 0.16205715 2.1270001
0.36462858 0.16205715 2.1270001
0.36642668 0.16106667 2.1140001
0.37045336 0.16106667 2.1140001
0.37448001 0.16106667 2.1140001
0.37850669 0.16106667 2.1140001
0.38253334 0.16106667 2.1140001
0.38418287 0.1600762 2.1010001
0.38818479 0.1600762 2.1010001
0.39218667 0.1600762 2.1010001
0.39373717 0.15908572 2.0880001
0.39771429 0.15908572 2.0880001
0.40169144 0.15908572 2.0880001
0.40566859 0.15908572 2.0880001
0.40964574 0.15908572 2.0880001
0.41124573 0.15817143 2.0760002
0.41520002 0.15817143 2.0760002
0.41652954 0.15718096 2.0630002
0.42045906 0.15718096 2.0630002
0.42438859 0.15718096 2.0630002
0.42831811 0.15718096 2.0630002
0.43224764 0.15718096 2.0630002
0.43364 0.15626667 2.0510001
0.43498668 0.15535238 2.039
0.43887049 0.15535238 2.039
0.4427543 0.15535238 2.039
0.44663811 0.15535238 2.039
0.45052192 0.15535238 2.039
0.45173144 0.15443811 2.0270002
0.45559239 0.15443811 2.0270002
0.45945334 0.15443811 2.0270002
0.46057144 0.15352382 2.0150001
0.46440953 0.15352382 2.0150001
0.46824762 0.15352382 2.0150001
0.47208574 0.15352382 2.0150001
0.47592384 0.15352382 2.0150001
0.47976193 0.15352382 2.0150001
0.48072001 0.15260953 2.003
0.48453525 0.15260953 2.003
0.48835048 0.15260953 2.003
0.49216574 0.15260953 2.003
0.49325716 0.15177144 1.9920001
0.49705145 0.15177144 1.9920001
0.4978286 0.15085715 1.9800001
0.50160003 0.15085715 1.9800001
0.50537145 0.15085715 1.9800001
0.50914288 0.15085715 1.9800001
0.51006478 0.15001905 1.9690001
0.51668572 0.15085715 1.9800001
0.52045715 0.15085715 1.9800001
0.52422857 0.15085715 1.9800001
0.528 0.15085715 1.9800001
0.53177142 0.15085715 1.9800001
0.53554291 0.15085715 1.9800001
0.53931433 0.15085715 1.9800001
0.54308575 0.15085715 1.9800001
0.55017143 0.15177144 1.9920001
0.55396575 0.15177144 1.9920001
0.56084001 0.15260953 2.003
0.55817145 0.15085715 1.9800001
0.55882096 0.15001905 1.9690001
0.56257147 0.15001905 1.9690001
-0.20426667 0.14955239 1.9150001
-0.19841905 0.14791238 1.8940001
-0.19368 0.14705335 1.8830001
-0.18908381 0.14627239 1.8730001
-0.18551619 0.14627239 1.8730001
-0.18097715 0.14549144 1.863
-0.1764762 0.14471048 1.853
-0.17201334 0.14392953 1.8430001
-0.16758858 0.14314857 1.8330001
-0.16409715 0.14314857 1.8330001
-0.15981714 0.14244571 1.8240001
-0.15548572 0.14166477 1.8140001
-0.15203048 0.14166477 1.8140001
-0.14775619 0.14088382 1.8040001
-0.1436 0.14018096 1.7950001
-0.14018096 0.14018096 1.7950001
-0.1367619 0.14018096 1.7950001
-0.13334286 0.14018096 1.7950001
-0.12927239 0.1394781 1.7860001
-0.12587048 0.1394781 1.7860001
-0.12185143 0.13877524 1.7770001
-0.11846667 0.13877524 1.7770001
-0.11449905 0.13807239 1.7680001
-0.11113143 0.13807239 1.7680001
-0.10721524 0.13736953 1.7590001
-0.10386477 0.13736953 1.7590001
-0.10051429 0.13736953 1.7590001
-0.097163811 0.13736953 1.7590001
-0.092853338 0.13596381 1.7410001
-0.089537144 0.13596381 1.7410001
-0.085775241 0.13526095 1.7320001
-0.082476191 0.13526095 1.7320001
-0.079177149 0.13526095 1.7320001
-0.075878099 0.13526095 1.7320001
-0.072579049 0.13526095 1.7320001
-0.068920001 0.1345581 1.723
-0.065638095 0.1345581 1.723
-0.062356193 0.1345581 1.723
-0.059074286 0.1345581 1.723
-0.055533335 0.13393334 1.715
-0.051992383 0.13323048 1.7060001
-0.048514288 0.13260572 1.6980001
-0.045280002 0.13260572 1.6980001
-0.042045716 0.13260572 1.6980001
-0.03881143 0.13260572 1.6980001
-0.035409525 0.13198096 1.6900001
-0.032190476 0.13198096 1.6900001
-0.028817143 0.1312781 1.6810001
-0.025752382 0.13198096 1.6900001
-0.022413334 0.1312781 1.6810001
-0.01921143 0.1312781 1.6810001
-0.016009524 0.1312781 1.6810001
-0.012746667 0.13065334 1.6730001
-0.0095600002 0.13065334 1.6730001
-0.0063428571 0.13002858 1.6650001
-0.0031561905 0.12940381 1.6570001
0 0.12940381 1.6570001
0.0031561905 0.12940381 1.6570001
0.0062819049 0.12877905 1.649
0.0094228573 0.12877905 1.649
0.01256381 0.12877905 1.649
0.015704762 0.12877905 1.649
0.018754287 0.12815429 1.641
0.021786667 0.12760763 1.6340001
0.024899049 0.12760763 1.6340001
0.027874287 0.12698287 1.626
0.03097143 0.12698287 1.626
0.034068573 0.12698287 1.626
0.037165716 0.12698287 1.626
0.040064763 0.12635811 1.618
0.04314667 0.12635811 1.618
0.046228573 0.12635811 1.618
0.049310479 0.12635811 1.618
0.052392382 0.12635811 1.618
0.055234287 0.12581143 1.6110001
0.058302861 0.12581143 1.6110001
0.061066668 0.12518667 1.603
0.063840002 0.12464 1.5960001
0.066880003 0.12464 1.5960001
0.069920003 0.12464 1.5960001
0.072960004 0.12464 1.5960001
0.076000005 0.12464 1.5960001
0.079040006 0.12464 1.5960001
0.081720002 0.12409334 1.5890001
0.084746666 0.12409334 1.5890001
0.087331429 0.12346858 1.5810001
0.090342857 0.12346858 1.5810001
0.092940956 0.12292191 1.5740001
0.095939048 0.12292191 1.5740001
0.098497145 0.12237524 1.567
0.10148191 0.12237524 1.567
0.10446667 0.12237524 1.567
0.10745143 0.12237524 1.567
0.10994286 0.12182858 1.5600001
0.11291429 0.12182858 1.5600001
0.11588572 0.12182858 1.5600001
0.11939048 0.12237524 1.567
0.12237524 0.12237524 1.567
0.1248 0.12182858 1.5600001
0.12777144 0.12182858 1.5600001
0.13074286 0.12182858 1.5600001
0.13371429 0.12182858 1.5600001
0.13668571 0.12182858 1.5600001
0.13903049 0.12128191 1.5530001
0.14198858 0.12128191 1.5530001
0.14494666 0.12128191 1.5530001
0.14790477 0.12128191 1.5530001
0.15086286 0.12128191 1.5530001
0.15382096 0.12128191 1.5530001
0.15677905 0.12128191 1.5530001
0.15973715 0.12128191 1.5530001
0.16342857 0.12182858 1.5600001
0.1664 0.12182858 1.5600001
0.16937144 0.12182858 1.5600001
0.17234287 0.12182858 1.5600001
0.17531429 0.12182858 1.5600001
0.17908572 0.12237524 1.567
0.18288381 0.12292191 1.5740001
0.18670858 0.12346858 1.5810001
0.18972 0.12346858 1.5810001
0.19370668 0.12409334 1.5890001
0.19760001 0.12464 1.5960001
0.20064001 0.12464 1.5960001
0.28067809 0.16923238 2.1670001
0.28296572 0.16813906 2.1530001
0.28893334 0.16923238 2.1670001
0.28940955 0.16712381 2.1400001
0.2952686 0.16813906 2.1530001
0.29936954 0.16813906 2.1530001
0.3016381 0.16712381 2.1400001
0.30757144 0.16813906 2.1530001
0.31167239 0.16813906 2.1530001
0.31782669 0.16923238 2.1670001
0.32195431 0.16923238 2.1670001
0.32397524 0.16813906 2.1530001
0.32807621 0.16813906 2.1530001
0.33217716 0.16813906 2.1530001
0.33627811 0.16813906 2.1530001
0.33832383 0.16712381 2.1400001
0.34032002 0.16610858 2.1270001
0.34437144 0.16610858 2.1270001
0.34842286 0.16610858 2.1270001
0.3524743 0.16610858 2.1270001
0.35652572 0.16610858 2.1270001
0.36057717 0.16610858 2.1270001
0.36240003 0.16509333 2.1140001
0.36868 0.16610858 2.1270001
0.37045336 0.16509333 2.1140001
0.37448001 0.16509333 2.1140001
0.37850669 0.16509333 2.1140001
0.38253334 0.16509333 2.1140001
0.38418287 0.1640781 2.1010001
0.38818479 0.1640781 2.1010001
0.39218667 0.1640781 2.1010001
0.39373717 0.16306287 2.0880001
0.39771429 0.16306287 2.0880001
0.40169144 0.16306287 2.0880001
0.40566859 0.16306287 2.0880001
0.40964574 0.16306287 2.0880001
0.41124573 0.16212572 2.0760002
0.41260001 0.16111048 2.0630002
0.41652954 0.16111048 2.0630002
0.42045906 0.16111048 2.0630002
0.42438859 0.16111048 2.0630002
0.42831811 0.16111048 2.0630002
0.43224764 0.16111048 2.0630002
0.43364 0.16017334 2.0510001
0.43498668 0.15923619 2.039
0.43887049 0.15923619 2.039
0.4427543 0.15923619 2.039
0.44400954 0.15829906 2.0270002
0.44787049 0.15829906 2.0270002
0.45173144 0.15829906 2.0270002
0.45559239 0.15829906 2.0270002
0.45945334 0.15829906 2.0270002
0.46057144 0.15736191 2.0150001
0.46440953 0.15736191 2.0150001
0.46824762 0.15736191 2.0150001
0.47208574 0.15736191 2.0150001
0.47592384 0.15736191 2.0150001
0.47976193 0.15736191 2.0150001
0.48072001 0.15642476 2.003
0.48453525 0.15642476 2.003
0.48835048 0.15642476 2.003
0.49216574 0.15642476 2.003
0.49325716 0.15556572 1.9920001
0.49705145 0.15556572 1.9920001
0.4978286 0.15462857 1.9800001
0.50160003 0.15462857 1.9800001
0.50537145 0.15462857 1.9800001
0.50914288 0.15462857 1.9800001
0.51006478 0.15376952 1.9690001
0.51668572 0.15462857 1.9800001
0.51756573 0.15376952 1.9690001
0.52422857 0.15462857 1.9800001
0.528 0.15462857 1.9800001
0.53177142 0.15462857 1.9800001
0.53554291 0.15462857 1.9800001
0.53931433 0.15462857 1.9800001
0.54308575 0.15462857 1.9800001
0.55017143 0.15556572 1.9920001
0.55396575 0.15556572 1.9920001
0.55776 0.15556572 1.9920001
0.55817145 0.15462857 1.9800001
0.55882096 0.15376952 1.9690001
0.56257147 0.15376952 1.9690001
-0.20426667 0.1532 1.9150001
-0.19946668 0.15232001 1.904
-0.19368 0.15064001 1.8830001
-0.19009334 0.15064001 1.8830001
-0.18551619 0.14984001 1.8730001
-0.18097715 0.14904 1.863
-0.1764762 0.14824 1.853
-0.17201334 0.14744 1.8430001
-0.16758858 0.14664 1.8330001
-0.16409715 0.14664 1.8330001
-0.15981714 0.14592001 1.8240001
-0.15548572 0.14512001 1.8140001
-0.15119238 0.14432001 1.8040001
-0.14775619 0.14432001 1.8040001
-0.1436 0.1436 1.7950001
-0.14018096 0.1436 1.7950001
-0.1367619 0.1436 1.7950001
-0.13334286 0.1436 1.7950001
-0.12927239 0.14288001 1.7860001
-0.12587048 0.14288001 1.7860001
-0.12185143 0.14216 1.7770001
-0.11846667 0.14216 1.7770001
-0.11449905 0.14144 1.7680001
-0.11113143 0.14144 1.7680001
-0.10721524 0.14072001 1.7590001
-0.10386477 0.14072001 1.7590001
-0.10051429 0.14072001 1.7590001
-0.097163811 0.14072001 1.7590001
-0.093333334 0.14 1.7500001
-0.089537144 0.13928001 1.7410001
-0.085775241 0.13856001 1.7320001
-0.082476191 0.13856001 1.7320001
-0.079177149 0.13856001 1.7320001
-0.075878099 0.13856001 1.7320001
-0.072579049 0.13856001 1.7320001
-0.068920001 0.13784 1.723
-0.065638095 0.13784 1.723
-0.062356193 0.13784 1.723
-0.059074286 0.13784 1.723
-0.055533335 0.1372 1.715
-0.051992383 0.13648 1.7060001
-0.048742861 0.13648 1.7060001
-0.045280002 0.13584 1.6980001
-0.042045716 0.13584 1.6980001
-0.03881143 0.13584 1.6980001
-0.035409525 0.13520001 1.6900001
-0.032190476 0.13520001 1.6900001
-0.028817143 0.13448 1.6810001
-0.02561524 0.13448 1.6810001
-0.022413334 0.13448 1.6810001
-0.01921143 0.13448 1.6810001
-0.015933335 0.13384001 1.6730001
-0.012746667 0.13384001 1.6730001
-0.0095600002 0.13384001 1.6730001
-0.0063428571 0.1332 1.6650001
-0.0031561905 0.13256 1.6570001
0 0.13256 1.6570001
0.0031561905 0.13256 1.6570001
0.006312381 0.13256 1.6570001
0.0094685722 0.13256 1.6570001
0.01256381 0.13192001 1.649
0.015704762 0.13192001 1.649
0.018754287 0.13128 1.641
0.021880001 0.13128 1.641
0.024899049 0.13072 1.6340001
0.027874287 0.13008 1.626
0.03097143 0.13008 1.626
0.034068573 0.13008 1.626
0.037165716 0.13008 1.626
0.040064763 0.12944001 1.618
0.04314667 0.12944001 1.618
0.046228573 0.12944001 1.618
0.049310479 0.12944001 1.618
0.052392382 0.12944001 1.618
0.055234287 0.12888001 1.6110001
0.058302861 0.12888001 1.6110001
0.061066668 0.12824 1.603
0.063840002 0.12768 1.5960001
0.066880003 0.12768 1.5960001
0.069920003 0.12768 1.5960001
0.072960004 0.12768 1.5960001
0.076000005 0.12768 1.5960001
0.078693338 0.12712 1.5890001
0.081720002 0.12712 1.5890001
0.084746666 0.12712 1.5890001
0.087331429 0.12648 1.5810001
0.090342857 0.12648 1.5810001
0.093826666 0.12712 1.5890001
0.09636572 0.12648 1.5810001
0.098937146 0.12592 1.5740001
0.10193525 0.12592 1.5740001
0.10446667 0.12536001 1.567
0.10745143 0.12536001 1.567
0.10994286 0.1248 1.5600001
0.11392763 0.12592 1.5740001
0.11692572 0.12592 1.5740001
0.11939048 0.12536001 1.567
0.12237524 0.12536001 1.567
0.12536001 0.12536001 1.567
0.12777144 0.1248 1.5600001
0.13074286 0.1248 1.5600001
0.13371429 0.1248 1.5600001
0.13668571 0.1248 1.5600001
0.13903049 0.12424 1.5530001
0.14198858 0.12424 1.5530001
0.14494666 0.12424 1.5530001
0.14790477 0.12424 1.5530001
0.15086286 0.12424 1.5530001
0.15382096 0.12424 1.5530001
0.15677905 0.12424 1.5530001
0.15973715 0.12424 1.5530001
0.16342857 0.1248 1.5600001
0.1664 0.1248 1.5600001
0.16937144 0.1248 1.5600001
0.17234287 0.1248 1.5600001
0.17610095 0.12536001 1.567
0.17908572 0.12536001 1.567
0.18288381 0.12592 1.5740001
0.18670858 0.12648 1.5810001
0.18972 0.12648 1.5810001
0.19273144 0.12648 1.5810001
0.19574286 0.12648 1.5810001
0.20064001 0.12768 1.5960001
0.27310476 0.17120001 2.1400001
0.27718097 0.17120001 2.1400001
0.28125715 0.17120001 2.1400001
0.28893334 0.17336001 2.1670001
0.28940955 0.17120001 2.1400001
0.2952686 0.17224 2.1530001
0.3013162 0.17336001 2.1670001
0.30544382 0.17336001 2.1670001
0.30757144 0.17224 2.1530001
0.31167239 0.17224 2.1530001
0.31782669 0.17336001 2.1670001
0.32195431 0.17336001 2.1670001
0.32608193 0.17336001 2.1670001
0.32807621 0.17224 2.1530001
0.33217716 0.17224 2.1530001
0.33627811 0.17224 2.1530001
0.33832383 0.17120001 2.1400001
0.34240001 0.17120001 2.1400001
0.34437144 0.17016001 2.1270001
0.34842286 0.17016001 2.1270001
0.3524743 0.17016001 2.1270001
0.35652572 0.17016001 2.1270001
0.36057717 0.17016001 2.1270001
0.36462858 0.17016001 2.1270001
0.36868 0.17016001 2.1270001
0.37045336 0.16912 2.1140001
0.37448001 0.16912 2.1140001
0.37617907 0.16808 2.1010001
0.38018095 0.16808 2.1010001
0.38418287 0.16808 2.1010001
0.38818479 0.16808 2.1010001
0.39218667 0.16808 2.1010001
0.39373717 0.16704001 2.0880001
0.39771429 0.16704001 2.0880001
0.40169144 0.16704001 2.0880001
0.40566859 0.16704001 2.0880001
0.40964574 0.16704001 2.0880001
0.41124573 0.16608001 2.0760002
0.41260001 0.16504 2.0630002
0.41652954 0.16504 2.0630002
0.42045906 0.16504 2.0630002
0.42438859 0.16504 2.0630002
0.42831811 0.16504 2.0630002
0.43224764 0.16504 2.0630002
0.43364 0.16408001 2.0510001
0.43498668 0.16312 2.039
0.43887049 0.16312 2.039
0.4427543 0.16312 2.039
0.44400954 0.16216001 2.0270002
0.44787049 0.16216001 2.0270002
0.45173144 0.16216001 2.0270002
0.45559239 0.16216001 2.0270002
0.45673335 0.1612 2.0150001
0.46057144 0.1612 2.0150001
0.46440953 0.1612 2.0150001
0.46824762 0.1612 2.0150001
0.47208574 0.1612 2.0150001
0.47592384 0.1612 2.0150001
0.47976193 0.1612 2.0150001
0.48360002 0.1612 2.0150001
0.48453525 0.16024001 2.003
0.48835048 0.16024001 2.003
0.49216574 0.16024001 2.003
0.49325716 0.15936001 1.9920001
0.49705145 0.15936001 1.9920001
0.4978286 0.1584 1.9800001
0.50160003 0.1584 1.9800001
0.50537145 0.1584 1.9800001
0.50631428 0.15752001 1.9690001
0.51006478 0.15752001 1.9690001
0.51668572 0.1584 1.9800001
0.52045715 0.1584 1.9800001
0.52422857 0.1584 1.9800001
0.528 0.1584 1.9800001
0.53177142 0.1584 1.9800001
0.53554291 0.1584 1.9800001
0.53931433 0.1584 1.9800001
0.54308575 0.1584 1.9800001
0.55017143 0.15936001 1.9920001
0.55396575 0.15936001 1.9920001
0.55776 0.15936001 1.9920001
0.56465524 0.16024001 2.003
0.55882096 0.15752001 1.9690001
0.56257147 0.15752001 1.9690001
-0.20426667 0.15684763 1.9150001
-0.19946668 0.15594667 1.904
-0.19368 0.15422668 1.8830001
-0.19009334 0.15422668 1.8830001
-0.18551619 0.15340762 1.8730001
-0.18097715 0.15258858 1.863
-0.1764762 0.15176953 1.853
-0.17201334 0.15095048 1.8430001
-0.16758858 0.15013143 1.8330001
-0.16329144 0.14939429 1.8240001
-0.15981714 0.14939429 1.8240001
-0.15548572 0.14857525 1.8140001
-0.15119238 0.14775619 1.8040001
-0.14775619 0.14775619 1.8040001
-0.14432001 0.14775619 1.8040001
-0.14018096 0.14701906 1.7950001
-0.13744763 0.14775619 1.8040001
-0.13334286 0.14701906 1.7950001
-0.12992382 0.14701906 1.7950001
-0.12587048 0.14628191 1.7860001
-0.12246858 0.14628191 1.7860001
-0.11846667 0.14554477 1.7770001
-0.11449905 0.14480762 1.7680001
-0.11113143 0.14480762 1.7680001
-0.10776381 0.14480762 1.7680001
-0.10386477 0.14407048 1.7590001
-0.10051429 0.14407048 1.7590001
-0.097163811 0.14407048 1.7590001
-0.093333334 0.14333335 1.7500001
-0.090000004 0.14333335 1.7500001
-0.086220957 0.1425962 1.7410001
-0.082476191 0.14185905 1.7320001
-0.079177149 0.14185905 1.7320001
-0.075878099 0.14185905 1.7320001
-0.072579049 0.14185905 1.7320001
-0.068920001 0.14112191 1.723
-0.065638095 0.14112191 1.723
-0.062356193 0.14112191 1.723
-0.059074286 0.14112191 1.723
-0.055533335 0.14046668 1.715
-0.051992383 0.13972953 1.7060001
-0.048514288 0.1390743 1.6980001
-0.045280002 0.1390743 1.6980001
-0.042045716 0.1390743 1.6980001
-0.03881143 0.1390743 1.6980001
-0.035409525 0.13841905 1.6900001
-0.032190476 0.13841905 1.6900001
-0.028817143 0.13768192 1.6810001
-0.02561524 0.13768192 1.6810001
-0.022413334 0.13768192 1.6810001
-0.01912 0.13702667 1.6730001
-0.015933335 0.13702667 1.6730001
-0.012746667 0.13702667 1.6730001
-0.0095142862 0.13637143 1.6650001
-0.0063428571 0.13637143 1.6650001
-0.0031561905 0.1357162 1.6570001
0 0.1357162 1.6570001
0.0031561905 0.1357162 1.6570001
0.006312381 0.1357162 1.6570001
0.0094685722 0.1357162 1.6570001
0.01256381 0.13506095 1.649
0.015704762 0.13506095 1.649
0.018754287 0.13440572 1.641
0.021880001 0.13440572 1.641
0.024777144 0.13317715 1.626
0.027874287 0.13317715 1.626
0.03097143 0.13317715 1.626
0.034068573 0.13317715 1.626
0.037165716 0.13317715 1.626
0.040064763 0.13252191 1.618
0.04314667 0.13252191 1.618
0.046228573 0.13252191 1.618
0.049310479 0.13252191 1.618
0.052392382 0.13252191 1.618
0.055234287 0.13194858 1.6110001
0.058302861 0.13194858 1.6110001
0.061066668 0.13129334 1.603
0.064120002 0.13129334 1.603
0.066880003 0.13072 1.5960001
0.069920003 0.13072 1.5960001
0.072960004 0.13072 1.5960001
0.076000005 0.13072 1.5960001
0.079040006 0.13072 1.5960001
0.081720002 0.13014667 1.5890001
0.084746666 0.13014667 1.5890001
0.087773338 0.13014667 1.5890001
0.090800002 0.13014667 1.5890001
0.093826666 0.13014667 1.5890001
0.096853338 0.13014667 1.5890001
0.099880002 0.13014667 1.5890001
0.10238858 0.12949143 1.5810001
0.10446667 0.12834476 1.567
0.10841143 0.12949143 1.5810001
0.10994286 0.12777144 1.5600001
0.11291429 0.12777144 1.5600001
0.11692572 0.1289181 1.5740001
0.11939048 0.12834476 1.567
0.12237524 0.12834476 1.567
0.12536001 0.12834476 1.567
0.12777144 0.12777144 1.5600001
0.13074286 0.12777144 1.5600001
0.13371429 0.12777144 1.5600001
0.13668571 0.12777144 1.5600001
0.13903049 0.1271981 1.5530001
0.14198858 0.1271981 1.5530001
0.14494666 0.1271981 1.5530001
0.14790477 0.1271981 1.5530001
0.15086286 0.1271981 1.5530001
0.15382096 0.1271981 1.5530001
0.15677905 0.1271981 1.5530001
0.15973715 0.1271981 1.5530001
0.16342857 0.12777144 1.5600001
0.1664 0.12777144 1.5600001
0.16937144 0.12777144 1.5600001
0.17234287 0.12777144 1.5600001
0.17610095 0.12834476 1.567
0.17908572 0.12834476 1.567
0.18288381 0.1289181 1.5740001
0.18670858 0.12949143 1.5810001
0.19068001 0.13014667 1.5890001
0.19370668 0.13014667 1.5890001
0.19760001 0.13072 1.5960001
0.20064001 0.13072 1.5960001
0.27310476 0.17527619 2.1400001
0.27718097 0.17527619 2.1400001
0.28296572 0.17634095 2.1530001
0.28893334 0.17748763 2.1670001
0.29306096 0.17748763 2.1670001
0.29718858 0.17748763 2.1670001
0.3013162 0.17748763 2.1670001
0.30544382 0.17748763 2.1670001
0.30957144 0.17748763 2.1670001
0.31167239 0.17634095 2.1530001
0.31577334 0.17634095 2.1530001
0.31987429 0.17634095 2.1530001
0.32397524 0.17634095 2.1530001
0.32807621 0.17634095 2.1530001
0.33217716 0.17634095 2.1530001
0.33627811 0.17634095 2.1530001
0.33832383 0.17527619 2.1400001
0.34240001 0.17527619 2.1400001
0.3464762 0.17527619 2.1400001
0.35055238 0.17527619 2.1400001
0.3524743 0.17421143 2.1270001
0.35652572 0.17421143 2.1270001
0.36057717 0.17421143 2.1270001
0.36462858 0.17421143 2.1270001
0.36642668 0.17314668 2.1140001
0.37045336 0.17314668 2.1140001
0.37217715 0.17208192 2.1010001
0.37617907 0.17208192 2.1010001
0.38018095 0.17208192 2.1010001
0.38418287 0.17208192 2.1010001
0.38818479 0.17208192 2.1010001
0.39218667 0.17208192 2.1010001
0.39373717 0.17101716 2.0880001
0.39771429 0.17101716 2.0880001
0.40169144 0.17101716 2.0880001
0.40566859 0.17101716 2.0880001
0.40964574 0.17101716 2.0880001
0.41124573 0.17003429 2.0760002
0.41260001 0.16896953 2.0630002
0.41652954 0.16896953 2.0630002
0.42045906 0.16896953 2.0630002
0.42192 0.16798668 2.0510001
0.42582667 0.16798668 2.0510001
0.42973334 0.16798668 2.0510001
0.43110287 0.16700381 2.039
0.43498668 0.16700381 2.039
0.43887049 0.16700381 2.039
0.4427543 0.16700381 2.039
0.44400954 0.16602096 2.0270002
0.44787049 0.16602096 2.0270002
0.45173144 0.16602096 2.0270002
0.45559239 0.16602096 2.0270002
0.45945334 0.16602096 2.0270002
0.46331429 0.16602096 2.0270002
0.46440953 0.16503809 2.0150001
0.46824762 0.16503809 2.0150001
0.47208574 0.16503809 2.0150001
0.47592384 0.16503809 2.0150001
0.47976193 0.16503809 2.0150001
0.48360002 0.16503809 2.0150001
0.48743811 0.16503809 2.0150001
0.48835048 0.16405524 2.003
0.49216574 0.16405524 2.003
0.49325716 0.16315429 1.9920001
0.49705145 0.16315429 1.9920001
0.4978286 0.16217144 1.9800001
0.50160003 0.16217144 1.9800001
0.50537145 0.16217144 1.9800001
0.50631428 0.16127048 1.9690001
0.51006478 0.16127048 1.9690001
0.51668572 0.16217144 1.9800001
0.52045715 0.16217144 1.9800001
0.52422857 0.16217144 1.9800001
0.528 0.16217144 1.9800001
0.53177142 0.16217144 1.9800001
0.53554291 0.16217144 1.9800001
0.53931433 0.16217144 1.9800001
0.54308575 0.16217144 1.9800001
0.55017143 0.16315429 1.9920001
0.55396575 0.16315429 1.9920001
0.55776 0.16315429 1.9920001
0.56155431 0.16315429 1.9920001
0.56847048 0.16405524 2.003
0.57228571 0.16405524 2.003
-0.20426667 0.16049525 1.9150001
-0.19946668 0.15957335 1.904
-0.19368 0.15781334 1.8830001
-0.19009334 0.15781334 1.8830001
-0.18551619 0.15697524 1.8730001
-0.18097715 0.15613715 1.863
-0.1764762 0.15529905 1.853
-0.17201334 0.15446095 1.8430001
-0.16758858 0.15362287 1.8330001
-0.16409715 0.15362287 1.8330001
-0.15981714 0.15286858 1.8240001
-0.15548572 0.15203048 1.8140001
-0.15203048 0.15203048 1.8140001
-0.14775619 0.15119238 1.8040001
-0.14432001 0.15119238 1.8040001
-0.14018096 0.1504381 1.7950001
-0.13744763 0.15119238 1.8040001
-0.13334286 0.1504381 1.7950001
-0.12992382 0.1504381 1.7950001
-0.12650476 0.1504381 1.7950001
-0.12246858 0.14968382 1.7860001
-0.11846667 0.14892954 1.7770001
-0.11508191 0.14892954 1.7770001
-0.11113143 0.14817524 1.7680001
-0.10776381 0.14817524 1.7680001
-0.10386477 0.14742096 1.7590001
-0.10051429 0.14742096 1.7590001
-0.097163811 0.14742096 1.7590001
-0.093333334 0.14666668 1.7500001
-0.090000004 0.14666668 1.7500001
-0.086220957 0.14591238 1.7410001
-0.082476191 0.1451581 1.7320001
-0.079177149 0.1451581 1.7320001
-0.075878099 0.1451581 1.7320001
-0.072579049 0.1451581 1.7320001
-0.068920001 0.14440382 1.723
-0.065638095 0.14440382 1.723
-0.062356193 0.14440382 1.723
-0.059074286 0.14440382 1.723
-0.055533335 0.14373334 1.715
-0.051992383 0.14297906 1.7060001
-0.048742861 0.14297906 1.7060001
-0.045280002 0.14230858 1.6980001
-0.042045716 0.14230858 1.6980001
-0.03881143 0.14230858 1.6980001
-0.035409525 0.1416381 1.6900001
-0.032190476 0.1416381 1.6900001
-0.028817143 0.14088382 1.6810001
-0.02561524 0.14088382 1.6810001
-0.022413334 0.14088382 1.6810001
-0.01912 0.14021334 1.6730001
-0.015933335 0.14021334 1.6730001
-0.012746667 0.14021334 1.6730001
-0.0095142862 0.13954286 1.6650001
-0.0063428571 0.13954286 1.6650001
-0.0031561905 0.13887239 1.6570001
0 0.13887239 1.6570001
0.0031561905 0.13887239 1.6570001
0.006312381 0.13887239 1.6570001
0.0094685722 0.13887239 1.6570001
0.01256381 0.13820191 1.649
0.015704762 0.13820191 1.649
0.018845715 0.13820191 1.649
0.021986667 0.13820191 1.649
0.025005715 0.13753143 1.641
0.027874287 0.13627429 1.626
0.03097143 0.13627429 1.626
0.034068573 0.13627429 1.626
0.037165716 0.13627429 1.626
0.040262859 0.13627429 1.626
0.043360002 0.13627429 1.626
0.046228573 0.13560382 1.618
0.049310479 0.13560382 1.618
0.052392382 0.13560382 1.618
0.055234287 0.13501714 1.6110001
0.058302861 0.13501714 1.6110001
0.061371431 0.13501714 1.6110001
0.064120002 0.13434668 1.603
0.067173339 0.13434668 1.603
0.070226669 0.13434668 1.603
0.072960004 0.13376001 1.5960001
0.076000005 0.13376001 1.5960001
0.079040006 0.13376001 1.5960001
0.082080007 0.13376001 1.5960001
0.084746666 0.13317333 1.5890001
0.087773338 0.13317333 1.5890001
0.090800002 0.13317333 1.5890001
0.093826666 0.13317333 1.5890001
0.096853338 0.13317333 1.5890001
0.099880002 0.13317333 1.5890001
0.10238858 0.13250287 1.5810001
0.1054 0.13250287 1.5810001
0.10841143 0.13250287 1.5810001
0.11043619 0.13132952 1.567
0.11342096 0.13132952 1.567
0.11692572 0.1319162 1.5740001
0.11939048 0.13132952 1.567
0.12237524 0.13132952 1.567
0.12536001 0.13132952 1.567
0.12777144 0.13074286 1.5600001
0.13132952 0.13132952 1.567
0.13371429 0.13074286 1.5600001
0.13668571 0.13074286 1.5600001
0.13903049 0.13015619 1.5530001
0.14198858 0.13015619 1.5530001
0.14494666 0.13015619 1.5530001
0.14790477 0.13015619 1.5530001
0.15086286 0.13015619 1.5530001
0.15382096 0.13015619 1.5530001
0.15677905 0.13015619 1.5530001
0.16045715 0.13074286 1.5600001
0.16342857 0.13074286 1.5600001
0.1664 0.13074286 1.5600001
0.16937144 0.13074286 1.5600001
0.17234287 0.13074286 1.5600001
0.17610095 0.13132952 1.567
0.17908572 0.13132952 1.567
0.18288381 0.1319162 1.5740001
0.18670858 0.13250287 1.5810001
0.19068001 0.13317333 1.5890001
0.19370668 0.13317333 1.5890001
0.19673334 0.13317333 1.5890001
0.19976 0.13317333 1.5890001
0.27549714 0.17826286 2.1270001
0.28125715 0.17935239 2.1400001
0.28533334 0.17935239 2.1400001
0.28940955 0.17935239 2.1400001
0.29348573 0.17935239 2.1400001
0.3013162 0.18161525 2.1670001
0.30347049 0.18044192 2.1530001
0.30757144 0.18044192 2.1530001
0.31167239 0.18044192 2.1530001
0.31577334 0.18044192 2.1530001
0.31987429 0.18044192 2.1530001
0.32397524 0.18044192 2.1530001
0.32807621 0.18044192 2.1530001
0.33217716 0.18044192 2.1530001
0.33627811 0.18044192 2.1530001
0.33832383 0.17935239 2.1400001
0.34240001 0.17935239 2.1400001
0.3464762 0.17935239 2.1400001
0.35055238 0.17935239 2.1400001
0.3524743 0.17826286 2.1270001
0.35652572 0.17826286 2.1270001
0.36057717 0.17826286 2.1270001
0.36462858 0.17826286 2.1270001
0.36642668 0.17717335 2.1140001
0.37045336 0.17717335 2.1140001
0.37217715 0.17608382 2.1010001
0.37617907 0.17608382 2.1010001
0.3778286 0.17499429 2.0880001
0.38180572 0.17499429 2.0880001
0.38578287 0.17499429 2.0880001
0.38976002 0.17499429 2.0880001
0.39373717 0.17499429 2.0880001
0.39771429 0.17499429 2.0880001
0.40169144 0.17499429 2.0880001
0.40566859 0.17499429 2.0880001
0.40729144 0.17398858 2.0760002
0.41124573 0.17398858 2.0760002
0.41260001 0.17289905 2.0630002
0.41652954 0.17289905 2.0630002
0.41801333 0.17189334 2.0510001
0.42192 0.17189334 2.0510001
0.42582667 0.17189334 2.0510001
0.42973334 0.17189334 2.0510001
0.43110287 0.17088762 2.039
0.43242669 0.16988191 2.0270002
0.43628764 0.16988191 2.0270002
0.44014859 0.16988191 2.0270002
0.44400954 0.16988191 2.0270002
0.44787049 0.16988191 2.0270002
0.45173144 0.16988191 2.0270002
0.45559239 0.16988191 2.0270002
0.45945334 0.16988191 2.0270002
0.46331429 0.16988191 2.0270002
0.46440953 0.1688762 2.0150001
0.46824762 0.1688762 2.0150001
0.47208574 0.1688762 2.0150001
0.47592384 0.1688762 2.0150001
0.47976193 0.1688762 2.0150001
0.48360002 0.1688762 2.0150001
0.48743811 0.1688762 2.0150001
0.48835048 0.16787048 2.003
0.49216574 0.16787048 2.003
0.49325716 0.16694857 1.9920001
0.49705145 0.16694857 1.9920001
0.4978286 0.16594286 1.9800001
0.50160003 0.16594286 1.9800001
0.50537145 0.16594286 1.9800001
0.50631428 0.16502096 1.9690001
0.51006478 0.16502096 1.9690001
0.51668572 0.16594286 1.9800001
0.52045715 0.16594286 1.9800001
0.52422857 0.16594286 1.9800001
0.528 0.16594286 1.9800001
0.53177142 0.16594286 1.9800001
0.53554291 0.16594286 1.9800001
0.53931433 0.16594286 1.9800001
0.54637718 0.16694857 1.9920001
0.55017143 0.16694857 1.9920001
0.55396575 0.16694857 1.9920001
0.55776 0.16694857 1.9920001
