# .PCD v0.7 - Point Cloud Data file format
VERSION 0.7
FIELDS x y z
SIZE 4 4 4
TYPE F F F
COUNT 1 1 1
WIDTH 1535
HEIGHT 1
VIEWPOINT 0 0 0 1 0 0 0
POINTS 1535
DATA ascii
0.28753334 0.14830667 1.5890001
0.28909716 0.14756 1.5810001
0.29358667 0.14830667 1.5890001
0.29512 0.14756 1.5810001
0.29813144 0.14756 1.5810001
0.30114287 0.14756 1.5810001
0.30415431 0.14756 1.5810001
0.30716571 0.14756 1.5810001
0.31017715 0.14756 1.5810001
0.31318858 0.14756 1.5810001
0.31480002 0.14690667 1.5740001
0.31921145 0.14756 1.5810001
0.32079619 0.14690667 1.5740001
0.32379431 0.14690667 1.5740001
0.32533905 0.14625333 1.567
0.3297905 0.14690667 1.5740001
0.33278859 0.14690667 1.5740001
0.33578667 0.14690667 1.5740001
0.33878478 0.14690667 1.5740001
0.34178287 0.14690667 1.5740001
0.34478095 0.14690667 1.5740001
0.34777907 0.14690667 1.5740001
0.35077715 0.14690667 1.5740001
0.35377526 0.14690667 1.5740001
0.35836002 0.14756 1.5810001
0.36137143 0.14756 1.5810001
0.36438286 0.14756 1.5810001
0.3673943 0.14756 1.5810001
0.37228 0.14830667 1.5890001
0.37530667 0.14830667 1.5890001
-0.3129943 0.15342858 1.6110001
-0.30838668 0.15266667 1.603
-0.30533335 0.15266667 1.603
-0.30228001 0.15266667 1.603
-0.29792002 0.15200001 1.5960001
-0.29488 0.15200001 1.5960001
-0.29056001 0.15133333 1.5890001
-0.28753334 0.15133333 1.5890001
-0.28450668 0.15133333 1.5890001
-0.28006285 0.15057144 1.5810001
-0.27705145 0.15057144 1.5810001
-0.27542669 0.15133333 1.5890001
-0.27102858 0.15057144 1.5810001
-0.26937336 0.15133333 1.5890001
-0.26634666 0.15133333 1.5890001
-0.26332 0.15133333 1.5890001
-0.26029333 0.15133333 1.5890001
-0.25726667 0.15133333 1.5890001
-0.25424001 0.15133333 1.5890001
-0.25121334 0.15133333 1.5890001
-0.24818668 0.15133333 1.5890001
-0.24516001 0.15133333 1.5890001
-0.24213335 0.15133333 1.5890001
-0.24016 0.15200001 1.5960001
-0.23712 0.15200001 1.5960001
-0.23408 0.15200001 1.5960001
-0.23104002 0.15200001 1.5960001
-0.22800002 0.15200001 1.5960001
-0.22496001 0.15200001 1.5960001
-0.22400573 0.15342858 1.6110001
-0.22093715 0.15342858 1.6110001
-0.21786858 0.15342858 1.6110001
-0.21573333 0.15409525 1.618
-0.21370287 0.15485714 1.626
-0.21993144 0.16171429 1.6980001
-0.21669716 0.16171429 1.6980001
-0.21660572 0.16409524 1.723
-0.21332382 0.16409524 1.723
-0.2122362 0.16580953 1.7410001
-0.21108001 0.16752382 1.7590001
-0.20879239 0.16838096 1.7680001
-0.20751619 0.17009525 1.7860001
-0.20845716 0.1737143 1.8240001
-0.20599429 0.17457144 1.8330001
-0.20360763 0.17552382 1.8430001
-0.20118286 0.1764762 1.853
-0.19872001 0.17742857 1.863
-0.19517143 0.17742857 1.863
-0.19265144 0.17838097 1.8730001
-0.19009334 0.17933334 1.8830001
-0.1875962 0.18038096 1.8940001
-0.18496001 0.18133333 1.904
-0.18238096 0.18238096 1.9150001
-0.17873333 0.18238096 1.9150001
-0.176 0.18333334 1.9250001
-0.1733181 0.18438096 1.9360001
-0.16963048 0.18438096 1.9360001
-0.16688572 0.18542857 1.9470001
-0.16409905 0.1864762 1.9580001
-0.16036953 0.1864762 1.9580001
-0.15752001 0.18752381 1.9690001
-0.15376952 0.18752381 1.9690001
-0.15001905 0.18752381 1.9690001
-0.14626858 0.18752381 1.9690001
-0.14331429 0.18857144 1.9800001
-0.14038858 0.1897143 1.9920001
-0.1365943 0.1897143 1.9920001
-0.1328 0.1897143 1.9920001
-0.1297181 0.19076191 2.003
-0.12590286 0.19076191 2.003
-0.12208762 0.19076191 2.003
-0.11827239 0.19076191 2.003
-0.11514286 0.19190477 2.0150001
-0.11130477 0.19190477 2.0150001
-0.10746667 0.19190477 2.0150001
-0.10362858 0.19190477 2.0150001
-0.099790476 0.19190477 2.0150001
-0.095952384 0.19190477 2.0150001
-0.092114292 0.19190477 2.0150001
-0.088801906 0.19304763 2.0270002
-0.084940955 0.19304763 2.0270002
-0.082040004 0.19533335 2.0510001
-0.078133337 0.19533335 2.0510001
-0.07422667 0.19533335 2.0510001
-0.070320003 0.19533335 2.0510001
-0.066413336 0.19533335 2.0510001
-0.062506668 0.19533335 2.0510001
-0.058257144 0.19419049 2.039
-0.054373335 0.19419049 2.039
-0.050489526 0.19419049 2.039
-0.046880003 0.19533335 2.0510001
-0.042973336 0.19533335 2.0510001
-0.039066669 0.19533335 2.0510001
-0.035160001 0.19533335 2.0510001
-0.031253334 0.19533335 2.0510001
-0.027186668 0.19419049 2.039
-0.023302859 0.19419049 2.039
-0.019419048 0.19419049 2.039
-0.015535239 0.19419049 2.039
-0.011720001 0.19533335 2.0510001
-0.0078133335 0.19533335 2.0510001
-0.0038838098 0.19419049 2.039
0 0.19419049 2.039
0.0039066668 0.19533335 2.0510001
0.0077676196 0.19419049 2.039
0.011720001 0.19533335 2.0510001
0.015626667 0.19533335 2.0510001
0.019533334 0.19533335 2.0510001
0.023440002 0.19533335 2.0510001
0.027346667 0.19533335 2.0510001
0.031253334 0.19533335 2.0510001
0.035160001 0.19533335 2.0510001
0.039066669 0.19533335 2.0510001
0.042973336 0.19533335 2.0510001
0.046880003 0.19533335 2.0510001
0.05078667 0.19533335 2.0510001
0.054693334 0.19533335 2.0510001
0.058600001 0.19533335 2.0510001
0.062506668 0.19533335 2.0510001
0.066413336 0.19533335 2.0510001
0.070320003 0.19533335 2.0510001
0.07422667 0.19533335 2.0510001
0.078133337 0.19533335 2.0510001
0.082040004 0.19533335 2.0510001
0.085946672 0.19533335 2.0510001
0.089853339 0.19533335 2.0510001
0.093760006 0.19533335 2.0510001
0.097666673 0.19533335 2.0510001
0.10157334 0.19533335 2.0510001
0.10548 0.19533335 2.0510001
0.10938667 0.19533335 2.0510001
0.11329333 0.19533335 2.0510001
0.11651429 0.19419049 2.039
0.1203981 0.19419049 2.039
0.12428191 0.19419049 2.039
0.12816572 0.19419049 2.039
0.13204953 0.19419049 2.039
0.13593334 0.19419049 2.039
0.13981715 0.19419049 2.039
0.14370096 0.19419049 2.039
0.14758477 0.19419049 2.039
0.15146858 0.19419049 2.039
0.15535238 0.19419049 2.039
0.15923619 0.19419049 2.039
0.16312 0.19419049 2.039
0.16602096 0.19304763 2.0270002
0.16988191 0.19304763 2.0270002
0.17271429 0.19190477 2.0150001
0.17655239 0.19190477 2.0150001
0.17931619 0.19076191 2.003
0.18313144 0.19076191 2.003
0.18694668 0.19076191 2.003
0.19076191 0.19076191 2.003
0.19350858 0.1897143 1.9920001
0.19730286 0.1897143 1.9920001
0.20109715 0.1897143 1.9920001
0.20489144 0.1897143 1.9920001
0.20742857 0.18857144 1.9800001
0.21120001 0.18857144 1.9800001
0.21497144 0.18857144 1.9800001
0.21874286 0.18857144 1.9800001
0.2212781 0.18752381 1.9690001
0.22377144 0.1864762 1.9580001
0.22622287 0.18542857 1.9470001
0.22993144 0.18542857 1.9470001
0.23364002 0.18542857 1.9470001
0.23734859 0.18542857 1.9470001
0.23969525 0.18438096 1.9360001
0.24338287 0.18438096 1.9360001
0.24566668 0.18333334 1.9250001
0.24933334 0.18333334 1.9250001
0.25168571 0.18238096 1.9150001
0.25386667 0.18133333 1.904
0.25614095 0.18038096 1.8940001
0.25974858 0.18038096 1.8940001
0.26182666 0.17933334 1.8830001
0.26259428 0.17742857 1.863
0.26614287 0.17742857 1.863
0.26824382 0.1764762 1.853
0.27030668 0.17552382 1.8430001
0.27099431 0.1737143 1.8240001
0.27296382 0.17276192 1.8140001
0.27489525 0.17180952 1.8040001
0.2755543 0.17009525 1.7860001
0.27755049 0.16923811 1.7770001
0.28093526 0.16923811 1.7770001
0.28288001 0.16838096 1.7680001
0.26698098 0.15704763 1.649
0.2701219 0.15704763 1.649
0.27326286 0.15704763 1.649
0.27640381 0.15704763 1.649
0.27564573 0.15485714 1.626
0.27737144 0.15409525 1.618
0.27924001 0.15342858 1.6110001
0.28090668 0.15266667 1.603
0.28272 0.15200001 1.5960001
0.28576002 0.15200001 1.5960001
0.28753334 0.15133333 1.5890001
0.29056001 0.15133333 1.5890001
0.29358667 0.15133333 1.5890001
0.29512 0.15057144 1.5810001
0.29813144 0.15057144 1.5810001
0.30114287 0.15057144 1.5810001
0.30415431 0.15057144 1.5810001
0.30716571 0.15057144 1.5810001
0.30880383 0.14990477 1.5740001
0.31180191 0.14990477 1.5740001
0.31480002 0.14990477 1.5740001
0.31779811 0.14990477 1.5740001
0.32079619 0.14990477 1.5740001
0.32379431 0.14990477 1.5740001
0.32679239 0.14990477 1.5740001
0.3297905 0.14990477 1.5740001
0.33278859 0.14990477 1.5740001
0.33578667 0.14990477 1.5740001
0.33878478 0.14990477 1.5740001
0.34178287 0.14990477 1.5740001
0.34478095 0.14990477 1.5740001
0.34777907 0.14990477 1.5740001
0.35077715 0.14990477 1.5740001
0.35377526 0.14990477 1.5740001
0.35836002 0.15057144 1.5810001
0.36137143 0.15057144 1.5810001
0.36438286 0.15057144 1.5810001
0.3673943 0.15057144 1.5810001
0.37040573 0.15057144 1.5810001
0.37530667 0.15133333 1.5890001
-0.3129943 0.15649715 1.6110001
-0.30992573 0.15649715 1.6110001
-0.30685717 0.15649715 1.6110001
-0.30228001 0.15572001 1.603
-0.29922667 0.15572001 1.603
-0.29488 0.15504001 1.5960001
-0.29184002 0.15504001 1.5960001
-0.28753334 0.15436001 1.5890001
-0.28450668 0.15436001 1.5890001
-0.28148001 0.15436001 1.5890001
-0.27845335 0.15436001 1.5890001
-0.27542669 0.15436001 1.5890001
-0.27240002 0.15436001 1.5890001
-0.26937336 0.15436001 1.5890001
-0.26634666 0.15436001 1.5890001
-0.26332 0.15436001 1.5890001
-0.26029333 0.15436001 1.5890001
-0.25726667 0.15436001 1.5890001
-0.25424001 0.15436001 1.5890001
-0.25121334 0.15436001 1.5890001
-0.24818668 0.15436001 1.5890001
-0.24516001 0.15436001 1.5890001
-0.24213335 0.15436001 1.5890001
-0.24016 0.15504001 1.5960001
-0.23712 0.15504001 1.5960001
-0.23408 0.15504001 1.5960001
-0.23104002 0.15504001 1.5960001
-0.229 0.15572001 1.603
-0.22594668 0.15572001 1.603
-0.22289334 0.15572001 1.603
-0.22093715 0.15649715 1.6110001
-0.21786858 0.15649715 1.6110001
-0.2168 0.15795429 1.626
-0.21265143 0.15717715 1.618
-0.21889524 0.16417143 1.6900001
-0.2156762 0.16417143 1.6900001
-0.21446858 0.16572572 1.7060001
-0.21233334 0.1666 1.715
-0.21333334 0.17 1.7500001
-0.21216001 0.17174858 1.7680001
-0.20879239 0.17174858 1.7680001
-0.20751619 0.17349716 1.7860001
-0.20845716 0.17718858 1.8240001
-0.20599429 0.17806287 1.8330001
-0.20471239 0.18000571 1.853
-0.20226859 0.18097715 1.863
-0.19978668 0.18194857 1.8730001
-0.19621906 0.18194857 1.8730001
-0.19265144 0.18194857 1.8730001
-0.19009334 0.18292001 1.8830001
-0.1875962 0.18398857 1.8940001
-0.18602858 0.18602858 1.9150001
-0.18238096 0.18602858 1.9150001
-0.17966667 0.18700001 1.9250001
-0.176 0.18700001 1.9250001
-0.1733181 0.18806858 1.9360001
-0.16963048 0.18806858 1.9360001
-0.16688572 0.18913715 1.9470001
-0.16409905 0.19020572 1.9580001
-0.16036953 0.19020572 1.9580001
-0.15752001 0.19127429 1.9690001
-0.15376952 0.19127429 1.9690001
-0.15001905 0.19127429 1.9690001
-0.14626858 0.19127429 1.9690001
-0.14331429 0.19234286 1.9800001
-0.13954286 0.19234286 1.9800001
-0.1365943 0.19350858 1.9920001
-0.1328 0.19350858 1.9920001
-0.12900572 0.19350858 1.9920001
-0.12521143 0.19350858 1.9920001
-0.12208762 0.19457714 2.003
-0.11827239 0.19457714 2.003
-0.11514286 0.19574286 2.0150001
-0.11130477 0.19574286 2.0150001
-0.10746667 0.19574286 2.0150001
-0.10362858 0.19574286 2.0150001
-0.099790476 0.19574286 2.0150001
-0.095952384 0.19574286 2.0150001
-0.092662863 0.19690858 2.0270002
-0.088801906 0.19690858 2.0270002
-0.084940955 0.19690858 2.0270002
-0.082040004 0.19924001 2.0510001
-0.078133337 0.19924001 2.0510001
-0.07422667 0.19924001 2.0510001
-0.070320003 0.19924001 2.0510001
-0.066413336 0.19924001 2.0510001
-0.062506668 0.19924001 2.0510001
-0.058257144 0.1980743 2.039
-0.054373335 0.1980743 2.039
-0.050489526 0.1980743 2.039
-0.046880003 0.19924001 2.0510001
-0.042973336 0.19924001 2.0510001
-0.039066669 0.19924001 2.0510001
-0.035160001 0.19924001 2.0510001
-0.031253334 0.19924001 2.0510001
-0.027186668 0.1980743 2.039
-0.023302859 0.1980743 2.039
-0.019533334 0.19924001 2.0510001
-0.015535239 0.1980743 2.039
-0.011651429 0.1980743 2.039
-0.0078133335 0.19924001 2.0510001
-0.0038838098 0.1980743 2.039
0 0.1980743 2.039
0.0038838098 0.1980743 2.039
0.0077676196 0.1980743 2.039
0.011720001 0.19924001 2.0510001
0.015626667 0.19924001 2.0510001
0.019533334 0.19924001 2.0510001
0.023440002 0.19924001 2.0510001
0.027346667 0.19924001 2.0510001
0.031253334 0.19924001 2.0510001
0.035160001 0.19924001 2.0510001
0.039066669 0.19924001 2.0510001
0.042973336 0.19924001 2.0510001
0.046880003 0.19924001 2.0510001
0.05078667 0.19924001 2.0510001
0.054693334 0.19924001 2.0510001
0.058600001 0.19924001 2.0510001
0.062506668 0.19924001 2.0510001
0.066413336 0.19924001 2.0510001
0.070320003 0.19924001 2.0510001
0.07422667 0.19924001 2.0510001
0.078133337 0.19924001 2.0510001
0.082040004 0.19924001 2.0510001
0.085946672 0.19924001 2.0510001
0.089853339 0.19924001 2.0510001
0.093760006 0.19924001 2.0510001
0.097666673 0.19924001 2.0510001
0.10157334 0.19924001 2.0510001
0.10548 0.19924001 2.0510001
0.10874667 0.1980743 2.039
0.11263048 0.1980743 2.039
0.11651429 0.1980743 2.039
0.1203981 0.1980743 2.039
0.12428191 0.1980743 2.039
0.12816572 0.1980743 2.039
0.13204953 0.1980743 2.039
0.13593334 0.1980743 2.039
0.13981715 0.1980743 2.039
0.14370096 0.1980743 2.039
0.14758477 0.1980743 2.039
0.15146858 0.1980743 2.039
0.15535238 0.1980743 2.039
0.15829906 0.19690858 2.0270002
0.1612 0.19574286 2.0150001
0.16503809 0.19574286 2.0150001
0.1688762 0.19574286 2.0150001
0.17271429 0.19574286 2.0150001
0.17550096 0.19457714 2.003
0.17931619 0.19457714 2.003
0.18313144 0.19457714 2.003
0.18694668 0.19457714 2.003
0.19076191 0.19457714 2.003
0.19350858 0.19350858 1.9920001
0.19730286 0.19350858 1.9920001
0.20109715 0.19350858 1.9920001
0.20365715 0.19234286 1.9800001
0.20742857 0.19234286 1.9800001
0.21120001 0.19234286 1.9800001
0.21497144 0.19234286 1.9800001
0.21874286 0.19234286 1.9800001
0.2212781 0.19127429 1.9690001
0.22502857 0.19127429 1.9690001
0.22750096 0.19020572 1.9580001
0.23123048 0.19020572 1.9580001
0.23364002 0.18913715 1.9470001
0.23734859 0.18913715 1.9470001
0.23969525 0.18806858 1.9360001
0.24338287 0.18806858 1.9360001
0.24566668 0.18700001 1.9250001
0.2480381 0.18602858 1.9150001
0.25168571 0.18602858 1.9150001
0.25386667 0.18496001 1.904
0.25614095 0.18398857 1.8940001
0.25974858 0.18398857 1.8940001
0.26182666 0.18292001 1.8830001
0.26400381 0.18194857 1.8730001
0.26614287 0.18097715 1.863
0.26824382 0.18000571 1.853
0.27030668 0.17903429 1.8430001
0.27099431 0.17718858 1.8240001
0.27296382 0.17621715 1.8140001
0.27489525 0.17524572 1.8040001
0.27694288 0.17437144 1.7950001
0.27755049 0.17262286 1.7770001
0.28093526 0.17262286 1.7770001
0.28144002 0.1708743 1.7590001
0.26698098 0.16018857 1.649
0.2701219 0.16018857 1.649
0.27458858 0.16096573 1.6570001
0.27640381 0.16018857 1.649
0.27564573 0.15795429 1.626
0.27737144 0.15717715 1.618
0.27924001 0.15649715 1.6110001
0.28090668 0.15572001 1.603
0.28272 0.15504001 1.5960001
0.28576002 0.15504001 1.5960001
0.28753334 0.15436001 1.5890001
0.29056001 0.15436001 1.5890001
0.29358667 0.15436001 1.5890001
0.29661334 0.15436001 1.5890001
0.29964 0.15436001 1.5890001
0.30114287 0.15358286 1.5810001
0.30415431 0.15358286 1.5810001
0.30716571 0.15358286 1.5810001
0.30880383 0.15290286 1.5740001
0.31318858 0.15358286 1.5810001
0.31480002 0.15290286 1.5740001
0.31921145 0.15358286 1.5810001
0.32222286 0.15358286 1.5810001
0.32379431 0.15290286 1.5740001
0.32679239 0.15290286 1.5740001
0.3297905 0.15290286 1.5740001
0.33278859 0.15290286 1.5740001
0.33578667 0.15290286 1.5740001
0.33878478 0.15290286 1.5740001
0.34178287 0.15290286 1.5740001
0.34478095 0.15290286 1.5740001
0.34777907 0.15290286 1.5740001
0.35077715 0.15290286 1.5740001
0.35377526 0.15290286 1.5740001
0.35836002 0.15358286 1.5810001
0.36137143 0.15358286 1.5810001
0.36438286 0.15358286 1.5810001
0.3673943 0.15358286 1.5810001
0.37040573 0.15358286 1.5810001
0.37341717 0.15358286 1.5810001
-0.3129943 0.15956572 1.6110001
-0.30838668 0.15877333 1.603
-0.30533335 0.15877333 1.603
-0.30228001 0.15877333 1.603
-0.29922667 0.15877333 1.603
-0.29617333 0.15877333 1.603
-0.29184002 0.15808001 1.5960001
-0.2888 0.15808001 1.5960001
-0.28576002 0.15808001 1.5960001
-0.28148001 0.15738668 1.5890001
-0.27845335 0.15738668 1.5890001
-0.27542669 0.15738668 1.5890001
-0.27240002 0.15738668 1.5890001
-0.26937336 0.15738668 1.5890001
-0.26634666 0.15738668 1.5890001
-0.26332 0.15738668 1.5890001
-0.26029333 0.15738668 1.5890001
-0.25726667 0.15738668 1.5890001
-0.25424001 0.15738668 1.5890001
-0.25121334 0.15738668 1.5890001
-0.24818668 0.15738668 1.5890001
-0.24516001 0.15738668 1.5890001
-0.2432 0.15808001 1.5960001
-0.24016 0.15808001 1.5960001
-0.23712 0.15808001 1.5960001
-0.23408 0.15808001 1.5960001
-0.23104002 0.15808001 1.5960001
-0.229 0.15877333 1.603
-0.22594668 0.15877333 1.603
-0.22400573 0.15956572 1.6110001
-0.22093715 0.15956572 1.6110001
-0.21881525 0.16025905 1.618
-0.21786667 0.16184382 1.6340001
-0.2147543 0.16184382 1.6340001
-0.21889524 0.16739048 1.6900001
-0.2156762 0.16739048 1.6900001
-0.21446858 0.16897525 1.7060001
-0.21233334 0.16986667 1.715
-0.21443048 0.17422476 1.7590001
-0.21216001 0.1751162 1.7680001
-0.20879239 0.1751162 1.7680001
-0.20960763 0.17868191 1.8040001
-0.2073143 0.17967239 1.8140001
-0.20599429 0.18155429 1.8330001
-0.20360763 0.18254477 1.8430001
-0.20226859 0.18452573 1.863
-0.19978668 0.18551619 1.8730001
-0.19621906 0.18551619 1.8730001
-0.19265144 0.18551619 1.8730001
-0.19009334 0.18650667 1.8830001
-0.1875962 0.1875962 1.8940001
-0.18602858 0.1896762 1.9150001
-0.18238096 0.1896762 1.9150001
-0.17966667 0.19066668 1.9250001
-0.176 0.19066668 1.9250001
-0.1733181 0.1917562 1.9360001
-0.16963048 0.1917562 1.9360001
-0.16688572 0.19284572 1.9470001
-0.16409905 0.19393525 1.9580001
-0.16036953 0.19393525 1.9580001
-0.15752001 0.19502477 1.9690001
-0.15376952 0.19502477 1.9690001
-0.15001905 0.19502477 1.9690001
-0.14626858 0.19502477 1.9690001
-0.14331429 0.19611429 1.9800001
-0.13954286 0.19611429 1.9800001
-0.13734858 0.19839239 2.003
-0.1328 0.19730286 1.9920001
-0.1297181 0.19839239 2.003
-0.12590286 0.19839239 2.003
-0.12208762 0.19839239 2.003
-0.11827239 0.19839239 2.003
-0.11514286 0.19958095 2.0150001
-0.11130477 0.19958095 2.0150001
-0.10746667 0.19958095 2.0150001
-0.10362858 0.19958095 2.0150001
-0.10038476 0.20076953 2.0270002
-0.096523814 0.20076953 2.0270002
-0.092662863 0.20076953 2.0270002
-0.089327626 0.2019581 2.039
-0.085946672 0.20314668 2.0510001
-0.082040004 0.20314668 2.0510001
-0.078133337 0.20314668 2.0510001
-0.07422667 0.20314668 2.0510001
-0.070320003 0.20314668 2.0510001
-0.066024765 0.2019581 2.039
-0.062506668 0.20314668 2.0510001
-0.058257144 0.2019581 2.039
-0.054373335 0.2019581 2.039
-0.050489526 0.2019581 2.039
-0.046605717 0.2019581 2.039
-0.042973336 0.20314668 2.0510001
-0.039066669 0.20314668 2.0510001
-0.035160001 0.20314668 2.0510001
-0.031253334 0.20314668 2.0510001
-0.027186668 0.2019581 2.039
-0.023302859 0.2019581 2.039
-0.019419048 0.2019581 2.039
-0.015626667 0.20314668 2.0510001
-0.011720001 0.20314668 2.0510001
-0.0078133335 0.20314668 2.0510001
-0.0039066668 0.20314668 2.0510001
0 0.2019581 2.039
0.0039066668 0.20314668 2.0510001
0.0078133335 0.20314668 2.0510001
0.011720001 0.20314668 2.0510001
0.015626667 0.20314668 2.0510001
0.019533334 0.20314668 2.0510001
0.023440002 0.20314668 2.0510001
0.027346667 0.20314668 2.0510001
0.031253334 0.20314668 2.0510001
0.035160001 0.20314668 2.0510001
0.038838096 0.2019581 2.039
0.042721905 0.2019581 2.039
0.046605717 0.2019581 2.039
0.050489526 0.2019581 2.039
0.054373335 0.2019581 2.039
0.058600001 0.20314668 2.0510001
0.062506668 0.20314668 2.0510001
0.066413336 0.20314668 2.0510001
0.070320003 0.20314668 2.0510001
0.07422667 0.20314668 2.0510001
0.078133337 0.20314668 2.0510001
0.082040004 0.20314668 2.0510001
0.085946672 0.20314668 2.0510001
0.089853339 0.20314668 2.0510001
0.093760006 0.20314668 2.0510001
0.097666673 0.20314668 2.0510001
0.10157334 0.20314668 2.0510001
0.10548 0.20314668 2.0510001
0.10874667 0.2019581 2.039
0.11263048 0.2019581 2.039
0.11651429 0.2019581 2.039
0.11898096 0.19958095 2.0150001
0.12281905 0.19958095 2.0150001
0.12741144 0.20076953 2.0270002
0.13127239 0.20076953 2.0270002
0.13593334 0.2019581 2.039
0.13981715 0.2019581 2.039
0.14285524 0.20076953 2.0270002
0.14671619 0.20076953 2.0270002
0.15057714 0.20076953 2.0270002
0.15443811 0.20076953 2.0270002
0.15736191 0.19958095 2.0150001
0.1612 0.19958095 2.0150001
0.16405524 0.19839239 2.003
0.16787048 0.19839239 2.003
0.17168573 0.19839239 2.003
0.17550096 0.19839239 2.003
0.17931619 0.19839239 2.003
0.18313144 0.19839239 2.003
0.18694668 0.19839239 2.003
0.18857144 0.19611429 1.9800001
0.19350858 0.19730286 1.9920001
0.19730286 0.19730286 1.9920001
0.20109715 0.19730286 1.9920001
0.20365715 0.19611429 1.9800001
0.20742857 0.19611429 1.9800001
0.21120001 0.19611429 1.9800001
0.21497144 0.19611429 1.9800001
0.21874286 0.19611429 1.9800001
0.2212781 0.19502477 1.9690001
0.22502857 0.19502477 1.9690001
0.22750096 0.19393525 1.9580001
0.23123048 0.19393525 1.9580001
0.23364002 0.19284572 1.9470001
0.23734859 0.19284572 1.9470001
0.23969525 0.1917562 1.9360001
0.24338287 0.1917562 1.9360001
0.24707049 0.1917562 1.9360001
0.2480381 0.1896762 1.9150001
0.25024 0.18858667 1.904
0.25253335 0.1875962 1.8940001
0.25614095 0.1875962 1.8940001
0.25824001 0.18650667 1.8830001
0.26182666 0.18650667 1.8830001
0.26400381 0.18551619 1.8730001
0.26614287 0.18452573 1.863
0.26824382 0.18353525 1.853
0.27030668 0.18254477 1.8430001
0.27099431 0.18066287 1.8240001
0.27296382 0.17967239 1.8140001
0.27489525 0.17868191 1.8040001
0.2755543 0.17689906 1.7860001
0.27755049 0.17600763 1.7770001
0.28093526 0.17600763 1.7770001
0.28432 0.17600763 1.7770001
0.26957145 0.1649143 1.6650001
0.27274287 0.1649143 1.6650001
0.27326286 0.16332953 1.649
0.27640381 0.16332953 1.649
0.27564573 0.16105144 1.626
0.27737144 0.16025905 1.618
0.27924001 0.15956572 1.6110001
0.28090668 0.15877333 1.603
0.28272 0.15808001 1.5960001
0.28450668 0.15738668 1.5890001
0.28753334 0.15738668 1.5890001
0.29056001 0.15738668 1.5890001
0.29358667 0.15738668 1.5890001
0.29661334 0.15738668 1.5890001
0.29964 0.15738668 1.5890001
0.30266666 0.15738668 1.5890001
0.30415431 0.15659429 1.5810001
0.30716571 0.15659429 1.5810001
0.31017715 0.15659429 1.5810001
0.31318858 0.15659429 1.5810001
0.31480002 0.15590096 1.5740001
0.31779811 0.15590096 1.5740001
0.32222286 0.15659429 1.5810001
0.32379431 0.15590096 1.5740001
0.32679239 0.15590096 1.5740001
0.3297905 0.15590096 1.5740001
0.33278859 0.15590096 1.5740001
0.33578667 0.15590096 1.5740001
0.33878478 0.15590096 1.5740001
0.34178287 0.15590096 1.5740001
0.34478095 0.15590096 1.5740001
0.34777907 0.15590096 1.5740001
0.35077715 0.15590096 1.5740001
0.35377526 0.15590096 1.5740001
0.35677335 0.15590096 1.5740001
0.35977143 0.15590096 1.5740001
0.36438286 0.15659429 1.5810001
0.36576763 0.15590096 1.5740001
0.36876574 0.15590096 1.5740001
0.37341717 0.15659429 1.5810001
-0.31144002 0.16182667 1.603
-0.30838668 0.16182667 1.603
-0.30533335 0.16182667 1.603
-0.30228001 0.16182667 1.603
-0.29922667 0.16182667 1.603
-0.29617333 0.16182667 1.603
-0.29184002 0.16112001 1.5960001
-0.2888 0.16112001 1.5960001
-0.28576002 0.16112001 1.5960001
-0.28148001 0.16041334 1.5890001
-0.27968001 0.16112001 1.5960001
-0.27664 0.16112001 1.5960001
-0.27240002 0.16041334 1.5890001
-0.26937336 0.16041334 1.5890001
-0.26634666 0.16041334 1.5890001
-0.26448002 0.16112001 1.5960001
-0.26029333 0.16041334 1.5890001
-0.25726667 0.16041334 1.5890001
-0.25424001 0.16041334 1.5890001
-0.25121334 0.16041334 1.5890001
-0.24818668 0.16041334 1.5890001
-0.24516001 0.16041334 1.5890001
-0.24213335 0.16041334 1.5890001
-0.23910667 0.16041334 1.5890001
-0.23608001 0.16041334 1.5890001
-0.23408 0.16112001 1.5960001
-0.23104002 0.16112001 1.5960001
-0.22800002 0.16112001 1.5960001
-0.22594668 0.16182667 1.603
-0.22400573 0.1626343 1.6110001
-0.22093715 0.1626343 1.6110001
-0.21881525 0.16334096 1.618
-0.21786667 0.1649562 1.6340001
-0.2147543 0.1649562 1.6340001
-0.21164191 0.1649562 1.6340001
-0.21452762 0.16970097 1.6810001
-0.21346286 0.17141715 1.6980001
-0.21121906 0.17222477 1.7060001
-0.21333334 0.17666668 1.7500001
-0.21216001 0.17848381 1.7680001
-0.21198095 0.18120953 1.7950001
-0.20960763 0.1821181 1.8040001
-0.20845716 0.18413715 1.8240001
-0.20599429 0.18504572 1.8330001
-0.20360763 0.18605524 1.8430001
-0.20226859 0.18807429 1.863
-0.19978668 0.18908381 1.8730001
-0.19621906 0.18908381 1.8730001
-0.19368 0.19009334 1.8830001
-0.19009334 0.19009334 1.8830001
-0.18858667 0.19221334 1.904
-0.18602858 0.19332382 1.9150001
-0.18333334 0.19433334 1.9250001
-0.17966667 0.19433334 1.9250001
-0.176 0.19433334 1.9250001
-0.1733181 0.19544382 1.9360001
-0.16963048 0.19544382 1.9360001
-0.16688572 0.19655429 1.9470001
-0.16409905 0.19766477 1.9580001
-0.16036953 0.19766477 1.9580001
-0.15664001 0.19766477 1.9580001
-0.15376952 0.19877525 1.9690001
-0.15001905 0.19877525 1.9690001
-0.14626858 0.19877525 1.9690001
-0.14331429 0.19988573 1.9800001
-0.14038858 0.20109715 1.9920001
-0.13734858 0.20220762 2.003
-0.13353334 0.20220762 2.003
-0.1297181 0.20220762 2.003
-0.12590286 0.20220762 2.003
-0.12208762 0.20220762 2.003
-0.11827239 0.20220762 2.003
-0.11514286 0.20341906 2.0150001
-0.11064191 0.20220762 2.003
-0.10746667 0.20341906 2.0150001
-0.10362858 0.20341906 2.0150001
-0.10097905 0.20584191 2.039
-0.097095244 0.20584191 2.039
-0.093211435 0.20584191 2.039
-0.089853339 0.20705333 2.0510001
-0.085946672 0.20705333 2.0510001
-0.082040004 0.20705333 2.0510001
-0.078133337 0.20705333 2.0510001
-0.07422667 0.20705333 2.0510001
-0.070320003 0.20705333 2.0510001
-0.066413336 0.20705333 2.0510001
-0.062140957 0.20584191 2.039
-0.058257144 0.20584191 2.039
-0.054373335 0.20584191 2.039
-0.050489526 0.20584191 2.039
-0.046605717 0.20584191 2.039
-0.042721905 0.20584191 2.039
-0.039066669 0.20705333 2.0510001
-0.035160001 0.20705333 2.0510001
-0.031253334 0.20705333 2.0510001
-0.027186668 0.20584191 2.039
-0.023302859 0.20584191 2.039
-0.019419048 0.20584191 2.039
-0.015535239 0.20584191 2.039
-0.011651429 0.20584191 2.039
-0.0078133335 0.20705333 2.0510001
-0.0039066668 0.20705333 2.0510001
0 0.20705333 2.0510001
0.0039066668 0.20705333 2.0510001
0.0077676196 0.20584191 2.039
0.011720001 0.20705333 2.0510001
0.015626667 0.20705333 2.0510001
0.019533334 0.20705333 2.0510001
0.023302859 0.20584191 2.039
0.027186668 0.20584191 2.039
0.031070478 0.20584191 2.039
0.034954287 0.20584191 2.039
0.038838096 0.20584191 2.039
0.042721905 0.20584191 2.039
0.046605717 0.20584191 2.039
0.050489526 0.20584191 2.039
0.054373335 0.20584191 2.039
0.058257144 0.20584191 2.039
0.062140957 0.20584191 2.039
0.066024765 0.20584191 2.039
0.069908574 0.20584191 2.039
0.073792383 0.20584191 2.039
0.077676192 0.20584191 2.039
0.082040004 0.20705333 2.0510001
0.08544381 0.20584191 2.039
0.089327626 0.20584191 2.039
0.093211435 0.20584191 2.039
0.097666673 0.20705333 2.0510001
0.10157334 0.20705333 2.0510001
0.10486286 0.20584191 2.039
0.10682667 0.20220762 2.003
0.11064191 0.20220762 2.003
0.11445715 0.20220762 2.003
0.11827239 0.20220762 2.003
0.12208762 0.20220762 2.003
0.12741144 0.20463048 2.0270002
0.13127239 0.20463048 2.0270002
0.13513334 0.20463048 2.0270002
0.13899429 0.20463048 2.0270002
0.14200953 0.20341906 2.0150001
0.14671619 0.20463048 2.0270002
0.15057714 0.20463048 2.0270002
0.15352382 0.20341906 2.0150001
0.15736191 0.20341906 2.0150001
0.1612 0.20341906 2.0150001
0.16405524 0.20220762 2.003
0.16787048 0.20220762 2.003
0.17168573 0.20220762 2.003
0.17550096 0.20220762 2.003
0.17931619 0.20220762 2.003
0.18313144 0.20220762 2.003
0.18592 0.20109715 1.9920001
0.18857144 0.19988573 1.9800001
0.19234286 0.19988573 1.9800001
0.19730286 0.20109715 1.9920001
0.20109715 0.20109715 1.9920001
0.20365715 0.19988573 1.9800001
0.20742857 0.19988573 1.9800001
0.21120001 0.19988573 1.9800001
0.21497144 0.19988573 1.9800001
0.21874286 0.19988573 1.9800001
0.22251429 0.19988573 1.9800001
0.22502857 0.19877525 1.9690001
0.22750096 0.19766477 1.9580001
0.23123048 0.19766477 1.9580001
0.23364002 0.19655429 1.9470001
0.23734859 0.19655429 1.9470001
0.24105716 0.19655429 1.9470001
0.24338287 0.19544382 1.9360001
0.24707049 0.19544382 1.9360001
0.24933334 0.19433334 1.9250001
0.25168571 0.19332382 1.9150001
0.25253335 0.19120382 1.8940001
0.25614095 0.19120382 1.8940001
0.25974858 0.19120382 1.8940001
0.26182666 0.19009334 1.8830001
0.26400381 0.18908381 1.8730001
0.26614287 0.18807429 1.863
0.26824382 0.18706477 1.853
0.27030668 0.18605524 1.8430001
0.27099431 0.18413715 1.8240001
0.27296382 0.18312763 1.8140001
0.27489525 0.1821181 1.8040001
0.2755543 0.18030097 1.7860001
0.2789562 0.18030097 1.7860001
0.28093526 0.17939238 1.7770001
0.28432 0.17939238 1.7770001
0.28770477 0.17939238 1.7770001
0.27274287 0.16808572 1.6650001
0.27591428 0.16808572 1.6650001
0.27640381 0.16647048 1.649
0.27818859 0.16566287 1.641
0.27737144 0.16334096 1.618
0.27924001 0.1626343 1.6110001
0.28090668 0.16182667 1.603
0.28272 0.16112001 1.5960001
0.28576002 0.16112001 1.5960001
0.28753334 0.16041334 1.5890001
0.29056001 0.16041334 1.5890001
0.29358667 0.16041334 1.5890001
0.29661334 0.16041334 1.5890001
0.29813144 0.15960573 1.5810001
0.30114287 0.15960573 1.5810001
0.30415431 0.15960573 1.5810001
0.30716571 0.15960573 1.5810001
0.31017715 0.15960573 1.5810001
0.31318858 0.15960573 1.5810001
0.31620002 0.15960573 1.5810001
0.31921145 0.15960573 1.5810001
0.32222286 0.15960573 1.5810001
0.32379431 0.15889905 1.5740001
0.32679239 0.15889905 1.5740001
0.3297905 0.15889905 1.5740001
0.33278859 0.15889905 1.5740001
0.33578667 0.15889905 1.5740001
0.33878478 0.15889905 1.5740001
0.34178287 0.15889905 1.5740001
0.34478095 0.15889905 1.5740001
0.34777907 0.15889905 1.5740001
0.35077715 0.15889905 1.5740001
0.35377526 0.15889905 1.5740001
0.35677335 0.15889905 1.5740001
0.35977143 0.15889905 1.5740001
0.36276954 0.15889905 1.5740001
0.36576763 0.15889905 1.5740001
0.36876574 0.15889905 1.5740001
-0.31144002 0.16488001 1.603
-0.30838668 0.16488001 1.603
-0.30533335 0.16488001 1.603
-0.30228001 0.16488001 1.603
-0.29922667 0.16488001 1.603
-0.29488 0.16416001 1.5960001
-0.29184002 0.16416001 1.5960001
-0.2888 0.16416001 1.5960001
-0.28576002 0.16416001 1.5960001
-0.28148001 0.16344 1.5890001
-0.27968001 0.16416001 1.5960001
-0.27542669 0.16344 1.5890001
-0.27240002 0.16344 1.5890001
-0.26937336 0.16344 1.5890001
-0.26634666 0.16344 1.5890001
-0.26448002 0.16416001 1.5960001
-0.26029333 0.16344 1.5890001
-0.25726667 0.16344 1.5890001
-0.25424001 0.16344 1.5890001
-0.25121334 0.16344 1.5890001
-0.24818668 0.16344 1.5890001
-0.24516001 0.16344 1.5890001
-0.24213335 0.16344 1.5890001
-0.23910667 0.16344 1.5890001
-0.23608001 0.16344 1.5890001
-0.23408 0.16416001 1.5960001
-0.23104002 0.16416001 1.5960001
-0.22800002 0.16416001 1.5960001
-0.22594668 0.16488001 1.603
-0.22400573 0.16570286 1.6110001
-0.22093715 0.16570286 1.6110001
-0.21881525 0.16642286 1.618
-0.21786667 0.16806857 1.6340001
-0.2147543 0.16806857 1.6340001
-0.21164191 0.16806857 1.6340001
-0.20852953 0.16806857 1.6340001
-0.21660572 0.17722286 1.723
-0.21332382 0.17722286 1.723
-0.21004191 0.17722286 1.723
-0.21108001 0.18092573 1.7590001
-0.21198095 0.18462858 1.7950001
-0.20960763 0.1855543 1.8040001
-0.20845716 0.18761143 1.8240001
-0.20711811 0.18956572 1.8430001
-0.20360763 0.18956572 1.8430001
-0.2033543 0.19265144 1.8730001
-0.20085335 0.19368 1.8830001
-0.19621906 0.19265144 1.8730001
-0.19368 0.19368 1.8830001
-0.19120382 0.19481143 1.8940001
-0.18858667 0.19584 1.904
-0.18602858 0.19697143 1.9150001
-0.18238096 0.19697143 1.9150001
-0.17966667 0.19800001 1.9250001
-0.176 0.19800001 1.9250001
-0.1733181 0.19913143 1.9360001
-0.16963048 0.19913143 1.9360001
-0.16688572 0.20026286 1.9470001
-0.16409905 0.20139429 1.9580001
-0.16036953 0.20139429 1.9580001
-0.15664001 0.20139429 1.9580001
-0.15376952 0.20252572 1.9690001
-0.15001905 0.20252572 1.9690001
-0.14708573 0.20365715 1.9800001
-0.14418286 0.20489144 1.9920001
-0.14038858 0.20489144 1.9920001
-0.13734858 0.20602286 2.003
-0.13353334 0.20602286 2.003
-0.1297181 0.20602286 2.003
-0.12590286 0.20602286 2.003
-0.12208762 0.20602286 2.003
-0.11827239 0.20602286 2.003
-0.11445715 0.20602286 2.003
-0.11064191 0.20602286 2.003
-0.10746667 0.20725715 2.0150001
-0.10362858 0.20725715 2.0150001
-0.10097905 0.20972572 2.039
-0.097095244 0.20972572 2.039
-0.093211435 0.20972572 2.039
-0.089853339 0.21096 2.0510001
-0.085946672 0.21096 2.0510001
-0.082040004 0.21096 2.0510001
-0.078133337 0.21096 2.0510001
-0.07422667 0.21096 2.0510001
-0.070320003 0.21096 2.0510001
-0.066413336 0.21096 2.0510001
-0.062140957 0.20972572 2.039
-0.058257144 0.20972572 2.039
-0.054373335 0.20972572 2.039
-0.050489526 0.20972572 2.039
-0.046605717 0.20972572 2.039
-0.042721905 0.20972572 2.039
-0.039066669 0.21096 2.0510001
-0.035160001 0.21096 2.0510001
-0.031253334 0.21096 2.0510001
-0.027186668 0.20972572 2.039
-0.023302859 0.20972572 2.039
-0.019419048 0.20972572 2.039
-0.015535239 0.20972572 2.039
-0.011651429 0.20972572 2.039
-0.0077676196 0.20972572 2.039
-0.0038838098 0.20972572 2.039
0 0.20972572 2.039
0.0039066668 0.21096 2.0510001
0.0077676196 0.20972572 2.039
0.011651429 0.20972572 2.039
0.015535239 0.20972572 2.039
0.019419048 0.20972572 2.039
0.023302859 0.20972572 2.039
0.027186668 0.20972572 2.039
0.031070478 0.20972572 2.039
0.034954287 0.20972572 2.039
0.038838096 0.20972572 2.039
0.042721905 0.20972572 2.039
0.046605717 0.20972572 2.039
0.050489526 0.20972572 2.039
0.054373335 0.20972572 2.039
0.058257144 0.20972572 2.039
0.062140957 0.20972572 2.039
0.066024765 0.20972572 2.039
0.069908574 0.20972572 2.039
0.073792383 0.20972572 2.039
0.077676192 0.20972572 2.039
0.081560001 0.20972572 2.039
0.08544381 0.20972572 2.039
0.089853339 0.21096 2.0510001
0.093760006 0.21096 2.0510001
0.097666673 0.21096 2.0510001
0.10157334 0.21096 2.0510001
0.10486286 0.20972572 2.039
0.10682667 0.20602286 2.003
0.11003429 0.20489144 1.9920001
0.11445715 0.20602286 2.003
0.11762286 0.20489144 1.9920001
0.11172572 0.18853715 1.8330001
0.11521715 0.18853715 1.8330001
0.11870857 0.18853715 1.8330001
0.1222 0.18853715 1.8330001
0.13734858 0.20602286 2.003
0.14116381 0.20602286 2.003
0.14497906 0.20602286 2.003
0.14879429 0.20602286 2.003
0.15352382 0.20725715 2.0150001
0.15736191 0.20725715 2.0150001
0.1612 0.20725715 2.0150001
0.16405524 0.20602286 2.003
0.1688762 0.20725715 2.0150001
0.17168573 0.20602286 2.003
0.17550096 0.20602286 2.003
0.17931619 0.20602286 2.003
0.18212572 0.20489144 1.9920001
0.18592 0.20489144 1.9920001
0.18857144 0.20365715 1.9800001
0.19234286 0.20365715 1.9800001
0.19611429 0.20365715 1.9800001
0.19988573 0.20365715 1.9800001
0.20365715 0.20365715 1.9800001
0.20742857 0.20365715 1.9800001
0.21120001 0.20365715 1.9800001
0.21497144 0.20365715 1.9800001
0.21874286 0.20365715 1.9800001
0.22251429 0.20365715 1.9800001
0.22502857 0.20252572 1.9690001
0.22750096 0.20139429 1.9580001
0.23123048 0.20139429 1.9580001
0.23364002 0.20026286 1.9470001
0.23734859 0.20026286 1.9470001
0.24105716 0.20026286 1.9470001
0.24338287 0.19913143 1.9360001
0.24707049 0.19913143 1.9360001
0.25075811 0.19913143 1.9360001
0.25168571 0.19697143 1.9150001
0.25386667 0.19584 1.904
0.25614095 0.19481143 1.8940001
0.25824001 0.19368 1.8830001
0.26182666 0.19368 1.8830001
0.26400381 0.19265144 1.8730001
0.26614287 0.19162287 1.863
0.26969144 0.19162287 1.863
0.27177334 0.19059429 1.853
0.27233145 0.18853715 1.8330001
0.27296382 0.18658286 1.8140001
0.27489525 0.1855543 1.8040001
0.27833143 0.1855543 1.8040001
0.2789562 0.18370287 1.7860001
0.28093526 0.18277715 1.7770001
0.28432 0.18277715 1.7770001
0.28333333 0.18000001 1.7500001
0.27274287 0.17125715 1.6650001
0.27591428 0.17125715 1.6650001
0.27640381 0.16961144 1.649
0.27818859 0.16878858 1.641
0.27737144 0.16642286 1.618
0.27924001 0.16570286 1.6110001
0.28090668 0.16488001 1.603
0.28272 0.16416001 1.5960001
0.28450668 0.16344 1.5890001
0.28753334 0.16344 1.5890001
0.29056001 0.16344 1.5890001
0.29358667 0.16344 1.5890001
0.29661334 0.16344 1.5890001
0.29813144 0.16261715 1.5810001
0.30114287 0.16261715 1.5810001
0.30415431 0.16261715 1.5810001
0.30716571 0.16261715 1.5810001
0.31017715 0.16261715 1.5810001
0.31318858 0.16261715 1.5810001
0.31620002 0.16261715 1.5810001
0.31921145 0.16261715 1.5810001
0.32222286 0.16261715 1.5810001
0.32379431 0.16189715 1.5740001
0.32679239 0.16189715 1.5740001
0.3297905 0.16189715 1.5740001
0.33130857 0.16117714 1.567
0.33429334 0.16117714 1.567
0.3372781 0.16117714 1.567
0.34026286 0.16117714 1.567
0.34478095 0.16189715 1.5740001
0.34777907 0.16189715 1.5740001
0.35077715 0.16189715 1.5740001
0.35377526 0.16189715 1.5740001
0.35677335 0.16189715 1.5740001
0.35977143 0.16189715 1.5740001
0.36276954 0.16189715 1.5740001
0.36576763 0.16189715 1.5740001
0.36876574 0.16189715 1.5740001
-0.31144002 0.16793334 1.603
-0.30838668 0.16793334 1.603
-0.30533335 0.16793334 1.603
-0.30228001 0.16793334 1.603
-0.29922667 0.16793334 1.603
-0.29488 0.1672 1.5960001
-0.29184002 0.1672 1.5960001
-0.2888 0.1672 1.5960001
-0.28450668 0.16646667 1.5890001
-0.28148001 0.16646667 1.5890001
-0.27845335 0.16646667 1.5890001
-0.27542669 0.16646667 1.5890001
-0.27240002 0.16646667 1.5890001
-0.26937336 0.16646667 1.5890001
-0.26752001 0.1672 1.5960001
-0.26448002 0.1672 1.5960001
-0.26144001 0.1672 1.5960001
-0.25726667 0.16646667 1.5890001
-0.25424001 0.16646667 1.5890001
-0.25232002 0.1672 1.5960001
-0.24928001 0.1672 1.5960001
-0.24516001 0.16646667 1.5890001
-0.24213335 0.16646667 1.5890001
-0.23910667 0.16646667 1.5890001
-0.23608001 0.16646667 1.5890001
-0.23408 0.1672 1.5960001
-0.23104002 0.1672 1.5960001
-0.22800002 0.1672 1.5960001
-0.22594668 0.16793334 1.603
-0.22289334 0.16793334 1.603
-0.22093715 0.16877143 1.6110001
-0.21881525 0.16950476 1.618
-0.21786667 0.17118096 1.6340001
-0.2147543 0.17118096 1.6340001
-0.21164191 0.17118096 1.6340001
-0.20942287 0.17191429 1.641
-0.20629714 0.17191429 1.641
-0.20317143 0.17191429 1.641
-0.21443048 0.18427619 1.7590001
-0.21108001 0.18427619 1.7590001
-0.20985524 0.18616191 1.7770001
-0.20647049 0.18616191 1.7770001
-0.20845716 0.19108573 1.8240001
-0.20711811 0.19307619 1.8430001
-0.20360763 0.19307619 1.8430001
-0.2033543 0.19621906 1.8730001
-0.20085335 0.19726667 1.8830001
-0.19726667 0.19726667 1.8830001
-0.19481143 0.19841905 1.8940001
-0.19120382 0.19841905 1.8940001
-0.1896762 0.20061906 1.9150001
-0.18602858 0.20061906 1.9150001
-0.18333334 0.20166667 1.9250001
-0.17966667 0.20166667 1.9250001
-0.176 0.20166667 1.9250001
-0.17233334 0.20166667 1.9250001
-0.16963048 0.20281905 1.9360001
-0.16594286 0.20281905 1.9360001
-0.16409905 0.20512381 1.9580001
-0.16036953 0.20512381 1.9580001
-0.15664001 0.20512381 1.9580001
-0.15462857 0.20742857 1.9800001
-0.15085715 0.20742857 1.9800001
-0.14626858 0.20627619 1.9690001
-0.14418286 0.20868573 1.9920001
-0.14038858 0.20868573 1.9920001
-0.13734858 0.20983811 2.003
-0.13353334 0.20983811 2.003
-0.1297181 0.20983811 2.003
-0.12590286 0.20983811 2.003
-0.12208762 0.20983811 2.003
-0.11827239 0.20983811 2.003
-0.11445715 0.20983811 2.003
-0.11064191 0.20983811 2.003
-0.10746667 0.21109524 2.0150001
-0.10362858 0.21109524 2.0150001
-0.10038476 0.2123524 2.0270002
-0.097095244 0.21360953 2.039
-0.093760006 0.21486667 2.0510001
-0.089853339 0.21486667 2.0510001
-0.085946672 0.21486667 2.0510001
-0.082040004 0.21486667 2.0510001
-0.078133337 0.21486667 2.0510001
-0.07422667 0.21486667 2.0510001
-0.070320003 0.21486667 2.0510001
-0.066413336 0.21486667 2.0510001
-0.062506668 0.21486667 2.0510001
-0.058600001 0.21486667 2.0510001
-0.054373335 0.21360953 2.039
-0.050489526 0.21360953 2.039
-0.046605717 0.21360953 2.039
-0.042721905 0.21360953 2.039
-0.039066669 0.21486667 2.0510001
-0.035160001 0.21486667 2.0510001
-0.031070478 0.21360953 2.039
-0.027186668 0.21360953 2.039
-0.023302859 0.21360953 2.039
-0.019419048 0.21360953 2.039
-0.015535239 0.21360953 2.039
-0.011651429 0.21360953 2.039
-0.0077676196 0.21360953 2.039
-0.0038838098 0.21360953 2.039
0 0.21360953 2.039
0.0039066668 0.21486667 2.0510001
0.0077676196 0.21360953 2.039
0.011651429 0.21360953 2.039
0.015535239 0.21360953 2.039
0.019419048 0.21360953 2.039
0.023302859 0.21360953 2.039
0.027186668 0.21360953 2.039
0.031070478 0.21360953 2.039
0.035160001 0.21486667 2.0510001
0.039066669 0.21486667 2.0510001
0.042973336 0.21486667 2.0510001
0.042811431 0.19621906 1.8730001
0.045636192 0.19307619 1.8430001
0.049146667 0.19307619 1.8430001
0.052657146 0.19307619 1.8430001
0.055862859 0.19202858 1.8330001
0.059354287 0.19202858 1.8330001
0.063874289 0.19517143 1.863
0.067422859 0.19517143 1.863
0.070971429 0.19517143 1.863
0.074519999 0.19517143 1.863
0.08544381 0.21360953 2.039
0.089853339 0.21486667 2.0510001
0.093760006 0.21486667 2.0510001
0.097666673 0.21486667 2.0510001
0.10157334 0.21486667 2.0510001
0.094782859 0.19307619 1.8430001
0.097760007 0.19202858 1.8330001
0.10125143 0.19202858 1.8330001
0.10474286 0.19202858 1.8330001
0.10823429 0.19202858 1.8330001
0.11172572 0.19202858 1.8330001
0.11521715 0.19202858 1.8330001
0.11870857 0.19202858 1.8330001
0.1222 0.19202858 1.8330001
0.13734858 0.20983811 2.003
0.14116381 0.20983811 2.003
0.14418286 0.20868573 1.9920001
0.14797714 0.20868573 1.9920001
0.15260953 0.20983811 2.003
0.15642476 0.20983811 2.003
0.1612 0.21109524 2.0150001
0.16405524 0.20983811 2.003
0.16787048 0.20983811 2.003
0.17168573 0.20983811 2.003
0.17550096 0.20983811 2.003
0.17833143 0.20868573 1.9920001
0.18212572 0.20868573 1.9920001
0.18592 0.20868573 1.9920001
0.18857144 0.20742857 1.9800001
0.19234286 0.20742857 1.9800001
0.19611429 0.20742857 1.9800001
0.19988573 0.20742857 1.9800001
0.20365715 0.20742857 1.9800001
0.20742857 0.20742857 1.9800001
0.21120001 0.20742857 1.9800001
0.21497144 0.20742857 1.9800001
0.21874286 0.20742857 1.9800001
0.22251429 0.20742857 1.9800001
0.22502857 0.20627619 1.9690001
0.22750096 0.20512381 1.9580001
0.22993144 0.20397143 1.9470001
0.23364002 0.20397143 1.9470001
0.23734859 0.20397143 1.9470001
0.23969525 0.20281905 1.9360001
0.24338287 0.20281905 1.9360001
0.24707049 0.20281905 1.9360001
0.24933334 0.20166667 1.9250001
0.25300002 0.20166667 1.9250001
0.25386667 0.19946668 1.904
0.25749335 0.19946668 1.904
0.25974858 0.19841905 1.8940001
0.26335621 0.19841905 1.8940001
0.26400381 0.19621906 1.8730001
0.26614287 0.19517143 1.863
0.26969144 0.19517143 1.863
0.27177334 0.19412382 1.853
0.27099431 0.19108573 1.8240001
0.27296382 0.1900381 1.8140001
0.27489525 0.18899049 1.8040001
0.27694288 0.18804763 1.7950001
0.2789562 0.18710476 1.7860001
0.27951241 0.18521905 1.7680001
0.28288001 0.18521905 1.7680001
0.28333333 0.18333334 1.7500001
0.2714324 0.17359048 1.6570001
0.27458858 0.17359048 1.6570001
0.27640381 0.17275238 1.649
0.27700192 0.17118096 1.6340001
0.27737144 0.16950476 1.618
0.27924001 0.16877143 1.6110001
0.28090668 0.16793334 1.603
0.28272 0.1672 1.5960001
0.28576002 0.1672 1.5960001
0.28753334 0.16646667 1.5890001
0.29056001 0.16646667 1.5890001
0.29358667 0.16646667 1.5890001
0.29512 0.16562858 1.5810001
0.29813144 0.16562858 1.5810001
0.30114287 0.16562858 1.5810001
0.30415431 0.16562858 1.5810001
0.30716571 0.16562858 1.5810001
0.31017715 0.16562858 1.5810001
0.31318858 0.16562858 1.5810001
0.31620002 0.16562858 1.5810001
0.31921145 0.16562858 1.5810001
0.32222286 0.16562858 1.5810001
0.32379431 0.16489525 1.5740001
0.32679239 0.16489525 1.5740001
0.3297905 0.16489525 1.5740001
0.33278859 0.16489525 1.5740001
0.33578667 0.16489525 1.5740001
0.3372781 0.16416191 1.567
0.34026286 0.16416191 1.567
0.34324762 0.16416191 1.567
0.34777907 0.16489525 1.5740001
0.35077715 0.16489525 1.5740001
0.35377526 0.16489525 1.5740001
0.35677335 0.16489525 1.5740001
0.35977143 0.16489525 1.5740001
0.36276954 0.16489525 1.5740001
0.36576763 0.16489525 1.5740001
0.36876574 0.16489525 1.5740001
-0.30838668 0.17098667 1.603
-0.30685717 0.17184001 1.6110001
-0.30228001 0.17098667 1.603
-0.29922667 0.17098667 1.603
-0.29617333 0.17098667 1.603
-0.29312 0.17098667 1.603
-0.2888 0.17024 1.5960001
-0.28576002 0.17024 1.5960001
-0.28148001 0.16949333 1.5890001
-0.27845335 0.16949333 1.5890001
-0.27542669 0.16949333 1.5890001
-0.27240002 0.16949333 1.5890001
-0.26937336 0.16949333 1.5890001
-0.26634666 0.16949333 1.5890001
-0.26448002 0.17024 1.5960001
-0.26144001 0.17024 1.5960001
-0.25726667 0.16949333 1.5890001
-0.25536001 0.17024 1.5960001
-0.25232002 0.17024 1.5960001
-0.24928001 0.17024 1.5960001
-0.24624 0.17024 1.5960001
-0.2432 0.17024 1.5960001
-0.23910667 0.16949333 1.5890001
-0.23608001 0.16949333 1.5890001
-0.23408 0.17024 1.5960001
-0.23104002 0.17024 1.5960001
-0.229 0.17098667 1.603
-0.22594668 0.17098667 1.603
-0.22400573 0.17184001 1.6110001
-0.22093715 0.17184001 1.6110001
-0.21881525 0.17258668 1.618
-0.21786667 0.17429334 1.6340001
-0.2147543 0.17429334 1.6340001
-0.21164191 0.17429334 1.6340001
-0.20942287 0.17504001 1.641
-0.20629714 0.17504001 1.641
-0.20515239 0.17674667 1.6570001
-0.20199619 0.17674667 1.6570001
-0.21216001 0.18858667 1.7680001
-0.20879239 0.18858667 1.7680001
-0.21413906 0.19658667 1.8430001
-0.20948572 0.19552001 1.8330001
-0.20711811 0.19658667 1.8430001
-0.20360763 0.19658667 1.8430001
-0.2033543 0.19978668 1.8730001
-0.20085335 0.20085335 1.8830001
-0.19726667 0.20085335 1.8830001
-0.19481143 0.20202668 1.8940001
-0.19221334 0.20309334 1.904
-0.1896762 0.20426667 1.9150001
-0.18602858 0.20426667 1.9150001
-0.18333334 0.20533334 1.9250001
-0.17966667 0.20533334 1.9250001
-0.176 0.20533334 1.9250001
-0.17233334 0.20533334 1.9250001
-0.16963048 0.20650667 1.9360001
-0.16688572 0.20768 1.9470001
-0.16409905 0.20885333 1.9580001
-0.16036953 0.20885333 1.9580001
-0.15664001 0.20885333 1.9580001
-0.15376952 0.21002668 1.9690001
-0.15001905 0.21002668 1.9690001
-0.14708573 0.21120001 1.9800001
-0.1425181 0.21002668 1.9690001
-0.13876763 0.21002668 1.9690001
-0.1365943 0.21248001 1.9920001
-0.1328 0.21248001 1.9920001
-0.1297181 0.21365334 2.003
-0.12521143 0.21248001 1.9920001
-0.12141715 0.21248001 1.9920001
-0.11762286 0.21248001 1.9920001
-0.11382858 0.21248001 1.9920001
-0.11003429 0.21248001 1.9920001
-0.10682667 0.21365334 2.003
-0.10301143 0.21365334 2.003
-0.099790476 0.21493334 2.0150001
-0.096523814 0.21621335 2.0270002
-0.093760006 0.21877334 2.0510001
-0.089853339 0.21877334 2.0510001
-0.085946672 0.21877334 2.0510001
-0.082520001 0.22005334 2.0630002
-0.078133337 0.21877334 2.0510001
-0.07422667 0.21877334 2.0510001
-0.070731431 0.22005334 2.0630002
-0.066413336 0.21877334 2.0510001
-0.062506668 0.21877334 2.0510001
-0.052657146 0.19658667 1.8430001
-0.049146667 0.19658667 1.8430001
-0.045636192 0.19658667 1.8430001
-0.042125717 0.19658667 1.8430001
-0.038405716 0.19552001 1.8330001
-0.034914289 0.19552001 1.8330001
-0.034954287 0.21749334 2.039
-0.031070478 0.21749334 2.039
-0.027186668 0.21749334 2.039
-0.023302859 0.21749334 2.039
-0.019419048 0.21749334 2.039
0 0.21749334 2.039
0.0039066668 0.21877334 2.0510001
0.0077676196 0.21749334 2.039
0.011651429 0.21749334 2.039
0.015626667 0.21877334 2.0510001
0.019419048 0.21749334 2.039
0.023302859 0.21749334 2.039
0.027186668 0.21749334 2.039
0.031070478 0.21749334 2.039
0.035160001 0.21877334 2.0510001
0.035104763 0.19658667 1.8430001
0.038615238 0.19658667 1.8430001
0.042811431 0.19978668 1.8730001
0.046379048 0.19978668 1.8730001
0.049413335 0.19765334 1.853
0.052657146 0.19658667 1.8430001
0.056167621 0.19658667 1.8430001
0.059678096 0.19658667 1.8430001
0.063874289 0.19872001 1.863
0.067422859 0.19872001 1.863
0.070590481 0.19765334 1.853
0.07412 0.19765334 1.853
0.092262864 0.19872001 1.863
0.094782859 0.19658667 1.8430001
0.097760007 0.19552001 1.8330001
0.10125143 0.19552001 1.8330001
0.10474286 0.19552001 1.8330001
0.10823429 0.19552001 1.8330001
0.11172572 0.19552001 1.8330001
0.11521715 0.19552001 1.8330001
0.11870857 0.19552001 1.8330001
0.1222 0.19552001 1.8330001
0.12569143 0.19552001 1.8330001
0.12918286 0.19552001 1.8330001
0.13267429 0.19552001 1.8330001
0.13616572 0.19552001 1.8330001
0.15260953 0.21365334 2.003
0.15642476 0.21365334 2.003
0.16024001 0.21365334 2.003
0.16405524 0.21365334 2.003
0.16787048 0.21365334 2.003
0.17168573 0.21365334 2.003
0.17550096 0.21365334 2.003
0.17833143 0.21248001 1.9920001
0.18212572 0.21248001 1.9920001
0.18592 0.21248001 1.9920001
0.1864762 0.20885333 1.9580001
0.19127429 0.21002668 1.9690001
0.19611429 0.21120001 1.9800001
