# .PCD v0.7 - Point Cloud Data file format
VERSION 0.7
FIELDS x y z
SIZE 4 4 4
TYPE F F F
COUNT 1 1 1
WIDTH 1477
HEIGHT 1
VIEWPOINT 0 0 0 1 0 0 0
POINTS 1477
DATA ascii
0.026382858 0.029314287 1.539
0.029314287 0.029314287 1.539
0.032392383 0.029447621 1.5460001
0.035337143 0.029447621 1.5460001
0.03845524 0.029580953 1.5530001
0.041226666 0.029447621 1.5460001
0.04437143 0.029580953 1.5530001
0.047542859 0.029714286 1.5600001
0.050514288 0.029714286 1.5600001
0.053485718 0.029714286 1.5600001
0.056457143 0.029714286 1.5600001
0.059428573 0.029714286 1.5600001
0.062400002 0.029714286 1.5600001
0.065371431 0.029714286 1.5600001
0.068342857 0.029714286 1.5600001
0.071634285 0.02984762 1.567
0.074619047 0.02984762 1.567
0.07760381 0.02984762 1.567
0.080588572 0.02984762 1.567
0.083573334 0.02984762 1.567
0.086558096 0.02984762 1.567
0.089542858 0.02984762 1.567
0.09252762 0.02984762 1.567
0.095512383 0.02984762 1.567
0.098497145 0.02984762 1.567
0.10148191 0.02984762 1.567
0.10493334 0.029980954 1.5740001
0.10793144 0.029980954 1.5740001
0.11092953 0.029980954 1.5740001
0.11443429 0.030114288 1.5810001
0.11744572 0.030114288 1.5810001
0.12106667 0.030266669 1.5890001
0.12409334 0.030266669 1.5890001
0.12712 0.030266669 1.5890001
0.13014667 0.030266669 1.5890001
0.13317333 0.030266669 1.5890001
0.13620001 0.030266669 1.5890001
0.13922668 0.030266669 1.5890001
0.14225334 0.030266669 1.5890001
0.14454858 0.030114288 1.5810001
0.14830667 0.030266669 1.5890001
0.15133333 0.030266669 1.5890001
0.15436001 0.030266669 1.5890001
0.15808001 0.030400001 1.5960001
0.16112001 0.030400001 1.5960001
0.16416001 0.030400001 1.5960001
0.16793334 0.030533334 1.603
0.17098667 0.030533334 1.603
0.17404 0.030533334 1.603
0.17709334 0.030533334 1.603
0.18014668 0.030533334 1.603
0.18411429 0.030685715 1.6110001
0.18718286 0.030685715 1.6110001
0.19025144 0.030685715 1.6110001
0.19332001 0.030685715 1.6110001
0.19638857 0.030685715 1.6110001
0.19945715 0.030685715 1.6110001
0.20340572 0.030819049 1.618
0.20648763 0.030819049 1.618
0.20956953 0.030819049 1.618
0.21265143 0.030819049 1.618
0.21573333 0.030819049 1.618
0.21881525 0.030819049 1.618
0.22189716 0.030819049 1.618
0.22497906 0.030819049 1.618
0.22918858 0.03097143 1.626
0.23228572 0.03097143 1.626
0.23538287 0.03097143 1.626
0.23965335 0.031123811 1.6340001
0.24380572 0.031257145 1.641
0.24693143 0.031257145 1.641
0.25005716 0.031257145 1.641
0.25441715 0.031409524 1.649
0.25755811 0.031409524 1.649
0.26069906 0.031409524 1.649
0.26384002 0.031409524 1.649
0.26698098 0.031409524 1.649
0.2701219 0.031409524 1.649
0.27458858 0.031561907 1.6570001
0.27774477 0.031561907 1.6570001
0.28090096 0.031561907 1.6570001
0.28405714 0.031561907 1.6570001
0.2886 0.031714287 1.6650001
0.29177144 0.031714287 1.6650001
0.29494286 0.031714287 1.6650001
0.2981143 0.031714287 1.6650001
0.30273333 0.03186667 1.6730001
0.30592 0.03186667 1.6730001
0.30910668 0.03186667 1.6730001
0.31378669 0.032019049 1.6810001
0.31698859 0.032019049 1.6810001
0.32019049 0.032019049 1.6810001
0.32512382 0.032190476 1.6900001
0.32834285 0.032190476 1.6900001
0.33313143 0.032342859 1.6980001
0.3379505 0.032495238 1.7060001
0.34120002 0.032495238 1.7060001
0.34444955 0.032495238 1.7060001
0.34953335 0.032666668 1.715
0.35280001 0.032666668 1.715
0.35606667 0.032666668 1.715
0.36100954 0.032819048 1.723
0.36429143 0.032819048 1.723
0.36757335 0.032819048 1.723
0.37279239 0.032990478 1.7320001
0.38000003 0.033333335 1.7500001
0.38333336 0.033333335 1.7500001
0.38865525 0.033504762 1.7590001
0.39601716 0.033847619 1.7770001
0.40142477 0.034019049 1.7860001
0.40482667 0.034019049 1.7860001
0.41028574 0.034190476 1.7950001
0.41370478 0.034190476 1.7950001
-0.31214857 0.044020955 2.1010001
-0.30624002 0.043748572 2.0880001
-0.30052572 0.043497145 2.0760002
-0.29657143 0.043497145 2.0760002
-0.29078478 0.043224763 2.0630002
-0.28866288 0.043497145 2.0760002
-0.28470859 0.043497145 2.0760002
-0.2807543 0.043497145 2.0760002
-0.27506667 0.043224763 2.0630002
-0.27113715 0.043224763 2.0630002
-0.26889142 0.043497145 2.0760002
-0.26493716 0.043497145 2.0760002
-0.26098287 0.043497145 2.0760002
-0.25541905 0.043224763 2.0630002
-0.25148952 0.043224763 2.0630002
-0.24756001 0.043224763 2.0630002
-0.24363048 0.043224763 2.0630002
-0.23970096 0.043224763 2.0630002
-0.23725715 0.043497145 2.0760002
-0.23330286 0.043497145 2.0760002
-0.22934859 0.043497145 2.0760002
-0.22539429 0.043497145 2.0760002
-0.22144 0.043497145 2.0760002
-0.21874286 0.043748572 2.0880001
-0.21353143 0.043497145 2.0760002
-0.20957714 0.043497145 2.0760002
-0.20562287 0.043497145 2.0760002
-0.20283429 0.043748572 2.0880001
-0.19885714 0.043748572 2.0880001
-0.19488001 0.043748572 2.0880001
-0.19209144 0.044020955 2.1010001
-0.18808953 0.044020955 2.1010001
-0.18408762 0.044020955 2.1010001
-0.18008572 0.044020955 2.1010001
-0.17608382 0.044020955 2.1010001
-0.17208192 0.044020955 2.1010001
-0.16808 0.044020955 2.1010001
-0.16509333 0.044293337 2.1140001
-0.16106667 0.044293337 2.1140001
-0.15704 0.044293337 2.1140001
-0.15301333 0.044293337 2.1140001
-0.14898667 0.044293337 2.1140001
-0.14496 0.044293337 2.1140001
-0.14093333 0.044293337 2.1140001
-0.13690667 0.044293337 2.1140001
-0.13288 0.044293337 2.1140001
-0.09636572 0.033125717 1.5810001
-0.093354292 0.033125717 1.5810001
-0.090342857 0.033125717 1.5810001
-0.087331429 0.033125717 1.5810001
-0.083946668 0.032979049 1.5740001
-0.080948576 0.032979049 1.5740001
-0.07760381 0.03283238 1.567
-0.074619047 0.03283238 1.567
-0.07131429 0.032685716 1.5600001
-0.067729525 0.032392383 1.5460001
-0.064491428 0.032245714 1.539
-0.061560001 0.032245714 1.539
-0.058628574 0.032245714 1.539
-0.055443812 0.03209905 1.5320001
-0.052525718 0.03209905 1.5320001
-0.049380954 0.031952381 1.5250001
-0.046476193 0.031952381 1.5250001
-0.043571431 0.031952381 1.5250001
-0.04066667 0.031952381 1.5250001
-0.037761904 0.031952381 1.5250001
-0.034857143 0.031952381 1.5250001
-0.031952381 0.031952381 1.5250001
-0.02904762 0.031952381 1.5250001
-0.026142858 0.031952381 1.5250001
-0.023344763 0.03209905 1.5320001
-0.020333335 0.031952381 1.5250001
-0.017508572 0.03209905 1.5320001
-0.014590477 0.03209905 1.5320001
-0.011672381 0.03209905 1.5320001
-0.008754286 0.03209905 1.5320001
-0.0058361907 0.03209905 1.5320001
-0.0029180953 0.03209905 1.5320001
0 0.03209905 1.5320001
0.0029180953 0.03209905 1.5320001
0.0058628572 0.032245714 1.539
0.0087942863 0.032245714 1.539
0.011725714 0.032245714 1.539
0.014657144 0.032245714 1.539
0.017588573 0.032245714 1.539
0.020520002 0.032245714 1.539
0.023451429 0.032245714 1.539
0.026382858 0.032245714 1.539
0.029447621 0.032392383 1.5460001
0.032392383 0.032392383 1.5460001
0.035337143 0.032392383 1.5460001
0.03845524 0.032539047 1.5530001
0.041226666 0.032392383 1.5460001
0.04437143 0.032539047 1.5530001
0.047542859 0.032685716 1.5600001
0.050514288 0.032685716 1.5600001
0.053245716 0.032539047 1.5530001
0.056457143 0.032685716 1.5600001
0.059428573 0.032685716 1.5600001
0.062400002 0.032685716 1.5600001
0.065371431 0.032685716 1.5600001
0.068342857 0.032685716 1.5600001
0.07131429 0.032685716 1.5600001
0.074619047 0.03283238 1.567
0.07760381 0.03283238 1.567
0.080588572 0.03283238 1.567
0.083573334 0.03283238 1.567
0.086558096 0.03283238 1.567
0.089542858 0.03283238 1.567
0.09252762 0.03283238 1.567
0.095512383 0.03283238 1.567
0.098497145 0.03283238 1.567
0.10148191 0.03283238 1.567
0.10493334 0.032979049 1.5740001
0.10841143 0.033125717 1.5810001
0.11142286 0.033125717 1.5810001
0.11501334 0.033293333 1.5890001
0.11804 0.033293333 1.5890001
0.12106667 0.033293333 1.5890001
0.12409334 0.033293333 1.5890001
0.12712 0.033293333 1.5890001
0.13014667 0.033293333 1.5890001
0.13317333 0.033293333 1.5890001
0.13620001 0.033293333 1.5890001
0.13922668 0.033293333 1.5890001
0.14225334 0.033293333 1.5890001
0.14454858 0.033125717 1.5810001
0.14756 0.033125717 1.5810001
0.15133333 0.033293333 1.5890001
0.15436001 0.033293333 1.5890001
0.15808001 0.033440001 1.5960001
0.16112001 0.033440001 1.5960001
0.16416001 0.033440001 1.5960001
0.16793334 0.03358667 1.603
0.17098667 0.03358667 1.603
0.17404 0.03358667 1.603
0.17709334 0.03358667 1.603
0.18104573 0.033754285 1.6110001
0.18411429 0.033754285 1.6110001
0.18718286 0.033754285 1.6110001
0.19025144 0.033754285 1.6110001
0.19332001 0.033754285 1.6110001
0.19638857 0.033754285 1.6110001
0.19945715 0.033754285 1.6110001
0.20340572 0.033900954 1.618
0.20648763 0.033900954 1.618
0.20956953 0.033900954 1.618
0.21265143 0.033900954 1.618
0.21573333 0.033900954 1.618
0.21881525 0.033900954 1.618
0.22189716 0.033900954 1.618
0.22609143 0.034068573 1.626
0.22918858 0.034068573 1.626
0.23228572 0.034068573 1.626
0.23654096 0.034236193 1.6340001
0.23965335 0.034236193 1.6340001
0.24380572 0.034382857 1.641
0.24693143 0.034382857 1.641
0.25005716 0.034382857 1.641
0.25441715 0.034550477 1.649
0.25755811 0.034550477 1.649
0.26069906 0.034550477 1.649
0.26384002 0.034550477 1.649
0.26698098 0.034550477 1.649
0.2701219 0.034550477 1.649
0.27458858 0.034718096 1.6570001
0.27774477 0.034718096 1.6570001
0.28090096 0.034718096 1.6570001
0.28405714 0.034718096 1.6570001
0.2886 0.034885716 1.6650001
0.29177144 0.034885716 1.6650001
0.29494286 0.034885716 1.6650001
0.2981143 0.034885716 1.6650001
0.30273333 0.035053335 1.6730001
0.30592 0.035053335 1.6730001
0.30910668 0.035053335 1.6730001
0.31229335 0.035053335 1.6730001
0.31698859 0.035220955 1.6810001
0.32019049 0.035220955 1.6810001
0.32512382 0.035409525 1.6900001
0.32834285 0.035409525 1.6900001
0.33313143 0.035577144 1.6980001
0.3379505 0.035744764 1.7060001
0.34120002 0.035744764 1.7060001
0.34444955 0.035744764 1.7060001
0.34769905 0.035744764 1.7060001
0.35280001 0.035933334 1.715
0.35606667 0.035933334 1.715
0.36100954 0.036100954 1.723
0.36429143 0.036100954 1.723
0.36757335 0.036100954 1.723
0.37279239 0.036289524 1.7320001
0.37804574 0.036478095 1.7410001
0.38333336 0.036666669 1.7500001
0.38865525 0.036855239 1.7590001
0.39601716 0.037232384 1.7770001
0.40344763 0.037609525 1.7950001
0.40482667 0.037420955 1.7860001
0.41028574 0.037609525 1.7950001
0.41808382 0.038007621 1.8140001
0.42153907 0.038007621 1.8140001
0.42733717 0.038217146 1.8240001
-0.31408 0.048320003 2.1140001
-0.30814669 0.048022859 2.1010001
-0.30226287 0.047725715 2.0880001
-0.29657143 0.047451429 2.0760002
-0.29261714 0.047451429 2.0760002
-0.28866288 0.047451429 2.0760002
-0.28470859 0.047451429 2.0760002
-0.2807543 0.047451429 2.0760002
-0.27506667 0.047154289 2.0630002
-0.27113715 0.047154289 2.0630002
-0.26720762 0.047154289 2.0630002
-0.26493716 0.047451429 2.0760002
-0.26098287 0.047451429 2.0760002
-0.25541905 0.047154289 2.0630002
-0.25148952 0.047154289 2.0630002
-0.24756001 0.047154289 2.0630002
-0.24363048 0.047154289 2.0630002
-0.23970096 0.047154289 2.0630002
-0.23725715 0.047451429 2.0760002
-0.23330286 0.047451429 2.0760002
-0.2306743 0.047725715 2.0880001
-0.22669715 0.047725715 2.0880001
-0.22144 0.047451429 2.0760002
-0.21874286 0.047725715 2.0880001
-0.21476573 0.047725715 2.0880001
-0.20957714 0.047451429 2.0760002
-0.20681144 0.047725715 2.0880001
-0.20283429 0.047725715 2.0880001
-0.19885714 0.047725715 2.0880001
-0.19488001 0.047725715 2.0880001
-0.19090286 0.047725715 2.0880001
-0.18808953 0.048022859 2.1010001
-0.18408762 0.048022859 2.1010001
-0.18008572 0.048022859 2.1010001
-0.17608382 0.048022859 2.1010001
-0.17208192 0.048022859 2.1010001
-0.16808 0.048022859 2.1010001
-0.16509333 0.048320003 2.1140001
-0.16106667 0.048320003 2.1140001
-0.15704 0.048320003 2.1140001
-0.15301333 0.048320003 2.1140001
-0.14898667 0.048320003 2.1140001
-0.14585143 0.048617143 2.1270001
-0.1418 0.048617143 2.1270001
-0.13774857 0.048617143 2.1270001
-0.13369715 0.048617143 2.1270001
-0.12964572 0.048617143 2.1270001
-0.093354292 0.036137145 1.5810001
-0.090342857 0.036137145 1.5810001
-0.086944766 0.035977144 1.5740001
-0.083946668 0.035977144 1.5740001
-0.080948576 0.035977144 1.5740001
-0.07760381 0.035817143 1.567
-0.074619047 0.035817143 1.567
-0.07131429 0.035657145 1.5600001
-0.067729525 0.035337143 1.5460001
-0.064491428 0.035177145 1.539
-0.061560001 0.035177145 1.539
-0.058361907 0.035017144 1.5320001
-0.055443812 0.035017144 1.5320001
-0.052285716 0.034857143 1.5250001
-0.049380954 0.034857143 1.5250001
-0.046476193 0.034857143 1.5250001
-0.043400001 0.03472 1.5190001
-0.040506668 0.03472 1.5190001
-0.037761904 0.034857143 1.5250001
-0.035017144 0.035017144 1.5320001
-0.031952381 0.034857143 1.5250001
-0.02904762 0.034857143 1.5250001
-0.026262859 0.035017144 1.5320001
-0.023344763 0.035017144 1.5320001
-0.020333335 0.034857143 1.5250001
-0.017508572 0.035017144 1.5320001
-0.014590477 0.035017144 1.5320001
-0.011672381 0.035017144 1.5320001
-0.008754286 0.035017144 1.5320001
-0.0058361907 0.035017144 1.5320001
-0.0029180953 0.035017144 1.5320001
0 0.035017144 1.5320001
0.0029180953 0.035017144 1.5320001
0.0058628572 0.035177145 1.539
0.0087942863 0.035177145 1.539
0.011725714 0.035177145 1.539
0.014657144 0.035177145 1.539
0.017588573 0.035177145 1.539
0.020520002 0.035177145 1.539
0.023558097 0.035337143 1.5460001
0.026502859 0.035337143 1.5460001
0.029447621 0.035337143 1.5460001
0.032392383 0.035337143 1.5460001
0.035337143 0.035337143 1.5460001
0.038281906 0.035337143 1.5460001
0.041226666 0.035337143 1.5460001
0.04417143 0.035337143 1.5460001
0.047329526 0.035497144 1.5530001
0.050514288 0.035657145 1.5600001
0.053485718 0.035657145 1.5600001
0.056457143 0.035657145 1.5600001
0.059428573 0.035657145 1.5600001
0.062400002 0.035657145 1.5600001
0.065371431 0.035657145 1.5600001
0.068342857 0.035657145 1.5600001
0.07131429 0.035657145 1.5600001
0.074619047 0.035817143 1.567
0.07760381 0.035817143 1.567
0.080588572 0.035817143 1.567
0.083573334 0.035817143 1.567
0.086558096 0.035817143 1.567
0.089542858 0.035817143 1.567
0.09252762 0.035817143 1.567
0.095512383 0.035817143 1.567
0.098497145 0.035817143 1.567
0.10193525 0.035977144 1.5740001
0.1054 0.036137145 1.5810001
0.10841143 0.036137145 1.5810001
0.11198667 0.036320001 1.5890001
0.11501334 0.036320001 1.5890001
0.11804 0.036320001 1.5890001
0.12106667 0.036320001 1.5890001
0.12409334 0.036320001 1.5890001
0.12712 0.036320001 1.5890001
0.13014667 0.036320001 1.5890001
0.13317333 0.036320001 1.5890001
0.13620001 0.036320001 1.5890001
0.13922668 0.036320001 1.5890001
0.14225334 0.036320001 1.5890001
0.14454858 0.036137145 1.5810001
0.14830667 0.036320001 1.5890001
0.15133333 0.036320001 1.5890001
0.15436001 0.036320001 1.5890001
0.15808001 0.036480002 1.5960001
0.16112001 0.036480002 1.5960001
0.16416001 0.036480002 1.5960001
0.16793334 0.03664 1.603
0.17024 0.036480002 1.5960001
0.17404 0.03664 1.603
0.17709334 0.03664 1.603
0.18014668 0.03664 1.603
0.1832 0.03664 1.603
0.18718286 0.036822859 1.6110001
0.19025144 0.036822859 1.6110001
0.19332001 0.036822859 1.6110001
0.19638857 0.036822859 1.6110001
0.19945715 0.036822859 1.6110001
0.20252572 0.036822859 1.6110001
0.20648763 0.036982857 1.618
0.20956953 0.036982857 1.618
0.21265143 0.036982857 1.618
0.21573333 0.036982857 1.618
0.21881525 0.036982857 1.618
0.22189716 0.036982857 1.618
0.22609143 0.037165716 1.626
0.22918858 0.037165716 1.626
0.23228572 0.037165716 1.626
0.23654096 0.037348572 1.6340001
0.23965335 0.037348572 1.6340001
0.24380572 0.037508573 1.641
0.24693143 0.037508573 1.641
0.2512762 0.037691429 1.649
0.25441715 0.037691429 1.649
0.25755811 0.037691429 1.649
0.26069906 0.037691429 1.649
0.26384002 0.037691429 1.649
0.26698098 0.037691429 1.649
0.2701219 0.037691429 1.649
0.27458858 0.037874289 1.6570001
0.27774477 0.037874289 1.6570001
0.28090096 0.037874289 1.6570001
0.28405714 0.037874289 1.6570001
0.2886 0.038057145 1.6650001
0.29177144 0.038057145 1.6650001
0.29494286 0.038057145 1.6650001
0.2981143 0.038057145 1.6650001
0.30273333 0.038240001 1.6730001
0.30592 0.038240001 1.6730001
0.30910668 0.038240001 1.6730001
0.31229335 0.038240001 1.6730001
0.31698859 0.03842286 1.6810001
0.32019049 0.03842286 1.6810001
0.32512382 0.038628574 1.6900001
0.32834285 0.038628574 1.6900001
0.33313143 0.03881143 1.6980001
0.3379505 0.038994286 1.7060001
0.34120002 0.038994286 1.7060001
0.34444955 0.038994286 1.7060001
0.34769905 0.038994286 1.7060001
0.35280001 0.0392 1.715
0.35606667 0.0392 1.715
0.35933334 0.0392 1.715
0.36429143 0.03938286 1.723
0.36757335 0.03938286 1.723
0.37279239 0.039588574 1.7320001
0.37804574 0.039794289 1.7410001
0.38136193 0.039794289 1.7410001
0.39064384 0.040411431 1.7680001
0.39601716 0.040617146 1.7770001
0.39940193 0.040617146 1.7770001
0.40482667 0.04082286 1.7860001
0.41028574 0.041028574 1.7950001
0.41808382 0.041462857 1.8140001
0.42595431 0.041897144 1.8330001
0.42944574 0.041897144 1.8330001
0.43293715 0.041897144 1.8330001
-0.31214857 0.052024763 2.1010001
-0.30814669 0.052024763 2.1010001
-0.30226287 0.051702861 2.0880001
-0.29657143 0.051405717 2.0760002
-0.29261714 0.051405717 2.0760002
-0.28866288 0.051405717 2.0760002
-0.28470859 0.051405717 2.0760002
-0.2807543 0.051405717 2.0760002
-0.27506667 0.051083811 2.0630002
-0.27113715 0.051083811 2.0630002
-0.26889142 0.051405717 2.0760002
-0.26493716 0.051405717 2.0760002
-0.26098287 0.051405717 2.0760002
-0.25393334 0.05078667 2.0510001
-0.25148952 0.051083811 2.0630002
-0.24756001 0.051083811 2.0630002
-0.24363048 0.051083811 2.0630002
-0.23970096 0.051083811 2.0630002
-0.23725715 0.051405717 2.0760002
-0.23465143 0.051702861 2.0880001
-0.2306743 0.051702861 2.0880001
-0.22669715 0.051702861 2.0880001
-0.22272001 0.051702861 2.0880001
-0.21874286 0.051702861 2.0880001
-0.21476573 0.051702861 2.0880001
-0.21078858 0.051702861 2.0880001
-0.20681144 0.051702861 2.0880001
-0.20283429 0.051702861 2.0880001
-0.19885714 0.051702861 2.0880001
-0.19488001 0.051702861 2.0880001
-0.19090286 0.051702861 2.0880001
-0.18692572 0.051702861 2.0880001
-0.18408762 0.052024763 2.1010001
-0.18008572 0.052024763 2.1010001
-0.17608382 0.052024763 2.1010001
-0.17208192 0.052024763 2.1010001
-0.16912 0.052346669 2.1140001
-0.16509333 0.052346669 2.1140001
-0.16106667 0.052346669 2.1140001
-0.15704 0.052346669 2.1140001
-0.15301333 0.052346669 2.1140001
-0.14898667 0.052346669 2.1140001
-0.14496 0.052346669 2.1140001
-0.1418 0.052668575 2.1270001
-0.13774857 0.052668575 2.1270001
-0.10076001 0.039693333 1.603
-0.096853338 0.039346669 1.5890001
-0.093826666 0.039346669 1.5890001
-0.090342857 0.039148573 1.5810001
-0.087331429 0.039148573 1.5810001
-0.083946668 0.038975239 1.5740001
-0.080588572 0.038801905 1.567
-0.07760381 0.038801905 1.567
-0.074285716 0.038628574 1.5600001
-0.070994288 0.03845524 1.5530001
-0.067422859 0.038108572 1.539
-0.064198099 0.037935238 1.5320001
-0.061280001 0.037935238 1.5320001
-0.058361907 0.037935238 1.5320001
-0.055190478 0.037761904 1.5250001
-0.052285716 0.037761904 1.5250001
-0.049380954 0.037761904 1.5250001
-0.046293337 0.037613336 1.5190001
-0.043400001 0.037613336 1.5190001
-0.040506668 0.037613336 1.5190001
-0.037761904 0.037761904 1.5250001
-0.035017144 0.037935238 1.5320001
-0.031952381 0.037761904 1.5250001
-0.02904762 0.037761904 1.5250001
-0.026262859 0.037935238 1.5320001
-0.023344763 0.037935238 1.5320001
-0.020426668 0.037935238 1.5320001
-0.017508572 0.037935238 1.5320001
-0.014590477 0.037935238 1.5320001
-0.011672381 0.037935238 1.5320001
-0.008754286 0.037935238 1.5320001
-0.0058361907 0.037935238 1.5320001
-0.0029180953 0.037935238 1.5320001
0 0.037935238 1.5320001
0.0029180953 0.037935238 1.5320001
0.0058628572 0.038108572 1.539
0.0087942863 0.038108572 1.539
0.011725714 0.038108572 1.539
0.014657144 0.038108572 1.539
0.017588573 0.038108572 1.539
0.020520002 0.038108572 1.539
0.023558097 0.038281906 1.5460001
0.026502859 0.038281906 1.5460001
0.029447621 0.038281906 1.5460001
0.032392383 0.038281906 1.5460001
0.035337143 0.038281906 1.5460001
0.03845524 0.03845524 1.5530001
0.041226666 0.038281906 1.5460001
0.04417143 0.038281906 1.5460001
0.047329526 0.03845524 1.5530001
0.050287619 0.03845524 1.5530001
0.053245716 0.03845524 1.5530001
0.056457143 0.038628574 1.5600001
0.059428573 0.038628574 1.5600001
0.062400002 0.038628574 1.5600001
0.065371431 0.038628574 1.5600001
0.068342857 0.038628574 1.5600001
0.07131429 0.038628574 1.5600001
0.074619047 0.038801905 1.567
0.07760381 0.038801905 1.567
0.080588572 0.038801905 1.567
0.083573334 0.038801905 1.567
0.086558096 0.038801905 1.567
0.089542858 0.038801905 1.567
0.09252762 0.038801905 1.567
0.095512383 0.038801905 1.567
0.098937146 0.038975239 1.5740001
0.10193525 0.038975239 1.5740001
0.1054 0.039148573 1.5810001
0.10841143 0.039148573 1.5810001
0.11198667 0.039346669 1.5890001
0.11501334 0.039346669 1.5890001
0.11804 0.039346669 1.5890001
0.12106667 0.039346669 1.5890001
0.12409334 0.039346669 1.5890001
0.12712 0.039346669 1.5890001
0.13014667 0.039346669 1.5890001
0.13317333 0.039346669 1.5890001
0.13620001 0.039346669 1.5890001
0.13922668 0.039346669 1.5890001
0.14225334 0.039346669 1.5890001
0.14454858 0.039148573 1.5810001
0.14830667 0.039346669 1.5890001
0.15133333 0.039346669 1.5890001
0.15436001 0.039346669 1.5890001
0.15738668 0.039346669 1.5890001
0.16112001 0.039520003 1.5960001
0.16416001 0.039520003 1.5960001
0.16793334 0.039693333 1.603
0.17098667 0.039693333 1.603
0.17404 0.039693333 1.603
0.17709334 0.039693333 1.603
0.18014668 0.039693333 1.603
0.18411429 0.039891429 1.6110001
0.18718286 0.039891429 1.6110001
0.19025144 0.039891429 1.6110001
0.19332001 0.039891429 1.6110001
0.19638857 0.039891429 1.6110001
0.19945715 0.039891429 1.6110001
0.20252572 0.039891429 1.6110001
0.20648763 0.040064763 1.618
0.20956953 0.040064763 1.618
0.21265143 0.040064763 1.618
0.21573333 0.040064763 1.618
0.21881525 0.040064763 1.618
0.22189716 0.040064763 1.618
0.22609143 0.040262859 1.626
0.22918858 0.040262859 1.626
0.23228572 0.040262859 1.626
0.23654096 0.040460955 1.6340001
0.24068001 0.040634286 1.641
0.24380572 0.040634286 1.641
0.24693143 0.040634286 1.641
0.25005716 0.040634286 1.641
0.25318286 0.040634286 1.641
0.25755811 0.040832382 1.649
0.26069906 0.040832382 1.649
0.26384002 0.040832382 1.649
0.26698098 0.040832382 1.649
0.2701219 0.040832382 1.649
0.27326286 0.040832382 1.649
0.27640381 0.040832382 1.649
0.28090096 0.041030478 1.6570001
0.28542858 0.041228574 1.6650001
0.2886 0.041228574 1.6650001
0.29177144 0.041228574 1.6650001
0.29494286 0.041228574 1.6650001
0.2981143 0.041228574 1.6650001
0.30273333 0.04142667 1.6730001
0.30592 0.04142667 1.6730001
0.30910668 0.04142667 1.6730001
0.31229335 0.04142667 1.6730001
0.31548002 0.04142667 1.6730001
0.32019049 0.041624762 1.6810001
0.32339239 0.041624762 1.6810001
0.32834285 0.04184762 1.6900001
0.33313143 0.042045716 1.6980001
0.33636573 0.042045716 1.6980001
0.34120002 0.042243812 1.7060001
0.34444955 0.042243812 1.7060001
0.34769905 0.042243812 1.7060001
0.35280001 0.042466667 1.715
0.35606667 0.042466667 1.715
0.36100954 0.042664763 1.723
0.36619431 0.042887621 1.7320001
0.37141335 0.043110479 1.7410001
0.37279239 0.042887621 1.7320001
0.37804574 0.043110479 1.7410001
0.38530478 0.043556191 1.7590001
0.39064384 0.043779049 1.7680001
0.39601716 0.044001907 1.7770001
0.40142477 0.044224765 1.7860001
0.40482667 0.044224765 1.7860001
0.41028574 0.044447619 1.7950001
0.41808382 0.044918098 1.8140001
0.42386287 0.045165718 1.8240001
0.42733717 0.045165718 1.8240001
0.43293715 0.045388572 1.8330001
-0.31408 0.056373335 2.1140001
-0.31005335 0.056373335 2.1140001
-0.30414477 0.056026667 2.1010001
-0.29657143 0.055360001 2.0760002
-0.29261714 0.055360001 2.0760002
-0.28866288 0.055360001 2.0760002
-0.28470859 0.055360001 2.0760002
-0.2807543 0.055360001 2.0760002
-0.27506667 0.055013336 2.0630002
-0.27113715 0.055013336 2.0630002
-0.26889142 0.055360001 2.0760002
-0.26493716 0.055360001 2.0760002
-0.26098287 0.055360001 2.0760002
-0.25393334 0.054693334 2.0510001
-0.25148952 0.055013336 2.0630002
-0.24756001 0.055013336 2.0630002
-0.24363048 0.055013336 2.0630002
-0.23970096 0.055013336 2.0630002
-0.23725715 0.055360001 2.0760002
-0.23330286 0.055360001 2.0760002
-0.2306743 0.055680003 2.0880001
-0.22669715 0.055680003 2.0880001
-0.22272001 0.055680003 2.0880001
-0.21874286 0.055680003 2.0880001
-0.21476573 0.055680003 2.0880001
-0.21078858 0.055680003 2.0880001
-0.20681144 0.055680003 2.0880001
-0.20283429 0.055680003 2.0880001
-0.19885714 0.055680003 2.0880001
-0.19488001 0.055680003 2.0880001
-0.19090286 0.055680003 2.0880001
-0.18692572 0.055680003 2.0880001
-0.18294857 0.055680003 2.0880001
-0.18008572 0.056026667 2.1010001
-0.17608382 0.056026667 2.1010001
-0.17208192 0.056026667 2.1010001
-0.16808 0.056026667 2.1010001
-0.16509333 0.056373335 2.1140001
-0.16106667 0.056373335 2.1140001
-0.15704 0.056373335 2.1140001
-0.15301333 0.056373335 2.1140001
-0.14898667 0.056373335 2.1140001
-0.14496 0.056373335 2.1140001
-0.1418 0.056720003 2.1270001
-0.13774857 0.056720003 2.1270001
-0.13369715 0.056720003 2.1270001
-0.096853338 0.042373333 1.5890001
-0.093826666 0.042373333 1.5890001
-0.090342857 0.042160001 1.5810001
-0.087331429 0.042160001 1.5810001
-0.083946668 0.041973334 1.5740001
-0.080588572 0.041786667 1.567
-0.077257149 0.0416 1.5600001
-0.074285716 0.0416 1.5600001
-0.07035429 0.041040003 1.539
-0.067422859 0.041040003 1.539
-0.064198099 0.040853336 1.5320001
-0.061280001 0.040853336 1.5320001
-0.058361907 0.040853336 1.5320001
-0.055190478 0.04066667 1.5250001
-0.052285716 0.04066667 1.5250001
-0.049380954 0.04066667 1.5250001
-0.046293337 0.040506668 1.5190001
-0.043400001 0.040506668 1.5190001
-0.040506668 0.040506668 1.5190001
-0.037761904 0.04066667 1.5250001
-0.035017144 0.040853336 1.5320001
-0.031952381 0.04066667 1.5250001
-0.02904762 0.04066667 1.5250001
-0.026262859 0.040853336 1.5320001
-0.023344763 0.040853336 1.5320001
-0.020426668 0.040853336 1.5320001
-0.017508572 0.040853336 1.5320001
-0.014590477 0.040853336 1.5320001
-0.011672381 0.040853336 1.5320001
-0.008754286 0.040853336 1.5320001
-0.0058361907 0.040853336 1.5320001
-0.0029180953 0.040853336 1.5320001
0 0.040853336 1.5320001
0.0029180953 0.040853336 1.5320001
0.0058628572 0.041040003 1.539
0.0087942863 0.041040003 1.539
0.011725714 0.041040003 1.539
0.014657144 0.041040003 1.539
0.017588573 0.041040003 1.539
0.020520002 0.041040003 1.539
0.023558097 0.041226666 1.5460001
0.026502859 0.041226666 1.5460001
0.029447621 0.041226666 1.5460001
0.032392383 0.041226666 1.5460001
0.035337143 0.041226666 1.5460001
0.03845524 0.041413333 1.5530001
0.041226666 0.041226666 1.5460001
0.04417143 0.041226666 1.5460001
0.047116194 0.041226666 1.5460001
0.050287619 0.041413333 1.5530001
0.053245716 0.041413333 1.5530001
0.056203812 0.041413333 1.5530001
0.059428573 0.0416 1.5600001
0.062400002 0.0416 1.5600001
0.065371431 0.0416 1.5600001
0.068342857 0.0416 1.5600001
0.07131429 0.0416 1.5600001
0.074285716 0.0416 1.5600001
0.07760381 0.041786667 1.567
0.080588572 0.041786667 1.567
0.083573334 0.041786667 1.567
0.086558096 0.041786667 1.567
0.089542858 0.041786667 1.567
0.09252762 0.041786667 1.567
0.095512383 0.041786667 1.567
0.098937146 0.041973334 1.5740001
0.10193525 0.041973334 1.5740001
0.1054 0.042160001 1.5810001
0.10841143 0.042160001 1.5810001
0.11198667 0.042373333 1.5890001
0.11501334 0.042373333 1.5890001
0.11804 0.042373333 1.5890001
0.12106667 0.042373333 1.5890001
0.12409334 0.042373333 1.5890001
0.12712 0.042373333 1.5890001
0.13014667 0.042373333 1.5890001
0.13317333 0.042373333 1.5890001
0.13620001 0.042373333 1.5890001
0.13922668 0.042373333 1.5890001
0.14288001 0.04256 1.5960001
0.14528 0.042373333 1.5890001
0.14830667 0.042373333 1.5890001
0.15133333 0.042373333 1.5890001
0.15436001 0.042373333 1.5890001
0.15808001 0.04256 1.5960001
0.16112001 0.04256 1.5960001
0.16416001 0.04256 1.5960001
0.16793334 0.042746667 1.603
0.17098667 0.042746667 1.603
0.17404 0.042746667 1.603
0.17797714 0.042960003 1.6110001
0.18104573 0.042960003 1.6110001
0.18411429 0.042960003 1.6110001
0.18718286 0.042960003 1.6110001
0.19025144 0.042960003 1.6110001
0.19332001 0.042960003 1.6110001
0.19638857 0.042960003 1.6110001
0.19945715 0.042960003 1.6110001
0.20252572 0.042960003 1.6110001
0.20648763 0.04314667 1.618
0.20956953 0.04314667 1.618
0.21265143 0.04314667 1.618
0.21573333 0.04314667 1.618
0.21881525 0.04314667 1.618
0.2229943 0.043360002 1.626
0.22609143 0.043360002 1.626
0.22918858 0.043360002 1.626
0.23342858 0.043573335 1.6340001
0.23654096 0.043573335 1.6340001
0.24068001 0.043760002 1.641
0.24380572 0.043760002 1.641
0.24693143 0.043760002 1.641
0.25005716 0.043760002 1.641
0.25318286 0.043760002 1.641
0.25630859 0.043760002 1.641
0.25943428 0.043760002 1.641
0.26384002 0.043973334 1.649
0.26698098 0.043973334 1.649
0.2701219 0.043973334 1.649
0.27326286 0.043973334 1.649
0.27640381 0.043973334 1.649
0.28090096 0.044186667 1.6570001
0.28542858 0.044400003 1.6650001
0.2886 0.044400003 1.6650001
0.29177144 0.044400003 1.6650001
0.29494286 0.044400003 1.6650001
0.29954669 0.044613335 1.6730001
0.30273333 0.044613335 1.6730001
0.30592 0.044613335 1.6730001
0.30910668 0.044613335 1.6730001
0.31229335 0.044613335 1.6730001
0.31698859 0.044826668 1.6810001
0.32019049 0.044826668 1.6810001
0.32512382 0.04506667 1.6900001
0.32834285 0.04506667 1.6900001
0.33313143 0.045280002 1.6980001
0.3379505 0.045493335 1.7060001
0.34120002 0.045493335 1.7060001
0.34444955 0.045493335 1.7060001
0.34953335 0.045733336 1.715
0.35280001 0.045733336 1.715
0.35606667 0.045733336 1.715
0.36100954 0.045946669 1.723
0.36809716 0.046426669 1.7410001
0.37141335 0.046426669 1.7410001
0.37666669 0.046666667 1.7500001
0.38000003 0.046666667 1.7500001
0.38530478 0.046906669 1.7590001
0.39064384 0.047146667 1.7680001
0.39601716 0.047386669 1.7770001
0.40142477 0.047626667 1.7860001
0.40482667 0.047626667 1.7860001
0.41028574 0.047866669 1.7950001
0.41808382 0.048373334 1.8140001
0.42153907 0.048373334 1.8140001
0.42733717 0.048640002 1.8240001
-0.31408 0.060400002 2.1140001
-0.31005335 0.060400002 2.1140001
-0.30414477 0.060028575 2.1010001
-0.29828572 0.059657145 2.0880001
-0.29261714 0.059314288 2.0760002
-0.28866288 0.059314288 2.0760002
-0.28470859 0.059314288 2.0760002
-0.2807543 0.059314288 2.0760002
-0.27680001 0.059314288 2.0760002
-0.27113715 0.058942858 2.0630002
-0.26720762 0.058942858 2.0630002
-0.2632781 0.058942858 2.0630002
-0.25934857 0.058942858 2.0630002
-0.25393334 0.058600001 2.0510001
-0.25002667 0.058600001 2.0510001
-0.24756001 0.058942858 2.0630002
-0.24363048 0.058942858 2.0630002
-0.23970096 0.058942858 2.0630002
-0.23577143 0.058942858 2.0630002
-0.23184191 0.058942858 2.0630002
-0.2306743 0.059657145 2.0880001
-0.22669715 0.059657145 2.0880001
-0.22272001 0.059657145 2.0880001
-0.21874286 0.059657145 2.0880001
-0.21476573 0.059657145 2.0880001
-0.21078858 0.059657145 2.0880001
-0.20681144 0.059657145 2.0880001
-0.20283429 0.059657145 2.0880001
-0.19885714 0.059657145 2.0880001
-0.19488001 0.059657145 2.0880001
-0.19090286 0.059657145 2.0880001
-0.18692572 0.059657145 2.0880001
-0.18408762 0.060028575 2.1010001
-0.18008572 0.060028575 2.1010001
-0.17608382 0.060028575 2.1010001
-0.17208192 0.060028575 2.1010001
-0.16912 0.060400002 2.1140001
-0.16509333 0.060400002 2.1140001
-0.16106667 0.060400002 2.1140001
-0.15704 0.060400002 2.1140001
-0.15301333 0.060400002 2.1140001
-0.14898667 0.060400002 2.1140001
-0.14496 0.060400002 2.1140001
-0.14093333 0.060400002 2.1140001
-0.13859048 0.061142858 2.1400001
-0.13451429 0.061142858 2.1400001
-0.096853338 0.045400001 1.5890001
-0.093354292 0.045171428 1.5810001
-0.090342857 0.045171428 1.5810001
-0.086944766 0.044971429 1.5740001
-0.083946668 0.044971429 1.5740001
-0.080588572 0.044771429 1.567
-0.077257149 0.044571429 1.5600001
-0.073952384 0.04437143 1.5530001
-0.07035429 0.043971431 1.539
-0.067422859 0.043971431 1.539
-0.064198099 0.043771431 1.5320001
-0.061280001 0.043771431 1.5320001
-0.058095239 0.043571431 1.5250001
-0.055190478 0.043571431 1.5250001
-0.052080002 0.043400001 1.5190001
-0.049380954 0.043571431 1.5250001
-0.046293337 0.043400001 1.5190001
-0.043400001 0.043400001 1.5190001
-0.04066667 0.043571431 1.5250001
-0.037761904 0.043571431 1.5250001
-0.034857143 0.043571431 1.5250001
-0.031952381 0.043571431 1.5250001
-0.02904762 0.043571431 1.5250001
-0.026142858 0.043571431 1.5250001
-0.023238096 0.043571431 1.5250001
-0.020426668 0.043771431 1.5320001
-0.017508572 0.043771431 1.5320001
-0.014590477 0.043771431 1.5320001
-0.011672381 0.043771431 1.5320001
-0.008754286 0.043771431 1.5320001
-0.0058361907 0.043771431 1.5320001
-0.0029180953 0.043771431 1.5320001
0 0.043771431 1.5320001
0.0029180953 0.043771431 1.5320001
0.0058628572 0.043971431 1.539
0.0087942863 0.043971431 1.539
0.011725714 0.043971431 1.539
0.014657144 0.043971431 1.539
0.017588573 0.043971431 1.539
0.020520002 0.043971431 1.539
0.023558097 0.04417143 1.5460001
0.026502859 0.04417143 1.5460001
0.029447621 0.04417143 1.5460001
0.032392383 0.04417143 1.5460001
0.035337143 0.04417143 1.5460001
0.03845524 0.04437143 1.5530001
0.041413333 0.04437143 1.5530001
0.04417143 0.04417143 1.5460001
0.047329526 0.04437143 1.5530001
0.050287619 0.04437143 1.5530001
0.053245716 0.04437143 1.5530001
0.056203812 0.04437143 1.5530001
0.059161905 0.04437143 1.5530001
0.062120002 0.04437143 1.5530001
0.065371431 0.044571429 1.5600001
0.068342857 0.044571429 1.5600001
0.07131429 0.044571429 1.5600001
0.074285716 0.044571429 1.5600001
0.07760381 0.044771429 1.567
0.080588572 0.044771429 1.567
0.083573334 0.044771429 1.567
0.086558096 0.044771429 1.567
0.089542858 0.044771429 1.567
0.09252762 0.044771429 1.567
0.095512383 0.044771429 1.567
0.098497145 0.044771429 1.567
0.10193525 0.044971429 1.5740001
0.10493334 0.044971429 1.5740001
0.10793144 0.044971429 1.5740001
0.11142286 0.045171428 1.5810001
0.11501334 0.045400001 1.5890001
0.11804 0.045400001 1.5890001
0.12106667 0.045400001 1.5890001
0.12409334 0.045400001 1.5890001
0.12712 0.045400001 1.5890001
0.13014667 0.045400001 1.5890001
0.13317333 0.045400001 1.5890001
0.13620001 0.045400001 1.5890001
0.13922668 0.045400001 1.5890001
0.14288001 0.045600001 1.5960001
0.14454858 0.045171428 1.5810001
0.14830667 0.045400001 1.5890001
0.15133333 0.045400001 1.5890001
0.15436001 0.045400001 1.5890001
0.15738668 0.045400001 1.5890001
0.16112001 0.045600001 1.5960001
0.16416001 0.045600001 1.5960001
0.16793334 0.0458 1.603
0.17098667 0.0458 1.603
0.17404 0.0458 1.603
0.17797714 0.046028573 1.6110001
0.18104573 0.046028573 1.6110001
0.18411429 0.046028573 1.6110001
0.18718286 0.046028573 1.6110001
0.19025144 0.046028573 1.6110001
0.19332001 0.046028573 1.6110001
0.19638857 0.046028573 1.6110001
0.19945715 0.046028573 1.6110001
0.20252572 0.046028573 1.6110001
0.20648763 0.046228573 1.618
0.20956953 0.046228573 1.618
0.21265143 0.046228573 1.618
0.21573333 0.046228573 1.618
0.21989715 0.046457145 1.626
0.2229943 0.046457145 1.626
0.22609143 0.046457145 1.626
0.23031619 0.046685714 1.6340001
0.23342858 0.046685714 1.6340001
0.23654096 0.046685714 1.6340001
0.24068001 0.046885718 1.641
0.24380572 0.046885718 1.641
0.24693143 0.046885718 1.641
0.25005716 0.046885718 1.641
0.25318286 0.046885718 1.641
0.25630859 0.046885718 1.641
0.25943428 0.046885718 1.641
0.26384002 0.047114287 1.649
0.26698098 0.047114287 1.649
0.2701219 0.047114287 1.649
0.27326286 0.047114287 1.649
0.27774477 0.047342859 1.6570001
0.28225714 0.047571432 1.6650001
0.28542858 0.047571432 1.6650001
0.28998667 0.047800001 1.6730001
0.29317334 0.047800001 1.6730001
0.29636002 0.047800001 1.6730001
0.29954669 0.047800001 1.6730001
0.30273333 0.047800001 1.6730001
0.30592 0.047800001 1.6730001
0.30910668 0.047800001 1.6730001
0.31229335 0.047800001 1.6730001
0.31698859 0.048028573 1.6810001
0.32019049 0.048028573 1.6810001
0.32512382 0.048285715 1.6900001
0.32834285 0.048285715 1.6900001
0.33313143 0.048514288 1.6980001
0.3379505 0.048742861 1.7060001
0.34120002 0.048742861 1.7060001
0.34444955 0.048742861 1.7060001
0.34769905 0.048742861 1.7060001
0.35280001 0.049000002 1.715
0.35772765 0.049228575 1.723
0.36100954 0.049228575 1.723
0.36809716 0.049742859 1.7410001
0.37141335 0.049742859 1.7410001
0.37666669 0.050000001 1.7500001
0.38000003 0.050000001 1.7500001
0.38530478 0.050257146 1.7590001
0.39064384 0.050514288 1.7680001
0.39601716 0.05077143 1.7770001
0.40142477 0.051028572 1.7860001
0.40482667 0.051028572 1.7860001
0.41028574 0.051285718 1.7950001
0.41808382 0.051828574 1.8140001
0.42153907 0.051828574 1.8140001
-0.31408 0.064426668 2.1140001
-0.30814669 0.064030476 2.1010001
-0.30414477 0.064030476 2.1010001
-0.29828572 0.063634291 2.0880001
-0.29261714 0.063268572 2.0760002
-0.28866288 0.063268572 2.0760002
-0.28470859 0.063268572 2.0760002
-0.2789962 0.06287238 2.0630002
-0.27506667 0.06287238 2.0630002
-0.27113715 0.06287238 2.0630002
-0.26720762 0.06287238 2.0630002
-0.2632781 0.06287238 2.0630002
-0.25934857 0.06287238 2.0630002
-0.25541905 0.06287238 2.0630002
-0.25148952 0.06287238 2.0630002
-0.24756001 0.06287238 2.0630002
-0.24363048 0.06287238 2.0630002
-0.23970096 0.06287238 2.0630002
-0.23725715 0.063268572 2.0760002
-0.23465143 0.063634291 2.0880001
-0.2306743 0.063634291 2.0880001
-0.22669715 0.063634291 2.0880001
-0.22272001 0.063634291 2.0880001
-0.22010477 0.064030476 2.1010001
-0.21610287 0.064030476 2.1010001
-0.21210095 0.064030476 2.1010001
-0.20681144 0.063634291 2.0880001
-0.20283429 0.063634291 2.0880001
-0.19885714 0.063634291 2.0880001
-0.19609334 0.064030476 2.1010001
-0.19090286 0.063634291 2.0880001
-0.18808953 0.064030476 2.1010001
-0.18408762 0.064030476 2.1010001
-0.18008572 0.064030476 2.1010001
-0.17608382 0.064030476 2.1010001
-0.17208192 0.064030476 2.1010001
-0.16912 0.064426668 2.1140001
-0.16509333 0.064426668 2.1140001
-0.16106667 0.064426668 2.1140001
-0.15704 0.064426668 2.1140001
-0.15301333 0.064426668 2.1140001
-0.14898667 0.064426668 2.1140001
-0.14496 0.064426668 2.1140001
-0.14093333 0.064426668 2.1140001
-0.13690667 0.064426668 2.1140001
-0.13288 0.064426668 2.1140001
-0.097280003 0.048640002 1.5960001
-0.093354292 0.04818286 1.5810001
-0.089942858 0.047969524 1.5740001
-0.086944766 0.047969524 1.5740001
-0.083573334 0.047756191 1.567
-0.080588572 0.047756191 1.567
-0.077257149 0.047542859 1.5600001
-0.073952384 0.047329526 1.5530001
-0.07035429 0.046902858 1.539
-0.067422859 0.046902858 1.539
-0.064198099 0.046689525 1.5320001
-0.061280001 0.046689525 1.5320001
-0.058095239 0.046476193 1.5250001
-0.055190478 0.046476193 1.5250001
-0.052285716 0.046476193 1.5250001
-0.049380954 0.046476193 1.5250001
-0.046293337 0.046293337 1.5190001
-0.043571431 0.046476193 1.5250001
-0.04066667 0.046476193 1.5250001
-0.037761904 0.046476193 1.5250001
-0.034857143 0.046476193 1.5250001
-0.031952381 0.046476193 1.5250001
-0.02904762 0.046476193 1.5250001
-0.026142858 0.046476193 1.5250001
-0.023238096 0.046476193 1.5250001
-0.020333335 0.046476193 1.5250001
-0.017508572 0.046689525 1.5320001
-0.01452381 0.046476193 1.5250001
-0.011672381 0.046689525 1.5320001
-0.008754286 0.046689525 1.5320001
-0.0058361907 0.046689525 1.5320001
-0.0029180953 0.046689525 1.5320001
0 0.046689525 1.5320001
0.0029180953 0.046689525 1.5320001
0.0058628572 0.046902858 1.539
0.0087942863 0.046902858 1.539
0.011725714 0.046902858 1.539
0.014657144 0.046902858 1.539
0.017588573 0.046902858 1.539
0.020520002 0.046902858 1.539
0.023451429 0.046902858 1.539
0.026382858 0.046902858 1.539
0.029314287 0.046902858 1.539
0.032392383 0.047116194 1.5460001
0.035337143 0.047116194 1.5460001
0.03845524 0.047329526 1.5530001
0.041413333 0.047329526 1.5530001
0.04437143 0.047329526 1.5530001
0.047329526 0.047329526 1.5530001
0.050287619 0.047329526 1.5530001
0.053245716 0.047329526 1.5530001
0.056203812 0.047329526 1.5530001
0.059428573 0.047542859 1.5600001
0.062120002 0.047329526 1.5530001
0.065371431 0.047542859 1.5600001
0.068342857 0.047542859 1.5600001
0.07131429 0.047542859 1.5600001
0.074285716 0.047542859 1.5600001
0.077257149 0.047542859 1.5600001
0.080228575 0.047542859 1.5600001
0.083573334 0.047756191 1.567
0.086558096 0.047756191 1.567
0.089142859 0.047542859 1.5600001
0.09252762 0.047756191 1.567
0.095512383 0.047756191 1.567
0.098497145 0.047756191 1.567
0.10193525 0.047969524 1.5740001
0.10493334 0.047969524 1.5740001
0.10841143 0.04818286 1.5810001
0.11142286 0.04818286 1.5810001
0.11501334 0.048426669 1.5890001
0.11804 0.048426669 1.5890001
0.12106667 0.048426669 1.5890001
0.12409334 0.048426669 1.5890001
0.12712 0.048426669 1.5890001
0.13014667 0.048426669 1.5890001
0.13317333 0.048426669 1.5890001
0.13680001 0.048640002 1.5960001
0.13984001 0.048640002 1.5960001
0.14288001 0.048640002 1.5960001
0.14528 0.048426669 1.5890001
0.14830667 0.048426669 1.5890001
0.15133333 0.048426669 1.5890001
0.15436001 0.048426669 1.5890001
0.15738668 0.048426669 1.5890001
0.16112001 0.048640002 1.5960001
0.16416001 0.048640002 1.5960001
0.16793334 0.048853334 1.603
0.17098667 0.048853334 1.603
0.17490858 0.049097143 1.6110001
0.17797714 0.049097143 1.6110001
0.18104573 0.049097143 1.6110001
0.18411429 0.049097143 1.6110001
0.18718286 0.049097143 1.6110001
0.19025144 0.049097143 1.6110001
0.19332001 0.049097143 1.6110001
0.19638857 0.049097143 1.6110001
0.19945715 0.049097143 1.6110001
0.20252572 0.049097143 1.6110001
0.20559429 0.049097143 1.6110001
0.20956953 0.049310479 1.618
0.21265143 0.049310479 1.618
0.21573333 0.049310479 1.618
0.21881525 0.049310479 1.618
0.22409144 0.049798097 1.6340001
0.22720382 0.049798097 1.6340001
0.23031619 0.049798097 1.6340001
0.23342858 0.049798097 1.6340001
0.23654096 0.049798097 1.6340001
0.24068001 0.05001143 1.641
0.24380572 0.05001143 1.641
0.24693143 0.05001143 1.641
0.25005716 0.05001143 1.641
0.25318286 0.05001143 1.641
0.25630859 0.05001143 1.641
0.26069906 0.050255239 1.649
0.26384002 0.050255239 1.649
0.26698098 0.050255239 1.649
0.2701219 0.050255239 1.649
0.27458858 0.050499048 1.6570001
0.27774477 0.050499048 1.6570001
0.28225714 0.050742857 1.6650001
0.28542858 0.050742857 1.6650001
0.28998667 0.05098667 1.6730001
0.29317334 0.05098667 1.6730001
0.29636002 0.05098667 1.6730001
0.29954669 0.05098667 1.6730001
0.30273333 0.05098667 1.6730001
0.30592 0.05098667 1.6730001
0.30910668 0.05098667 1.6730001
0.31229335 0.05098667 1.6730001
0.31698859 0.051230479 1.6810001
0.32019049 0.051230479 1.6810001
0.32512382 0.051504765 1.6900001
0.32834285 0.051504765 1.6900001
0.33313143 0.051748574 1.6980001
0.3379505 0.051992383 1.7060001
0.33960003 0.051748574 1.6980001
0.34444955 0.051992383 1.7060001
0.34769905 0.051992383 1.7060001
0.35280001 0.052266669 1.715
0.35606667 0.052266669 1.715
0.36289525 0.052784763 1.7320001
0.36809716 0.053059049 1.7410001
0.36949334 0.052784763 1.7320001
0.37472954 0.053059049 1.7410001
0.38000003 0.053333335 1.7500001
0.38530478 0.05360762 1.7590001
0.39064384 0.053881906 1.7680001
0.39601716 0.054156192 1.7770001
0.40142477 0.054430477 1.7860001
0.40482667 0.054430477 1.7860001
0.41028574 0.054704763 1.7950001
0.41808382 0.055283811 1.8140001
0.42153907 0.055283811 1.8140001
-0.31214857 0.068032384 2.1010001
-0.30814669 0.068032384 2.1010001
-0.30414477 0.068032384 2.1010001
-0.29828572 0.067611434 2.0880001
-0.29261714 0.067222856 2.0760002
-0.28866288 0.067222856 2.0760002
-0.28470859 0.067222856 2.0760002
-0.2789962 0.066801906 2.0630002
-0.27506667 0.066801906 2.0630002
-0.27113715 0.066801906 2.0630002
-0.26720762 0.066801906 2.0630002
-0.26493716 0.067222856 2.0760002
-0.26098287 0.067222856 2.0760002
-0.25541905 0.066801906 2.0630002
-0.25148952 0.066801906 2.0630002
-0.24756001 0.066801906 2.0630002
-0.24363048 0.066801906 2.0630002
-0.23970096 0.066801906 2.0630002
-0.23577143 0.066801906 2.0630002
-0.23330286 0.067222856 2.0760002
-0.2306743 0.067611434 2.0880001
-0.22669715 0.067611434 2.0880001
-0.22272001 0.067611434 2.0880001
-0.22010477 0.068032384 2.1010001
-0.21610287 0.068032384 2.1010001
-0.21078858 0.067611434 2.0880001
-0.20681144 0.067611434 2.0880001
-0.20283429 0.067611434 2.0880001
-0.19885714 0.067611434 2.0880001
-0.19609334 0.068032384 2.1010001
-0.19090286 0.067611434 2.0880001
-0.18808953 0.068032384 2.1010001
-0.18408762 0.068032384 2.1010001
-0.18008572 0.068032384 2.1010001
-0.17608382 0.068032384 2.1010001
-0.17208192 0.068032384 2.1010001
-0.16808 0.068032384 2.1010001
-0.1640781 0.068032384 2.1010001
-0.16106667 0.068453334 2.1140001
-0.15704 0.068453334 2.1140001
-0.15207238 0.068032384 2.1010001
-0.14898667 0.068453334 2.1140001
-0.14496 0.068453334 2.1140001
-0.14093333 0.068453334 2.1140001
-0.13690667 0.068453334 2.1140001
-0.13288 0.068453334 2.1140001
-0.09636572 0.051194288 1.5810001
-0.092940956 0.050967623 1.5740001
-0.089942858 0.050967623 1.5740001
-0.086944766 0.050967623 1.5740001
-0.083573334 0.050740954 1.567
-0.080588572 0.050740954 1.567
-0.077257149 0.050514288 1.5600001
-0.073952384 0.050287619 1.5530001
-0.07035429 0.049834289 1.539
-0.067116193 0.04960762 1.5320001
-0.064198099 0.04960762 1.5320001
-0.061000001 0.049380954 1.5250001
-0.058095239 0.049380954 1.5250001
-0.055190478 0.049380954 1.5250001
-0.052080002 0.049186669 1.5190001
-0.049380954 0.049380954 1.5250001
-0.046293337 0.049186669 1.5190001
-0.043571431 0.049380954 1.5250001
-0.04066667 0.049380954 1.5250001
-0.037761904 0.049380954 1.5250001
-0.034857143 0.049380954 1.5250001
-0.031952381 0.049380954 1.5250001
-0.02904762 0.049380954 1.5250001
-0.026142858 0.049380954 1.5250001
-0.023238096 0.049380954 1.5250001
-0.020333335 0.049380954 1.5250001
-0.017508572 0.04960762 1.5320001
-0.01452381 0.049380954 1.5250001
-0.011619048 0.049380954 1.5250001
-0.008754286 0.04960762 1.5320001
-0.0058361907 0.04960762 1.5320001
-0.0029180953 0.04960762 1.5320001
0 0.04960762 1.5320001
0.0029180953 0.04960762 1.5320001
0.0058628572 0.049834289 1.539
0.0087942863 0.049834289 1.539
0.011725714 0.049834289 1.539
0.014657144 0.049834289 1.539
0.017588573 0.049834289 1.539
0.020520002 0.049834289 1.539
0.023451429 0.049834289 1.539
0.026382858 0.049834289 1.539
0.029314287 0.049834289 1.539
0.032245714 0.049834289 1.539
0.035337143 0.050060954 1.5460001
0.03845524 0.050287619 1.5530001
0.041413333 0.050287619 1.5530001
0.04437143 0.050287619 1.5530001
0.047329526 0.050287619 1.5530001
0.050287619 0.050287619 1.5530001
0.053245716 0.050287619 1.5530001
0.056203812 0.050287619 1.5530001
0.059161905 0.050287619 1.5530001
0.062120002 0.050287619 1.5530001
0.065371431 0.050514288 1.5600001
0.068342857 0.050514288 1.5600001
0.07131429 0.050514288 1.5600001
0.074285716 0.050514288 1.5600001
0.07760381 0.050740954 1.567
0.080588572 0.050740954 1.567
0.083573334 0.050740954 1.567
0.086558096 0.050740954 1.567
0.089542858 0.050740954 1.567
0.09252762 0.050740954 1.567
0.095512383 0.050740954 1.567
0.098937146 0.050967623 1.5740001
0.10193525 0.050967623 1.5740001
0.1054 0.051194288 1.5810001
0.10841143 0.051194288 1.5810001
0.11142286 0.051194288 1.5810001
0.11443429 0.051194288 1.5810001
0.11804 0.051453337 1.5890001
0.12045715 0.051194288 1.5810001
0.12409334 0.051453337 1.5890001
0.12712 0.051453337 1.5890001
0.13014667 0.051453337 1.5890001
0.13317333 0.051453337 1.5890001
0.13680001 0.051680002 1.5960001
0.13984001 0.051680002 1.5960001
0.14288001 0.051680002 1.5960001
0.14528 0.051453337 1.5890001
0.14830667 0.051453337 1.5890001
0.15133333 0.051453337 1.5890001
0.15436001 0.051453337 1.5890001
0.15738668 0.051453337 1.5890001
0.16041334 0.051453337 1.5890001
0.16416001 0.051680002 1.5960001
0.1672 0.051680002 1.5960001
0.17098667 0.051906668 1.603
0.17404 0.051906668 1.603
0.17797714 0.052165717 1.6110001
0.18104573 0.052165717 1.6110001
0.18411429 0.052165717 1.6110001
0.18718286 0.052165717 1.6110001
0.19025144 0.052165717 1.6110001
0.19416001 0.052392382 1.618
0.19638857 0.052165717 1.6110001
0.19945715 0.052165717 1.6110001
0.20340572 0.052392382 1.618
0.20648763 0.052392382 1.618
0.20956953 0.052392382 1.618
0.21265143 0.052392382 1.618
0.21573333 0.052392382 1.618
0.22097905 0.052910477 1.6340001
0.22409144 0.052910477 1.6340001
0.22720382 0.052910477 1.6340001
