# .PCD v0.7 - Point Cloud Data file format
VERSION 0.7
FIELDS x y z
SIZE 4 4 4
TYPE F F F
COUNT 1 1 1
WIDTH 1488
HEIGHT 1
VIEWPOINT 0 0 0 1 0 0 0
POINTS 1488
DATA ascii
0.27066287 0.082019053 2.1530001
0.27476382 0.082019053 2.1530001
0.27886477 0.082019053 2.1530001
0.28125715 0.081523813 2.1400001
0.28533334 0.081523813 2.1400001
0.28940955 0.081523813 2.1400001
0.29170287 0.081028573 2.1270001
0.29756191 0.081523813 2.1400001
0.29980573 0.081028573 2.1270001
0.30385715 0.081028573 2.1270001
0.30790859 0.081028573 2.1270001
0.31196001 0.081028573 2.1270001
0.31601143 0.081028573 2.1270001
0.31810668 0.080533333 2.1140001
0.32213333 0.080533333 2.1140001
0.32616001 0.080533333 2.1140001
0.33018667 0.080533333 2.1140001
0.33421335 0.080533333 2.1140001
0.33824 0.080533333 2.1140001
0.34016192 0.0800381 2.1010001
0.34416384 0.0800381 2.1010001
0.34601143 0.07954286 2.0880001
0.34998858 0.07954286 2.0880001
0.35193145 0.079085715 2.0760002
0.35588571 0.079085715 2.0760002
0.35984001 0.079085715 2.0760002
0.36151621 0.078590482 2.0630002
0.36332002 0.078133337 2.0510001
0.36722669 0.078133337 2.0510001
0.36896193 0.077676192 2.039
0.37284574 0.077676192 2.039
0.3745124 0.077219054 2.0270002
0.37837335 0.077219054 2.0270002
0.38223431 0.077219054 2.0270002
0.38380954 0.076761909 2.0150001
0.38764763 0.076761909 2.0150001
0.38915429 0.076304764 2.003
0.39296955 0.076304764 2.003
0.39460573 0.075885721 1.9920001
0.39380002 0.075009525 1.9690001
0.39532954 0.074590482 1.9580001
0.39681715 0.074171431 1.9470001
0.39826286 0.073752381 1.9360001
0.39966667 0.073333338 1.9250001
0.40333334 0.073333338 1.9250001
0.40488574 0.072952382 1.9150001
0.40618667 0.072533339 1.904
0.40981334 0.072533339 1.904
0.41126859 0.072152384 1.8940001
0.41246668 0.071733333 1.8830001
0.41384381 0.071352385 1.8730001
0.41518286 0.070971429 1.863
0.41648382 0.070590481 1.853
0.42001334 0.070590481 1.853
0.42125717 0.070209526 1.8430001
0.42246288 0.069828577 1.8330001
0.42153907 0.069104761 1.8140001
0.42265144 0.068723813 1.8040001
0.42396191 0.068380952 1.7950001
0.4252381 0.068038099 1.7860001
0.42648003 0.067695238 1.7770001
0.42986476 0.067695238 1.7770001
0.43324953 0.067695238 1.7770001
0.43442288 0.067352384 1.7680001
0.43779048 0.067352384 1.7680001
0.4366667 0.06666667 1.7500001
0.44000003 0.06666667 1.7500001
0.44105336 0.066323809 1.7410001
0.44436955 0.066323809 1.7410001
0.44768572 0.066323809 1.7410001
0.45100191 0.066323809 1.7410001
0.45196953 0.065980956 1.7320001
0.45526859 0.065980956 1.7320001
0.45856765 0.065980956 1.7320001
0.46186668 0.065980956 1.7320001
0.46516573 0.065980956 1.7320001
0.46846479 0.065980956 1.7320001
0.47176382 0.065980956 1.7320001
0.47506288 0.065980956 1.7320001
0.47836193 0.065980956 1.7320001
0.48166096 0.065980956 1.7320001
0.48496002 0.065980956 1.7320001
0.48825908 0.065980956 1.7320001
0.4915581 0.065980956 1.7320001
0.49485716 0.065980956 1.7320001
0.49815622 0.065980956 1.7320001
0.50145525 0.065980956 1.7320001
0.5047543 0.065980956 1.7320001
0.50805336 0.065980956 1.7320001
0.51135242 0.065980956 1.7320001
0.51465142 0.065980956 1.7320001
0.51795048 0.065980956 1.7320001
0.52124953 0.065980956 1.7320001
0.52454859 0.065980956 1.7320001
0.52784765 0.065980956 1.7320001
-0.15201144 0.067919999 1.6980001
-0.14877714 0.067919999 1.6980001
-0.14485715 0.067600004 1.6900001
-0.14088382 0.06724 1.6810001
-0.13768192 0.06724 1.6810001
-0.13384001 0.066920005 1.6730001
-0.13065334 0.066920005 1.6730001
-0.12685715 0.066600002 1.6650001
-0.12368572 0.066600002 1.6650001
-0.12051429 0.066600002 1.6650001
-0.11790667 0.066920005 1.6730001
-0.11417143 0.066600002 1.6650001
-0.111 0.066600002 1.6650001
-0.10782857 0.066600002 1.6650001
-0.10465714 0.066600002 1.6650001
-0.10148571 0.066600002 1.6650001
-0.098314293 0.066600002 1.6650001
-0.095142864 0.066600002 1.6650001
-0.091971435 0.066600002 1.6650001
-0.088800006 0.066600002 1.6650001
-0.085628577 0.066600002 1.6650001
-0.082457148 0.066600002 1.6650001
-0.079666667 0.066920005 1.6730001
-0.076480001 0.066920005 1.6730001
-0.073293336 0.066920005 1.6730001
-0.07010667 0.066920005 1.6730001
-0.066600002 0.066600002 1.6650001
-0.063733339 0.066920005 1.6730001
-0.06054667 0.066920005 1.6730001
-0.057360001 0.066920005 1.6730001
-0.054173335 0.066920005 1.6730001
-0.050742857 0.066600002 1.6650001
-0.047571432 0.066600002 1.6650001
-0.044400003 0.066600002 1.6650001
-0.051405717 0.083040006 2.0760002
-0.047451429 0.083040006 2.0760002
-0.043748572 0.083520003 2.0880001
-0.03977143 0.083520003 2.0880001
-0.036017146 0.084040001 2.1010001
-0.032015238 0.084040001 2.1010001
-0.027840002 0.083520003 2.0880001
-0.024011429 0.084040001 2.1010001
-0.020009525 0.084040001 2.1010001
-0.016007619 0.084040001 2.1010001
-0.012005715 0.084040001 2.1010001
-0.0080533335 0.084559999 2.1140001
-0.0040266667 0.084559999 2.1140001
0 0.085080005 2.1270001
0.0040514288 0.085080005 2.1270001
0.0081028575 0.085080005 2.1270001
0.012228572 0.085600004 2.1400001
0.016304763 0.085600004 2.1400001
0.020380953 0.085600004 2.1400001
0.024457144 0.085600004 2.1400001
0.028533334 0.085600004 2.1400001
0.032609526 0.085600004 2.1400001
0.036685716 0.085600004 2.1400001
0.041009527 0.086120002 2.1530001
0.045110479 0.086120002 2.1530001
0.049211431 0.086120002 2.1530001
0.053312384 0.086120002 2.1530001
0.057413336 0.086120002 2.1530001
0.061514288 0.086120002 2.1530001
0.065615244 0.086120002 2.1530001
0.069716193 0.086120002 2.1530001
0.074297145 0.086680003 2.1670001
0.078424767 0.086680003 2.1670001
0.082552381 0.086680003 2.1670001
0.086680003 0.086680003 2.1670001
0.090807624 0.086680003 2.1670001
0.095548578 0.087240003 2.181
0.099702857 0.087240003 2.181
0.10385714 0.087240003 2.181
0.10801143 0.087240003 2.181
0.11216572 0.087240003 2.181
0.11632001 0.087240003 2.181
0.12119239 0.087760001 2.194
0.12462857 0.087240003 2.181
0.12878287 0.087240003 2.181
0.13293715 0.087240003 2.181
0.13709143 0.087240003 2.181
0.14208762 0.087760001 2.194
0.14626667 0.087760001 2.194
0.15044571 0.087760001 2.194
0.15462476 0.087760001 2.194
0.15880382 0.087760001 2.194
0.16298287 0.087760001 2.194
0.16716191 0.087760001 2.194
0.17134096 0.087760001 2.194
0.17552 0.087760001 2.194
0.17969905 0.087760001 2.194
0.18387811 0.087760001 2.194
0.18805715 0.087760001 2.194
0.1922362 0.087760001 2.194
0.19641525 0.087760001 2.194
0.20059429 0.087760001 2.194
0.20356001 0.087240003 2.181
0.20771429 0.087240003 2.181
0.21186858 0.087240003 2.181
0.21602286 0.087240003 2.181
0.22017714 0.087240003 2.181
0.22433144 0.087240003 2.181
0.22848572 0.087240003 2.181
0.23264001 0.087240003 2.181
0.2352743 0.086680003 2.1670001
0.23940191 0.086680003 2.1670001
0.24352953 0.086680003 2.1670001
0.24765715 0.086680003 2.1670001
0.25178477 0.086680003 2.1670001
0.25591239 0.086680003 2.1670001
0.26004001 0.086680003 2.1670001
0.26416764 0.086680003 2.1670001
0.26829526 0.086680003 2.1670001
0.27242288 0.086680003 2.1670001
0.27476382 0.086120002 2.1530001
0.27886477 0.086120002 2.1530001
0.28125715 0.085600004 2.1400001
0.28533334 0.085600004 2.1400001
0.28940955 0.085600004 2.1400001
0.29348573 0.085600004 2.1400001
0.29756191 0.085600004 2.1400001
0.29980573 0.085080005 2.1270001
0.30385715 0.085080005 2.1270001
0.30790859 0.085080005 2.1270001
0.31196001 0.085080005 2.1270001
0.31601143 0.085080005 2.1270001
0.32006288 0.085080005 2.1270001
0.32411429 0.085080005 2.1270001
0.32616001 0.084559999 2.1140001
0.33018667 0.084559999 2.1140001
0.33421335 0.084559999 2.1140001
0.33824 0.084559999 2.1140001
0.34016192 0.084040001 2.1010001
0.34416384 0.084040001 2.1010001
0.34601143 0.083520003 2.0880001
0.34998858 0.083520003 2.0880001
0.35396573 0.083520003 2.0880001
0.35588571 0.083040006 2.0760002
0.35984001 0.083040006 2.0760002
0.36151621 0.082520001 2.0630002
0.36544573 0.082520001 2.0630002
0.36722669 0.082040004 2.0510001
0.36896193 0.081560001 2.039
0.37284574 0.081560001 2.039
0.3745124 0.081080005 2.0270002
0.37837335 0.081080005 2.0270002
0.38223431 0.081080005 2.0270002
0.38380954 0.080600001 2.0150001
0.38764763 0.080600001 2.0150001
0.38915429 0.080120005 2.003
0.39081144 0.079680003 1.9920001
0.39460573 0.079680003 1.9920001
0.39380002 0.078760006 1.9690001
0.39532954 0.078320004 1.9580001
0.39681715 0.077880003 1.9470001
0.39826286 0.077440001 1.9360001
0.40195048 0.077440001 1.9360001
0.40333334 0.077 1.9250001
0.40488574 0.0766 1.9150001
0.40853333 0.0766 1.9150001
0.40981334 0.076160006 1.904
0.41126859 0.075759999 1.8940001
0.41246668 0.075320005 1.8830001
0.41384381 0.074920006 1.8730001
0.41518286 0.074519999 1.863
0.41648382 0.07412 1.853
0.42001334 0.07412 1.853
0.42125717 0.073720001 1.8430001
0.42476764 0.073720001 1.8430001
0.42153907 0.072560005 1.8140001
0.42499429 0.072560005 1.8140001
0.42608765 0.072160006 1.8040001
0.42738098 0.071800001 1.7950001
0.42864001 0.071440004 1.7860001
0.42986476 0.071079999 1.7770001
0.43324953 0.071079999 1.7770001
0.43442288 0.070720002 1.7680001
0.43779048 0.070720002 1.7680001
0.4366667 0.07 1.7500001
0.44000003 0.07 1.7500001
0.44105336 0.069640003 1.7410001
0.44436955 0.069640003 1.7410001
0.44537145 0.069280006 1.7320001
0.44867051 0.069280006 1.7320001
0.45196953 0.069280006 1.7320001
0.45526859 0.069280006 1.7320001
0.45856765 0.069280006 1.7320001
0.46186668 0.069280006 1.7320001
0.46516573 0.069280006 1.7320001
0.46846479 0.069280006 1.7320001
0.47176382 0.069280006 1.7320001
0.47506288 0.069280006 1.7320001
0.47836193 0.069280006 1.7320001
0.48166096 0.069280006 1.7320001
0.48496002 0.069280006 1.7320001
0.48825908 0.069280006 1.7320001
0.4915581 0.069280006 1.7320001
0.49485716 0.069280006 1.7320001
0.49815622 0.069280006 1.7320001
0.50145525 0.069280006 1.7320001
0.5047543 0.069280006 1.7320001
0.50805336 0.069280006 1.7320001
0.51135242 0.069280006 1.7320001
0.51465142 0.069280006 1.7320001
0.51795048 0.069280006 1.7320001
0.52124953 0.069280006 1.7320001
0.52454859 0.069280006 1.7320001
0.52784765 0.069280006 1.7320001
-0.15201144 0.071154289 1.6980001
-0.14877714 0.071154289 1.6980001
-0.14554286 0.071154289 1.6980001
-0.1416381 0.07081905 1.6900001
-0.13768192 0.070441909 1.6810001
-0.13384001 0.07010667 1.6730001
-0.13065334 0.07010667 1.6730001
-0.12685715 0.069771431 1.6650001
-0.12368572 0.069771431 1.6650001
-0.12051429 0.069771431 1.6650001
-0.11790667 0.07010667 1.6730001
-0.11417143 0.069771431 1.6650001
-0.111 0.069771431 1.6650001
-0.10782857 0.069771431 1.6650001
-0.10465714 0.069771431 1.6650001
-0.10148571 0.069771431 1.6650001
-0.098314293 0.069771431 1.6650001
-0.095142864 0.069771431 1.6650001
-0.091971435 0.069771431 1.6650001
-0.088800006 0.069771431 1.6650001
-0.085628577 0.069771431 1.6650001
-0.082457148 0.069771431 1.6650001
-0.079666667 0.07010667 1.6730001
-0.076114289 0.069771431 1.6650001
-0.07294286 0.069771431 1.6650001
-0.069771431 0.069771431 1.6650001
-0.066600002 0.069771431 1.6650001
-0.063733339 0.07010667 1.6730001
-0.06054667 0.07010667 1.6730001
-0.057360001 0.07010667 1.6730001
-0.054173335 0.07010667 1.6730001
-0.050742857 0.069771431 1.6650001
-0.047571432 0.069771431 1.6650001
-0.044400003 0.069771431 1.6650001
-0.051405717 0.08699429 2.0760002
-0.047725715 0.087497145 2.0880001
-0.043748572 0.087497145 2.0880001
-0.03977143 0.087497145 2.0880001
-0.036017146 0.088041909 2.1010001
-0.032015238 0.088041909 2.1010001
-0.027840002 0.087497145 2.0880001
-0.023862857 0.087497145 2.0880001
-0.019885715 0.087497145 2.0880001
-0.016007619 0.088041909 2.1010001
-0.012005715 0.088041909 2.1010001
-0.0080038095 0.088041909 2.1010001
-0.0040019047 0.088041909 2.1010001
0 0.088586673 2.1140001
0.0040266667 0.088586673 2.1140001
0.0081028575 0.08913143 2.1270001
0.012154286 0.08913143 2.1270001
0.016304763 0.089676194 2.1400001
0.020380953 0.089676194 2.1400001
0.024457144 0.089676194 2.1400001
0.028533334 0.089676194 2.1400001
0.032609526 0.089676194 2.1400001
0.036908574 0.090220958 2.1530001
0.040761907 0.089676194 2.1400001
0.045110479 0.090220958 2.1530001
0.049211431 0.090220958 2.1530001
0.053312384 0.090220958 2.1530001
0.057413336 0.090220958 2.1530001
0.061514288 0.090220958 2.1530001
0.065615244 0.090220958 2.1530001
0.069716193 0.090220958 2.1530001
0.073817149 0.090220958 2.1530001
0.078424767 0.090807624 2.1670001
0.082552381 0.090807624 2.1670001
0.086680003 0.090807624 2.1670001
0.09139429 0.09139429 2.181
0.095548578 0.09139429 2.181
0.099702857 0.09139429 2.181
0.10385714 0.09139429 2.181
0.10801143 0.09139429 2.181
0.11216572 0.09139429 2.181
0.11701334 0.091939054 2.194
0.12119239 0.091939054 2.194
0.12462857 0.09139429 2.181
0.12878287 0.09139429 2.181
0.13293715 0.09139429 2.181
0.13709143 0.09139429 2.181
0.14208762 0.091939054 2.194
0.1454 0.09139429 2.181
0.15044571 0.091939054 2.194
0.15462476 0.091939054 2.194
0.15880382 0.091939054 2.194
0.16298287 0.091939054 2.194
0.16716191 0.091939054 2.194
0.17134096 0.091939054 2.194
0.17552 0.091939054 2.194
0.17969905 0.091939054 2.194
0.18387811 0.091939054 2.194
0.18805715 0.091939054 2.194
0.1922362 0.091939054 2.194
0.19525144 0.09139429 2.181
0.19940571 0.09139429 2.181
0.20356001 0.09139429 2.181
0.20771429 0.09139429 2.181
0.21186858 0.09139429 2.181
0.21602286 0.09139429 2.181
0.22017714 0.09139429 2.181
0.22433144 0.09139429 2.181
0.22848572 0.09139429 2.181
0.23264001 0.09139429 2.181
0.2352743 0.090807624 2.1670001
0.23940191 0.090807624 2.1670001
0.24352953 0.090807624 2.1670001
0.24765715 0.090807624 2.1670001
0.25178477 0.090807624 2.1670001
0.25591239 0.090807624 2.1670001
0.25836 0.090220958 2.1530001
0.26416764 0.090807624 2.1670001
0.26656193 0.090220958 2.1530001
0.27066287 0.090220958 2.1530001
0.27476382 0.090220958 2.1530001
0.27718097 0.089676194 2.1400001
0.28125715 0.089676194 2.1400001
0.28533334 0.089676194 2.1400001
0.28940955 0.089676194 2.1400001
0.29348573 0.089676194 2.1400001
0.29756191 0.089676194 2.1400001
0.3016381 0.089676194 2.1400001
0.30385715 0.08913143 2.1270001
0.30790859 0.08913143 2.1270001
0.31196001 0.08913143 2.1270001
0.31601143 0.08913143 2.1270001
0.32006288 0.08913143 2.1270001
0.32411429 0.08913143 2.1270001
0.32616001 0.088586673 2.1140001
0.33018667 0.088586673 2.1140001
0.33421335 0.088586673 2.1140001
0.33824 0.088586673 2.1140001
0.34016192 0.088041909 2.1010001
0.34416384 0.088041909 2.1010001
0.34601143 0.087497145 2.0880001
0.34998858 0.087497145 2.0880001
0.35193145 0.08699429 2.0760002
0.35588571 0.08699429 2.0760002
0.35984001 0.08699429 2.0760002
0.36151621 0.086449526 2.0630002
0.36544573 0.086449526 2.0630002
0.36722669 0.085946672 2.0510001
0.36896193 0.08544381 2.039
0.37284574 0.08544381 2.039
0.3745124 0.084940955 2.0270002
0.37837335 0.084940955 2.0270002
0.38223431 0.084940955 2.0270002
0.38609526 0.084940955 2.0270002
0.38764763 0.0844381 2.0150001
0.38915429 0.083935238 2.003
0.39296955 0.083935238 2.003
0.39460573 0.083474286 1.9920001
0.39380002 0.082510479 1.9690001
0.39532954 0.082049526 1.9580001
0.39681715 0.081588574 1.9470001
0.39826286 0.081127621 1.9360001
0.39966667 0.080666669 1.9250001
0.40333334 0.080666669 1.9250001
0.40488574 0.080247626 1.9150001
0.40618667 0.079786673 1.904
0.40981334 0.079786673 1.904
0.41126859 0.079367623 1.8940001
0.41246668 0.07890667 1.8830001
0.41605335 0.07890667 1.8830001
0.41741145 0.07848762 1.8730001
0.41873145 0.078068577 1.863
0.42001334 0.077649526 1.853
0.42125717 0.077230476 1.8430001
0.42476764 0.077230476 1.8430001
0.42595431 0.076811433 1.8330001
0.42499429 0.076015241 1.8140001
0.42608765 0.075596191 1.8040001
0.42738098 0.07521905 1.7950001
0.42864001 0.074841909 1.7860001
0.42986476 0.074464768 1.7770001
0.43324953 0.074464768 1.7770001
0.43442288 0.07408762 1.7680001
0.43556193 0.073710479 1.7590001
0.4366667 0.073333338 1.7500001
0.43773717 0.07295619 1.7410001
0.44105336 0.07295619 1.7410001
0.44436955 0.07295619 1.7410001
0.44537145 0.072579049 1.7320001
0.44867051 0.072579049 1.7320001
0.45196953 0.072579049 1.7320001
0.45526859 0.072579049 1.7320001
0.45856765 0.072579049 1.7320001
0.46186668 0.072579049 1.7320001
0.46516573 0.072579049 1.7320001
0.46846479 0.072579049 1.7320001
0.47176382 0.072579049 1.7320001
0.47506288 0.072579049 1.7320001
0.47836193 0.072579049 1.7320001
0.48166096 0.072579049 1.7320001
0.48496002 0.072579049 1.7320001
0.48825908 0.072579049 1.7320001
0.4915581 0.072579049 1.7320001
0.49485716 0.072579049 1.7320001
0.49815622 0.072579049 1.7320001
0.50145525 0.072579049 1.7320001
0.5047543 0.072579049 1.7320001
0.50805336 0.072579049 1.7320001
0.51135242 0.072579049 1.7320001
0.51465142 0.072579049 1.7320001
0.51795048 0.072579049 1.7320001
0.52124953 0.072579049 1.7320001
0.52454859 0.072579049 1.7320001
0.52784765 0.072579049 1.7320001
-0.15201144 0.074388571 1.6980001
-0.14877714 0.074388571 1.6980001
-0.14554286 0.074388571 1.6980001
-0.1416381 0.074038096 1.6900001
-0.13768192 0.073643811 1.6810001
-0.13384001 0.073293336 1.6730001
-0.13065334 0.073293336 1.6730001
-0.12685715 0.07294286 1.6650001
-0.12368572 0.07294286 1.6650001
-0.12051429 0.07294286 1.6650001
-0.11734286 0.07294286 1.6650001
-0.11417143 0.07294286 1.6650001
-0.111 0.07294286 1.6650001
-0.10782857 0.07294286 1.6650001
-0.10465714 0.07294286 1.6650001
-0.10148571 0.07294286 1.6650001
-0.098314293 0.07294286 1.6650001
-0.095142864 0.07294286 1.6650001
-0.091971435 0.07294286 1.6650001
-0.088800006 0.07294286 1.6650001
-0.085628577 0.07294286 1.6650001
-0.082457148 0.07294286 1.6650001
-0.079285719 0.07294286 1.6650001
-0.076114289 0.07294286 1.6650001
-0.07294286 0.07294286 1.6650001
-0.069771431 0.07294286 1.6650001
-0.066600002 0.07294286 1.6650001
-0.063428573 0.07294286 1.6650001
-0.06054667 0.073293336 1.6730001
-0.057360001 0.073293336 1.6730001
-0.054173335 0.073293336 1.6730001
-0.05098667 0.073293336 1.6730001
-0.047800001 0.073293336 1.6730001
-0.055680003 0.091474287 2.0880001
-0.051702861 0.091474287 2.0880001
-0.047725715 0.091474287 2.0880001
-0.043748572 0.091474287 2.0880001
-0.03977143 0.091474287 2.0880001
-0.036017146 0.09204381 2.1010001
-0.032015238 0.09204381 2.1010001
-0.027840002 0.091474287 2.0880001
-0.023862857 0.091474287 2.0880001
-0.019885715 0.091474287 2.0880001
-0.016007619 0.09204381 2.1010001
-0.012005715 0.09204381 2.1010001
-0.0080038095 0.09204381 2.1010001
-0.0040019047 0.09204381 2.1010001
0 0.092613339 2.1140001
0.0040761908 0.093752384 2.1400001
0.0081523815 0.093752384 2.1400001
0.012228572 0.093752384 2.1400001
0.016304763 0.093752384 2.1400001
0.020380953 0.093752384 2.1400001
0.024457144 0.093752384 2.1400001
0.028533334 0.093752384 2.1400001
0.032609526 0.093752384 2.1400001
0.036908574 0.094321907 2.1530001
0.040761907 0.093752384 2.1400001
0.045110479 0.094321907 2.1530001
0.049211431 0.094321907 2.1530001
0.053312384 0.094321907 2.1530001
0.057413336 0.094321907 2.1530001
0.061514288 0.094321907 2.1530001
0.065615244 0.094321907 2.1530001
0.069716193 0.094321907 2.1530001
0.073817149 0.094321907 2.1530001
0.078424767 0.094935238 2.1670001
0.082552381 0.094935238 2.1670001
0.086680003 0.094935238 2.1670001
0.09139429 0.095548578 2.181
0.095548578 0.095548578 2.181
0.099702857 0.095548578 2.181
0.10385714 0.095548578 2.181
0.10801143 0.095548578 2.181
0.11216572 0.095548578 2.181
0.11632001 0.095548578 2.181
0.12047429 0.095548578 2.181
0.12462857 0.095548578 2.181
0.12878287 0.095548578 2.181
0.13293715 0.095548578 2.181
0.13709143 0.095548578 2.181
0.14124572 0.095548578 2.181
0.1454 0.095548578 2.181
0.15044571 0.0961181 2.194
0.15462476 0.0961181 2.194
0.15880382 0.0961181 2.194
0.16298287 0.0961181 2.194
0.16716191 0.0961181 2.194
0.17134096 0.0961181 2.194
0.17552 0.0961181 2.194
0.17969905 0.0961181 2.194
0.18387811 0.0961181 2.194
0.18805715 0.0961181 2.194
0.1922362 0.0961181 2.194
0.19641525 0.0961181 2.194
0.20059429 0.0961181 2.194
0.20356001 0.095548578 2.181
0.20771429 0.095548578 2.181
0.21186858 0.095548578 2.181
0.21602286 0.095548578 2.181
0.22017714 0.095548578 2.181
0.22289144 0.094935238 2.1670001
0.22848572 0.095548578 2.181
0.23114668 0.094935238 2.1670001
0.2352743 0.094935238 2.1670001
0.23785524 0.094321907 2.1530001
0.2419562 0.094321907 2.1530001
0.24765715 0.094935238 2.1670001
0.25178477 0.094935238 2.1670001
0.25425905 0.094321907 2.1530001
0.25836 0.094321907 2.1530001
0.26246098 0.094321907 2.1530001
0.26656193 0.094321907 2.1530001
0.27066287 0.094321907 2.1530001
0.27476382 0.094321907 2.1530001
0.27718097 0.093752384 2.1400001
0.28125715 0.093752384 2.1400001
0.28533334 0.093752384 2.1400001
0.28940955 0.093752384 2.1400001
0.29348573 0.093752384 2.1400001
0.29756191 0.093752384 2.1400001
0.3016381 0.093752384 2.1400001
0.30385715 0.093182862 2.1270001
0.30790859 0.093182862 2.1270001
0.31196001 0.093182862 2.1270001
0.31601143 0.093182862 2.1270001
0.32006288 0.093182862 2.1270001
0.32411429 0.093182862 2.1270001
0.32616001 0.092613339 2.1140001
0.33018667 0.092613339 2.1140001
0.33421335 0.092613339 2.1140001
0.33616 0.09204381 2.1010001
0.34016192 0.09204381 2.1010001
0.34203431 0.091474287 2.0880001
0.34601143 0.091474287 2.0880001
0.34998858 0.091474287 2.0880001
0.35193145 0.090948574 2.0760002
0.35588571 0.090948574 2.0760002
0.35984001 0.090948574 2.0760002
0.36151621 0.090379052 2.0630002
0.36544573 0.090379052 2.0630002
0.36722669 0.089853339 2.0510001
0.37113336 0.089853339 2.0510001
0.37284574 0.089327626 2.039
0.37672955 0.089327626 2.039
0.37837335 0.088801906 2.0270002
0.38223431 0.088801906 2.0270002
0.38380954 0.088276193 2.0150001
0.38764763 0.088276193 2.0150001
0.38915429 0.08775048 2.003
0.39296955 0.08775048 2.003
0.39460573 0.087268576 1.9920001
0.39380002 0.086260952 1.9690001
0.39532954 0.085779049 1.9580001
0.39681715 0.085297145 1.9470001
0.39826286 0.084815241 1.9360001
0.39966667 0.084333338 1.9250001
0.40333334 0.084333338 1.9250001
0.40488574 0.083895244 1.9150001
0.40618667 0.083413333 1.904
0.40981334 0.083413333 1.904
0.41126859 0.082975239 1.8940001
0.41246668 0.082493335 1.8830001
0.41384381 0.082055241 1.8730001
0.41518286 0.081617147 1.863
0.41873145 0.081617147 1.863
0.42001334 0.081179053 1.853
0.42125717 0.080740958 1.8430001
0.42476764 0.080740958 1.8430001
0.42386287 0.079908572 1.8240001
0.42499429 0.079470478 1.8140001
0.42608765 0.079032384 1.8040001
0.42738098 0.078638099 1.7950001
0.42864001 0.078243814 1.7860001
0.43204191 0.078243814 1.7860001
0.43324953 0.07784953 1.7770001
0.43442288 0.077455238 1.7680001
0.43779048 0.077455238 1.7680001
0.4366667 0.076666668 1.7500001
0.44000003 0.076666668 1.7500001
0.44105336 0.076272383 1.7410001
0.44436955 0.076272383 1.7410001
0.44768572 0.076272383 1.7410001
0.45100191 0.076272383 1.7410001
0.45196953 0.075878099 1.7320001
0.45526859 0.075878099 1.7320001
0.45856765 0.075878099 1.7320001
0.46186668 0.075878099 1.7320001
0.46516573 0.075878099 1.7320001
0.46846479 0.075878099 1.7320001
0.47176382 0.075878099 1.7320001
0.47506288 0.075878099 1.7320001
0.47836193 0.075878099 1.7320001
0.48166096 0.075878099 1.7320001
0.48496002 0.075878099 1.7320001
0.48825908 0.075878099 1.7320001
0.4915581 0.075878099 1.7320001
0.49485716 0.075878099 1.7320001
0.49815622 0.075878099 1.7320001
0.50145525 0.075878099 1.7320001
0.5047543 0.075878099 1.7320001
0.50805336 0.075878099 1.7320001
0.51135242 0.075878099 1.7320001
0.51465142 0.075878099 1.7320001
0.51795048 0.075878099 1.7320001
0.52124953 0.075878099 1.7320001
0.52454859 0.075878099 1.7320001
0.52784765 0.075878099 1.7320001
-0.15201144 0.077622861 1.6980001
-0.14877714 0.077622861 1.6980001
-0.14485715 0.077257149 1.6900001
-0.14088382 0.07684572 1.6810001
-0.13768192 0.07684572 1.6810001
-0.13384001 0.076480001 1.6730001
-0.13065334 0.076480001 1.6730001
-0.12685715 0.076114289 1.6650001
-0.12368572 0.076114289 1.6650001
-0.12051429 0.076114289 1.6650001
-0.11734286 0.076114289 1.6650001
-0.11417143 0.076114289 1.6650001
-0.111 0.076114289 1.6650001
-0.10782857 0.076114289 1.6650001
-0.10465714 0.076114289 1.6650001
-0.10148571 0.076114289 1.6650001
-0.098314293 0.076114289 1.6650001
-0.095142864 0.076114289 1.6650001
-0.091971435 0.076114289 1.6650001
-0.088800006 0.076114289 1.6650001
-0.085628577 0.076114289 1.6650001
-0.082457148 0.076114289 1.6650001
-0.079285719 0.076114289 1.6650001
-0.076114289 0.076114289 1.6650001
-0.07294286 0.076114289 1.6650001
-0.069771431 0.076114289 1.6650001
-0.066600002 0.076114289 1.6650001
-0.063733339 0.076480001 1.6730001
-0.06054667 0.076480001 1.6730001
-0.057360001 0.076480001 1.6730001
-0.054173335 0.076480001 1.6730001
-0.05098667 0.076480001 1.6730001
-0.047800001 0.076480001 1.6730001
-0.056026667 0.096045718 2.1010001
-0.052024763 0.096045718 2.1010001
-0.048022859 0.096045718 2.1010001
-0.043748572 0.095451429 2.0880001
-0.03977143 0.095451429 2.0880001
-0.036017146 0.096045718 2.1010001
-0.032015238 0.096045718 2.1010001
-0.027840002 0.095451429 2.0880001
-0.023862857 0.095451429 2.0880001
-0.019885715 0.095451429 2.0880001
-0.016007619 0.096045718 2.1010001
-0.012005715 0.096045718 2.1010001
-0.0080038095 0.096045718 2.1010001
-0.0040266667 0.096640006 2.1140001
0 0.097234286 2.1270001
0.0040761908 0.097828574 2.1400001
0.0081523815 0.097828574 2.1400001
0.012228572 0.097828574 2.1400001
0.016304763 0.097828574 2.1400001
0.020380953 0.097828574 2.1400001
0.024457144 0.097828574 2.1400001
0.028533334 0.097828574 2.1400001
0.032609526 0.097828574 2.1400001
0.036685716 0.097828574 2.1400001
0.040761907 0.097828574 2.1400001
0.044838097 0.097828574 2.1400001
0.048914287 0.097828574 2.1400001
0.053312384 0.098422863 2.1530001
0.057413336 0.098422863 2.1530001
0.061514288 0.098422863 2.1530001
0.065615244 0.098422863 2.1530001
0.069716193 0.098422863 2.1530001
0.073817149 0.098422863 2.1530001
0.078424767 0.09906286 2.1670001
0.082552381 0.09906286 2.1670001
0.086680003 0.09906286 2.1670001
0.09139429 0.099702857 2.181
0.095548578 0.099702857 2.181
0.099702857 0.099702857 2.181
0.10385714 0.099702857 2.181
0.10801143 0.099702857 2.181
0.11216572 0.099702857 2.181
0.11632001 0.099702857 2.181
0.12047429 0.099702857 2.181
0.12462857 0.099702857 2.181
0.12878287 0.099702857 2.181
0.13293715 0.099702857 2.181
0.13790858 0.10029715 2.194
0.14124572 0.099702857 2.181
0.1454 0.099702857 2.181
0.15044571 0.10029715 2.194
0.15462476 0.10029715 2.194
0.15880382 0.10029715 2.194
0.16298287 0.10029715 2.194
0.16716191 0.10029715 2.194
0.17134096 0.10029715 2.194
0.17552 0.10029715 2.194
0.17969905 0.10029715 2.194
0.18387811 0.10029715 2.194
0.18805715 0.10029715 2.194
0.1922362 0.10029715 2.194
0.19641525 0.10029715 2.194
0.20059429 0.10029715 2.194
0.20356001 0.099702857 2.181
0.20771429 0.099702857 2.181
0.21186858 0.099702857 2.181
0.21602286 0.099702857 2.181
0.21876381 0.09906286 2.1670001
0.22289144 0.09906286 2.1670001
0.22701906 0.09906286 2.1670001
0.23114668 0.09906286 2.1670001
0.23375429 0.098422863 2.1530001
0.23785524 0.098422863 2.1530001
0.24352953 0.09906286 2.1670001
0.24765715 0.09906286 2.1670001
0.25178477 0.09906286 2.1670001
0.25591239 0.09906286 2.1670001
0.26004001 0.09906286 2.1670001
0.26416764 0.09906286 2.1670001
0.26829526 0.09906286 2.1670001
0.27066287 0.098422863 2.1530001
0.27476382 0.098422863 2.1530001
0.27718097 0.097828574 2.1400001
0.28125715 0.097828574 2.1400001
0.28533334 0.097828574 2.1400001
0.28940955 0.097828574 2.1400001
0.29348573 0.097828574 2.1400001
0.29756191 0.097828574 2.1400001
0.3016381 0.097828574 2.1400001
0.30571431 0.097828574 2.1400001
0.30790859 0.097234286 2.1270001
0.31196001 0.097234286 2.1270001
0.31601143 0.097234286 2.1270001
0.32006288 0.097234286 2.1270001
0.32411429 0.097234286 2.1270001
0.32616001 0.096640006 2.1140001
0.33018667 0.096640006 2.1140001
0.33421335 0.096640006 2.1140001
0.33824 0.096640006 2.1140001
0.34016192 0.096045718 2.1010001
0.34416384 0.096045718 2.1010001
0.34601143 0.095451429 2.0880001
0.34998858 0.095451429 2.0880001
0.35396573 0.095451429 2.0880001
0.35588571 0.094902858 2.0760002
0.35984001 0.094902858 2.0760002
0.36151621 0.094308577 2.0630002
0.36544573 0.094308577 2.0630002
0.36722669 0.093760006 2.0510001
0.37113336 0.093760006 2.0510001
0.37284574 0.093211435 2.039
0.37672955 0.093211435 2.039
0.37837335 0.092662863 2.0270002
0.38223431 0.092662863 2.0270002
0.38380954 0.092114292 2.0150001
0.38764763 0.092114292 2.0150001
0.38915429 0.091565721 2.003
0.39081144 0.091062859 1.9920001
0.39460573 0.091062859 1.9920001
0.39380002 0.090011433 1.9690001
0.39532954 0.089508578 1.9580001
0.39681715 0.089005716 1.9470001
0.39826286 0.088502862 1.9360001
0.39966667 0.088 1.9250001
0.40333334 0.088 1.9250001
0.40488574 0.087542862 1.9150001
0.40618667 0.08704 1.904
0.40981334 0.08704 1.904
0.41126859 0.086582862 1.8940001
0.41246668 0.08608 1.8830001
0.41384381 0.085622862 1.8730001
0.41518286 0.085165717 1.863
0.41648382 0.084708571 1.853
0.42001334 0.084708571 1.853
0.42125717 0.084251434 1.8430001
0.42476764 0.084251434 1.8430001
0.42595431 0.083794288 1.8330001
0.42499429 0.082925715 1.8140001
0.42608765 0.082468577 1.8040001
0.42738098 0.082057148 1.7950001
0.42864001 0.08164572 1.7860001
0.42986476 0.081234291 1.7770001
0.43324953 0.081234291 1.7770001
0.43442288 0.080822863 1.7680001
0.43556193 0.080411434 1.7590001
0.4366667 0.080000006 1.7500001
0.44000003 0.080000006 1.7500001
0.44105336 0.079588577 1.7410001
0.44436955 0.079588577 1.7410001
0.44768572 0.079588577 1.7410001
0.45100191 0.079588577 1.7410001
0.45196953 0.079177149 1.7320001
0.45526859 0.079177149 1.7320001
0.45856765 0.079177149 1.7320001
0.46186668 0.079177149 1.7320001
0.46516573 0.079177149 1.7320001
0.46846479 0.079177149 1.7320001
0.47176382 0.079177149 1.7320001
0.47506288 0.079177149 1.7320001
0.47836193 0.079177149 1.7320001
0.48166096 0.079177149 1.7320001
0.48496002 0.079177149 1.7320001
0.48825908 0.079177149 1.7320001
0.4915581 0.079177149 1.7320001
0.49485716 0.079177149 1.7320001
0.49815622 0.079177149 1.7320001
0.50145525 0.079177149 1.7320001
0.5047543 0.079177149 1.7320001
0.50805336 0.079177149 1.7320001
0.51135242 0.079177149 1.7320001
0.51465142 0.079177149 1.7320001
0.51795048 0.079177149 1.7320001
0.52124953 0.079177149 1.7320001
0.52182287 0.07876572 1.723
0.52510476 0.07876572 1.723
-0.15201144 0.080857143 1.6980001
-0.14807619 0.080476195 1.6900001
-0.14485715 0.080476195 1.6900001
-0.14088382 0.080047622 1.6810001
-0.13702667 0.079666667 1.6730001
-0.13384001 0.079666667 1.6730001
-0.13065334 0.079666667 1.6730001
-0.12685715 0.079285719 1.6650001
-0.12368572 0.079285719 1.6650001
-0.12051429 0.079285719 1.6650001
-0.11734286 0.079285719 1.6650001
-0.11417143 0.079285719 1.6650001
-0.111 0.079285719 1.6650001
-0.10782857 0.079285719 1.6650001
-0.10465714 0.079285719 1.6650001
-0.10148571 0.079285719 1.6650001
-0.098314293 0.079285719 1.6650001
-0.095142864 0.079285719 1.6650001
-0.091971435 0.079285719 1.6650001
-0.088800006 0.079285719 1.6650001
-0.085628577 0.079285719 1.6650001
-0.082457148 0.079285719 1.6650001
-0.079285719 0.079285719 1.6650001
-0.076114289 0.079285719 1.6650001
-0.07294286 0.079285719 1.6650001
-0.069771431 0.079285719 1.6650001
-0.066920005 0.079666667 1.6730001
-0.063733339 0.079666667 1.6730001
-0.06054667 0.079666667 1.6730001
-0.057360001 0.079666667 1.6730001
-0.054173335 0.079666667 1.6730001
-0.05098667 0.079666667 1.6730001
-0.047342859 0.078904763 1.6570001
-0.044186667 0.078904763 1.6570001
-0.051405717 0.098857149 2.0760002
-0.048022859 0.10004763 2.1010001
-0.043748572 0.099428572 2.0880001
-0.03977143 0.099428572 2.0880001
-0.036017146 0.10004763 2.1010001
-0.032015238 0.10004763 2.1010001
-0.027840002 0.099428572 2.0880001
-0.023862857 0.099428572 2.0880001
-0.019885715 0.099428572 2.0880001
-0.016007619 0.10004763 2.1010001
-0.012005715 0.10004763 2.1010001
-0.0080038095 0.10004763 2.1010001
-0.0040019047 0.10004763 2.1010001
0 0.10066667 2.1140001
0.0040761908 0.10190476 2.1400001
0.0081523815 0.10190476 2.1400001
0.012228572 0.10190476 2.1400001
0.016304763 0.10190476 2.1400001
0.020380953 0.10190476 2.1400001
0.024457144 0.10190476 2.1400001
0.028533334 0.10190476 2.1400001
0.032609526 0.10190476 2.1400001
0.036685716 0.10190476 2.1400001
0.040761907 0.10190476 2.1400001
0.045110479 0.10252381 2.1530001
0.048914287 0.10190476 2.1400001
0.053312384 0.10252381 2.1530001
0.057413336 0.10252381 2.1530001
0.061514288 0.10252381 2.1530001
0.065615244 0.10252381 2.1530001
0.069716193 0.10252381 2.1530001
0.073817149 0.10252381 2.1530001
0.078424767 0.10319048 2.1670001
0.082552381 0.10319048 2.1670001
0.086680003 0.10319048 2.1670001
0.09139429 0.10385714 2.181
0.095548578 0.10385714 2.181
0.099702857 0.10385714 2.181
0.10385714 0.10385714 2.181
0.10801143 0.10385714 2.181
0.11216572 0.10385714 2.181
0.11632001 0.10385714 2.181
0.12047429 0.10385714 2.181
0.12462857 0.10385714 2.181
0.12878287 0.10385714 2.181
0.13293715 0.10385714 2.181
0.13709143 0.10385714 2.181
0.14124572 0.10385714 2.181
0.1454 0.10385714 2.181
0.15044571 0.10447619 2.194
0.15462476 0.10447619 2.194
0.15880382 0.10447619 2.194
0.16298287 0.10447619 2.194
0.16716191 0.10447619 2.194
0.17134096 0.10447619 2.194
0.17552 0.10447619 2.194
0.17969905 0.10447619 2.194
0.18387811 0.10447619 2.194
0.18805715 0.10447619 2.194
0.1922362 0.10447619 2.194
0.19641525 0.10447619 2.194
0.20059429 0.10447619 2.194
0.20356001 0.10385714 2.181
0.20771429 0.10385714 2.181
0.21186858 0.10385714 2.181
0.21602286 0.10385714 2.181
0.22017714 0.10385714 2.181
0.22433144 0.10385714 2.181
0.22701906 0.10319048 2.1670001
0.23114668 0.10319048 2.1670001
0.23375429 0.10252381 2.1530001
0.23785524 0.10252381 2.1530001
0.24352953 0.10319048 2.1670001
0.24765715 0.10319048 2.1670001
0.25178477 0.10319048 2.1670001
0.25591239 0.10319048 2.1670001
0.26004001 0.10319048 2.1670001
0.26416764 0.10319048 2.1670001
0.26829526 0.10319048 2.1670001
0.27066287 0.10252381 2.1530001
0.27476382 0.10252381 2.1530001
0.27886477 0.10252381 2.1530001
0.28125715 0.10190476 2.1400001
0.28533334 0.10190476 2.1400001
0.28940955 0.10190476 2.1400001
0.29348573 0.10190476 2.1400001
0.29756191 0.10190476 2.1400001
0.3016381 0.10190476 2.1400001
0.30571431 0.10190476 2.1400001
0.30790859 0.10128572 2.1270001
0.31196001 0.10128572 2.1270001
0.31601143 0.10128572 2.1270001
0.31810668 0.10066667 2.1140001
0.32411429 0.10128572 2.1270001
0.32616001 0.10066667 2.1140001
0.33018667 0.10066667 2.1140001
0.33421335 0.10066667 2.1140001
0.33616 0.10004763 2.1010001
0.34016192 0.10004763 2.1010001
0.34203431 0.099428572 2.0880001
0.34601143 0.099428572 2.0880001
0.34998858 0.099428572 2.0880001
0.35193145 0.098857149 2.0760002
0.35588571 0.098857149 2.0760002
0.35984001 0.098857149 2.0760002
0.36151621 0.098238096 2.0630002
0.36544573 0.098238096 2.0630002
0.36722669 0.097666673 2.0510001
0.37113336 0.097666673 2.0510001
0.37284574 0.097095244 2.039
0.3745124 0.096523814 2.0270002
0.37837335 0.096523814 2.0270002
0.38223431 0.096523814 2.0270002
0.38380954 0.095952384 2.0150001
0.38764763 0.095952384 2.0150001
0.38915429 0.095380954 2.003
0.39296955 0.095380954 2.003
0.39460573 0.094857149 1.9920001
0.39380002 0.093761906 1.9690001
0.39755049 0.093761906 1.9690001
0.39681715 0.092714287 1.9470001
0.40052572 0.092714287 1.9470001
0.40195048 0.092190482 1.9360001
0.40333334 0.091666669 1.9250001
0.40488574 0.09119048 1.9150001
0.40618667 0.090666667 1.904
0.40981334 0.090666667 1.904
0.41126859 0.090190478 1.8940001
0.41246668 0.089666672 1.8830001
0.41384381 0.089190483 1.8730001
0.41518286 0.088714287 1.863
0.41648382 0.088238098 1.853
0.42001334 0.088238098 1.853
0.42125717 0.087761909 1.8430001
0.42476764 0.087761909 1.8430001
0.42595431 0.08728572 1.8330001
0.42499429 0.086380959 1.8140001
0.42608765 0.085904762 1.8040001
0.42738098 0.085476197 1.7950001
0.42864001 0.085047625 1.7860001
0.42986476 0.084619053 1.7770001
0.43105525 0.08419048 1.7680001
0.43442288 0.08419048 1.7680001
0.43556193 0.083761908 1.7590001
0.4366667 0.083333336 1.7500001
0.44000003 0.083333336 1.7500001
0.44105336 0.082904764 1.7410001
0.44436955 0.082904764 1.7410001
0.44768572 0.082904764 1.7410001
0.45100191 0.082904764 1.7410001
0.45196953 0.082476191 1.7320001
0.45526859 0.082476191 1.7320001
0.45856765 0.082476191 1.7320001
0.46186668 0.082476191 1.7320001
0.46516573 0.082476191 1.7320001
0.46846479 0.082476191 1.7320001
0.47176382 0.082476191 1.7320001
0.47506288 0.082476191 1.7320001
0.47836193 0.082476191 1.7320001
0.48166096 0.082476191 1.7320001
0.48496002 0.082476191 1.7320001
0.48825908 0.082476191 1.7320001
0.4915581 0.082476191 1.7320001
0.49485716 0.082476191 1.7320001
0.49815622 0.082476191 1.7320001
0.50145525 0.082476191 1.7320001
0.5047543 0.082476191 1.7320001
0.50805336 0.082476191 1.7320001
0.51135242 0.082476191 1.7320001
0.51465142 0.082476191 1.7320001
0.51795048 0.082476191 1.7320001
0.51854098 0.082047619 1.723
0.52182287 0.082047619 1.723
0.52510476 0.082047619 1.723
-0.15201144 0.084091432 1.6980001
-0.14807619 0.08369524 1.6900001
-0.14485715 0.08369524 1.6900001
-0.14088382 0.083249524 1.6810001
-0.13702667 0.08285334 1.6730001
-0.13384001 0.08285334 1.6730001
-0.13065334 0.08285334 1.6730001
-0.12685715 0.082457148 1.6650001
-0.12368572 0.082457148 1.6650001
-0.12051429 0.082457148 1.6650001
-0.11734286 0.082457148 1.6650001
-0.11417143 0.082457148 1.6650001
-0.111 0.082457148 1.6650001
-0.10782857 0.082457148 1.6650001
-0.10465714 0.082457148 1.6650001
-0.10148571 0.082457148 1.6650001
-0.098314293 0.082457148 1.6650001
-0.095142864 0.082457148 1.6650001
-0.091971435 0.082457148 1.6650001
-0.088800006 0.082457148 1.6650001
-0.085628577 0.082457148 1.6650001
-0.082457148 0.082457148 1.6650001
-0.079285719 0.082457148 1.6650001
-0.076114289 0.082457148 1.6650001
-0.07294286 0.082457148 1.6650001
-0.07010667 0.08285334 1.6730001
-0.066920005 0.08285334 1.6730001
-0.063733339 0.08285334 1.6730001
-0.06054667 0.08285334 1.6730001
-0.057360001 0.08285334 1.6730001
-0.054173335 0.08285334 1.6730001
-0.05098667 0.08285334 1.6730001
-0.047342859 0.082060955 1.6570001
-0.044186667 0.082060955 1.6570001
-0.051405717 0.10281143 2.0760002
-0.048022859 0.10404953 2.1010001
-0.043748572 0.10340572 2.0880001
-0.03977143 0.10340572 2.0880001
-0.036017146 0.10404953 2.1010001
-0.032015238 0.10404953 2.1010001
-0.027840002 0.10340572 2.0880001
-0.023862857 0.10340572 2.0880001
-0.019885715 0.10340572 2.0880001
-0.016007619 0.10404953 2.1010001
-0.012005715 0.10404953 2.1010001
-0.0080038095 0.10404953 2.1010001
-0.0040019047 0.10404953 2.1010001
0 0.10469334 2.1140001
0.0040514288 0.10533715 2.1270001
0.0081523815 0.10598096 2.1400001
0.012228572 0.10598096 2.1400001
0.016304763 0.10598096 2.1400001
0.020380953 0.10598096 2.1400001
0.024457144 0.10598096 2.1400001
0.028533334 0.10598096 2.1400001
0.032609526 0.10598096 2.1400001
0.036908574 0.10662477 2.1530001
0.040761907 0.10598096 2.1400001
0.045110479 0.10662477 2.1530001
0.049211431 0.10662477 2.1530001
0.053312384 0.10662477 2.1530001
0.057413336 0.10662477 2.1530001
0.061514288 0.10662477 2.1530001
0.065615244 0.10662477 2.1530001
0.069716193 0.10662477 2.1530001
0.074297145 0.1073181 2.1670001
0.078424767 0.1073181 2.1670001
0.082552381 0.1073181 2.1670001
0.087240003 0.10801143 2.181
0.09139429 0.10801143 2.181
0.095548578 0.10801143 2.181
0.099702857 0.10801143 2.181
0.10447619 0.10865524 2.194
0.10801143 0.10801143 2.181
0.11283429 0.10865524 2.194
0.11701334 0.10865524 2.194
0.12119239 0.10865524 2.194
0.12462857 0.10801143 2.181
0.12878287 0.10801143 2.181
0.13293715 0.10801143 2.181
0.13790858 0.10865524 2.194
0.14124572 0.10801143 2.181
0.1454 0.10801143 2.181
0.15044571 0.10865524 2.194
0.15462476 0.10865524 2.194
0.15880382 0.10865524 2.194
0.16298287 0.10865524 2.194
0.16716191 0.10865524 2.194
0.17134096 0.10865524 2.194
0.17552 0.10865524 2.194
0.17969905 0.10865524 2.194
0.18387811 0.10865524 2.194
0.18805715 0.10865524 2.194
0.1922362 0.10865524 2.194
0.19641525 0.10865524 2.194
0.20059429 0.10865524 2.194
0.20356001 0.10801143 2.181
0.20771429 0.10801143 2.181
0.21186858 0.10801143 2.181
0.21602286 0.10801143 2.181
0.22017714 0.10801143 2.181
0.22433144 0.10801143 2.181
0.22848572 0.10801143 2.181
0.23114668 0.1073181 2.1670001
0.2352743 0.1073181 2.1670001
0.23785524 0.10662477 2.1530001
0.24352953 0.1073181 2.1670001
0.24765715 0.1073181 2.1670001
0.25178477 0.1073181 2.1670001
0.25591239 0.1073181 2.1670001
0.26004001 0.1073181 2.1670001
0.26416764 0.1073181 2.1670001
0.26656193 0.10662477 2.1530001
0.27066287 0.10662477 2.1530001
0.27476382 0.10662477 2.1530001
0.27718097 0.10598096 2.1400001
0.28125715 0.10598096 2.1400001
0.28533334 0.10598096 2.1400001
0.28940955 0.10598096 2.1400001
0.29348573 0.10598096 2.1400001
0.29756191 0.10598096 2.1400001
0.3016381 0.10598096 2.1400001
0.30385715 0.10533715 2.1270001
0.30790859 0.10533715 2.1270001
0.31196001 0.10533715 2.1270001
0.31601143 0.10533715 2.1270001
0.31810668 0.10469334 2.1140001
0.32213333 0.10469334 2.1140001
0.32616001 0.10469334 2.1140001
0.33018667 0.10469334 2.1140001
0.33421335 0.10469334 2.1140001
0.33616 0.10404953 2.1010001
0.34016192 0.10404953 2.1010001
0.34203431 0.10340572 2.0880001
0.34601143 0.10340572 2.0880001
0.34998858 0.10340572 2.0880001
0.35193145 0.10281143 2.0760002
0.35588571 0.10281143 2.0760002
0.35984001 0.10281143 2.0760002
0.36151621 0.10216762 2.0630002
0.36544573 0.10216762 2.0630002
0.36722669 0.10157334 2.0510001
0.37113336 0.10157334 2.0510001
0.37284574 0.10097905 2.039
0.3745124 0.10038476 2.0270002
0.37837335 0.10038476 2.0270002
0.38223431 0.10038476 2.0270002
0.38380954 0.099790476 2.0150001
0.38764763 0.099790476 2.0150001
0.38915429 0.099196196 2.003
0.39081144 0.098651432 1.9920001
0.39460573 0.098651432 1.9920001
0.39380002 0.097512387 1.9690001
0.39532954 0.096967623 1.9580001
0.39681715 0.096422859 1.9470001
0.40052572 0.096422859 1.9470001
0.40195048 0.095878102 1.9360001
0.40333334 0.095333338 1.9250001
0.40488574 0.094838098 1.9150001
0.40853333 0.094838098 1.9150001
0.40981334 0.094293334 1.904
0.41126859 0.093798101 1.8940001
0.41246668 0.093253337 1.8830001
0.41384381 0.092758097 1.8730001
0.41518286 0.092262864 1.863
0.41648382 0.091767624 1.853
0.42001334 0.091767624 1.853
0.42125717 0.091272384 1.8430001
0.42246288 0.090777144 1.8330001
0.42386287 0.090331435 1.8240001
0.42499429 0.089836195 1.8140001
0.42608765 0.089340955 1.8040001
0.42738098 0.088895239 1.7950001
0.42864001 0.08844953 1.7860001
0.42986476 0.088003814 1.7770001
0.43105525 0.087558098 1.7680001
0.43442288 0.087558098 1.7680001
0.43556193 0.087112382 1.7590001
0.4366667 0.086666673 1.7500001
0.44000003 0.086666673 1.7500001
0.44105336 0.086220957 1.7410001
0.44436955 0.086220957 1.7410001
0.44768572 0.086220957 1.7410001
0.45100191 0.086220957 1.7410001
0.45196953 0.085775241 1.7320001
0.45526859 0.085775241 1.7320001
0.45856765 0.085775241 1.7320001
0.46186668 0.085775241 1.7320001
0.46516573 0.085775241 1.7320001
0.46846479 0.085775241 1.7320001
0.47176382 0.085775241 1.7320001
0.47506288 0.085775241 1.7320001
0.47836193 0.085775241 1.7320001
0.48166096 0.085775241 1.7320001
0.48496002 0.085775241 1.7320001
0.48825908 0.085775241 1.7320001
0.4915581 0.085775241 1.7320001
0.49485716 0.085775241 1.7320001
0.49815622 0.085775241 1.7320001
0.50145525 0.085775241 1.7320001
0.5047543 0.085775241 1.7320001
0.50805336 0.085775241 1.7320001
0.51135242 0.085775241 1.7320001
0.51465142 0.085775241 1.7320001
0.51525909 0.085329525 1.723
0.51854098 0.085329525 1.723
0.52182287 0.085329525 1.723
0.52510476 0.085329525 1.723
-0.15129524 0.086914286 1.6900001
-0.14807619 0.086914286 1.6900001
-0.14408572 0.086451434 1.6810001
-0.14088382 0.086451434 1.6810001
-0.13702667 0.086040005 1.6730001
-0.13384001 0.086040005 1.6730001
-0.13065334 0.086040005 1.6730001
-0.12685715 0.085628577 1.6650001
-0.12368572 0.085628577 1.6650001
-0.12051429 0.085628577 1.6650001
-0.11734286 0.085628577 1.6650001
-0.11417143 0.085628577 1.6650001
-0.111 0.085628577 1.6650001
-0.10782857 0.085628577 1.6650001
-0.10465714 0.085628577 1.6650001
-0.10148571 0.085628577 1.6650001
-0.098314293 0.085628577 1.6650001
-0.095142864 0.085628577 1.6650001
-0.091971435 0.085628577 1.6650001
-0.088800006 0.085628577 1.6650001
-0.085628577 0.085628577 1.6650001
-0.082457148 0.085628577 1.6650001
-0.079285719 0.085628577 1.6650001
-0.076480001 0.086040005 1.6730001
-0.073293336 0.086040005 1.6730001
-0.07010667 0.086040005 1.6730001
-0.066920005 0.086040005 1.6730001
-0.063733339 0.086040005 1.6730001
-0.060836192 0.086451434 1.6810001
-0.057360001 0.086040005 1.6730001
-0.054173335 0.086040005 1.6730001
-0.050742857 0.085628577 1.6650001
-0.047571432 0.085628577 1.6650001
-0.044400003 0.085628577 1.6650001
-0.052024763 0.10805143 2.1010001
-0.048022859 0.10805143 2.1010001
-0.043748572 0.10738286 2.0880001
-0.04001905 0.10805143 2.1010001
-0.036017146 0.10805143 2.1010001
-0.032015238 0.10805143 2.1010001
-0.027840002 0.10738286 2.0880001
-0.023862857 0.10738286 2.0880001
-0.019885715 0.10738286 2.0880001
-0.016007619 0.10805143 2.1010001
-0.012005715 0.10805143 2.1010001
-0.0080038095 0.10805143 2.1010001
-0.0040019047 0.10805143 2.1010001
0 0.10938857 2.1270001
0.0040514288 0.10938857 2.1270001
0.0081028575 0.10938857 2.1270001
0.012228572 0.11005715 2.1400001
0.016304763 0.11005715 2.1400001
0.020380953 0.11005715 2.1400001
0.024457144 0.11005715 2.1400001
0.028533334 0.11005715 2.1400001
0.032609526 0.11005715 2.1400001
0.036908574 0.11072572 2.1530001
0.040761907 0.11005715 2.1400001
0.045110479 0.11072572 2.1530001
0.049211431 0.11072572 2.1530001
0.053312384 0.11072572 2.1530001
0.057413336 0.11072572 2.1530001
0.061514288 0.11072572 2.1530001
0.065615244 0.11072572 2.1530001
0.069716193 0.11072572 2.1530001
0.073817149 0.11072572 2.1530001
0.078424767 0.11144572 2.1670001
0.082552381 0.11144572 2.1670001
0.086680003 0.11144572 2.1670001
0.09139429 0.11216572 2.181
0.095548578 0.11216572 2.181
0.099702857 0.11216572 2.181
0.10385714 0.11216572 2.181
0.10801143 0.11216572 2.181
0.11216572 0.11216572 2.181
0.11632001 0.11216572 2.181
0.12119239 0.11283429 2.194
0.12462857 0.11216572 2.181
0.12878287 0.11216572 2.181
0.13293715 0.11216572 2.181
0.13709143 0.11216572 2.181
0.14124572 0.11216572 2.181
0.1454 0.11216572 2.181
0.15044571 0.11283429 2.194
0.15462476 0.11283429 2.194
0.15880382 0.11283429 2.194
0.16298287 0.11283429 2.194
0.16716191 0.11283429 2.194
0.17134096 0.11283429 2.194
0.17552 0.11283429 2.194
0.17969905 0.11283429 2.194
0.18387811 0.11283429 2.194
0.18805715 0.11283429 2.194
0.19346286 0.11355429 2.2080002
0.19641525 0.11283429 2.194
0.20059429 0.11283429 2.194
0.20356001 0.11216572 2.181
0.20771429 0.11216572 2.181
0.21186858 0.11216572 2.181
0.21602286 0.11216572 2.181
0.22017714 0.11216572 2.181
0.22433144 0.11216572 2.181
0.22848572 0.11216572 2.181
0.23114668 0.11144572 2.1670001
0.2352743 0.11144572 2.1670001
0.23940191 0.11144572 2.1670001
0.24352953 0.11144572 2.1670001
0.24765715 0.11144572 2.1670001
0.25178477 0.11144572 2.1670001
0.25591239 0.11144572 2.1670001
0.25836 0.11072572 2.1530001
0.26246098 0.11072572 2.1530001
0.26656193 0.11072572 2.1530001
0.27066287 0.11072572 2.1530001
0.27310476 0.11005715 2.1400001
0.27718097 0.11005715 2.1400001
0.28125715 0.11005715 2.1400001
0.28533334 0.11005715 2.1400001
0.28940955 0.11005715 2.1400001
0.29348573 0.11005715 2.1400001
0.29756191 0.11005715 2.1400001
0.29980573 0.10938857 2.1270001
0.30385715 0.10938857 2.1270001
0.30790859 0.10938857 2.1270001
0.31196001 0.10938857 2.1270001
0.31601143 0.10938857 2.1270001
0.31810668 0.10872 2.1140001
0.32213333 0.10872 2.1140001
0.32616001 0.10872 2.1140001
0.33018667 0.10872 2.1140001
0.33421335 0.10872 2.1140001
0.33616 0.10805143 2.1010001
0.34016192 0.10805143 2.1010001
0.34416384 0.10805143 2.1010001
0.34601143 0.10738286 2.0880001
0.34998858 0.10738286 2.0880001
0.35193145 0.10676572 2.0760002
0.35588571 0.10676572 2.0760002
0.35984001 0.10676572 2.0760002
0.36151621 0.10609715 2.0630002
0.36332002 0.10548 2.0510001
0.36722669 0.10548 2.0510001
0.37113336 0.10548 2.0510001
0.37284574 0.10486286 2.039
0.3745124 0.10424571 2.0270002
