# .PCD v0.7 - Point Cloud Data file format
VERSION 0.7
FIELDS x y z
SIZE 4 4 4
TYPE F F F
COUNT 1 1 1
WIDTH 1558
HEIGHT 1
VIEWPOINT 0 0 0 1 0 0 0
POINTS 1558
DATA ascii
0.3109543 0.091087624 1.649
0.31409526 0.091087624 1.649
0.31723621 0.091087624 1.649
0.31882286 0.090645716 1.641
0.32057524 0.090259053 1.6340001
0.32368764 0.090259053 1.6340001
0.32680002 0.090259053 1.6340001
0.32991239 0.090259053 1.6340001
0.33302477 0.090259053 1.6340001
0.33613715 0.090259053 1.6340001
0.33924952 0.090259053 1.6340001
0.34236193 0.090259053 1.6340001
0.3454743 0.090259053 1.6340001
0.34858668 0.090259053 1.6340001
0.35169905 0.090259053 1.6340001
0.35481143 0.090259053 1.6340001
0.35792384 0.090259053 1.6340001
0.36258286 0.090645716 1.641
0.36570859 0.090645716 1.641
0.37063238 0.091087624 1.649
0.37377334 0.091087624 1.649
0.38057145 0.091971435 1.6650001
0.38374287 0.091971435 1.6650001
0.38877335 0.092413336 1.6730001
0.39196002 0.092413336 1.6730001
-0.26614287 0.10645714 1.863
-0.26259428 0.10645714 1.863
-0.25765523 0.10588572 1.853
-0.25412571 0.10588572 1.853
-0.2505962 0.10588572 1.853
-0.24706668 0.10588572 1.853
-0.24353716 0.10588572 1.853
-0.24000762 0.10588572 1.853
-0.23647811 0.10588572 1.853
-0.23294859 0.10588572 1.853
-0.22818096 0.10531429 1.8430001
-0.22467048 0.10531429 1.8430001
-0.21996 0.10474286 1.8330001
-0.21646857 0.10474286 1.8330001
-0.21297716 0.10474286 1.8330001
-0.20948572 0.10474286 1.8330001
-0.20599429 0.10474286 1.8330001
-0.20250286 0.10474286 1.8330001
-0.19901143 0.10474286 1.8330001
-0.19658667 0.10531429 1.8430001
-0.19307619 0.10531429 1.8430001
-0.18956572 0.10531429 1.8430001
-0.18807429 0.10645714 1.863
-0.18452573 0.10645714 1.863
-0.18097715 0.10645714 1.863
-0.17838097 0.10702857 1.8730001
-0.17574668 0.1076 1.8830001
-0.17216 0.1076 1.8830001
-0.16955811 0.10822857 1.8940001
-0.16779049 0.10942858 1.9150001
-0.16414286 0.10942858 1.9150001
-0.16133334 0.11000001 1.9250001
-0.15766667 0.11000001 1.9250001
-0.154 0.11000001 1.9250001
-0.15119238 0.11062858 1.9360001
-0.14834286 0.11125714 1.9470001
-0.14545143 0.11188572 1.9580001
-0.1425181 0.11251429 1.9690001
-0.13876763 0.11251429 1.9690001
-0.13501714 0.11251429 1.9690001
-0.132 0.11314286 1.9800001
-0.1297181 0.11445715 2.003
-0.12590286 0.11445715 2.003
-0.12208762 0.11445715 2.003
-0.11898096 0.11514286 2.0150001
-0.11514286 0.11514286 2.0150001
-0.11263048 0.11651429 2.039
-0.10938667 0.1172 2.0510001
-0.10548 0.1172 2.0510001
-0.10216762 0.11788572 2.0630002
-0.098857149 0.11862858 2.0760002
-0.094902858 0.11862858 2.0760002
-0.091474287 0.11931429 2.0880001
-0.087497145 0.11931429 2.0880001
-0.084040001 0.12005715 2.1010001
-0.0800381 0.12005715 2.1010001
-0.076036192 0.12005715 2.1010001
-0.072480001 0.1208 2.1140001
-0.068453334 0.1208 2.1140001
-0.064426668 0.1208 2.1140001
-0.060771432 0.12154286 2.1270001
-0.056720003 0.12154286 2.1270001
-0.052990478 0.12228572 2.1400001
-0.048914287 0.12228572 2.1400001
-0.045110479 0.12302858 2.1530001
-0.041009527 0.12302858 2.1530001
-0.036908574 0.12302858 2.1530001
-0.032807622 0.12302858 2.1530001
-0.028533334 0.12228572 2.1400001
-0.024605716 0.12302858 2.1530001
-0.020504763 0.12302858 2.1530001
-0.016403811 0.12302858 2.1530001
-0.012302858 0.12302858 2.1530001
-0.0082019055 0.12302858 2.1530001
-0.0041276193 0.12382858 2.1670001
0 0.12382858 2.1670001
0.0041276193 0.12382858 2.1670001
0.0083085718 0.12462857 2.181
0.012462857 0.12462857 2.181
0.016716192 0.12537143 2.194
0.020895239 0.12537143 2.194
0.025074286 0.12537143 2.194
0.029253334 0.12537143 2.194
0.033432383 0.12537143 2.194
0.037611429 0.12537143 2.194
0.041790478 0.12537143 2.194
0.045969527 0.12537143 2.194
0.050468571 0.12617144 2.2080002
0.054327622 0.12537143 2.194
0.058506668 0.12537143 2.194
0.062685713 0.12537143 2.194
0.066864766 0.12537143 2.194
0.071043812 0.12537143 2.194
0.075222857 0.12537143 2.194
0.07940191 0.12537143 2.194
0.083580956 0.12537143 2.194
0.087760001 0.12537143 2.194
0.091939054 0.12537143 2.194
0.096731432 0.12617144 2.2080002
0.10093714 0.12617144 2.2080002
0.10514286 0.12617144 2.2080002
0.10934857 0.12617144 2.2080002
0.11355429 0.12617144 2.2080002
0.11776 0.12617144 2.2080002
0.12196572 0.12617144 2.2080002
0.12617144 0.12617144 2.2080002
0.13037714 0.12617144 2.2080002
0.13458286 0.12617144 2.2080002
0.13878858 0.12617144 2.2080002
0.14299428 0.12617144 2.2080002
0.1472 0.12617144 2.2080002
0.15140572 0.12617144 2.2080002
0.15561144 0.12617144 2.2080002
0.15981714 0.12617144 2.2080002
0.16402286 0.12617144 2.2080002
0.16822858 0.12617144 2.2080002
0.17243429 0.12617144 2.2080002
0.17664 0.12617144 2.2080002
0.18084572 0.12617144 2.2080002
0.18505144 0.12617144 2.2080002
0.18805715 0.12537143 2.194
0.1922362 0.12537143 2.194
0.19641525 0.12537143 2.194
0.19940571 0.12462857 2.181
0.20356001 0.12462857 2.181
0.20771429 0.12462857 2.181
0.21186858 0.12462857 2.181
0.21602286 0.12462857 2.181
0.22017714 0.12462857 2.181
0.22433144 0.12462857 2.181
0.22848572 0.12462857 2.181
0.23264001 0.12462857 2.181
0.23679429 0.12462857 2.181
0.24094859 0.12462857 2.181
0.24510287 0.12462857 2.181
0.24925715 0.12462857 2.181
0.25341144 0.12462857 2.181
0.25756574 0.12462857 2.181
0.26172 0.12462857 2.181
0.26416764 0.12382858 2.1670001
0.26829526 0.12382858 2.1670001
0.27242288 0.12382858 2.1670001
0.27476382 0.12302858 2.1530001
0.27718097 0.12228572 2.1400001
0.28125715 0.12228572 2.1400001
0.28533334 0.12228572 2.1400001
0.28940955 0.12228572 2.1400001
0.29348573 0.12228572 2.1400001
0.29575428 0.12154286 2.1270001
0.29980573 0.12154286 2.1270001
0.30385715 0.12154286 2.1270001
0.30790859 0.12154286 2.1270001
0.31005335 0.1208 2.1140001
0.31408 0.1208 2.1140001
0.31810668 0.1208 2.1140001
0.32213333 0.1208 2.1140001
0.32415429 0.12005715 2.1010001
0.32612574 0.11931429 2.0880001
0.33010286 0.11931429 2.0880001
0.33216003 0.11862858 2.0760002
0.33611429 0.11862858 2.0760002
0.33793905 0.11788572 2.0630002
0.34186858 0.11788572 2.0630002
0.34579811 0.11788572 2.0630002
0.28496954 0.096057147 1.6810001
0.2868 0.095600002 1.6730001
0.28998667 0.095600002 1.6730001
0.29177144 0.095142864 1.6650001
0.29352573 0.094685718 1.6570001
0.29668191 0.094685718 1.6570001
0.29839048 0.094228573 1.649
0.30153143 0.094228573 1.649
0.30467239 0.094228573 1.649
0.30781335 0.094228573 1.649
0.3109543 0.094228573 1.649
0.31409526 0.094228573 1.649
0.31723621 0.094228573 1.649
0.31882286 0.093771435 1.641
0.32057524 0.093371429 1.6340001
0.32368764 0.093371429 1.6340001
0.32680002 0.093371429 1.6340001
0.32991239 0.093371429 1.6340001
0.33302477 0.093371429 1.6340001
0.33613715 0.093371429 1.6340001
0.33924952 0.093371429 1.6340001
0.34236193 0.093371429 1.6340001
0.3454743 0.093371429 1.6340001
0.34858668 0.093371429 1.6340001
0.35169905 0.093371429 1.6340001
0.35481143 0.093371429 1.6340001
0.35792384 0.093371429 1.6340001
0.36258286 0.093771435 1.641
0.36570859 0.093771435 1.641
0.37063238 0.094228573 1.649
0.37377334 0.094228573 1.649
0.38057145 0.095142864 1.6650001
0.38374287 0.095142864 1.6650001
0.39644191 0.097485721 1.7060001
0.39969143 0.097485721 1.7060001
-0.26969144 0.11000572 1.863
-0.26757145 0.11059619 1.8730001
-0.26259428 0.11000572 1.863
-0.25904572 0.11000572 1.863
-0.25412571 0.10941524 1.853
-0.2505962 0.10941524 1.853
-0.24706668 0.10941524 1.853
-0.24353716 0.10941524 1.853
-0.24000762 0.10941524 1.853
-0.23647811 0.10941524 1.853
-0.23294859 0.10941524 1.853
-0.22941905 0.10941524 1.853
-0.22467048 0.10882477 1.8430001
-0.22116001 0.10882477 1.8430001
-0.21764953 0.10882477 1.8430001
-0.21297716 0.10823429 1.8330001
-0.20948572 0.10823429 1.8330001
-0.20599429 0.10823429 1.8330001
-0.20250286 0.10823429 1.8330001
-0.19901143 0.10823429 1.8330001
-0.19658667 0.10882477 1.8430001
-0.19307619 0.10882477 1.8430001
-0.18956572 0.10882477 1.8430001
-0.18706477 0.10941524 1.853
-0.18452573 0.11000572 1.863
-0.18194857 0.11059619 1.8730001
-0.17838097 0.11059619 1.8730001
-0.17574668 0.11118667 1.8830001
-0.17216 0.11118667 1.8830001
-0.16955811 0.11183619 1.8940001
-0.16779049 0.1130762 1.9150001
-0.16414286 0.1130762 1.9150001
-0.16133334 0.11366667 1.9250001
-0.15766667 0.11366667 1.9250001
-0.154 0.11366667 1.9250001
-0.15119238 0.1143162 1.9360001
-0.14834286 0.11496572 1.9470001
-0.14545143 0.11561524 1.9580001
-0.1425181 0.11626477 1.9690001
-0.13876763 0.11626477 1.9690001
-0.13501714 0.11626477 1.9690001
-0.132 0.11691429 1.9800001
-0.1297181 0.11827239 2.003
-0.12590286 0.11827239 2.003
-0.12208762 0.11827239 2.003
-0.11898096 0.11898096 2.0150001
-0.11582857 0.11968953 2.0270002
-0.11329333 0.12110667 2.0510001
-0.10938667 0.12110667 2.0510001
-0.10548 0.12110667 2.0510001
-0.10216762 0.12181524 2.0630002
-0.098238096 0.12181524 2.0630002
-0.094902858 0.12258286 2.0760002
-0.091474287 0.12329143 2.0880001
-0.087497145 0.12329143 2.0880001
-0.084040001 0.12405905 2.1010001
-0.0800381 0.12405905 2.1010001
-0.076506667 0.12482667 2.1140001
-0.072480001 0.12482667 2.1140001
-0.068453334 0.12482667 2.1140001
-0.064426668 0.12482667 2.1140001
-0.060771432 0.12559429 2.1270001
-0.056720003 0.12559429 2.1270001
-0.052990478 0.12636191 2.1400001
-0.048914287 0.12636191 2.1400001
-0.045110479 0.12712952 2.1530001
-0.041009527 0.12712952 2.1530001
-0.036908574 0.12712952 2.1530001
-0.032807622 0.12712952 2.1530001
-0.028533334 0.12636191 2.1400001
-0.024605716 0.12712952 2.1530001
-0.020504763 0.12712952 2.1530001
-0.016403811 0.12712952 2.1530001
-0.012302858 0.12712952 2.1530001
-0.0082019055 0.12712952 2.1530001
-0.0041276193 0.1279562 2.1670001
0 0.1279562 2.1670001
0.0041276193 0.1279562 2.1670001
0.0082552386 0.1279562 2.1670001
0.012462857 0.12878287 2.181
0.016716192 0.12955049 2.194
0.020895239 0.12955049 2.194
0.025074286 0.12955049 2.194
0.029253334 0.12955049 2.194
0.033432383 0.12955049 2.194
0.037611429 0.12955049 2.194
0.041790478 0.12955049 2.194
0.045969527 0.12955049 2.194
0.050148573 0.12955049 2.194
0.054327622 0.12955049 2.194
0.058506668 0.12955049 2.194
0.062685713 0.12955049 2.194
0.066864766 0.12955049 2.194
0.071043812 0.12955049 2.194
0.075222857 0.12955049 2.194
0.07940191 0.12955049 2.194
0.083580956 0.12955049 2.194
0.087760001 0.12955049 2.194
0.091939054 0.12955049 2.194
0.0961181 0.12955049 2.194
0.10093714 0.13037714 2.2080002
0.10514286 0.13037714 2.2080002
0.10934857 0.13037714 2.2080002
0.11355429 0.13037714 2.2080002
0.11776 0.13037714 2.2080002
0.12196572 0.13037714 2.2080002
0.12617144 0.13037714 2.2080002
0.13037714 0.13037714 2.2080002
0.13458286 0.13037714 2.2080002
0.13878858 0.13037714 2.2080002
0.14299428 0.13037714 2.2080002
0.1472 0.13037714 2.2080002
0.15140572 0.13037714 2.2080002
0.15561144 0.13037714 2.2080002
0.15981714 0.13037714 2.2080002
0.16402286 0.13037714 2.2080002
0.16822858 0.13037714 2.2080002
0.17243429 0.13037714 2.2080002
0.17552 0.12955049 2.194
0.18084572 0.13037714 2.2080002
0.18387811 0.12955049 2.194
0.18925714 0.13037714 2.2080002
0.19346286 0.13037714 2.2080002
0.19766858 0.13037714 2.2080002
0.20059429 0.12955049 2.194
0.20477334 0.12955049 2.194
0.20895238 0.12955049 2.194
0.21313144 0.12955049 2.194
0.21602286 0.12878287 2.181
0.22017714 0.12878287 2.181
0.22433144 0.12878287 2.181
0.22848572 0.12878287 2.181
0.23264001 0.12878287 2.181
0.23679429 0.12878287 2.181
0.24094859 0.12878287 2.181
0.24510287 0.12878287 2.181
0.24925715 0.12878287 2.181
0.25341144 0.12878287 2.181
0.25591239 0.1279562 2.1670001
0.26004001 0.1279562 2.1670001
0.26416764 0.1279562 2.1670001
0.26656193 0.12712952 2.1530001
0.27242288 0.1279562 2.1670001
0.27476382 0.12712952 2.1530001
0.27718097 0.12636191 2.1400001
0.28125715 0.12636191 2.1400001
0.28533334 0.12636191 2.1400001
0.28940955 0.12636191 2.1400001
0.29348573 0.12636191 2.1400001
0.29575428 0.12559429 2.1270001
0.29980573 0.12559429 2.1270001
0.30385715 0.12559429 2.1270001
0.30790859 0.12559429 2.1270001
0.31005335 0.12482667 2.1140001
0.31408 0.12482667 2.1140001
0.31810668 0.12482667 2.1140001
0.3201524 0.12405905 2.1010001
0.32415429 0.12405905 2.1010001
0.32612574 0.12329143 2.0880001
0.32820573 0.12258286 2.0760002
0.33216003 0.12258286 2.0760002
0.33611429 0.12258286 2.0760002
0.34006858 0.12258286 2.0760002
0.34186858 0.12181524 2.0630002
0.28496954 0.099259049 1.6810001
0.2868 0.098786667 1.6730001
0.28998667 0.098786667 1.6730001
0.29177144 0.098314293 1.6650001
0.29352573 0.097841911 1.6570001
0.29524952 0.097369529 1.649
0.29839048 0.097369529 1.649
0.30153143 0.097369529 1.649
0.30467239 0.097369529 1.649
0.30781335 0.097369529 1.649
0.3109543 0.097369529 1.649
0.31409526 0.097369529 1.649
0.31569716 0.096897148 1.641
0.31882286 0.096897148 1.641
0.32057524 0.096483812 1.6340001
0.32368764 0.096483812 1.6340001
0.32680002 0.096483812 1.6340001
0.32991239 0.096483812 1.6340001
0.33302477 0.096483812 1.6340001
0.33613715 0.096483812 1.6340001
0.33924952 0.096483812 1.6340001
0.34236193 0.096483812 1.6340001
0.3454743 0.096483812 1.6340001
0.34858668 0.096483812 1.6340001
0.35169905 0.096483812 1.6340001
0.35481143 0.096483812 1.6340001
0.35945717 0.096897148 1.641
0.36258286 0.096897148 1.641
0.36570859 0.096897148 1.641
0.37063238 0.097369529 1.649
0.37377334 0.097369529 1.649
0.38057145 0.098314293 1.6650001
0.38374287 0.098314293 1.6650001
0.39458287 0.10026286 1.6980001
0.39781716 0.10026286 1.6980001
-0.27113906 0.11416382 1.8730001
-0.26757145 0.11416382 1.8730001
-0.26259428 0.11355429 1.863
-0.25904572 0.11355429 1.863
-0.25549716 0.11355429 1.863
-0.2519486 0.11355429 1.863
-0.24706668 0.11294477 1.853
-0.24353716 0.11294477 1.853
-0.24000762 0.11294477 1.853
-0.23647811 0.11294477 1.853
-0.23294859 0.11294477 1.853
-0.22941905 0.11294477 1.853
-0.22467048 0.11233524 1.8430001
-0.22116001 0.11233524 1.8430001
-0.21764953 0.11233524 1.8430001
-0.21413906 0.11233524 1.8430001
-0.20948572 0.11172572 1.8330001
-0.20599429 0.11172572 1.8330001
-0.20250286 0.11172572 1.8330001
-0.20009714 0.11233524 1.8430001
-0.19658667 0.11233524 1.8430001
-0.19307619 0.11233524 1.8430001
-0.19059429 0.11294477 1.853
-0.18706477 0.11294477 1.853
-0.18353525 0.11294477 1.853
-0.18194857 0.11416382 1.8730001
-0.17838097 0.11416382 1.8730001
-0.17481335 0.11416382 1.8730001
-0.17216 0.11477334 1.8830001
-0.16955811 0.11544381 1.8940001
-0.16779049 0.11672381 1.9150001
-0.16414286 0.11672381 1.9150001
-0.16133334 0.11733334 1.9250001
-0.15766667 0.11733334 1.9250001
-0.15488 0.11800382 1.9360001
-0.15205143 0.11867429 1.9470001
-0.14918096 0.11934476 1.9580001
-0.14545143 0.11934476 1.9580001
-0.1425181 0.12001524 1.9690001
-0.13876763 0.12001524 1.9690001
-0.13577144 0.12068572 1.9800001
-0.1328 0.12141715 1.9920001
-0.1297181 0.12208762 2.003
-0.12590286 0.12208762 2.003
-0.12281905 0.12281905 2.0150001
-0.11898096 0.12281905 2.0150001
-0.11582857 0.12355048 2.0270002
-0.11263048 0.12428191 2.039
-0.10938667 0.12501334 2.0510001
-0.10548 0.12501334 2.0510001
-0.10216762 0.12574476 2.0630002
-0.098238096 0.12574476 2.0630002
-0.094902858 0.12653714 2.0760002
-0.09204381 0.12806095 2.1010001
-0.088041909 0.12806095 2.1010001
-0.084040001 0.12806095 2.1010001
-0.0800381 0.12806095 2.1010001
-0.076506667 0.12885334 2.1140001
-0.072480001 0.12885334 2.1140001
-0.068453334 0.12885334 2.1140001
-0.064426668 0.12885334 2.1140001
-0.060771432 0.12964572 2.1270001
-0.057066668 0.1304381 2.1400001
-0.052990478 0.1304381 2.1400001
-0.049211431 0.13123049 2.1530001
-0.045110479 0.13123049 2.1530001
-0.041009527 0.13123049 2.1530001
-0.036908574 0.13123049 2.1530001
-0.032807622 0.13123049 2.1530001
-0.028533334 0.1304381 2.1400001
-0.024605716 0.13123049 2.1530001
-0.020504763 0.13123049 2.1530001
-0.016403811 0.13123049 2.1530001
-0.012302858 0.13123049 2.1530001
-0.0082019055 0.13123049 2.1530001
-0.0041276193 0.13208382 2.1670001
0 0.13208382 2.1670001
0.0041276193 0.13208382 2.1670001
0.0083085718 0.13293715 2.181
0.012462857 0.13293715 2.181
0.016617144 0.13293715 2.181
0.020771429 0.13293715 2.181
0.025074286 0.13372953 2.194
0.029253334 0.13372953 2.194
0.033432383 0.13372953 2.194
0.037611429 0.13372953 2.194
0.041790478 0.13372953 2.194
0.045969527 0.13372953 2.194
0.050148573 0.13372953 2.194
0.054327622 0.13372953 2.194
0.058506668 0.13372953 2.194
0.062685713 0.13372953 2.194
0.066864766 0.13372953 2.194
0.071043812 0.13372953 2.194
0.075222857 0.13372953 2.194
0.07940191 0.13372953 2.194
0.083580956 0.13372953 2.194
0.087760001 0.13372953 2.194
0.091939054 0.13372953 2.194
0.096731432 0.13458286 2.2080002
0.10093714 0.13458286 2.2080002
0.10514286 0.13458286 2.2080002
0.10934857 0.13458286 2.2080002
0.11355429 0.13458286 2.2080002
0.11776 0.13458286 2.2080002
0.12196572 0.13458286 2.2080002
0.12617144 0.13458286 2.2080002
0.13037714 0.13458286 2.2080002
0.13458286 0.13458286 2.2080002
0.13878858 0.13458286 2.2080002
0.14299428 0.13458286 2.2080002
0.1472 0.13458286 2.2080002
0.15140572 0.13458286 2.2080002
0.15561144 0.13458286 2.2080002
0.15981714 0.13458286 2.2080002
0.16402286 0.13458286 2.2080002
0.16822858 0.13458286 2.2080002
0.17243429 0.13458286 2.2080002
0.17552 0.13372953 2.194
0.18084572 0.13458286 2.2080002
0.18387811 0.13372953 2.194
0.18925714 0.13458286 2.2080002
0.19346286 0.13458286 2.2080002
0.19766858 0.13458286 2.2080002
0.20059429 0.13372953 2.194
0.20477334 0.13372953 2.194
0.20895238 0.13372953 2.194
0.21313144 0.13372953 2.194
0.21602286 0.13293715 2.181
0.22017714 0.13293715 2.181
0.22433144 0.13293715 2.181
0.22848572 0.13293715 2.181
0.23264001 0.13293715 2.181
0.23679429 0.13293715 2.181
0.24094859 0.13293715 2.181
0.24510287 0.13293715 2.181
0.24925715 0.13293715 2.181
0.25341144 0.13293715 2.181
0.25591239 0.13208382 2.1670001
0.26004001 0.13208382 2.1670001
0.26416764 0.13208382 2.1670001
0.26656193 0.13123049 2.1530001
0.27242288 0.13208382 2.1670001
0.27476382 0.13123049 2.1530001
0.27718097 0.1304381 2.1400001
0.28125715 0.1304381 2.1400001
0.28533334 0.1304381 2.1400001
0.28940955 0.1304381 2.1400001
0.29348573 0.1304381 2.1400001
0.29575428 0.12964572 2.1270001
0.29980573 0.12964572 2.1270001
0.30385715 0.12964572 2.1270001
0.30790859 0.12964572 2.1270001
0.31196001 0.12964572 2.1270001
0.31408 0.12885334 2.1140001
0.31810668 0.12885334 2.1140001
0.32213333 0.12885334 2.1140001
0.32415429 0.12806095 2.1010001
0.32612574 0.12726858 2.0880001
0.33010286 0.12726858 2.0880001
0.33216003 0.12653714 2.0760002
0.33611429 0.12653714 2.0760002
0.34006858 0.12653714 2.0760002
0.28496954 0.10246096 1.6810001
0.2868 0.10197334 1.6730001
0.28998667 0.10197334 1.6730001
0.29177144 0.10148571 1.6650001
0.29352573 0.1009981 1.6570001
0.29668191 0.1009981 1.6570001
0.29839048 0.10051048 1.649
0.30153143 0.10051048 1.649
0.30467239 0.10051048 1.649
0.30781335 0.10051048 1.649
0.3109543 0.10051048 1.649
0.31409526 0.10051048 1.649
0.31723621 0.10051048 1.649
0.31882286 0.10002286 1.641
0.32194859 0.10002286 1.641
0.32368764 0.099596195 1.6340001
0.32680002 0.099596195 1.6340001
0.32991239 0.099596195 1.6340001
0.33302477 0.099596195 1.6340001
0.33613715 0.099596195 1.6340001
0.33924952 0.099596195 1.6340001
0.34236193 0.099596195 1.6340001
0.3454743 0.099596195 1.6340001
0.34858668 0.099596195 1.6340001
0.35320574 0.10002286 1.641
0.35633144 0.10002286 1.641
0.35945717 0.10002286 1.641
0.36258286 0.10002286 1.641
0.36570859 0.10002286 1.641
0.37063238 0.10051048 1.649
0.37377334 0.10051048 1.649
0.38057145 0.10148571 1.6650001
0.38374287 0.10148571 1.6650001
0.39458287 0.10349715 1.6980001
0.39781716 0.10349715 1.6980001
-0.27113906 0.11773143 1.8730001
-0.26757145 0.11773143 1.8730001
-0.26400381 0.11773143 1.8730001
-0.25904572 0.11710286 1.863
-0.25549716 0.11710286 1.863
-0.2505962 0.11647429 1.853
-0.24706668 0.11647429 1.853
-0.24353716 0.11647429 1.853
-0.24000762 0.11647429 1.853
-0.23647811 0.11647429 1.853
-0.23294859 0.11647429 1.853
-0.22941905 0.11647429 1.853
-0.22467048 0.11584572 1.8430001
-0.22116001 0.11584572 1.8430001
-0.21764953 0.11584572 1.8430001
-0.21297716 0.11521715 1.8330001
-0.20948572 0.11521715 1.8330001
-0.20599429 0.11521715 1.8330001
-0.20250286 0.11521715 1.8330001
-0.20009714 0.11584572 1.8430001
-0.19658667 0.11584572 1.8430001
-0.19307619 0.11584572 1.8430001
-0.19059429 0.11647429 1.853
-0.18706477 0.11647429 1.853
-0.18452573 0.11710286 1.863
-0.18194857 0.11773143 1.8730001
-0.17838097 0.11773143 1.8730001
-0.17574668 0.11836001 1.8830001
-0.17216 0.11836001 1.8830001
-0.16955811 0.11905143 1.8940001
-0.16682667 0.11968 1.904
-0.16320001 0.11968 1.904
-0.16133334 0.12100001 1.9250001
-0.15766667 0.12100001 1.9250001
-0.15488 0.12169144 1.9360001
-0.15205143 0.12238286 1.9470001
-0.14918096 0.12307429 1.9580001
-0.14545143 0.12307429 1.9580001
-0.1425181 0.12376572 1.9690001
-0.13876763 0.12376572 1.9690001
-0.13577144 0.12445715 1.9800001
-0.13353334 0.12590286 2.003
-0.1297181 0.12590286 2.003
-0.12590286 0.12590286 2.003
-0.12281905 0.12665714 2.0150001
-0.11898096 0.12665714 2.0150001
-0.11514286 0.12665714 2.0150001
-0.11263048 0.12816572 2.039
-0.10938667 0.12892 2.0510001
-0.10548 0.12892 2.0510001
-0.10216762 0.12967429 2.0630002
-0.098238096 0.12967429 2.0630002
-0.094902858 0.13049144 2.0760002
-0.09204381 0.13206287 2.1010001
-0.088041909 0.13206287 2.1010001
-0.084040001 0.13206287 2.1010001
-0.0800381 0.13206287 2.1010001
-0.076506667 0.13288 2.1140001
-0.072480001 0.13288 2.1140001
-0.068453334 0.13288 2.1140001
-0.064426668 0.13288 2.1140001
-0.060771432 0.13369715 2.1270001
-0.057066668 0.13451429 2.1400001
-0.052990478 0.13451429 2.1400001
-0.049211431 0.13533144 2.1530001
-0.045110479 0.13533144 2.1530001
-0.041009527 0.13533144 2.1530001
-0.036908574 0.13533144 2.1530001
-0.032807622 0.13533144 2.1530001
-0.028533334 0.13451429 2.1400001
-0.024457144 0.13451429 2.1400001
-0.020504763 0.13533144 2.1530001
-0.016403811 0.13533144 2.1530001
-0.012302858 0.13533144 2.1530001
-0.0082019055 0.13533144 2.1530001
-0.0041009528 0.13533144 2.1530001
0 0.13621144 2.1670001
0.0041276193 0.13621144 2.1670001
0.0082552386 0.13621144 2.1670001
0.012462857 0.13709143 2.181
0.016617144 0.13709143 2.181
0.020895239 0.13790858 2.194
0.025074286 0.13790858 2.194
0.029253334 0.13790858 2.194
0.033432383 0.13790858 2.194
0.037611429 0.13790858 2.194
0.041790478 0.13790858 2.194
0.045969527 0.13790858 2.194
0.050148573 0.13790858 2.194
0.054327622 0.13790858 2.194
0.058506668 0.13790858 2.194
0.062685713 0.13790858 2.194
0.066864766 0.13790858 2.194
0.071043812 0.13790858 2.194
0.075222857 0.13790858 2.194
0.07940191 0.13790858 2.194
0.083580956 0.13790858 2.194
0.087760001 0.13790858 2.194
0.091939054 0.13790858 2.194
0.0961181 0.13790858 2.194
0.10093714 0.13878858 2.2080002
0.10514286 0.13878858 2.2080002
0.10934857 0.13878858 2.2080002
0.11355429 0.13878858 2.2080002
0.11776 0.13878858 2.2080002
0.12196572 0.13878858 2.2080002
0.12617144 0.13878858 2.2080002
0.13037714 0.13878858 2.2080002
0.13458286 0.13878858 2.2080002
0.13878858 0.13878858 2.2080002
0.14299428 0.13878858 2.2080002
0.1472 0.13878858 2.2080002
0.15140572 0.13878858 2.2080002
0.15561144 0.13878858 2.2080002
0.15981714 0.13878858 2.2080002
0.16402286 0.13878858 2.2080002
0.16822858 0.13878858 2.2080002
0.17243429 0.13878858 2.2080002
0.17552 0.13790858 2.194
0.17969905 0.13790858 2.194
0.18387811 0.13790858 2.194
0.18805715 0.13790858 2.194
0.1922362 0.13790858 2.194
0.19766858 0.13878858 2.2080002
0.20059429 0.13790858 2.194
0.20477334 0.13790858 2.194
0.20895238 0.13790858 2.194
0.21313144 0.13790858 2.194
0.21731049 0.13790858 2.194
0.22017714 0.13709143 2.181
0.22433144 0.13709143 2.181
0.22848572 0.13709143 2.181
0.23264001 0.13709143 2.181
0.23679429 0.13709143 2.181
0.24094859 0.13709143 2.181
0.24510287 0.13709143 2.181
0.24925715 0.13709143 2.181
0.25341144 0.13709143 2.181
0.25591239 0.13621144 2.1670001
0.26004001 0.13621144 2.1670001
0.26416764 0.13621144 2.1670001
0.26829526 0.13621144 2.1670001
0.27242288 0.13621144 2.1670001
0.27476382 0.13533144 2.1530001
0.27886477 0.13533144 2.1530001
0.28125715 0.13451429 2.1400001
0.28533334 0.13451429 2.1400001
0.28940955 0.13451429 2.1400001
0.29348573 0.13451429 2.1400001
0.29756191 0.13451429 2.1400001
0.29980573 0.13369715 2.1270001
0.30385715 0.13369715 2.1270001
0.30790859 0.13369715 2.1270001
0.31196001 0.13369715 2.1270001
0.31408 0.13288 2.1140001
0.31810668 0.13288 2.1140001
0.32213333 0.13288 2.1140001
0.32616001 0.13288 2.1140001
0.3281562 0.13206287 2.1010001
0.33010286 0.13124572 2.0880001
0.33408001 0.13124572 2.0880001
0.33611429 0.13049144 2.0760002
0.34006858 0.13049144 2.0760002
0.28496954 0.10566286 1.6810001
0.2868 0.10516001 1.6730001
0.28998667 0.10516001 1.6730001
0.29177144 0.10465714 1.6650001
0.29352573 0.10415429 1.6570001
0.29668191 0.10415429 1.6570001
0.29839048 0.10365143 1.649
0.30153143 0.10365143 1.649
0.30467239 0.10365143 1.649
0.30781335 0.10365143 1.649
0.3109543 0.10365143 1.649
0.31409526 0.10365143 1.649
0.31723621 0.10365143 1.649
0.31882286 0.10314857 1.641
0.32194859 0.10314857 1.641
0.32507429 0.10314857 1.641
0.32820001 0.10314857 1.641
0.33132574 0.10314857 1.641
0.33302477 0.10270858 1.6340001
0.33613715 0.10270858 1.6340001
0.33924952 0.10270858 1.6340001
0.34236193 0.10270858 1.6340001
0.3454743 0.10270858 1.6340001
0.34858668 0.10270858 1.6340001
0.35169905 0.10270858 1.6340001
0.35633144 0.10314857 1.641
0.35945717 0.10314857 1.641
0.36258286 0.10314857 1.641
0.36570859 0.10314857 1.641
0.36883429 0.10314857 1.641
0.37377334 0.10365143 1.649
0.38057145 0.10465714 1.6650001
0.38374287 0.10465714 1.6650001
0.38691431 0.10465714 1.6650001
-0.27258667 0.12194667 1.8830001
-0.26900002 0.12194667 1.8830001
-0.26400381 0.12129905 1.8730001
-0.26043621 0.12129905 1.8730001
-0.25549716 0.12065143 1.863
-0.2519486 0.12065143 1.863
-0.24706668 0.12000381 1.853
-0.24353716 0.12000381 1.853
-0.24000762 0.12000381 1.853
-0.23647811 0.12000381 1.853
-0.23294859 0.12000381 1.853
-0.22941905 0.12000381 1.853
-0.22467048 0.11935619 1.8430001
-0.22116001 0.11935619 1.8430001
-0.21764953 0.11935619 1.8430001
-0.21413906 0.11935619 1.8430001
-0.20948572 0.11870857 1.8330001
-0.20599429 0.11870857 1.8330001
-0.20250286 0.11870857 1.8330001
-0.20009714 0.11935619 1.8430001
-0.19658667 0.11935619 1.8430001
-0.19307619 0.11935619 1.8430001
-0.19059429 0.12000381 1.853
-0.18706477 0.12000381 1.853
-0.18452573 0.12065143 1.863
-0.18194857 0.12129905 1.8730001
-0.17838097 0.12129905 1.8730001
-0.17481335 0.12129905 1.8730001
-0.17216 0.12194667 1.8830001
-0.16955811 0.12265905 1.8940001
-0.16682667 0.12330667 1.904
-0.16414286 0.12401905 1.9150001
-0.16133334 0.12466667 1.9250001
-0.15856762 0.12537906 1.9360001
-0.15488 0.12537906 1.9360001
-0.15291049 0.12680382 1.9580001
-0.14918096 0.12680382 1.9580001
-0.14626858 0.1275162 1.9690001
-0.1425181 0.1275162 1.9690001
-0.13876763 0.1275162 1.9690001
-0.13577144 0.12822857 1.9800001
-0.13353334 0.1297181 2.003
-0.1297181 0.1297181 2.003
-0.12590286 0.1297181 2.003
-0.12281905 0.13049525 2.0150001
-0.11898096 0.13049525 2.0150001
-0.11514286 0.13049525 2.0150001
-0.11196762 0.13127239 2.0270002
-0.10938667 0.13282667 2.0510001
-0.10548 0.13282667 2.0510001
-0.10216762 0.13360381 2.0630002
-0.098238096 0.13360381 2.0630002
-0.095451429 0.13522287 2.0880001
-0.09204381 0.13606477 2.1010001
-0.088041909 0.13606477 2.1010001
-0.084040001 0.13606477 2.1010001
-0.0800381 0.13606477 2.1010001
-0.076036192 0.13606477 2.1010001
-0.072034292 0.13606477 2.1010001
-0.068453334 0.13690667 2.1140001
-0.064426668 0.13690667 2.1140001
-0.060400002 0.13690667 2.1140001
-0.057066668 0.13859048 2.1400001
-0.052990478 0.13859048 2.1400001
-0.049211431 0.13943239 2.1530001
-0.045110479 0.13943239 2.1530001
-0.041009527 0.13943239 2.1530001
-0.036908574 0.13943239 2.1530001
-0.032807622 0.13943239 2.1530001
-0.028533334 0.13859048 2.1400001
-0.024605716 0.13943239 2.1530001
-0.020504763 0.13943239 2.1530001
-0.016403811 0.13943239 2.1530001
-0.012302858 0.13943239 2.1530001
-0.0082019055 0.13943239 2.1530001
-0.0041276193 0.14033905 2.1670001
0 0.14033905 2.1670001
0.0041276193 0.14033905 2.1670001
0.0083085718 0.14124572 2.181
0.012462857 0.14124572 2.181
0.016617144 0.14124572 2.181
0.020771429 0.14124572 2.181
0.025074286 0.14208762 2.194
0.029080002 0.14124572 2.181
0.033432383 0.14208762 2.194
0.037611429 0.14208762 2.194
0.041790478 0.14208762 2.194
0.045969527 0.14208762 2.194
0.050148573 0.14208762 2.194
0.054327622 0.14208762 2.194
0.058506668 0.14208762 2.194
0.062685713 0.14208762 2.194
0.066864766 0.14208762 2.194
0.071497142 0.14299428 2.2080002
0.075222857 0.14208762 2.194
0.07940191 0.14208762 2.194
0.083580956 0.14208762 2.194
0.087760001 0.14208762 2.194
0.092525721 0.14299428 2.2080002
0.0961181 0.14208762 2.194
0.10093714 0.14299428 2.2080002
0.10514286 0.14299428 2.2080002
0.10934857 0.14299428 2.2080002
0.11355429 0.14299428 2.2080002
0.11776 0.14299428 2.2080002
0.12196572 0.14299428 2.2080002
0.12617144 0.14299428 2.2080002
0.13037714 0.14299428 2.2080002
0.13458286 0.14299428 2.2080002
0.13878858 0.14299428 2.2080002
0.14299428 0.14299428 2.2080002
0.1472 0.14299428 2.2080002
0.15140572 0.14299428 2.2080002
0.15561144 0.14299428 2.2080002
0.15981714 0.14299428 2.2080002
0.16402286 0.14299428 2.2080002
0.16716191 0.14208762 2.194
0.17134096 0.14208762 2.194
0.17552 0.14208762 2.194
0.17969905 0.14208762 2.194
0.18387811 0.14208762 2.194
0.18805715 0.14208762 2.194
0.1922362 0.14208762 2.194
0.19766858 0.14299428 2.2080002
0.20059429 0.14208762 2.194
0.20477334 0.14208762 2.194
0.20895238 0.14208762 2.194
0.21313144 0.14208762 2.194
0.21731049 0.14208762 2.194
0.22017714 0.14124572 2.181
0.22433144 0.14124572 2.181
0.22848572 0.14124572 2.181
0.23264001 0.14124572 2.181
0.23679429 0.14124572 2.181
0.24094859 0.14124572 2.181
0.24510287 0.14124572 2.181
0.24925715 0.14124572 2.181
0.25341144 0.14124572 2.181
0.25591239 0.14033905 2.1670001
0.26004001 0.14033905 2.1670001
0.26416764 0.14033905 2.1670001
0.26829526 0.14033905 2.1670001
0.27242288 0.14033905 2.1670001
0.27476382 0.13943239 2.1530001
0.27886477 0.13943239 2.1530001
0.28125715 0.13859048 2.1400001
0.28533334 0.13859048 2.1400001
0.28940955 0.13859048 2.1400001
0.29348573 0.13859048 2.1400001
0.29756191 0.13859048 2.1400001
0.3016381 0.13859048 2.1400001
0.30571431 0.13859048 2.1400001
0.30790859 0.13774857 2.1270001
0.31196001 0.13774857 2.1270001
0.31601143 0.13774857 2.1270001
0.32006288 0.13774857 2.1270001
0.3201524 0.13606477 2.1010001
0.32415429 0.13606477 2.1010001
0.3281562 0.13606477 2.1010001
0.33010286 0.13522287 2.0880001
0.33408001 0.13522287 2.0880001
0.33805716 0.13522287 2.0880001
0.34203431 0.13522287 2.0880001
0.28649524 0.10944762 1.6900001
0.28817144 0.10886477 1.6810001
0.28998667 0.10834667 1.6730001
0.29036954 0.10731048 1.6570001
0.29352573 0.10731048 1.6570001
0.29524952 0.10679238 1.649
0.29839048 0.10679238 1.649
0.30153143 0.10679238 1.649
0.30467239 0.10679238 1.649
0.30781335 0.10679238 1.649
0.3109543 0.10679238 1.649
0.31409526 0.10679238 1.649
0.31723621 0.10679238 1.649
0.31882286 0.10627429 1.641
0.32194859 0.10627429 1.641
0.32507429 0.10627429 1.641
0.32820001 0.10627429 1.641
0.33132574 0.10627429 1.641
0.33445144 0.10627429 1.641
0.33757716 0.10627429 1.641
0.34070286 0.10627429 1.641
0.34382859 0.10627429 1.641
0.3454743 0.10582095 1.6340001
0.34858668 0.10582095 1.6340001
0.35320574 0.10627429 1.641
0.35633144 0.10627429 1.641
0.35945717 0.10627429 1.641
0.36258286 0.10627429 1.641
0.36570859 0.10627429 1.641
0.36883429 0.10627429 1.641
0.37740001 0.10782857 1.6650001
0.38628572 0.10944762 1.6900001
0.3913486 0.10996572 1.6980001
0.39458287 0.10996572 1.6980001
0.39969143 0.11048381 1.7060001
-0.27113906 0.12486667 1.8730001
-0.26614287 0.1242 1.863
-0.26400381 0.12486667 1.8730001
-0.25904572 0.1242 1.863
-0.25549716 0.1242 1.863
-0.2505962 0.12353334 1.853
-0.24706668 0.12353334 1.853
-0.24353716 0.12353334 1.853
-0.24000762 0.12353334 1.853
-0.23647811 0.12353334 1.853
-0.23294859 0.12353334 1.853
-0.22941905 0.12353334 1.853
-0.22467048 0.12286667 1.8430001
-0.22116001 0.12286667 1.8430001
-0.21764953 0.12286667 1.8430001
-0.21413906 0.12286667 1.8430001
-0.20948572 0.1222 1.8330001
-0.20599429 0.1222 1.8330001
-0.20250286 0.1222 1.8330001
-0.20009714 0.12286667 1.8430001
-0.19658667 0.12286667 1.8430001
-0.19307619 0.12286667 1.8430001
-0.19059429 0.12353334 1.853
-0.18706477 0.12353334 1.853
-0.18452573 0.1242 1.863
-0.18194857 0.12486667 1.8730001
-0.17838097 0.12486667 1.8730001
-0.17574668 0.12553334 1.8830001
-0.17216 0.12553334 1.8830001
-0.16955811 0.12626667 1.8940001
-0.16682667 0.12693334 1.904
-0.16414286 0.12766667 1.9150001
-0.16133334 0.12833335 1.9250001
-0.15856762 0.12906668 1.9360001
-0.15488 0.12906668 1.9360001
-0.15205143 0.12980001 1.9470001
-0.14918096 0.13053334 1.9580001
-0.14545143 0.13053334 1.9580001
-0.1425181 0.13126667 1.9690001
-0.13876763 0.13126667 1.9690001
-0.13577144 0.132 1.9800001
-0.132 0.132 1.9800001
-0.1297181 0.13353334 2.003
-0.12665714 0.13433334 2.0150001
-0.12281905 0.13433334 2.0150001
-0.11898096 0.13433334 2.0150001
-0.11514286 0.13433334 2.0150001
-0.11196762 0.13513334 2.0270002
-0.10810667 0.13513334 2.0270002
-0.10548 0.13673334 2.0510001
-0.10216762 0.13753334 2.0630002
-0.098238096 0.13753334 2.0630002
-0.095451429 0.1392 2.0880001
-0.091474287 0.1392 2.0880001
-0.087497145 0.1392 2.0880001
-0.084040001 0.14006667 2.1010001
-0.0800381 0.14006667 2.1010001
-0.076036192 0.14006667 2.1010001
-0.072034292 0.14006667 2.1010001
-0.068032384 0.14006667 2.1010001
-0.064426668 0.14093333 2.1140001
-0.060400002 0.14093333 2.1140001
-0.057066668 0.14266667 2.1400001
-0.053312384 0.14353333 2.1530001
-0.049211431 0.14353333 2.1530001
-0.045110479 0.14353333 2.1530001
-0.041009527 0.14353333 2.1530001
-0.036908574 0.14353333 2.1530001
-0.032807622 0.14353333 2.1530001
-0.028706668 0.14353333 2.1530001
-0.024605716 0.14353333 2.1530001
-0.020504763 0.14353333 2.1530001
-0.016403811 0.14353333 2.1530001
-0.012302858 0.14353333 2.1530001
-0.0082019055 0.14353333 2.1530001
-0.0041276193 0.14446667 2.1670001
0 0.14446667 2.1670001
0.0041276193 0.14446667 2.1670001
0.0083085718 0.1454 2.181
0.012462857 0.1454 2.181
0.016617144 0.1454 2.181
0.020895239 0.14626667 2.194
0.025074286 0.14626667 2.194
0.029253334 0.14626667 2.194
0.033432383 0.14626667 2.194
0.037611429 0.14626667 2.194
0.041790478 0.14626667 2.194
0.045969527 0.14626667 2.194
0.050148573 0.14626667 2.194
0.054327622 0.14626667 2.194
0.058506668 0.14626667 2.194
0.062685713 0.14626667 2.194
0.066864766 0.14626667 2.194
0.071043812 0.14626667 2.194
0.075222857 0.14626667 2.194
0.07940191 0.14626667 2.194
0.083580956 0.14626667 2.194
0.087760001 0.14626667 2.194
0.091939054 0.14626667 2.194
0.0961181 0.14626667 2.194
0.10093714 0.1472 2.2080002
0.10514286 0.1472 2.2080002
0.10934857 0.1472 2.2080002
0.11355429 0.1472 2.2080002
0.11776 0.1472 2.2080002
0.12196572 0.1472 2.2080002
0.12617144 0.1472 2.2080002
0.13037714 0.1472 2.2080002
0.13458286 0.1472 2.2080002
0.13878858 0.1472 2.2080002
0.14299428 0.1472 2.2080002
0.1472 0.1472 2.2080002
0.15140572 0.1472 2.2080002
0.15561144 0.1472 2.2080002
0.15981714 0.1472 2.2080002
0.16402286 0.1472 2.2080002
0.16822858 0.1472 2.2080002
0.17134096 0.14626667 2.194
0.17552 0.14626667 2.194
0.17969905 0.14626667 2.194
0.18387811 0.14626667 2.194
0.18805715 0.14626667 2.194
0.1922362 0.14626667 2.194
0.19766858 0.1472 2.2080002
0.20059429 0.14626667 2.194
0.20477334 0.14626667 2.194
0.20895238 0.14626667 2.194
0.21313144 0.14626667 2.194
0.21602286 0.1454 2.181
0.22017714 0.1454 2.181
0.22433144 0.1454 2.181
0.22848572 0.1454 2.181
0.23264001 0.1454 2.181
0.23679429 0.1454 2.181
0.24094859 0.1454 2.181
0.24510287 0.1454 2.181
0.24925715 0.1454 2.181
0.25178477 0.14446667 2.1670001
0.25591239 0.14446667 2.1670001
0.26004001 0.14446667 2.1670001
0.26416764 0.14446667 2.1670001
0.26656193 0.14353333 2.1530001
0.27066287 0.14353333 2.1530001
0.27476382 0.14353333 2.1530001
0.27886477 0.14353333 2.1530001
0.28125715 0.14266667 2.1400001
0.28533334 0.14266667 2.1400001
0.28940955 0.14266667 2.1400001
0.29348573 0.14266667 2.1400001
0.29756191 0.14266667 2.1400001
0.29980573 0.1418 2.1270001
0.30385715 0.1418 2.1270001
0.30790859 0.1418 2.1270001
0.31196001 0.1418 2.1270001
0.31408 0.14093333 2.1140001
0.31810668 0.14093333 2.1140001
0.3201524 0.14006667 2.1010001
0.32415429 0.14006667 2.1010001
0.3281562 0.14006667 2.1010001
0.33010286 0.1392 2.0880001
0.33408001 0.1392 2.0880001
0.33805716 0.1392 2.0880001
0.34203431 0.1392 2.0880001
0.28496954 0.11206667 1.6810001
0.2868 0.11153334 1.6730001
0.28998667 0.11153334 1.6730001
0.29036954 0.11046667 1.6570001
0.29352573 0.11046667 1.6570001
0.29524952 0.10993334 1.649
0.29839048 0.10993334 1.649
0.30153143 0.10993334 1.649
0.30467239 0.10993334 1.649
0.30781335 0.10993334 1.649
0.3109543 0.10993334 1.649
0.31409526 0.10993334 1.649
0.31723621 0.10993334 1.649
0.31882286 0.1094 1.641
0.32194859 0.1094 1.641
0.32507429 0.1094 1.641
0.32820001 0.1094 1.641
0.33132574 0.1094 1.641
0.33445144 0.1094 1.641
0.33757716 0.1094 1.641
0.34070286 0.1094 1.641
0.34382859 0.1094 1.641
0.3454743 0.10893334 1.6340001
0.34858668 0.10893334 1.6340001
0.35320574 0.1094 1.641
0.35633144 0.1094 1.641
0.35945717 0.1094 1.641
0.36258286 0.1094 1.641
0.36570859 0.1094 1.641
0.37063238 0.10993334 1.649
0.37921333 0.11153334 1.6730001
0.38628572 0.11266667 1.6900001
0.39319238 0.11373334 1.7060001
0.40039238 0.11486667 1.723
0.40578288 0.11546667 1.7320001
0.40908191 0.11546667 1.7320001
-0.27113906 0.12843429 1.8730001
-0.26614287 0.12774858 1.863
-0.26259428 0.12774858 1.863
-0.25904572 0.12774858 1.863
-0.25549716 0.12774858 1.863
-0.2505962 0.12706286 1.853
-0.24706668 0.12706286 1.853
-0.24353716 0.12706286 1.853
-0.24000762 0.12706286 1.853
-0.23647811 0.12706286 1.853
-0.23294859 0.12706286 1.853
-0.22941905 0.12706286 1.853
-0.22467048 0.12637715 1.8430001
-0.22116001 0.12637715 1.8430001
-0.21764953 0.12637715 1.8430001
-0.21413906 0.12637715 1.8430001
-0.20948572 0.12569143 1.8330001
-0.20599429 0.12569143 1.8330001
-0.20250286 0.12569143 1.8330001
-0.20009714 0.12637715 1.8430001
-0.19658667 0.12637715 1.8430001
-0.19307619 0.12637715 1.8430001
-0.19059429 0.12706286 1.853
-0.18706477 0.12706286 1.853
-0.18452573 0.12774858 1.863
-0.18194857 0.12843429 1.8730001
-0.17838097 0.12843429 1.8730001
-0.17481335 0.12843429 1.8730001
-0.17216 0.12912001 1.8830001
-0.16955811 0.12987429 1.8940001
-0.16595048 0.12987429 1.8940001
-0.16414286 0.13131429 1.9150001
-0.16133334 0.132 1.9250001
-0.15766667 0.132 1.9250001
-0.15488 0.1327543 1.9360001
-0.15205143 0.13350858 1.9470001
-0.14834286 0.13350858 1.9470001
-0.14545143 0.13426286 1.9580001
-0.1425181 0.13501714 1.9690001
-0.13876763 0.13501714 1.9690001
-0.1365943 0.1365943 1.9920001
-0.13353334 0.13734858 2.003
-0.13049525 0.13817143 2.0150001
-0.12665714 0.13817143 2.0150001
-0.12281905 0.13817143 2.0150001
-0.11898096 0.13817143 2.0150001
-0.11582857 0.13899429 2.0270002
-0.11196762 0.13899429 2.0270002
-0.10938667 0.14064001 2.0510001
-0.10609715 0.14146286 2.0630002
-0.10216762 0.14146286 2.0630002
-0.098857149 0.14235429 2.0760002
-0.095451429 0.14317715 2.0880001
-0.09204381 0.14406858 2.1010001
-0.088041909 0.14406858 2.1010001
-0.084040001 0.14406858 2.1010001
-0.0800381 0.14406858 2.1010001
-0.076036192 0.14406858 2.1010001
-0.072034292 0.14406858 2.1010001
-0.068032384 0.14406858 2.1010001
-0.064426668 0.14496 2.1140001
-0.060400002 0.14496 2.1140001
-0.057066668 0.14674287 2.1400001
-0.053312384 0.1476343 2.1530001
-0.049211431 0.1476343 2.1530001
-0.045110479 0.1476343 2.1530001
-0.041009527 0.1476343 2.1530001
-0.036908574 0.1476343 2.1530001
-0.032807622 0.1476343 2.1530001
-0.028706668 0.1476343 2.1530001
-0.024605716 0.1476343 2.1530001
-0.020504763 0.1476343 2.1530001
-0.016403811 0.1476343 2.1530001
-0.012302858 0.1476343 2.1530001
-0.0082019055 0.1476343 2.1530001
-0.0041276193 0.14859429 2.1670001
0 0.14859429 2.1670001
0.0041276193 0.14859429 2.1670001
0.0083085718 0.1495543 2.181
0.012462857 0.1495543 2.181
0.016617144 0.1495543 2.181
0.020771429 0.1495543 2.181
0.024925714 0.1495543 2.181
0.029080002 0.1495543 2.181
0.033432383 0.15044571 2.194
0.037611429 0.15044571 2.194
0.041790478 0.15044571 2.194
0.045969527 0.15044571 2.194
0.050148573 0.15044571 2.194
0.054327622 0.15044571 2.194
0.058506668 0.15044571 2.194
0.062685713 0.15044571 2.194
0.066864766 0.15044571 2.194
0.071043812 0.15044571 2.194
0.075222857 0.15044571 2.194
0.07940191 0.15044571 2.194
0.083580956 0.15044571 2.194
0.087760001 0.15044571 2.194
0.091939054 0.15044571 2.194
0.0961181 0.15044571 2.194
0.10029715 0.15044571 2.194
0.10447619 0.15044571 2.194
0.10865524 0.15044571 2.194
0.11283429 0.15044571 2.194
0.11776 0.15140572 2.2080002
0.12196572 0.15140572 2.2080002
0.12617144 0.15140572 2.2080002
0.13037714 0.15140572 2.2080002
0.13458286 0.15140572 2.2080002
0.13878858 0.15140572 2.2080002
0.14299428 0.15140572 2.2080002
0.1472 0.15140572 2.2080002
0.15140572 0.15140572 2.2080002
0.15561144 0.15140572 2.2080002
0.15981714 0.15140572 2.2080002
0.16402286 0.15140572 2.2080002
0.16822858 0.15140572 2.2080002
0.17243429 0.15140572 2.2080002
0.17552 0.15044571 2.194
0.17969905 0.15044571 2.194
0.18387811 0.15044571 2.194
0.18805715 0.15044571 2.194
0.1922362 0.15044571 2.194
0.19766858 0.15140572 2.2080002
0.20059429 0.15044571 2.194
0.20477334 0.15044571 2.194
0.20895238 0.15044571 2.194
0.21313144 0.15044571 2.194
0.21602286 0.1495543 2.181
0.22017714 0.1495543 2.181
0.22433144 0.1495543 2.181
0.22848572 0.1495543 2.181
0.23264001 0.1495543 2.181
0.2352743 0.14859429 2.1670001
0.23940191 0.14859429 2.1670001
0.24352953 0.14859429 2.1670001
0.24765715 0.14859429 2.1670001
0.25178477 0.14859429 2.1670001
0.25591239 0.14859429 2.1670001
0.26004001 0.14859429 2.1670001
0.26416764 0.14859429 2.1670001
0.26829526 0.14859429 2.1670001
0.27242288 0.14859429 2.1670001
0.27476382 0.1476343 2.1530001
0.27886477 0.1476343 2.1530001
0.28125715 0.14674287 2.1400001
0.28533334 0.14674287 2.1400001
0.28940955 0.14674287 2.1400001
0.29348573 0.14674287 2.1400001
0.29756191 0.14674287 2.1400001
0.29980573 0.14585143 2.1270001
0.30385715 0.14585143 2.1270001
0.30790859 0.14585143 2.1270001
0.31196001 0.14585143 2.1270001
0.31408 0.14496 2.1140001
0.31810668 0.14496 2.1140001
0.3201524 0.14406858 2.1010001
0.32415429 0.14406858 2.1010001
0.3281562 0.14406858 2.1010001
0.33010286 0.14317715 2.0880001
0.33408001 0.14317715 2.0880001
0.33805716 0.14317715 2.0880001
0.34203431 0.14317715 2.0880001
0.28496954 0.11526857 1.6810001
0.2868 0.11472 1.6730001
0.2886 0.11417143 1.6650001
0.29036954 0.11362286 1.6570001
0.29352573 0.11362286 1.6570001
0.29524952 0.11307429 1.649
0.29839048 0.11307429 1.649
0.30153143 0.11307429 1.649
0.30467239 0.11307429 1.649
0.30781335 0.11307429 1.649
0.3109543 0.11307429 1.649
0.31409526 0.11307429 1.649
0.31723621 0.11307429 1.649
0.31882286 0.11252572 1.641
0.3235181 0.11307429 1.649
0.32665905 0.11307429 1.649
0.32820001 0.11252572 1.641
0.33132574 0.11252572 1.641
0.33445144 0.11252572 1.641
0.33757716 0.11252572 1.641
0.34070286 0.11252572 1.641
0.34382859 0.11252572 1.641
0.34695429 0.11252572 1.641
0.35008001 0.11252572 1.641
0.35320574 0.11252572 1.641
0.35633144 0.11252572 1.641
0.35945717 0.11252572 1.641
0.36258286 0.11252572 1.641
0.36570859 0.11252572 1.641
0.3724305 0.11362286 1.6570001
0.37921333 0.11472 1.6730001
0.38628572 0.11588572 1.6900001
0.39526668 0.1176 1.715
0.40039238 0.11814857 1.723
0.4036743 0.11814857 1.723
0.4069562 0.11814857 1.723
-0.27617335 0.13270667 1.8830001
-0.27113906 0.13200191 1.8730001
-0.26757145 0.13200191 1.8730001
-0.26400381 0.13200191 1.8730001
-0.26043621 0.13200191 1.8730001
-0.25549716 0.13129714 1.863
-0.2519486 0.13129714 1.863
-0.2484 0.13129714 1.863
-0.24485144 0.13129714 1.863
-0.24000762 0.13059239 1.853
-0.23647811 0.13059239 1.853
-0.23294859 0.13059239 1.853
-0.22941905 0.13059239 1.853
-0.22467048 0.12988763 1.8430001
-0.22116001 0.12988763 1.8430001
-0.21764953 0.12988763 1.8430001
-0.21413906 0.12988763 1.8430001
-0.21062858 0.12988763 1.8430001
-0.20599429 0.12918286 1.8330001
-0.20250286 0.12918286 1.8330001
-0.20009714 0.12988763 1.8430001
-0.19658667 0.12988763 1.8430001
-0.19307619 0.12988763 1.8430001
-0.18956572 0.12988763 1.8430001
-0.18706477 0.13059239 1.853
-0.18452573 0.13129714 1.863
-0.18097715 0.13129714 1.863
-0.17742857 0.13129714 1.863
-0.17481335 0.13200191 1.8730001
-0.17216 0.13270667 1.8830001
-0.16955811 0.1334819 1.8940001
-0.16779049 0.1349619 1.9150001
-0.16414286 0.1349619 1.9150001
-0.16133334 0.13566667 1.9250001
-0.15946858 0.13721715 1.9470001
-0.15576001 0.13721715 1.9470001
-0.15291049 0.13799238 1.9580001
-0.14918096 0.13799238 1.9580001
-0.14626858 0.13876763 1.9690001
-0.14331429 0.13954286 1.9800001
-0.13876763 0.13876763 1.9690001
-0.1365943 0.14038858 1.9920001
-0.13353334 0.14116381 2.003
-0.13049525 0.14200953 2.0150001
-0.12665714 0.14200953 2.0150001
-0.12355048 0.14285524 2.0270002
-0.11898096 0.14200953 2.0150001
-0.11582857 0.14285524 2.0270002
-0.11263048 0.14370096 2.039
-0.10938667 0.14454667 2.0510001
-0.10609715 0.14539239 2.0630002
-0.10216762 0.14539239 2.0630002
-0.098857149 0.14630857 2.0760002
-0.095451429 0.14715429 2.0880001
-0.091474287 0.14715429 2.0880001
-0.087497145 0.14715429 2.0880001
-0.084040001 0.14807048 2.1010001
-0.0800381 0.14807048 2.1010001
-0.076036192 0.14807048 2.1010001
-0.072034292 0.14807048 2.1010001
-0.068032384 0.14807048 2.1010001
-0.064426668 0.14898667 2.1140001
-0.060400002 0.14898667 2.1140001
-0.057066668 0.15081905 2.1400001
-0.053312384 0.15173525 2.1530001
-0.049211431 0.15173525 2.1530001
-0.045110479 0.15173525 2.1530001
-0.041009527 0.15173525 2.1530001
-0.036908574 0.15173525 2.1530001
-0.032807622 0.15173525 2.1530001
-0.028706668 0.15173525 2.1530001
-0.024605716 0.15173525 2.1530001
-0.020504763 0.15173525 2.1530001
-0.016403811 0.15173525 2.1530001
-0.012302858 0.15173525 2.1530001
-0.0082019055 0.15173525 2.1530001
-0.0041009528 0.15173525 2.1530001
0 0.15272191 2.1670001
0.0041276193 0.15272191 2.1670001
0.0083085718 0.15370858 2.181
0.012462857 0.15370858 2.181
0.016617144 0.15370858 2.181
0.020771429 0.15370858 2.181
0.024925714 0.15370858 2.181
0.029080002 0.15370858 2.181
0.033234287 0.15370858 2.181
0.037611429 0.15462476 2.194
0.041790478 0.15462476 2.194
0.045969527 0.15462476 2.194
0.050148573 0.15462476 2.194
0.054327622 0.15462476 2.194
0.058506668 0.15462476 2.194
0.062685713 0.15462476 2.194
0.066864766 0.15462476 2.194
0.071043812 0.15462476 2.194
0.075222857 0.15462476 2.194
0.07940191 0.15462476 2.194
0.083580956 0.15462476 2.194
0.087760001 0.15462476 2.194
0.091939054 0.15462476 2.194
0.0961181 0.15462476 2.194
0.10029715 0.15462476 2.194
0.10447619 0.15462476 2.194
0.10865524 0.15462476 2.194
0.11283429 0.15462476 2.194
0.11701334 0.15462476 2.194
0.12196572 0.15561144 2.2080002
0.12617144 0.15561144 2.2080002
0.13037714 0.15561144 2.2080002
0.13372953 0.15462476 2.194
0.13790858 0.15462476 2.194
0.14208762 0.15462476 2.194
0.1472 0.15561144 2.2080002
0.15140572 0.15561144 2.2080002
0.15561144 0.15561144 2.2080002
0.15981714 0.15561144 2.2080002
0.16402286 0.15561144 2.2080002
0.16822858 0.15561144 2.2080002
0.17243429 0.15561144 2.2080002
0.17664 0.15561144 2.2080002
0.17969905 0.15462476 2.194
0.18387811 0.15462476 2.194
0.18805715 0.15462476 2.194
0.1922362 0.15462476 2.194
0.19766858 0.15561144 2.2080002
0.20059429 0.15462476 2.194
0.20477334 0.15462476 2.194
0.20895238 0.15462476 2.194
0.21186858 0.15370858 2.181
0.21602286 0.15370858 2.181
0.22017714 0.15370858 2.181
0.22433144 0.15370858 2.181
0.22848572 0.15370858 2.181
0.23114668 0.15272191 2.1670001
0.2352743 0.15272191 2.1670001
0.23940191 0.15272191 2.1670001
0.24352953 0.15272191 2.1670001
0.24765715 0.15272191 2.1670001
0.25178477 0.15272191 2.1670001
0.25591239 0.15272191 2.1670001
0.26004001 0.15272191 2.1670001
0.26416764 0.15272191 2.1670001
0.26829526 0.15272191 2.1670001
0.27242288 0.15272191 2.1670001
