# .PCD v0.7 - Point Cloud Data file format
VERSION 0.7
FIELDS x y z
SIZE 4 4 4
TYPE F F F
COUNT 1 1 1
WIDTH 1474
HEIGHT 1
VIEWPOINT 0 0 0 1 0 0 0
POINTS 1474
DATA ascii
0.44670478 0.054979049 1.8040001
0.45263621 0.055283811 1.8140001
0.45860574 0.055588573 1.8240001
0.46208003 0.055588573 1.8240001
0.4655543 0.055588573 1.8240001
-0.29261714 0.067222856 2.0760002
-0.28866288 0.067222856 2.0760002
-0.28470859 0.067222856 2.0760002
-0.2789962 0.066801906 2.0630002
-0.27506667 0.066801906 2.0630002
-0.26956001 0.066413336 2.0510001
-0.26409906 0.066024765 2.039
-0.25868383 0.065636195 2.0270002
-0.25180572 0.064859048 2.003
-0.24662858 0.064502858 1.9920001
-0.24137144 0.064114287 1.9800001
-0.23760001 0.064114287 1.9800001
-0.23382857 0.064114287 1.9800001
-0.22877906 0.063758098 1.9690001
-0.22502857 0.063758098 1.9690001
-0.22004192 0.063401908 1.9580001
-0.21509714 0.063045718 1.9470001
-0.21019429 0.062689528 1.9360001
-0.20533334 0.062333334 1.9250001
-0.20166667 0.062333334 1.9250001
-0.19697143 0.062009525 1.9150001
-0.19221334 0.061653335 1.904
-0.18858667 0.061653335 1.904
-0.18398857 0.061329525 1.8940001
-0.17933334 0.060973335 1.8830001
-0.17481335 0.060649525 1.8730001
-0.17124572 0.060649525 1.8730001
-0.16678286 0.060325716 1.863
-0.16235811 0.060001906 1.853
-0.15797144 0.059678096 1.8430001
-0.15362287 0.059354287 1.8330001
-0.15013143 0.059354287 1.8330001
-0.14664 0.059354287 1.8330001
-0.14166477 0.058739051 1.8140001
-0.13820952 0.058739051 1.8140001
-0.13475429 0.058739051 1.8140001
-0.13057524 0.058415242 1.8040001
-0.12713905 0.058415242 1.8040001
-0.12308572 0.058123812 1.7950001
-0.11906667 0.057832383 1.7860001
-0.11566477 0.057832383 1.7860001
-0.11169714 0.057540953 1.7770001
-0.10776381 0.057249527 1.7680001
-0.10439619 0.057249527 1.7680001
-0.10102858 0.057249527 1.7680001
-0.097660959 0.057249527 1.7680001
-0.093813337 0.056958098 1.7590001
-0.090462863 0.056958098 1.7590001
-0.087112382 0.056958098 1.7590001
-0.083333336 0.056666669 1.7500001
-0.080000006 0.056666669 1.7500001
-0.076272383 0.056375239 1.7410001
-0.072579049 0.056083813 1.7320001
-0.069280006 0.056083813 1.7320001
-0.065980956 0.056083813 1.7320001
-0.062681906 0.056083813 1.7320001
-0.059074286 0.055792384 1.723
-0.055792384 0.055792384 1.723
-0.052510478 0.055792384 1.723
-0.049228575 0.055792384 1.723
-0.045946669 0.055792384 1.723
-0.042664763 0.055792384 1.723
-0.0392 0.055533335 1.715
-0.035933334 0.055533335 1.715
-0.032342859 0.05498286 1.6980001
-0.029108573 0.05498286 1.6980001
-0.025874287 0.05498286 1.6980001
-0.022533335 0.05472381 1.6900001
-0.019314287 0.05472381 1.6900001
-0.016095238 0.05472381 1.6900001
-0.012876191 0.05472381 1.6900001
-0.0096571436 0.05472381 1.6900001
-0.0064038099 0.054432385 1.6810001
-0.0032019049 0.054432385 1.6810001
0 0.054432385 1.6810001
0.0032019049 0.054432385 1.6810001
0.0064038099 0.054432385 1.6810001
0.0096057151 0.054432385 1.6810001
0.01280762 0.054432385 1.6810001
0.015933335 0.054173335 1.6730001
0.01912 0.054173335 1.6730001
0.022306668 0.054173335 1.6730001
0.025371429 0.053914286 1.6650001
0.028542858 0.053914286 1.6650001
0.031714287 0.053914286 1.6650001
0.034885716 0.053914286 1.6650001
0.038057145 0.053914286 1.6650001
0.041228574 0.053914286 1.6650001
0.044400003 0.053914286 1.6650001
0.047571432 0.053914286 1.6650001
0.050499048 0.053655241 1.6570001
0.053655241 0.053655241 1.6570001
0.05681143 0.053655241 1.6570001
0.059967622 0.053655241 1.6570001
0.063123815 0.053655241 1.6570001
0.06628 0.053655241 1.6570001
0.069436193 0.053655241 1.6570001
0.072592385 0.053655241 1.6570001
0.075748578 0.053655241 1.6570001
0.078904763 0.053655241 1.6570001
0.082060955 0.053655241 1.6570001
0.085217148 0.053655241 1.6570001
0.087946668 0.053396191 1.649
0.091087624 0.053396191 1.649
0.094228573 0.053396191 1.649
0.097369529 0.053396191 1.649
0.10051048 0.053396191 1.649
0.10365143 0.053396191 1.649
0.10679238 0.053396191 1.649
0.10993334 0.053396191 1.649
0.11307429 0.053396191 1.649
0.11621524 0.053396191 1.649
0.11935619 0.053396191 1.649
0.12249715 0.053396191 1.649
0.1256381 0.053396191 1.649
0.12877905 0.053396191 1.649
0.13256 0.053655241 1.6570001
0.13506095 0.053396191 1.649
0.13820191 0.053396191 1.649
0.14134286 0.053396191 1.649
0.14448382 0.053396191 1.649
0.14690858 0.053137146 1.641
0.15003429 0.053137146 1.641
0.15316001 0.053137146 1.641
0.15628572 0.053137146 1.641
0.16018857 0.053396191 1.649
0.16332953 0.053396191 1.649
0.16647048 0.053396191 1.649
0.16961144 0.053396191 1.649
0.17275238 0.053396191 1.649
0.17589334 0.053396191 1.649
0.17903429 0.053396191 1.649
0.18217525 0.053396191 1.649
0.18531619 0.053396191 1.649
0.18845715 0.053396191 1.649
0.1915981 0.053396191 1.649
0.19473906 0.053396191 1.649
0.19788 0.053396191 1.649
0.20102096 0.053396191 1.649
0.20416191 0.053396191 1.649
0.20730287 0.053396191 1.649
0.21146476 0.053655241 1.6570001
0.21565714 0.053914286 1.6650001
0.21882857 0.053914286 1.6650001
0.222 0.053914286 1.6650001
0.22517143 0.053914286 1.6650001
0.22834286 0.053914286 1.6650001
0.23040192 0.053655241 1.6570001
0.23468572 0.053914286 1.6650001
0.23785715 0.053914286 1.6650001
0.24102858 0.053914286 1.6650001
0.24420001 0.053914286 1.6650001
0.24737144 0.053914286 1.6650001
0.25174668 0.054173335 1.6730001
0.25493336 0.054173335 1.6730001
0.25812 0.054173335 1.6730001
0.26130667 0.054173335 1.6730001
0.26449335 0.054173335 1.6730001
0.26768002 0.054173335 1.6730001
0.27086666 0.054173335 1.6730001
0.27405334 0.054173335 1.6730001
0.27724001 0.054173335 1.6730001
0.28176764 0.054432385 1.6810001
0.28496954 0.054432385 1.6810001
0.28817144 0.054432385 1.6810001
0.29137334 0.054432385 1.6810001
0.29615238 0.05472381 1.6900001
0.29777715 0.054432385 1.6810001
0.30259049 0.05472381 1.6900001
0.30580953 0.05472381 1.6900001
0.3090286 0.05472381 1.6900001
0.31224763 0.05472381 1.6900001
0.31546667 0.05472381 1.6900001
0.3201943 0.05498286 1.6980001
0.32342857 0.05498286 1.6980001
0.32666287 0.05498286 1.6980001
0.33145145 0.055241905 1.7060001
0.33470097 0.055241905 1.7060001
0.33636573 0.05498286 1.6980001
0.34120002 0.055241905 1.7060001
0.34444955 0.055241905 1.7060001
0.34769905 0.055241905 1.7060001
0.35094857 0.055241905 1.7060001
0.35606667 0.055533335 1.715
0.35933334 0.055533335 1.715
0.36429143 0.055792384 1.723
0.36757335 0.055792384 1.723
0.37279239 0.056083813 1.7320001
0.37609145 0.056083813 1.7320001
0.37939048 0.056083813 1.7320001
0.38268954 0.056083813 1.7320001
0.38598859 0.056083813 1.7320001
0.39131048 0.056375239 1.7410001
0.39666668 0.056666669 1.7500001
0.40000001 0.056666669 1.7500001
0.40540764 0.056958098 1.7590001
0.41084954 0.057249527 1.7680001
0.41421714 0.057249527 1.7680001
0.41758478 0.057249527 1.7680001
0.42309526 0.057540953 1.7770001
0.42864001 0.057832383 1.7860001
0.43204191 0.057832383 1.7860001
0.43544382 0.057832383 1.7860001
0.4432686 0.058415242 1.8040001
0.44918096 0.058739051 1.8140001
0.45263621 0.058739051 1.8140001
0.45860574 0.059062861 1.8240001
0.46208003 0.059062861 1.8240001
0.4655543 0.059062861 1.8240001
-0.29430857 0.071588576 2.0880001
-0.28866288 0.071177147 2.0760002
-0.28470859 0.071177147 2.0760002
-0.2807543 0.071177147 2.0760002
-0.27506667 0.070731431 2.0630002
-0.26956001 0.070320003 2.0510001
-0.26409906 0.069908574 2.039
-0.25868383 0.069497146 2.0270002
-0.25180572 0.068674289 2.003
-0.24799049 0.068674289 2.003
-0.2428343 0.068297148 1.9920001
-0.23760001 0.067885719 1.9800001
-0.23252954 0.067508571 1.9690001
-0.22877906 0.067508571 1.9690001
-0.22502857 0.067508571 1.9690001
-0.22004192 0.06713143 1.9580001
-0.21509714 0.066754289 1.9470001
-0.21019429 0.066377148 1.9360001
-0.20533334 0.066 1.9250001
-0.20166667 0.066 1.9250001
-0.19697143 0.065657146 1.9150001
-0.19332382 0.065657146 1.9150001
-0.18858667 0.065280005 1.904
-0.18398857 0.064937145 1.8940001
-0.17933334 0.064560004 1.8830001
-0.17481335 0.064217143 1.8730001
-0.17124572 0.064217143 1.8730001
-0.16678286 0.063874289 1.863
-0.16235811 0.063531429 1.853
-0.15797144 0.063188575 1.8430001
-0.15362287 0.062845714 1.8330001
-0.15013143 0.062845714 1.8330001
-0.14592001 0.062537149 1.8240001
-0.14166477 0.062194288 1.8140001
-0.13820952 0.062194288 1.8140001
-0.13401143 0.061851431 1.8040001
-0.13057524 0.061851431 1.8040001
-0.12713905 0.061851431 1.8040001
-0.12308572 0.061542861 1.7950001
-0.11906667 0.061234288 1.7860001
-0.11566477 0.061234288 1.7860001
-0.11169714 0.060925715 1.7770001
-0.10776381 0.060617145 1.7680001
-0.10439619 0.060617145 1.7680001
-0.10102858 0.060617145 1.7680001
-0.097660959 0.060617145 1.7680001
-0.093813337 0.060308572 1.7590001
-0.090462863 0.060308572 1.7590001
-0.087112382 0.060308572 1.7590001
-0.083761908 0.060308572 1.7590001
-0.080000006 0.060000002 1.7500001
-0.076666668 0.060000002 1.7500001
-0.072579049 0.05938286 1.7320001
-0.069280006 0.05938286 1.7320001
-0.065980956 0.05938286 1.7320001
-0.062681906 0.05938286 1.7320001
-0.059074286 0.059074286 1.723
-0.055792384 0.059074286 1.723
-0.052510478 0.059074286 1.723
-0.049228575 0.059074286 1.723
-0.045946669 0.059074286 1.723
-0.042664763 0.059074286 1.723
-0.0392 0.058800001 1.715
-0.035933334 0.058800001 1.715
-0.032342859 0.058217146 1.6980001
-0.02897143 0.05794286 1.6900001
-0.025752382 0.05794286 1.6900001
-0.022533335 0.05794286 1.6900001
-0.019314287 0.05794286 1.6900001
-0.016095238 0.05794286 1.6900001
-0.012876191 0.05794286 1.6900001
-0.0096057151 0.057634287 1.6810001
-0.0064038099 0.057634287 1.6810001
-0.0032019049 0.057634287 1.6810001
0 0.057634287 1.6810001
0.0032019049 0.057634287 1.6810001
0.0064038099 0.057634287 1.6810001
0.0096057151 0.057634287 1.6810001
0.01280762 0.057634287 1.6810001
0.016009524 0.057634287 1.6810001
0.01912 0.057360001 1.6730001
0.022413334 0.057634287 1.6810001
0.025371429 0.057085715 1.6650001
0.028542858 0.057085715 1.6650001
0.031714287 0.057085715 1.6650001
0.034885716 0.057085715 1.6650001
0.038057145 0.057085715 1.6650001
0.041228574 0.057085715 1.6650001
0.044400003 0.057085715 1.6650001
0.047342859 0.05681143 1.6570001
0.050499048 0.05681143 1.6570001
0.053655241 0.05681143 1.6570001
0.05681143 0.05681143 1.6570001
0.059967622 0.05681143 1.6570001
0.063123815 0.05681143 1.6570001
0.06628 0.05681143 1.6570001
0.069436193 0.05681143 1.6570001
0.072592385 0.05681143 1.6570001
0.075748578 0.05681143 1.6570001
0.078904763 0.05681143 1.6570001
0.082060955 0.05681143 1.6570001
0.085217148 0.05681143 1.6570001
0.088373333 0.05681143 1.6570001
0.091087624 0.056537144 1.649
0.094228573 0.056537144 1.649
0.097369529 0.056537144 1.649
0.10051048 0.056537144 1.649
0.10365143 0.056537144 1.649
0.10679238 0.056537144 1.649
0.10993334 0.056537144 1.649
0.11307429 0.056537144 1.649
0.11621524 0.056537144 1.649
0.11935619 0.056537144 1.649
0.12249715 0.056537144 1.649
0.1256381 0.056537144 1.649
0.12877905 0.056537144 1.649
0.13192001 0.056537144 1.649
0.13506095 0.056537144 1.649
0.13887239 0.05681143 1.6570001
0.14134286 0.056537144 1.649
0.14448382 0.056537144 1.649
0.14762476 0.056537144 1.649
0.15003429 0.056262858 1.641
0.15316001 0.056262858 1.641
0.15628572 0.056262858 1.641
0.16018857 0.056537144 1.649
0.16332953 0.056537144 1.649
0.16647048 0.056537144 1.649
0.16961144 0.056537144 1.649
0.17275238 0.056537144 1.649
0.17589334 0.056537144 1.649
0.17903429 0.056537144 1.649
0.18217525 0.056537144 1.649
0.18621525 0.05681143 1.6570001
0.18845715 0.056537144 1.649
0.1915981 0.056537144 1.649
0.19568382 0.05681143 1.6570001
0.19788 0.056537144 1.649
0.20199619 0.05681143 1.6570001
0.20416191 0.056537144 1.649
0.20830858 0.05681143 1.6570001
0.21146476 0.05681143 1.6570001
0.21565714 0.057085715 1.6650001
0.21882857 0.057085715 1.6650001
0.222 0.057085715 1.6650001
0.22517143 0.057085715 1.6650001
0.22834286 0.057085715 1.6650001
0.23151429 0.057085715 1.6650001
0.23468572 0.057085715 1.6650001
0.23900001 0.057360001 1.6730001
0.24102858 0.057085715 1.6650001
0.24420001 0.057085715 1.6650001
0.24737144 0.057085715 1.6650001
0.25174668 0.057360001 1.6730001
0.25493336 0.057360001 1.6730001
0.25812 0.057360001 1.6730001
0.26130667 0.057360001 1.6730001
0.26449335 0.057360001 1.6730001
0.26768002 0.057360001 1.6730001
0.27086666 0.057360001 1.6730001
0.27536383 0.057634287 1.6810001
0.27724001 0.057360001 1.6730001
0.28176764 0.057634287 1.6810001
0.28496954 0.057634287 1.6810001
0.28817144 0.057634287 1.6810001
0.29137334 0.057634287 1.6810001
0.29615238 0.05794286 1.6900001
0.29937145 0.05794286 1.6900001
0.30259049 0.05794286 1.6900001
0.30580953 0.05794286 1.6900001
0.3090286 0.05794286 1.6900001
0.31224763 0.05794286 1.6900001
0.31546667 0.05794286 1.6900001
0.3201943 0.058217146 1.6980001
0.32342857 0.058217146 1.6980001
0.32666287 0.058217146 1.6980001
0.33145145 0.058491431 1.7060001
0.33470097 0.058491431 1.7060001
0.33636573 0.058217146 1.6980001
0.34120002 0.058491431 1.7060001
0.34444955 0.058491431 1.7060001
0.34769905 0.058491431 1.7060001
0.35094857 0.058491431 1.7060001
0.3541981 0.058491431 1.7060001
0.35933334 0.058800001 1.715
0.36619431 0.05938286 1.7320001
0.36949334 0.05938286 1.7320001
0.37279239 0.05938286 1.7320001
0.37609145 0.05938286 1.7320001
0.37939048 0.05938286 1.7320001
0.38268954 0.05938286 1.7320001
0.38799429 0.059691429 1.7410001
0.39131048 0.059691429 1.7410001
0.39666668 0.060000002 1.7500001
0.40000001 0.060000002 1.7500001
0.40540764 0.060308572 1.7590001
0.4087581 0.060308572 1.7590001
0.41421714 0.060617145 1.7680001
0.41758478 0.060617145 1.7680001
0.42309526 0.060925715 1.7770001
0.42864001 0.061234288 1.7860001
0.43204191 0.061234288 1.7860001
0.43544382 0.061234288 1.7860001
0.44572574 0.062194288 1.8140001
0.44918096 0.062194288 1.8140001
0.45513144 0.062537149 1.8240001
0.4608686 0.062845714 1.8330001
0.46436003 0.062845714 1.8330001
0.46785146 0.062845714 1.8330001
-0.29430857 0.075565718 2.0880001
-0.29033145 0.075565718 2.0880001
-0.28470859 0.075131431 2.0760002
-0.2807543 0.075131431 2.0760002
-0.27506667 0.074660957 2.0630002
-0.27113715 0.074660957 2.0630002
-0.26565334 0.07422667 2.0510001
-0.25868383 0.073358096 2.0270002
-0.25180572 0.07248953 2.003
-0.24662858 0.07209143 1.9920001
-0.2428343 0.07209143 1.9920001
-0.23904 0.07209143 1.9920001
-0.23382857 0.071657144 1.9800001
-0.22877906 0.071259052 1.9690001
-0.22502857 0.071259052 1.9690001
-0.22004192 0.070860952 1.9580001
-0.21509714 0.07046286 1.9470001
-0.21019429 0.070064768 1.9360001
-0.20650667 0.070064768 1.9360001
-0.20166667 0.069666669 1.9250001
-0.19800001 0.069666669 1.9250001
-0.19332382 0.069304764 1.9150001
-0.18858667 0.068906672 1.904
-0.18398857 0.068544768 1.8940001
-0.17933334 0.068146668 1.8830001
-0.17481335 0.067784764 1.8730001
-0.17124572 0.067784764 1.8730001
-0.16678286 0.067422859 1.863
-0.16235811 0.067060955 1.853
-0.15797144 0.06669905 1.8430001
-0.15362287 0.066337146 1.8330001
-0.15013143 0.066337146 1.8330001
-0.14664 0.066337146 1.8330001
-0.14244571 0.066011429 1.8240001
-0.13820952 0.065649524 1.8140001
-0.13475429 0.065649524 1.8140001
-0.13057524 0.06528762 1.8040001
-0.12713905 0.06528762 1.8040001
-0.12308572 0.06496191 1.7950001
-0.11966667 0.06496191 1.7950001
-0.11566477 0.064636193 1.7860001
-0.11169714 0.064310476 1.7770001
-0.10776381 0.063984767 1.7680001
-0.10439619 0.063984767 1.7680001
-0.10102858 0.063984767 1.7680001
-0.097660959 0.063984767 1.7680001
-0.093813337 0.06365905 1.7590001
-0.090462863 0.06365905 1.7590001
-0.087112382 0.06365905 1.7590001
-0.083333336 0.063333333 1.7500001
-0.080000006 0.063333333 1.7500001
-0.076666668 0.063333333 1.7500001
-0.072579049 0.062681906 1.7320001
-0.069280006 0.062681906 1.7320001
-0.065980956 0.062681906 1.7320001
-0.062681906 0.062681906 1.7320001
-0.059074286 0.062356193 1.723
-0.055792384 0.062356193 1.723
-0.052510478 0.062356193 1.723
-0.049228575 0.062356193 1.723
-0.045946669 0.062356193 1.723
-0.042664763 0.062356193 1.723
-0.0392 0.062066671 1.715
-0.035933334 0.062066671 1.715
-0.032342859 0.061451431 1.6980001
-0.02897143 0.061161906 1.6900001
-0.025752382 0.061161906 1.6900001
-0.022533335 0.061161906 1.6900001
-0.019314287 0.061161906 1.6900001
-0.016095238 0.061161906 1.6900001
-0.012876191 0.061161906 1.6900001
-0.0096057151 0.060836192 1.6810001
-0.0064038099 0.060836192 1.6810001
-0.0032019049 0.060836192 1.6810001
0 0.060836192 1.6810001
0.0032019049 0.060836192 1.6810001
0.0064038099 0.060836192 1.6810001
0.0096057151 0.060836192 1.6810001
0.01280762 0.060836192 1.6810001
0.016009524 0.060836192 1.6810001
0.01921143 0.060836192 1.6810001
0.022413334 0.060836192 1.6810001
0.025493335 0.06054667 1.6730001
0.02868 0.06054667 1.6730001
0.031714287 0.060257144 1.6650001
0.034885716 0.060257144 1.6650001
0.038057145 0.060257144 1.6650001
0.041228574 0.060257144 1.6650001
0.044400003 0.060257144 1.6650001
0.047342859 0.059967622 1.6570001
0.050499048 0.059967622 1.6570001
0.053655241 0.059967622 1.6570001
0.05681143 0.059967622 1.6570001
0.059967622 0.059967622 1.6570001
0.063123815 0.059967622 1.6570001
0.06628 0.059967622 1.6570001
0.069436193 0.059967622 1.6570001
0.072592385 0.059967622 1.6570001
0.075748578 0.059967622 1.6570001
0.078904763 0.059967622 1.6570001
0.082060955 0.059967622 1.6570001
0.085217148 0.059967622 1.6570001
0.087946668 0.059678096 1.649
0.091087624 0.059678096 1.649
0.094228573 0.059678096 1.649
0.097369529 0.059678096 1.649
0.10051048 0.059678096 1.649
0.10365143 0.059678096 1.649
0.10679238 0.059678096 1.649
0.10993334 0.059678096 1.649
0.11307429 0.059678096 1.649
0.11621524 0.059678096 1.649
0.11993524 0.059967622 1.6570001
0.12249715 0.059678096 1.649
0.1256381 0.059678096 1.649
0.12877905 0.059678096 1.649
0.13192001 0.059678096 1.649
0.1357162 0.059967622 1.6570001
0.13887239 0.059967622 1.6570001
0.14202857 0.059967622 1.6570001
0.14518477 0.059967622 1.6570001
0.14762476 0.059678096 1.649
0.15076572 0.059678096 1.649
0.15390667 0.059678096 1.649
0.15704763 0.059678096 1.649
0.16018857 0.059678096 1.649
0.16332953 0.059678096 1.649
0.16647048 0.059678096 1.649
0.16961144 0.059678096 1.649
0.17275238 0.059678096 1.649
0.17589334 0.059678096 1.649
0.17903429 0.059678096 1.649
0.18217525 0.059678096 1.649
0.18621525 0.059967622 1.6570001
0.18845715 0.059678096 1.649
0.19252762 0.059967622 1.6570001
0.19568382 0.059967622 1.6570001
0.19884001 0.059967622 1.6570001
0.20102096 0.059678096 1.649
0.20416191 0.059678096 1.649
0.20830858 0.059967622 1.6570001
0.21146476 0.059967622 1.6570001
0.21462096 0.059967622 1.6570001
0.21882857 0.060257144 1.6650001
0.222 0.060257144 1.6650001
0.22517143 0.060257144 1.6650001
0.22834286 0.060257144 1.6650001
0.23151429 0.060257144 1.6650001
0.23468572 0.060257144 1.6650001
0.23785715 0.060257144 1.6650001
0.24102858 0.060257144 1.6650001
0.24420001 0.060257144 1.6650001
0.24737144 0.060257144 1.6650001
0.25174668 0.06054667 1.6730001
0.25493336 0.06054667 1.6730001
0.25812 0.06054667 1.6730001
0.26130667 0.06054667 1.6730001
0.26449335 0.06054667 1.6730001
0.26896 0.060836192 1.6810001
0.27086666 0.06054667 1.6730001
0.27536383 0.060836192 1.6810001
0.27724001 0.06054667 1.6730001
0.28176764 0.060836192 1.6810001
0.28496954 0.060836192 1.6810001
0.28817144 0.060836192 1.6810001
0.29137334 0.060836192 1.6810001
0.29615238 0.061161906 1.6900001
0.29937145 0.061161906 1.6900001
0.30259049 0.061161906 1.6900001
0.30580953 0.061161906 1.6900001
0.3090286 0.061161906 1.6900001
0.31224763 0.061161906 1.6900001
0.31696001 0.061451431 1.6980001
0.3201943 0.061451431 1.6980001
0.32342857 0.061451431 1.6980001
0.32666287 0.061451431 1.6980001
0.33145145 0.061740953 1.7060001
0.33470097 0.061740953 1.7060001
0.33636573 0.061451431 1.6980001
0.33960003 0.061451431 1.6980001
0.34444955 0.061740953 1.7060001
0.34769905 0.061740953 1.7060001
0.35094857 0.061740953 1.7060001
0.35606667 0.062066671 1.715
0.35933334 0.062066671 1.715
0.36429143 0.062356193 1.723
0.36757335 0.062356193 1.723
0.37279239 0.062681906 1.7320001
0.37609145 0.062681906 1.7320001
0.37939048 0.062681906 1.7320001
0.38268954 0.062681906 1.7320001
0.38799429 0.063007623 1.7410001
0.39131048 0.063007623 1.7410001
0.39666668 0.063333333 1.7500001
0.40000001 0.063333333 1.7500001
0.40540764 0.06365905 1.7590001
0.41084954 0.063984767 1.7680001
0.41421714 0.063984767 1.7680001
0.41758478 0.063984767 1.7680001
0.42309526 0.064310476 1.7770001
0.42864001 0.064636193 1.7860001
0.43204191 0.064636193 1.7860001
0.4376381 0.06496191 1.7950001
0.44572574 0.065649524 1.8140001
0.44918096 0.065649524 1.8140001
0.45513144 0.066011429 1.8240001
0.45860574 0.066011429 1.8240001
0.46208003 0.066011429 1.8240001
0.4655543 0.066011429 1.8240001
-0.29614097 0.0800381 2.1010001
-0.29033145 0.07954286 2.0880001
-0.28470859 0.079085715 2.0760002
-0.2807543 0.079085715 2.0760002
-0.27506667 0.078590482 2.0630002
-0.26956001 0.078133337 2.0510001
-0.26565334 0.078133337 2.0510001
-0.25868383 0.077219054 2.0270002
-0.25180572 0.076304764 2.003
-0.24662858 0.075885721 1.9920001
-0.2428343 0.075885721 1.9920001
-0.23760001 0.075428575 1.9800001
-0.23382857 0.075428575 1.9800001
-0.22877906 0.075009525 1.9690001
-0.22502857 0.075009525 1.9690001
-0.22004192 0.074590482 1.9580001
-0.21509714 0.074171431 1.9470001
-0.21019429 0.073752381 1.9360001
-0.20650667 0.073752381 1.9360001
-0.20166667 0.073333338 1.9250001
-0.19800001 0.073333338 1.9250001
-0.19332382 0.072952382 1.9150001
-0.18858667 0.072533339 1.904
-0.18398857 0.072152384 1.8940001
-0.17933334 0.071733333 1.8830001
-0.17481335 0.071352385 1.8730001
-0.17124572 0.071352385 1.8730001
-0.16678286 0.070971429 1.863
-0.16235811 0.070590481 1.853
-0.15797144 0.070209526 1.8430001
-0.15362287 0.069828577 1.8330001
-0.15013143 0.069828577 1.8330001
-0.14664 0.069828577 1.8330001
-0.14166477 0.069104761 1.8140001
-0.13820952 0.069104761 1.8140001
-0.13401143 0.068723813 1.8040001
-0.13057524 0.068723813 1.8040001
-0.12713905 0.068723813 1.8040001
-0.12308572 0.068380952 1.7950001
-0.11966667 0.068380952 1.7950001
-0.11566477 0.068038099 1.7860001
-0.11169714 0.067695238 1.7770001
-0.10831238 0.067695238 1.7770001
-0.10439619 0.067352384 1.7680001
-0.10102858 0.067352384 1.7680001
-0.097660959 0.067352384 1.7680001
-0.094293334 0.067352384 1.7680001
-0.090462863 0.067009524 1.7590001
-0.087112382 0.067009524 1.7590001
-0.083761908 0.067009524 1.7590001
-0.080411434 0.067009524 1.7590001
-0.076666668 0.06666667 1.7500001
-0.072579049 0.065980956 1.7320001
-0.069280006 0.065980956 1.7320001
-0.065980956 0.065980956 1.7320001
-0.062681906 0.065980956 1.7320001
-0.05938286 0.065980956 1.7320001
-0.055792384 0.065638095 1.723
-0.052510478 0.065638095 1.723
-0.049228575 0.065638095 1.723
-0.045946669 0.065638095 1.723
-0.042664763 0.065638095 1.723
-0.0392 0.065333337 1.715
-0.035744764 0.064990476 1.7060001
-0.032190476 0.064380951 1.6900001
-0.02897143 0.064380951 1.6900001
-0.025752382 0.064380951 1.6900001
-0.022533335 0.064380951 1.6900001
-0.019314287 0.064380951 1.6900001
-0.016095238 0.064380951 1.6900001
-0.012876191 0.064380951 1.6900001
-0.0096057151 0.064038098 1.6810001
-0.0064038099 0.064038098 1.6810001
-0.0032019049 0.064038098 1.6810001
0 0.064038098 1.6810001
0.0032019049 0.064038098 1.6810001
0.0064038099 0.064038098 1.6810001
0.0096057151 0.064038098 1.6810001
0.01280762 0.064038098 1.6810001
0.016009524 0.064038098 1.6810001
0.01912 0.063733339 1.6730001
0.022413334 0.064038098 1.6810001
0.025493335 0.063733339 1.6730001
0.02868 0.063733339 1.6730001
0.03186667 0.063733339 1.6730001
0.035053335 0.063733339 1.6730001
0.038240001 0.063733339 1.6730001
0.041228574 0.063428573 1.6650001
0.044400003 0.063428573 1.6650001
0.047342859 0.063123815 1.6570001
0.050499048 0.063123815 1.6570001
0.053655241 0.063123815 1.6570001
0.05681143 0.063123815 1.6570001
0.059967622 0.063123815 1.6570001
0.063123815 0.063123815 1.6570001
0.06628 0.063123815 1.6570001
0.069436193 0.063123815 1.6570001
0.072592385 0.063123815 1.6570001
0.075748578 0.063123815 1.6570001
0.078904763 0.063123815 1.6570001
0.082060955 0.063123815 1.6570001
0.085217148 0.063123815 1.6570001
0.087946668 0.062819049 1.649
0.091087624 0.062819049 1.649
0.094228573 0.062819049 1.649
0.097369529 0.062819049 1.649
0.10051048 0.062819049 1.649
0.10365143 0.062819049 1.649
0.10679238 0.062819049 1.649
0.10993334 0.062819049 1.649
0.11307429 0.062819049 1.649
0.11677905 0.063123815 1.6570001
0.11935619 0.062819049 1.649
0.12249715 0.062819049 1.649
0.1256381 0.062819049 1.649
0.12877905 0.062819049 1.649
0.13192001 0.062819049 1.649
0.1357162 0.063123815 1.6570001
0.13887239 0.063123815 1.6570001
0.14202857 0.063123815 1.6570001
0.14518477 0.063123815 1.6570001
0.14762476 0.062819049 1.649
0.15076572 0.062819049 1.649
0.15390667 0.062819049 1.649
0.15704763 0.062819049 1.649
0.16018857 0.062819049 1.649
0.16332953 0.062819049 1.649
0.16647048 0.062819049 1.649
0.16961144 0.062819049 1.649
0.17275238 0.062819049 1.649
0.17589334 0.062819049 1.649
0.17903429 0.062819049 1.649
0.18217525 0.062819049 1.649
0.18621525 0.063123815 1.6570001
0.18845715 0.062819049 1.649
0.1915981 0.062819049 1.649
0.19568382 0.063123815 1.6570001
0.19884001 0.063123815 1.6570001
0.20199619 0.063123815 1.6570001
0.20515239 0.063123815 1.6570001
0.20830858 0.063123815 1.6570001
0.21146476 0.063123815 1.6570001
0.21462096 0.063123815 1.6570001
0.21777715 0.063123815 1.6570001
0.22093335 0.063123815 1.6570001
0.22408953 0.063123815 1.6570001
0.22724572 0.063123815 1.6570001
0.23040192 0.063123815 1.6570001
0.23468572 0.063428573 1.6650001
0.23785715 0.063428573 1.6650001
0.24102858 0.063428573 1.6650001
0.24420001 0.063428573 1.6650001
0.24856001 0.063733339 1.6730001
0.25174668 0.063733339 1.6730001
0.25493336 0.063733339 1.6730001
0.25812 0.063733339 1.6730001
0.26130667 0.063733339 1.6730001
0.2657581 0.064038098 1.6810001
0.26896 0.064038098 1.6810001
0.2721619 0.064038098 1.6810001
0.27536383 0.064038098 1.6810001
0.27856573 0.064038098 1.6810001
0.28176764 0.064038098 1.6810001
0.28496954 0.064038098 1.6810001
0.28817144 0.064038098 1.6810001
0.29137334 0.064038098 1.6810001
0.29615238 0.064380951 1.6900001
0.29937145 0.064380951 1.6900001
0.30259049 0.064380951 1.6900001
0.30580953 0.064380951 1.6900001
0.3090286 0.064380951 1.6900001
0.31224763 0.064380951 1.6900001
0.31696001 0.064685717 1.6980001
0.3201943 0.064685717 1.6980001
0.32342857 0.064685717 1.6980001
0.32666287 0.064685717 1.6980001
0.33145145 0.064990476 1.7060001
0.33470097 0.064990476 1.7060001
0.33636573 0.064685717 1.6980001
0.33960003 0.064685717 1.6980001
0.34444955 0.064990476 1.7060001
0.34769905 0.064990476 1.7060001
0.35094857 0.064990476 1.7060001
0.35606667 0.065333337 1.715
0.35933334 0.065333337 1.715
0.36429143 0.065638095 1.723
0.36757335 0.065638095 1.723
0.37279239 0.065980956 1.7320001
0.37609145 0.065980956 1.7320001
0.37939048 0.065980956 1.7320001
0.3846781 0.066323809 1.7410001
0.38799429 0.066323809 1.7410001
0.39131048 0.066323809 1.7410001
0.39666668 0.06666667 1.7500001
0.40205717 0.067009524 1.7590001
0.40748191 0.067352384 1.7680001
0.41084954 0.067352384 1.7680001
0.41421714 0.067352384 1.7680001
0.41971049 0.067695238 1.7770001
0.42309526 0.067695238 1.7770001
0.42864001 0.068038099 1.7860001
0.43204191 0.068038099 1.7860001
0.4376381 0.068380952 1.7950001
0.44572574 0.069104761 1.8140001
0.44918096 0.069104761 1.8140001
0.45263621 0.069104761 1.8140001
0.45860574 0.069485717 1.8240001
0.46208003 0.069485717 1.8240001
0.4655543 0.069485717 1.8240001
-0.29614097 0.084040001 2.1010001
-0.29033145 0.083520003 2.0880001
-0.2863543 0.083520003 2.0880001
-0.2807543 0.083040006 2.0760002
-0.27680001 0.083040006 2.0760002
-0.27113715 0.082520001 2.0630002
-0.26565334 0.082040004 2.0510001
-0.25868383 0.081080005 2.0270002
-0.25180572 0.080120005 2.003
-0.24662858 0.079680003 1.9920001
-0.24137144 0.0792 1.9800001
-0.23760001 0.0792 1.9800001
-0.23382857 0.0792 1.9800001
-0.22877906 0.078760006 1.9690001
-0.22502857 0.078760006 1.9690001
-0.2212781 0.078760006 1.9690001
-0.21509714 0.077880003 1.9470001
-0.21138857 0.077880003 1.9470001
-0.20650667 0.077440001 1.9360001
-0.20166667 0.077 1.9250001
-0.19800001 0.077 1.9250001
-0.19332382 0.0766 1.9150001
-0.18858667 0.076160006 1.904
-0.18398857 0.075759999 1.8940001
-0.17933334 0.075320005 1.8830001
-0.17481335 0.074920006 1.8730001
-0.17124572 0.074920006 1.8730001
-0.16678286 0.074519999 1.863
-0.16235811 0.07412 1.853
-0.15797144 0.073720001 1.8430001
-0.15446095 0.073720001 1.8430001
-0.15013143 0.073320001 1.8330001
-0.14664 0.073320001 1.8330001
-0.14166477 0.072560005 1.8140001
-0.13820952 0.072560005 1.8140001
-0.13401143 0.072160006 1.8040001
-0.13057524 0.072160006 1.8040001
-0.12713905 0.072160006 1.8040001
-0.12308572 0.071800001 1.7950001
-0.11966667 0.071800001 1.7950001
-0.11566477 0.071440004 1.7860001
-0.11226286 0.071440004 1.7860001
-0.10831238 0.071079999 1.7770001
-0.10439619 0.070720002 1.7680001
-0.10102858 0.070720002 1.7680001
-0.097660959 0.070720002 1.7680001
-0.094293334 0.070720002 1.7680001
-0.090462863 0.070360005 1.7590001
-0.087112382 0.070360005 1.7590001
-0.083761908 0.070360005 1.7590001
-0.080411434 0.070360005 1.7590001
-0.076666668 0.07 1.7500001
-0.072579049 0.069280006 1.7320001
-0.069280006 0.069280006 1.7320001
-0.065980956 0.069280006 1.7320001
-0.062681906 0.069280006 1.7320001
-0.05938286 0.069280006 1.7320001
-0.056083813 0.069280006 1.7320001
-0.052510478 0.068920001 1.723
-0.049228575 0.068920001 1.723
-0.045946669 0.068920001 1.723
-0.042664763 0.068920001 1.723
-0.0392 0.068599999 1.715
-0.035933334 0.068599999 1.715
-0.032342859 0.067919999 1.6980001
-0.02897143 0.067600004 1.6900001
-0.025752382 0.067600004 1.6900001
-0.022533335 0.067600004 1.6900001
-0.019314287 0.067600004 1.6900001
-0.016095238 0.067600004 1.6900001
-0.012876191 0.067600004 1.6900001
-0.0096057151 0.06724 1.6810001
-0.0064380956 0.067600004 1.6900001
-0.0032019049 0.06724 1.6810001
0 0.06724 1.6810001
0.0032019049 0.06724 1.6810001
0.0064038099 0.06724 1.6810001
0.0096057151 0.06724 1.6810001
0.01280762 0.06724 1.6810001
0.016009524 0.06724 1.6810001
0.01912 0.066920005 1.6730001
0.022306668 0.066920005 1.6730001
0.025493335 0.066920005 1.6730001
0.02868 0.066920005 1.6730001
0.03186667 0.066920005 1.6730001
0.035053335 0.066920005 1.6730001
0.038240001 0.066920005 1.6730001
0.041228574 0.066600002 1.6650001
0.044400003 0.066600002 1.6650001
0.047571432 0.066600002 1.6650001
0.050742857 0.066600002 1.6650001
0.053914286 0.066600002 1.6650001
0.05681143 0.06628 1.6570001
0.059967622 0.06628 1.6570001
0.063428573 0.066600002 1.6650001
0.066600002 0.066600002 1.6650001
0.069436193 0.06628 1.6570001
0.072592385 0.06628 1.6570001
0.075748578 0.06628 1.6570001
0.078904763 0.06628 1.6570001
0.081664763 0.065960005 1.649
0.085217148 0.06628 1.6570001
0.088373333 0.06628 1.6570001
0.091087624 0.065960005 1.649
0.094228573 0.065960005 1.649
0.097841911 0.06628 1.6570001
0.10051048 0.065960005 1.649
0.10365143 0.065960005 1.649
0.10679238 0.065960005 1.649
0.10993334 0.065960005 1.649
0.11307429 0.065960005 1.649
0.11621524 0.065960005 1.649
0.11993524 0.06628 1.6570001
0.12249715 0.065960005 1.649
0.12624763 0.06628 1.6570001
0.12877905 0.065960005 1.649
0.13192001 0.065960005 1.649
0.1357162 0.06628 1.6570001
0.13887239 0.06628 1.6570001
0.14202857 0.06628 1.6570001
0.14518477 0.06628 1.6570001
0.14762476 0.065960005 1.649
0.15076572 0.065960005 1.649
0.15390667 0.065960005 1.649
0.15704763 0.065960005 1.649
0.16018857 0.065960005 1.649
0.16332953 0.065960005 1.649
0.16647048 0.065960005 1.649
0.16961144 0.065960005 1.649
0.17275238 0.065960005 1.649
0.17589334 0.065960005 1.649
0.17903429 0.065960005 1.649
0.18217525 0.065960005 1.649
0.18621525 0.06628 1.6570001
0.18845715 0.065960005 1.649
0.1915981 0.065960005 1.649
0.19473906 0.065960005 1.649
0.19884001 0.06628 1.6570001
0.20199619 0.06628 1.6570001
0.20515239 0.06628 1.6570001
0.20830858 0.06628 1.6570001
0.21146476 0.06628 1.6570001
0.21462096 0.06628 1.6570001
0.21777715 0.06628 1.6570001
0.222 0.066600002 1.6650001
0.22408953 0.06628 1.6570001
0.22724572 0.06628 1.6570001
0.23151429 0.066600002 1.6650001
0.23468572 0.066600002 1.6650001
0.23785715 0.066600002 1.6650001
0.24102858 0.066600002 1.6650001
0.24420001 0.066600002 1.6650001
0.24856001 0.066920005 1.6730001
0.25174668 0.066920005 1.6730001
0.25493336 0.066920005 1.6730001
0.25935429 0.06724 1.6810001
0.26130667 0.066920005 1.6730001
0.2657581 0.06724 1.6810001
0.26896 0.06724 1.6810001
0.2721619 0.06724 1.6810001
0.27536383 0.06724 1.6810001
0.27856573 0.06724 1.6810001
0.28176764 0.06724 1.6810001
0.28496954 0.06724 1.6810001
0.28817144 0.06724 1.6810001
0.29293334 0.067600004 1.6900001
0.29615238 0.067600004 1.6900001
0.29937145 0.067600004 1.6900001
0.30402288 0.067919999 1.6980001
0.30725715 0.067919999 1.6980001
0.31049144 0.067919999 1.6980001
0.31372574 0.067919999 1.6980001
0.31696001 0.067919999 1.6980001
0.3201943 0.067919999 1.6980001
0.32495239 0.068240002 1.7060001
0.32820192 0.068240002 1.7060001
0.33145145 0.068240002 1.7060001
0.33470097 0.068240002 1.7060001
0.33636573 0.067919999 1.6980001
0.33960003 0.067919999 1.6980001
0.34444955 0.068240002 1.7060001
0.34769905 0.068240002 1.7060001
0.35094857 0.068240002 1.7060001
0.35606667 0.068599999 1.715
0.36100954 0.068920001 1.723
0.36429143 0.068920001 1.723
0.36757335 0.068920001 1.723
0.37085524 0.068920001 1.723
0.37609145 0.069280006 1.7320001
0.37939048 0.069280006 1.7320001
0.38268954 0.069280006 1.7320001
0.38799429 0.069640003 1.7410001
0.39131048 0.069640003 1.7410001
0.39870667 0.070360005 1.7590001
0.40205717 0.070360005 1.7590001
0.40748191 0.070720002 1.7680001
0.41084954 0.070720002 1.7680001
0.41421714 0.070720002 1.7680001
0.41971049 0.071079999 1.7770001
0.42309526 0.071079999 1.7770001
0.42864001 0.071440004 1.7860001
0.43421906 0.071800001 1.7950001
0.43983239 0.072160006 1.8040001
0.44572574 0.072560005 1.8140001
0.44918096 0.072560005 1.8140001
0.45513144 0.072960004 1.8240001
0.45860574 0.072960004 1.8240001
0.45954669 0.072560005 1.8140001
0.46300194 0.072560005 1.8140001
-0.29797333 0.088586673 2.1140001
-0.29213905 0.088041909 2.1010001
-0.2863543 0.087497145 2.0880001
-0.28237715 0.087497145 2.0880001
-0.27680001 0.08699429 2.0760002
-0.27113715 0.086449526 2.0630002
-0.26565334 0.085946672 2.0510001
-0.25868383 0.084940955 2.0270002
-0.25042287 0.083474286 1.9920001
-0.24662858 0.083474286 1.9920001
-0.24137144 0.082971431 1.9800001
-0.23760001 0.082971431 1.9800001
-0.23382857 0.082971431 1.9800001
-0.22877906 0.082510479 1.9690001
-0.22502857 0.082510479 1.9690001
-0.2212781 0.082510479 1.9690001
-0.21631239 0.082049526 1.9580001
-0.21138857 0.081588574 1.9470001
-0.20650667 0.081127621 1.9360001
-0.20166667 0.080666669 1.9250001
-0.19800001 0.080666669 1.9250001
-0.19332382 0.080247626 1.9150001
-0.18858667 0.079786673 1.904
-0.18398857 0.079367623 1.8940001
-0.17933334 0.07890667 1.8830001
-0.17574668 0.07890667 1.8830001
-0.17124572 0.07848762 1.8730001
-0.16678286 0.078068577 1.863
-0.16323429 0.078068577 1.863
-0.15797144 0.077230476 1.8430001
-0.15446095 0.077230476 1.8430001
-0.15013143 0.076811433 1.8330001
-0.14664 0.076811433 1.8330001
-0.14244571 0.076434292 1.8240001
-0.13820952 0.076015241 1.8140001
-0.13401143 0.075596191 1.8040001
-0.13057524 0.075596191 1.8040001
-0.12713905 0.075596191 1.8040001
-0.12308572 0.07521905 1.7950001
-0.11966667 0.07521905 1.7950001
-0.11624762 0.07521905 1.7950001
-0.11226286 0.074841909 1.7860001
-0.10831238 0.074464768 1.7770001
-0.10439619 0.07408762 1.7680001
-0.10102858 0.07408762 1.7680001
-0.097660959 0.07408762 1.7680001
-0.093813337 0.073710479 1.7590001
-0.090462863 0.073710479 1.7590001
-0.087112382 0.073710479 1.7590001
-0.083333336 0.073333338 1.7500001
-0.080000006 0.073333338 1.7500001
-0.076666668 0.073333338 1.7500001
-0.07295619 0.07295619 1.7410001
-0.069280006 0.072579049 1.7320001
-0.065980956 0.072579049 1.7320001
-0.062681906 0.072579049 1.7320001
-0.05938286 0.072579049 1.7320001
-0.056083813 0.072579049 1.7320001
-0.052510478 0.072201908 1.723
-0.049228575 0.072201908 1.723
-0.045946669 0.072201908 1.723
-0.042664763 0.072201908 1.723
-0.0392 0.071866669 1.715
-0.035744764 0.071489528 1.7060001
-0.032495238 0.071489528 1.7060001
-0.02897143 0.07081905 1.6900001
-0.025752382 0.07081905 1.6900001
-0.022533335 0.07081905 1.6900001
-0.019314287 0.07081905 1.6900001
-0.016095238 0.07081905 1.6900001
-0.012876191 0.07081905 1.6900001
-0.0096057151 0.070441909 1.6810001
-0.0064380956 0.07081905 1.6900001
-0.0032019049 0.070441909 1.6810001
0 0.070441909 1.6810001
0.0032019049 0.070441909 1.6810001
0.0064038099 0.070441909 1.6810001
0.0096057151 0.070441909 1.6810001
0.01280762 0.070441909 1.6810001
0.016009524 0.070441909 1.6810001
0.01912 0.07010667 1.6730001
0.022306668 0.07010667 1.6730001
0.025493335 0.07010667 1.6730001
0.02868 0.07010667 1.6730001
0.03186667 0.07010667 1.6730001
0.035053335 0.07010667 1.6730001
0.038240001 0.07010667 1.6730001
0.04142667 0.07010667 1.6730001
0.044400003 0.069771431 1.6650001
0.047571432 0.069771431 1.6650001
0.050742857 0.069771431 1.6650001
0.053914286 0.069771431 1.6650001
0.05681143 0.069436193 1.6570001
0.059967622 0.069436193 1.6570001
0.063123815 0.069436193 1.6570001
0.06628 0.069436193 1.6570001
0.069436193 0.069436193 1.6570001
0.072592385 0.069436193 1.6570001
0.075748578 0.069436193 1.6570001
0.078904763 0.069436193 1.6570001
0.082060955 0.069436193 1.6570001
0.085217148 0.069436193 1.6570001
0.088373333 0.069436193 1.6570001
0.091529526 0.069436193 1.6570001
0.094685718 0.069436193 1.6570001
0.097841911 0.069436193 1.6570001
0.10051048 0.069100954 1.649
0.10365143 0.069100954 1.649
0.10679238 0.069100954 1.649
0.10993334 0.069100954 1.649
0.11362286 0.069436193 1.6570001
0.11677905 0.069436193 1.6570001
0.11993524 0.069436193 1.6570001
0.12309143 0.069436193 1.6570001
0.12624763 0.069436193 1.6570001
0.12940381 0.069436193 1.6570001
0.13256 0.069436193 1.6570001
0.1357162 0.069436193 1.6570001
0.13887239 0.069436193 1.6570001
0.14202857 0.069436193 1.6570001
0.14518477 0.069436193 1.6570001
0.14762476 0.069100954 1.649
0.15149716 0.069436193 1.6570001
0.15465334 0.069436193 1.6570001
0.15704763 0.069100954 1.649
0.16018857 0.069100954 1.649
0.16332953 0.069100954 1.649
0.1672781 0.069436193 1.6570001
0.16961144 0.069100954 1.649
0.17275238 0.069100954 1.649
0.17589334 0.069100954 1.649
0.17903429 0.069100954 1.649
0.18305905 0.069436193 1.6570001
0.18621525 0.069436193 1.6570001
0.18845715 0.069100954 1.649
0.19252762 0.069436193 1.6570001
0.19568382 0.069436193 1.6570001
0.19884001 0.069436193 1.6570001
0.20199619 0.069436193 1.6570001
0.20416191 0.069100954 1.649
0.20730287 0.069100954 1.649
0.21146476 0.069436193 1.6570001
0.21462096 0.069436193 1.6570001
0.21777715 0.069436193 1.6570001
0.22093335 0.069436193 1.6570001
0.22408953 0.069436193 1.6570001
0.22724572 0.069436193 1.6570001
0.23040192 0.069436193 1.6570001
0.2335581 0.069436193 1.6570001
0.23785715 0.069771431 1.6650001
0.24102858 0.069771431 1.6650001
0.24420001 0.069771431 1.6650001
0.24856001 0.07010667 1.6730001
0.25174668 0.07010667 1.6730001
0.25615239 0.070441909 1.6810001
0.25812 0.07010667 1.6730001
0.26130667 0.07010667 1.6730001
0.2657581 0.070441909 1.6810001
0.26896 0.070441909 1.6810001
0.2721619 0.070441909 1.6810001
0.27536383 0.070441909 1.6810001
0.27856573 0.070441909 1.6810001
0.28176764 0.070441909 1.6810001
0.28496954 0.070441909 1.6810001
0.28817144 0.070441909 1.6810001
0.29137334 0.070441909 1.6810001
0.29615238 0.07081905 1.6900001
0.29937145 0.07081905 1.6900001
0.30402288 0.071154289 1.6980001
0.30725715 0.071154289 1.6980001
0.31049144 0.071154289 1.6980001
0.31372574 0.071154289 1.6980001
0.31845334 0.071489528 1.7060001
0.32170287 0.071489528 1.7060001
0.32495239 0.071489528 1.7060001
0.32820192 0.071489528 1.7060001
0.33145145 0.071489528 1.7060001
0.33470097 0.071489528 1.7060001
0.33636573 0.071154289 1.6980001
0.33960003 0.071154289 1.6980001
0.34444955 0.071489528 1.7060001
0.34769905 0.071489528 1.7060001
0.35094857 0.071489528 1.7060001
0.35606667 0.071866669 1.715
0.35933334 0.071866669 1.715
0.36429143 0.072201908 1.723
0.36757335 0.072201908 1.723
0.37279239 0.072579049 1.7320001
0.37609145 0.072579049 1.7320001
0.37939048 0.072579049 1.7320001
0.3846781 0.07295619 1.7410001
0.38799429 0.07295619 1.7410001
0.39333335 0.073333338 1.7500001
0.39870667 0.073710479 1.7590001
0.40205717 0.073710479 1.7590001
0.40748191 0.07408762 1.7680001
0.41084954 0.07408762 1.7680001
0.41421714 0.07408762 1.7680001
0.41758478 0.07408762 1.7680001
0.42309526 0.074464768 1.7770001
0.42648003 0.074464768 1.7770001
0.43421906 0.07521905 1.7950001
0.43983239 0.075596191 1.8040001
0.4432686 0.075596191 1.8040001
0.44918096 0.076015241 1.8140001
0.45263621 0.076015241 1.8140001
0.45609143 0.076015241 1.8140001
0.45954669 0.076015241 1.8140001
0.46300194 0.076015241 1.8140001
-0.29614097 0.09204381 2.1010001
-0.29213905 0.09204381 2.1010001
-0.2863543 0.091474287 2.0880001
-0.2807543 0.090948574 2.0760002
-0.27680001 0.090948574 2.0760002
-0.27113715 0.090379052 2.0630002
-0.26565334 0.089853339 2.0510001
-0.25868383 0.088801906 2.0270002
-0.25042287 0.087268576 1.9920001
-0.24662858 0.087268576 1.9920001
-0.24137144 0.086742863 1.9800001
-0.23760001 0.086742863 1.9800001
-0.23252954 0.086260952 1.9690001
-0.22877906 0.086260952 1.9690001
-0.22502857 0.086260952 1.9690001
-0.22004192 0.085779049 1.9580001
-0.21631239 0.085779049 1.9580001
-0.21138857 0.085297145 1.9470001
-0.20650667 0.084815241 1.9360001
-0.20166667 0.084333338 1.9250001
-0.19800001 0.084333338 1.9250001
-0.19332382 0.083895244 1.9150001
-0.18858667 0.083413333 1.904
-0.18398857 0.082975239 1.8940001
-0.18038096 0.082975239 1.8940001
-0.17574668 0.082493335 1.8830001
-0.17124572 0.082055241 1.8730001
-0.16678286 0.081617147 1.863
-0.16235811 0.081179053 1.853
-0.15797144 0.080740958 1.8430001
-0.15446095 0.080740958 1.8430001
-0.15013143 0.080302857 1.8330001
-0.14664 0.080302857 1.8330001
-0.14244571 0.079908572 1.8240001
-0.13820952 0.079470478 1.8140001
-0.13401143 0.079032384 1.8040001
-0.13057524 0.079032384 1.8040001
-0.12713905 0.079032384 1.8040001
-0.12308572 0.078638099 1.7950001
-0.11966667 0.078638099 1.7950001
-0.11624762 0.078638099 1.7950001
-0.11226286 0.078243814 1.7860001
-0.10831238 0.07784953 1.7770001
-0.10439619 0.077455238 1.7680001
-0.10102858 0.077455238 1.7680001
-0.097660959 0.077455238 1.7680001
-0.094293334 0.077455238 1.7680001
-0.090462863 0.077060953 1.7590001
-0.087112382 0.077060953 1.7590001
-0.083761908 0.077060953 1.7590001
-0.080000006 0.076666668 1.7500001
-0.076666668 0.076666668 1.7500001
-0.072579049 0.075878099 1.7320001
-0.069280006 0.075878099 1.7320001
-0.065980956 0.075878099 1.7320001
-0.062681906 0.075878099 1.7320001
-0.05938286 0.075878099 1.7320001
-0.056083813 0.075878099 1.7320001
-0.052784763 0.075878099 1.7320001
-0.049228575 0.075483814 1.723
-0.045946669 0.075483814 1.723
-0.042664763 0.075483814 1.723
-0.0392 0.075133339 1.715
-0.035744764 0.074739054 1.7060001
-0.032342859 0.074388571 1.6980001
-0.02897143 0.074038096 1.6900001
-0.025752382 0.074038096 1.6900001
-0.022533335 0.074038096 1.6900001
-0.019314287 0.074038096 1.6900001
-0.016095238 0.074038096 1.6900001
-0.012876191 0.074038096 1.6900001
-0.0096571436 0.074038096 1.6900001
-0.0064380956 0.074038096 1.6900001
-0.0032190478 0.074038096 1.6900001
0 0.073643811 1.6810001
0.0032019049 0.073643811 1.6810001
0.0064038099 0.073643811 1.6810001
0.0096057151 0.073643811 1.6810001
0.01280762 0.073643811 1.6810001
0.016009524 0.073643811 1.6810001
0.01912 0.073293336 1.6730001
0.022306668 0.073293336 1.6730001
0.025493335 0.073293336 1.6730001
0.02868 0.073293336 1.6730001
0.03186667 0.073293336 1.6730001
0.035053335 0.073293336 1.6730001
0.038240001 0.073293336 1.6730001
0.04142667 0.073293336 1.6730001
0.044613335 0.073293336 1.6730001
0.047571432 0.07294286 1.6650001
0.050742857 0.07294286 1.6650001
0.053914286 0.07294286 1.6650001
0.057085715 0.07294286 1.6650001
0.059967622 0.072592385 1.6570001
0.063428573 0.07294286 1.6650001
0.06628 0.072592385 1.6570001
0.069436193 0.072592385 1.6570001
0.072592385 0.072592385 1.6570001
0.075748578 0.072592385 1.6570001
0.078904763 0.072592385 1.6570001
0.082060955 0.072592385 1.6570001
0.085217148 0.072592385 1.6570001
0.088373333 0.072592385 1.6570001
0.091529526 0.072592385 1.6570001
0.094685718 0.072592385 1.6570001
0.097841911 0.072592385 1.6570001
0.1009981 0.072592385 1.6570001
0.10365143 0.07224191 1.649
0.10679238 0.07224191 1.649
0.10993334 0.07224191 1.649
0.11362286 0.072592385 1.6570001
0.11677905 0.072592385 1.6570001
0.11993524 0.072592385 1.6570001
0.12309143 0.072592385 1.6570001
0.12624763 0.072592385 1.6570001
0.12940381 0.072592385 1.6570001
0.13256 0.072592385 1.6570001
0.1357162 0.072592385 1.6570001
0.13887239 0.072592385 1.6570001
0.14202857 0.072592385 1.6570001
0.14518477 0.072592385 1.6570001
0.14834096 0.072592385 1.6570001
0.15149716 0.072592385 1.6570001
0.15465334 0.072592385 1.6570001
0.15780953 0.072592385 1.6570001
0.16174287 0.07294286 1.6650001
0.1649143 0.07294286 1.6650001
0.1672781 0.072592385 1.6570001
0.1704343 0.072592385 1.6570001
0.17275238 0.07224191 1.649
0.17674667 0.072592385 1.6570001
0.17990287 0.072592385 1.6570001
0.18305905 0.072592385 1.6570001
0.18621525 0.072592385 1.6570001
0.18937144 0.072592385 1.6570001
0.19252762 0.072592385 1.6570001
0.19568382 0.072592385 1.6570001
0.19884001 0.072592385 1.6570001
0.20199619 0.072592385 1.6570001
0.20515239 0.072592385 1.6570001
0.20830858 0.072592385 1.6570001
0.21146476 0.072592385 1.6570001
0.21462096 0.072592385 1.6570001
0.21777715 0.072592385 1.6570001
0.22093335 0.072592385 1.6570001
0.22408953 0.072592385 1.6570001
0.22724572 0.072592385 1.6570001
0.23040192 0.072592385 1.6570001
0.2335581 0.072592385 1.6570001
0.23785715 0.07294286 1.6650001
0.24102858 0.07294286 1.6650001
0.24537334 0.073293336 1.6730001
0.24856001 0.073293336 1.6730001
0.25174668 0.073293336 1.6730001
0.25493336 0.073293336 1.6730001
0.25812 0.073293336 1.6730001
0.26130667 0.073293336 1.6730001
0.26449335 0.073293336 1.6730001
0.26896 0.073643811 1.6810001
0.2721619 0.073643811 1.6810001
0.27536383 0.073643811 1.6810001
0.27856573 0.073643811 1.6810001
0.28176764 0.073643811 1.6810001
0.28496954 0.073643811 1.6810001
0.28817144 0.073643811 1.6810001
0.29293334 0.074038096 1.6900001
0.29615238 0.074038096 1.6900001
0.29937145 0.074038096 1.6900001
0.30402288 0.074388571 1.6980001
0.30725715 0.074388571 1.6980001
0.31049144 0.074388571 1.6980001
0.31372574 0.074388571 1.6980001
0.31696001 0.074388571 1.6980001
0.32170287 0.074739054 1.7060001
0.32495239 0.074739054 1.7060001
0.32820192 0.074739054 1.7060001
0.33145145 0.074739054 1.7060001
0.33470097 0.074739054 1.7060001
0.33636573 0.074388571 1.6980001
0.34120002 0.074739054 1.7060001
0.34444955 0.074739054 1.7060001
0.34769905 0.074739054 1.7060001
0.35094857 0.074739054 1.7060001
0.35606667 0.075133339 1.715
0.35933334 0.075133339 1.715
0.36429143 0.075483814 1.723
0.36757335 0.075483814 1.723
0.37085524 0.075483814 1.723
0.37413716 0.075483814 1.723
0.37939048 0.075878099 1.7320001
0.38268954 0.075878099 1.7320001
0.38799429 0.076272383 1.7410001
0.39333335 0.076666668 1.7500001
0.39666668 0.076666668 1.7500001
0.40205717 0.077060953 1.7590001
0.40748191 0.077455238 1.7680001
0.41084954 0.077455238 1.7680001
0.41421714 0.077455238 1.7680001
0.41971049 0.07784953 1.7770001
0.4252381 0.078243814 1.7860001
0.43080002 0.078638099 1.7950001
0.43639621 0.079032384 1.8040001
0.43983239 0.079032384 1.8040001
0.44572574 0.079470478 1.8140001
0.44918096 0.079470478 1.8140001
0.45263621 0.079470478 1.8140001
0.45860574 0.079908572 1.8240001
0.45954669 0.079470478 1.8140001
0.46300194 0.079470478 1.8140001
-0.29614097 0.096045718 2.1010001
-0.29213905 0.096045718 2.1010001
-0.2863543 0.095451429 2.0880001
-0.28237715 0.095451429 2.0880001
-0.27680001 0.094902858 2.0760002
-0.27113715 0.094308577 2.0630002
