# .PCD v0.7 - Point Cloud Data file format
VERSION 0.7
FIELDS x y z
SIZE 4 4 4
TYPE F F F
COUNT 1 1 1
WIDTH 1538
HEIGHT 1
VIEWPOINT 0 0 0 1 0 0 0
POINTS 1538
DATA ascii
0.42604193 0.44938669 1.5320001
0.42896003 0.44938669 1.5320001
0.43187812 0.44938669 1.5320001
0.43678287 0.45144001 1.539
0.43971431 0.45144001 1.539
0.44264573 0.45144001 1.539
0.4435505 0.44938669 1.5320001
0.44646859 0.44938669 1.5320001
0.45144001 0.45144001 1.539
0.45437145 0.45144001 1.539
0.45522287 0.44938669 1.5320001
0.45814097 0.44938669 1.5320001
0.46105906 0.44938669 1.5320001
0.46397716 0.44938669 1.5320001
0.46476191 0.44733334 1.5250001
0.46766669 0.44733334 1.5250001
0.46872002 0.44557336 1.5190001
0.47161335 0.44557336 1.5190001
0.47450668 0.44557336 1.5190001
0.4774 0.44557336 1.5190001
0.48029336 0.44557336 1.5190001
0.48318669 0.44557336 1.5190001
0.48608002 0.44557336 1.5190001
0.48897335 0.44557336 1.5190001
0.49186668 0.44557336 1.5190001
0.49671429 0.44733334 1.5250001
0.49961907 0.44733334 1.5250001
0.50252384 0.44733334 1.5250001
0.5077486 0.44938669 1.5320001
0.51300001 0.45144001 1.539
0.51593143 0.45144001 1.539
-0.23573335 0.521981 1.7680001
-0.23236573 0.521981 1.7680001
-0.22783239 0.51932383 1.7590001
-0.22448191 0.51932383 1.7590001
-0.22000001 0.51666671 1.7500001
-0.21555239 0.51400954 1.7410001
-0.2122362 0.51400954 1.7410001
-0.20892 0.51400954 1.7410001
-0.20454095 0.51135242 1.7320001
-0.20124191 0.51135242 1.7320001
-0.19794287 0.51135242 1.7320001
-0.19464381 0.51135242 1.7320001
-0.19134477 0.51135242 1.7320001
-0.18804573 0.51135242 1.7320001
-0.18474667 0.51135242 1.7320001
-0.18144763 0.51135242 1.7320001
-0.17814858 0.51135242 1.7320001
-0.17484953 0.51135242 1.7320001
-0.17065905 0.50869524 1.723
-0.16737714 0.50869524 1.723
-0.16409524 0.50869524 1.723
-0.16081335 0.50869524 1.723
-0.15753144 0.50869524 1.723
-0.15424953 0.50869524 1.723
-0.1517562 0.51135242 1.7320001
-0.14845715 0.51135242 1.7320001
-0.1451581 0.51135242 1.7320001
-0.14112191 0.50869524 1.723
-0.13784 0.50869524 1.723
-0.1345581 0.50869524 1.723
-0.13127619 0.50869524 1.723
-0.12799428 0.50869524 1.723
-0.12471239 0.50869524 1.723
-0.12086667 0.50633335 1.715
-0.11698286 0.50367624 1.7060001
-0.11373334 0.50367624 1.7060001
-0.10996572 0.50131428 1.6980001
-0.10673143 0.50131428 1.6980001
-0.10349715 0.50131428 1.6980001
-0.10026286 0.50131428 1.6980001
-0.097485721 0.50367624 1.7060001
-0.094236195 0.50367624 1.7060001
-0.090986669 0.50367624 1.7060001
-0.087325715 0.50131428 1.6980001
-0.084487624 0.50367624 1.7060001
-0.081238098 0.50367624 1.7060001
-0.077622861 0.50131428 1.6980001
-0.074388571 0.50131428 1.6980001
-0.071154289 0.50131428 1.6980001
-0.067919999 0.50131428 1.6980001
-0.064685717 0.50131428 1.6980001
-0.061740953 0.50367624 1.7060001
-0.058491431 0.50367624 1.7060001
-0.055241905 0.50367624 1.7060001
-0.051748574 0.50131428 1.6980001
-0.048514288 0.50131428 1.6980001
-0.045280002 0.50131428 1.6980001
-0.04184762 0.49895239 1.6900001
-0.038628574 0.49895239 1.6900001
-0.035409525 0.49895239 1.6900001
-0.032190476 0.49895239 1.6900001
-0.028817143 0.49629524 1.6810001
-0.02561524 0.49629524 1.6810001
-0.022413334 0.49629524 1.6810001
-0.01921143 0.49629524 1.6810001
-0.016009524 0.49629524 1.6810001
-0.01280762 0.49629524 1.6810001
-0.0095142862 0.49157146 1.6650001
-0.0064038099 0.49629524 1.6810001
-0.0032019049 0.49629524 1.6810001
0 0.49629524 1.6810001
0.0032019049 0.49629524 1.6810001
0.0064038099 0.49629524 1.6810001
0.0096057151 0.49629524 1.6810001
0.01280762 0.49629524 1.6810001
0.016009524 0.49629524 1.6810001
0.01921143 0.49629524 1.6810001
0.022306668 0.49393335 1.6730001
0.025493335 0.49393335 1.6730001
0.02868 0.49393335 1.6730001
0.03186667 0.49393335 1.6730001
0.034885716 0.49157146 1.6650001
0.038057145 0.49157146 1.6650001
0.041228574 0.49157146 1.6650001
0.044400003 0.49157146 1.6650001
0.047571432 0.49157146 1.6650001
0.050742857 0.49157146 1.6650001
0.053655241 0.48920953 1.6570001
0.056537144 0.48684764 1.649
0.059678096 0.48684764 1.649
0.063123815 0.48920953 1.6570001
0.065960005 0.48684764 1.649
0.069100954 0.48684764 1.649
0.07224191 0.48684764 1.649
0.075382859 0.48684764 1.649
0.078523815 0.48684764 1.649
0.081664763 0.48684764 1.649
0.08480572 0.48684764 1.649
0.087946668 0.48684764 1.649
0.091087624 0.48684764 1.649
0.094228573 0.48684764 1.649
0.097369529 0.48684764 1.649
0.10051048 0.48684764 1.649
0.10365143 0.48684764 1.649
0.10679238 0.48684764 1.649
0.1094 0.48448575 1.641
0.11252572 0.48448575 1.641
0.1151581 0.48241907 1.6340001
0.11827048 0.48241907 1.6340001
0.12138286 0.48241907 1.6340001
0.12449525 0.48241907 1.6340001
0.12698287 0.48005715 1.626
0.13008 0.48005715 1.626
0.13317715 0.48005715 1.626
0.13627429 0.48005715 1.626
0.13937144 0.48005715 1.626
0.14246857 0.48005715 1.626
0.14556572 0.48005715 1.626
0.14866287 0.48005715 1.626
0.15176001 0.48005715 1.626
0.15485714 0.48005715 1.626
0.15873143 0.48241907 1.6340001
0.16184382 0.48241907 1.6340001
0.16414858 0.48005715 1.626
0.16806857 0.48241907 1.6340001
0.17034286 0.48005715 1.626
0.17344001 0.48005715 1.626
0.17653716 0.48005715 1.626
0.17875049 0.47769526 1.618
0.18183239 0.47769526 1.618
0.18491429 0.47769526 1.618
0.18799619 0.47769526 1.618
0.19025144 0.47562858 1.6110001
0.19332001 0.47562858 1.6110001
0.19638857 0.47562858 1.6110001
0.19945715 0.47562858 1.6110001
0.20252572 0.47562858 1.6110001
0.20457335 0.47326669 1.603
0.20762667 0.47326669 1.603
0.21068001 0.47326669 1.603
0.21373335 0.47326669 1.603
0.21678667 0.47326669 1.603
0.21888001 0.47120002 1.5960001
0.22094667 0.46913335 1.5890001
0.22397335 0.46913335 1.5890001
0.22700001 0.46913335 1.5890001
0.23104002 0.47120002 1.5960001
0.23408 0.47120002 1.5960001
0.23608001 0.46913335 1.5890001
0.23910667 0.46913335 1.5890001
0.24213335 0.46913335 1.5890001
0.24516001 0.46913335 1.5890001
0.24818668 0.46913335 1.5890001
0.25121334 0.46913335 1.5890001
0.25424001 0.46913335 1.5890001
0.25726667 0.46913335 1.5890001
0.26029333 0.46913335 1.5890001
0.26332 0.46913335 1.5890001
0.26500574 0.46677145 1.5810001
0.26801714 0.46677145 1.5810001
0.27102858 0.46677145 1.5810001
0.27404001 0.46677145 1.5810001
0.27705145 0.46677145 1.5810001
0.28006285 0.46677145 1.5810001
0.28307429 0.46677145 1.5810001
0.28608572 0.46677145 1.5810001
0.28909716 0.46677145 1.5810001
0.2921086 0.46677145 1.5810001
0.29512 0.46677145 1.5810001
0.29813144 0.46677145 1.5810001
0.30114287 0.46677145 1.5810001
0.30280763 0.46470478 1.5740001
0.30580571 0.46470478 1.5740001
0.30880383 0.46470478 1.5740001
0.31180191 0.46470478 1.5740001
0.31480002 0.46470478 1.5740001
0.31779811 0.46470478 1.5740001
0.32222286 0.46677145 1.5810001
0.32379431 0.46470478 1.5740001
0.32679239 0.46470478 1.5740001
0.32832381 0.46263811 1.567
0.33130857 0.46263811 1.567
0.33429334 0.46263811 1.567
0.33577144 0.46057144 1.5600001
0.33874288 0.46057144 1.5600001
0.34171429 0.46057144 1.5600001
0.34468573 0.46057144 1.5600001
0.34765714 0.46057144 1.5600001
0.35062858 0.46057144 1.5600001
0.35360003 0.46057144 1.5600001
0.35657144 0.46057144 1.5600001
0.35792953 0.45850477 1.5530001
0.36088765 0.45850477 1.5530001
0.36384574 0.45850477 1.5530001
0.36845717 0.46057144 1.5600001
0.36976191 0.45850477 1.5530001
0.37272 0.45850477 1.5530001
0.37567812 0.45850477 1.5530001
0.37863621 0.45850477 1.5530001
0.3815943 0.45850477 1.5530001
0.38455239 0.45850477 1.5530001
0.38751048 0.45850477 1.5530001
0.3904686 0.45850477 1.5530001
0.39165336 0.45643812 1.5460001
0.3945981 0.45643812 1.5460001
0.39754286 0.45643812 1.5460001
0.40048763 0.45643812 1.5460001
0.4034324 0.45643812 1.5460001
0.40637717 0.45643812 1.5460001
0.40932193 0.45643812 1.5460001
0.4104 0.45437145 1.539
0.41333145 0.45437145 1.539
0.41626287 0.45437145 1.539
0.41728765 0.45230478 1.5320001
0.42212573 0.45437145 1.539
0.42505717 0.45437145 1.539
0.42604193 0.45230478 1.5320001
0.42896003 0.45230478 1.5320001
0.43187812 0.45230478 1.5320001
0.43678287 0.45437145 1.539
0.43971431 0.45437145 1.539
0.4406324 0.45230478 1.5320001
0.4435505 0.45230478 1.5320001
0.44646859 0.45230478 1.5320001
0.45144001 0.45437145 1.539
0.45437145 0.45437145 1.539
0.45730287 0.45437145 1.539
0.45814097 0.45230478 1.5320001
0.46105906 0.45230478 1.5320001
0.46397716 0.45230478 1.5320001
0.46476191 0.45023811 1.5250001
0.46766669 0.45023811 1.5250001
0.47057146 0.45023811 1.5250001
0.47161335 0.44846669 1.5190001
0.47450668 0.44846669 1.5190001
0.4774 0.44846669 1.5190001
0.48029336 0.44846669 1.5190001
0.48318669 0.44846669 1.5190001
0.48608002 0.44846669 1.5190001
0.48897335 0.44846669 1.5190001
0.49186668 0.44846669 1.5190001
0.49476001 0.44846669 1.5190001
0.49961907 0.45023811 1.5250001
0.50252384 0.45023811 1.5250001
0.5077486 0.45230478 1.5320001
0.51066667 0.45230478 1.5320001
0.51358479 0.45230478 1.5320001
-0.23573335 0.5253486 1.7680001
-0.23236573 0.5253486 1.7680001
-0.22783239 0.52267432 1.7590001
-0.22448191 0.52267432 1.7590001
-0.22000001 0.52000004 1.7500001
-0.21555239 0.51732576 1.7410001
-0.2122362 0.51732576 1.7410001
-0.20892 0.51732576 1.7410001
-0.20560382 0.51732576 1.7410001
-0.20124191 0.51465142 1.7320001
-0.19794287 0.51465142 1.7320001
-0.19464381 0.51465142 1.7320001
-0.19134477 0.51465142 1.7320001
-0.18804573 0.51465142 1.7320001
-0.18474667 0.51465142 1.7320001
-0.18144763 0.51465142 1.7320001
-0.17814858 0.51465142 1.7320001
-0.17484953 0.51465142 1.7320001
-0.17155048 0.51465142 1.7320001
-0.16825144 0.51465142 1.7320001
-0.16495238 0.51465142 1.7320001
-0.16165334 0.51465142 1.7320001
-0.15753144 0.51197714 1.723
-0.15424953 0.51197714 1.723
-0.1517562 0.51465142 1.7320001
-0.14845715 0.51465142 1.7320001
-0.1451581 0.51465142 1.7320001
-0.14112191 0.51197714 1.723
-0.13784 0.51197714 1.723
-0.1345581 0.51197714 1.723
-0.13127619 0.51197714 1.723
-0.12799428 0.51197714 1.723
-0.12471239 0.51197714 1.723
-0.12086667 0.50960004 1.715
-0.11698286 0.50692576 1.7060001
-0.11373334 0.50692576 1.7060001
-0.10996572 0.50454861 1.6980001
-0.10723429 0.50692576 1.7060001
-0.10349715 0.50454861 1.6980001
-0.10026286 0.50454861 1.6980001
-0.097485721 0.50692576 1.7060001
-0.094236195 0.50692576 1.7060001
-0.090986669 0.50692576 1.7060001
-0.087325715 0.50454861 1.6980001
-0.084091432 0.50454861 1.6980001
-0.081238098 0.50692576 1.7060001
-0.077622861 0.50454861 1.6980001
-0.074388571 0.50454861 1.6980001
-0.071154289 0.50454861 1.6980001
-0.067919999 0.50454861 1.6980001
-0.064685717 0.50454861 1.6980001
-0.061740953 0.50692576 1.7060001
-0.058217146 0.50454861 1.6980001
-0.055241905 0.50692576 1.7060001
-0.051748574 0.50454861 1.6980001
-0.048514288 0.50454861 1.6980001
-0.045280002 0.50454861 1.6980001
-0.042045716 0.50454861 1.6980001
-0.038628574 0.50217146 1.6900001
-0.035409525 0.50217146 1.6900001
-0.032190476 0.50217146 1.6900001
-0.028817143 0.49949718 1.6810001
-0.02561524 0.49949718 1.6810001
-0.022413334 0.49949718 1.6810001
-0.01921143 0.49949718 1.6810001
-0.016009524 0.49949718 1.6810001
-0.01280762 0.49949718 1.6810001
-0.0095142862 0.49474287 1.6650001
-0.0063733337 0.49712002 1.6730001
-0.0031866669 0.49712002 1.6730001
0 0.49949718 1.6810001
0.0032019049 0.49949718 1.6810001
0.0064038099 0.49949718 1.6810001
0.0096057151 0.49949718 1.6810001
0.01280762 0.49949718 1.6810001
0.016009524 0.49949718 1.6810001
0.01921143 0.49949718 1.6810001
0.022306668 0.49712002 1.6730001
0.025493335 0.49712002 1.6730001
0.02868 0.49712002 1.6730001
0.03186667 0.49712002 1.6730001
0.034885716 0.49474287 1.6650001
0.038057145 0.49474287 1.6650001
0.041228574 0.49474287 1.6650001
0.044400003 0.49474287 1.6650001
0.047571432 0.49474287 1.6650001
0.050742857 0.49474287 1.6650001
0.053655241 0.49236572 1.6570001
0.05681143 0.49236572 1.6570001
0.059967622 0.49236572 1.6570001
0.063123815 0.49236572 1.6570001
0.06628 0.49236572 1.6570001
0.069100954 0.4899886 1.649
0.07224191 0.4899886 1.649
0.075382859 0.4899886 1.649
0.078523815 0.4899886 1.649
0.081664763 0.4899886 1.649
0.08480572 0.4899886 1.649
0.087946668 0.4899886 1.649
0.091087624 0.4899886 1.649
0.094228573 0.4899886 1.649
0.097369529 0.4899886 1.649
0.10051048 0.4899886 1.649
0.10365143 0.4899886 1.649
0.10679238 0.4899886 1.649
0.1094 0.48761144 1.641
0.11252572 0.48761144 1.641
0.11565144 0.48761144 1.641
0.11827048 0.48553145 1.6340001
0.12138286 0.48553145 1.6340001
0.12449525 0.48553145 1.6340001
0.12698287 0.4831543 1.626
0.13008 0.4831543 1.626
0.13317715 0.4831543 1.626
0.13627429 0.4831543 1.626
0.13937144 0.4831543 1.626
0.14246857 0.4831543 1.626
0.14556572 0.4831543 1.626
0.14866287 0.4831543 1.626
0.15176001 0.4831543 1.626
0.15485714 0.4831543 1.626
0.15795429 0.4831543 1.626
0.16105144 0.4831543 1.626
0.16414858 0.4831543 1.626
0.16724572 0.4831543 1.626
0.17034286 0.4831543 1.626
0.17344001 0.4831543 1.626
0.17653716 0.4831543 1.626
0.17963429 0.4831543 1.626
0.18273143 0.4831543 1.626
0.18491429 0.48077717 1.618
0.18799619 0.48077717 1.618
0.19025144 0.47869715 1.6110001
0.19332001 0.47869715 1.6110001
0.19638857 0.47869715 1.6110001
0.19945715 0.47869715 1.6110001
0.20252572 0.47869715 1.6110001
0.20457335 0.47632003 1.603
0.20762667 0.47632003 1.603
0.21068001 0.47632003 1.603
0.21373335 0.47632003 1.603
0.21678667 0.47632003 1.603
0.21888001 0.47424001 1.5960001
0.22192001 0.47424001 1.5960001
0.22397335 0.47216001 1.5890001
0.22800002 0.47424001 1.5960001
0.23104002 0.47424001 1.5960001
0.23408 0.47424001 1.5960001
0.23712 0.47424001 1.5960001
0.23910667 0.47216001 1.5890001
0.24213335 0.47216001 1.5890001
0.24516001 0.47216001 1.5890001
0.24818668 0.47216001 1.5890001
0.25121334 0.47216001 1.5890001
0.25424001 0.47216001 1.5890001
0.25726667 0.47216001 1.5890001
0.26029333 0.47216001 1.5890001
0.26332 0.47216001 1.5890001
0.26634666 0.47216001 1.5890001
0.26801714 0.46978289 1.5810001
0.27102858 0.46978289 1.5810001
0.27404001 0.46978289 1.5810001
0.27705145 0.46978289 1.5810001
0.28006285 0.46978289 1.5810001
0.28307429 0.46978289 1.5810001
0.28608572 0.46978289 1.5810001
0.28909716 0.46978289 1.5810001
0.2921086 0.46978289 1.5810001
0.29512 0.46978289 1.5810001
0.29813144 0.46978289 1.5810001
0.29980955 0.46770287 1.5740001
0.30280763 0.46770287 1.5740001
0.30580571 0.46770287 1.5740001
0.30880383 0.46770287 1.5740001
0.31180191 0.46770287 1.5740001
0.31480002 0.46770287 1.5740001
0.31779811 0.46770287 1.5740001
0.32079619 0.46770287 1.5740001
0.32379431 0.46770287 1.5740001
0.32679239 0.46770287 1.5740001
0.32832381 0.46562287 1.567
0.33130857 0.46562287 1.567
0.33429334 0.46562287 1.567
0.33577144 0.46354288 1.5600001
0.33874288 0.46354288 1.5600001
0.34324762 0.46562287 1.567
0.34623238 0.46562287 1.567
0.34921715 0.46562287 1.567
0.35220191 0.46562287 1.567
0.35360003 0.46354288 1.5600001
0.35657144 0.46354288 1.5600001
0.35954288 0.46354288 1.5600001
0.36088765 0.46146289 1.5530001
0.36384574 0.46146289 1.5530001
0.36845717 0.46354288 1.5600001
0.36976191 0.46146289 1.5530001
0.37272 0.46146289 1.5530001
0.37567812 0.46146289 1.5530001
0.37863621 0.46146289 1.5530001
0.3815943 0.46146289 1.5530001
0.38455239 0.46146289 1.5530001
0.38751048 0.46146289 1.5530001
0.3904686 0.46146289 1.5530001
0.39165336 0.45938286 1.5460001
0.3945981 0.45938286 1.5460001
0.39754286 0.45938286 1.5460001
0.40048763 0.45938286 1.5460001
0.4034324 0.45938286 1.5460001
0.40637717 0.45938286 1.5460001
0.40932193 0.45938286 1.5460001
0.4104 0.45730287 1.539
0.41333145 0.45730287 1.539
0.41626287 0.45730287 1.539
0.41919431 0.45730287 1.539
0.42212573 0.45730287 1.539
0.42505717 0.45730287 1.539
0.42798859 0.45730287 1.539
0.42896003 0.45522287 1.5320001
0.43385145 0.45730287 1.539
0.43678287 0.45730287 1.539
0.43971431 0.45730287 1.539
0.44264573 0.45730287 1.539
0.4435505 0.45522287 1.5320001
0.44646859 0.45522287 1.5320001
0.44938669 0.45522287 1.5320001
0.45437145 0.45730287 1.539
0.45522287 0.45522287 1.5320001
0.45814097 0.45522287 1.5320001
0.46316573 0.45730287 1.539
0.46397716 0.45522287 1.5320001
0.46689525 0.45522287 1.5320001
0.46766669 0.45314288 1.5250001
0.47057146 0.45314288 1.5250001
0.4734762 0.45314288 1.5250001
0.47450668 0.45136002 1.5190001
0.47928575 0.45314288 1.5250001
0.48029336 0.45136002 1.5190001
0.48509526 0.45314288 1.5250001
0.48800001 0.45314288 1.5250001
0.49090478 0.45314288 1.5250001
0.49380955 0.45314288 1.5250001
0.49671429 0.45314288 1.5250001
0.49961907 0.45314288 1.5250001
0.50252384 0.45314288 1.5250001
0.5077486 0.45522287 1.5320001
0.51066667 0.45522287 1.5320001
0.51358479 0.45522287 1.5320001
-0.23236573 0.52871621 1.7680001
-0.22783239 0.52602476 1.7590001
-0.22448191 0.52602476 1.7590001
-0.22000001 0.52333337 1.7500001
-0.21555239 0.52064192 1.7410001
-0.2122362 0.52064192 1.7410001
-0.20892 0.52064192 1.7410001
-0.20560382 0.52064192 1.7410001
-0.20228763 0.52064192 1.7410001
-0.19794287 0.51795048 1.7320001
-0.19464381 0.51795048 1.7320001
-0.19233905 0.52064192 1.7410001
-0.18804573 0.51795048 1.7320001
-0.18474667 0.51795048 1.7320001
-0.18144763 0.51795048 1.7320001
-0.17814858 0.51795048 1.7320001
-0.17484953 0.51795048 1.7320001
-0.17155048 0.51795048 1.7320001
-0.16825144 0.51795048 1.7320001
-0.16495238 0.51795048 1.7320001
-0.16165334 0.51795048 1.7320001
-0.1583543 0.51795048 1.7320001
-0.15424953 0.51525909 1.723
-0.1517562 0.51795048 1.7320001
-0.14845715 0.51795048 1.7320001
-0.1451581 0.51795048 1.7320001
-0.14112191 0.51525909 1.723
-0.13784 0.51525909 1.723
-0.1345581 0.51525909 1.723
-0.13127619 0.51525909 1.723
-0.12799428 0.51525909 1.723
-0.12471239 0.51525909 1.723
-0.12143048 0.51525909 1.723
-0.11698286 0.51017523 1.7060001
-0.11373334 0.51017523 1.7060001
-0.11048381 0.51017523 1.7060001
-0.10723429 0.51017523 1.7060001
-0.10398477 0.51017523 1.7060001
-0.10073524 0.51017523 1.7060001
-0.097485721 0.51017523 1.7060001
-0.094236195 0.51017523 1.7060001
-0.090986669 0.51017523 1.7060001
-0.087325715 0.50778288 1.6980001
-0.084091432 0.50778288 1.6980001
-0.080857143 0.50778288 1.6980001
-0.077622861 0.50778288 1.6980001
-0.074388571 0.50778288 1.6980001
-0.07081905 0.50539047 1.6900001
-0.067600004 0.50539047 1.6900001
-0.064380951 0.50539047 1.6900001
-0.061451431 0.50778288 1.6980001
-0.058217146 0.50778288 1.6980001
-0.05498286 0.50778288 1.6980001
-0.051748574 0.50778288 1.6980001
-0.048514288 0.50778288 1.6980001
-0.045280002 0.50778288 1.6980001
-0.04184762 0.50539047 1.6900001
-0.038628574 0.50539047 1.6900001
-0.035409525 0.50539047 1.6900001
-0.032190476 0.50539047 1.6900001
-0.028817143 0.50269908 1.6810001
-0.02561524 0.50269908 1.6810001
-0.022413334 0.50269908 1.6810001
-0.01921143 0.50269908 1.6810001
-0.016009524 0.50269908 1.6810001
-0.01280762 0.50269908 1.6810001
-0.0095142862 0.49791431 1.6650001
-0.0063733337 0.50030667 1.6730001
-0.0031866669 0.50030667 1.6730001
0 0.50269908 1.6810001
0.0032019049 0.50269908 1.6810001
0.0064038099 0.50269908 1.6810001
0.0096057151 0.50269908 1.6810001
0.01280762 0.50269908 1.6810001
0.016009524 0.50269908 1.6810001
0.01921143 0.50269908 1.6810001
0.022306668 0.50030667 1.6730001
0.025493335 0.50030667 1.6730001
0.02868 0.50030667 1.6730001
0.03186667 0.50030667 1.6730001
0.034885716 0.49791431 1.6650001
0.038057145 0.49791431 1.6650001
0.041228574 0.49791431 1.6650001
0.044400003 0.49791431 1.6650001
0.047571432 0.49791431 1.6650001
0.050742857 0.49791431 1.6650001
0.053655241 0.49552193 1.6570001
0.05681143 0.49552193 1.6570001
0.059967622 0.49552193 1.6570001
0.063123815 0.49552193 1.6570001
0.06628 0.49552193 1.6570001
0.069100954 0.49312955 1.649
0.07224191 0.49312955 1.649
0.075382859 0.49312955 1.649
0.078523815 0.49312955 1.649
0.081664763 0.49312955 1.649
0.084394291 0.49073717 1.641
0.087946668 0.49312955 1.649
0.091087624 0.49312955 1.649
0.094228573 0.49312955 1.649
0.097369529 0.49312955 1.649
0.10051048 0.49312955 1.649
0.10365143 0.49312955 1.649
0.10679238 0.49312955 1.649
0.10993334 0.49312955 1.649
0.11252572 0.49073717 1.641
0.11565144 0.49073717 1.641
0.11827048 0.48864383 1.6340001
0.12138286 0.48864383 1.6340001
0.12449525 0.48864383 1.6340001
0.12815429 0.49073717 1.641
0.13072 0.48864383 1.6340001
0.13317715 0.48625144 1.626
0.13627429 0.48625144 1.626
0.13937144 0.48625144 1.626
0.14246857 0.48625144 1.626
0.14556572 0.48625144 1.626
0.14866287 0.48625144 1.626
0.15176001 0.48625144 1.626
0.15485714 0.48625144 1.626
0.15795429 0.48625144 1.626
0.16105144 0.48625144 1.626
0.16414858 0.48625144 1.626
0.16724572 0.48625144 1.626
0.17034286 0.48625144 1.626
0.17344001 0.48625144 1.626
0.17653716 0.48625144 1.626
0.17963429 0.48625144 1.626
0.18183239 0.48385906 1.618
0.18491429 0.48385906 1.618
0.18799619 0.48385906 1.618
0.19025144 0.48176572 1.6110001
0.19332001 0.48176572 1.6110001
0.19638857 0.48176572 1.6110001
0.19945715 0.48176572 1.6110001
0.20252572 0.48176572 1.6110001
0.20457335 0.47937337 1.603
0.20762667 0.47937337 1.603
0.21068001 0.47937337 1.603
0.21373335 0.47937337 1.603
0.21678667 0.47937337 1.603
0.21888001 0.47728002 1.5960001
0.22192001 0.47728002 1.5960001
0.22496001 0.47728002 1.5960001
0.22800002 0.47728002 1.5960001
0.23104002 0.47728002 1.5960001
0.23408 0.47728002 1.5960001
0.23712 0.47728002 1.5960001
0.23910667 0.47518668 1.5890001
0.24213335 0.47518668 1.5890001
0.24516001 0.47518668 1.5890001
0.24818668 0.47518668 1.5890001
0.25121334 0.47518668 1.5890001
0.25424001 0.47518668 1.5890001
0.25726667 0.47518668 1.5890001
0.26029333 0.47518668 1.5890001
0.26332 0.47518668 1.5890001
0.26634666 0.47518668 1.5890001
0.26937336 0.47518668 1.5890001
0.27240002 0.47518668 1.5890001
0.27404001 0.47279429 1.5810001
0.27705145 0.47279429 1.5810001
0.28006285 0.47279429 1.5810001
0.28307429 0.47279429 1.5810001
0.28608572 0.47279429 1.5810001
0.28909716 0.47279429 1.5810001
0.2921086 0.47279429 1.5810001
0.29512 0.47279429 1.5810001
0.29813144 0.47279429 1.5810001
0.30114287 0.47279429 1.5810001
0.30415431 0.47279429 1.5810001
0.30580571 0.47070098 1.5740001
0.31017715 0.47279429 1.5810001
0.31180191 0.47070098 1.5740001
0.31480002 0.47070098 1.5740001
0.31921145 0.47279429 1.5810001
0.32222286 0.47279429 1.5810001
0.32523429 0.47279429 1.5810001
0.32679239 0.47070098 1.5740001
0.32832381 0.46860763 1.567
0.33130857 0.46860763 1.567
0.33429334 0.46860763 1.567
0.3372781 0.46860763 1.567
0.34026286 0.46860763 1.567
0.34324762 0.46860763 1.567
0.34623238 0.46860763 1.567
0.34921715 0.46860763 1.567
0.35220191 0.46860763 1.567
0.35360003 0.46651429 1.5600001
0.35657144 0.46651429 1.5600001
0.35954288 0.46651429 1.5600001
0.36088765 0.46442097 1.5530001
0.36384574 0.46442097 1.5530001
0.36845717 0.46651429 1.5600001
0.36976191 0.46442097 1.5530001
0.37272 0.46442097 1.5530001
0.37567812 0.46442097 1.5530001
0.37863621 0.46442097 1.5530001
0.3815943 0.46442097 1.5530001
0.38455239 0.46442097 1.5530001
0.38751048 0.46442097 1.5530001
0.3904686 0.46442097 1.5530001
0.39165336 0.46232763 1.5460001
0.3945981 0.46232763 1.5460001
0.39754286 0.46232763 1.5460001
0.40048763 0.46232763 1.5460001
0.4034324 0.46232763 1.5460001
0.40637717 0.46232763 1.5460001
0.40932193 0.46232763 1.5460001
0.4104 0.46023431 1.539
0.41333145 0.46023431 1.539
0.41626287 0.46023431 1.539
0.41919431 0.46023431 1.539
0.42212573 0.46023431 1.539
0.42505717 0.46023431 1.539
0.42798859 0.46023431 1.539
0.42896003 0.45814097 1.5320001
0.43187812 0.45814097 1.5320001
0.43678287 0.46023431 1.539
0.43771431 0.45814097 1.5320001
0.44264573 0.46023431 1.539
0.4435505 0.45814097 1.5320001
0.44646859 0.45814097 1.5320001
0.44938669 0.45814097 1.5320001
0.45437145 0.46023431 1.539
0.45730287 0.46023431 1.539
0.45814097 0.45814097 1.5320001
0.46105906 0.45814097 1.5320001
0.46397716 0.45814097 1.5320001
0.46476191 0.45604762 1.5250001
0.46766669 0.45604762 1.5250001
0.47057146 0.45604762 1.5250001
0.4734762 0.45604762 1.5250001
0.47638097 0.45604762 1.5250001
0.47928575 0.45604762 1.5250001
0.48029336 0.45425335 1.5190001
0.48509526 0.45604762 1.5250001
0.48800001 0.45604762 1.5250001
0.49090478 0.45604762 1.5250001
0.49380955 0.45604762 1.5250001
0.49671429 0.45604762 1.5250001
0.49961907 0.45604762 1.5250001
0.50252384 0.45604762 1.5250001
0.5077486 0.45814097 1.5320001
0.51066667 0.45814097 1.5320001
0.51358479 0.45814097 1.5320001
-0.22783239 0.52937526 1.7590001
-0.22448191 0.52937526 1.7590001
-0.22000001 0.5266667 1.7500001
-0.21555239 0.52395809 1.7410001
-0.2122362 0.52395809 1.7410001
-0.20892 0.52395809 1.7410001
-0.20560382 0.52395809 1.7410001
-0.20228763 0.52395809 1.7410001
-0.19897144 0.52395809 1.7410001
-0.19464381 0.52124953 1.7320001
-0.19233905 0.52395809 1.7410001
-0.18902287 0.52395809 1.7410001
-0.18474667 0.52124953 1.7320001
-0.18144763 0.52124953 1.7320001
-0.17814858 0.52124953 1.7320001
-0.17484953 0.52124953 1.7320001
-0.17155048 0.52124953 1.7320001
-0.16825144 0.52124953 1.7320001
-0.16495238 0.52124953 1.7320001
-0.16165334 0.52124953 1.7320001
-0.1583543 0.52124953 1.7320001
-0.15424953 0.51854098 1.723
-0.1517562 0.52124953 1.7320001
-0.14845715 0.52124953 1.7320001
-0.1451581 0.52124953 1.7320001
-0.14112191 0.51854098 1.723
-0.13784 0.51854098 1.723
-0.1345581 0.51854098 1.723
-0.13127619 0.51854098 1.723
-0.12799428 0.51854098 1.723
-0.12471239 0.51854098 1.723
-0.12143048 0.51854098 1.723
-0.1176 0.51613337 1.715
-0.11433334 0.51613337 1.715
-0.11048381 0.51342475 1.7060001
-0.10723429 0.51342475 1.7060001
-0.10398477 0.51342475 1.7060001
-0.10073524 0.51342475 1.7060001
-0.097485721 0.51342475 1.7060001
-0.094236195 0.51342475 1.7060001
-0.090986669 0.51342475 1.7060001
-0.087325715 0.51101714 1.6980001
-0.084091432 0.51101714 1.6980001
-0.080857143 0.51101714 1.6980001
-0.077622861 0.51101714 1.6980001
-0.074038096 0.50860953 1.6900001
-0.07081905 0.50860953 1.6900001
-0.067600004 0.50860953 1.6900001
-0.064380951 0.50860953 1.6900001
-0.061451431 0.51101714 1.6980001
-0.058217146 0.51101714 1.6980001
-0.05498286 0.51101714 1.6980001
-0.051748574 0.51101714 1.6980001
-0.048514288 0.51101714 1.6980001
-0.045280002 0.51101714 1.6980001
-0.04184762 0.50860953 1.6900001
-0.038628574 0.50860953 1.6900001
-0.035409525 0.50860953 1.6900001
-0.032190476 0.50860953 1.6900001
-0.028817143 0.50590098 1.6810001
-0.02561524 0.50590098 1.6810001
-0.022413334 0.50590098 1.6810001
-0.01921143 0.50590098 1.6810001
-0.016009524 0.50590098 1.6810001
-0.01280762 0.50590098 1.6810001
-0.0095600002 0.50349337 1.6730001
-0.0063733337 0.50349337 1.6730001
-0.0031866669 0.50349337 1.6730001
0 0.50349337 1.6730001
0.0032019049 0.50590098 1.6810001
0.0064038099 0.50590098 1.6810001
0.0096057151 0.50590098 1.6810001
0.012746667 0.50349337 1.6730001
0.015933335 0.50349337 1.6730001
0.01912 0.50349337 1.6730001
0.022306668 0.50349337 1.6730001
0.025493335 0.50349337 1.6730001
0.02868 0.50349337 1.6730001
0.03186667 0.50349337 1.6730001
0.034885716 0.50108576 1.6650001
0.038240001 0.50349337 1.6730001
0.041228574 0.50108576 1.6650001
0.044400003 0.50108576 1.6650001
0.047571432 0.50108576 1.6650001
0.050742857 0.50108576 1.6650001
0.053655241 0.49867812 1.6570001
0.05681143 0.49867812 1.6570001
0.059967622 0.49867812 1.6570001
0.063123815 0.49867812 1.6570001
0.065960005 0.49627051 1.649
0.069100954 0.49627051 1.649
0.07224191 0.49627051 1.649
0.075382859 0.49627051 1.649
0.078523815 0.49627051 1.649
0.081664763 0.49627051 1.649
0.08480572 0.49627051 1.649
0.087946668 0.49627051 1.649
0.091087624 0.49627051 1.649
0.094685718 0.49867812 1.6570001
0.097369529 0.49627051 1.649
0.1009981 0.49867812 1.6570001
0.10365143 0.49627051 1.649
0.10679238 0.49627051 1.649
0.10993334 0.49627051 1.649
0.11307429 0.49627051 1.649
0.11621524 0.49627051 1.649
0.11935619 0.49627051 1.649
0.12190286 0.49386287 1.641
0.12502858 0.49386287 1.641
0.12760763 0.4917562 1.6340001
0.13008 0.48934859 1.626
0.13317715 0.48934859 1.626
0.13627429 0.48934859 1.626
0.13937144 0.48934859 1.626
0.14246857 0.48934859 1.626
0.14556572 0.48934859 1.626
0.14866287 0.48934859 1.626
0.15176001 0.48934859 1.626
0.15561906 0.4917562 1.6340001
0.15795429 0.48934859 1.626
0.16105144 0.48934859 1.626
0.16414858 0.48934859 1.626
0.16724572 0.48934859 1.626
0.17034286 0.48934859 1.626
0.17344001 0.48934859 1.626
0.17653716 0.48934859 1.626
0.17875049 0.48694098 1.618
0.18183239 0.48694098 1.618
0.18491429 0.48694098 1.618
0.18799619 0.48694098 1.618
0.19025144 0.48483431 1.6110001
0.19332001 0.48483431 1.6110001
0.19638857 0.48483431 1.6110001
0.19945715 0.48483431 1.6110001
0.20252572 0.48483431 1.6110001
0.20559429 0.48483431 1.6110001
0.20866287 0.48483431 1.6110001
0.21173143 0.48483431 1.6110001
0.21373335 0.48242667 1.603
0.21678667 0.48242667 1.603
0.21888001 0.48032001 1.5960001
0.22192001 0.48032001 1.5960001
0.22496001 0.48032001 1.5960001
0.22800002 0.48032001 1.5960001
0.23104002 0.48032001 1.5960001
0.23408 0.48032001 1.5960001
0.23712 0.48032001 1.5960001
0.24016 0.48032001 1.5960001
0.24213335 0.47821334 1.5890001
0.24516001 0.47821334 1.5890001
0.24818668 0.47821334 1.5890001
0.25121334 0.47821334 1.5890001
0.25424001 0.47821334 1.5890001
0.25726667 0.47821334 1.5890001
0.26029333 0.47821334 1.5890001
0.26332 0.47821334 1.5890001
0.26634666 0.47821334 1.5890001
0.26937336 0.47821334 1.5890001
0.27240002 0.47821334 1.5890001
0.27542669 0.47821334 1.5890001
0.27845335 0.47821334 1.5890001
0.28006285 0.47580573 1.5810001
0.28307429 0.47580573 1.5810001
0.28608572 0.47580573 1.5810001
0.28909716 0.47580573 1.5810001
0.2921086 0.47580573 1.5810001
0.29512 0.47580573 1.5810001
0.29813144 0.47580573 1.5810001
0.30114287 0.47580573 1.5810001
0.30415431 0.47580573 1.5810001
0.30580571 0.47369906 1.5740001
0.31017715 0.47580573 1.5810001
0.31318858 0.47580573 1.5810001
0.31480002 0.47369906 1.5740001
0.31921145 0.47580573 1.5810001
0.32222286 0.47580573 1.5810001
0.32379431 0.47369906 1.5740001
0.32679239 0.47369906 1.5740001
0.3297905 0.47369906 1.5740001
0.33278859 0.47369906 1.5740001
0.33578667 0.47369906 1.5740001
0.3372781 0.4715924 1.567
0.34026286 0.4715924 1.567
0.34324762 0.4715924 1.567
0.34623238 0.4715924 1.567
0.34921715 0.4715924 1.567
0.35220191 0.4715924 1.567
0.35360003 0.46948573 1.5600001
0.35657144 0.46948573 1.5600001
0.35954288 0.46948573 1.5600001
0.36251429 0.46948573 1.5600001
0.36548573 0.46948573 1.5600001
0.36845717 0.46948573 1.5600001
0.37142858 0.46948573 1.5600001
0.37272 0.46737906 1.5530001
0.37567812 0.46737906 1.5530001
0.37863621 0.46737906 1.5530001
0.3815943 0.46737906 1.5530001
0.38455239 0.46737906 1.5530001
0.38751048 0.46737906 1.5530001
0.3904686 0.46737906 1.5530001
0.39165336 0.4652724 1.5460001
0.3945981 0.4652724 1.5460001
0.39754286 0.4652724 1.5460001
0.40048763 0.4652724 1.5460001
0.4034324 0.4652724 1.5460001
0.40637717 0.4652724 1.5460001
0.40932193 0.4652724 1.5460001
0.41226667 0.4652724 1.5460001
0.41333145 0.46316573 1.539
0.41626287 0.46316573 1.539
0.41919431 0.46316573 1.539
0.42212573 0.46316573 1.539
0.42505717 0.46316573 1.539
0.42798859 0.46316573 1.539
0.43092 0.46316573 1.539
0.43385145 0.46316573 1.539
0.43678287 0.46316573 1.539
0.43971431 0.46316573 1.539
0.44264573 0.46316573 1.539
0.4435505 0.46105906 1.5320001
0.44646859 0.46105906 1.5320001
0.44938669 0.46105906 1.5320001
0.45437145 0.46316573 1.539
0.45730287 0.46316573 1.539
0.45814097 0.46105906 1.5320001
0.46105906 0.46105906 1.5320001
0.46397716 0.46105906 1.5320001
0.46689525 0.46105906 1.5320001
0.46766669 0.4589524 1.5250001
0.47057146 0.4589524 1.5250001
0.4734762 0.4589524 1.5250001
0.47638097 0.4589524 1.5250001
0.47928575 0.4589524 1.5250001
0.48219049 0.4589524 1.5250001
0.48509526 0.4589524 1.5250001
0.48800001 0.4589524 1.5250001
0.49090478 0.4589524 1.5250001
0.49380955 0.4589524 1.5250001
0.49671429 0.4589524 1.5250001
0.49961907 0.4589524 1.5250001
0.50252384 0.4589524 1.5250001
0.5077486 0.46105906 1.5320001
0.51300001 0.46316573 1.539
0.51593143 0.46316573 1.539
-0.22899811 0.53545147 1.7680001
-0.22448191 0.53272575 1.7590001
-0.22000001 0.53000003 1.7500001
-0.21666667 0.53000003 1.7500001
-0.2122362 0.52727431 1.7410001
-0.20892 0.52727431 1.7410001
-0.20560382 0.52727431 1.7410001
-0.20228763 0.52727431 1.7410001
-0.19794287 0.52454859 1.7320001
-0.19464381 0.52454859 1.7320001
-0.19233905 0.52727431 1.7410001
-0.18902287 0.52727431 1.7410001
-0.18474667 0.52454859 1.7320001
-0.18144763 0.52454859 1.7320001
-0.17814858 0.52454859 1.7320001
-0.17484953 0.52454859 1.7320001
-0.17155048 0.52454859 1.7320001
-0.16825144 0.52454859 1.7320001
-0.16495238 0.52454859 1.7320001
-0.16165334 0.52454859 1.7320001
-0.1583543 0.52454859 1.7320001
-0.15424953 0.52182287 1.723
-0.1517562 0.52454859 1.7320001
-0.14845715 0.52454859 1.7320001
-0.1451581 0.52454859 1.7320001
-0.14112191 0.52182287 1.723
-0.13856001 0.52454859 1.7320001
-0.13526095 0.52454859 1.7320001
-0.13196191 0.52454859 1.7320001
-0.12799428 0.52182287 1.723
-0.12471239 0.52182287 1.723
-0.12143048 0.52182287 1.723
-0.11814857 0.52182287 1.723
-0.11433334 0.5194 1.715
-0.11048381 0.51667428 1.7060001
-0.10723429 0.51667428 1.7060001
-0.10398477 0.51667428 1.7060001
-0.10073524 0.51667428 1.7060001
-0.097485721 0.51667428 1.7060001
-0.094236195 0.51667428 1.7060001
-0.091466673 0.5194 1.715
-0.087737143 0.51667428 1.7060001
-0.084091432 0.51425147 1.6980001
-0.080857143 0.51425147 1.6980001
-0.077622861 0.51425147 1.6980001
-0.074038096 0.5118286 1.6900001
-0.07081905 0.5118286 1.6900001
-0.067600004 0.5118286 1.6900001
-0.064380951 0.5118286 1.6900001
-0.061451431 0.51425147 1.6980001
-0.058217146 0.51425147 1.6980001
-0.05498286 0.51425147 1.6980001
-0.051748574 0.51425147 1.6980001
-0.048514288 0.51425147 1.6980001
-0.045280002 0.51425147 1.6980001
-0.04184762 0.5118286 1.6900001
-0.038628574 0.5118286 1.6900001
-0.035409525 0.5118286 1.6900001
-0.032190476 0.5118286 1.6900001
-0.028817143 0.50910288 1.6810001
-0.02561524 0.50910288 1.6810001
-0.022413334 0.50910288 1.6810001
-0.01921143 0.50910288 1.6810001
-0.016009524 0.50910288 1.6810001
-0.01280762 0.50910288 1.6810001
-0.0096057151 0.50910288 1.6810001
-0.0063733337 0.50668001 1.6730001
-0.0031866669 0.50668001 1.6730001
0 0.50668001 1.6730001
0.0032019049 0.50910288 1.6810001
0.0064038099 0.50910288 1.6810001
0.0096057151 0.50910288 1.6810001
0.012746667 0.50668001 1.6730001
0.015933335 0.50668001 1.6730001
0.01912 0.50668001 1.6730001
0.022306668 0.50668001 1.6730001
0.025493335 0.50668001 1.6730001
0.02868 0.50668001 1.6730001
0.03186667 0.50668001 1.6730001
0.035053335 0.50668001 1.6730001
0.038240001 0.50668001 1.6730001
0.04142667 0.50668001 1.6730001
0.044400003 0.50425714 1.6650001
0.047571432 0.50425714 1.6650001
0.050742857 0.50425714 1.6650001
0.053655241 0.50183433 1.6570001
0.05681143 0.50183433 1.6570001
0.059967622 0.50183433 1.6570001
0.063123815 0.50183433 1.6570001
0.065960005 0.49941143 1.649
0.069100954 0.49941143 1.649
0.07224191 0.49941143 1.649
0.075382859 0.49941143 1.649
0.078523815 0.49941143 1.649
0.081664763 0.49941143 1.649
0.08480572 0.49941143 1.649
0.087946668 0.49941143 1.649
0.091087624 0.49941143 1.649
0.094685718 0.50183433 1.6570001
0.097369529 0.49941143 1.649
0.10051048 0.49941143 1.649
0.10415429 0.50183433 1.6570001
0.10679238 0.49941143 1.649
0.10993334 0.49941143 1.649
0.11307429 0.49941143 1.649
0.11621524 0.49941143 1.649
0.11935619 0.49941143 1.649
0.12190286 0.49698859 1.641
0.12502858 0.49698859 1.641
0.12815429 0.49698859 1.641
0.13072 0.49486858 1.6340001
0.13317715 0.49244574 1.626
0.13627429 0.49244574 1.626
0.13937144 0.49244574 1.626
0.14246857 0.49244574 1.626
0.14556572 0.49244574 1.626
0.14866287 0.49244574 1.626
0.15176001 0.49244574 1.626
0.15561906 0.49486858 1.6340001
0.15795429 0.49244574 1.626
0.16105144 0.49244574 1.626
0.16414858 0.49244574 1.626
0.16724572 0.49244574 1.626
0.17034286 0.49244574 1.626
0.17344001 0.49244574 1.626
0.17653716 0.49244574 1.626
0.17963429 0.49244574 1.626
0.18183239 0.49002287 1.618
0.18491429 0.49002287 1.618
0.18799619 0.49002287 1.618
0.19025144 0.48790288 1.6110001
0.19332001 0.48790288 1.6110001
0.19638857 0.48790288 1.6110001
0.19945715 0.48790288 1.6110001
0.20252572 0.48790288 1.6110001
0.20559429 0.48790288 1.6110001
0.20866287 0.48790288 1.6110001
0.21173143 0.48790288 1.6110001
0.21373335 0.48548001 1.603
0.21678667 0.48548001 1.603
0.21984001 0.48548001 1.603
0.22289334 0.48548001 1.603
0.22496001 0.48336002 1.5960001
0.229 0.48548001 1.603
0.23104002 0.48336002 1.5960001
0.23408 0.48336002 1.5960001
0.23712 0.48336002 1.5960001
0.24016 0.48336002 1.5960001
0.2432 0.48336002 1.5960001
0.24624 0.48336002 1.5960001
0.24928001 0.48336002 1.5960001
0.25121334 0.48124 1.5890001
0.25424001 0.48124 1.5890001
0.25726667 0.48124 1.5890001
0.26029333 0.48124 1.5890001
0.26332 0.48124 1.5890001
0.26634666 0.48124 1.5890001
0.26937336 0.48124 1.5890001
0.27240002 0.48124 1.5890001
0.27542669 0.48124 1.5890001
0.27845335 0.48124 1.5890001
0.28148001 0.48124 1.5890001
0.28307429 0.47881716 1.5810001
0.28608572 0.47881716 1.5810001
0.28909716 0.47881716 1.5810001
0.2921086 0.47881716 1.5810001
0.29512 0.47881716 1.5810001
0.29813144 0.47881716 1.5810001
0.30114287 0.47881716 1.5810001
0.30415431 0.47881716 1.5810001
0.30580571 0.47669715 1.5740001
0.30880383 0.47669715 1.5740001
0.31180191 0.47669715 1.5740001
0.31480002 0.47669715 1.5740001
0.31779811 0.47669715 1.5740001
0.32079619 0.47669715 1.5740001
0.32379431 0.47669715 1.5740001
0.32679239 0.47669715 1.5740001
0.3297905 0.47669715 1.5740001
0.33130857 0.47457716 1.567
0.33578667 0.47669715 1.5740001
0.3372781 0.47457716 1.567
0.34026286 0.47457716 1.567
0.34324762 0.47457716 1.567
0.34623238 0.47457716 1.567
0.34921715 0.47457716 1.567
0.35220191 0.47457716 1.567
0.35360003 0.47245717 1.5600001
0.35657144 0.47245717 1.5600001
0.35954288 0.47245717 1.5600001
0.36251429 0.47245717 1.5600001
0.36548573 0.47245717 1.5600001
0.36845717 0.47245717 1.5600001
0.37142858 0.47245717 1.5600001
0.37272 0.47033715 1.5530001
0.37567812 0.47033715 1.5530001
0.37863621 0.47033715 1.5530001
0.3815943 0.47033715 1.5530001
0.38455239 0.47033715 1.5530001
0.38751048 0.47033715 1.5530001
0.3904686 0.47033715 1.5530001
0.39165336 0.46821716 1.5460001
0.3945981 0.46821716 1.5460001
0.39754286 0.46821716 1.5460001
0.40048763 0.46821716 1.5460001
0.4034324 0.46821716 1.5460001
0.40637717 0.46821716 1.5460001
0.40932193 0.46821716 1.5460001
0.41226667 0.46821716 1.5460001
0.41521144 0.46821716 1.5460001
0.41626287 0.46609715 1.539
0.41919431 0.46609715 1.539
0.42212573 0.46609715 1.539
0.42699048 0.46821716 1.5460001
0.42798859 0.46609715 1.539
0.43092 0.46609715 1.539
0.43385145 0.46609715 1.539
0.43678287 0.46609715 1.539
0.43971431 0.46609715 1.539
0.44264573 0.46609715 1.539
0.4435505 0.46397716 1.5320001
0.44442859 0.46185717 1.5250001
0.44938669 0.46397716 1.5320001
0.45230478 0.46397716 1.5320001
0.45522287 0.46397716 1.5320001
0.45814097 0.46397716 1.5320001
0.46105906 0.46397716 1.5320001
0.46397716 0.46397716 1.5320001
0.46689525 0.46397716 1.5320001
0.46766669 0.46185717 1.5250001
0.47057146 0.46185717 1.5250001
0.4734762 0.46185717 1.5250001
0.47638097 0.46185717 1.5250001
0.47928575 0.46185717 1.5250001
0.48219049 0.46185717 1.5250001
0.48509526 0.46185717 1.5250001
0.48800001 0.46185717 1.5250001
0.49090478 0.46185717 1.5250001
0.49380955 0.46185717 1.5250001
0.49671429 0.46185717 1.5250001
0.49961907 0.46185717 1.5250001
0.50252384 0.46185717 1.5250001
0.5077486 0.46397716 1.5320001
0.51300001 0.46609715 1.539
0.51593143 0.46609715 1.539
-0.22333334 0.53333336 1.7500001
-0.22000001 0.53333336 1.7500001
-0.21555239 0.53059047 1.7410001
-0.2122362 0.53059047 1.7410001
-0.20784001 0.52784765 1.7320001
-0.20454095 0.52784765 1.7320001
-0.20124191 0.52784765 1.7320001
-0.19794287 0.52784765 1.7320001
-0.19464381 0.52784765 1.7320001
-0.19134477 0.52784765 1.7320001
-0.18804573 0.52784765 1.7320001
-0.18474667 0.52784765 1.7320001
-0.18144763 0.52784765 1.7320001
-0.17814858 0.52784765 1.7320001
-0.17484953 0.52784765 1.7320001
-0.17155048 0.52784765 1.7320001
-0.16825144 0.52784765 1.7320001
-0.16495238 0.52784765 1.7320001
-0.16165334 0.52784765 1.7320001
-0.1583543 0.52784765 1.7320001
-0.15424953 0.52510476 1.723
-0.1517562 0.52784765 1.7320001
-0.14845715 0.52784765 1.7320001
-0.1451581 0.52784765 1.7320001
-0.14112191 0.52510476 1.723
-0.13856001 0.52784765 1.7320001
-0.1345581 0.52510476 1.723
-0.13127619 0.52510476 1.723
-0.12799428 0.52510476 1.723
-0.12471239 0.52510476 1.723
-0.12143048 0.52510476 1.723
-0.11814857 0.52510476 1.723
-0.11433334 0.52266669 1.715
-0.11048381 0.51992381 1.7060001
-0.10723429 0.51992381 1.7060001
-0.10398477 0.51992381 1.7060001
-0.10073524 0.51992381 1.7060001
-0.097485721 0.51992381 1.7060001
-0.094236195 0.51992381 1.7060001
-0.090986669 0.51992381 1.7060001
-0.087737143 0.51992381 1.7060001
-0.084487624 0.51992381 1.7060001
-0.081238098 0.51992381 1.7060001
-0.077622861 0.51748574 1.6980001
-0.074388571 0.51748574 1.6980001
-0.071154289 0.51748574 1.6980001
-0.067919999 0.51748574 1.6980001
-0.064685717 0.51748574 1.6980001
-0.061451431 0.51748574 1.6980001
-0.058217146 0.51748574 1.6980001
-0.05498286 0.51748574 1.6980001
-0.051504765 0.51504761 1.6900001
-0.048514288 0.51748574 1.6980001
-0.045280002 0.51748574 1.6980001
-0.04184762 0.51504761 1.6900001
-0.038628574 0.51504761 1.6900001
-0.035409525 0.51504761 1.6900001
-0.032342859 0.51748574 1.6980001
-0.02897143 0.51504761 1.6900001
-0.025752382 0.51504761 1.6900001
-0.022533335 0.51504761 1.6900001
-0.01921143 0.51230478 1.6810001
-0.016095238 0.51504761 1.6900001
-0.012876191 0.51504761 1.6900001
-0.0096571436 0.51504761 1.6900001
-0.0064038099 0.51230478 1.6810001
-0.0032019049 0.51230478 1.6810001
0 0.51230478 1.6810001
0.0032019049 0.51230478 1.6810001
0.0064038099 0.51230478 1.6810001
0.0096057151 0.51230478 1.6810001
0.012746667 0.50986671 1.6730001
0.015933335 0.50986671 1.6730001
0.01912 0.50986671 1.6730001
0.022306668 0.50986671 1.6730001
0.025493335 0.50986671 1.6730001
0.02868 0.50986671 1.6730001
0.03186667 0.50986671 1.6730001
0.035053335 0.50986671 1.6730001
0.038240001 0.50986671 1.6730001
0.04142667 0.50986671 1.6730001
0.044613335 0.50986671 1.6730001
0.047571432 0.50742859 1.6650001
0.050742857 0.50742859 1.6650001
0.053914286 0.50742859 1.6650001
0.05681143 0.50499052 1.6570001
0.059967622 0.50499052 1.6570001
0.063123815 0.50499052 1.6570001
0.065960005 0.50255239 1.649
0.069100954 0.50255239 1.649
0.07224191 0.50255239 1.649
0.075382859 0.50255239 1.649
0.078523815 0.50255239 1.649
0.081664763 0.50255239 1.649
0.08480572 0.50255239 1.649
0.087946668 0.50255239 1.649
0.091529526 0.50499052 1.6570001
0.094685718 0.50499052 1.6570001
0.097841911 0.50499052 1.6570001
0.1009981 0.50499052 1.6570001
0.10415429 0.50499052 1.6570001
0.10731048 0.50499052 1.6570001
0.11046667 0.50499052 1.6570001
0.11307429 0.50255239 1.649
0.11621524 0.50255239 1.649
0.11935619 0.50255239 1.649
0.12190286 0.50011432 1.641
0.12502858 0.50011432 1.641
0.12815429 0.50011432 1.641
0.13072 0.49798098 1.6340001
0.13383238 0.49798098 1.6340001
0.13694477 0.49798098 1.6340001
0.14005715 0.49798098 1.6340001
0.14316952 0.49798098 1.6340001
0.14556572 0.49554288 1.626
0.14866287 0.49554288 1.626
0.15176001 0.49554288 1.626
0.15485714 0.49554288 1.626
0.15795429 0.49554288 1.626
0.16105144 0.49554288 1.626
0.16414858 0.49554288 1.626
0.16724572 0.49554288 1.626
0.17034286 0.49554288 1.626
0.17344001 0.49554288 1.626
0.17653716 0.49554288 1.626
0.17963429 0.49554288 1.626
0.18183239 0.49310479 1.618
0.18491429 0.49310479 1.618
0.18799619 0.49310479 1.618
0.19025144 0.49097145 1.6110001
0.19332001 0.49097145 1.6110001
0.19638857 0.49097145 1.6110001
0.19945715 0.49097145 1.6110001
0.20252572 0.49097145 1.6110001
0.20559429 0.49097145 1.6110001
0.20866287 0.49097145 1.6110001
0.21173143 0.49097145 1.6110001
0.21480002 0.49097145 1.6110001
0.21678667 0.48853335 1.603
0.21984001 0.48853335 1.603
0.22289334 0.48853335 1.603
0.22594668 0.48853335 1.603
0.229 0.48853335 1.603
0.23205334 0.48853335 1.603
0.23408 0.48640001 1.5960001
0.23816001 0.48853335 1.603
0.24016 0.48640001 1.5960001
0.2432 0.48640001 1.5960001
0.24624 0.48640001 1.5960001
0.24928001 0.48640001 1.5960001
0.25232002 0.48640001 1.5960001
0.25424001 0.4842667 1.5890001
0.25726667 0.4842667 1.5890001
0.26144001 0.48640001 1.5960001
0.26448002 0.48640001 1.5960001
0.26752001 0.48640001 1.5960001
0.27056 0.48640001 1.5960001
0.27360001 0.48640001 1.5960001
0.27542669 0.4842667 1.5890001
0.27845335 0.4842667 1.5890001
0.28148001 0.4842667 1.5890001
0.28450668 0.4842667 1.5890001
0.28753334 0.4842667 1.5890001
0.28909716 0.4818286 1.5810001
0.2921086 0.4818286 1.5810001
0.29512 0.4818286 1.5810001
0.29813144 0.4818286 1.5810001
0.30114287 0.4818286 1.5810001
0.30415431 0.4818286 1.5810001
0.30580571 0.47969526 1.5740001
0.31017715 0.4818286 1.5810001
0.31318858 0.4818286 1.5810001
0.31480002 0.47969526 1.5740001
0.31779811 0.47969526 1.5740001
0.32222286 0.4818286 1.5810001
0.32379431 0.47969526 1.5740001
0.32679239 0.47969526 1.5740001
0.3297905 0.47969526 1.5740001
0.33278859 0.47969526 1.5740001
0.33578667 0.47969526 1.5740001
0.33878478 0.47969526 1.5740001
0.34178287 0.47969526 1.5740001
0.34478095 0.47969526 1.5740001
0.34777907 0.47969526 1.5740001
0.34921715 0.47756192 1.567
0.35220191 0.47756192 1.567
0.35360003 0.47542858 1.5600001
0.35657144 0.47542858 1.5600001
0.35954288 0.47542858 1.5600001
0.36251429 0.47542858 1.5600001
0.36548573 0.47542858 1.5600001
0.36845717 0.47542858 1.5600001
0.37142858 0.47542858 1.5600001
0.37272 0.47329524 1.5530001
0.37567812 0.47329524 1.5530001
0.37863621 0.47329524 1.5530001
0.3815943 0.47329524 1.5530001
0.38455239 0.47329524 1.5530001
0.38751048 0.47329524 1.5530001
0.3904686 0.47329524 1.5530001
0.39165336 0.47116193 1.5460001
0.3945981 0.47116193 1.5460001
0.39754286 0.47116193 1.5460001
0.40048763 0.47116193 1.5460001
0.4034324 0.47116193 1.5460001
0.40637717 0.47116193 1.5460001
0.40932193 0.47116193 1.5460001
0.41226667 0.47116193 1.5460001
0.41521144 0.47116193 1.5460001
0.41815621 0.47116193 1.5460001
0.42110097 0.47116193 1.5460001
0.42404574 0.47116193 1.5460001
0.42699048 0.47116193 1.5460001
0.42993525 0.47116193 1.5460001
0.43092 0.46902859 1.539
0.43385145 0.46902859 1.539
0.43678287 0.46902859 1.539
0.43971431 0.46902859 1.539
0.44264573 0.46902859 1.539
0.4435505 0.46689525 1.5320001
0.44442859 0.46476191 1.5250001
0.44938669 0.46689525 1.5320001
0.45230478 0.46689525 1.5320001
0.45522287 0.46689525 1.5320001
0.45814097 0.46689525 1.5320001
0.46105906 0.46689525 1.5320001
0.46397716 0.46689525 1.5320001
0.46689525 0.46689525 1.5320001
0.46766669 0.46476191 1.5250001
0.47057146 0.46476191 1.5250001
0.47564954 0.46689525 1.5320001
0.47638097 0.46476191 1.5250001
0.47928575 0.46476191 1.5250001
0.48219049 0.46476191 1.5250001
0.48509526 0.46476191 1.5250001
0.48800001 0.46476191 1.5250001
0.49090478 0.46476191 1.5250001
0.49380955 0.46476191 1.5250001
0.49671429 0.46476191 1.5250001
0.49961907 0.46476191 1.5250001
0.50483048 0.46689525 1.5320001
0.5100686 0.46902859 1.539
0.51300001 0.46902859 1.539
0.51593143 0.46902859 1.539
-0.21886858 0.5339067 1.7410001
-0.21555239 0.5339067 1.7410001
-0.2122362 0.5339067 1.7410001
-0.20784001 0.53114671 1.7320001
-0.20560382 0.5339067 1.7410001
-0.20228763 0.5339067 1.7410001
-0.19897144 0.5339067 1.7410001
-0.19565524 0.5339067 1.7410001
-0.19134477 0.53114671 1.7320001
-0.18804573 0.53114671 1.7320001
-0.18474667 0.53114671 1.7320001
-0.18144763 0.53114671 1.7320001
-0.17722286 0.52838671 1.723
-0.17484953 0.53114671 1.7320001
-0.17155048 0.53114671 1.7320001
-0.16825144 0.53114671 1.7320001
-0.16495238 0.53114671 1.7320001
-0.16165334 0.53114671 1.7320001
-0.1583543 0.53114671 1.7320001
-0.15505524 0.53114671 1.7320001
-0.1517562 0.53114671 1.7320001
-0.14845715 0.53114671 1.7320001
-0.1451581 0.53114671 1.7320001
-0.14112191 0.52838671 1.723
-0.13784 0.52838671 1.723
-0.1345581 0.52838671 1.723
-0.13127619 0.52838671 1.723
-0.12799428 0.52838671 1.723
-0.12413334 0.52593333 1.715
-0.12086667 0.52593333 1.715
-0.11814857 0.52838671 1.723
-0.11433334 0.52593333 1.715
-0.11048381 0.52317333 1.7060001
