# .PCD v0.7 - Point Cloud Data file format
VERSION 0.7
FIELDS x y z
SIZE 4 4 4
TYPE F F F
COUNT 1 1 1
WIDTH 1499
HEIGHT 1
VIEWPOINT 0 0 0 1 0 0 0
POINTS 1499
DATA ascii
-0.046605717 -0.023302859 2.039
-0.042470478 -0.023165716 2.0270002
-0.038609527 -0.023165716 2.0270002
-0.034748573 -0.023165716 2.0270002
-0.030704763 -0.023028573 2.0150001
-0.026866667 -0.023028573 2.0150001
-0.02289143 -0.02289143 2.003
-0.019190477 -0.023028573 2.0150001
-0.015352381 -0.023028573 2.0150001
-0.011445715 -0.02289143 2.003
-0.0076304763 -0.02289143 2.003
-0.0038380953 -0.023028573 2.0150001
0 -0.023028573 2.0150001
0.0038380953 -0.023028573 2.0150001
0.0076304763 -0.02289143 2.003
0.011445715 -0.02289143 2.003
0.015260953 -0.02289143 2.003
0.019076191 -0.02289143 2.003
0.02289143 -0.02289143 2.003
0.026706668 -0.02289143 2.003
0.030521905 -0.02289143 2.003
0.034337144 -0.02289143 2.003
0.038380954 -0.023028573 2.0150001
0.04221905 -0.023028573 2.0150001
0.04578286 -0.02289143 2.003
0.049598098 -0.02289143 2.003
0.053413335 -0.02289143 2.003
0.057228573 -0.02289143 2.003
0.06104381 -0.02289143 2.003
0.064859048 -0.02289143 2.003
0.068674289 -0.02289143 2.003
0.07248953 -0.02289143 2.003
0.076761909 -0.023028573 2.0150001
0.080600001 -0.023028573 2.0150001
0.0844381 -0.023028573 2.0150001
0.088801906 -0.023165716 2.0270002
0.092662863 -0.023165716 2.0270002
0.096523814 -0.023165716 2.0270002
0.10097905 -0.023302859 2.039
0.10424571 -0.023165716 2.0270002
0.10810667 -0.023165716 2.0270002
0.11263048 -0.023302859 2.039
0.11651429 -0.023302859 2.039
0.12110667 -0.023440002 2.0510001
0.12501334 -0.023440002 2.0510001
0.12892 -0.023440002 2.0510001
0.13360381 -0.023577144 2.0630002
0.13753334 -0.023577144 2.0630002
0.14235429 -0.023725715 2.0760002
0.14715429 -0.023862857 2.0880001
0.15207238 -0.024011429 2.1010001
0.15704 -0.024160001 2.1140001
0.16205715 -0.024308572 2.1270001
0.16813906 -0.024605716 2.1530001
0.17896001 -0.025565716 2.237
0.18444952 -0.025737144 2.2520001
0.18873906 -0.025737144 2.2520001
0.19422857 -0.025897143 2.266
0.19854477 -0.025897143 2.266
0.23893906 -0.030502858 2.6690001
0.24402286 -0.030502858 2.6690001
0.24910668 -0.030502858 2.6690001
0.25419047 -0.030502858 2.6690001
0.2592743 -0.030502858 2.6690001
0.2643581 -0.030502858 2.6690001
0.2694419 -0.030502858 2.6690001
0.27668571 -0.030742858 2.6900001
0.32486668 -0.035440002 3.1010001
0.33077335 -0.035440002 3.1010001
0.33668002 -0.035440002 3.1010001
0.33949333 -0.035120003 3.0730002
0.34534669 -0.035120003 3.0730002
0.35120001 -0.035120003 3.0730002
0.35705334 -0.035120003 3.0730002
0.36290669 -0.035120003 3.0730002
0.36876002 -0.035120003 3.0730002
0.37132192 -0.03481143 3.0460002
0.37712383 -0.03481143 3.0460002
0.38292572 -0.03481143 3.0460002
0.38872764 -0.03481143 3.0460002
0.39452955 -0.03481143 3.0460002
0.40033144 -0.03481143 3.0460002
0.40613335 -0.03481143 3.0460002
0.41193524 -0.03481143 3.0460002
0.41403431 -0.03450286 3.0190001
0.41978478 -0.03450286 3.0190001
0.42553526 -0.03450286 3.0190001
0.43514287 -0.03481143 3.0460002
0.43703622 -0.03450286 3.0190001
0.44278669 -0.03450286 3.0190001
0.44853717 -0.03450286 3.0190001
0.45428765 -0.03450286 3.0190001
0.46003813 -0.03450286 3.0190001
0.4657886 -0.03450286 3.0190001
0.47153905 -0.03450286 3.0190001
0.47728953 -0.03450286 3.0190001
0.47888002 -0.034205716 2.993
0.48879048 -0.03450286 3.0190001
0.49028191 -0.034205716 2.993
0.49598289 -0.034205716 2.993
0.50168383 -0.034205716 2.993
0.50738478 -0.034205716 2.993
0.51308572 -0.034205716 2.993
0.51878667 -0.034205716 2.993
0.52448761 -0.034205716 2.993
0.53018862 -0.034205716 2.993
0.53588957 -0.034205716 2.993
0.54629529 -0.03450286 3.0190001
0.55204576 -0.03450286 3.0190001
0.55779624 -0.03450286 3.0190001
0.55869335 -0.034205716 2.993
0.56929713 -0.03450286 3.0190001
0.57504761 -0.03450286 3.0190001
0.58079809 -0.03450286 3.0190001
0.58149719 -0.034205716 2.993
0.58719814 -0.034205716 2.993
0.59289908 -0.034205716 2.993
0.6038 -0.03450286 3.0190001
0.60955048 -0.03450286 3.0190001
0.61000192 -0.034205716 2.993
0.61570287 -0.034205716 2.993
0.62140381 -0.034205716 2.993
0.62165719 -0.033908572 2.9670002
0.62730861 -0.033908572 2.9670002
0.63296002 -0.033908572 2.9670002
0.63861144 -0.033908572 2.9670002
0.6388343 -0.033622857 2.9420002
0.64443815 -0.033622857 2.9420002
0.65004194 -0.033622857 2.9420002
0.65564573 -0.033622857 2.9420002
0.66124952 -0.033622857 2.9420002
0.66685337 -0.033622857 2.9420002
0.67245716 -0.033622857 2.9420002
0.67806095 -0.033622857 2.9420002
0.6836648 -0.033622857 2.9420002
0.68926859 -0.033622857 2.9420002
0.69487238 -0.033622857 2.9420002
0.70047623 -0.033622857 2.9420002
0.70608002 -0.033622857 2.9420002
0.71168381 -0.033622857 2.9420002
0.71728766 -0.033622857 2.9420002
0.72289145 -0.033622857 2.9420002
0.72849524 -0.033622857 2.9420002
0.73409909 -0.033622857 2.9420002
0.73970288 -0.033622857 2.9420002
0.74530667 -0.033622857 2.9420002
0.75091052 -0.033622857 2.9420002
0.75651431 -0.033622857 2.9420002
0.7621181 -0.033622857 2.9420002
0.76772195 -0.033622857 2.9420002
0.77332574 -0.033622857 2.9420002
0.77892953 -0.033622857 2.9420002
0.78453338 -0.033622857 2.9420002
0.79013717 -0.033622857 2.9420002
0.78897905 -0.033337142 2.9170001
0.80134481 -0.033622857 2.9420002
0.8069486 -0.033622857 2.9420002
0.81255239 -0.033622857 2.9420002
0.81120384 -0.033337142 2.9170001
0.82376003 -0.033622857 2.9420002
0.82231623 -0.033337142 2.9170001
0.83496767 -0.033622857 2.9420002
0.83342862 -0.033337142 2.9170001
0.83898479 -0.033337142 2.9170001
0.84454101 -0.033337142 2.9170001
0.85009718 -0.033337142 2.9170001
-0.088801906 -0.019304764 2.0270002
-0.084940955 -0.019304764 2.0270002
-0.081560001 -0.019419048 2.039
-0.077676192 -0.019419048 2.039
-0.073792383 -0.019419048 2.039
-0.069908574 -0.019419048 2.039
-0.066024765 -0.019419048 2.039
-0.062140957 -0.019419048 2.039
-0.057914287 -0.019304764 2.0270002
-0.054373335 -0.019419048 2.039
-0.050489526 -0.019419048 2.039
-0.046605717 -0.019419048 2.039
-0.042721905 -0.019419048 2.039
-0.038838096 -0.019419048 2.039
-0.034954287 -0.019419048 2.039
-0.030887621 -0.019304764 2.0270002
-0.026866667 -0.019190477 2.0150001
-0.02289143 -0.019076191 2.003
-0.019190477 -0.019190477 2.0150001
-0.015352381 -0.019190477 2.0150001
-0.011445715 -0.019076191 2.003
-0.0076304763 -0.019076191 2.003
-0.0038380953 -0.019190477 2.0150001
0 -0.019190477 2.0150001
0.0038380953 -0.019190477 2.0150001
0.0076304763 -0.019076191 2.003
0.011445715 -0.019076191 2.003
0.015260953 -0.019076191 2.003
0.019076191 -0.019076191 2.003
0.02289143 -0.019076191 2.003
0.026706668 -0.019076191 2.003
0.030521905 -0.019076191 2.003
0.034337144 -0.019076191 2.003
0.038380954 -0.019190477 2.0150001
0.04221905 -0.019190477 2.0150001
0.04578286 -0.019076191 2.003
0.049598098 -0.019076191 2.003
0.053413335 -0.019076191 2.003
0.057228573 -0.019076191 2.003
0.06104381 -0.019076191 2.003
0.064859048 -0.019076191 2.003
0.068674289 -0.019076191 2.003
0.07248953 -0.019076191 2.003
0.076761909 -0.019190477 2.0150001
0.080600001 -0.019190477 2.0150001
0.0844381 -0.019190477 2.0150001
0.088801906 -0.019304764 2.0270002
0.092662863 -0.019304764 2.0270002
0.096523814 -0.019304764 2.0270002
0.10038476 -0.019304764 2.0270002
0.10424571 -0.019304764 2.0270002
0.10810667 -0.019304764 2.0270002
0.11263048 -0.019419048 2.039
0.11651429 -0.019419048 2.039
0.12110667 -0.019533334 2.0510001
0.12501334 -0.019533334 2.0510001
0.12892 -0.019533334 2.0510001
0.13360381 -0.019647621 2.0630002
0.13753334 -0.019647621 2.0630002
0.14235429 -0.019771429 2.0760002
0.14715429 -0.019885715 2.0880001
0.15207238 -0.020009525 2.1010001
0.15607429 -0.020009525 2.1010001
0.16304763 -0.020380953 2.1400001
0.16712381 -0.020380953 2.1400001
0.17896001 -0.021304762 2.237
0.18444952 -0.021447619 2.2520001
0.18873906 -0.021447619 2.2520001
0.19302858 -0.021447619 2.2520001
0.19854477 -0.021580953 2.266
0.20286097 -0.021580953 2.266
0.24219429 -0.025228573 2.6490002
0.24724001 -0.025228573 2.6490002
0.25228572 -0.025228573 2.6490002
0.25733143 -0.025228573 2.6490002
0.26237714 -0.025228573 2.6490002
0.2694419 -0.025419049 2.6690001
0.27452573 -0.025419049 2.6690001
0.27960953 -0.025419049 2.6690001
0.28469333 -0.025419049 2.6690001
0.33668002 -0.029533334 3.1010001
0.33949333 -0.029266668 3.0730002
0.34534669 -0.029266668 3.0730002
0.35120001 -0.029266668 3.0730002
0.35705334 -0.029266668 3.0730002
0.36290669 -0.029266668 3.0730002
0.36876002 -0.029266668 3.0730002
0.37461334 -0.029266668 3.0730002
0.38046667 -0.029266668 3.0730002
0.38632002 -0.029266668 3.0730002
0.39217335 -0.029266668 3.0730002
0.39802667 -0.029266668 3.0730002
0.40388 -0.029266668 3.0730002
0.40613335 -0.029009525 3.0460002
0.41558668 -0.029266668 3.0730002
0.41773716 -0.029009525 3.0460002
0.41978478 -0.028752383 3.0190001
0.42553526 -0.028752383 3.0190001
0.43128574 -0.028752383 3.0190001
0.43703622 -0.028752383 3.0190001
0.44278669 -0.028752383 3.0190001
0.44853717 -0.028752383 3.0190001
0.45428765 -0.028752383 3.0190001
0.46003813 -0.028752383 3.0190001
0.4657886 -0.028752383 3.0190001
0.47153905 -0.028752383 3.0190001
0.47728953 -0.028752383 3.0190001
0.47888002 -0.028504763 2.993
0.48879048 -0.028752383 3.0190001
0.49028191 -0.028504763 2.993
0.49598289 -0.028504763 2.993
0.50168383 -0.028504763 2.993
0.50738478 -0.028504763 2.993
0.51308572 -0.028504763 2.993
0.51878667 -0.028504763 2.993
0.52448761 -0.028504763 2.993
0.53479433 -0.028752383 3.0190001
0.54054481 -0.028752383 3.0190001
0.54629529 -0.028752383 3.0190001
0.55204576 -0.028752383 3.0190001
0.5529924 -0.028504763 2.993
0.55869335 -0.028504763 2.993
0.56929713 -0.028752383 3.0190001
0.57504761 -0.028752383 3.0190001
0.58079809 -0.028752383 3.0190001
0.58149719 -0.028504763 2.993
0.58719814 -0.028504763 2.993
0.59804952 -0.028752383 3.0190001
0.6038 -0.028752383 3.0190001
0.60955048 -0.028752383 3.0190001
0.61000192 -0.028504763 2.993
0.61570287 -0.028504763 2.993
0.62140381 -0.028504763 2.993
0.62165719 -0.028257145 2.9670002
0.62730861 -0.028257145 2.9670002
0.63296002 -0.028257145 2.9670002
0.63861144 -0.028257145 2.9670002
0.6388343 -0.028019048 2.9420002
0.64443815 -0.028019048 2.9420002
0.65004194 -0.028019048 2.9420002
0.65564573 -0.028019048 2.9420002
0.66124952 -0.028019048 2.9420002
0.66685337 -0.028019048 2.9420002
0.67245716 -0.028019048 2.9420002
0.67806095 -0.028019048 2.9420002
0.6836648 -0.028019048 2.9420002
0.68926859 -0.028019048 2.9420002
0.69487238 -0.028019048 2.9420002
0.70047623 -0.028019048 2.9420002
0.70608002 -0.028019048 2.9420002
0.71168381 -0.028019048 2.9420002
0.71728766 -0.028019048 2.9420002
0.72289145 -0.028019048 2.9420002
0.72849524 -0.028019048 2.9420002
0.73409909 -0.028019048 2.9420002
0.73970288 -0.028019048 2.9420002
0.74530667 -0.028019048 2.9420002
0.74452955 -0.027780954 2.9170001
0.75651431 -0.028019048 2.9420002
0.75564194 -0.027780954 2.9170001
0.7611981 -0.027780954 2.9170001
0.77332574 -0.028019048 2.9420002
0.7723105 -0.027780954 2.9170001
0.77786672 -0.027780954 2.9170001
0.78342289 -0.027780954 2.9170001
0.78897905 -0.027780954 2.9170001
0.79453528 -0.027780954 2.9170001
0.8069486 -0.028019048 2.9420002
0.80564767 -0.027780954 2.9170001
0.81120384 -0.027780954 2.9170001
0.82376003 -0.028019048 2.9420002
0.82231623 -0.027780954 2.9170001
0.8278724 -0.027780954 2.9170001
0.83342862 -0.027780954 2.9170001
0.83208191 -0.027552381 2.8930001
0.83759242 -0.027552381 2.8930001
0.84310287 -0.027552381 2.8930001
-0.089327626 -0.015535239 2.039
-0.08544381 -0.015535239 2.039
-0.081560001 -0.015535239 2.039
-0.078133337 -0.015626667 2.0510001
-0.073792383 -0.015535239 2.039
-0.069908574 -0.015535239 2.039
-0.066024765 -0.015535239 2.039
-0.062140957 -0.015535239 2.039
-0.057914287 -0.01544381 2.0270002
-0.054373335 -0.015535239 2.039
-0.050489526 -0.015535239 2.039
-0.046331432 -0.01544381 2.0270002
-0.042721905 -0.015535239 2.039
-0.038838096 -0.015535239 2.039
-0.034954287 -0.015535239 2.039
-0.030887621 -0.01544381 2.0270002
-0.026866667 -0.015352381 2.0150001
-0.023028573 -0.015352381 2.0150001
-0.019190477 -0.015352381 2.0150001
-0.015352381 -0.015352381 2.0150001
-0.011514287 -0.015352381 2.0150001
-0.0076304763 -0.015260953 2.003
-0.0038380953 -0.015352381 2.0150001
0 -0.015352381 2.0150001
0.0038380953 -0.015352381 2.0150001
0.0076304763 -0.015260953 2.003
0.011445715 -0.015260953 2.003
0.015260953 -0.015260953 2.003
0.019076191 -0.015260953 2.003
0.02289143 -0.015260953 2.003
0.026706668 -0.015260953 2.003
0.030521905 -0.015260953 2.003
0.034337144 -0.015260953 2.003
0.038380954 -0.015352381 2.0150001
0.04221905 -0.015352381 2.0150001
0.04578286 -0.015260953 2.003
0.049598098 -0.015260953 2.003
0.053413335 -0.015260953 2.003
0.057228573 -0.015260953 2.003
0.06104381 -0.015260953 2.003
0.064859048 -0.015260953 2.003
0.068674289 -0.015260953 2.003
0.07248953 -0.015260953 2.003
0.076761909 -0.015352381 2.0150001
0.080600001 -0.015352381 2.0150001
0.0844381 -0.015352381 2.0150001
0.088801906 -0.01544381 2.0270002
0.092662863 -0.01544381 2.0270002
0.096523814 -0.01544381 2.0270002
0.10097905 -0.015535239 2.039
0.10424571 -0.01544381 2.0270002
0.10874667 -0.015535239 2.039
0.11263048 -0.015535239 2.039
0.11651429 -0.015535239 2.039
0.1203981 -0.015535239 2.039
0.12501334 -0.015626667 2.0510001
0.12892 -0.015626667 2.0510001
0.13360381 -0.015718095 2.0630002
0.13753334 -0.015718095 2.0630002
0.14235429 -0.015817143 2.0760002
0.14715429 -0.015908573 2.0880001
0.15207238 -0.016007619 2.1010001
0.15607429 -0.016007619 2.1010001
0.16304763 -0.016304763 2.1400001
0.16712381 -0.016304763 2.1400001
0.17224 -0.016403811 2.1530001
0.18322095 -0.01704381 2.237
0.18748191 -0.01704381 2.237
0.19302858 -0.017158097 2.2520001
0.19731811 -0.017158097 2.2520001
0.2056362 -0.017500954 2.2970002
0.21001144 -0.017500954 2.2970002
0.24910668 -0.020335238 2.6690001
0.25419047 -0.020335238 2.6690001
0.25733143 -0.020182857 2.6490002
0.2643581 -0.020335238 2.6690001
0.2694419 -0.020335238 2.6690001
0.27452573 -0.020335238 2.6690001
0.27960953 -0.020335238 2.6690001
0.28469333 -0.020335238 2.6690001
0.33364001 -0.023413334 3.0730002
0.33949333 -0.023413334 3.0730002
0.34534669 -0.023413334 3.0730002
0.35120001 -0.023413334 3.0730002
0.3539162 -0.02320762 3.0460002
0.36290669 -0.023413334 3.0730002
0.36876002 -0.023413334 3.0730002
0.37132192 -0.02320762 3.0460002
0.38046667 -0.023413334 3.0730002
0.38632002 -0.023413334 3.0730002
0.39217335 -0.023413334 3.0730002
0.39802667 -0.023413334 3.0730002
0.40388 -0.023413334 3.0730002
0.40973336 -0.023413334 3.0730002
0.41558668 -0.023413334 3.0730002
0.41773716 -0.02320762 3.0460002
0.42353907 -0.02320762 3.0460002
0.42934096 -0.02320762 3.0460002
0.43128574 -0.023001906 3.0190001
0.43703622 -0.023001906 3.0190001
0.44278669 -0.023001906 3.0190001
0.44853717 -0.023001906 3.0190001
0.45428765 -0.023001906 3.0190001
0.46003813 -0.023001906 3.0190001
0.46177715 -0.022803809 2.993
0.46747813 -0.022803809 2.993
0.47317907 -0.022803809 2.993
0.47888002 -0.022803809 2.993
0.48458096 -0.022803809 2.993
0.49028191 -0.022803809 2.993
0.49598289 -0.022803809 2.993
0.50168383 -0.022803809 2.993
0.51179242 -0.023001906 3.0190001
0.51308572 -0.022803809 2.993
0.52329338 -0.023001906 3.0190001
0.52904385 -0.023001906 3.0190001
0.53479433 -0.023001906 3.0190001
0.54054481 -0.023001906 3.0190001
0.54629529 -0.023001906 3.0190001
0.55204576 -0.023001906 3.0190001
0.55779624 -0.023001906 3.0190001
0.56354672 -0.023001906 3.0190001
0.56929713 -0.023001906 3.0190001
0.57504761 -0.023001906 3.0190001
0.58079809 -0.023001906 3.0190001
0.58149719 -0.022803809 2.993
0.58719814 -0.022803809 2.993
0.59289908 -0.022803809 2.993
0.59860003 -0.022803809 2.993
0.60430098 -0.022803809 2.993
0.61000192 -0.022803809 2.993
0.61570287 -0.022803809 2.993
0.62140381 -0.022803809 2.993
0.62165719 -0.022605715 2.9670002
0.62730861 -0.022605715 2.9670002
0.63296002 -0.022605715 2.9670002
0.63861144 -0.022605715 2.9670002
0.6388343 -0.022415239 2.9420002
0.64443815 -0.022415239 2.9420002
0.65004194 -0.022415239 2.9420002
0.65564573 -0.022415239 2.9420002
0.66124952 -0.022415239 2.9420002
0.67252004 -0.022605715 2.9670002
0.67245716 -0.022415239 2.9420002
0.67806095 -0.022415239 2.9420002
0.6836648 -0.022415239 2.9420002
0.68926859 -0.022415239 2.9420002
0.69487238 -0.022415239 2.9420002
0.70047623 -0.022415239 2.9420002
0.70608002 -0.022415239 2.9420002
0.71168381 -0.022415239 2.9420002
0.71728766 -0.022415239 2.9420002
0.72289145 -0.022415239 2.9420002
0.72849524 -0.022415239 2.9420002
0.73409909 -0.022415239 2.9420002
0.73970288 -0.022415239 2.9420002
0.73897338 -0.022224763 2.9170001
0.74452955 -0.022224763 2.9170001
0.75008577 -0.022224763 2.9170001
0.75564194 -0.022224763 2.9170001
0.7611981 -0.022224763 2.9170001
0.77332574 -0.022415239 2.9420002
0.7723105 -0.022224763 2.9170001
0.77786672 -0.022224763 2.9170001
0.79013717 -0.022415239 2.9420002
0.78897905 -0.022224763 2.9170001
0.80134481 -0.022415239 2.9420002
0.8069486 -0.022415239 2.9420002
0.81255239 -0.022415239 2.9420002
0.81815624 -0.022415239 2.9420002
0.82376003 -0.022415239 2.9420002
0.82231623 -0.022224763 2.9170001
0.8278724 -0.022224763 2.9170001
0.82657146 -0.022041906 2.8930001
0.83208191 -0.022041906 2.8930001
0.83759242 -0.022041906 2.8930001
0.84310287 -0.022041906 2.8930001
-0.089327626 -0.011651429 2.039
-0.08544381 -0.011651429 2.039
-0.082040004 -0.011720001 2.0510001
-0.078133337 -0.011720001 2.0510001
-0.07422667 -0.011720001 2.0510001
-0.069908574 -0.011651429 2.039
-0.066024765 -0.011651429 2.039
-0.062140957 -0.011651429 2.039
-0.057914287 -0.011582858 2.0270002
-0.054373335 -0.011651429 2.039
-0.050489526 -0.011651429 2.039
-0.046331432 -0.011582858 2.0270002
-0.042470478 -0.011582858 2.0270002
-0.038609527 -0.011582858 2.0270002
-0.034748573 -0.011582858 2.0270002
-0.030887621 -0.011582858 2.0270002
-0.026866667 -0.011514287 2.0150001
-0.023028573 -0.011514287 2.0150001
-0.019190477 -0.011514287 2.0150001
-0.015352381 -0.011514287 2.0150001
-0.011445715 -0.011445715 2.003
-0.0076304763 -0.011445715 2.003
-0.0038152381 -0.011445715 2.003
0 -0.011445715 2.003
0.0038152381 -0.011445715 2.003
0.0076304763 -0.011445715 2.003
0.011445715 -0.011445715 2.003
0.015260953 -0.011445715 2.003
0.019076191 -0.011445715 2.003
0.02289143 -0.011445715 2.003
0.026706668 -0.011445715 2.003
0.030521905 -0.011445715 2.003
0.034337144 -0.011445715 2.003
0.038380954 -0.011514287 2.0150001
0.04221905 -0.011514287 2.0150001
0.04578286 -0.011445715 2.003
0.049598098 -0.011445715 2.003
0.053413335 -0.011445715 2.003
0.057228573 -0.011445715 2.003
0.06104381 -0.011445715 2.003
0.064859048 -0.011445715 2.003
0.068674289 -0.011445715 2.003
0.07248953 -0.011445715 2.003
0.076304764 -0.011445715 2.003
0.080600001 -0.011514287 2.0150001
0.0844381 -0.011514287 2.0150001
0.088276193 -0.011514287 2.0150001
0.092114292 -0.011514287 2.0150001
0.096523814 -0.011582858 2.0270002
0.10038476 -0.011582858 2.0270002
0.10424571 -0.011582858 2.0270002
0.10810667 -0.011582858 2.0270002
0.11196762 -0.011582858 2.0270002
0.11582857 -0.011582858 2.0270002
0.1203981 -0.011651429 2.039
0.12428191 -0.011651429 2.039
0.12816572 -0.011651429 2.039
0.13282667 -0.011720001 2.0510001
0.13753334 -0.011788572 2.0630002
0.14235429 -0.011862857 2.0760002
0.14630857 -0.011862857 2.0760002
0.15026286 -0.011862857 2.0760002
0.15607429 -0.012005715 2.1010001
0.1600762 -0.012005715 2.1010001
0.16813906 -0.012302858 2.1530001
0.17224 -0.012302858 2.1530001
0.18207429 -0.012702858 2.223
0.18630858 -0.012702858 2.223
0.19054286 -0.012702858 2.223
0.20126095 -0.013125715 2.2970002
0.2056362 -0.013125715 2.2970002
0.21001144 -0.013125715 2.2970002
0.24910668 -0.015251429 2.6690001
0.25419047 -0.015251429 2.6690001
0.2592743 -0.015251429 2.6690001
0.2643581 -0.015251429 2.6690001
0.2694419 -0.015251429 2.6690001
0.27452573 -0.015251429 2.6690001
0.27960953 -0.015251429 2.6690001
0.28256002 -0.015137143 2.6490002
0.28760573 -0.015137143 2.6490002
0.33949333 -0.017560001 3.0730002
0.34534669 -0.017560001 3.0730002
0.35120001 -0.017560001 3.0730002
0.35705334 -0.017560001 3.0730002
0.36290669 -0.017560001 3.0730002
0.36876002 -0.017560001 3.0730002
0.37461334 -0.017560001 3.0730002
0.37712383 -0.017405715 3.0460002
0.38632002 -0.017560001 3.0730002
0.39217335 -0.017560001 3.0730002
0.39802667 -0.017560001 3.0730002
0.40388 -0.017560001 3.0730002
0.40973336 -0.017560001 3.0730002
0.41558668 -0.017560001 3.0730002
0.41773716 -0.017405715 3.0460002
0.41978478 -0.01725143 3.0190001
0.42553526 -0.01725143 3.0190001
0.43128574 -0.01725143 3.0190001
0.43703622 -0.01725143 3.0190001
0.44278669 -0.01725143 3.0190001
0.44853717 -0.01725143 3.0190001
0.45428765 -0.01725143 3.0190001
0.46003813 -0.01725143 3.0190001
0.46177715 -0.017102858 2.993
0.46747813 -0.017102858 2.993
0.47317907 -0.017102858 2.993
0.47888002 -0.017102858 2.993
0.48458096 -0.017102858 2.993
0.49028191 -0.017102858 2.993
0.49598289 -0.017102858 2.993
0.50604194 -0.01725143 3.0190001
0.51179242 -0.01725143 3.0190001
0.5175429 -0.01725143 3.0190001
0.52329338 -0.01725143 3.0190001
0.52904385 -0.01725143 3.0190001
0.53479433 -0.01725143 3.0190001
0.54054481 -0.01725143 3.0190001
0.54629529 -0.01725143 3.0190001
0.55204576 -0.01725143 3.0190001
0.55779624 -0.01725143 3.0190001
0.56354672 -0.01725143 3.0190001
0.56929713 -0.01725143 3.0190001
0.57504761 -0.01725143 3.0190001
0.58079809 -0.01725143 3.0190001
0.58654857 -0.01725143 3.0190001
0.59229904 -0.01725143 3.0190001
0.59289908 -0.017102858 2.993
0.59860003 -0.017102858 2.993
0.60430098 -0.017102858 2.993
0.61000192 -0.017102858 2.993
0.6103543 -0.016954286 2.9670002
0.61600572 -0.016954286 2.9670002
0.61641908 -0.016811429 2.9420002
0.62202287 -0.016811429 2.9420002
0.62762672 -0.016811429 2.9420002
0.63323051 -0.016811429 2.9420002
0.6388343 -0.016811429 2.9420002
0.64443815 -0.016811429 2.9420002
0.65004194 -0.016811429 2.9420002
0.65564573 -0.016811429 2.9420002
0.66686857 -0.016954286 2.9670002
0.67252004 -0.016954286 2.9670002
0.67817146 -0.016954286 2.9670002
0.67806095 -0.016811429 2.9420002
0.6836648 -0.016811429 2.9420002
0.68926859 -0.016811429 2.9420002
0.69487238 -0.016811429 2.9420002
0.70047623 -0.016811429 2.9420002
0.70608002 -0.016811429 2.9420002
0.71168381 -0.016811429 2.9420002
0.71119243 -0.016668571 2.9170001
0.7167486 -0.016668571 2.9170001
0.72230476 -0.016668571 2.9170001
0.72786099 -0.016668571 2.9170001
0.73341715 -0.016668571 2.9170001
0.73897338 -0.016668571 2.9170001
0.75091052 -0.016811429 2.9420002
0.75651431 -0.016811429 2.9420002
0.7621181 -0.016811429 2.9420002
0.76772195 -0.016811429 2.9420002
0.77332574 -0.016811429 2.9420002
0.77892953 -0.016811429 2.9420002
0.78453338 -0.016811429 2.9420002
0.79013717 -0.016811429 2.9420002
0.79574096 -0.016811429 2.9420002
0.80134481 -0.016811429 2.9420002
0.8069486 -0.016811429 2.9420002
0.81255239 -0.016811429 2.9420002
0.81815624 -0.016811429 2.9420002
0.82376003 -0.016811429 2.9420002
0.82231623 -0.016668571 2.9170001
0.83496767 -0.016811429 2.9420002
0.82657146 -0.016531428 2.8930001
0.83208191 -0.016531428 2.8930001
0.83759242 -0.016531428 2.8930001
0.84310287 -0.016531428 2.8930001
-0.089853339 -0.0078133335 2.0510001
-0.085946672 -0.0078133335 2.0510001
-0.082040004 -0.0078133335 2.0510001
-0.078133337 -0.0078133335 2.0510001
-0.07422667 -0.0078133335 2.0510001
-0.069908574 -0.0077676196 2.039
-0.066024765 -0.0077676196 2.039
-0.062140957 -0.0077676196 2.039
-0.057914287 -0.0077219051 2.0270002
-0.054053336 -0.0077219051 2.0270002
-0.050192382 -0.0077219051 2.0270002
-0.046331432 -0.0077219051 2.0270002
-0.042470478 -0.0077219051 2.0270002
-0.038609527 -0.0077219051 2.0270002
-0.034748573 -0.0077219051 2.0270002
-0.030704763 -0.0076761907 2.0150001
-0.026866667 -0.0076761907 2.0150001
-0.02289143 -0.0076304763 2.003
-0.019190477 -0.0076761907 2.0150001
-0.015260953 -0.0076304763 2.003
-0.011445715 -0.0076304763 2.003
-0.0075885719 -0.0075885719 1.9920001
-0.0038152381 -0.0076304763 2.003
0 -0.0076304763 2.003
0.0038152381 -0.0076304763 2.003
0.0075885719 -0.0075885719 1.9920001
0.011382857 -0.0075885719 1.9920001
0.015260953 -0.0076304763 2.003
0.019076191 -0.0076304763 2.003
0.02289143 -0.0076304763 2.003
0.026560001 -0.0075885719 1.9920001
0.030354287 -0.0075885719 1.9920001
0.034337144 -0.0076304763 2.003
0.038152382 -0.0076304763 2.003
0.041967619 -0.0076304763 2.003
0.04578286 -0.0076304763 2.003
0.049325716 -0.0075885719 1.9920001
0.052800003 -0.0075428574 1.9800001
0.056571431 -0.0075428574 1.9800001
0.060342859 -0.0075428574 1.9800001
0.064114287 -0.0075428574 1.9800001
0.067885719 -0.0075428574 1.9800001
0.071657144 -0.0075428574 1.9800001
0.075428575 -0.0075428574 1.9800001
0.079680003 -0.0075885719 1.9920001
0.083474286 -0.0075885719 1.9920001
0.08775048 -0.0076304763 2.003
0.091565721 -0.0076304763 2.003
0.095380954 -0.0076304763 2.003
0.10038476 -0.0077219051 2.0270002
0.10424571 -0.0077219051 2.0270002
0.10810667 -0.0077219051 2.0270002
0.11196762 -0.0077219051 2.0270002
0.11582857 -0.0077219051 2.0270002
0.11968953 -0.0077219051 2.0270002
0.12428191 -0.0077676196 2.039
0.12816572 -0.0077676196 2.039
0.13282667 -0.0078133335 2.0510001
0.13673334 -0.0078133335 2.0510001
0.14146286 -0.0078590475 2.0630002
0.14630857 -0.0079085715 2.0760002
0.15113144 -0.0079542864 2.0880001
0.15510857 -0.0079542864 2.0880001
0.14506668 -0.0072533335 1.904
0.14791238 -0.0072152382 1.8940001
0.15232001 -0.0072533335 1.904
0.15766667 -0.0073333336 1.9250001
0.16133334 -0.0073333336 1.9250001
0.16594286 -0.0073752385 1.9360001
0.17059429 -0.0074171433 1.9470001
0.17430286 -0.0074171433 1.9470001
0.17801143 -0.0074171433 1.9470001
0.18172 -0.0074171433 1.9470001
0.25419047 -0.010167619 2.6690001
0.2592743 -0.010167619 2.6690001
0.2643581 -0.010167619 2.6690001
0.2694419 -0.010167619 2.6690001
0.27452573 -0.010167619 2.6690001
0.27751431 -0.010091429 2.6490002
0.28256002 -0.010091429 2.6490002
0.28760573 -0.010091429 2.6490002
0.34258667 -0.011813334 3.1010001
0.34534669 -0.011706667 3.0730002
0.35120001 -0.011706667 3.0730002
0.35705334 -0.011706667 3.0730002
0.36290669 -0.011706667 3.0730002
0.36876002 -0.011706667 3.0730002
0.37461334 -0.011706667 3.0730002
0.38046667 -0.011706667 3.0730002
0.38632002 -0.011706667 3.0730002
0.39217335 -0.011706667 3.0730002
0.39802667 -0.011706667 3.0730002
0.40388 -0.011706667 3.0730002
0.40973336 -0.011706667 3.0730002
0.41558668 -0.011706667 3.0730002
0.41773716 -0.01160381 3.0460002
0.42353907 -0.01160381 3.0460002
0.42934096 -0.01160381 3.0460002
0.43128574 -0.011500953 3.0190001
0.43703622 -0.011500953 3.0190001
0.44278669 -0.011500953 3.0190001
0.44853717 -0.011500953 3.0190001
0.45428765 -0.011500953 3.0190001
0.46003813 -0.011500953 3.0190001
0.4657886 -0.011500953 3.0190001
0.47153905 -0.011500953 3.0190001
0.47317907 -0.011401905 2.993
0.47888002 -0.011401905 2.993
0.48879048 -0.011500953 3.0190001
0.49454096 -0.011500953 3.0190001
0.50029147 -0.011500953 3.0190001
0.50604194 -0.011500953 3.0190001
0.51179242 -0.011500953 3.0190001
0.5175429 -0.011500953 3.0190001
0.52329338 -0.011500953 3.0190001
0.52904385 -0.011500953 3.0190001
0.53479433 -0.011500953 3.0190001
0.54054481 -0.011500953 3.0190001
0.54629529 -0.011500953 3.0190001
0.54729146 -0.011401905 2.993
0.5529924 -0.011401905 2.993
0.55869335 -0.011401905 2.993
0.5643943 -0.011401905 2.993
0.57504761 -0.011500953 3.0190001
0.57579619 -0.011401905 2.993
0.58149719 -0.011401905 2.993
0.58719814 -0.011401905 2.993
0.59289908 -0.011401905 2.993
0.59860003 -0.011401905 2.993
0.60430098 -0.011401905 2.993
0.60470289 -0.011302858 2.9670002
0.6103543 -0.011302858 2.9670002
0.61600572 -0.011302858 2.9670002
0.62165719 -0.011302858 2.9670002
0.62202287 -0.01120762 2.9420002
0.62762672 -0.01120762 2.9420002
0.63861144 -0.011302858 2.9670002
0.64426291 -0.011302858 2.9670002
0.64991432 -0.011302858 2.9670002
0.65556574 -0.011302858 2.9670002
0.66121715 -0.011302858 2.9670002
0.66686857 -0.011302858 2.9670002
0.67252004 -0.011302858 2.9670002
0.67817146 -0.011302858 2.9670002
0.67806095 -0.01120762 2.9420002
0.6836648 -0.01120762 2.9420002
0.68926859 -0.01120762 2.9420002
0.69487238 -0.01120762 2.9420002
0.70047623 -0.01120762 2.9420002
0.70608002 -0.01120762 2.9420002
0.71168381 -0.01120762 2.9420002
0.71728766 -0.01120762 2.9420002
0.72289145 -0.01120762 2.9420002
0.72849524 -0.01120762 2.9420002
0.72786099 -0.011112382 2.9170001
0.73341715 -0.011112382 2.9170001
0.73897338 -0.011112382 2.9170001
0.74452955 -0.011112382 2.9170001
0.75651431 -0.01120762 2.9420002
0.7621181 -0.01120762 2.9420002
0.7611981 -0.011112382 2.9170001
0.76675433 -0.011112382 2.9170001
0.7723105 -0.011112382 2.9170001
0.77786672 -0.011112382 2.9170001
0.78342289 -0.011112382 2.9170001
0.78897905 -0.011112382 2.9170001
0.79453528 -0.011112382 2.9170001
0.8069486 -0.01120762 2.9420002
0.81255239 -0.01120762 2.9420002
0.81815624 -0.01120762 2.9420002
0.82376003 -0.01120762 2.9420002
0.82936382 -0.01120762 2.9420002
0.83496767 -0.01120762 2.9420002
0.82657146 -0.011020953 2.8930001
0.83208191 -0.011020953 2.8930001
0.83759242 -0.011020953 2.8930001
0.84310287 -0.011020953 2.8930001
-0.089853339 -0.0039066668 2.0510001
-0.085946672 -0.0039066668 2.0510001
-0.082040004 -0.0039066668 2.0510001
-0.078133337 -0.0039066668 2.0510001
-0.07422667 -0.0039066668 2.0510001
-0.070320003 -0.0039066668 2.0510001
-0.066024765 -0.0038838098 2.039
-0.062140957 -0.0038838098 2.039
-0.057914287 -0.0038609526 2.0270002
-0.054053336 -0.0038609526 2.0270002
-0.050192382 -0.0038609526 2.0270002
-0.046057146 -0.0038380953 2.0150001
-0.04221905 -0.0038380953 2.0150001
-0.038609527 -0.0038609526 2.0270002
-0.034748573 -0.0038609526 2.0270002
-0.030704763 -0.0038380953 2.0150001
-0.026866667 -0.0038380953 2.0150001
-0.02289143 -0.0038152381 2.003
-0.019190477 -0.0038380953 2.0150001
-0.015260953 -0.0038152381 2.003
-0.011445715 -0.0038152381 2.003
-0.0075885719 -0.0037942859 1.9920001
-0.0037942859 -0.0037942859 1.9920001
0 -0.0037714287 1.9800001
0.0037714287 -0.0037714287 1.9800001
0.0075009526 -0.0037504763 1.9690001
0.011251429 -0.0037504763 1.9690001
0.015001905 -0.0037504763 1.9690001
0.018752381 -0.0037504763 1.9690001
0.022628572 -0.0037714287 1.9800001
0.026253335 -0.0037504763 1.9690001
0.03000381 -0.0037504763 1.9690001
0.033754285 -0.0037504763 1.9690001
0.037504762 -0.0037504763 1.9690001
0.041255239 -0.0037504763 1.9690001
0.045005716 -0.0037504763 1.9690001
0.048483811 -0.0037295239 1.9580001
0.05250667 -0.0037504763 1.9690001
0.056257144 -0.0037504763 1.9690001
0.060007621 -0.0037504763 1.9690001
0.064114287 -0.0037714287 1.9800001
0.067508571 -0.0037504763 1.9690001
0.070860952 -0.0037295239 1.9580001
0.075009525 -0.0037504763 1.9690001
0.0792 -0.0037714287 1.9800001
0.082971431 -0.0037714287 1.9800001
0.087268576 -0.0037942859 1.9920001
0.090514287 -0.0037714287 1.9800001
0.094857149 -0.0037942859 1.9920001
0.099196196 -0.0038152381 2.003
0.10301143 -0.0038152381 2.003
0.10682667 -0.0038152381 2.003
0.11064191 -0.0038152381 2.003
0.11382858 -0.0037942859 1.9920001
0.11827239 -0.0038152381 2.003
0.12355048 -0.0038609526 2.0270002
0.12741144 -0.0038609526 2.0270002
0.13204953 -0.0038838098 2.039
0.13673334 -0.0039066668 2.0510001
0.14235429 -0.0039542858 2.0760002
0.13566667 -0.0036666668 1.9250001
0.13933334 -0.0036666668 1.9250001
0.14144 -0.0036266667 1.904
0.14506668 -0.0036266667 1.904
0.14791238 -0.0036076191 1.8940001
0.15232001 -0.0036266667 1.904
0.15594667 -0.0036266667 1.904
0.16133334 -0.0036666668 1.9250001
0.16594286 -0.0036876192 1.9360001
0.16963048 -0.0036876192 1.9360001
0.17430286 -0.0037085717 1.9470001
0.17700572 -0.0036876192 1.9360001
0.18069334 -0.0036876192 1.9360001
0.18438096 -0.0036876192 1.9360001
0.18806858 -0.0036876192 1.9360001
0.19284572 -0.0037085717 1.9470001
0.19655429 -0.0037085717 1.9470001
0.19913143 -0.0036876192 1.9360001
0.20166667 -0.0036666668 1.9250001
0.20533334 -0.0036666668 1.9250001
0.28543431 -0.005007619 2.6290002
0.29044193 -0.005007619 2.6290002
0.34534669 -0.0058533335 3.0730002
0.35120001 -0.0058533335 3.0730002
0.35705334 -0.0058533335 3.0730002
0.36290669 -0.0058533335 3.0730002
0.23100001 -0.0036666668 1.9250001
0.23344763 -0.0036476192 1.9150001
0.23833334 -0.0036666668 1.9250001
0.24200001 -0.0036666668 1.9250001
0.24566668 -0.0036666668 1.9250001
0.39802667 -0.0058533335 3.0730002
0.40388 -0.0058533335 3.0730002
0.40973336 -0.0058533335 3.0730002
0.41558668 -0.0058533335 3.0730002
0.41773716 -0.0058019049 3.0460002
0.42353907 -0.0058019049 3.0460002
0.42934096 -0.0058019049 3.0460002
0.43128574 -0.0057504764 3.0190001
0.43703622 -0.0057504764 3.0190001
0.44278669 -0.0057504764 3.0190001
0.44853717 -0.0057504764 3.0190001
0.45428765 -0.0057504764 3.0190001
0.46003813 -0.0057504764 3.0190001
0.4657886 -0.0057504764 3.0190001
0.47153905 -0.0057504764 3.0190001
0.47728953 -0.0057504764 3.0190001
0.47888002 -0.0057009524 2.993
0.48458096 -0.0057009524 2.993
0.49028191 -0.0057009524 2.993
0.50029147 -0.0057504764 3.0190001
0.50604194 -0.0057504764 3.0190001
0.51179242 -0.0057504764 3.0190001
0.5175429 -0.0057504764 3.0190001
0.52329338 -0.0057504764 3.0190001
0.52904385 -0.0057504764 3.0190001
0.53479433 -0.0057504764 3.0190001
0.3428762 -0.0036476192 1.9150001
0.34652382 -0.0036476192 1.9150001
0.54729146 -0.0057009524 2.993
0.5529924 -0.0057009524 2.993
0.56354672 -0.0057504764 3.0190001
0.56929713 -0.0057504764 3.0190001
0.57504761 -0.0057504764 3.0190001
0.57579619 -0.0057009524 2.993
0.58149719 -0.0057009524 2.993
0.58719814 -0.0057009524 2.993
0.59289908 -0.0057009524 2.993
0.59860003 -0.0057009524 2.993
0.59905148 -0.0056514288 2.9670002
0.60470289 -0.0056514288 2.9670002
0.60521144 -0.0056038098 2.9420002
0.61600572 -0.0056514288 2.9670002
0.61641908 -0.0056038098 2.9420002
0.62202287 -0.0056038098 2.9420002
0.63296002 -0.0056514288 2.9670002
0.63861144 -0.0056514288 2.9670002
0.64426291 -0.0056514288 2.9670002
0.64991432 -0.0056514288 2.9670002
0.65556574 -0.0056514288 2.9670002
0.66121715 -0.0056514288 2.9670002
0.66124952 -0.0056038098 2.9420002
0.67252004 -0.0056514288 2.9670002
0.67245716 -0.0056038098 2.9420002
0.67806095 -0.0056038098 2.9420002
0.6836648 -0.0056038098 2.9420002
0.68926859 -0.0056038098 2.9420002
0.69487238 -0.0056038098 2.9420002
0.70047623 -0.0056038098 2.9420002
0.70608002 -0.0056038098 2.9420002
0.71168381 -0.0056038098 2.9420002
0.71728766 -0.0056038098 2.9420002
0.72289145 -0.0056038098 2.9420002
0.72230476 -0.0055561909 2.9170001
0.72786099 -0.0055561909 2.9170001
0.73341715 -0.0055561909 2.9170001
0.73897338 -0.0055561909 2.9170001
0.74452955 -0.0055561909 2.9170001
0.75008577 -0.0055561909 2.9170001
0.75564194 -0.0055561909 2.9170001
0.7611981 -0.0055561909 2.9170001
0.76675433 -0.0055561909 2.9170001
0.7723105 -0.0055561909 2.9170001
0.49680001 -0.0035485716 1.863
0.50034857 -0.0035485716 1.863
0.50389719 -0.0035485716 1.863
0.50744575 -0.0035485716 1.863
0.8069486 -0.0056038098 2.9420002
0.81255239 -0.0056038098 2.9420002
0.82510859 -0.0056514288 2.9670002
0.83076 -0.0056514288 2.9670002
0.82936382 -0.0056038098 2.9420002
0.83496767 -0.0056038098 2.9420002
0.82657146 -0.0055104764 2.8930001
0.83208191 -0.0055104764 2.8930001
0.83759242 -0.0055104764 2.8930001
0.84310287 -0.0055104764 2.8930001
0.84861338 -0.0055104764 2.8930001
-0.089853339 0 2.0510001
-0.085946672 0 2.0510001
-0.082040004 0 2.0510001
-0.078133337 0 2.0510001
-0.07422667 0 2.0510001
-0.070320003 0 2.0510001
-0.066024765 0 2.039
-0.062140957 0 2.039
-0.058257144 0 2.039
-0.054053336 0 2.0270002
-0.050192382 0 2.0270002
-0.046057146 0 2.0150001
-0.04221905 0 2.0150001
-0.038380954 0 2.0150001
-0.034542859 0 2.0150001
-0.030354287 0 1.9920001
-0.026560001 0 1.9920001
-0.022765715 0 1.9920001
-0.01897143 0 1.9920001
-0.015177144 0 1.9920001
-0.011382857 0 1.9920001
-0.0075009526 0 1.9690001
-0.0037714287 0 1.9800001
0 0 1.9690001
0.0037504763 0 1.9690001
0.0074590477 0 1.9580001
0.011188572 0 1.9580001
0.014918095 0 1.9580001
0.01864762 0 1.9580001
0.022377145 0 1.9580001
0.026106667 0 1.9580001
0.029836191 0 1.9580001
0.033565715 0 1.9580001
0.037085716 0 1.9470001
0.041024763 0 1.9580001
0.044754289 0 1.9580001
0.048211429 0 1.9470001
0.05192 0 1.9470001
0.055628572 0 1.9470001
0.059672382 0 1.9580001
0.063401908 0 1.9580001
0.06713143 0 1.9580001
0.070860952 0 1.9580001
0.074171431 0 1.9470001
0.078320004 0 1.9580001
0.082049526 0 1.9580001
0.086260952 0 1.9690001
0.089508578 0 1.9580001
0.093761906 0 1.9690001
0.097512387 0 1.9690001
0.10182858 0 1.9800001
0.10501334 0 1.9690001
0.10937143 0 1.9800001
0.11251429 0 1.9690001
0.11626477 0 1.9690001
0.11934476 0 1.9580001
0.12307429 0 1.9580001
0.12609144 0 1.9470001
0.12906668 0 1.9360001
0.1327543 0 1.9360001
0.13566667 0 1.9250001
0.13933334 0 1.9250001
0.14144 0 1.904
0.14506668 0 1.904
0.14791238 0 1.8940001
0.15232001 0 1.904
0.15594667 0 1.904
0.16133334 0 1.9250001
0.16594286 0 1.9360001
0.16963048 0 1.9360001
0.1733181 0 1.9360001
0.17700572 0 1.9360001
0.17966667 0 1.9250001
0.18438096 0 1.9360001
0.18700001 0 1.9250001
0.19066668 0 1.9250001
0.19433334 0 1.9250001
0.19697143 0 1.9150001
0.20166667 0 1.9250001
0.20650667 0 1.9360001
0.20791429 0 1.9150001
0.21266668 0 1.9250001
0.21633334 0 1.9250001
0.22000001 0 1.9250001
0.22366667 0 1.9250001
0.22733334 0 1.9250001
0.22980002 0 1.9150001
0.23344763 0 1.9150001
0.23709525 0 1.9150001
0.24074286 0 1.9150001
0.24439049 0 1.9150001
0.2480381 0 1.9150001
0.25024 0 1.904
0.25386667 0 1.904
0.25749335 0 1.904
0.26112002 0 1.904
0.26474667 0 1.904
0.26837334 0 1.904
0.27200001 0 1.904
0.27562669 0 1.904
0.27925333 0 1.904
0.28451431 0 1.9150001
0.28650668 0 1.904
0.29013336 0 1.904
0.4657886 0 3.0190001
0.29738668 0 1.904
0.30101335 0 1.904
0.30464002 0 1.904
0.48879048 0 3.0190001
0.49028191 0 2.993
0.50029147 0 3.0190001
0.31914669 0 1.904
0.32277334 0 1.904
0.32640001 0 1.904
0.33002669 0 1.904
0.33365333 0 1.904
0.33728001 0 1.904
0.34090668 0 1.904
0.34453335 0 1.904
0.34633145 0 1.8940001
0.34993905 0 1.8940001
0.56354672 0 3.0190001
0.56929713 0 3.0190001
0.57504761 0 3.0190001
0.36629334 0 1.904
0.36797714 0 1.8940001
0.37354669 0 1.904
0.3751924 0 1.8940001
0.3788 0 1.8940001
0.38240764 0 1.8940001
0.38601527 0 1.8940001
0.38736001 0 1.8830001
0.39094669 0 1.8830001
0.61641908 0 2.9420002
0.39812002 0 1.8830001
0.4017067 0 1.8830001
0.40529335 0 1.8830001
0.64426291 0 2.9670002
0.40808573 0 1.863
0.4116343 0 1.863
0.41518286 0 1.863
0.41873145 0 1.863
0.42228001 0 1.863
0.67245716 0 2.9420002
0.42937717 0 1.863
0.43292573 0 1.863
0.43647429 0 1.863
0.44002289 0 1.863
0.44119048 0 1.853
0.44712001 0 1.863
0.44824955 0 1.853
0.45177907 0 1.853
0.45776573 0 1.863
0.46131429 0 1.863
0.46486288 0 1.863
0.73341715 0 2.9170001
0.73897338 0 2.9170001
0.4755086 0 1.863
0.47905716 0 1.863
0.48260573 0 1.863
0.48615432 0 1.863
0.48970288 0 1.863
0.49325144 0 1.863
0.49680001 0 1.863
0.50034857 0 1.863
0.50389719 0 1.863
0.50744575 0 1.863
0.51099432 0 1.863
0.51454288 0 1.863
0.51531047 0 1.853
0.51884001 0 1.853
0.52236956 0 1.853
0.52589905 0 1.853
0.5294286 0 1.853
0.53295809 0 1.853
0.53648764 0 1.853
0.54001719 0 1.853
0.54354668 0 1.853
0.54707623 0 1.853
0.55060571 0 1.853
0.55114478 0 1.8430001
0.55465525 0 1.8430001
0.55816573 0 1.8430001
0.5616762 0 1.8430001
-0.085946672 0.0039066668 2.0510001
-0.081080005 0.0038609526 2.0270002
-0.077219054 0.0038609526 2.0270002
-0.072923809 0.0038380953 2.0150001
-0.069085717 0.0038380953 2.0150001
-0.065247625 0.0038380953 2.0150001
-0.061409526 0.0038380953 2.0150001
-0.057228573 0.0038152381 2.003
-0.053413335 0.0038152381 2.003
-0.049325716 0.0037942859 1.9920001
-0.045531429 0.0037942859 1.9920001
-0.041737143 0.0037942859 1.9920001
-0.03794286 0.0037942859 1.9920001
-0.03394286 0.0037714287 1.9800001
-0.03000381 0.0037504763 1.9690001
-0.026253335 0.0037504763 1.9690001
-0.022502858 0.0037504763 1.9690001
-0.018857144 0.0037714287 1.9800001
-0.015001905 0.0037504763 1.9690001
-0.011251429 0.0037504763 1.9690001
-0.0074590477 0.0037295239 1.9580001
-0.0037295239 0.0037295239 1.9580001
0 0.0037295239 1.9580001
0.0037295239 0.0037295239 1.9580001
0.0074590477 0.0037295239 1.9580001
0.011125715 0.0037085717 1.9470001
0.014834287 0.0037085717 1.9470001
0.018542858 0.0037085717 1.9470001
0.022377145 0.0037295239 1.9580001
0.02596 0.0037085717 1.9470001
0.029668573 0.0037085717 1.9470001
0.033377144 0.0037085717 1.9470001
0.037085716 0.0037085717 1.9470001
0.040794287 0.0037085717 1.9470001
0.044502858 0.0037085717 1.9470001
0.048211429 0.0037085717 1.9470001
0.051626667 0.0036876192 1.9360001
0.055314288 0.0036876192 1.9360001
0.059001908 0.0036876192 1.9360001
0.063045718 0.0037085717 1.9470001
0.066754289 0.0037085717 1.9470001
0.070064768 0.0036876192 1.9360001
0.074171431 0.0037085717 1.9470001
0.077880003 0.0037085717 1.9470001
0.081588574 0.0037085717 1.9470001
0.085779049 0.0037295239 1.9580001
0.089508578 0.0037295239 1.9580001
0.0932381 0.0037295239 1.9580001
0.096967623 0.0037295239 1.9580001
0.10069714 0.0037295239 1.9580001
0.10442667 0.0037295239 1.9580001
0.1081562 0.0037295239 1.9580001
0.11188572 0.0037295239 1.9580001
0.11496572 0.0037085717 1.9470001
0.11867429 0.0037085717 1.9470001
0.12169144 0.0036876192 1.9360001
0.12537906 0.0036876192 1.9360001
0.12833335 0.0036666668 1.9250001
0.1327543 0.0036876192 1.9360001
0.13566667 0.0036666668 1.9250001
0.13933334 0.0036666668 1.9250001
0.14225715 0.0036476192 1.9150001
0.14590476 0.0036476192 1.9150001
0.14869334 0.0036266667 1.904
0.1532 0.0036476192 1.9150001
0.15594667 0.0036266667 1.904
0.15957335 0.0036266667 1.904
0.16500001 0.0036666668 1.9250001
0.16866668 0.0036666668 1.9250001
0.17233334 0.0036666668 1.9250001
0.176 0.0036666668 1.9250001
0.17966667 0.0036666668 1.9250001
0.18333334 0.0036666668 1.9250001
0.18700001 0.0036666668 1.9250001
0.19066668 0.0036666668 1.9250001
0.19433334 0.0036666668 1.9250001
0.19800001 0.0036666668 1.9250001
0.20166667 0.0036666668 1.9250001
0.20533334 0.0036666668 1.9250001
0.20791429 0.0036476192 1.9150001
0.21266668 0.0036666668 1.9250001
0.21633334 0.0036666668 1.9250001
0.22000001 0.0036666668 1.9250001
0.22366667 0.0036666668 1.9250001
0.22733334 0.0036666668 1.9250001
0.23100001 0.0036666668 1.9250001
0.23344763 0.0036476192 1.9150001
0.23709525 0.0036476192 1.9150001
0.24074286 0.0036476192 1.9150001
0.24439049 0.0036476192 1.9150001
0.2480381 0.0036476192 1.9150001
0.25024 0.0036266667 1.904
0.25386667 0.0036266667 1.904
0.25749335 0.0036266667 1.904
0.26112002 0.0036266667 1.904
0.26474667 0.0036266667 1.904
0.26837334 0.0036266667 1.904
0.27200001 0.0036266667 1.904
0.27562669 0.0036266667 1.904
0.28086668 0.0036476192 1.9150001
0.28451431 0.0036476192 1.9150001
0.28650668 0.0036266667 1.904
0.29013336 0.0036266667 1.904
0.29376 0.0036266667 1.904
0.29738668 0.0036266667 1.904
0.30101335 0.0036266667 1.904
0.30464002 0.0036266667 1.904
0.30826667 0.0036266667 1.904
0.31189334 0.0036266667 1.904
0.31552002 0.0036266667 1.904
0.31914669 0.0036266667 1.904
0.32277334 0.0036266667 1.904
0.32468572 0.0036076191 1.8940001
0.32829335 0.0036076191 1.8940001
0.33190095 0.0036076191 1.8940001
0.33550858 0.0036076191 1.8940001
0.33911622 0.0036076191 1.8940001
0.34272382 0.0036076191 1.8940001
0.34633145 0.0036076191 1.8940001
0.34993905 0.0036076191 1.8940001
0.35354668 0.0036076191 1.8940001
0.35715431 0.0036076191 1.8940001
0.36076191 0.0036076191 1.8940001
0.36436954 0.0036076191 1.8940001
0.36797714 0.0036076191 1.8940001
0.37158477 0.0036076191 1.8940001
0.3751924 0.0036076191 1.8940001
0.3788 0.0036076191 1.8940001
0.37816763 0.0035676192 1.8730001
0.38173527 0.0035676192 1.8730001
0.38530287 0.0035676192 1.8730001
0.38887048 0.0035676192 1.8730001
0.39243811 0.0035676192 1.8730001
0.39600572 0.0035676192 1.8730001
0.39957336 0.0035676192 1.8730001
0.40098858 0.0035485716 1.863
0.40453717 0.0035485716 1.863
0.4102762 0.0035676192 1.8730001
0.4116343 0.0035485716 1.863
0.41741145 0.0035676192 1.8730001
0.41873145 0.0035485716 1.863
0.42228001 0.0035485716 1.863
0.42582858 0.0035485716 1.863
0.42937717 0.0035485716 1.863
0.43292573 0.0035485716 1.863
0.43647429 0.0035485716 1.863
0.44002289 0.0035485716 1.863
0.44357145 0.0035485716 1.863
0.44712001 0.0035485716 1.863
0.45066857 0.0035485716 1.863
0.45421717 0.0035485716 1.863
0.45776573 0.0035485716 1.863
0.46131429 0.0035485716 1.863
0.46486288 0.0035485716 1.863
0.46841145 0.0035485716 1.863
0.47196001 0.0035485716 1.863
0.4755086 0.0035485716 1.863
0.47905716 0.0035485716 1.863
0.48260573 0.0035485716 1.863
0.48615432 0.0035485716 1.863
0.48970288 0.0035485716 1.863
0.49325144 0.0035485716 1.863
0.49680001 0.0035485716 1.863
0.50034857 0.0035485716 1.863
0.50119239 0.003529524 1.853
0.50472194 0.003529524 1.853
0.51099432 0.0035485716 1.863
0.51178098 0.003529524 1.853
0.51531047 0.003529524 1.853
0.51884001 0.003529524 1.853
0.5195505 0.0035104763 1.8430001
0.52589905 0.003529524 1.853
0.5294286 0.003529524 1.853
0.53295809 0.003529524 1.853
0.53648764 0.003529524 1.853
0.54001719 0.003529524 1.853
0.54354668 0.003529524 1.853
0.54707623 0.003529524 1.853
0.5476343 0.0035104763 1.8430001
0.55114478 0.0035104763 1.8430001
0.55465525 0.0035104763 1.8430001
0.55513716 0.0034914287 1.8330001
0.55862862 0.0034914287 1.8330001
0.55936003 0.0034742858 1.8240001
0.56283432 0.0034742858 1.8240001
0.56630862 0.0034742858 1.8240001
0.57957715 0.0034914287 1.8330001
0.58306861 0.0034914287 1.8330001
0.58656001 0.0034914287 1.8330001
0.59005147 0.0034914287 1.8330001
0.59354287 0.0034914287 1.8330001
0.60029143 0.0035104763 1.8430001
0.60052574 0.0034914287 1.8330001
0.60731238 0.0035104763 1.8430001
0.61082286 0.0035104763 1.8430001
0.61433333 0.0035104763 1.8430001
-0.083474286 0.0075885719 1.9920001
-0.079680003 0.0075885719 1.9920001
-0.075885721 0.0075885719 1.9920001
-0.071657144 0.0075428574 1.9800001
-0.067885719 0.0075428574 1.9800001
-0.064114287 0.0075428574 1.9800001
-0.060342859 0.0075428574 1.9800001
-0.056571431 0.0075428574 1.9800001
-0.05250667 0.0075009526 1.9690001
-0.048756193 0.0075009526 1.9690001
-0.045005716 0.0075009526 1.9690001
-0.041485716 0.0075428574 1.9800001
-0.037714288 0.0075428574 1.9800001
-0.033754285 0.0075009526 1.9690001
-0.029836191 0.0074590477 1.9580001
-0.026106667 0.0074590477 1.9580001
-0.022377145 0.0074590477 1.9580001
-0.01864762 0.0074590477 1.9580001
-0.014918095 0.0074590477 1.9580001
-0.011188572 0.0074590477 1.9580001
-0.0074590477 0.0074590477 1.9580001
-0.0037085717 0.0074171433 1.9470001
0 0.0074171433 1.9470001
0.0037085717 0.0074171433 1.9470001
0.0074171433 0.0074171433 1.9470001
0.011125715 0.0074171433 1.9470001
0.014834287 0.0074171433 1.9470001
0.018542858 0.0074171433 1.9470001
0.022251429 0.0074171433 1.9470001
0.02596 0.0074171433 1.9470001
0.029668573 0.0074171433 1.9470001
0.033377144 0.0074171433 1.9470001
0.037085716 0.0074171433 1.9470001
0.040794287 0.0074171433 1.9470001
0.044502858 0.0074171433 1.9470001
0.047939051 0.0073752385 1.9360001
0.051626667 0.0073752385 1.9360001
0.055314288 0.0073752385 1.9360001
0.059001908 0.0073752385 1.9360001
0.062689528 0.0073752385 1.9360001
0.066377148 0.0073752385 1.9360001
0.070064768 0.0073752385 1.9360001
0.073752381 0.0073752385 1.9360001
0.077880003 0.0074171433 1.9470001
0.081588574 0.0074171433 1.9470001
0.085297145 0.0074171433 1.9470001
0.089005716 0.0074171433 1.9470001
0.092714287 0.0074171433 1.9470001
0.096422859 0.0074171433 1.9470001
0.10013143 0.0074171433 1.9470001
0.10384 0.0074171433 1.9470001
0.10754857 0.0074171433 1.9470001
0.11125714 0.0074171433 1.9470001
0.1143162 0.0073752385 1.9360001
0.11800382 0.0073752385 1.9360001
0.12169144 0.0073752385 1.9360001
0.12466667 0.0073333336 1.9250001
0.12833335 0.0073333336 1.9250001
0.132 0.0073333336 1.9250001
0.13566667 0.0073333336 1.9250001
0.13933334 0.0073333336 1.9250001
0.14225715 0.0072952383 1.9150001
0.14590476 0.0072952383 1.9150001
0.14869334 0.0072533335 1.904
0.1532 0.0072952383 1.9150001
0.15594667 0.0072533335 1.904
0.15957335 0.0072533335 1.904
