# .PCD v0.7 - Point Cloud Data file format
VERSION 0.7
FIELDS x y z
SIZE 4 4 4
TYPE F F F
COUNT 1 1 1
WIDTH 1540
HEIGHT 1
VIEWPOINT 0 0 0 1 0 0 0
POINTS 1540
DATA ascii
0.65996957 0.31243238 1.8430001
0.66708004 0.31412762 1.853
0.6814667 0.31921333 1.8830001
0.68505335 0.31921333 1.8830001
0.69266289 0.32107812 1.8940001
0.6999467 0.32277334 1.904
0.70763814 0.3246381 1.9150001
0.73542857 0.33565715 1.9800001
0.74368 0.33769143 1.9920001
0.75160193 0.33955622 2.003
0.75994289 0.34159049 2.0150001
0.77287811 0.34565905 2.039
0.78133339 0.34769335 2.0510001
0.78983432 0.34972763 2.0630002
0.79876572 0.35193145 2.0760002
0.80272001 0.35193145 2.0760002
0.81133717 0.35396573 2.0880001
0.82039052 0.35616955 2.1010001
0.82949334 0.35837334 2.1140001
0.83352005 0.35837334 2.1140001
0.8426972 0.36057717 2.1270001
0.84674859 0.36057717 2.1270001
0.85600001 0.36278096 2.1400001
0.86530101 0.36498478 2.1530001
0.86940193 0.36498478 2.1530001
0.87350291 0.36498478 2.1530001
0.8833105 0.36735812 2.1670001
0.88743812 0.36735812 2.1670001
0.89732575 0.36973146 2.181
0.90148002 0.36973146 2.181
0.91103244 0.37193525 2.194
0.92105144 0.37430859 2.2080002
0.93154287 0.37685144 2.223
0.94167054 0.37922478 2.237
0.95819432 0.38414097 2.266
0.96888196 0.38668382 2.2810001
0.97322673 0.38668382 2.2810001
0.98442858 0.38939619 2.2970002
0.98880386 0.38939619 2.2970002
0.99966478 0.39193907 2.312
1.0175315 0.3971943 2.3430002
1.0289733 0.39990669 2.3590002
1.0334667 0.39990669 2.3590002
1.0379601 0.39990669 2.3590002
1.0499657 0.40278858 2.3760002
1.0615925 0.40550098 2.3920002
1.0661486 0.40550098 2.3920002
1.0783143 0.40838286 2.4090002
1.1058286 0.41702858 2.46
1.1105143 0.41702858 2.46
1.1152 0.41702858 2.46
1.1198858 0.41702858 2.46
1.1245714 0.41702858 2.46
1.1457829 0.42313144 2.4960001
1.1505371 0.42313144 2.4960001
1.1552914 0.42313144 2.4960001
1.1600457 0.42313144 2.4960001
-0.2456381 0.34542859 2.0150001
-0.24180001 0.34542859 2.0150001
-0.23796192 0.34542859 2.0150001
-0.23272954 0.34337145 2.003
-0.22891429 0.34337145 2.003
-0.22386287 0.34148574 1.9920001
-0.22006857 0.34148574 1.9920001
-0.21497144 0.33942857 1.9800001
-0.21120001 0.33942857 1.9800001
-0.20742857 0.33942857 1.9800001
-0.20252572 0.33754286 1.9690001
-0.19877525 0.33754286 1.9690001
-0.19502477 0.33754286 1.9690001
-0.19127429 0.33754286 1.9690001
-0.18752381 0.33754286 1.9690001
-0.18274668 0.33565715 1.9580001
-0.17901716 0.33565715 1.9580001
-0.17528762 0.33565715 1.9580001
-0.1715581 0.33565715 1.9580001
-0.16782857 0.33565715 1.9580001
-0.16317715 0.33377144 1.9470001
-0.15946858 0.33377144 1.9470001
-0.15488 0.33188573 1.9360001
-0.15119238 0.33188573 1.9360001
-0.14750476 0.33188573 1.9360001
-0.14300001 0.33000001 1.9250001
-0.13933334 0.33000001 1.9250001
-0.13566667 0.33000001 1.9250001
-0.132 0.33000001 1.9250001
-0.12766667 0.32828572 1.9150001
-0.12401905 0.32828572 1.9150001
-0.12037143 0.32828572 1.9150001
-0.11605334 0.32640001 1.904
-0.11242667 0.32640001 1.904
-0.10822857 0.32468572 1.8940001
-0.10462096 0.32468572 1.8940001
-0.10101334 0.32468572 1.8940001
-0.097405717 0.32468572 1.8940001
-0.093798101 0.32468572 1.8940001
-0.089666672 0.32280001 1.8830001
-0.08608 0.32280001 1.8830001
-0.082493335 0.32280001 1.8830001
-0.07890667 0.32280001 1.8830001
-0.075320005 0.32280001 1.8830001
-0.071352385 0.32108572 1.8730001
-0.067784764 0.32108572 1.8730001
-0.064217143 0.32108572 1.8730001
-0.060325716 0.31937143 1.863
-0.056472383 0.31765714 1.853
-0.052942861 0.31765714 1.853
-0.049413335 0.31765714 1.853
-0.045883812 0.31765714 1.853
-0.042354286 0.31765714 1.853
-0.038824763 0.31765714 1.853
-0.035104763 0.31594288 1.8430001
-0.031422857 0.31422859 1.8330001
-0.027931429 0.31422859 1.8330001
-0.024440002 0.31422859 1.8330001
-0.020948572 0.31422859 1.8330001
-0.017457144 0.31422859 1.8330001
-0.013897143 0.31268573 1.8240001
-0.010422857 0.31268573 1.8240001
-0.0069485717 0.31268573 1.8240001
-0.0034742858 0.31268573 1.8240001
0 0.31097144 1.8140001
0.0034361905 0.30925715 1.8040001
0.0068723811 0.30925715 1.8040001
0.010308572 0.30925715 1.8040001
0.013676191 0.30771428 1.7950001
0.017095238 0.30771428 1.7950001
0.020514287 0.30771428 1.7950001
0.023933334 0.30771428 1.7950001
0.027352381 0.30771428 1.7950001
0.030617144 0.30617145 1.7860001
0.034019049 0.30617145 1.7860001
0.037420955 0.30617145 1.7860001
0.04082286 0.30617145 1.7860001
0.044001907 0.30462858 1.7770001
0.047386669 0.30462858 1.7770001
0.050514288 0.30308571 1.7680001
0.053881906 0.30308571 1.7680001
0.057249527 0.30308571 1.7680001
0.060617145 0.30308571 1.7680001
0.06365905 0.30154288 1.7590001
0.067009524 0.30154288 1.7590001
0.070360005 0.30154288 1.7590001
0.073710479 0.30154288 1.7590001
0.076666668 0.30000001 1.7500001
0.080000006 0.30000001 1.7500001
0.083333336 0.30000001 1.7500001
0.086666673 0.30000001 1.7500001
0.089537144 0.29845715 1.7410001
0.092373334 0.29691431 1.7320001
0.095672384 0.29691431 1.7320001
0.098971434 0.29691431 1.7320001
0.10173905 0.29537144 1.723
0.10502096 0.29537144 1.723
0.10830286 0.29537144 1.723
0.11158477 0.29537144 1.723
0.11486667 0.29537144 1.723
0.11814857 0.29537144 1.723
0.12143048 0.29537144 1.723
0.12413334 0.294 1.715
0.12740001 0.294 1.715
0.12998095 0.29245716 1.7060001
0.13323048 0.29245716 1.7060001
0.13584 0.29108572 1.6980001
0.1390743 0.29108572 1.6980001
0.14230858 0.29108572 1.6980001
0.14485715 0.28971431 1.6900001
0.14807619 0.28971431 1.6900001
0.15129524 0.28971431 1.6900001
0.1545143 0.28971431 1.6900001
0.15689334 0.28817144 1.6810001
0.16009524 0.28817144 1.6810001
0.16329715 0.28817144 1.6810001
0.16649905 0.28817144 1.6810001
0.16970097 0.28817144 1.6810001
0.17290287 0.28817144 1.6810001
0.17526667 0.2868 1.6730001
0.17760001 0.28542858 1.6650001
0.18077144 0.28542858 1.6650001
0.18305905 0.28405714 1.6570001
0.18621525 0.28405714 1.6570001
0.18937144 0.28405714 1.6570001
0.1915981 0.28268573 1.649
0.19473906 0.28268573 1.649
0.19788 0.28268573 1.649
0.20102096 0.28268573 1.649
0.20416191 0.28268573 1.649
0.20629714 0.28131428 1.641
0.20942287 0.28131428 1.641
0.21254858 0.28131428 1.641
0.2156743 0.28131428 1.641
0.2168 0.27874288 1.626
0.21989715 0.27874288 1.626
0.22189716 0.27737144 1.618
0.22497906 0.27737144 1.618
0.22806096 0.27737144 1.618
0.23114286 0.27737144 1.618
0.23422477 0.27737144 1.618
0.23730667 0.27737144 1.618
0.23934858 0.27617145 1.6110001
0.24241716 0.27617145 1.6110001
0.24548572 0.27617145 1.6110001
0.24732001 0.2748 1.603
0.25037333 0.2748 1.603
0.25342667 0.2748 1.603
0.25536001 0.27360001 1.5960001
0.25840002 0.27360001 1.5960001
0.26144001 0.27360001 1.5960001
0.26332 0.27240002 1.5890001
0.26634666 0.27240002 1.5890001
0.26937336 0.27240002 1.5890001
0.27240002 0.27240002 1.5890001
0.27404001 0.27102858 1.5810001
0.27705145 0.27102858 1.5810001
0.28006285 0.27102858 1.5810001
0.28307429 0.27102858 1.5810001
0.28608572 0.27102858 1.5810001
0.28781715 0.26982859 1.5740001
0.29081523 0.26982859 1.5740001
0.29250666 0.26862857 1.567
0.29549143 0.26862857 1.567
0.29714286 0.26742858 1.5600001
0.3001143 0.26742858 1.5600001
0.30308571 0.26742858 1.5600001
0.30605716 0.26742858 1.5600001
0.30764192 0.26622859 1.5530001
0.31200001 0.26742858 1.5600001
0.31497145 0.26742858 1.5600001
0.31794286 0.26742858 1.5600001
0.31947431 0.26622859 1.5530001
0.3224324 0.26622859 1.5530001
0.32539049 0.26622859 1.5530001
0.32538858 0.26382858 1.539
0.32832003 0.26382858 1.539
0.33125144 0.26382858 1.539
0.33418286 0.26382858 1.539
0.33558097 0.26262859 1.5320001
0.33849907 0.26262859 1.5320001
0.34141716 0.26262859 1.5320001
0.34433526 0.26262859 1.5320001
0.34725335 0.26262859 1.5320001
0.35017145 0.26262859 1.5320001
0.35308954 0.26262859 1.5320001
0.35600764 0.26262859 1.5320001
0.35892573 0.26262859 1.5320001
0.36349717 0.26382858 1.539
0.36642858 0.26382858 1.539
0.36936 0.26382858 1.539
0.37229145 0.26382858 1.539
0.37863621 0.26622859 1.5530001
0.38331431 0.26742858 1.5600001
0.38628572 0.26742858 1.5600001
0.3927505 0.26982859 1.5740001
0.39574859 0.26982859 1.5740001
0.40052003 0.27102858 1.5810001
0.40353143 0.27102858 1.5810001
0.40654287 0.27102858 1.5810001
0.4095543 0.27102858 1.5810001
0.41073906 0.26982859 1.5740001
0.41373715 0.26982859 1.5740001
0.41488191 0.26862857 1.567
0.41786668 0.26862857 1.567
0.42085144 0.26862857 1.567
0.42572954 0.26982859 1.5740001
0.42872763 0.26982859 1.5740001
0.43364573 0.27102858 1.5810001
0.43665716 0.27102858 1.5810001
0.4396686 0.27102858 1.5810001
0.44492 0.27240002 1.5890001
0.4479467 0.27240002 1.5890001
0.4549467 0.2748 1.603
0.458 0.2748 1.603
0.46105334 0.2748 1.603
0.46642289 0.27617145 1.6110001
0.47153145 0.27737144 1.618
0.47461334 0.27737144 1.618
0.47769526 0.27737144 1.618
0.48553145 0.28011429 1.6340001
0.48864383 0.28011429 1.6340001
0.49627051 0.28268573 1.649
0.49941143 0.28268573 1.649
0.50499052 0.28405714 1.6570001
0.51060003 0.28542858 1.6650001
0.51377147 0.28542858 1.6650001
0.51694286 0.28542858 1.6650001
0.52261335 0.2868 1.6730001
0.52579999 0.2868 1.6730001
0.53151619 0.28817144 1.6810001
0.53758097 0.28971431 1.6900001
0.54335999 0.29108572 1.6980001
0.54659432 0.29108572 1.6980001
0.55241907 0.29245716 1.7060001
0.55566859 0.29245716 1.7060001
0.5618667 0.294 1.715
0.56776953 0.29537144 1.723
0.57403433 0.29691431 1.7320001
0.57733333 0.29691431 1.7320001
0.58364952 0.29845715 1.7410001
0.59000003 0.30000001 1.7500001
0.59638476 0.30154288 1.7590001
0.60587239 0.30462858 1.7770001
0.61234289 0.30617145 1.7860001
0.61574477 0.30617145 1.7860001
0.62226671 0.30771428 1.7950001
0.62882286 0.30925715 1.8040001
0.63576382 0.31097144 1.8140001
0.64274287 0.31268573 1.8240001
0.64940572 0.31422859 1.8330001
0.65645909 0.31594288 1.8430001
0.65996957 0.31594288 1.8430001
0.66708004 0.31765714 1.853
0.6814667 0.32280001 1.8830001
0.68905526 0.32468572 1.8940001
0.69632 0.32640001 1.904
0.7076667 0.33000001 1.9250001
0.71539813 0.33188573 1.9360001
0.74397147 0.34337145 2.003
0.7477867 0.34337145 2.003
0.75610477 0.34542859 2.0150001
0.76899433 0.34954286 2.039
0.77287811 0.34954286 2.039
0.78133339 0.35160002 2.0510001
0.78983432 0.35365716 2.0630002
0.79876572 0.35588571 2.0760002
0.80272001 0.35588571 2.0760002
0.81133717 0.35794288 2.0880001
0.82039052 0.36017144 2.1010001
0.82949334 0.36240003 2.1140001
0.83864576 0.36462858 2.1270001
0.8426972 0.36462858 2.1270001
0.84674859 0.36462858 2.1270001
0.85600001 0.36685717 2.1400001
0.86530101 0.36908573 2.1530001
0.86940193 0.36908573 2.1530001
0.87350291 0.36908573 2.1530001
0.8833105 0.37148574 2.1670001
0.88743812 0.37148574 2.1670001
0.89732575 0.37388572 2.181
0.90685338 0.37611431 2.194
0.91103244 0.37611431 2.194
0.92730862 0.38108572 2.223
0.93740958 0.38348573 2.237
0.94167054 0.38348573 2.237
0.95819432 0.38845715 2.266
0.96888196 0.39102858 2.2810001
0.97322673 0.39102858 2.2810001
0.98442858 0.39377144 2.2970002
0.99526101 0.39634287 2.312
1.0061505 0.39891431 2.3270001
1.0175315 0.40165716 2.3430002
1.0289733 0.40440002 2.3590002
1.0334667 0.40440002 2.3590002
1.0379601 0.40440002 2.3590002
1.0499657 0.4073143 2.3760002
1.0615925 0.41005716 2.3920002
1.0661486 0.41005716 2.3920002
1.0783143 0.41297144 2.4090002
1.0981867 0.41880003 2.4430001
1.1105143 0.42171431 2.46
1.1152 0.42171431 2.46
1.1198858 0.42171431 2.46
1.1245714 0.42171431 2.46
1.1375201 0.42480001 2.4780002
1.14224 0.42480001 2.4780002
1.14696 0.42480001 2.4780002
1.15168 0.42480001 2.4780002
-0.24710096 0.35134667 2.0270002
-0.24180001 0.34926668 2.0150001
-0.23796192 0.34926668 2.0150001
-0.23272954 0.34718668 2.003
-0.22765715 0.34528002 1.9920001
-0.22386287 0.34528002 1.9920001
-0.21874286 0.3432 1.9800001
-0.21497144 0.3432 1.9800001
-0.21120001 0.3432 1.9800001
-0.20627619 0.34129333 1.9690001
-0.20252572 0.34129333 1.9690001
-0.19877525 0.34129333 1.9690001
-0.19502477 0.34129333 1.9690001
-0.19127429 0.34129333 1.9690001
-0.18752381 0.34129333 1.9690001
-0.18274668 0.33938667 1.9580001
-0.17901716 0.33938667 1.9580001
-0.17528762 0.33938667 1.9580001
-0.1715581 0.33938667 1.9580001
-0.16782857 0.33938667 1.9580001
-0.16317715 0.33748001 1.9470001
-0.15946858 0.33748001 1.9470001
-0.15488 0.33557335 1.9360001
-0.15033334 0.33366668 1.9250001
-0.14666668 0.33366668 1.9250001
-0.14300001 0.33366668 1.9250001
-0.13933334 0.33366668 1.9250001
-0.13566667 0.33366668 1.9250001
-0.132 0.33366668 1.9250001
-0.12766667 0.33193335 1.9150001
-0.12401905 0.33193335 1.9150001
-0.12037143 0.33193335 1.9150001
-0.11605334 0.33002669 1.904
-0.11242667 0.33002669 1.904
-0.10822857 0.32829335 1.8940001
-0.10462096 0.32829335 1.8940001
-0.10042667 0.32638669 1.8830001
-0.096840002 0.32638669 1.8830001
-0.093253337 0.32638669 1.8830001
-0.089666672 0.32638669 1.8830001
-0.08608 0.32638669 1.8830001
-0.082493335 0.32638669 1.8830001
-0.07890667 0.32638669 1.8830001
-0.075320005 0.32638669 1.8830001
-0.071352385 0.32465336 1.8730001
-0.067784764 0.32465336 1.8730001
-0.063874289 0.32292002 1.863
-0.060325716 0.32292002 1.863
-0.056472383 0.32118669 1.853
-0.052942861 0.32118669 1.853
-0.049413335 0.32118669 1.853
-0.045883812 0.32118669 1.853
-0.042125717 0.31945336 1.8430001
-0.038615238 0.31945336 1.8430001
-0.035104763 0.31945336 1.8430001
-0.031422857 0.31772003 1.8330001
-0.027931429 0.31772003 1.8330001
-0.024440002 0.31772003 1.8330001
-0.020948572 0.31772003 1.8330001
-0.017457144 0.31772003 1.8330001
-0.013965715 0.31772003 1.8330001
-0.010422857 0.31616002 1.8240001
-0.0069485717 0.31616002 1.8240001
-0.0034742858 0.31616002 1.8240001
0 0.31442669 1.8140001
0.0034552382 0.31442669 1.8140001
0.0068723811 0.31269336 1.8040001
0.010308572 0.31269336 1.8040001
0.013676191 0.31113335 1.7950001
0.017095238 0.31113335 1.7950001
0.020514287 0.31113335 1.7950001
0.023933334 0.31113335 1.7950001
0.027352381 0.31113335 1.7950001
0.030617144 0.30957335 1.7860001
0.034019049 0.30957335 1.7860001
0.037420955 0.30957335 1.7860001
0.04082286 0.30957335 1.7860001
0.044001907 0.30801335 1.7770001
0.047386669 0.30801335 1.7770001
0.05077143 0.30801335 1.7770001
0.054156192 0.30801335 1.7770001
0.057249527 0.30645335 1.7680001
0.060617145 0.30645335 1.7680001
0.06365905 0.30489334 1.7590001
0.067009524 0.30489334 1.7590001
0.070360005 0.30489334 1.7590001
0.073710479 0.30489334 1.7590001
0.076666668 0.30333334 1.7500001
0.080000006 0.30333334 1.7500001
0.083333336 0.30333334 1.7500001
0.086220957 0.30177334 1.7410001
0.089537144 0.30177334 1.7410001
0.092373334 0.30021334 1.7320001
0.095672384 0.30021334 1.7320001
0.098971434 0.30021334 1.7320001
0.10173905 0.29865333 1.723
0.10502096 0.29865333 1.723
0.10830286 0.29865333 1.723
0.11158477 0.29865333 1.723
0.11486667 0.29865333 1.723
0.11814857 0.29865333 1.723
0.12143048 0.29865333 1.723
0.12413334 0.29726669 1.715
0.12740001 0.29726669 1.715
0.12998095 0.29570669 1.7060001
0.13323048 0.29570669 1.7060001
0.13584 0.29432002 1.6980001
0.1390743 0.29432002 1.6980001
0.14230858 0.29432002 1.6980001
0.14485715 0.29293334 1.6900001
0.14807619 0.29293334 1.6900001
0.15129524 0.29293334 1.6900001
0.1545143 0.29293334 1.6900001
0.15689334 0.29137334 1.6810001
0.16009524 0.29137334 1.6810001
0.16329715 0.29137334 1.6810001
0.16649905 0.29137334 1.6810001
0.16970097 0.29137334 1.6810001
0.17290287 0.29137334 1.6810001
0.17526667 0.28998667 1.6730001
0.17845334 0.28998667 1.6730001
0.18077144 0.2886 1.6650001
0.18394287 0.2886 1.6650001
0.18621525 0.28721336 1.6570001
0.18937144 0.28721336 1.6570001
0.19252762 0.28721336 1.6570001
0.19473906 0.28582668 1.649
0.19788 0.28582668 1.649
0.20102096 0.28582668 1.649
0.20416191 0.28582668 1.649
0.20730287 0.28582668 1.649
0.21044382 0.28582668 1.649
0.21254858 0.28444001 1.641
0.2156743 0.28444001 1.641
0.2168 0.28184 1.626
0.21989715 0.28184 1.626
0.22189716 0.28045335 1.618
0.22497906 0.28045335 1.618
0.22806096 0.28045335 1.618
0.23114286 0.28045335 1.618
0.23422477 0.28045335 1.618
0.23628001 0.27924001 1.6110001
0.23934858 0.27924001 1.6110001
0.24241716 0.27924001 1.6110001
0.24548572 0.27924001 1.6110001
0.24732001 0.27785334 1.603
0.25037333 0.27785334 1.603
0.25342667 0.27785334 1.603
0.25536001 0.27664 1.5960001
0.25840002 0.27664 1.5960001
0.26144001 0.27664 1.5960001
0.26332 0.27542669 1.5890001
0.26634666 0.27542669 1.5890001
0.26937336 0.27542669 1.5890001
0.27240002 0.27542669 1.5890001
0.27404001 0.27404001 1.5810001
0.27705145 0.27404001 1.5810001
0.28006285 0.27404001 1.5810001
0.28307429 0.27404001 1.5810001
0.28608572 0.27404001 1.5810001
0.28781715 0.27282667 1.5740001
0.29081523 0.27282667 1.5740001
0.29250666 0.27161333 1.567
0.29549143 0.27161333 1.567
0.29714286 0.27040002 1.5600001
0.3001143 0.27040002 1.5600001
0.30308571 0.27040002 1.5600001
0.30605716 0.27040002 1.5600001
0.3090286 0.27040002 1.5600001
0.31200001 0.27040002 1.5600001
0.3135581 0.26918668 1.5530001
0.31651619 0.26918668 1.5530001
0.31947431 0.26918668 1.5530001
0.3224324 0.26918668 1.5530001
0.32539049 0.26918668 1.5530001
0.32538858 0.26676002 1.539
0.32832003 0.26676002 1.539
0.33125144 0.26676002 1.539
0.33418286 0.26676002 1.539
0.33558097 0.26554668 1.5320001
0.33849907 0.26554668 1.5320001
0.34141716 0.26554668 1.5320001
0.34433526 0.26554668 1.5320001
0.34725335 0.26554668 1.5320001
0.35017145 0.26554668 1.5320001
0.35308954 0.26554668 1.5320001
0.35600764 0.26554668 1.5320001
0.35892573 0.26554668 1.5320001
0.36184382 0.26554668 1.5320001
0.36642858 0.26676002 1.539
0.37104002 0.26797333 1.5460001
0.37567812 0.26918668 1.5530001
0.38034287 0.27040002 1.5600001
0.38503429 0.27161333 1.567
0.38975239 0.27282667 1.5740001
0.3927505 0.27282667 1.5740001
0.39750859 0.27404001 1.5810001
0.40052003 0.27404001 1.5810001
0.40353143 0.27404001 1.5810001
0.40654287 0.27404001 1.5810001
0.40774098 0.27282667 1.5740001
0.41073906 0.27282667 1.5740001
0.41373715 0.27282667 1.5740001
0.41488191 0.27161333 1.567
0.41786668 0.27161333 1.567
0.42085144 0.27161333 1.567
0.42572954 0.27282667 1.5740001
0.42872763 0.27282667 1.5740001
0.43364573 0.27404001 1.5810001
0.43665716 0.27404001 1.5810001
0.4396686 0.27404001 1.5810001
0.44492 0.27542669 1.5890001
0.4479467 0.27542669 1.5890001
0.45296001 0.27664 1.5960001
0.458 0.27785334 1.603
0.46105334 0.27785334 1.603
0.46642289 0.27924001 1.6110001
0.46949145 0.27924001 1.6110001
0.47461334 0.28045335 1.618
0.48005715 0.28184 1.626
0.48553145 0.28322667 1.6340001
0.48864383 0.28322667 1.6340001
0.49386287 0.28444001 1.641
0.49941143 0.28582668 1.649
0.50499052 0.28721336 1.6570001
0.51060003 0.2886 1.6650001
0.51377147 0.2886 1.6650001
0.51694286 0.2886 1.6650001
0.52261335 0.28998667 1.6730001
0.52831429 0.29137334 1.6810001
0.5343619 0.29293334 1.6900001
0.54012573 0.29432002 1.6980001
0.54335999 0.29432002 1.6980001
0.54659432 0.29432002 1.6980001
0.55241907 0.29570669 1.7060001
0.55860001 0.29726669 1.715
0.56448764 0.29865333 1.723
0.56776953 0.29865333 1.723
0.57403433 0.30021334 1.7320001
0.58033335 0.30177334 1.7410001
0.58364952 0.30177334 1.7410001
0.59000003 0.30333334 1.7500001
0.59638476 0.30489334 1.7590001
0.60587239 0.30801335 1.7770001
0.61234289 0.30957335 1.7860001
0.61574477 0.30957335 1.7860001
0.62226671 0.31113335 1.7950001
0.6323086 0.31442669 1.8140001
0.63926858 0.31616002 1.8240001
0.64274287 0.31616002 1.8240001
0.65294862 0.31945336 1.8430001
0.65645909 0.31945336 1.8430001
0.65996957 0.31945336 1.8430001
0.67068005 0.32292002 1.863
0.68544763 0.32829335 1.8940001
0.69269335 0.33002669 1.904
0.704 0.33366668 1.9250001
0.72384191 0.34129333 1.9690001
0.73165715 0.3432 1.9800001
0.73988575 0.34528002 1.9920001
0.7477867 0.34718668 2.003
0.75610477 0.34926668 2.0150001
0.76446861 0.35134667 2.0270002
0.77287811 0.35342667 2.039
0.78133339 0.35550669 2.0510001
0.78983432 0.35758668 2.0630002
0.79876572 0.35984001 2.0760002
0.80272001 0.35984001 2.0760002
0.81133717 0.36192 2.0880001
0.82039052 0.36417335 2.1010001
0.82949334 0.36642668 2.1140001
0.83864576 0.36868 2.1270001
0.8426972 0.36868 2.1270001
0.85192382 0.37093335 2.1400001
0.85600001 0.37093335 2.1400001
0.86530101 0.37318668 2.1530001
0.86940193 0.37318668 2.1530001
0.87350291 0.37318668 2.1530001
0.8833105 0.37561336 2.1670001
0.89317149 0.37804002 2.181
0.89732575 0.37804002 2.181
0.91264004 0.38272002 2.2080002
0.91684574 0.38272002 2.2080002
0.92730862 0.38532001 2.223
0.93740958 0.38774669 2.237
0.94798481 0.39034668 2.2520001
0.95819432 0.39277336 2.266
0.96888196 0.39537334 2.2810001
0.97322673 0.39537334 2.2810001
0.98442858 0.39814669 2.2970002
0.99526101 0.40074667 2.312
0.99966478 0.40074667 2.312
1.0175315 0.40612 2.3430002
1.0289733 0.40889335 2.3590002
1.0334667 0.40889335 2.3590002
1.0379601 0.40889335 2.3590002
1.0499657 0.41184002 2.3760002
1.0691372 0.41756001 2.4090002
1.0737257 0.41756001 2.4090002
1.0783143 0.41756001 2.4090002
1.0981867 0.42345336 2.4430001
1.1105143 0.42640001 2.46
1.1152 0.42640001 2.46
1.1198858 0.42640001 2.46
1.1245714 0.42640001 2.46
1.1375201 0.42952001 2.4780002
1.14224 0.42952001 2.4780002
1.14696 0.42952001 2.4780002
-0.24710096 0.35520762 2.0270002
-0.24180001 0.35310477 2.0150001
-0.23796192 0.35310477 2.0150001
-0.23272954 0.35100192 2.003
-0.22765715 0.3490743 1.9920001
-0.22251429 0.34697145 1.9800001
-0.21874286 0.34697145 1.9800001
-0.21497144 0.34697145 1.9800001
-0.21120001 0.34697145 1.9800001
-0.20627619 0.34504381 1.9690001
-0.20252572 0.34504381 1.9690001
-0.19877525 0.34504381 1.9690001
-0.19502477 0.34504381 1.9690001
-0.19127429 0.34504381 1.9690001
-0.18752381 0.34504381 1.9690001
-0.18377334 0.34504381 1.9690001
-0.17901716 0.34311619 1.9580001
-0.17528762 0.34311619 1.9580001
-0.1715581 0.34311619 1.9580001
-0.16782857 0.34311619 1.9580001
-0.16409905 0.34311619 1.9580001
-0.15946858 0.34118858 1.9470001
-0.15576001 0.34118858 1.9470001
-0.15119238 0.33926097 1.9360001
-0.14750476 0.33926097 1.9360001
-0.14300001 0.33733335 1.9250001
-0.13933334 0.33733335 1.9250001
-0.13566667 0.33733335 1.9250001
-0.132 0.33733335 1.9250001
-0.12766667 0.33558097 1.9150001
-0.12401905 0.33558097 1.9150001
-0.12037143 0.33558097 1.9150001
-0.11605334 0.33365333 1.904
-0.11183619 0.33190095 1.8940001
-0.10822857 0.33190095 1.8940001
-0.10462096 0.33190095 1.8940001
-0.10101334 0.33190095 1.8940001
-0.097405717 0.33190095 1.8940001
-0.093253337 0.32997334 1.8830001
-0.089666672 0.32997334 1.8830001
-0.08608 0.32997334 1.8830001
-0.082493335 0.32997334 1.8830001
-0.07890667 0.32997334 1.8830001
-0.075320005 0.32997334 1.8830001
-0.071352385 0.32822096 1.8730001
-0.067784764 0.32822096 1.8730001
-0.063874289 0.32646859 1.863
-0.060325716 0.32646859 1.863
-0.056472383 0.32471621 1.853
-0.052942861 0.32471621 1.853
-0.049413335 0.32471621 1.853
-0.045883812 0.32471621 1.853
-0.042354286 0.32471621 1.853
-0.038824763 0.32471621 1.853
-0.035295241 0.32471621 1.853
-0.031594288 0.32296383 1.8430001
-0.027931429 0.32121143 1.8330001
-0.024440002 0.32121143 1.8330001
-0.020948572 0.32121143 1.8330001
-0.017457144 0.32121143 1.8330001
-0.013965715 0.32121143 1.8330001
-0.010422857 0.31963429 1.8240001
-0.0069485717 0.31963429 1.8240001
-0.0034742858 0.31963429 1.8240001
0 0.31963429 1.8240001
0.0034552382 0.31788191 1.8140001
0.0068723811 0.31612954 1.8040001
0.010308572 0.31612954 1.8040001
0.013676191 0.3145524 1.7950001
0.017095238 0.3145524 1.7950001
0.020514287 0.3145524 1.7950001
0.023933334 0.3145524 1.7950001
0.027352381 0.3145524 1.7950001
0.030617144 0.31297526 1.7860001
0.034019049 0.31297526 1.7860001
0.037420955 0.31297526 1.7860001
0.04082286 0.31297526 1.7860001
0.044224765 0.31297526 1.7860001
0.047386669 0.31139812 1.7770001
0.05077143 0.31139812 1.7770001
0.054156192 0.31139812 1.7770001
0.057249527 0.30982095 1.7680001
0.060617145 0.30982095 1.7680001
0.06365905 0.30824381 1.7590001
0.067009524 0.30824381 1.7590001
0.070360005 0.30824381 1.7590001
0.073710479 0.30824381 1.7590001
0.076666668 0.30666667 1.7500001
0.080000006 0.30666667 1.7500001
0.083333336 0.30666667 1.7500001
0.086220957 0.30508953 1.7410001
0.089537144 0.30508953 1.7410001
0.092373334 0.30351239 1.7320001
0.095672384 0.30351239 1.7320001
0.098971434 0.30351239 1.7320001
0.10227048 0.30351239 1.7320001
0.10556953 0.30351239 1.7320001
0.10886858 0.30351239 1.7320001
0.11158477 0.30193526 1.723
0.11486667 0.30193526 1.723
0.11814857 0.30193526 1.723
0.12143048 0.30193526 1.723
0.12471239 0.30193526 1.723
0.12740001 0.30053335 1.715
0.13066667 0.30053335 1.715
0.13323048 0.29895622 1.7060001
0.13584 0.29755428 1.6980001
0.1390743 0.29755428 1.6980001
0.14230858 0.29755428 1.6980001
0.14485715 0.29615238 1.6900001
0.14807619 0.29615238 1.6900001
0.15129524 0.29615238 1.6900001
0.1545143 0.29615238 1.6900001
0.15689334 0.29457524 1.6810001
0.16009524 0.29457524 1.6810001
0.16329715 0.29457524 1.6810001
0.16649905 0.29457524 1.6810001
0.16970097 0.29457524 1.6810001
0.17290287 0.29457524 1.6810001
0.17526667 0.29317334 1.6730001
0.17845334 0.29317334 1.6730001
0.18164001 0.29317334 1.6730001
0.18394287 0.29177144 1.6650001
0.1871143 0.29177144 1.6650001
0.18937144 0.29036954 1.6570001
0.19252762 0.29036954 1.6570001
0.19568382 0.29036954 1.6570001
0.19788 0.28896764 1.649
0.20102096 0.28896764 1.649
0.20416191 0.28896764 1.649
0.20730287 0.28896764 1.649
0.21044382 0.28896764 1.649
0.21358477 0.28896764 1.649
0.2156743 0.28756574 1.641
0.21786667 0.28633904 1.6340001
0.21989715 0.28493714 1.626
0.2229943 0.28493714 1.626
0.22609143 0.28493714 1.626
0.22918858 0.28493714 1.626
0.23114286 0.28353524 1.618
0.23422477 0.28353524 1.618
0.23730667 0.28353524 1.618
0.24038859 0.28353524 1.618
0.24241716 0.28230858 1.6110001
0.24548572 0.28230858 1.6110001
0.24732001 0.28090668 1.603
0.25037333 0.28090668 1.603
0.25232002 0.27968001 1.5960001
0.25536001 0.27968001 1.5960001
0.25840002 0.27968001 1.5960001
0.26029333 0.27845335 1.5890001
0.26332 0.27845335 1.5890001
0.26634666 0.27845335 1.5890001
0.26937336 0.27845335 1.5890001
0.27240002 0.27845335 1.5890001
0.27404001 0.27705145 1.5810001
0.27705145 0.27705145 1.5810001
0.28006285 0.27705145 1.5810001
0.28307429 0.27705145 1.5810001
0.28608572 0.27705145 1.5810001
0.28909716 0.27705145 1.5810001
0.29081523 0.27582479 1.5740001
0.29250666 0.27459809 1.567
0.29549143 0.27459809 1.567
0.29714286 0.27337143 1.5600001
0.3001143 0.27337143 1.5600001
0.30308571 0.27337143 1.5600001
0.30605716 0.27337143 1.5600001
0.3090286 0.27337143 1.5600001
0.31200001 0.27337143 1.5600001
0.3135581 0.27214476 1.5530001
0.31651619 0.27214476 1.5530001
0.31947431 0.27214476 1.5530001
0.3224324 0.27214476 1.5530001
0.32539049 0.27214476 1.5530001
0.32834858 0.27214476 1.5530001
0.32832003 0.26969144 1.539
0.33125144 0.26969144 1.539
0.33418286 0.26969144 1.539
0.33558097 0.26846477 1.5320001
0.33849907 0.26846477 1.5320001
0.34141716 0.26846477 1.5320001
0.34433526 0.26846477 1.5320001
0.34725335 0.26846477 1.5320001
0.35017145 0.26846477 1.5320001
0.35308954 0.26846477 1.5320001
0.35600764 0.26846477 1.5320001
0.35892573 0.26846477 1.5320001
0.36349717 0.26969144 1.539
0.36642858 0.26969144 1.539
0.37104002 0.2709181 1.5460001
0.37567812 0.27214476 1.5530001
0.38034287 0.27337143 1.5600001
0.38503429 0.27459809 1.567
0.38975239 0.27582479 1.5740001
0.3927505 0.27582479 1.5740001
0.39750859 0.27705145 1.5810001
0.40052003 0.27705145 1.5810001
0.40353143 0.27705145 1.5810001
0.40654287 0.27705145 1.5810001
0.40774098 0.27582479 1.5740001
0.41256574 0.27705145 1.5810001
0.41557714 0.27705145 1.5810001
0.41488191 0.27459809 1.567
0.41786668 0.27459809 1.567
0.42085144 0.27459809 1.567
0.42572954 0.27582479 1.5740001
0.42872763 0.27582479 1.5740001
0.43172574 0.27582479 1.5740001
0.43665716 0.27705145 1.5810001
0.44189334 0.27845335 1.5890001
0.44492 0.27845335 1.5890001
0.44992003 0.27968001 1.5960001
0.4549467 0.28090668 1.603
0.46028572 0.28230858 1.6110001
0.46105334 0.28090668 1.603
0.46642289 0.28230858 1.6110001
0.46949145 0.28230858 1.6110001
0.47461334 0.28353524 1.618
0.47769526 0.28353524 1.618
0.4831543 0.28493714 1.626
0.48864383 0.28633904 1.6340001
0.49386287 0.28756574 1.641
0.49941143 0.28896764 1.649
0.50255239 0.28896764 1.649
0.5081467 0.29036954 1.6570001
0.51377147 0.29177144 1.6650001
0.51694286 0.29177144 1.6650001
0.52261335 0.29317334 1.6730001
0.52831429 0.29457524 1.6810001
0.5343619 0.29615238 1.6900001
0.53758097 0.29615238 1.6900001
0.54335999 0.29755428 1.6980001
0.54659432 0.29755428 1.6980001
0.55241907 0.29895622 1.7060001
0.55566859 0.29895622 1.7060001
0.5618667 0.30053335 1.715
0.56776953 0.30193526 1.723
0.57403433 0.30351239 1.7320001
0.58033335 0.30508953 1.7410001
0.5866667 0.30666667 1.7500001
0.59303433 0.30824381 1.7590001
0.59943622 0.30982095 1.7680001
0.60587239 0.31139812 1.7770001
0.61234289 0.31297526 1.7860001
0.61884767 0.3145524 1.7950001
0.62226671 0.3145524 1.7950001
0.62882286 0.31612954 1.8040001
0.63576382 0.31788191 1.8140001
0.64274287 0.31963429 1.8240001
0.65294862 0.32296383 1.8430001
0.65645909 0.32296383 1.8430001
0.6635505 0.32471621 1.853
0.66708004 0.32471621 1.853
0.68906671 0.33365333 1.904
0.69269335 0.33365333 1.904
0.71606863 0.34311619 1.9580001
0.72788572 0.34697145 1.9800001
0.73609143 0.3490743 1.9920001
0.74397147 0.35100192 2.003
0.75226671 0.35310477 2.0150001
0.75610477 0.35310477 2.0150001
0.76446861 0.35520762 2.0270002
0.77287811 0.3573105 2.039
0.78133339 0.35941336 2.0510001
0.78983432 0.36151621 2.0630002
0.79376382 0.36151621 2.0630002
0.80272001 0.3637943 2.0760002
0.81133717 0.36589715 2.0880001
0.82039052 0.36817524 2.1010001
0.82949334 0.37045336 2.1140001
0.83352005 0.37045336 2.1140001
0.8426972 0.37273145 2.1270001
0.85192382 0.37500954 2.1400001
0.85600001 0.37500954 2.1400001
0.86530101 0.37728763 2.1530001
0.86940193 0.37728763 2.1530001
0.87918288 0.37974095 2.1670001
0.8833105 0.37974095 2.1670001
0.89317149 0.38219431 2.181
0.90267432 0.3844724 2.194
0.91264004 0.38692573 2.2080002
0.91684574 0.38692573 2.2080002
0.92730862 0.38955429 2.223
0.93740958 0.39200762 2.237
0.94167054 0.39200762 2.237
0.95227432 0.39463621 2.2520001
0.96251053 0.39708954 2.266
0.97322673 0.39971811 2.2810001
0.98442858 0.40252191 2.2970002
0.99526101 0.4051505 2.312
1.0061505 0.40777907 2.3270001
1.0175315 0.41058287 2.3430002
1.0289733 0.41338667 2.3590002
1.0334667 0.41338667 2.3590002
1.0454401 0.41636574 2.3760002
1.0499657 0.41636574 2.3760002
1.0691372 0.42214859 2.4090002
1.0737257 0.42214859 2.4090002
1.0783143 0.42214859 2.4090002
1.0981867 0.4281067 2.4430001
1.1028401 0.4281067 2.4430001
1.1152 0.43108574 2.46
1.1198858 0.43108574 2.46
1.1245714 0.43108574 2.46
1.1375201 0.43424001 2.4780002
1.14224 0.43424001 2.4780002
1.14696 0.43424001 2.4780002
-0.24324001 0.35906857 2.0270002
-0.23796192 0.35694286 2.0150001
-0.23272954 0.35481715 2.003
-0.22765715 0.35286859 1.9920001
-0.22251429 0.35074288 1.9800001
-0.21874286 0.35074288 1.9800001
-0.21497144 0.35074288 1.9800001
-0.21002668 0.34879431 1.9690001
-0.20627619 0.34879431 1.9690001
-0.20252572 0.34879431 1.9690001
-0.19877525 0.34879431 1.9690001
-0.19502477 0.34879431 1.9690001
-0.19127429 0.34879431 1.9690001
-0.18752381 0.34879431 1.9690001
-0.18274668 0.34684572 1.9580001
-0.17901716 0.34684572 1.9580001
-0.17528762 0.34684572 1.9580001
-0.1715581 0.34684572 1.9580001
-0.16782857 0.34684572 1.9580001
-0.16409905 0.34684572 1.9580001
-0.15946858 0.34489715 1.9470001
-0.15576001 0.34489715 1.9470001
-0.15205143 0.34489715 1.9470001
-0.14750476 0.34294859 1.9360001
-0.14300001 0.34100002 1.9250001
-0.13933334 0.34100002 1.9250001
-0.13566667 0.34100002 1.9250001
-0.132 0.34100002 1.9250001
-0.12766667 0.33922857 1.9150001
-0.12401905 0.33922857 1.9150001
-0.12037143 0.33922857 1.9150001
-0.11605334 0.33728001 1.904
-0.11183619 0.33550858 1.8940001
-0.10822857 0.33550858 1.8940001
-0.10462096 0.33550858 1.8940001
-0.10042667 0.33356002 1.8830001
-0.096840002 0.33356002 1.8830001
-0.093253337 0.33356002 1.8830001
-0.089666672 0.33356002 1.8830001
-0.08608 0.33356002 1.8830001
-0.082493335 0.33356002 1.8830001
-0.07890667 0.33356002 1.8830001
-0.075320005 0.33356002 1.8830001
-0.071352385 0.33178857 1.8730001
-0.067784764 0.33178857 1.8730001
-0.063874289 0.33001715 1.863
-0.060325716 0.33001715 1.863
-0.056472383 0.32824573 1.853
-0.052942861 0.32824573 1.853
-0.049413335 0.32824573 1.853
-0.045636192 0.32647431 1.8430001
-0.042125717 0.32647431 1.8430001
-0.038615238 0.32647431 1.8430001
-0.035104763 0.32647431 1.8430001
-0.031594288 0.32647431 1.8430001
-0.027931429 0.32470286 1.8330001
-0.024440002 0.32470286 1.8330001
-0.020948572 0.32470286 1.8330001
-0.017457144 0.32470286 1.8330001
-0.013965715 0.32470286 1.8330001
-0.010474286 0.32470286 1.8330001
-0.0069485717 0.32310858 1.8240001
-0.0034742858 0.32310858 1.8240001
0 0.32310858 1.8240001
0.0034552382 0.32133716 1.8140001
0.0068723811 0.31956571 1.8040001
0.010308572 0.31956571 1.8040001
0.013676191 0.31797144 1.7950001
0.017095238 0.31797144 1.7950001
0.020514287 0.31797144 1.7950001
0.023933334 0.31797144 1.7950001
0.027352381 0.31797144 1.7950001
0.030617144 0.31637716 1.7860001
0.034019049 0.31637716 1.7860001
0.037420955 0.31637716 1.7860001
0.04082286 0.31637716 1.7860001
0.044001907 0.31478286 1.7770001
0.047386669 0.31478286 1.7770001
0.050514288 0.31318858 1.7680001
0.053881906 0.31318858 1.7680001
0.057249527 0.31318858 1.7680001
0.060308572 0.31159431 1.7590001
0.06365905 0.31159431 1.7590001
0.067009524 0.31159431 1.7590001
0.070360005 0.31159431 1.7590001
0.073333338 0.31 1.7500001
0.076666668 0.31 1.7500001
0.080000006 0.31 1.7500001
0.083333336 0.31 1.7500001
0.086220957 0.30840573 1.7410001
0.089537144 0.30840573 1.7410001
0.092373334 0.30681145 1.7320001
0.095672384 0.30681145 1.7320001
0.098971434 0.30681145 1.7320001
0.10227048 0.30681145 1.7320001
0.10556953 0.30681145 1.7320001
0.10886858 0.30681145 1.7320001
0.11158477 0.30521715 1.723
0.11486667 0.30521715 1.723
0.11814857 0.30521715 1.723
0.12143048 0.30521715 1.723
0.12471239 0.30521715 1.723
0.12740001 0.30380002 1.715
0.13066667 0.30380002 1.715
0.13323048 0.30220571 1.7060001
0.13584 0.30078858 1.6980001
0.1390743 0.30078858 1.6980001
0.14230858 0.30078858 1.6980001
0.14485715 0.29937145 1.6900001
0.14807619 0.29937145 1.6900001
0.15129524 0.29937145 1.6900001
0.1545143 0.29937145 1.6900001
0.15773334 0.29937145 1.6900001
0.16009524 0.29777715 1.6810001
0.16329715 0.29777715 1.6810001
0.16649905 0.29777715 1.6810001
0.16970097 0.29777715 1.6810001
0.17290287 0.29777715 1.6810001
0.17526667 0.29636002 1.6730001
0.17845334 0.29636002 1.6730001
0.18164001 0.29636002 1.6730001
0.18482667 0.29636002 1.6730001
0.1871143 0.29494286 1.6650001
0.18937144 0.29352573 1.6570001
0.19252762 0.29352573 1.6570001
0.19568382 0.29352573 1.6570001
0.19884001 0.29352573 1.6570001
0.20102096 0.2921086 1.649
0.20416191 0.2921086 1.649
0.20730287 0.2921086 1.649
0.21044382 0.2921086 1.649
0.21358477 0.2921086 1.649
0.2156743 0.29069144 1.641
0.21786667 0.28945145 1.6340001
0.21989715 0.28803429 1.626
0.2229943 0.28803429 1.626
0.22609143 0.28803429 1.626
0.22918858 0.28803429 1.626
0.23114286 0.28661716 1.618
0.23422477 0.28661716 1.618
0.23628001 0.28537714 1.6110001
0.24038859 0.28661716 1.618
0.24241716 0.28537714 1.6110001
0.24548572 0.28537714 1.6110001
0.24732001 0.28396001 1.603
0.25037333 0.28396001 1.603
0.25342667 0.28396001 1.603
0.25648001 0.28396001 1.603
0.25840002 0.28272 1.5960001
0.26144001 0.28272 1.5960001
0.26332 0.28148001 1.5890001
0.26634666 0.28148001 1.5890001
0.26937336 0.28148001 1.5890001
0.27240002 0.28148001 1.5890001
0.27404001 0.28006285 1.5810001
0.27705145 0.28006285 1.5810001
0.28006285 0.28006285 1.5810001
0.28307429 0.28006285 1.5810001
0.28608572 0.28006285 1.5810001
0.28909716 0.28006285 1.5810001
0.29081523 0.27882287 1.5740001
0.29250666 0.27758285 1.567
0.29549143 0.27758285 1.567
0.29714286 0.27634287 1.5600001
0.3001143 0.27634287 1.5600001
0.30308571 0.27634287 1.5600001
0.30605716 0.27634287 1.5600001
0.3090286 0.27634287 1.5600001
0.31200001 0.27634287 1.5600001
0.3135581 0.27510285 1.5530001
0.31651619 0.27510285 1.5530001
0.31947431 0.27510285 1.5530001
0.3224324 0.27510285 1.5530001
0.32539049 0.27510285 1.5530001
0.32686859 0.27386287 1.5460001
0.32832003 0.27262285 1.539
0.33125144 0.27262285 1.539
0.33418286 0.27262285 1.539
0.33558097 0.27138287 1.5320001
0.33849907 0.27138287 1.5320001
0.34141716 0.27138287 1.5320001
0.34433526 0.27138287 1.5320001
0.34725335 0.27138287 1.5320001
0.35017145 0.27138287 1.5320001
0.35308954 0.27138287 1.5320001
0.35600764 0.27138287 1.5320001
0.36056572 0.27262285 1.539
0.36349717 0.27262285 1.539
0.36809525 0.27386287 1.5460001
0.37104002 0.27386287 1.5460001
0.37567812 0.27510285 1.5530001
0.38034287 0.27634287 1.5600001
0.38503429 0.27758285 1.567
0.38975239 0.27882287 1.5740001
0.39449716 0.28006285 1.5810001
0.39750859 0.28006285 1.5810001
0.40052003 0.28006285 1.5810001
0.40353143 0.28006285 1.5810001
0.40654287 0.28006285 1.5810001
0.4095543 0.28006285 1.5810001
0.41256574 0.28006285 1.5810001
0.41557714 0.28006285 1.5810001
0.41488191 0.27758285 1.567
0.41786668 0.27758285 1.567
0.42273143 0.27882287 1.5740001
0.42572954 0.27882287 1.5740001
0.42872763 0.27882287 1.5740001
0.43172574 0.27882287 1.5740001
0.43665716 0.28006285 1.5810001
0.44189334 0.28148001 1.5890001
0.44492 0.28148001 1.5890001
0.44992003 0.28272 1.5960001
0.4549467 0.28396001 1.603
0.46028572 0.28537714 1.6110001
0.46105334 0.28396001 1.603
0.46410668 0.28396001 1.603
0.46949145 0.28537714 1.6110001
0.47256002 0.28537714 1.6110001
0.47769526 0.28661716 1.618
0.4831543 0.28803429 1.626
0.48625144 0.28803429 1.626
0.49386287 0.29069144 1.641
0.49698859 0.29069144 1.641
0.50499052 0.29352573 1.6570001
0.5081467 0.29352573 1.6570001
0.51377147 0.29494286 1.6650001
0.51694286 0.29494286 1.6650001
0.52261335 0.29636002 1.6730001
0.52831429 0.29777715 1.6810001
0.5343619 0.29937145 1.6900001
0.53758097 0.29937145 1.6900001
0.54335999 0.30078858 1.6980001
0.54659432 0.30078858 1.6980001
0.55241907 0.30220571 1.7060001
0.55860001 0.30380002 1.715
0.5618667 0.30380002 1.715
0.57073528 0.30681145 1.7320001
0.57701719 0.30840573 1.7410001
0.58333337 0.31 1.7500001
0.58968383 0.31159431 1.7590001
0.59606862 0.31318858 1.7680001
0.59943622 0.31318858 1.7680001
0.60587239 0.31478286 1.7770001
0.61234289 0.31637716 1.7860001
0.61884767 0.31797144 1.7950001
0.62226671 0.31797144 1.7950001
0.62882286 0.31956571 1.8040001
0.63576382 0.32133716 1.8140001
0.64274287 0.32310858 1.8240001
0.65294862 0.32647431 1.8430001
0.66002095 0.32824573 1.853
0.66713142 0.33001715 1.863
0.67788005 0.33356002 1.8830001
0.6814667 0.33356002 1.8830001
0.72034287 0.35074288 1.9800001
0.7241143 0.35074288 1.9800001
0.72788572 0.35074288 1.9800001
0.73609143 0.35286859 1.9920001
0.74397147 0.35481715 2.003
0.75226671 0.35694286 2.0150001
0.76060766 0.35906857 2.0270002
0.76446861 0.35906857 2.0270002
0.77287811 0.36119431 2.039
0.78133339 0.36332002 2.0510001
0.78983432 0.36544573 2.0630002
0.79876572 0.36774859 2.0760002
0.80272001 0.36774859 2.0760002
0.81133717 0.3698743 2.0880001
0.82039052 0.37217715 2.1010001
0.82949334 0.37448001 2.1140001
0.83352005 0.37448001 2.1140001
0.8426972 0.37678286 2.1270001
0.84674859 0.37678286 2.1270001
0.85600001 0.37908572 2.1400001
0.86007625 0.37908572 2.1400001
0.86940193 0.38138857 2.1530001
0.87350291 0.38138857 2.1530001
0.8833105 0.38386858 2.1670001
0.89317149 0.38634858 2.181
0.90267432 0.38865143 2.194
0.91264004 0.39113143 2.2080002
0.92307431 0.39378858 2.223
0.93314862 0.39626858 2.237
0.93740958 0.39626858 2.237
0.94167054 0.39626858 2.237
0.95227432 0.39892572 2.2520001
0.96251053 0.40140572 2.266
0.97322673 0.40406287 2.2810001
0.98442858 0.40689716 2.2970002
1.0017182 0.41221145 2.3270001
1.0061505 0.41221145 2.3270001
1.0175315 0.41504574 2.3430002
1.0289733 0.41788003 2.3590002
1.0334667 0.41788003 2.3590002
1.0454401 0.42089143 2.3760002
1.0499657 0.42089143 2.3760002
1.0691372 0.42673716 2.4090002
1.0737257 0.42673716 2.4090002
1.0783143 0.42673716 2.4090002
1.0981867 0.43276003 2.4430001
1.1028401 0.43276003 2.4430001
1.1152 0.43577144 2.46
1.1121467 0.43276003 2.4430001
1.1245714 0.43577144 2.46
1.1292572 0.43577144 2.46
1.1339428 0.43577144 2.46
1.1386286 0.43577144 2.46
-0.24180001 0.36078095 2.0150001
-0.23796192 0.36078095 2.0150001
-0.23272954 0.35863239 2.003
-0.22765715 0.35666287 1.9920001
-0.22251429 0.3545143 1.9800001
-0.21874286 0.3545143 1.9800001
-0.21497144 0.3545143 1.9800001
-0.21120001 0.3545143 1.9800001
-0.20742857 0.3545143 1.9800001
-0.20252572 0.35254478 1.9690001
-0.19877525 0.35254478 1.9690001
-0.19502477 0.35254478 1.9690001
-0.19127429 0.35254478 1.9690001
-0.1864762 0.35057524 1.9580001
-0.18274668 0.35057524 1.9580001
-0.17901716 0.35057524 1.9580001
-0.17528762 0.35057524 1.9580001
-0.1715581 0.35057524 1.9580001
-0.16782857 0.35057524 1.9580001
-0.16409905 0.35057524 1.9580001
-0.16036953 0.35057524 1.9580001
-0.15664001 0.35057524 1.9580001
-0.15205143 0.34860572 1.9470001
-0.14750476 0.34663621 1.9360001
-0.14300001 0.34466669 1.9250001
-0.13933334 0.34466669 1.9250001
-0.13566667 0.34466669 1.9250001
-0.132 0.34466669 1.9250001
-0.12766667 0.3428762 1.9150001
-0.12401905 0.3428762 1.9150001
-0.12037143 0.3428762 1.9150001
-0.11605334 0.34090668 1.904
-0.11242667 0.34090668 1.904
-0.10822857 0.33911622 1.8940001
-0.10462096 0.33911622 1.8940001
-0.10101334 0.33911622 1.8940001
-0.097405717 0.33911622 1.8940001
-0.093253337 0.33714667 1.8830001
-0.089666672 0.33714667 1.8830001
-0.08608 0.33714667 1.8830001
-0.082493335 0.33714667 1.8830001
-0.07890667 0.33714667 1.8830001
-0.075320005 0.33714667 1.8830001
-0.071352385 0.33535621 1.8730001
-0.067784764 0.33535621 1.8730001
-0.064217143 0.33535621 1.8730001
-0.060325716 0.33356571 1.863
-0.056777146 0.33356571 1.863
-0.052942861 0.33177525 1.853
-0.049413335 0.33177525 1.853
-0.045883812 0.33177525 1.853
-0.042125717 0.32998478 1.8430001
-0.038615238 0.32998478 1.8430001
-0.035104763 0.32998478 1.8430001
-0.031594288 0.32998478 1.8430001
-0.027931429 0.32819429 1.8330001
-0.024440002 0.32819429 1.8330001
-0.020948572 0.32819429 1.8330001
-0.017457144 0.32819429 1.8330001
-0.013965715 0.32819429 1.8330001
-0.010474286 0.32819429 1.8330001
-0.0069485717 0.32658288 1.8240001
-0.0034742858 0.32658288 1.8240001
0 0.32658288 1.8240001
0.0034552382 0.32479239 1.8140001
0.0069104764 0.32479239 1.8140001
0.010365714 0.32479239 1.8140001
0.013744762 0.32300192 1.8040001
0.017095238 0.32139048 1.7950001
0.020514287 0.32139048 1.7950001
0.023933334 0.32139048 1.7950001
0.027215239 0.31977907 1.7860001
0.030617144 0.31977907 1.7860001
0.034019049 0.31977907 1.7860001
0.037420955 0.31977907 1.7860001
0.04082286 0.31977907 1.7860001
0.044001907 0.31816763 1.7770001
0.047386669 0.31816763 1.7770001
0.050514288 0.31655622 1.7680001
0.053881906 0.31655622 1.7680001
0.057249527 0.31655622 1.7680001
0.060308572 0.31494477 1.7590001
0.06365905 0.31494477 1.7590001
0.067009524 0.31494477 1.7590001
0.070360005 0.31494477 1.7590001
0.073710479 0.31494477 1.7590001
0.076666668 0.31333333 1.7500001
0.080000006 0.31333333 1.7500001
0.083333336 0.31333333 1.7500001
0.086220957 0.31172192 1.7410001
0.089537144 0.31172192 1.7410001
0.092373334 0.31011048 1.7320001
0.095672384 0.31011048 1.7320001
0.098971434 0.31011048 1.7320001
0.10173905 0.30849907 1.723
0.10556953 0.31011048 1.7320001
0.10886858 0.31011048 1.7320001
0.11158477 0.30849907 1.723
0.11486667 0.30849907 1.723
0.11814857 0.30849907 1.723
0.12143048 0.30849907 1.723
0.12471239 0.30849907 1.723
0.12740001 0.30706668 1.715
0.13066667 0.30706668 1.715
0.13393334 0.30706668 1.715
0.13648 0.30545524 1.7060001
0.1390743 0.30402288 1.6980001
0.1416381 0.30259049 1.6900001
0.14554286 0.30402288 1.6980001
0.14877714 0.30402288 1.6980001
0.15129524 0.30259049 1.6900001
0.1545143 0.30259049 1.6900001
0.15773334 0.30259049 1.6900001
0.16095239 0.30259049 1.6900001
0.16329715 0.30097905 1.6810001
0.16649905 0.30097905 1.6810001
0.16970097 0.30097905 1.6810001
0.17290287 0.30097905 1.6810001
0.17526667 0.29954669 1.6730001
0.17845334 0.29954669 1.6730001
0.18164001 0.29954669 1.6730001
0.18394287 0.2981143 1.6650001
0.1871143 0.2981143 1.6650001
0.18937144 0.29668191 1.6570001
0.19252762 0.29668191 1.6570001
0.19568382 0.29668191 1.6570001
0.19788 0.29524952 1.649
0.20102096 0.29524952 1.649
0.20416191 0.29524952 1.649
0.20730287 0.29524952 1.649
0.21044382 0.29524952 1.649
0.21358477 0.29524952 1.649
0.2156743 0.29381716 1.641
0.21786667 0.29256383 1.6340001
0.21989715 0.29113144 1.626
0.2229943 0.29113144 1.626
0.22609143 0.29113144 1.626
0.22806096 0.28969905 1.618
0.23114286 0.28969905 1.618
0.23422477 0.28969905 1.618
0.23628001 0.28844571 1.6110001
0.24038859 0.28969905 1.618
0.24241716 0.28844571 1.6110001
0.24548572 0.28844571 1.6110001
0.24855429 0.28844571 1.6110001
0.25162286 0.28844571 1.6110001
0.25342667 0.28701335 1.603
0.25648001 0.28701335 1.603
0.25953335 0.28701335 1.603
0.26144001 0.28576002 1.5960001
0.26448002 0.28576002 1.5960001
0.26634666 0.28450668 1.5890001
0.26937336 0.28450668 1.5890001
0.27240002 0.28450668 1.5890001
0.27404001 0.28307429 1.5810001
0.27705145 0.28307429 1.5810001
0.28006285 0.28307429 1.5810001
0.28307429 0.28307429 1.5810001
0.28608572 0.28307429 1.5810001
0.28909716 0.28307429 1.5810001
0.29081523 0.28182095 1.5740001
0.29381335 0.28182095 1.5740001
0.29549143 0.28056762 1.567
0.29847619 0.28056762 1.567
0.3001143 0.27931431 1.5600001
0.30308571 0.27931431 1.5600001
0.30605716 0.27931431 1.5600001
0.3090286 0.27931431 1.5600001
0.31200001 0.27931431 1.5600001
0.3135581 0.27806097 1.5530001
0.31651619 0.27806097 1.5530001
0.31947431 0.27806097 1.5530001
0.3224324 0.27806097 1.5530001
0.32392383 0.27680764 1.5460001
0.32538858 0.2755543 1.539
0.32832003 0.2755543 1.539
0.33125144 0.2755543 1.539
0.33418286 0.2755543 1.539
0.3371143 0.2755543 1.539
0.33849907 0.27430096 1.5320001
0.34141716 0.27430096 1.5320001
0.34433526 0.27430096 1.5320001
0.34725335 0.27430096 1.5320001
0.35017145 0.27430096 1.5320001
0.35308954 0.27430096 1.5320001
0.35600764 0.27430096 1.5320001
0.36056572 0.2755543 1.539
0.36349717 0.2755543 1.539
0.36809525 0.27680764 1.5460001
0.37104002 0.27680764 1.5460001
0.37567812 0.27806097 1.5530001
0.38034287 0.27931431 1.5600001
0.38503429 0.28056762 1.567
0.38975239 0.28182095 1.5740001
0.39449716 0.28307429 1.5810001
0.39750859 0.28307429 1.5810001
0.40052003 0.28307429 1.5810001
0.40353143 0.28307429 1.5810001
0.40654287 0.28307429 1.5810001
0.4095543 0.28307429 1.5810001
0.41256574 0.28307429 1.5810001
0.41557714 0.28307429 1.5810001
0.41858858 0.28307429 1.5810001
0.42160001 0.28307429 1.5810001
0.42273143 0.28182095 1.5740001
0.42572954 0.28182095 1.5740001
0.42872763 0.28182095 1.5740001
0.43172574 0.28182095 1.5740001
0.43665716 0.28307429 1.5810001
0.44189334 0.28450668 1.5890001
0.44688001 0.28576002 1.5960001
0.44992003 0.28576002 1.5960001
0.4549467 0.28701335 1.603
0.46028572 0.28844571 1.6110001
0.46105334 0.28701335 1.603
0.46410668 0.28701335 1.603
0.46949145 0.28844571 1.6110001
0.47256002 0.28844571 1.6110001
0.47769526 0.28969905 1.618
0.4831543 0.29113144 1.626
0.48625144 0.29113144 1.626
0.49386287 0.29381716 1.641
0.49941143 0.29524952 1.649
0.50499052 0.29668191 1.6570001
0.51060003 0.2981143 1.6650001
0.51377147 0.2981143 1.6650001
0.51694286 0.2981143 1.6650001
0.52261335 0.29954669 1.6730001
0.52831429 0.30097905 1.6810001
0.5343619 0.30259049 1.6900001
0.53758097 0.30259049 1.6900001
0.54335999 0.30402288 1.6980001
0.54659432 0.30402288 1.6980001
0.55241907 0.30545524 1.7060001
0.55860001 0.30706668 1.715
0.56448764 0.30849907 1.723
0.57073528 0.31011048 1.7320001
0.57701719 0.31172192 1.7410001
0.58333337 0.31333333 1.7500001
0.58968383 0.31494477 1.7590001
0.59606862 0.31655622 1.7680001
0.60248762 0.31816763 1.7770001
0.60894096 0.31977907 1.7860001
0.61234289 0.31977907 1.7860001
0.61884767 0.32139048 1.7950001
0.62226671 0.32139048 1.7950001
0.62882286 0.32300192 1.8040001
0.63576382 0.32479239 1.8140001
0.64274287 0.32658288 1.8240001
0.65649146 0.33177525 1.853
0.67070669 0.33714667 1.8830001
