# .PCD v0.7 - Point Cloud Data file format
VERSION 0.7
FIELDS x y z
SIZE 4 4 4
TYPE F F F
COUNT 1 1 1
WIDTH 1517
HEIGHT 1
VIEWPOINT 0 0 0 1 0 0 0
POINTS 1517
DATA ascii
-0.27372 0.065171428 2.2810001
-0.26937523 0.065171428 2.2810001
-0.26863238 0.066057146 2.312
-0.26422858 0.066057146 2.312
-0.26151049 0.066485718 2.3270001
-0.25707811 0.066485718 2.3270001
-0.25264573 0.066485718 2.3270001
-0.24821334 0.066485718 2.3270001
-0.24220954 0.066057146 2.312
-0.23780572 0.066057146 2.312
-0.23340191 0.066057146 2.312
-0.22751239 0.065628573 2.2970002
-0.22313716 0.065628573 2.2970002
-0.2172381 0.065171428 2.2810001
-0.21289334 0.065171428 2.2810001
-0.20854858 0.065171428 2.2810001
-0.20420381 0.065171428 2.2810001
-0.19985905 0.065171428 2.2810001
-0.19551429 0.065171428 2.2810001
-0.19116953 0.065171428 2.2810001
-0.18682477 0.065171428 2.2810001
-0.18376 0.065628573 2.2970002
-0.17938477 0.065628573 2.2970002
-0.17500953 0.065628573 2.2970002
-0.16944572 0.065171428 2.2810001
-0.16510096 0.065171428 2.2810001
-0.1607562 0.065171428 2.2810001
-0.15641144 0.065171428 2.2810001
-0.15206668 0.065171428 2.2810001
-0.14772192 0.065171428 2.2810001
-0.14337716 0.065171428 2.2810001
-0.13903238 0.065171428 2.2810001
-0.13468762 0.065171428 2.2810001
-0.12948573 0.064742863 2.266
-0.12516953 0.064742863 2.266
-0.12085333 0.064742863 2.266
-0.11653715 0.064742863 2.266
-0.11222096 0.064742863 2.266
-0.10790477 0.064742863 2.266
-0.10358857 0.064742863 2.266
-0.099272385 0.064742863 2.266
-0.094956197 0.064742863 2.266
-0.091240004 0.065171428 2.2810001
-0.086323813 0.064742863 2.266
-0.082007624 0.064742863 2.266
-0.07820572 0.065171428 2.2810001
-0.073860958 0.065171428 2.2810001
-0.069516189 0.065171428 2.2810001
-0.065171428 0.065171428 2.2810001
-0.06082667 0.065171428 2.2810001
-0.056110479 0.064742863 2.266
-0.051794287 0.064742863 2.266
-0.047478098 0.064742863 2.266
-0.043161906 0.064742863 2.266
-0.038845714 0.064742863 2.266
-0.034529526 0.064742863 2.266
-0.030026669 0.064342856 2.2520001
-0.025737144 0.064342856 2.2520001
-0.021447619 0.064342856 2.2520001
-0.017158097 0.064342856 2.2520001
-0.012868572 0.064342856 2.2520001
-0.0085790483 0.064342856 2.2520001
-0.0042895242 0.064342856 2.2520001
0 0.064342856 2.2520001
0.0042895242 0.064342856 2.2520001
0.0085790483 0.064342856 2.2520001
0.012868572 0.064342856 2.2520001
0.017158097 0.064342856 2.2520001
0.021447619 0.064342856 2.2520001
0.025737144 0.064342856 2.2520001
0.030026669 0.064342856 2.2520001
0.034316193 0.064342856 2.2520001
0.038605716 0.064342856 2.2520001
0.042609524 0.063914292 2.237
0.047184765 0.064342856 2.2520001
0.051474288 0.064342856 2.2520001
0.055392385 0.063914292 2.237
0.059653334 0.063914292 2.237
0.063914292 0.063914292 2.237
0.068632387 0.064342856 2.2520001
0.072921909 0.064342856 2.2520001
0.077211432 0.064342856 2.2520001
0.081500955 0.064342856 2.2520001
0.085219048 0.063914292 2.237
0.09008 0.064342856 2.2520001
0.094369531 0.064342856 2.2520001
0.098001905 0.063914292 2.237
0.10226286 0.063914292 2.237
0.10652381 0.063914292 2.237
0.11152762 0.064342856 2.2520001
0.11504572 0.063914292 2.237
0.11930667 0.063914292 2.237
0.1243962 0.064342856 2.2520001
0.12868571 0.064342856 2.2520001
0.13297524 0.064342856 2.2520001
0.13726477 0.064342856 2.2520001
0.1415543 0.064342856 2.2520001
0.14487238 0.063914292 2.237
0.15013334 0.064342856 2.2520001
0.15442286 0.064342856 2.2520001
0.15871239 0.064342856 2.2520001
0.16300191 0.064342856 2.2520001
0.16729143 0.064342856 2.2520001
0.17158096 0.064342856 2.2520001
0.17587048 0.064342856 2.2520001
0.18016 0.064342856 2.2520001
0.18444952 0.064342856 2.2520001
0.18873906 0.064342856 2.2520001
0.19302858 0.064342856 2.2520001
0.19731811 0.064342856 2.2520001
0.20160763 0.064342856 2.2520001
0.20589715 0.064342856 2.2520001
0.21018668 0.064342856 2.2520001
0.2144762 0.064342856 2.2520001
0.22012572 0.064742863 2.266
0.22444192 0.064742863 2.266
0.2287581 0.064742863 2.266
0.23307429 0.064742863 2.266
0.23739049 0.064742863 2.266
0.24170667 0.064742863 2.266
0.24602287 0.064742863 2.266
0.24879239 0.064342856 2.2520001
0.25308192 0.064342856 2.2520001
0.25737143 0.064342856 2.2520001
0.26166096 0.064342856 2.2520001
0.26760381 0.064742863 2.266
0.27192 0.064742863 2.266
0.27623621 0.064742863 2.266
0.28055239 0.064742863 2.266
0.28486857 0.064742863 2.266
0.28918478 0.064742863 2.266
0.29350096 0.064742863 2.266
0.29781714 0.064742863 2.266
0.30213335 0.064742863 2.266
0.30644953 0.064742863 2.266
0.31076571 0.064742863 2.266
0.31508192 0.064742863 2.266
0.31939811 0.064742863 2.266
0.32371429 0.064742863 2.266
0.32600382 0.064342856 2.2520001
0.33029336 0.064342856 2.2520001
0.33458287 0.064342856 2.2520001
0.3388724 0.064342856 2.2520001
0.34316191 0.064342856 2.2520001
0.34745145 0.064342856 2.2520001
0.34939811 0.063914292 2.237
0.35365906 0.063914292 2.237
0.35792002 0.063914292 2.237
0.36218098 0.063914292 2.237
0.36644191 0.063914292 2.237
0.37318859 0.064342856 2.2520001
0.37747812 0.064342856 2.2520001
0.38176763 0.064342856 2.2520001
0.38605717 0.064342856 2.2520001
0.39034668 0.064342856 2.2520001
0.39463621 0.064342856 2.2520001
0.39626858 0.063914292 2.237
0.40052953 0.063914292 2.237
0.40479049 0.063914292 2.237
0.40905145 0.063914292 2.237
0.41331241 0.063914292 2.237
0.41757336 0.063914292 2.237
0.42183429 0.063914292 2.237
0.42609525 0.063914292 2.237
0.42766288 0.063514285 2.223
0.43189716 0.063514285 2.223
0.43613145 0.063514285 2.223
0.44036573 0.063514285 2.223
0.4474 0.063914292 2.237
0.45166096 0.063914292 2.237
0.45592192 0.063914292 2.237
0.46018288 0.063914292 2.237
0.46444383 0.063914292 2.237
0.46870479 0.063914292 2.237
0.47296572 0.063914292 2.237
0.47722667 0.063914292 2.237
0.48148763 0.063914292 2.237
0.48574859 0.063914292 2.237
0.48694289 0.063514285 2.223
0.4942705 0.063914292 2.237
0.49853146 0.063914292 2.237
0.50279242 0.063914292 2.237
0.50705338 0.063914292 2.237
0.51131433 0.063914292 2.237
0.51557523 0.063914292 2.237
0.51983619 0.063914292 2.237
0.52081716 0.063514285 2.223
0.52505147 0.063514285 2.223
0.52928573 0.063514285 2.223
0.53352004 0.063514285 2.223
0.5377543 0.063514285 2.223
0.54198861 0.063514285 2.223
0.54622287 0.063514285 2.223
0.55045718 0.063514285 2.223
0.55469143 0.063514285 2.223
0.55892575 0.063514285 2.223
0.56316 0.063514285 2.223
0.56739432 0.063514285 2.223
0.57162857 0.063514285 2.223
0.57586288 0.063514285 2.223
0.58375049 0.063914292 2.237
0.58801144 0.063914292 2.237
0.5922724 0.063914292 2.237
0.59280002 0.063514285 2.223
0.60079432 0.063914292 2.237
0.60126859 0.063514285 2.223
0.60141718 0.06308572 2.2080002
0.60562289 0.06308572 2.2080002
0.60982859 0.06308572 2.2080002
0.61820573 0.063514285 2.223
0.61824 0.06308572 2.2080002
0.62667429 0.063514285 2.223
0.62665147 0.06308572 2.2080002
0.63514286 0.063514285 2.223
0.63506287 0.06308572 2.2080002
0.63926858 0.06308572 2.2080002
0.64347428 0.06308572 2.2080002
0.64768004 0.06308572 2.2080002
0.65188575 0.06308572 2.2080002
0.65609145 0.06308572 2.2080002
0.66029716 0.06308572 2.2080002
0.66450286 0.06308572 2.2080002
0.66870862 0.06308572 2.2080002
0.67291433 0.06308572 2.2080002
0.67712003 0.06308572 2.2080002
0.68132573 0.06308572 2.2080002
0.68553144 0.06308572 2.2080002
0.68973714 0.06308572 2.2080002
0.6939429 0.06308572 2.2080002
0.69814861 0.06308572 2.2080002
0.70235431 0.06308572 2.2080002
0.70656002 0.06308572 2.2080002
0.71076572 0.06308572 2.2080002
0.71497148 0.06308572 2.2080002
0.71917719 0.06308572 2.2080002
0.72338289 0.06308572 2.2080002
0.72758859 0.06308572 2.2080002
0.7317943 0.06308572 2.2080002
0.736 0.06308572 2.2080002
0.74020576 0.06308572 2.2080002
0.74441147 0.06308572 2.2080002
0.75370288 0.063514285 2.223
0.75793719 0.063514285 2.223
0.76217145 0.063514285 2.223
0.76640576 0.063514285 2.223
0.77549338 0.063914292 2.237
0.77975434 0.063914292 2.237
0.78401524 0.063914292 2.237
0.7882762 0.063914292 2.237
0.79253715 0.063914292 2.237
0.80214101 0.064342856 2.2520001
0.80643052 0.064342856 2.2520001
0.81072003 0.064342856 2.2520001
0.81500953 0.064342856 2.2520001
0.81384194 0.063914292 2.237
0.8181029 0.063914292 2.237
0.82236385 0.063914292 2.237
0.82662481 0.063914292 2.237
0.82011431 0.06308572 2.2080002
0.81909335 0.062685713 2.194
0.82327241 0.062685713 2.194
0.82745147 0.062685713 2.194
0.82670289 0.062314287 2.181
0.82552385 0.061914288 2.1670001
0.82965147 0.061914288 2.1670001
0.82839239 0.061514288 2.1530001
0.82746673 0.061142858 2.1400001
0.82649148 0.060771432 2.1270001
0.82546669 0.060400002 2.1140001
0.82439244 0.060028575 2.1010001
0.82839429 0.060028575 2.1010001
0.82724577 0.059657145 2.0880001
0.82644576 0.059314288 2.0760002
0.83040005 0.059314288 2.0760002
0.83435434 0.059314288 2.0760002
0.82821333 0.058600001 2.0510001
0.82725143 0.058257144 2.039
0.82624382 0.057914287 2.0270002
0.82519048 0.05757143 2.0150001
0.82409143 0.057228573 2.003
0.82336003 0.056914289 1.9920001
0.82217145 0.056571431 1.9800001
0.82135433 0.056257144 1.9690001
0.82510477 0.056257144 1.9690001
0.82422477 0.05594286 1.9580001
0.82330287 0.055628572 1.9470001
0.82701147 0.055628572 1.9470001
0.82602668 0.055314288 1.9360001
0.8297143 0.055314288 1.9360001
0.82436192 0.054714289 1.9150001
0.82325339 0.054400001 1.904
0.82253718 0.054114286 1.8940001
0.82614481 0.054114286 1.8940001
0.82493335 0.053800002 1.8830001
0.82412004 0.053514287 1.8730001
0.82768762 0.053514287 1.8730001
0.82681715 0.053228572 1.863
0.8259086 0.052942861 1.853
0.82048577 0.052371431 1.8330001
0.81993145 0.052114289 1.8240001
0.81889147 0.051828574 1.8140001
0.81781334 0.05154286 1.8040001
0.82124954 0.05154286 1.8040001
0.82057148 0.051285718 1.7950001
0.81985909 0.051028572 1.7860001
0.81911242 0.05077143 1.7770001
0.82249719 0.05077143 1.7770001
0.82169908 0.050514288 1.7680001
0.8208667 0.050257146 1.7590001
0.82000005 0.050000001 1.7500001
0.81909907 0.049742859 1.7410001
0.82241529 0.049742859 1.7410001
0.82146287 0.049485717 1.7320001
0.82476193 0.049485717 1.7320001
0.82375813 0.049228575 1.723
0.82704002 0.049228575 1.723
0.82646668 0.049000002 1.715
0.82973337 0.049000002 1.715
0.833 0.049000002 1.715
0.8362667 0.049000002 1.715
0.83953339 0.049000002 1.715
0.84280002 0.049000002 1.715
0.84606671 0.049000002 1.715
0.84933335 0.049000002 1.715
0.85260004 0.049000002 1.715
0.85586667 0.049000002 1.715
0.863141 0.049228575 1.723
0.86642289 0.049228575 1.723
0.86970478 0.049228575 1.723
0.87298667 0.049228575 1.723
0.87626863 0.049228575 1.723
0.87955052 0.049228575 1.723
0.87873334 0.049000002 1.715
0.88200003 0.049000002 1.715
0.88526672 0.049000002 1.715
0.88853335 0.049000002 1.715
0.89180005 0.049000002 1.715
0.89506668 0.049000002 1.715
0.89833337 0.049000002 1.715
0.89686859 0.048742861 1.7060001
0.90011811 0.048742861 1.7060001
0.90336764 0.048742861 1.7060001
0.90661716 0.048742861 1.7060001
-0.37860382 0.05360762 1.7590001
-0.37525335 0.05360762 1.7590001
-0.37190288 0.05360762 1.7590001
-0.36855239 0.05360762 1.7590001
-0.36520192 0.05360762 1.7590001
-0.36185145 0.05360762 1.7590001
-0.35850096 0.05360762 1.7590001
-0.35515049 0.05360762 1.7590001
-0.35180002 0.05360762 1.7590001
-0.34844953 0.05360762 1.7590001
-0.34509906 0.05360762 1.7590001
-0.34 0.053333335 1.7500001
-0.3383981 0.05360762 1.7590001
-0.33504763 0.05360762 1.7590001
-0.33169717 0.05360762 1.7590001
-0.32834667 0.05360762 1.7590001
-0.3249962 0.05360762 1.7590001
-0.32164574 0.05360762 1.7590001
-0.31992382 0.053881906 1.7680001
-0.31655622 0.053881906 1.7680001
-0.31159431 0.05360762 1.7590001
-0.30824381 0.05360762 1.7590001
-0.30489334 0.05360762 1.7590001
-0.30154288 0.05360762 1.7590001
-0.29819238 0.05360762 1.7590001
-0.29635048 0.053881906 1.7680001
-0.29298288 0.053881906 1.7680001
-0.29108953 0.054156192 1.7770001
-0.28770477 0.054156192 1.7770001
-0.28576002 0.054430477 1.7860001
-0.28378096 0.054704763 1.7950001
-0.29582477 0.057721905 1.8940001
-0.29376 0.058026668 1.904
-0.29013336 0.058026668 1.904
-0.2881619 0.058361907 1.9150001
-0.28451431 0.058361907 1.9150001
-0.28233334 0.058666669 1.9250001
-0.28662857 0.060342859 1.9800001
-0.28614286 0.06104381 2.003
-0.28401905 0.061409526 2.0150001
-0.28184953 0.061775241 2.0270002
-0.28128001 0.062506668 2.0510001
-0.2807543 0.063268572 2.0760002
-0.2784 0.063634291 2.0880001
-0.27442285 0.063634291 2.0880001
-0.27886477 0.065615244 2.1530001
-0.27833715 0.066468574 2.181
-0.27757716 0.067291431 2.2080002
-0.27696192 0.068175241 2.237
-0.27623621 0.069059052 2.266
-0.27192 0.069059052 2.266
-0.27303621 0.070460953 2.312
-0.27037525 0.070918098 2.3270001
-0.26594287 0.070918098 2.3270001
-0.26151049 0.070918098 2.3270001
-0.25707811 0.070918098 2.3270001
-0.25264573 0.070918098 2.3270001
-0.24821334 0.070918098 2.3270001
-0.24220954 0.070460953 2.312
-0.23780572 0.070460953 2.312
-0.23340191 0.070460953 2.312
-0.22751239 0.070003815 2.2970002
-0.22313716 0.070003815 2.2970002
-0.21876191 0.070003815 2.2970002
-0.21289334 0.069516189 2.2810001
-0.20854858 0.069516189 2.2810001
-0.20420381 0.069516189 2.2810001
-0.19985905 0.069516189 2.2810001
-0.19551429 0.069516189 2.2810001
-0.19116953 0.069516189 2.2810001
-0.18682477 0.069516189 2.2810001
-0.18248001 0.069516189 2.2810001
-0.17938477 0.070003815 2.2970002
-0.17379048 0.069516189 2.2810001
-0.16944572 0.069516189 2.2810001
-0.16510096 0.069516189 2.2810001
-0.1607562 0.069516189 2.2810001
-0.15641144 0.069516189 2.2810001
-0.15206668 0.069516189 2.2810001
-0.14772192 0.069516189 2.2810001
-0.14337716 0.069516189 2.2810001
-0.13903238 0.069516189 2.2810001
-0.13468762 0.069516189 2.2810001
-0.13034286 0.069516189 2.2810001
-0.12599809 0.069516189 2.2810001
-0.12165334 0.069516189 2.2810001
-0.11730858 0.069516189 2.2810001
-0.11222096 0.069059052 2.266
-0.10790477 0.069059052 2.266
-0.10358857 0.069059052 2.266
-0.099272385 0.069059052 2.266
-0.094956197 0.069059052 2.266
-0.091240004 0.069516189 2.2810001
-0.086323813 0.069059052 2.266
-0.082007624 0.069059052 2.266
-0.07820572 0.069516189 2.2810001
-0.073860958 0.069516189 2.2810001
-0.069516189 0.069516189 2.2810001
-0.064742863 0.069059052 2.266
-0.06082667 0.069516189 2.2810001
-0.056110479 0.069059052 2.266
-0.051794287 0.069059052 2.266
-0.047478098 0.069059052 2.266
-0.043161906 0.069059052 2.266
-0.038845714 0.069059052 2.266
-0.034529526 0.069059052 2.266
-0.029826667 0.068175241 2.237
-0.025737144 0.068632387 2.2520001
-0.021447619 0.068632387 2.2520001
-0.017158097 0.068632387 2.2520001
-0.012868572 0.068632387 2.2520001
-0.0085790483 0.068632387 2.2520001
-0.0042895242 0.068632387 2.2520001
0 0.068632387 2.2520001
0.0042895242 0.068632387 2.2520001
0.0085790483 0.068632387 2.2520001
0.012868572 0.068632387 2.2520001
0.017158097 0.068632387 2.2520001
0.021447619 0.068632387 2.2520001
0.025737144 0.068632387 2.2520001
0.030026669 0.068632387 2.2520001
0.034316193 0.068632387 2.2520001
0.038605716 0.068632387 2.2520001
0.042895239 0.068632387 2.2520001
0.047184765 0.068632387 2.2520001
0.051474288 0.068632387 2.2520001
0.055763811 0.068632387 2.2520001
0.059653334 0.068175241 2.237
0.063914292 0.068175241 2.237
0.068632387 0.068632387 2.2520001
0.072921909 0.068632387 2.2520001
0.077211432 0.068632387 2.2520001
0.080958098 0.068175241 2.237
0.085219048 0.068175241 2.237
0.09008 0.068632387 2.2520001
0.094369531 0.068632387 2.2520001
0.098001905 0.068175241 2.237
0.10226286 0.068175241 2.237
0.10652381 0.068175241 2.237
0.11152762 0.068632387 2.2520001
0.11581714 0.068632387 2.2520001
0.11930667 0.068175241 2.237
0.12356763 0.068175241 2.237
0.12868571 0.068632387 2.2520001
0.13297524 0.068632387 2.2520001
0.13726477 0.068632387 2.2520001
0.14061144 0.068175241 2.237
0.14487238 0.068175241 2.237
0.15013334 0.068632387 2.2520001
0.15442286 0.068632387 2.2520001
0.15871239 0.068632387 2.2520001
0.16300191 0.068632387 2.2520001
0.16729143 0.068632387 2.2520001
0.17158096 0.068632387 2.2520001
0.17587048 0.068632387 2.2520001
0.18016 0.068632387 2.2520001
0.18444952 0.068632387 2.2520001
0.18873906 0.068632387 2.2520001
0.19302858 0.068632387 2.2520001
0.19600381 0.068175241 2.237
0.20160763 0.068632387 2.2520001
0.20589715 0.068632387 2.2520001
0.21018668 0.068632387 2.2520001
0.2144762 0.068632387 2.2520001
0.21876572 0.068632387 2.2520001
0.22444192 0.069059052 2.266
0.2287581 0.069059052 2.266
0.23307429 0.069059052 2.266
0.23739049 0.069059052 2.266
0.24170667 0.069059052 2.266
0.24602287 0.069059052 2.266
0.24879239 0.068632387 2.2520001
0.25308192 0.068632387 2.2520001
0.25737143 0.068632387 2.2520001
0.26166096 0.068632387 2.2520001
0.26760381 0.069059052 2.266
0.27192 0.069059052 2.266
0.27623621 0.069059052 2.266
0.28055239 0.069059052 2.266
0.28486857 0.069059052 2.266
0.28918478 0.069059052 2.266
0.29350096 0.069059052 2.266
0.29781714 0.069059052 2.266
0.30213335 0.069059052 2.266
0.30644953 0.069059052 2.266
0.31076571 0.069059052 2.266
0.31508192 0.069059052 2.266
0.31939811 0.069059052 2.266
0.32371429 0.069059052 2.266
0.32600382 0.068632387 2.2520001
0.33029336 0.068632387 2.2520001
0.33458287 0.068632387 2.2520001
0.3388724 0.068632387 2.2520001
0.34316191 0.068632387 2.2520001
0.34513715 0.068175241 2.237
0.34939811 0.068175241 2.237
0.35365906 0.068175241 2.237
0.35792002 0.068175241 2.237
0.36218098 0.068175241 2.237
0.36889905 0.068632387 2.2520001
0.37318859 0.068632387 2.2520001
0.37747812 0.068632387 2.2520001
0.38176763 0.068632387 2.2520001
0.38605717 0.068632387 2.2520001
0.39034668 0.068632387 2.2520001
0.39463621 0.068632387 2.2520001
0.39626858 0.068175241 2.237
0.40052953 0.068175241 2.237
0.40479049 0.068175241 2.237
0.40905145 0.068175241 2.237
0.41331241 0.068175241 2.237
0.41757336 0.068175241 2.237
0.42183429 0.068175241 2.237
0.4234286 0.067748576 2.223
0.42766288 0.067748576 2.223
0.43189716 0.067748576 2.223
0.43613145 0.067748576 2.223
0.44036573 0.067748576 2.223
0.44460002 0.067748576 2.223
0.4488343 0.067748576 2.223
0.45592192 0.068175241 2.237
0.46018288 0.068175241 2.237
0.46444383 0.068175241 2.237
0.46870479 0.068175241 2.237
0.47296572 0.068175241 2.237
0.47722667 0.068175241 2.237
0.48148763 0.068175241 2.237
0.48574859 0.068175241 2.237
0.49000955 0.068175241 2.237
0.4942705 0.068175241 2.237
0.49853146 0.068175241 2.237
0.50279242 0.068175241 2.237
0.50705338 0.068175241 2.237
0.51131433 0.068175241 2.237
0.51557523 0.068175241 2.237
0.51658285 0.067748576 2.223
0.52081716 0.067748576 2.223
0.52505147 0.067748576 2.223
0.52928573 0.067748576 2.223
0.53352004 0.067748576 2.223
0.5377543 0.067748576 2.223
0.54198861 0.067748576 2.223
0.54622287 0.067748576 2.223
0.55045718 0.067748576 2.223
0.55469143 0.067748576 2.223
0.55892575 0.067748576 2.223
0.56316 0.067748576 2.223
0.56739432 0.067748576 2.223
0.57162857 0.067748576 2.223
0.57586288 0.067748576 2.223
0.58375049 0.068175241 2.237
0.58801144 0.068175241 2.237
0.5922724 0.068175241 2.237
0.59280002 0.067748576 2.223
0.59703434 0.067748576 2.223
0.60126859 0.067748576 2.223
0.60141718 0.067291431 2.2080002
0.60562289 0.067291431 2.2080002
0.60982859 0.067291431 2.2080002
0.6140343 0.067291431 2.2080002
0.61824 0.067291431 2.2080002
0.62244576 0.067291431 2.2080002
0.62665147 0.067291431 2.2080002
0.63514286 0.067748576 2.223
0.63937718 0.067748576 2.223
0.64361143 0.067748576 2.223
0.64347428 0.067291431 2.2080002
0.64768004 0.067291431 2.2080002
0.65188575 0.067291431 2.2080002
0.65609145 0.067291431 2.2080002
0.66029716 0.067291431 2.2080002
0.66450286 0.067291431 2.2080002
0.66870862 0.067291431 2.2080002
0.67291433 0.067291431 2.2080002
0.67712003 0.067291431 2.2080002
0.68132573 0.067291431 2.2080002
0.68553144 0.067291431 2.2080002
0.68973714 0.067291431 2.2080002
0.6939429 0.067291431 2.2080002
0.69814861 0.067291431 2.2080002
0.70235431 0.067291431 2.2080002
0.70656002 0.067291431 2.2080002
0.71076572 0.067291431 2.2080002
0.71497148 0.067291431 2.2080002
0.71917719 0.067291431 2.2080002
0.72338289 0.067291431 2.2080002
0.72758859 0.067291431 2.2080002
0.7317943 0.067291431 2.2080002
0.736 0.067291431 2.2080002
0.74020576 0.067291431 2.2080002
0.74441147 0.067291431 2.2080002
0.75370288 0.067748576 2.223
0.75793719 0.067748576 2.223
0.76217145 0.067748576 2.223
0.76640576 0.067748576 2.223
0.77549338 0.068175241 2.237
0.77487433 0.067748576 2.223
0.77910858 0.067748576 2.223
0.7833429 0.067748576 2.223
0.78757715 0.067748576 2.223
0.79679811 0.068175241 2.237
0.80105907 0.068175241 2.237
0.81072003 0.068632387 2.2520001
0.81500953 0.068632387 2.2520001
0.81384194 0.068175241 2.237
0.8181029 0.068175241 2.237
0.82236385 0.068175241 2.237
0.82662481 0.068175241 2.237
0.83088577 0.068175241 2.237
0.82432002 0.067291431 2.2080002
0.82852572 0.067291431 2.2080002
0.82745147 0.066864766 2.194
0.83163053 0.066864766 2.194
0.83085716 0.066468574 2.181
0.82965147 0.066041909 2.1670001
0.82839239 0.065615244 2.1530001
0.82746673 0.065219052 2.1400001
0.83154291 0.065219052 2.1400001
0.83054286 0.06482286 2.1270001
0.82949334 0.064426668 2.1140001
0.82839429 0.064030476 2.1010001
0.82724577 0.063634291 2.0880001
0.83122289 0.063634291 2.0880001
0.83040005 0.063268572 2.0760002
0.82912958 0.06287238 2.0630002
0.82821333 0.062506668 2.0510001
0.82725143 0.062140957 2.039
0.82624382 0.061775241 2.0270002
0.82519048 0.061409526 2.0150001
0.82409143 0.06104381 2.003
0.82336003 0.060708575 1.9920001
0.82217145 0.060342859 1.9800001
0.82594287 0.060342859 1.9800001
0.82510477 0.060007621 1.9690001
0.82422477 0.059672382 1.9580001
0.82330287 0.059337147 1.9470001
0.82701147 0.059337147 1.9470001
0.82602668 0.059001908 1.9360001
0.82500005 0.058666669 1.9250001
0.82436192 0.058361907 1.9150001
0.82325339 0.058026668 1.904
0.82253718 0.057721905 1.8940001
0.82614481 0.057721905 1.8940001
0.82493335 0.05738667 1.8830001
0.82412004 0.057081908 1.8730001
0.82768762 0.057081908 1.8730001
0.82681715 0.056777146 1.863
0.8259086 0.056472383 1.853
0.82496196 0.056167621 1.8430001
0.81543624 0.055283811 1.8140001
0.81437719 0.054979049 1.8040001
0.81781334 0.054979049 1.8040001
0.81715244 0.054704763 1.7950001
0.81645715 0.054430477 1.7860001
0.81985909 0.054430477 1.7860001
0.81911242 0.054156192 1.7770001
0.82249719 0.054156192 1.7770001
0.82169908 0.053881906 1.7680001
0.8208667 0.05360762 1.7590001
0.82000005 0.053333335 1.7500001
0.81909907 0.053059049 1.7410001
0.82241529 0.053059049 1.7410001
0.82146287 0.052784763 1.7320001
0.82476193 0.052784763 1.7320001
0.82375813 0.052510478 1.723
0.82704002 0.052510478 1.723
0.82646668 0.052266669 1.715
0.82973337 0.052266669 1.715
0.833 0.052266669 1.715
0.8362667 0.052266669 1.715
0.83953339 0.052266669 1.715
0.84280002 0.052266669 1.715
0.84606671 0.052266669 1.715
0.84933335 0.052266669 1.715
0.85260004 0.052266669 1.715
0.85586667 0.052266669 1.715
0.85913336 0.052266669 1.715
0.86240005 0.052266669 1.715
0.86970478 0.052510478 1.723
0.87298667 0.052510478 1.723
0.87626863 0.052510478 1.723
0.87955052 0.052510478 1.723
0.87873334 0.052266669 1.715
0.88200003 0.052266669 1.715
0.88526672 0.052266669 1.715
0.88853335 0.052266669 1.715
0.89180005 0.052266669 1.715
0.89506668 0.052266669 1.715
0.89361906 0.051992383 1.7060001
0.89686859 0.051992383 1.7060001
0.90011811 0.051992383 1.7060001
0.90336764 0.051992383 1.7060001
0.90661716 0.051992383 1.7060001
0.90986669 0.051992383 1.7060001
-0.37860382 0.056958098 1.7590001
-0.37525335 0.056958098 1.7590001
-0.37190288 0.056958098 1.7590001
-0.36855239 0.056958098 1.7590001
-0.36520192 0.056958098 1.7590001
-0.36185145 0.056958098 1.7590001
-0.35850096 0.056958098 1.7590001
-0.35515049 0.056958098 1.7590001
-0.35180002 0.056958098 1.7590001
-0.34844953 0.056958098 1.7590001
-0.34509906 0.056958098 1.7590001
-0.3417486 0.056958098 1.7590001
-0.3383981 0.056958098 1.7590001
-0.33504763 0.056958098 1.7590001
-0.33000001 0.056666669 1.7500001
-0.32666668 0.056666669 1.7500001
-0.32333335 0.056666669 1.7500001
-0.32000002 0.056666669 1.7500001
-0.31666669 0.056666669 1.7500001
-0.31494477 0.056958098 1.7590001
-0.31159431 0.056958098 1.7590001
-0.30824381 0.056958098 1.7590001
-0.30489334 0.056958098 1.7590001
-0.30154288 0.056958098 1.7590001
-0.29819238 0.056958098 1.7590001
-0.29484192 0.056958098 1.7590001
-0.29298288 0.057249527 1.7680001
-0.29108953 0.057540953 1.7770001
-0.28770477 0.057540953 1.7770001
-0.2872 0.058123812 1.7950001
-0.28378096 0.058123812 1.7950001
-0.29410669 0.060973335 1.8830001
-0.29221717 0.061329525 1.8940001
-0.29013336 0.061653335 1.904
-0.2881619 0.062009525 1.9150001
-0.28451431 0.062009525 1.9150001
-0.28233334 0.062333334 1.9250001
-0.28662857 0.064114287 1.9800001
-0.28614286 0.064859048 2.003
-0.28401905 0.065247625 2.0150001
-0.28184953 0.065636195 2.0270002
-0.28128001 0.066413336 2.0510001
-0.2789962 0.066801906 2.0630002
-0.2784 0.067611434 2.0880001
-0.28125715 0.069295242 2.1400001
-0.27886477 0.069716193 2.1530001
-0.27833715 0.070622861 2.181
-0.27757716 0.071497142 2.2080002
-0.27696192 0.072436191 2.237
-0.27452955 0.072921909 2.2520001
-0.27024001 0.072921909 2.2520001
-0.27126476 0.074379049 2.2970002
-0.26863238 0.074864767 2.312
-0.26594287 0.075350478 2.3270001
-0.26151049 0.075350478 2.3270001
-0.25707811 0.075350478 2.3270001
-0.25264573 0.075350478 2.3270001
-0.24821334 0.075350478 2.3270001
-0.24220954 0.074864767 2.312
-0.23780572 0.074864767 2.312
-0.23188762 0.074379049 2.2970002
-0.22751239 0.074379049 2.2970002
-0.22313716 0.074379049 2.2970002
-0.2172381 0.073860958 2.2810001
-0.21289334 0.073860958 2.2810001
-0.20854858 0.073860958 2.2810001
-0.20420381 0.073860958 2.2810001
-0.19985905 0.073860958 2.2810001
-0.19551429 0.073860958 2.2810001
-0.19116953 0.073860958 2.2810001
-0.18682477 0.073860958 2.2810001
-0.18248001 0.073860958 2.2810001
-0.17938477 0.074379049 2.2970002
-0.17379048 0.073860958 2.2810001
-0.16944572 0.073860958 2.2810001
-0.16510096 0.073860958 2.2810001
-0.1607562 0.073860958 2.2810001
-0.15641144 0.073860958 2.2810001
-0.15206668 0.073860958 2.2810001
-0.14772192 0.073860958 2.2810001
-0.14337716 0.073860958 2.2810001
-0.13903238 0.073860958 2.2810001
-0.13468762 0.073860958 2.2810001
-0.13034286 0.073860958 2.2810001
-0.12599809 0.073860958 2.2810001
-0.12165334 0.073860958 2.2810001
-0.11730858 0.073860958 2.2810001
-0.11222096 0.07337524 2.266
-0.10790477 0.07337524 2.266
-0.10358857 0.07337524 2.266
-0.099272385 0.07337524 2.266
-0.094956197 0.07337524 2.266
-0.091240004 0.073860958 2.2810001
-0.086323813 0.07337524 2.266
-0.082007624 0.07337524 2.266
-0.07820572 0.073860958 2.2810001
-0.073860958 0.073860958 2.2810001
-0.069516189 0.073860958 2.2810001
-0.065171428 0.073860958 2.2810001
-0.06082667 0.073860958 2.2810001
-0.056481905 0.073860958 2.2810001
-0.051794287 0.07337524 2.266
-0.047478098 0.07337524 2.266
-0.043161906 0.07337524 2.266
-0.038845714 0.07337524 2.266
-0.034529526 0.07337524 2.266
-0.029826667 0.072436191 2.237
-0.025737144 0.072921909 2.2520001
-0.021447619 0.072921909 2.2520001
-0.017158097 0.072921909 2.2520001
-0.012868572 0.072921909 2.2520001
-0.0085790483 0.072921909 2.2520001
-0.0042895242 0.072921909 2.2520001
0 0.072921909 2.2520001
0.0042895242 0.072921909 2.2520001
0.0085790483 0.072921909 2.2520001
0.012868572 0.072921909 2.2520001
0.017158097 0.072921909 2.2520001
0.021447619 0.072921909 2.2520001
0.025737144 0.072921909 2.2520001
0.029826667 0.072436191 2.237
0.034087621 0.072436191 2.237
0.038605716 0.072921909 2.2520001
0.042895239 0.072921909 2.2520001
0.046870477 0.072436191 2.237
0.051131431 0.072436191 2.237
0.055392385 0.072436191 2.237
0.059653334 0.072436191 2.237
0.063914292 0.072436191 2.237
0.068175241 0.072436191 2.237
0.072921909 0.072921909 2.2520001
0.077211432 0.072921909 2.2520001
0.080958098 0.072436191 2.237
0.085219048 0.072436191 2.237
0.09008 0.072921909 2.2520001
0.094369531 0.072921909 2.2520001
0.098001905 0.072436191 2.237
0.10226286 0.072436191 2.237
0.1072381 0.072921909 2.2520001
0.11152762 0.072921909 2.2520001
0.11581714 0.072921909 2.2520001
0.11930667 0.072436191 2.237
0.12356763 0.072436191 2.237
0.12868571 0.072921909 2.2520001
0.13208953 0.072436191 2.237
0.13726477 0.072921909 2.2520001
0.14061144 0.072436191 2.237
0.14487238 0.072436191 2.237
0.14913334 0.072436191 2.237
0.15442286 0.072921909 2.2520001
0.15871239 0.072921909 2.2520001
0.16300191 0.072921909 2.2520001
0.16729143 0.072921909 2.2520001
0.17158096 0.072921909 2.2520001
0.17587048 0.072921909 2.2520001
0.18016 0.072921909 2.2520001
0.18444952 0.072921909 2.2520001
0.18873906 0.072921909 2.2520001
0.19302858 0.072921909 2.2520001
0.19600381 0.072436191 2.237
0.20026477 0.072436191 2.237
0.20452572 0.072436191 2.237
0.21018668 0.072921909 2.2520001
0.2144762 0.072921909 2.2520001
0.21876572 0.072921909 2.2520001
0.22305524 0.072921909 2.2520001
0.2287581 0.07337524 2.266
0.23163429 0.072921909 2.2520001
0.23592381 0.072921909 2.2520001
0.24021335 0.072921909 2.2520001
0.24450287 0.072921909 2.2520001
0.24879239 0.072921909 2.2520001
0.25308192 0.072921909 2.2520001
0.25737143 0.072921909 2.2520001
0.26166096 0.072921909 2.2520001
0.26595047 0.072921909 2.2520001
0.27024001 0.072921909 2.2520001
0.27452955 0.072921909 2.2520001
0.27881905 0.072921909 2.2520001
0.28486857 0.07337524 2.266
0.28918478 0.07337524 2.266
0.29350096 0.07337524 2.266
0.29781714 0.07337524 2.266
0.30213335 0.07337524 2.266
0.30644953 0.07337524 2.266
0.31076571 0.07337524 2.266
0.31508192 0.07337524 2.266
0.31939811 0.07337524 2.266
0.32371429 0.07337524 2.266
0.32600382 0.072921909 2.2520001
0.33029336 0.072921909 2.2520001
0.33458287 0.072921909 2.2520001
0.3388724 0.072921909 2.2520001
0.34316191 0.072921909 2.2520001
0.34513715 0.072436191 2.237
0.34939811 0.072436191 2.237
0.35365906 0.072436191 2.237
0.36032 0.072921909 2.2520001
0.36218098 0.072436191 2.237
0.36889905 0.072921909 2.2520001
0.37318859 0.072921909 2.2520001
0.37747812 0.072921909 2.2520001
0.38176763 0.072921909 2.2520001
0.38605717 0.072921909 2.2520001
0.39034668 0.072921909 2.2520001
0.39463621 0.072921909 2.2520001
0.39626858 0.072436191 2.237
0.40052953 0.072436191 2.237
0.40479049 0.072436191 2.237
0.40905145 0.072436191 2.237
0.41331241 0.072436191 2.237
0.41757336 0.072436191 2.237
0.42183429 0.072436191 2.237
0.4234286 0.071982861 2.223
0.42766288 0.071982861 2.223
0.43189716 0.071982861 2.223
0.43613145 0.071982861 2.223
0.44036573 0.071982861 2.223
0.44460002 0.071982861 2.223
0.4488343 0.071982861 2.223
0.45592192 0.072436191 2.237
0.46018288 0.072436191 2.237
0.46444383 0.072436191 2.237
0.46870479 0.072436191 2.237
0.47000572 0.071982861 2.223
0.47722667 0.072436191 2.237
0.48148763 0.072436191 2.237
0.48574859 0.072436191 2.237
0.48694289 0.071982861 2.223
0.4942705 0.072436191 2.237
0.49541146 0.071982861 2.223
0.50279242 0.072436191 2.237
0.50705338 0.072436191 2.237
0.51131433 0.072436191 2.237
0.51557523 0.072436191 2.237
0.51658285 0.071982861 2.223
0.52081716 0.071982861 2.223
0.52505147 0.071982861 2.223
0.52928573 0.071982861 2.223
0.53352004 0.071982861 2.223
0.5377543 0.071982861 2.223
0.54198861 0.071982861 2.223
0.54622287 0.071982861 2.223
0.55045718 0.071982861 2.223
0.55469143 0.071982861 2.223
0.55892575 0.071982861 2.223
0.55936003 0.071497142 2.2080002
0.56356573 0.071497142 2.2080002
0.57162857 0.071982861 2.223
0.57586288 0.071982861 2.223
0.58009714 0.071982861 2.223
0.58433145 0.071982861 2.223
0.58856571 0.071982861 2.223
0.59280002 0.071982861 2.223
0.59703434 0.071982861 2.223
0.59721148 0.071497142 2.2080002
0.60141718 0.071497142 2.2080002
0.60562289 0.071497142 2.2080002
0.60982859 0.071497142 2.2080002
0.6140343 0.071497142 2.2080002
0.61824 0.071497142 2.2080002
0.62244576 0.071497142 2.2080002
0.62665147 0.071497142 2.2080002
0.63514286 0.071982861 2.223
0.63937718 0.071982861 2.223
0.64361143 0.071982861 2.223
0.64347428 0.071497142 2.2080002
0.64768004 0.071497142 2.2080002
0.65188575 0.071497142 2.2080002
0.65609145 0.071497142 2.2080002
0.66029716 0.071497142 2.2080002
0.66450286 0.071497142 2.2080002
0.66870862 0.071497142 2.2080002
0.67291433 0.071497142 2.2080002
0.67712003 0.071497142 2.2080002
0.68132573 0.071497142 2.2080002
0.68553144 0.071497142 2.2080002
0.68973714 0.071497142 2.2080002
0.6939429 0.071497142 2.2080002
0.69814861 0.071497142 2.2080002
0.70235431 0.071497142 2.2080002
0.70656002 0.071497142 2.2080002
0.71076572 0.071497142 2.2080002
0.71497148 0.071497142 2.2080002
0.71917719 0.071497142 2.2080002
0.72338289 0.071497142 2.2080002
0.72758859 0.071497142 2.2080002
0.7317943 0.071497142 2.2080002
0.736 0.071497142 2.2080002
0.74020576 0.071497142 2.2080002
0.74441147 0.071497142 2.2080002
0.74861717 0.071497142 2.2080002
0.75793719 0.071982861 2.223
0.76217145 0.071982861 2.223
0.76123434 0.071497142 2.2080002
0.77064002 0.071982861 2.223
0.77487433 0.071982861 2.223
0.77910858 0.071982861 2.223
0.7833429 0.071982861 2.223
0.79253715 0.072436191 2.237
0.79679811 0.072436191 2.237
0.80643052 0.072921909 2.2520001
0.81072003 0.072921909 2.2520001
0.81500953 0.072921909 2.2520001
0.8192991 0.072921909 2.2520001
0.8181029 0.072436191 2.237
0.82236385 0.072436191 2.237
0.82662481 0.072436191 2.237
0.83088577 0.072436191 2.237
0.82432002 0.071497142 2.2080002
0.82852572 0.071497142 2.2080002
0.82745147 0.071043812 2.194
0.83163053 0.071043812 2.194
0.83085716 0.070622861 2.181
0.82965147 0.070169523 2.1670001
0.8337791 0.070169523 2.1670001
0.83249336 0.069716193 2.1530001
0.83154291 0.069295242 2.1400001
0.83054286 0.068874285 2.1270001
0.82949334 0.068453334 2.1140001
0.82839429 0.068032384 2.1010001
0.83239621 0.068032384 2.1010001
0.83122289 0.067611434 2.0880001
0.83040005 0.067222856 2.0760002
0.82912958 0.066801906 2.0630002
0.82821333 0.066413336 2.0510001
0.82725143 0.066024765 2.039
0.82624382 0.065636195 2.0270002
0.82519048 0.065247625 2.0150001
0.82409143 0.064859048 2.003
0.82336003 0.064502858 1.9920001
0.82715434 0.064502858 1.9920001
0.82594287 0.064114287 1.9800001
0.82510477 0.063758098 1.9690001
0.82885528 0.063758098 1.9690001
0.82330287 0.063045718 1.9470001
0.82701147 0.063045718 1.9470001
0.82602668 0.062689528 1.9360001
0.82071429 0.062009525 1.9150001
0.82436192 0.062009525 1.9150001
0.82325339 0.061653335 1.904
0.82253718 0.061329525 1.8940001
0.82614481 0.061329525 1.8940001
0.82493335 0.060973335 1.8830001
0.82412004 0.060649525 1.8730001
0.82768762 0.060649525 1.8730001
0.82681715 0.060325716 1.863
0.8259086 0.060001906 1.853
0.82496196 0.059678096 1.8430001
0.82397717 0.059354287 1.8330001
0.81437719 0.058415242 1.8040001
0.81781334 0.058415242 1.8040001
0.81715244 0.058123812 1.7950001
0.81645715 0.057832383 1.7860001
0.81985909 0.057832383 1.7860001
0.81911242 0.057540953 1.7770001
0.82249719 0.057540953 1.7770001
0.82588196 0.057540953 1.7770001
0.82506669 0.057249527 1.7680001
0.8242172 0.056958098 1.7590001
0.81909907 0.056375239 1.7410001
0.82241529 0.056375239 1.7410001
0.82146287 0.056083813 1.7320001
0.82476193 0.056083813 1.7320001
0.82375813 0.055792384 1.723
0.82704002 0.055792384 1.723
0.82646668 0.055533335 1.715
0.82973337 0.055533335 1.715
0.833 0.055533335 1.715
0.8362667 0.055533335 1.715
0.83953339 0.055533335 1.715
0.84280002 0.055533335 1.715
0.84606671 0.055533335 1.715
0.84933335 0.055533335 1.715
0.85260004 0.055533335 1.715
0.85586667 0.055533335 1.715
0.85913336 0.055533335 1.715
0.86240005 0.055533335 1.715
0.86566669 0.055533335 1.715
0.87298667 0.055792384 1.723
0.87626863 0.055792384 1.723
0.87955052 0.055792384 1.723
0.87873334 0.055533335 1.715
0.88200003 0.055533335 1.715
0.88526672 0.055533335 1.715
0.88853335 0.055533335 1.715
0.89180005 0.055533335 1.715
0.89506668 0.055533335 1.715
0.89833337 0.055533335 1.715
0.89686859 0.055241905 1.7060001
0.90011811 0.055241905 1.7060001
0.90336764 0.055241905 1.7060001
0.89333147 0.054432385 1.6810001
0.89653337 0.054432385 1.6810001
0.89973527 0.054432385 1.6810001
-0.37860382 0.060308572 1.7590001
-0.37525335 0.060308572 1.7590001
-0.37190288 0.060308572 1.7590001
-0.36855239 0.060308572 1.7590001
-0.36520192 0.060308572 1.7590001
-0.36185145 0.060308572 1.7590001
-0.35850096 0.060308572 1.7590001
-0.35515049 0.060308572 1.7590001
-0.35180002 0.060308572 1.7590001
-0.34844953 0.060308572 1.7590001
-0.34509906 0.060308572 1.7590001
-0.3417486 0.060308572 1.7590001
-0.3383981 0.060308572 1.7590001
-0.33504763 0.060308572 1.7590001
-0.33169717 0.060308572 1.7590001
-0.32666668 0.060000002 1.7500001
-0.32333335 0.060000002 1.7500001
-0.32000002 0.060000002 1.7500001
-0.31666669 0.060000002 1.7500001
-0.31494477 0.060308572 1.7590001
-0.31159431 0.060308572 1.7590001
-0.30824381 0.060308572 1.7590001
-0.30489334 0.060308572 1.7590001
-0.30154288 0.060308572 1.7590001
-0.29819238 0.060308572 1.7590001
-0.29635048 0.060617145 1.7680001
-0.29298288 0.060617145 1.7680001
-0.29108953 0.060925715 1.7770001
-0.28916192 0.061234288 1.7860001
-0.2872 0.061542861 1.7950001
-0.28520381 0.061851431 1.8040001
-0.29254478 0.064217143 1.8730001
-0.29052001 0.064560004 1.8830001
-0.29013336 0.065280005 1.904
-0.2881619 0.065657146 1.9150001
-0.28451431 0.065657146 1.9150001
-0.28878668 0.067508571 1.9690001
-0.28662857 0.067885719 1.9800001
-0.28614286 0.068674289 2.003
-0.28401905 0.069085717 2.0150001
-0.28518668 0.070320003 2.0510001
-0.28128001 0.070320003 2.0510001
-0.2789962 0.070731431 2.0630002
-0.28013334 0.072034292 2.1010001
-0.28125715 0.073371433 2.1400001
-0.27886477 0.073817149 2.1530001
-0.27833715 0.074777149 2.181
-0.27757716 0.075702861 2.2080002
-0.27881905 0.077211432 2.2520001
-0.27623621 0.077691428 2.266
-0.27372 0.07820572 2.2810001
-0.27303621 0.079268575 2.312
-0.26863238 0.079268575 2.312
-0.26594287 0.079782858 2.3270001
-0.26151049 0.079782858 2.3270001
-0.25707811 0.079782858 2.3270001
-0.25264573 0.079782858 2.3270001
-0.24661334 0.079268575 2.312
-0.24220954 0.079268575 2.312
-0.23780572 0.079268575 2.312
-0.23188762 0.078754291 2.2970002
-0.22751239 0.078754291 2.2970002
-0.22313716 0.078754291 2.2970002
-0.21876191 0.078754291 2.2970002
-0.21289334 0.07820572 2.2810001
-0.20854858 0.07820572 2.2810001
-0.20420381 0.07820572 2.2810001
-0.19985905 0.07820572 2.2810001
-0.19551429 0.07820572 2.2810001
-0.19116953 0.07820572 2.2810001
-0.18682477 0.07820572 2.2810001
-0.18248001 0.07820572 2.2810001
-0.17938477 0.078754291 2.2970002
-0.17379048 0.07820572 2.2810001
-0.16944572 0.07820572 2.2810001
-0.16510096 0.07820572 2.2810001
-0.1607562 0.07820572 2.2810001
-0.15641144 0.07820572 2.2810001
-0.15206668 0.07820572 2.2810001
-0.14772192 0.07820572 2.2810001
-0.14337716 0.07820572 2.2810001
-0.13903238 0.07820572 2.2810001
-0.13468762 0.07820572 2.2810001
-0.13034286 0.07820572 2.2810001
-0.12599809 0.07820572 2.2810001
-0.12165334 0.07820572 2.2810001
-0.11653715 0.077691428 2.266
-0.11222096 0.077691428 2.266
-0.10790477 0.077691428 2.266
-0.10358857 0.077691428 2.266
-0.099272385 0.077691428 2.266
-0.094956197 0.077691428 2.266
-0.090640001 0.077691428 2.266
-0.086323813 0.077691428 2.266
-0.082007624 0.077691428 2.266
-0.07820572 0.07820572 2.2810001
-0.073860958 0.07820572 2.2810001
-0.069516189 0.07820572 2.2810001
-0.065171428 0.07820572 2.2810001
-0.06082667 0.07820572 2.2810001
-0.056481905 0.07820572 2.2810001
-0.051794287 0.077691428 2.266
-0.047478098 0.077691428 2.266
-0.043161906 0.077691428 2.266
-0.038605716 0.077211432 2.2520001
-0.034316193 0.077211432 2.2520001
-0.029826667 0.076697148 2.237
-0.025737144 0.077211432 2.2520001
-0.021447619 0.077211432 2.2520001
-0.017158097 0.077211432 2.2520001
-0.012868572 0.077211432 2.2520001
-0.0085790483 0.077211432 2.2520001
-0.0042895242 0.077211432 2.2520001
0 0.077211432 2.2520001
0.0042895242 0.077211432 2.2520001
0.0085790483 0.077211432 2.2520001
0.012868572 0.077211432 2.2520001
0.017158097 0.077211432 2.2520001
0.021447619 0.077211432 2.2520001
0.025737144 0.077211432 2.2520001
0.029826667 0.076697148 2.237
0.034087621 0.076697148 2.237
0.038605716 0.077211432 2.2520001
0.042895239 0.077211432 2.2520001
0.047184765 0.077211432 2.2520001
0.051474288 0.077211432 2.2520001
0.055392385 0.076697148 2.237
0.059653334 0.076697148 2.237
0.063914292 0.076697148 2.237
0.068175241 0.076697148 2.237
0.072436191 0.076697148 2.237
0.077211432 0.077211432 2.2520001
0.081500955 0.077211432 2.2520001
0.085790478 0.077211432 2.2520001
0.09008 0.077211432 2.2520001
0.094369531 0.077211432 2.2520001
0.098659053 0.077211432 2.2520001
0.10294858 0.077211432 2.2520001
0.1072381 0.077211432 2.2520001
0.11152762 0.077211432 2.2520001
0.11581714 0.077211432 2.2520001
0.11930667 0.076697148 2.237
0.12356763 0.076697148 2.237
0.12868571 0.077211432 2.2520001
0.13208953 0.076697148 2.237
0.13635048 0.076697148 2.237
0.14061144 0.076697148 2.237
0.14487238 0.076697148 2.237
0.14913334 0.076697148 2.237
0.15442286 0.077211432 2.2520001
0.15871239 0.077211432 2.2520001
0.16300191 0.077211432 2.2520001
0.16729143 0.077211432 2.2520001
0.17158096 0.077211432 2.2520001
0.17587048 0.077211432 2.2520001
0.18016 0.077211432 2.2520001
0.18444952 0.077211432 2.2520001
0.18873906 0.077211432 2.2520001
0.19174287 0.076697148 2.237
0.19600381 0.076697148 2.237
0.20026477 0.076697148 2.237
0.20452572 0.076697148 2.237
0.20878668 0.076697148 2.237
0.2144762 0.077211432 2.2520001
0.21876572 0.077211432 2.2520001
0.22305524 0.077211432 2.2520001
0.22734477 0.077211432 2.2520001
0.23163429 0.077211432 2.2520001
0.23592381 0.077211432 2.2520001
0.24021335 0.077211432 2.2520001
0.24450287 0.077211432 2.2520001
0.24879239 0.077211432 2.2520001
0.25308192 0.077211432 2.2520001
0.25737143 0.077211432 2.2520001
0.26166096 0.077211432 2.2520001
0.26595047 0.077211432 2.2520001
0.27024001 0.077211432 2.2520001
0.27623621 0.077691428 2.266
0.28055239 0.077691428 2.266
0.28486857 0.077691428 2.266
0.28918478 0.077691428 2.266
0.29350096 0.077691428 2.266
0.29781714 0.077691428 2.266
0.30213335 0.077691428 2.266
0.30644953 0.077691428 2.266
0.31076571 0.077691428 2.266
0.31508192 0.077691428 2.266
0.31939811 0.077691428 2.266
0.32371429 0.077691428 2.266
0.32600382 0.077211432 2.2520001
0.33029336 0.077211432 2.2520001
0.33458287 0.077211432 2.2520001
0.3388724 0.077211432 2.2520001
0.34316191 0.077211432 2.2520001
0.34745145 0.077211432 2.2520001
0.35174096 0.077211432 2.2520001
0.35603049 0.077211432 2.2520001
0.36032 0.077211432 2.2520001
0.36460954 0.077211432 2.2520001
0.36889905 0.077211432 2.2520001
0.37318859 0.077211432 2.2520001
0.37747812 0.077211432 2.2520001
0.38176763 0.077211432 2.2520001
0.38605717 0.077211432 2.2520001
0.39034668 0.077211432 2.2520001
0.39463621 0.077211432 2.2520001
0.39626858 0.076697148 2.237
0.40052953 0.076697148 2.237
0.40479049 0.076697148 2.237
0.40905145 0.076697148 2.237
0.41331241 0.076697148 2.237
0.41757336 0.076697148 2.237
0.42183429 0.076697148 2.237
0.42609525 0.076697148 2.237
0.42766288 0.076217145 2.223
0.43189716 0.076217145 2.223
0.43613145 0.076217145 2.223
0.44036573 0.076217145 2.223
0.44460002 0.076217145 2.223
0.4488343 0.076217145 2.223
0.45592192 0.076697148 2.237
0.46018288 0.076697148 2.237
0.46444383 0.076697148 2.237
0.46577144 0.076217145 2.223
0.47000572 0.076217145 2.223
0.47424001 0.076217145 2.223
0.47847429 0.076217145 2.223
0.4827086 0.076217145 2.223
0.48694289 0.076217145 2.223
0.4942705 0.076697148 2.237
0.49541146 0.076217145 2.223
0.50279242 0.076697148 2.237
0.50705338 0.076697148 2.237
0.50811428 0.076217145 2.223
0.51234859 0.076217145 2.223
0.51658285 0.076217145 2.223
0.52081716 0.076217145 2.223
0.52505147 0.076217145 2.223
0.52928573 0.076217145 2.223
0.53352004 0.076217145 2.223
0.5377543 0.076217145 2.223
0.54198861 0.076217145 2.223
0.54622287 0.076217145 2.223
0.54674286 0.075702861 2.2080002
0.55094862 0.075702861 2.2080002
0.55515432 0.075702861 2.2080002
0.55936003 0.075702861 2.2080002
0.56356573 0.075702861 2.2080002
0.56777143 0.075702861 2.2080002
0.57197714 0.075702861 2.2080002
0.58009714 0.076217145 2.223
0.58433145 0.076217145 2.223
0.58856571 0.076217145 2.223
0.58880001 0.075702861 2.2080002
0.59300572 0.075702861 2.2080002
0.59721148 0.075702861 2.2080002
0.60141718 0.075702861 2.2080002
0.60562289 0.075702861 2.2080002
0.60982859 0.075702861 2.2080002
0.6140343 0.075702861 2.2080002
0.61824 0.075702861 2.2080002
0.62244576 0.075702861 2.2080002
0.63090861 0.076217145 2.223
0.63514286 0.076217145 2.223
0.63937718 0.076217145 2.223
0.64361143 0.076217145 2.223
0.64784575 0.076217145 2.223
0.64768004 0.075702861 2.2080002
0.65188575 0.075702861 2.2080002
0.65609145 0.075702861 2.2080002
0.66029716 0.075702861 2.2080002
0.66450286 0.075702861 2.2080002
0.66870862 0.075702861 2.2080002
0.67291433 0.075702861 2.2080002
0.67712003 0.075702861 2.2080002
0.68132573 0.075702861 2.2080002
0.68553144 0.075702861 2.2080002
0.68973714 0.075702861 2.2080002
0.6939429 0.075702861 2.2080002
0.69814861 0.075702861 2.2080002
0.70235431 0.075702861 2.2080002
0.70656002 0.075702861 2.2080002
0.71076572 0.075702861 2.2080002
0.71497148 0.075702861 2.2080002
0.71917719 0.075702861 2.2080002
0.72338289 0.075702861 2.2080002
0.72758859 0.075702861 2.2080002
0.73676574 0.076217145 2.223
0.736 0.075702861 2.2080002
0.74020576 0.075702861 2.2080002
0.74441147 0.075702861 2.2080002
0.74861717 0.075702861 2.2080002
0.75282288 0.075702861 2.2080002
0.75702858 0.075702861 2.2080002
0.76123434 0.075702861 2.2080002
0.77064002 0.076217145 2.223
0.77487433 0.076217145 2.223
0.78401524 0.076697148 2.237
0.7882762 0.076697148 2.237
0.79253715 0.076697148 2.237
0.80214101 0.077211432 2.2520001
0.80643052 0.077211432 2.2520001
0.81072003 0.077211432 2.2520001
0.81500953 0.077211432 2.2520001
0.81384194 0.076697148 2.237
0.8181029 0.076697148 2.237
0.82236385 0.076697148 2.237
0.82662481 0.076697148 2.237
0.83088577 0.076697148 2.237
0.82432002 0.075702861 2.2080002
0.82852572 0.075702861 2.2080002
0.82745147 0.075222857 2.194
0.82670289 0.074777149 2.181
0.83085716 0.074777149 2.181
0.82965147 0.074297145 2.1670001
0.8337791 0.074297145 2.1670001
0.83249336 0.073817149 2.1530001
0.83154291 0.073371433 2.1400001
0.83054286 0.072925717 2.1270001
0.82949334 0.072480001 2.1140001
0.82839429 0.072034292 2.1010001
0.83239621 0.072034292 2.1010001
0.83122289 0.071588576 2.0880001
0.83040005 0.071177147 2.0760002
0.82912958 0.070731431 2.0630002
0.82821333 0.070320003 2.0510001
0.82725143 0.069908574 2.039
0.82624382 0.069497146 2.0270002
0.82519048 0.069085717 2.0150001
0.82409143 0.068674289 2.003
0.82790667 0.068674289 2.003
0.82715434 0.068297148 1.9920001
0.82594287 0.067885719 1.9800001
0.82510477 0.067508571 1.9690001
0.82885528 0.067508571 1.9690001
0.82330287 0.066754289 1.9470001
0.82701147 0.066754289 1.9470001
0.82602668 0.066377148 1.9360001
0.82500005 0.066 1.9250001
0.81962669 0.065280005 1.904
0.82325339 0.065280005 1.904
0.82253718 0.064937145 1.8940001
0.82614481 0.064937145 1.8940001
0.82493335 0.064560004 1.8830001
0.82412004 0.064217143 1.8730001
0.82768762 0.064217143 1.8730001
0.82681715 0.063874289 1.863
0.8259086 0.063531429 1.853
0.82496196 0.063188575 1.8430001
0.82397717 0.062845714 1.8330001
0.81889147 0.062194288 1.8140001
0.81781334 0.061851431 1.8040001
0.82124954 0.061851431 1.8040001
0.82057148 0.061542861 1.7950001
0.81985909 0.061234288 1.7860001
0.82326096 0.061234288 1.7860001
0.82249719 0.060925715 1.7770001
0.82588196 0.060925715 1.7770001
0.82506669 0.060617145 1.7680001
0.8242172 0.060308572 1.7590001
0.81909907 0.059691429 1.7410001
0.81816381 0.05938286 1.7320001
0.81719434 0.059074286 1.723
0.82047623 0.059074286 1.723
0.82375813 0.059074286 1.723
0.82320005 0.058800001 1.715
0.82646668 0.058800001 1.715
0.82973337 0.058800001 1.715
0.833 0.058800001 1.715
0.8362667 0.058800001 1.715
0.83953339 0.058800001 1.715
0.84280002 0.058800001 1.715
0.84606671 0.058800001 1.715
0.84933335 0.058800001 1.715
0.85260004 0.058800001 1.715
0.85586667 0.058800001 1.715
0.85913336 0.058800001 1.715
0.86240005 0.058800001 1.715
0.86566669 0.058800001 1.715
0.86893338 0.058800001 1.715
0.87220001 0.058800001 1.715
0.8754667 0.058800001 1.715
0.87873334 0.058800001 1.715
0.88200003 0.058800001 1.715
0.88526672 0.058800001 1.715
