# .PCD v0.7 - Point Cloud Data file format
VERSION 0.7
FIELDS x y z
SIZE 4 4 4
TYPE F F F
COUNT 1 1 1
WIDTH 1492
HEIGHT 1
VIEWPOINT 0 0 0 1 0 0 0
POINTS 1492
DATA ascii
-0.39148572 0.023028573 2.0150001
-0.38764763 0.023028573 2.0150001
-0.38380954 0.023028573 2.0150001
-0.37997144 0.023028573 2.0150001
-0.37613335 0.023028573 2.0150001
-0.37229526 0.023028573 2.0150001
-0.36626288 0.02289143 2.003
-0.36244762 0.02289143 2.003
-0.36078095 0.023028573 2.0150001
-0.35694286 0.023028573 2.0150001
-0.35310477 0.023028573 2.0150001
-0.34926668 0.023028573 2.0150001
-0.34748572 0.023165716 2.0270002
-0.34769335 0.023440002 2.0510001
-0.34378669 0.023440002 2.0510001
-0.33988002 0.023440002 2.0510001
-0.33793905 0.023577144 2.0630002
-0.33611429 0.023725715 2.0760002
-0.33216003 0.023725715 2.0760002
-0.33010286 0.023862857 2.0880001
-0.3281562 0.024011429 2.1010001
-0.32415429 0.024011429 2.1010001
-0.3201524 0.024011429 2.1010001
-0.31810668 0.024160001 2.1140001
-0.31408 0.024160001 2.1140001
-0.31386667 0.024457144 2.1400001
-0.31167239 0.024605716 2.1530001
-0.30757144 0.024605716 2.1530001
-0.30347049 0.024605716 2.1530001
-0.3013162 0.024765715 2.1670001
-0.29910859 0.024925714 2.181
-0.2949543 0.024925714 2.181
-0.29253334 0.025074286 2.194
-0.28835431 0.025074286 2.194
-0.28598857 0.025234286 2.2080002
-0.28369716 0.025405716 2.223
-0.28122288 0.025565716 2.237
-0.27881905 0.025737144 2.2520001
-0.27623621 0.025897143 2.266
-0.27192 0.025897143 2.266
-0.26760381 0.025897143 2.266
-0.26503047 0.026068572 2.2810001
-0.26068571 0.026068572 2.2810001
-0.25634095 0.026068572 2.2810001
-0.25199619 0.026068572 2.2810001
-0.25101715 0.026422858 2.312
-0.24821334 0.026594287 2.3270001
-0.24378096 0.026594287 2.3270001
-0.24099429 0.026777145 2.3430002
-0.23653144 0.026777145 2.3430002
-0.23365334 0.02696 2.3590002
-0.22916001 0.02696 2.3590002
-0.22628573 0.027154287 2.3760002
-0.22325334 0.027337143 2.3920002
-0.22025144 0.02753143 2.4090002
-0.21718477 0.027725715 2.4260001
-0.21405335 0.02792 2.4430001
-0.20940001 0.02792 2.4430001
-0.20474668 0.02792 2.4430001
-0.20148572 0.028114287 2.46
-0.19680001 0.028114287 2.46
-0.19352001 0.028320001 2.4780002
-0.18880001 0.028320001 2.4780002
-0.18541715 0.028525716 2.4960001
-0.18196572 0.02873143 2.5140002
-0.17844573 0.028937144 2.5320001
-0.17362286 0.028937144 2.5320001
-0.17006667 0.029154288 2.5510001
-0.16520762 0.029154288 2.5510001
-0.16034858 0.029154288 2.5510001
-0.15548953 0.029154288 2.5510001
-0.15063049 0.029154288 2.5510001
-0.14577143 0.029154288 2.5510001
-0.14091238 0.029154288 2.5510001
-0.13504 0.028937144 2.5320001
-0.13021715 0.028937144 2.5320001
-0.12450286 0.02873143 2.5140002
-0.11971429 0.02873143 2.5140002
-0.11410286 0.028525716 2.4960001
-0.10934857 0.028525716 2.4960001
-0.10384 0.028320001 2.4780002
-0.099120006 0.028320001 2.4780002
-0.094400004 0.028320001 2.4780002
-0.089680001 0.028320001 2.4780002
-0.08434286 0.028114287 2.46
-0.079657145 0.028114287 2.46
-0.07497143 0.028114287 2.46
-0.070799999 0.028320001 2.4780002
-0.066080004 0.028320001 2.4780002
-0.061360002 0.028320001 2.4780002
-0.056228574 0.028114287 2.46
-0.05154286 0.028114287 2.46
-0.047200002 0.028320001 2.4780002
-0.042480003 0.028320001 2.4780002
-0.037485715 0.028114287 2.46
-0.032573335 0.02792 2.4430001
-0.02792 0.02792 2.4430001
-0.023266668 0.02792 2.4430001
-0.018613335 0.02792 2.4430001
-0.01396 0.02792 2.4430001
-0.0092419051 0.027725715 2.4260001
-0.0046209525 0.027725715 2.4260001
0 0.027725715 2.4260001
0.0045885714 0.02753143 2.4090002
0.0091771428 0.02753143 2.4090002
0.013765715 0.02753143 2.4090002
0.018354286 0.02753143 2.4090002
0.022780953 0.027337143 2.3920002
0.027337143 0.027337143 2.3920002
0.031893335 0.027337143 2.3920002
0.036449526 0.027337143 2.3920002
0.041005716 0.027337143 2.3920002
0.045561906 0.027337143 2.3920002
0.050118096 0.027337143 2.3920002
0.054674286 0.027337143 2.3920002
0.059230477 0.027337143 2.3920002
0.063786671 0.027337143 2.3920002
0.067885719 0.027154287 2.3760002
0.072411433 0.027154287 2.3760002
0.076937146 0.027154287 2.3760002
0.08146286 0.027154287 2.3760002
0.085988574 0.027154287 2.3760002
0.090514287 0.027154287 2.3760002
0.095040001 0.027154287 2.3760002
0.099565715 0.027154287 2.3760002
0.10409144 0.027154287 2.3760002
0.10861715 0.027154287 2.3760002
0.11314286 0.027154287 2.3760002
0.11766858 0.027154287 2.3760002
0.12219429 0.027154287 2.3760002
0.12672001 0.027154287 2.3760002
0.13124572 0.027154287 2.3760002
0.1348 0.02696 2.3590002
0.13929334 0.02696 2.3590002
0.14378667 0.02696 2.3590002
0.14828001 0.02696 2.3590002
0.15173715 0.026777145 2.3430002
0.15620001 0.026777145 2.3430002
0.16066286 0.026777145 2.3430002
0.16512573 0.026777145 2.3430002
0.16958858 0.026777145 2.3430002
0.17405143 0.026777145 2.3430002
0.17851429 0.026777145 2.3430002
0.18297715 0.026777145 2.3430002
0.18744001 0.026777145 2.3430002
0.19190286 0.026777145 2.3430002
0.19636571 0.026777145 2.3430002
0.20082858 0.026777145 2.3430002
0.20529144 0.026777145 2.3430002
0.20975429 0.026777145 2.3430002
0.21421716 0.026777145 2.3430002
0.21868001 0.026777145 2.3430002
0.22314286 0.026777145 2.3430002
0.22760572 0.026777145 2.3430002
0.23206858 0.026777145 2.3430002
0.23653144 0.026777145 2.3430002
0.23934858 0.026594287 2.3270001
0.24378096 0.026594287 2.3270001
0.24821334 0.026594287 2.3270001
0.25264573 0.026594287 2.3270001
0.25707811 0.026594287 2.3270001
0.26151049 0.026594287 2.3270001
0.26594287 0.026594287 2.3270001
0.27037525 0.026594287 2.3270001
0.27480763 0.026594287 2.3270001
0.27924001 0.026594287 2.3270001
0.28367239 0.026594287 2.3270001
0.28810477 0.026594287 2.3270001
0.29253715 0.026594287 2.3270001
0.29696953 0.026594287 2.3270001
0.30140191 0.026594287 2.3270001
0.30583429 0.026594287 2.3270001
0.30826667 0.026422858 2.312
0.3126705 0.026422858 2.312
0.3170743 0.026422858 2.312
0.32356381 0.026594287 2.3270001
0.32799619 0.026594287 2.3270001
0.33242857 0.026594287 2.3270001
0.33686095 0.026594287 2.3270001
0.34129333 0.026594287 2.3270001
0.34572572 0.026594287 2.3270001
0.3501581 0.026594287 2.3270001
0.35230479 0.026422858 2.312
0.35670859 0.026422858 2.312
0.36111239 0.026422858 2.312
0.36551622 0.026422858 2.312
0.36752 0.02625143 2.2970002
0.37189525 0.02625143 2.2970002
0.3762705 0.02625143 2.2970002
0.38064572 0.02625143 2.2970002
0.38502097 0.02625143 2.2970002
0.38668382 0.026068572 2.2810001
0.39102858 0.026068572 2.2810001
0.39537334 0.026068572 2.2810001
0.39971811 0.026068572 2.2810001
0.40140572 0.025897143 2.266
0.40572193 0.025897143 2.266
0.41003811 0.025897143 2.266
0.41435429 0.025897143 2.266
0.41867051 0.025897143 2.266
0.42298669 0.025897143 2.266
0.42730287 0.025897143 2.266
0.4289524 0.025737144 2.2520001
0.4303562 0.025565716 2.237
0.43461716 0.025565716 2.237
0.43887812 0.025565716 2.237
0.44313908 0.025565716 2.237
0.4474 0.025565716 2.237
0.45166096 0.025565716 2.237
0.45592192 0.025565716 2.237
0.46018288 0.025565716 2.237
0.46444383 0.025565716 2.237
0.46870479 0.025565716 2.237
0.47296572 0.025565716 2.237
0.47722667 0.025565716 2.237
0.47847429 0.025405716 2.223
0.4827086 0.025405716 2.223
0.48694289 0.025405716 2.223
0.49117717 0.025405716 2.223
0.49541146 0.025405716 2.223
0.49964574 0.025405716 2.223
0.50388002 0.025405716 2.223
0.50811428 0.025405716 2.223
0.50889146 0.025234286 2.2080002
0.51309717 0.025234286 2.2080002
0.51730287 0.025234286 2.2080002
0.52150857 0.025234286 2.2080002
0.52571428 0.025234286 2.2080002
0.52656001 0.025074286 2.194
0.53073907 0.025074286 2.194
0.53491813 0.025074286 2.194
0.53909719 0.025074286 2.194
0.54327619 0.025074286 2.194
0.54745525 0.025074286 2.194
0.55163431 0.025074286 2.194
0.55581337 0.025074286 2.194
0.55999237 0.025074286 2.194
0.56417143 0.025074286 2.194
0.56835049 0.025074286 2.194
0.57252955 0.025074286 2.194
0.57329142 0.024925714 2.181
0.57744575 0.024925714 2.181
0.58160001 0.024925714 2.181
0.58575433 0.024925714 2.181
0.5899086 0.024925714 2.181
0.59406286 0.024925714 2.181
0.59821719 0.024925714 2.181
0.60237145 0.024925714 2.181
0.60652572 0.024925714 2.181
0.61068004 0.024925714 2.181
0.61088765 0.024765715 2.1670001
0.61501527 0.024765715 2.1670001
0.61914289 0.024765715 2.1670001
0.62327051 0.024765715 2.1670001
0.62334478 0.024605716 2.1530001
0.62744576 0.024605716 2.1530001
0.62773335 0.024457144 2.1400001
0.63180953 0.024457144 2.1400001
0.63588572 0.024457144 2.1400001
0.63996196 0.024457144 2.1400001
0.64403814 0.024457144 2.1400001
0.64811432 0.024457144 2.1400001
0.65219051 0.024457144 2.1400001
0.65626669 0.024457144 2.1400001
0.66034287 0.024457144 2.1400001
0.66441905 0.024457144 2.1400001
0.66849524 0.024457144 2.1400001
0.67257148 0.024457144 2.1400001
0.67664766 0.024457144 2.1400001
0.68072385 0.024457144 2.1400001
0.68480003 0.024457144 2.1400001
0.68887621 0.024457144 2.1400001
0.69295239 0.024457144 2.1400001
0.69702858 0.024457144 2.1400001
0.70110476 0.024457144 2.1400001
0.70089716 0.024308572 2.1270001
0.7049486 0.024308572 2.1270001
0.70900005 0.024308572 2.1270001
0.71305144 0.024308572 2.1270001
0.71710289 0.024308572 2.1270001
0.72115433 0.024308572 2.1270001
0.72520572 0.024308572 2.1270001
0.73371434 0.024457144 2.1400001
0.73330861 0.024308572 2.1270001
0.73736 0.024308572 2.1270001
0.74141145 0.024308572 2.1270001
0.74546289 0.024308572 2.1270001
0.74951434 0.024308572 2.1270001
0.75356573 0.024308572 2.1270001
0.75761718 0.024308572 2.1270001
0.76166862 0.024308572 2.1270001
0.76572001 0.024308572 2.1270001
0.76977146 0.024308572 2.1270001
0.7738229 0.024308572 2.1270001
0.77787429 0.024308572 2.1270001
0.78192574 0.024308572 2.1270001
0.78597718 0.024308572 2.1270001
0.79002857 0.024308572 2.1270001
0.79408002 0.024308572 2.1270001
0.79813147 0.024308572 2.1270001
0.80218291 0.024308572 2.1270001
0.8062343 0.024308572 2.1270001
0.81028575 0.024308572 2.1270001
0.81433719 0.024308572 2.1270001
0.81838858 0.024308572 2.1270001
0.82244003 0.024308572 2.1270001
0.82649148 0.024308572 2.1270001
0.83054286 0.024308572 2.1270001
0.83459431 0.024308572 2.1270001
0.83864576 0.024308572 2.1270001
0.83754671 0.024160001 2.1140001
0.84674859 0.024308572 2.1270001
0.85080004 0.024308572 2.1270001
0.85485148 0.024308572 2.1270001
0.85890287 0.024308572 2.1270001
0.85768002 0.024160001 2.1140001
0.86170667 0.024160001 2.1140001
0.86573339 0.024160001 2.1140001
0.86976004 0.024160001 2.1140001
0.87378669 0.024160001 2.1140001
0.71674287 0.019028572 1.6650001
0.71991432 0.019028572 1.6650001
0.72656006 0.01912 1.6730001
0.73323619 0.01921143 1.6810001
0.74388576 0.019405715 1.6980001
0.75064003 0.019497143 1.7060001
0.75388956 0.019497143 1.7060001
0.75358862 0.019405715 1.6980001
0.75682288 0.019405715 1.6980001
0.76005715 0.019405715 1.6980001
0.75524002 0.01912 1.6730001
0.75480002 0.019028572 1.6650001
0.75432956 0.018937144 1.6570001
0.75748575 0.018937144 1.6570001
0.75696957 0.018845715 1.649
0.75319624 0.018674286 1.6340001
0.75630862 0.018674286 1.6340001
-0.44145334 0.027346667 2.0510001
-0.43498668 0.027186668 2.039
-0.43110287 0.027186668 2.039
-0.42470479 0.027026668 2.0270002
-0.42084384 0.027026668 2.0270002
-0.4145143 0.026866667 2.0150001
-0.41067621 0.026866667 2.0150001
-0.40683812 0.026866667 2.0150001
-0.40300003 0.026866667 2.0150001
-0.39916191 0.026866667 2.0150001
-0.39532381 0.026866667 2.0150001
-0.39148572 0.026866667 2.0150001
-0.38764763 0.026866667 2.0150001
-0.38380954 0.026866667 2.0150001
-0.37997144 0.026866667 2.0150001
-0.37613335 0.026866667 2.0150001
-0.37229526 0.026866667 2.0150001
-0.36845717 0.026866667 2.0150001
-0.36461905 0.026866667 2.0150001
-0.36078095 0.026866667 2.0150001
-0.35694286 0.026866667 2.0150001
-0.35310477 0.026866667 2.0150001
-0.34926668 0.026866667 2.0150001
-0.34954286 0.027186668 2.039
-0.34769335 0.027346667 2.0510001
-0.34378669 0.027346667 2.0510001
-0.33988002 0.027346667 2.0510001
-0.33793905 0.027506668 2.0630002
-0.33400953 0.027506668 2.0630002
-0.33216003 0.02768 2.0760002
-0.33010286 0.027840002 2.0880001
-0.32612574 0.027840002 2.0880001
-0.32415429 0.028013334 2.1010001
-0.3201524 0.028013334 2.1010001
-0.31810668 0.028186668 2.1140001
-0.31601143 0.028360002 2.1270001
-0.31386667 0.028533334 2.1400001
-0.31167239 0.028706668 2.1530001
-0.30757144 0.028706668 2.1530001
-0.30544382 0.028893335 2.1670001
-0.3013162 0.028893335 2.1670001
-0.29910859 0.029080002 2.181
-0.2949543 0.029080002 2.181
-0.29253334 0.029253334 2.194
-0.28835431 0.029253334 2.194
-0.28598857 0.029440001 2.2080002
-0.28369716 0.02964 2.223
-0.28122288 0.029826667 2.237
-0.27881905 0.030026669 2.2520001
-0.27623621 0.030213334 2.266
-0.27192 0.030213334 2.266
-0.26760381 0.030213334 2.266
-0.26503047 0.030413335 2.2810001
-0.26068571 0.030413335 2.2810001
-0.25634095 0.030413335 2.2810001
-0.25199619 0.030413335 2.2810001
-0.24938858 0.030626668 2.2970002
-0.24661334 0.030826667 2.312
-0.24378096 0.031026667 2.3270001
-0.24099429 0.031240001 2.3430002
-0.23653144 0.031240001 2.3430002
-0.23365334 0.031453334 2.3590002
-0.22916001 0.031453334 2.3590002
-0.22628573 0.031680003 2.3760002
-0.22325334 0.031893335 2.3920002
-0.22025144 0.032120001 2.4090002
-0.21718477 0.03234667 2.4260001
-0.21256381 0.03234667 2.4260001
-0.20794286 0.03234667 2.4260001
-0.20474668 0.032573335 2.4430001
-0.20148572 0.0328 2.46
-0.19680001 0.0328 2.46
-0.19352001 0.033040002 2.4780002
-0.18880001 0.033040002 2.4780002
-0.18541715 0.03328 2.4960001
-0.18196572 0.033520002 2.5140002
-0.17844573 0.03376 2.5320001
-0.17362286 0.03376 2.5320001
-0.16880001 0.03376 2.5320001
-0.16520762 0.034013335 2.5510001
-0.16034858 0.034013335 2.5510001
-0.15548953 0.034013335 2.5510001
-0.15063049 0.034013335 2.5510001
-0.14577143 0.034013335 2.5510001
-0.14091238 0.034013335 2.5510001
-0.13605334 0.034013335 2.5510001
-0.13021715 0.03376 2.5320001
-0.12450286 0.033520002 2.5140002
-0.11971429 0.033520002 2.5140002
-0.11410286 0.03328 2.4960001
-0.10934857 0.03328 2.4960001
-0.10384 0.033040002 2.4780002
-0.099120006 0.033040002 2.4780002
-0.094400004 0.033040002 2.4780002
-0.089680001 0.033040002 2.4780002
-0.084960006 0.033040002 2.4780002
-0.079657145 0.0328 2.46
-0.075520001 0.033040002 2.4780002
-0.070799999 0.033040002 2.4780002
-0.066080004 0.033040002 2.4780002
-0.061360002 0.033040002 2.4780002
-0.056228574 0.0328 2.46
-0.05154286 0.0328 2.46
-0.047200002 0.033040002 2.4780002
-0.04217143 0.0328 2.46
-0.037485715 0.0328 2.46
-0.032573335 0.032573335 2.4430001
-0.02792 0.032573335 2.4430001
-0.023266668 0.032573335 2.4430001
-0.018613335 0.032573335 2.4430001
-0.01396 0.032573335 2.4430001
-0.0093066674 0.032573335 2.4430001
-0.0046209525 0.03234667 2.4260001
0 0.03234667 2.4260001
0.0046209525 0.03234667 2.4260001
0.0091771428 0.032120001 2.4090002
0.013765715 0.032120001 2.4090002
0.018354286 0.032120001 2.4090002
0.022780953 0.031893335 2.3920002
0.027337143 0.031893335 2.3920002
0.031893335 0.031893335 2.3920002
0.036449526 0.031893335 2.3920002
0.041005716 0.031893335 2.3920002
0.045561906 0.031893335 2.3920002
0.050118096 0.031893335 2.3920002
0.054674286 0.031893335 2.3920002
0.059230477 0.031893335 2.3920002
0.063786671 0.031893335 2.3920002
0.067885719 0.031680003 2.3760002
0.072411433 0.031680003 2.3760002
0.076937146 0.031680003 2.3760002
0.08146286 0.031680003 2.3760002
0.085988574 0.031680003 2.3760002
0.090514287 0.031680003 2.3760002
0.095040001 0.031680003 2.3760002
0.099565715 0.031680003 2.3760002
0.10409144 0.031680003 2.3760002
0.10861715 0.031680003 2.3760002
0.11314286 0.031680003 2.3760002
0.11766858 0.031680003 2.3760002
0.12219429 0.031680003 2.3760002
0.12672001 0.031680003 2.3760002
0.13124572 0.031680003 2.3760002
0.13577144 0.031680003 2.3760002
0.14029714 0.031680003 2.3760002
0.14378667 0.031453334 2.3590002
0.14828001 0.031453334 2.3590002
0.15277334 0.031453334 2.3590002
0.15620001 0.031240001 2.3430002
0.16066286 0.031240001 2.3430002
0.16512573 0.031240001 2.3430002
0.16958858 0.031240001 2.3430002
0.17405143 0.031240001 2.3430002
0.17851429 0.031240001 2.3430002
0.18297715 0.031240001 2.3430002
0.18744001 0.031240001 2.3430002
0.19059239 0.031026667 2.3270001
0.19502477 0.031026667 2.3270001
0.19945715 0.031026667 2.3270001
0.20388953 0.031026667 2.3270001
0.20832191 0.031026667 2.3270001
0.21275429 0.031026667 2.3270001
0.21868001 0.031240001 2.3430002
0.22161905 0.031026667 2.3270001
0.22605143 0.031026667 2.3270001
0.23048382 0.031026667 2.3270001
0.23653144 0.031240001 2.3430002
0.23934858 0.031026667 2.3270001
0.24378096 0.031026667 2.3270001
0.24821334 0.031026667 2.3270001
0.25264573 0.031026667 2.3270001
0.25707811 0.031026667 2.3270001
0.26151049 0.031026667 2.3270001
0.26594287 0.031026667 2.3270001
0.27037525 0.031026667 2.3270001
0.27480763 0.031026667 2.3270001
0.27924001 0.031026667 2.3270001
0.28367239 0.031026667 2.3270001
0.28810477 0.031026667 2.3270001
0.29253715 0.031026667 2.3270001
0.29696953 0.031026667 2.3270001
0.29945907 0.030826667 2.312
0.30386287 0.030826667 2.312
0.30826667 0.030826667 2.312
0.3126705 0.030826667 2.312
0.3170743 0.030826667 2.312
0.32356381 0.031026667 2.3270001
0.32799619 0.031026667 2.3270001
0.33242857 0.031026667 2.3270001
0.33686095 0.031026667 2.3270001
0.34129333 0.031026667 2.3270001
0.34572572 0.031026667 2.3270001
0.3501581 0.031026667 2.3270001
0.35459048 0.031026667 2.3270001
0.35670859 0.030826667 2.312
0.36111239 0.030826667 2.312
0.36314479 0.030626668 2.2970002
0.36752 0.030626668 2.2970002
0.37189525 0.030626668 2.2970002
0.3762705 0.030626668 2.2970002
0.38064572 0.030626668 2.2970002
0.38502097 0.030626668 2.2970002
0.38668382 0.030413335 2.2810001
0.39102858 0.030413335 2.2810001
0.39537334 0.030413335 2.2810001
0.39971811 0.030413335 2.2810001
0.40140572 0.030213334 2.266
0.40572193 0.030213334 2.266
0.41003811 0.030213334 2.266
0.41435429 0.030213334 2.266
0.41867051 0.030213334 2.266
0.42298669 0.030213334 2.266
0.42730287 0.030213334 2.266
0.42609525 0.029826667 2.237
0.4303562 0.029826667 2.237
0.43461716 0.029826667 2.237
0.43887812 0.029826667 2.237
0.44313908 0.029826667 2.237
0.4474 0.029826667 2.237
0.45166096 0.029826667 2.237
0.45592192 0.029826667 2.237
0.45730287 0.02964 2.223
0.46444383 0.029826667 2.237
0.46870479 0.029826667 2.237
0.47296572 0.029826667 2.237
0.47722667 0.029826667 2.237
0.47847429 0.02964 2.223
0.48574859 0.029826667 2.237
0.48694289 0.02964 2.223
0.49117717 0.02964 2.223
0.49541146 0.02964 2.223
0.49964574 0.02964 2.223
0.50388002 0.02964 2.223
0.50811428 0.02964 2.223
0.51234859 0.02964 2.223
0.51658285 0.02964 2.223
0.52081716 0.02964 2.223
0.52505147 0.02964 2.223
0.52571428 0.029440001 2.2080002
0.52656001 0.029253334 2.194
0.53073907 0.029253334 2.194
0.53491813 0.029253334 2.194
0.53909719 0.029253334 2.194
0.54327619 0.029253334 2.194
0.54745525 0.029253334 2.194
0.55163431 0.029253334 2.194
0.55581337 0.029253334 2.194
0.55999237 0.029253334 2.194
0.56417143 0.029253334 2.194
0.56835049 0.029253334 2.194
0.57252955 0.029253334 2.194
0.57329142 0.029080002 2.181
0.57744575 0.029080002 2.181
0.58160001 0.029080002 2.181
0.58575433 0.029080002 2.181
0.5899086 0.029080002 2.181
0.59024954 0.028893335 2.1670001
0.59821719 0.029080002 2.181
0.59850478 0.028893335 2.1670001
0.6026324 0.028893335 2.1670001
0.60676003 0.028893335 2.1670001
0.61088765 0.028893335 2.1670001
0.61501527 0.028893335 2.1670001
0.61514288 0.028706668 2.1530001
0.61924386 0.028706668 2.1530001
0.62334478 0.028706668 2.1530001
0.62744576 0.028706668 2.1530001
0.63154668 0.028706668 2.1530001
0.63180953 0.028533334 2.1400001
0.63588572 0.028533334 2.1400001
0.63996196 0.028533334 2.1400001
0.64403814 0.028533334 2.1400001
0.64811432 0.028533334 2.1400001
0.65219051 0.028533334 2.1400001
0.65626669 0.028533334 2.1400001
0.66034287 0.028533334 2.1400001
0.66441905 0.028533334 2.1400001
0.66849524 0.028533334 2.1400001
0.67257148 0.028533334 2.1400001
0.67664766 0.028533334 2.1400001
0.68072385 0.028533334 2.1400001
0.68480003 0.028533334 2.1400001
0.68887621 0.028533334 2.1400001
0.69295239 0.028533334 2.1400001
0.69702858 0.028533334 2.1400001
0.69684571 0.028360002 2.1270001
0.70089716 0.028360002 2.1270001
0.7049486 0.028360002 2.1270001
0.70900005 0.028360002 2.1270001
0.71305144 0.028360002 2.1270001
0.71710289 0.028360002 2.1270001
0.72115433 0.028360002 2.1270001
0.72520572 0.028360002 2.1270001
0.73371434 0.028533334 2.1400001
0.73330861 0.028360002 2.1270001
0.73736 0.028360002 2.1270001
0.74141145 0.028360002 2.1270001
0.74546289 0.028360002 2.1270001
0.74951434 0.028360002 2.1270001
0.75356573 0.028360002 2.1270001
0.75761718 0.028360002 2.1270001
0.76166862 0.028360002 2.1270001
0.76572001 0.028360002 2.1270001
0.76977146 0.028360002 2.1270001
0.7738229 0.028360002 2.1270001
0.77787429 0.028360002 2.1270001
0.78192574 0.028360002 2.1270001
0.78597718 0.028360002 2.1270001
0.79002857 0.028360002 2.1270001
0.79408002 0.028360002 2.1270001
0.79813147 0.028360002 2.1270001
0.80218291 0.028360002 2.1270001
0.8062343 0.028360002 2.1270001
0.81028575 0.028360002 2.1270001
0.81433719 0.028360002 2.1270001
0.81838858 0.028360002 2.1270001
0.82244003 0.028360002 2.1270001
0.82649148 0.028360002 2.1270001
0.83054286 0.028360002 2.1270001
0.83459431 0.028360002 2.1270001
0.83864576 0.028360002 2.1270001
0.83754671 0.028186668 2.1140001
0.84674859 0.028360002 2.1270001
0.85080004 0.028360002 2.1270001
0.85485148 0.028360002 2.1270001
0.85890287 0.028360002 2.1270001
0.85768002 0.028186668 2.1140001
0.86170667 0.028186668 2.1140001
0.86040956 0.028013334 2.1010001
0.86441147 0.028013334 2.1010001
0.87378669 0.028186668 2.1140001
0.70043242 0.021986667 1.649
0.70698667 0.022093333 1.6570001
0.70671433 0.021986667 1.649
0.7132991 0.022093333 1.6570001
0.71645528 0.022093333 1.6570001
0.71961147 0.022093333 1.6570001
0.72276765 0.022093333 1.6570001
0.73293334 0.022306668 1.6730001
0.75064003 0.022746667 1.7060001
0.75388956 0.022746667 1.7060001
0.75358862 0.022640001 1.6980001
0.76038861 0.022746667 1.7060001
0.75244766 0.022413334 1.6810001
0.75205338 0.022306668 1.6730001
0.75524002 0.022306668 1.6730001
0.75480002 0.022200001 1.6650001
0.75432956 0.022093333 1.6570001
0.75748575 0.022093333 1.6570001
0.75329715 0.021880001 1.641
0.74950862 0.021680001 1.626
0.75260574 0.021680001 1.626
-0.43887049 0.031070478 2.039
-0.43242669 0.030887621 2.0270002
-0.42856574 0.030887621 2.0270002
-0.42470479 0.030887621 2.0270002
-0.42084384 0.030887621 2.0270002
-0.4145143 0.030704763 2.0150001
-0.41067621 0.030704763 2.0150001
-0.40683812 0.030704763 2.0150001
-0.40300003 0.030704763 2.0150001
-0.39916191 0.030704763 2.0150001
-0.39532381 0.030704763 2.0150001
-0.39148572 0.030704763 2.0150001
-0.38995621 0.030887621 2.0270002
-0.38609526 0.030887621 2.0270002
-0.37997144 0.030704763 2.0150001
-0.37613335 0.030704763 2.0150001
-0.37229526 0.030704763 2.0150001
-0.36845717 0.030704763 2.0150001
-0.36461905 0.030704763 2.0150001
-0.36078095 0.030704763 2.0150001
-0.35694286 0.030704763 2.0150001
-0.35310477 0.030704763 2.0150001
-0.34926668 0.030704763 2.0150001
-0.34954286 0.031070478 2.039
-0.34769335 0.031253334 2.0510001
-0.34378669 0.031253334 2.0510001
-0.33988002 0.031253334 2.0510001
-0.33793905 0.03143619 2.0630002
-0.33611429 0.031634286 2.0760002
-0.33216003 0.031634286 2.0760002
-0.33010286 0.031817146 2.0880001
-0.3281562 0.032015238 2.1010001
-0.32415429 0.032015238 2.1010001
-0.32213333 0.032213334 2.1140001
-0.31810668 0.032213334 2.1140001
-0.31601143 0.03241143 2.1270001
-0.31386667 0.032609526 2.1400001
-0.31167239 0.032807622 2.1530001
-0.30757144 0.032807622 2.1530001
-0.30544382 0.033020955 2.1670001
-0.3013162 0.033020955 2.1670001
-0.29910859 0.033234287 2.181
-0.2949543 0.033234287 2.181
-0.29253334 0.033432383 2.194
-0.28835431 0.033432383 2.194
-0.28598857 0.033645716 2.2080002
-0.28369716 0.033874288 2.223
-0.28122288 0.034087621 2.237
-0.27881905 0.034316193 2.2520001
-0.27623621 0.034529526 2.266
-0.27372 0.034758095 2.2810001
-0.26760381 0.034529526 2.266
-0.26503047 0.034758095 2.2810001
-0.26068571 0.034758095 2.2810001
-0.25634095 0.034758095 2.2810001
-0.25376382 0.035001907 2.2970002
-0.24938858 0.035001907 2.2970002
-0.24661334 0.035230476 2.312
-0.24378096 0.035459049 2.3270001
-0.23934858 0.035459049 2.3270001
-0.23653144 0.035702858 2.3430002
-0.23533715 0.036205716 2.3760002
-0.23081143 0.036205716 2.3760002
-0.22780953 0.036449526 2.3920002
-0.22325334 0.036449526 2.3920002
-0.22025144 0.036708571 2.4090002
-0.21566287 0.036708571 2.4090002
-0.21256381 0.03696762 2.4260001
-0.20940001 0.037226669 2.4430001
-0.20474668 0.037226669 2.4430001
-0.20148572 0.037485715 2.46
-0.19680001 0.037485715 2.46
-0.19352001 0.037760001 2.4780002
-0.18880001 0.037760001 2.4780002
-0.18408 0.037760001 2.4780002
-0.18196572 0.038308572 2.5140002
-0.17844573 0.038582858 2.5320001
-0.17362286 0.038582858 2.5320001
-0.16880001 0.038582858 2.5320001
-0.16520762 0.038872384 2.5510001
-0.16034858 0.038872384 2.5510001
-0.15548953 0.038872384 2.5510001
-0.15063049 0.038872384 2.5510001
-0.14577143 0.038872384 2.5510001
-0.14091238 0.038872384 2.5510001
-0.13605334 0.038872384 2.5510001
-0.13021715 0.038582858 2.5320001
-0.12450286 0.038308572 2.5140002
-0.11971429 0.038308572 2.5140002
-0.11410286 0.038034286 2.4960001
-0.10934857 0.038034286 2.4960001
-0.10384 0.037760001 2.4780002
-0.099120006 0.037760001 2.4780002
-0.094400004 0.037760001 2.4780002
-0.089680001 0.037760001 2.4780002
-0.084960006 0.037760001 2.4780002
-0.080240004 0.037760001 2.4780002
-0.075520001 0.037760001 2.4780002
-0.070799999 0.037760001 2.4780002
-0.066080004 0.037760001 2.4780002
-0.061360002 0.037760001 2.4780002
-0.056228574 0.037485715 2.46
-0.05154286 0.037485715 2.46
-0.046857145 0.037485715 2.46
-0.04217143 0.037485715 2.46
-0.037485715 0.037485715 2.46
-0.032573335 0.037226669 2.4430001
-0.02792 0.037226669 2.4430001
-0.023266668 0.037226669 2.4430001
-0.018613335 0.037226669 2.4430001
-0.01396 0.037226669 2.4430001
-0.0092419051 0.03696762 2.4260001
-0.0046209525 0.03696762 2.4260001
0 0.03696762 2.4260001
0.0046209525 0.03696762 2.4260001
0.0091771428 0.036708571 2.4090002
0.013765715 0.036708571 2.4090002
0.018224763 0.036449526 2.3920002
0.022780953 0.036449526 2.3920002
0.027337143 0.036449526 2.3920002
0.031893335 0.036449526 2.3920002
0.036449526 0.036449526 2.3920002
0.041005716 0.036449526 2.3920002
0.045561906 0.036449526 2.3920002
0.050118096 0.036449526 2.3920002
0.054674286 0.036449526 2.3920002
0.059230477 0.036449526 2.3920002
0.063786671 0.036449526 2.3920002
0.067885719 0.036205716 2.3760002
0.072411433 0.036205716 2.3760002
0.076937146 0.036205716 2.3760002
0.08146286 0.036205716 2.3760002
0.085988574 0.036205716 2.3760002
0.090514287 0.036205716 2.3760002
0.095040001 0.036205716 2.3760002
0.099565715 0.036205716 2.3760002
0.10409144 0.036205716 2.3760002
0.10861715 0.036205716 2.3760002
0.11314286 0.036205716 2.3760002
0.11766858 0.036205716 2.3760002
0.12219429 0.036205716 2.3760002
0.12672001 0.036205716 2.3760002
0.13124572 0.036205716 2.3760002
0.13577144 0.036205716 2.3760002
0.14029714 0.036205716 2.3760002
0.14482287 0.036205716 2.3760002
0.14828001 0.035946667 2.3590002
0.15277334 0.035946667 2.3590002
0.15726668 0.035946667 2.3590002
0.16176 0.035946667 2.3590002
0.16512573 0.035702858 2.3430002
0.16958858 0.035702858 2.3430002
0.17405143 0.035702858 2.3430002
0.17729524 0.035459049 2.3270001
0.18172763 0.035459049 2.3270001
0.18616001 0.035459049 2.3270001
0.19059239 0.035459049 2.3270001
0.19502477 0.035459049 2.3270001
0.19945715 0.035459049 2.3270001
0.20388953 0.035459049 2.3270001
0.20832191 0.035459049 2.3270001
0.21421716 0.035702858 2.3430002
0.21868001 0.035702858 2.3430002
0.22161905 0.035459049 2.3270001
0.22605143 0.035459049 2.3270001
0.23206858 0.035702858 2.3430002
0.23653144 0.035702858 2.3430002
0.24099429 0.035702858 2.3430002
0.24378096 0.035459049 2.3270001
0.24821334 0.035459049 2.3270001
0.25264573 0.035459049 2.3270001
0.25707811 0.035459049 2.3270001
0.26151049 0.035459049 2.3270001
0.26594287 0.035459049 2.3270001
0.27037525 0.035459049 2.3270001
0.27480763 0.035459049 2.3270001
0.27924001 0.035459049 2.3270001
0.28367239 0.035459049 2.3270001
0.28810477 0.035459049 2.3270001
0.29253715 0.035459049 2.3270001
0.29696953 0.035459049 2.3270001
0.29945907 0.035230476 2.312
0.30386287 0.035230476 2.312
0.30826667 0.035230476 2.312
0.3126705 0.035230476 2.312
0.3170743 0.035230476 2.312
0.32356381 0.035459049 2.3270001
0.32799619 0.035459049 2.3270001
0.33242857 0.035459049 2.3270001
0.33686095 0.035459049 2.3270001
0.34129333 0.035459049 2.3270001
0.34572572 0.035459049 2.3270001
0.3501581 0.035459049 2.3270001
0.35459048 0.035459049 2.3270001
0.35670859 0.035230476 2.312
0.36111239 0.035230476 2.312
0.36551622 0.035230476 2.312
0.36752 0.035001907 2.2970002
0.37189525 0.035001907 2.2970002
0.3762705 0.035001907 2.2970002
0.38064572 0.035001907 2.2970002
0.38502097 0.035001907 2.2970002
0.38668382 0.034758095 2.2810001
0.39102858 0.034758095 2.2810001
0.39537334 0.034758095 2.2810001
0.39971811 0.034758095 2.2810001
0.40140572 0.034529526 2.266
0.40572193 0.034529526 2.266
0.41003811 0.034529526 2.266
0.41435429 0.034529526 2.266
0.41867051 0.034529526 2.266
0.42298669 0.034529526 2.266
0.42466286 0.034316193 2.2520001
0.42609525 0.034087621 2.237
0.4303562 0.034087621 2.237
0.43461716 0.034087621 2.237
0.43887812 0.034087621 2.237
0.44313908 0.034087621 2.237
0.4474 0.034087621 2.237
0.45166096 0.034087621 2.237
0.45592192 0.034087621 2.237
0.46018288 0.034087621 2.237
0.46444383 0.034087621 2.237
0.46870479 0.034087621 2.237
0.47296572 0.034087621 2.237
0.47722667 0.034087621 2.237
0.48148763 0.034087621 2.237
0.48574859 0.034087621 2.237
0.48694289 0.033874288 2.223
0.49117717 0.033874288 2.223
0.49541146 0.033874288 2.223
0.49964574 0.033874288 2.223
0.50388002 0.033874288 2.223
0.50811428 0.033874288 2.223
0.50889146 0.033645716 2.2080002
0.51658285 0.033874288 2.223
0.52081716 0.033874288 2.223
0.52505147 0.033874288 2.223
0.52571428 0.033645716 2.2080002
0.52992004 0.033645716 2.2080002
0.53073907 0.033432383 2.194
0.53491813 0.033432383 2.194
0.53909719 0.033432383 2.194
0.54327619 0.033432383 2.194
0.54745525 0.033432383 2.194
0.55163431 0.033432383 2.194
0.55581337 0.033432383 2.194
0.55999237 0.033432383 2.194
0.56417143 0.033432383 2.194
0.56835049 0.033432383 2.194
0.57252955 0.033432383 2.194
0.57329142 0.033234287 2.181
0.57744575 0.033234287 2.181
0.58160001 0.033234287 2.181
0.58575433 0.033234287 2.181
0.5899086 0.033234287 2.181
0.59024954 0.033020955 2.1670001
0.59821719 0.033234287 2.181
0.59850478 0.033020955 2.1670001
0.6026324 0.033020955 2.1670001
0.60676003 0.033020955 2.1670001
0.61088765 0.033020955 2.1670001
0.61501527 0.033020955 2.1670001
0.61914289 0.033020955 2.1670001
0.61924386 0.032807622 2.1530001
0.62334478 0.032807622 2.1530001
0.62365717 0.032609526 2.1400001
0.62773335 0.032609526 2.1400001
0.63180953 0.032609526 2.1400001
0.63588572 0.032609526 2.1400001
0.63996196 0.032609526 2.1400001
0.64403814 0.032609526 2.1400001
0.64811432 0.032609526 2.1400001
0.65219051 0.032609526 2.1400001
0.65626669 0.032609526 2.1400001
0.66034287 0.032609526 2.1400001
0.66441905 0.032609526 2.1400001
0.66849524 0.032609526 2.1400001
0.67257148 0.032609526 2.1400001
0.67664766 0.032609526 2.1400001
0.68072385 0.032609526 2.1400001
0.68480003 0.032609526 2.1400001
0.68887621 0.032609526 2.1400001
0.69295239 0.032609526 2.1400001
0.69702858 0.032609526 2.1400001
0.69684571 0.03241143 2.1270001
0.70089716 0.03241143 2.1270001
0.7049486 0.03241143 2.1270001
0.70900005 0.03241143 2.1270001
0.71305144 0.03241143 2.1270001
0.71710289 0.03241143 2.1270001
0.72115433 0.03241143 2.1270001
0.7296381 0.032609526 2.1400001
0.73371434 0.032609526 2.1400001
0.73779052 0.032609526 2.1400001
0.73736 0.03241143 2.1270001
0.74141145 0.03241143 2.1270001
0.74546289 0.03241143 2.1270001
0.74951434 0.03241143 2.1270001
0.75356573 0.03241143 2.1270001
0.75761718 0.03241143 2.1270001
0.76166862 0.03241143 2.1270001
0.76572001 0.03241143 2.1270001
0.76977146 0.03241143 2.1270001
0.7738229 0.03241143 2.1270001
0.77787429 0.03241143 2.1270001
0.78192574 0.03241143 2.1270001
0.78597718 0.03241143 2.1270001
0.79002857 0.03241143 2.1270001
0.79408002 0.03241143 2.1270001
0.79813147 0.03241143 2.1270001
0.80218291 0.03241143 2.1270001
0.8062343 0.03241143 2.1270001
0.81028575 0.03241143 2.1270001
0.81433719 0.03241143 2.1270001
0.81838858 0.03241143 2.1270001
0.82244003 0.03241143 2.1270001
0.82649148 0.03241143 2.1270001
0.83054286 0.03241143 2.1270001
0.83459431 0.03241143 2.1270001
0.83864576 0.03241143 2.1270001
0.83754671 0.032213334 2.1140001
0.84674859 0.03241143 2.1270001
0.84560001 0.032213334 2.1140001
0.84962672 0.032213334 2.1140001
0.85365337 0.032213334 2.1140001
0.85768002 0.032213334 2.1140001
0.86170667 0.032213334 2.1140001
0.86040956 0.032015238 2.1010001
0.86441147 0.032015238 2.1010001
0.7006743 0.025249524 1.6570001
0.70043242 0.02512762 1.649
0.70357335 0.02512762 1.649
0.70328575 0.025005715 1.641
0.70641148 0.025005715 1.641
0.71299624 0.02512762 1.649
0.71613717 0.02512762 1.649
0.7157886 0.025005715 1.641
0.72241908 0.02512762 1.649
0.72556001 0.02512762 1.649
0.72516572 0.025005715 1.641
0.72829145 0.025005715 1.641
0.73498291 0.02512762 1.649
0.74528575 0.025371429 1.6650001
0.74126476 0.02512762 1.649
0.74440575 0.02512762 1.649
0.74754667 0.02512762 1.649
0.75068766 0.02512762 1.649
0.75017148 0.025005715 1.641
0.75329715 0.025005715 1.641
0.75319624 0.024899049 1.6340001
0.75260574 0.024777144 1.626
0.75570291 0.024777144 1.626
0.75880003 0.024777144 1.626
-0.43887049 0.034954287 2.039
-0.43242669 0.034748573 2.0270002
-0.42856574 0.034748573 2.0270002
-0.42219049 0.034542859 2.0150001
-0.4183524 0.034542859 2.0150001
-0.4145143 0.034542859 2.0150001
-0.41067621 0.034542859 2.0150001
-0.40683812 0.034542859 2.0150001
-0.40300003 0.034542859 2.0150001
-0.39916191 0.034542859 2.0150001
-0.39767811 0.034748573 2.0270002
-0.39381716 0.034748573 2.0270002
-0.38995621 0.034748573 2.0270002
-0.38609526 0.034748573 2.0270002
-0.37997144 0.034542859 2.0150001
-0.37613335 0.034542859 2.0150001
-0.37229526 0.034542859 2.0150001
-0.36845717 0.034542859 2.0150001
-0.36461905 0.034542859 2.0150001
-0.36078095 0.034542859 2.0150001
-0.35694286 0.034542859 2.0150001
-0.35310477 0.034542859 2.0150001
-0.35134667 0.034748573 2.0270002
-0.34954286 0.034954287 2.039
-0.34769335 0.035160001 2.0510001
-0.34378669 0.035160001 2.0510001
-0.34186858 0.035365716 2.0630002
-0.33793905 0.035365716 2.0630002
-0.33611429 0.035588574 2.0760002
-0.33408001 0.035794288 2.0880001
-0.33215812 0.036017146 2.1010001
-0.3281562 0.036017146 2.1010001
-0.32415429 0.036017146 2.1010001
-0.32213333 0.03624 2.1140001
-0.31810668 0.03624 2.1140001
-0.31601143 0.036462858 2.1270001
-0.31386667 0.036685716 2.1400001
-0.31167239 0.036908574 2.1530001
-0.30757144 0.036908574 2.1530001
-0.30544382 0.037148573 2.1670001
-0.3013162 0.037148573 2.1670001
-0.29910859 0.037388574 2.181
-0.2949543 0.037388574 2.181
-0.29253334 0.037611429 2.194
-0.28835431 0.037611429 2.194
-0.28598857 0.03785143 2.2080002
-0.28369716 0.038108572 2.223
-0.27946287 0.038108572 2.223
-0.27696192 0.038348574 2.237
-0.27452955 0.038605716 2.2520001
-0.27192 0.038845714 2.266
-0.26760381 0.038845714 2.266
-0.26328763 0.038845714 2.266
-0.26068571 0.03910286 2.2810001
-0.25634095 0.03910286 2.2810001
-0.25376382 0.039377145 2.2970002
-0.25101715 0.039634287 2.312
-0.24661334 0.039634287 2.312
-0.24378096 0.039891429 2.3270001
-0.23934858 0.039891429 2.3270001
-0.23653144 0.040165715 2.3430002
-0.23533715 0.04073143 2.3760002
-0.23081143 0.04073143 2.3760002
-0.22780953 0.041005716 2.3920002
-0.22325334 0.041005716 2.3920002
-0.22025144 0.041297145 2.4090002
-0.21718477 0.041588575 2.4260001
-0.21256381 0.041588575 2.4260001
-0.20940001 0.04188 2.4430001
-0.20474668 0.04188 2.4430001
-0.20148572 0.04217143 2.46
-0.19680001 0.04217143 2.46
-0.19211429 0.04217143 2.46
-0.18880001 0.042480003 2.4780002
-0.18408 0.042480003 2.4780002
-0.18196572 0.043097146 2.5140002
-0.17717715 0.043097146 2.5140002
-0.17362286 0.043405715 2.5320001
-0.16880001 0.043405715 2.5320001
-0.16520762 0.043731429 2.5510001
-0.16034858 0.043731429 2.5510001
-0.15548953 0.043731429 2.5510001
-0.15063049 0.043731429 2.5510001
-0.14577143 0.043731429 2.5510001
-0.13986287 0.043405715 2.5320001
-0.13504 0.043405715 2.5320001
-0.13021715 0.043405715 2.5320001
-0.12450286 0.043097146 2.5140002
-0.11971429 0.043097146 2.5140002
-0.11492572 0.043097146 2.5140002
-0.10934857 0.042788573 2.4960001
-0.10384 0.042480003 2.4780002
-0.099120006 0.042480003 2.4780002
-0.094400004 0.042480003 2.4780002
-0.089680001 0.042480003 2.4780002
-0.084960006 0.042480003 2.4780002
-0.079657145 0.04217143 2.46
-0.075520001 0.042480003 2.4780002
-0.070799999 0.042480003 2.4780002
-0.066080004 0.042480003 2.4780002
-0.061360002 0.042480003 2.4780002
-0.056228574 0.04217143 2.46
-0.05154286 0.04217143 2.46
-0.046857145 0.04217143 2.46
-0.04217143 0.04217143 2.46
-0.037485715 0.04217143 2.46
-0.032573335 0.04188 2.4430001
-0.02792 0.04188 2.4430001
-0.023266668 0.04188 2.4430001
-0.018613335 0.04188 2.4430001
-0.013862858 0.041588575 2.4260001
-0.0092419051 0.041588575 2.4260001
-0.0046209525 0.041588575 2.4260001
0 0.041297145 2.4090002
0.0045885714 0.041297145 2.4090002
0.0091771428 0.041297145 2.4090002
0.013765715 0.041297145 2.4090002
0.018224763 0.041005716 2.3920002
0.022780953 0.041005716 2.3920002
0.027337143 0.041005716 2.3920002
0.031893335 0.041005716 2.3920002
0.036449526 0.041005716 2.3920002
0.041005716 0.041005716 2.3920002
0.045561906 0.041005716 2.3920002
0.050118096 0.041005716 2.3920002
0.054674286 0.041005716 2.3920002
0.059230477 0.041005716 2.3920002
0.063786671 0.041005716 2.3920002
0.067885719 0.04073143 2.3760002
0.072411433 0.04073143 2.3760002
0.076937146 0.04073143 2.3760002
0.08146286 0.04073143 2.3760002
0.085988574 0.04073143 2.3760002
0.090514287 0.04073143 2.3760002
0.094360001 0.040440001 2.3590002
0.098853335 0.040440001 2.3590002
0.10334667 0.040440001 2.3590002
0.10861715 0.04073143 2.3760002
0.11233333 0.040440001 2.3590002
0.11682667 0.040440001 2.3590002
0.12219429 0.04073143 2.3760002
0.12672001 0.04073143 2.3760002
0.13124572 0.04073143 2.3760002
0.13577144 0.04073143 2.3760002
0.14029714 0.04073143 2.3760002
0.14482287 0.04073143 2.3760002
0.14934857 0.04073143 2.3760002
0.15277334 0.040440001 2.3590002
0.15726668 0.040440001 2.3590002
0.16176 0.040440001 2.3590002
0.16512573 0.040165715 2.3430002
0.16958858 0.040165715 2.3430002
0.17405143 0.040165715 2.3430002
0.17729524 0.039891429 2.3270001
0.18172763 0.039891429 2.3270001
0.18616001 0.039891429 2.3270001
0.19059239 0.039891429 2.3270001
0.19502477 0.039891429 2.3270001
0.19945715 0.039891429 2.3270001
0.20388953 0.039891429 2.3270001
0.20832191 0.039891429 2.3270001
0.21275429 0.039891429 2.3270001
0.21718667 0.039891429 2.3270001
0.22161905 0.039891429 2.3270001
0.22605143 0.039891429 2.3270001
0.23206858 0.040165715 2.3430002
0.23653144 0.040165715 2.3430002
0.24099429 0.040165715 2.3430002
0.24545716 0.040165715 2.3430002
0.24992001 0.040165715 2.3430002
0.25264573 0.039891429 2.3270001
0.25884572 0.040165715 2.3430002
0.26151049 0.039891429 2.3270001
0.26594287 0.039891429 2.3270001
0.27037525 0.039891429 2.3270001
0.27480763 0.039891429 2.3270001
0.27924001 0.039891429 2.3270001
0.28367239 0.039891429 2.3270001
0.28624764 0.039634287 2.312
0.29065144 0.039634287 2.312
0.29505524 0.039634287 2.312
0.29945907 0.039634287 2.312
0.30386287 0.039634287 2.312
0.30826667 0.039634287 2.312
0.3126705 0.039634287 2.312
0.3170743 0.039634287 2.312
0.3214781 0.039634287 2.312
0.32799619 0.039891429 2.3270001
0.33242857 0.039891429 2.3270001
0.33686095 0.039891429 2.3270001
0.34129333 0.039891429 2.3270001
0.34572572 0.039891429 2.3270001
0.3501581 0.039891429 2.3270001
0.35459048 0.039891429 2.3270001
0.35670859 0.039634287 2.312
0.36111239 0.039634287 2.312
0.36551622 0.039634287 2.312
0.36752 0.039377145 2.2970002
0.37189525 0.039377145 2.2970002
0.3762705 0.039377145 2.2970002
0.38064572 0.039377145 2.2970002
0.38502097 0.039377145 2.2970002
0.38668382 0.03910286 2.2810001
0.39102858 0.03910286 2.2810001
0.39537334 0.03910286 2.2810001
0.39971811 0.03910286 2.2810001
0.40140572 0.038845714 2.266
0.40572193 0.038845714 2.266
0.41003811 0.038845714 2.266
0.41435429 0.038845714 2.266
0.41867051 0.038845714 2.266
0.42298669 0.038845714 2.266
0.42466286 0.038605716 2.2520001
0.42609525 0.038348574 2.237
0.4303562 0.038348574 2.237
0.43461716 0.038348574 2.237
0.43887812 0.038348574 2.237
0.44313908 0.038348574 2.237
0.4474 0.038348574 2.237
0.45166096 0.038348574 2.237
0.45592192 0.038348574 2.237
0.45730287 0.038108572 2.223
0.46444383 0.038348574 2.237
0.46870479 0.038348574 2.237
0.47296572 0.038348574 2.237
0.47424001 0.038108572 2.223
0.47847429 0.038108572 2.223
0.4827086 0.038108572 2.223
0.48694289 0.038108572 2.223
0.49117717 0.038108572 2.223
0.49541146 0.038108572 2.223
0.49964574 0.038108572 2.223
0.50388002 0.038108572 2.223
0.50811428 0.038108572 2.223
0.51234859 0.038108572 2.223
0.51309717 0.03785143 2.2080002
0.51730287 0.03785143 2.2080002
0.52150857 0.03785143 2.2080002
0.52571428 0.03785143 2.2080002
0.52992004 0.03785143 2.2080002
0.53412575 0.03785143 2.2080002
0.53491813 0.037611429 2.194
0.53909719 0.037611429 2.194
0.54327619 0.037611429 2.194
0.54745525 0.037611429 2.194
0.55163431 0.037611429 2.194
0.55581337 0.037611429 2.194
0.5566743 0.037388574 2.181
0.56082857 0.037388574 2.181
0.56498289 0.037388574 2.181
0.56913716 0.037388574 2.181
0.57329142 0.037388574 2.181
0.57744575 0.037388574 2.181
0.58160001 0.037388574 2.181
0.58575433 0.037388574 2.181
0.5899086 0.037388574 2.181
0.59406286 0.037388574 2.181
0.59821719 0.037388574 2.181
0.59850478 0.037148573 2.1670001
0.6026324 0.037148573 2.1670001
0.60676003 0.037148573 2.1670001
0.60694098 0.036908574 2.1530001
0.6110419 0.036908574 2.1530001
0.61514288 0.036908574 2.1530001
0.61924386 0.036908574 2.1530001
0.62334478 0.036908574 2.1530001
0.62365717 0.036685716 2.1400001
0.62773335 0.036685716 2.1400001
0.63180953 0.036685716 2.1400001
0.63588572 0.036685716 2.1400001
0.63996196 0.036685716 2.1400001
0.64403814 0.036685716 2.1400001
0.64811432 0.036685716 2.1400001
0.65219051 0.036685716 2.1400001
0.65626669 0.036685716 2.1400001
0.66034287 0.036685716 2.1400001
0.66441905 0.036685716 2.1400001
0.66849524 0.036685716 2.1400001
0.67257148 0.036685716 2.1400001
0.67664766 0.036685716 2.1400001
0.68072385 0.036685716 2.1400001
0.68480003 0.036685716 2.1400001
0.68887621 0.036685716 2.1400001
0.69295239 0.036685716 2.1400001
0.69702858 0.036685716 2.1400001
0.69684571 0.036462858 2.1270001
0.70089716 0.036462858 2.1270001
0.70925719 0.036685716 2.1400001
0.70900005 0.036462858 2.1270001
0.71305144 0.036462858 2.1270001
0.72148573 0.036685716 2.1400001
0.72556192 0.036685716 2.1400001
0.7296381 0.036685716 2.1400001
0.73371434 0.036685716 2.1400001
0.73779052 0.036685716 2.1400001
0.73736 0.036462858 2.1270001
0.74141145 0.036462858 2.1270001
0.74546289 0.036462858 2.1270001
0.74951434 0.036462858 2.1270001
0.75356573 0.036462858 2.1270001
0.75761718 0.036462858 2.1270001
0.76166862 0.036462858 2.1270001
0.76572001 0.036462858 2.1270001
0.76977146 0.036462858 2.1270001
0.7738229 0.036462858 2.1270001
0.77787429 0.036462858 2.1270001
0.78192574 0.036462858 2.1270001
0.78597718 0.036462858 2.1270001
0.79002857 0.036462858 2.1270001
0.79408002 0.036462858 2.1270001
0.79813147 0.036462858 2.1270001
0.80218291 0.036462858 2.1270001
0.8062343 0.036462858 2.1270001
0.81028575 0.036462858 2.1270001
0.81433719 0.036462858 2.1270001
0.81838858 0.036462858 2.1270001
0.82244003 0.036462858 2.1270001
0.82649148 0.036462858 2.1270001
0.83054286 0.036462858 2.1270001
0.83459431 0.036462858 2.1270001
0.83864576 0.036462858 2.1270001
0.83754671 0.03624 2.1140001
0.84157336 0.03624 2.1140001
0.84560001 0.03624 2.1140001
0.84962672 0.03624 2.1140001
0.85365337 0.03624 2.1140001
0.85768002 0.03624 2.1140001
0.85640764 0.036017146 2.1010001
0.86040956 0.036017146 2.1010001
0.85412574 0.035588574 2.0760002
0.85808003 0.035588574 2.0760002
0.69771433 0.028542858 1.6650001
0.70088571 0.028542858 1.6650001
0.69729143 0.028268572 1.649
0.6970343 0.028131429 1.641
0.70016003 0.028131429 1.641
0.70328575 0.028131429 1.641
0.70339811 0.02801143 1.6340001
0.70953715 0.028131429 1.641
0.71266288 0.028131429 1.641
0.7157886 0.028131429 1.641
0.71891433 0.028131429 1.641
0.72204 0.028131429 1.641
0.72207242 0.02801143 1.6340001
0.7251848 0.02801143 1.6340001
0.72829717 0.02801143 1.6340001
0.73454291 0.028131429 1.641
0.73766857 0.028131429 1.641
0.7407943 0.028131429 1.641
0.73712003 0.027874287 1.626
0.74021715 0.027874287 1.626
0.74697143 0.02801143 1.6340001
0.75008386 0.02801143 1.6340001
0.74950862 0.027874287 1.626
0.75260574 0.027874287 1.626
0.75198478 0.027737144 1.618
0.74806672 0.027480001 1.603
0.75112003 0.027480001 1.603
0.75417334 0.027480001 1.603
0.75722671 0.027480001 1.603
-0.43887049 0.038838096 2.039
-0.43242669 0.038609527 2.0270002
-0.42856574 0.038609527 2.0270002
-0.42219049 0.038380954 2.0150001
-0.4183524 0.038380954 2.0150001
-0.4145143 0.038380954 2.0150001
-0.41067621 0.038380954 2.0150001
-0.40683812 0.038380954 2.0150001
-0.40300003 0.038380954 2.0150001
-0.39916191 0.038380954 2.0150001
-0.39767811 0.038609527 2.0270002
-0.39148572 0.038380954 2.0150001
-0.38764763 0.038380954 2.0150001
-0.38380954 0.038380954 2.0150001
-0.37997144 0.038380954 2.0150001
-0.37613335 0.038380954 2.0150001
-0.37229526 0.038380954 2.0150001
-0.36845717 0.038380954 2.0150001
-0.36461905 0.038380954 2.0150001
-0.36078095 0.038380954 2.0150001
-0.35694286 0.038380954 2.0150001
-0.35310477 0.038380954 2.0150001
-0.35134667 0.038609527 2.0270002
-0.34954286 0.038838096 2.039
-0.34769335 0.039066669 2.0510001
-0.34378669 0.039066669 2.0510001
-0.34186858 0.039295241 2.0630002
-0.33793905 0.039295241 2.0630002
-0.33611429 0.039542858 2.0760002
-0.33408001 0.03977143 2.0880001
-0.33010286 0.03977143 2.0880001
-0.3281562 0.04001905 2.1010001
-0.32415429 0.04001905 2.1010001
-0.32213333 0.040266667 2.1140001
-0.31810668 0.040266667 2.1140001
-0.31601143 0.040514287 2.1270001
-0.31386667 0.040761907 2.1400001
-0.31167239 0.041009527 2.1530001
-0.30757144 0.041009527 2.1530001
-0.30544382 0.04127619 2.1670001
-0.3013162 0.04127619 2.1670001
-0.29910859 0.041542858 2.181
-0.2967124 0.041790478 2.194
-0.29253334 0.041790478 2.194
-0.2901943 0.042057145 2.2080002
-0.28598857 0.042057145 2.2080002
-0.28369716 0.04234286 2.223
-0.27946287 0.04234286 2.223
-0.27696192 0.042609524 2.237
-0.27270097 0.042609524 2.237
-0.27024001 0.042895239 2.2520001
-0.26760381 0.043161906 2.266
-0.26328763 0.043161906 2.266
-0.26068571 0.043447621 2.2810001
-0.25813904 0.043752383 2.2970002
-0.25376382 0.043752383 2.2970002
-0.25101715 0.044038098 2.312
-0.24661334 0.044038098 2.312
-0.24378096 0.044323809 2.3270001
-0.23934858 0.044323809 2.3270001
-0.23814668 0.044933334 2.3590002
-0.23533715 0.045257144 2.3760002
-0.23081143 0.045257144 2.3760002
-0.22780953 0.045561906 2.3920002
-0.22325334 0.045561906 2.3920002
-0.22025144 0.045885716 2.4090002
-0.21718477 0.046209525 2.4260001
-0.21256381 0.046209525 2.4260001
-0.20940001 0.046533335 2.4430001
-0.20474668 0.046533335 2.4430001
-0.20148572 0.046857145 2.46
-0.19680001 0.046857145 2.46
-0.19352001 0.047200002 2.4780002
-0.18880001 0.047200002 2.4780002
-0.18408 0.047200002 2.4780002
-0.18066287 0.047542859 2.4960001
-0.17717715 0.047885716 2.5140002
-0.17362286 0.048228573 2.5320001
-0.16880001 0.048228573 2.5320001
-0.16397715 0.048228573 2.5320001
-0.16034858 0.048590478 2.5510001
-0.15548953 0.048590478 2.5510001
-0.14950858 0.048228573 2.5320001
-0.14468572 0.048228573 2.5320001
-0.13986287 0.048228573 2.5320001
-0.13504 0.048228573 2.5320001
-0.13021715 0.048228573 2.5320001
-0.12450286 0.047885716 2.5140002
-0.11971429 0.047885716 2.5140002
