# .PCD v0.7 - Point Cloud Data file format
VERSION 0.7
FIELDS x y z
SIZE 4 4 4
TYPE F F F
COUNT 1 1 1
WIDTH 1534
HEIGHT 1
VIEWPOINT 0 0 0 1 0 0 0
POINTS 1534
DATA ascii
0.30026287 0.29677144 1.8330001
0.3037543 0.29677144 1.8330001
0.3089219 0.29839048 1.8430001
0.31243238 0.29839048 1.8430001
0.31594288 0.29839048 1.8430001
0.32118669 0.30000955 1.853
0.32471621 0.30000955 1.853
0.32824573 0.30000955 1.853
0.33177525 0.30000955 1.853
0.33530477 0.30000955 1.853
0.33883429 0.30000955 1.853
0.34236383 0.30000955 1.853
0.34589335 0.30000955 1.853
0.34942287 0.30000955 1.853
0.35295239 0.30000955 1.853
0.35648191 0.30000955 1.853
0.36001143 0.30000955 1.853
0.36550286 0.30162859 1.863
0.36905146 0.30162859 1.863
0.37260002 0.30162859 1.863
0.37614858 0.30162859 1.863
0.37969714 0.30162859 1.863
0.38530287 0.30324763 1.8730001
0.38887048 0.30324763 1.8730001
0.39243811 0.30324763 1.8730001
0.39600572 0.30324763 1.8730001
0.39957336 0.30324763 1.8730001
0.40314096 0.30324763 1.8730001
0.40888003 0.30486667 1.8830001
0.41246668 0.30486667 1.8830001
0.41848382 0.30664763 1.8940001
0.42209145 0.30664763 1.8940001
0.42569906 0.30664763 1.8940001
0.42930669 0.30664763 1.8940001
0.43291429 0.30664763 1.8940001
0.43652192 0.30664763 1.8940001
0.44012955 0.30664763 1.8940001
0.44373715 0.30664763 1.8940001
0.44970667 0.30826667 1.904
0.45333335 0.30826667 1.904
0.45696002 0.30826667 1.904
0.4605867 0.30826667 1.904
0.46421334 0.30826667 1.904
0.46784002 0.30826667 1.904
0.47146669 0.30826667 1.904
0.4778381 0.31004763 1.9150001
0.48148572 0.31004763 1.9150001
0.48513335 0.31004763 1.9150001
0.48878098 0.31004763 1.9150001
0.4924286 0.31004763 1.9150001
0.49322668 0.30826667 1.904
0.49972382 0.31004763 1.9150001
0.50337142 0.31004763 1.9150001
0.50701904 0.31004763 1.9150001
0.51333338 0.31166667 1.9250001
0.51700002 0.31166667 1.9250001
0.52066666 0.31166667 1.9250001
0.52732956 0.31344762 1.9360001
0.53101718 0.31344762 1.9360001
0.5347048 0.31344762 1.9360001
0.53839242 0.31344762 1.9360001
0.54208004 0.31344762 1.9360001
0.54576766 0.31344762 1.9360001
0.54945529 0.31344762 1.9360001
0.55628574 0.31522858 1.9470001
0.55999428 0.31522858 1.9470001
0.56370288 0.31522858 1.9470001
0.56741142 0.31522858 1.9470001
0.56789333 0.31344762 1.9360001
0.57482857 0.31522858 1.9470001
0.57853717 0.31522858 1.9470001
0.58224571 0.31522858 1.9470001
0.58595431 0.31522858 1.9470001
0.59299433 0.31700954 1.9580001
0.59672385 0.31700954 1.9580001
0.60045338 0.31700954 1.9580001
0.6041829 0.31700954 1.9580001
0.60791242 0.31700954 1.9580001
0.61164194 0.31700954 1.9580001
0.61537147 0.31700954 1.9580001
0.61910099 0.31700954 1.9580001
0.62632954 0.3187905 1.9690001
0.63008004 0.3187905 1.9690001
0.63383049 0.3187905 1.9690001
0.63758099 0.3187905 1.9690001
0.64491433 0.32057145 1.9800001
0.64868575 0.32057145 1.9800001
0.65245718 0.32057145 1.9800001
0.6562286 0.32057145 1.9800001
0.66000003 0.32057145 1.9800001
0.66377145 0.32057145 1.9800001
0.66754287 0.32057145 1.9800001
0.67538285 0.3225143 1.9920001
0.67917717 0.3225143 1.9920001
0.68297148 0.3225143 1.9920001
0.68676573 0.3225143 1.9920001
0.69437337 0.32429525 2.003
0.6981886 0.32429525 2.003
0.70200384 0.32429525 2.003
0.71004766 0.3262381 2.0150001
0.71388572 0.3262381 2.0150001
0.71772385 0.3262381 2.0150001
0.72156191 0.3262381 2.0150001
0.72972006 0.32818097 2.0270002
0.73358101 0.32818097 2.0270002
0.73744196 0.32818097 2.0270002
0.74130291 0.32818097 2.0270002
0.74516386 0.32818097 2.0270002
0.74902481 0.32818097 2.0270002
0.75288576 0.32818097 2.0270002
0.75674671 0.32818097 2.0270002
0.76511049 0.33012381 2.039
0.76446861 0.32818097 2.0270002
0.77287811 0.33012381 2.039
0.77676195 0.33012381 2.039
0.78524005 0.33206668 2.0510001
0.78914672 0.33206668 2.0510001
0.79305339 0.33206668 2.0510001
0.79696006 0.33206668 2.0510001
0.80555242 0.33400953 2.0630002
0.80948192 0.33400953 2.0630002
0.81341147 0.33400953 2.0630002
0.81734097 0.33400953 2.0630002
0.82127053 0.33400953 2.0630002
0.82520002 0.33400953 2.0630002
0.83435434 0.33611429 2.0760002
0.83830857 0.33611429 2.0760002
0.84226286 0.33611429 2.0760002
0.84621716 0.33611429 2.0760002
0.85017145 0.33611429 2.0760002
0.85906291 0.33805716 2.0880001
0.86304003 0.33805716 2.0880001
0.86701715 0.33805716 2.0880001
0.87099433 0.33805716 2.0880001
0.87497145 0.33805716 2.0880001
0.88442099 0.34016192 2.1010001
0.88842291 0.34016192 2.1010001
0.89242482 0.34016192 2.1010001
0.89642668 0.34016192 2.1010001
0.90600002 0.34226668 2.1140001
0.91002673 0.34226668 2.1140001
0.91405338 0.34226668 2.1140001
0.91808003 0.34226668 2.1140001
0.92777717 0.34437144 2.1270001
0.93182862 0.34437144 2.1270001
0.93588001 0.34437144 2.1270001
0.93993145 0.34437144 2.1270001
0.9439829 0.34437144 2.1270001
0.94803435 0.34437144 2.1270001
0.95208573 0.34437144 2.1270001
0.95029336 0.34226668 2.1140001
0.95432001 0.34226668 2.1140001
0.95834672 0.34226668 2.1140001
-0.15339619 0.45489907 2.7770002
-0.14810668 0.45489907 2.7770002
-0.13942286 0.44408762 2.7110002
-0.13425905 0.44408762 2.7110002
-0.12809524 0.44064763 2.6900001
-0.12297143 0.44064763 2.6900001
-0.11692762 0.43720764 2.6690001
-0.11100572 0.43393144 2.6490002
-0.10596 0.43393144 2.6490002
-0.10015239 0.43065524 2.6290002
-0.095144764 0.43065524 2.6290002
-0.090137146 0.43065524 2.6290002
-0.085129529 0.43065524 2.6290002
-0.079512388 0.42737907 2.6090002
-0.074542858 0.42737907 2.6090002
-0.069573335 0.42737907 2.6090002
-0.064108573 0.42410287 2.5890002
-0.058742858 0.4209905 2.5700002
-0.053847622 0.4209905 2.5700002
-0.048590478 0.41787812 2.5510001
-0.043405715 0.41476572 2.5320001
-0.038308572 0.41181716 2.5140002
-0.03328 0.40886858 2.4960001
-0.028320001 0.40592003 2.4780002
-0.023600001 0.40592003 2.4780002
-0.018742858 0.40297145 2.46
-0.014057144 0.40297145 2.46
-0.0093066674 0.40018669 2.4430001
-0.0046533337 0.40018669 2.4430001
0 0.39461717 2.4090002
0.0045561907 0.39183238 2.3920002
0.0091123814 0.39183238 2.3920002
0.013668572 0.39183238 2.3920002
0.018102858 0.38921145 2.3760002
0.022466667 0.38642669 2.3590002
0.026777145 0.38380572 2.3430002
0.031240001 0.38380572 2.3430002
0.035459049 0.38118479 2.3270001
0.039634287 0.37872764 2.312
0.044038098 0.37872764 2.312
0.048441906 0.37872764 2.312
0.052845716 0.37872764 2.312
0.057249527 0.37872764 2.312
0.061253335 0.3762705 2.2970002
0.065171428 0.37364954 2.2810001
0.069059052 0.3711924 2.266
0.07337524 0.3711924 2.266
0.077211432 0.36889905 2.2520001
0.081500955 0.36889905 2.2520001
0.085219048 0.36644191 2.237
0.089480005 0.36644191 2.237
0.093740955 0.36644191 2.237
0.097388573 0.36414859 2.223
0.10093714 0.36169145 2.2080002
0.10447619 0.3593981 2.194
0.10801143 0.35726857 2.181
0.11216572 0.35726857 2.181
0.11557334 0.35497525 2.1670001
0.11970095 0.35497525 2.1670001
0.12302858 0.35268191 2.1530001
0.12712952 0.35268191 2.1530001
0.1304381 0.35055238 2.1400001
0.13451429 0.35055238 2.1400001
0.13774857 0.34842286 2.1270001
0.14006667 0.34416384 2.1010001
0.14406858 0.34416384 2.1010001
0.14807048 0.34416384 2.1010001
0.15113144 0.34203431 2.0880001
0.15510857 0.34203431 2.0880001
0.15817143 0.34006858 2.0760002
0.16212572 0.34006858 2.0760002
0.16504 0.33793905 2.0630002
0.16896953 0.33793905 2.0630002
0.17189334 0.33597335 2.0510001
0.17477143 0.33400762 2.039
0.17865525 0.33400762 2.039
0.18146476 0.33204192 2.0270002
0.18422858 0.33007619 2.0150001
0.18694668 0.32811049 2.003
0.19076191 0.32811049 2.003
0.19457714 0.32811049 2.003
0.19730286 0.32630858 1.9920001
0.19988573 0.32434288 1.9800001
0.20365715 0.32434288 1.9800001
0.20627619 0.32254097 1.9690001
0.20885333 0.32073906 1.9580001
0.21258287 0.32073906 1.9580001
0.21509714 0.31893715 1.9470001
0.21880572 0.31893715 1.9470001
0.22251429 0.31893715 1.9470001
0.22494477 0.31713524 1.9360001
0.22733334 0.31533334 1.9250001
0.22980002 0.31369525 1.9150001
0.23344763 0.31369525 1.9150001
0.23573335 0.31189334 1.904
0.23810287 0.31025526 1.8940001
0.24030668 0.30845335 1.8830001
0.2425981 0.30681524 1.8730001
0.24616572 0.30681524 1.8730001
0.2484 0.30517715 1.863
0.2519486 0.30517715 1.863
0.2527543 0.30190095 1.8430001
0.25626478 0.30190095 1.8430001
0.25977525 0.30190095 1.8430001
0.26328573 0.30190095 1.8430001
0.2667962 0.30190095 1.8430001
0.27030668 0.30190095 1.8430001
0.27233145 0.30026287 1.8330001
0.27582288 0.30026287 1.8330001
0.27931431 0.30026287 1.8330001
0.28280571 0.30026287 1.8330001
0.28629714 0.30026287 1.8330001
0.28978857 0.30026287 1.8330001
0.29328001 0.30026287 1.8330001
0.29677144 0.30026287 1.8330001
0.30026287 0.30026287 1.8330001
0.3037543 0.30026287 1.8330001
0.3089219 0.30190095 1.8430001
0.31243238 0.30190095 1.8430001
0.31594288 0.30190095 1.8430001
0.32118669 0.30353907 1.853
0.32471621 0.30353907 1.853
0.32824573 0.30353907 1.853
0.33177525 0.30353907 1.853
0.33530477 0.30353907 1.853
0.33883429 0.30353907 1.853
0.34236383 0.30353907 1.853
0.34589335 0.30353907 1.853
0.34942287 0.30353907 1.853
0.35295239 0.30353907 1.853
0.35648191 0.30353907 1.853
0.36001143 0.30353907 1.853
0.36550286 0.30517715 1.863
0.36905146 0.30517715 1.863
0.37260002 0.30517715 1.863
0.37614858 0.30517715 1.863
0.37969714 0.30517715 1.863
0.38530287 0.30681524 1.8730001
0.38887048 0.30681524 1.8730001
0.39243811 0.30681524 1.8730001
0.39600572 0.30681524 1.8730001
0.4017067 0.30845335 1.8830001
0.40529335 0.30845335 1.8830001
0.40888003 0.30845335 1.8830001
0.41246668 0.30845335 1.8830001
0.41848382 0.31025526 1.8940001
0.42209145 0.31025526 1.8940001
0.42569906 0.31025526 1.8940001
0.42930669 0.31025526 1.8940001
0.43291429 0.31025526 1.8940001
0.43652192 0.31025526 1.8940001
0.44012955 0.31025526 1.8940001
0.44373715 0.31025526 1.8940001
0.44734478 0.31025526 1.8940001
0.45095241 0.31025526 1.8940001
0.45696002 0.31189334 1.904
0.4605867 0.31189334 1.904
0.46421334 0.31189334 1.904
0.46784002 0.31189334 1.904
0.47146669 0.31189334 1.904
0.4778381 0.31369525 1.9150001
0.48148572 0.31369525 1.9150001
0.48513335 0.31369525 1.9150001
0.48878098 0.31369525 1.9150001
0.4924286 0.31369525 1.9150001
0.4960762 0.31369525 1.9150001
0.49685335 0.31189334 1.904
0.50048 0.31189334 1.904
0.50701904 0.31369525 1.9150001
0.51066667 0.31369525 1.9150001
0.51700002 0.31533334 1.9250001
0.52066666 0.31533334 1.9250001
0.52732956 0.31713524 1.9360001
0.53101718 0.31713524 1.9360001
0.5347048 0.31713524 1.9360001
0.53839242 0.31713524 1.9360001
0.54208004 0.31713524 1.9360001
0.54576766 0.31713524 1.9360001
0.54945529 0.31713524 1.9360001
0.55628574 0.31893715 1.9470001
0.55999428 0.31893715 1.9470001
0.56370288 0.31893715 1.9470001
0.56741142 0.31893715 1.9470001
0.57112002 0.31893715 1.9470001
0.57482857 0.31893715 1.9470001
0.57853717 0.31893715 1.9470001
0.58224571 0.31893715 1.9470001
0.58595431 0.31893715 1.9470001
0.59299433 0.32073906 1.9580001
0.59672385 0.32073906 1.9580001
0.60045338 0.32073906 1.9580001
0.6041829 0.32073906 1.9580001
0.60791242 0.32073906 1.9580001
0.61507809 0.32254097 1.9690001
0.61537147 0.32073906 1.9580001
0.6225791 0.32254097 1.9690001
0.62632954 0.32254097 1.9690001
0.63008004 0.32254097 1.9690001
0.63383049 0.32254097 1.9690001
0.63758099 0.32254097 1.9690001
0.64491433 0.32434288 1.9800001
0.64868575 0.32434288 1.9800001
0.65245718 0.32434288 1.9800001
0.6562286 0.32434288 1.9800001
0.66000003 0.32434288 1.9800001
0.66377145 0.32434288 1.9800001
0.66754287 0.32434288 1.9800001
0.67538285 0.32630858 1.9920001
0.67917717 0.32630858 1.9920001
0.68297148 0.32630858 1.9920001
0.68676573 0.32630858 1.9920001
0.69437337 0.32811049 2.003
0.6981886 0.32811049 2.003
0.70200384 0.32811049 2.003
0.71004766 0.33007619 2.0150001
0.71388572 0.33007619 2.0150001
0.71772385 0.33007619 2.0150001
0.72156191 0.33007619 2.0150001
0.72972006 0.33204192 2.0270002
0.73358101 0.33204192 2.0270002
0.73744196 0.33204192 2.0270002
0.74130291 0.33204192 2.0270002
0.74516386 0.33204192 2.0270002
0.74902481 0.33204192 2.0270002
0.75288576 0.33204192 2.0270002
0.76122671 0.33400762 2.039
0.76511049 0.33400762 2.039
0.76899433 0.33400762 2.039
0.77287811 0.33400762 2.039
0.77676195 0.33400762 2.039
0.78064573 0.33400762 2.039
0.78914672 0.33597335 2.0510001
0.79769337 0.33793905 2.0630002
0.79696006 0.33597335 2.0510001
0.80555242 0.33793905 2.0630002
0.80948192 0.33793905 2.0630002
0.81341147 0.33793905 2.0630002
0.81734097 0.33793905 2.0630002
0.82127053 0.33793905 2.0630002
0.82520002 0.33793905 2.0630002
0.82912958 0.33793905 2.0630002
0.83830857 0.34006858 2.0760002
0.84226286 0.34006858 2.0760002
0.84621716 0.34006858 2.0760002
0.85017145 0.34006858 2.0760002
0.85412574 0.34006858 2.0760002
0.85808003 0.34006858 2.0760002
0.86701715 0.34203431 2.0880001
0.87099433 0.34203431 2.0880001
0.87497145 0.34203431 2.0880001
0.87894863 0.34203431 2.0880001
0.88842291 0.34416384 2.1010001
0.89242482 0.34416384 2.1010001
0.90197337 0.34629336 2.1140001
0.90600002 0.34629336 2.1140001
0.91002673 0.34629336 2.1140001
0.91967434 0.34842286 2.1270001
0.92372572 0.34842286 2.1270001
0.92777717 0.34842286 2.1270001
0.93752384 0.35055238 2.1400001
0.93588001 0.34842286 2.1270001
0.93993145 0.34842286 2.1270001
0.94975239 0.35055238 2.1400001
0.95382863 0.35055238 2.1400001
0.95208573 0.34842286 2.1270001
0.95613718 0.34842286 2.1270001
0.95432001 0.34629336 2.1140001
0.95834672 0.34629336 2.1140001
-0.11605144 0.43897715 2.6490002
-0.11016762 0.43566287 2.6290002
-0.10516001 0.43566287 2.6290002
-0.10015239 0.43566287 2.6290002
-0.094420955 0.43234858 2.6090002
-0.089451432 0.43234858 2.6090002
-0.08448191 0.43234858 2.6090002
-0.079512388 0.43234858 2.6090002
-0.074542858 0.43234858 2.6090002
-0.069573335 0.43234858 2.6090002
-0.064108573 0.42903429 2.5890002
-0.059177145 0.42903429 2.5890002
-0.053847622 0.42588574 2.5700002
-0.048590478 0.42273715 2.5510001
-0.043405715 0.4195886 2.5320001
-0.038582858 0.4195886 2.5320001
-0.03328 0.41362289 2.4960001
-0.028320001 0.41064 2.4780002
-0.023600001 0.41064 2.4780002
-0.018742858 0.40765715 2.46
-0.014057144 0.40765715 2.46
-0.0093066674 0.40484002 2.4430001
-0.0046533337 0.40484002 2.4430001
0 0.39920571 2.4090002
0.0045885714 0.39920571 2.4090002
0.0091123814 0.39638859 2.3920002
0.013577144 0.39373717 2.3760002
0.018102858 0.39373717 2.3760002
0.022466667 0.39092001 2.3590002
0.026777145 0.38826859 2.3430002
0.031240001 0.38826859 2.3430002
0.035459049 0.38561717 2.3270001
0.039891429 0.38561717 2.3270001
0.044038098 0.38313144 2.312
0.048441906 0.38313144 2.312
0.052845716 0.38313144 2.312
0.057249527 0.38313144 2.312
0.061253335 0.38064572 2.2970002
0.065171428 0.3779943 2.2810001
0.069059052 0.37550858 2.266
0.07337524 0.37550858 2.266
0.077211432 0.37318859 2.2520001
0.081500955 0.37318859 2.2520001
0.085219048 0.37070286 2.237
0.089480005 0.37070286 2.237
0.093154289 0.36838287 2.223
0.096731432 0.36589715 2.2080002
0.10093714 0.36589715 2.2080002
0.10447619 0.36357716 2.194
0.10801143 0.36142287 2.181
0.11216572 0.36142287 2.181
0.11557334 0.35910287 2.1670001
0.11970095 0.35910287 2.1670001
0.12302858 0.35678288 2.1530001
0.12712952 0.35678288 2.1530001
0.13123049 0.35678288 2.1530001
0.13451429 0.35462859 2.1400001
0.13859048 0.35462859 2.1400001
0.1418 0.3524743 2.1270001
0.14406858 0.34816572 2.1010001
0.14807048 0.34816572 2.1010001
0.15113144 0.34601143 2.0880001
0.15510857 0.34601143 2.0880001
0.15817143 0.34402287 2.0760002
0.16212572 0.34402287 2.0760002
0.16504 0.34186858 2.0630002
0.16798668 0.33988002 2.0510001
0.17088762 0.33789143 2.039
0.17477143 0.33789143 2.039
0.17865525 0.33789143 2.039
0.18146476 0.33590287 2.0270002
0.18532573 0.33590287 2.0270002
0.18694668 0.33192572 2.003
0.19190477 0.33391431 2.0150001
0.19457714 0.33192572 2.003
0.19839239 0.33192572 2.003
0.20109715 0.33010286 1.9920001
0.20365715 0.3281143 1.9800001
0.20627619 0.32629144 1.9690001
0.20885333 0.32446858 1.9580001
0.21258287 0.32446858 1.9580001
0.21509714 0.32264572 1.9470001
0.21880572 0.32264572 1.9470001
0.22251429 0.32264572 1.9470001
0.22622287 0.32264572 1.9470001
0.22863239 0.32082286 1.9360001
0.23100001 0.31900001 1.9250001
0.23344763 0.31734288 1.9150001
0.23573335 0.31552002 1.904
0.23810287 0.31386286 1.8940001
0.24030668 0.31204 1.8830001
0.2425981 0.31038287 1.8730001
0.24616572 0.31038287 1.8730001
0.2484 0.30872571 1.863
0.2519486 0.30872571 1.863
0.2527543 0.30541143 1.8430001
0.25487429 0.3037543 1.8330001
0.25836572 0.3037543 1.8330001
0.26185715 0.3037543 1.8330001
0.26534858 0.3037543 1.8330001
0.26884001 0.3037543 1.8330001
0.27233145 0.3037543 1.8330001
0.27582288 0.3037543 1.8330001
0.27931431 0.3037543 1.8330001
0.28280571 0.3037543 1.8330001
0.28785905 0.30541143 1.8430001
0.29136953 0.30541143 1.8430001
0.29488 0.30541143 1.8430001
0.29677144 0.3037543 1.8330001
0.30026287 0.3037543 1.8330001
0.3037543 0.3037543 1.8330001
0.3089219 0.30541143 1.8430001
0.31243238 0.30541143 1.8430001
0.31594288 0.30541143 1.8430001
0.32118669 0.30706859 1.853
0.32471621 0.30706859 1.853
0.32824573 0.30706859 1.853
0.33177525 0.30706859 1.853
0.33530477 0.30706859 1.853
0.33883429 0.30706859 1.853
0.34236383 0.30706859 1.853
0.34589335 0.30706859 1.853
0.34942287 0.30706859 1.853
0.35295239 0.30706859 1.853
0.35840574 0.30872571 1.863
0.3619543 0.30872571 1.863
0.36550286 0.30872571 1.863
0.36905146 0.30872571 1.863
0.37260002 0.30872571 1.863
0.37614858 0.30872571 1.863
0.38173527 0.31038287 1.8730001
0.38530287 0.31038287 1.8730001
0.38887048 0.31038287 1.8730001
0.39243811 0.31038287 1.8730001
0.39600572 0.31038287 1.8730001
0.4017067 0.31204 1.8830001
0.40529335 0.31204 1.8830001
0.41126859 0.31386286 1.8940001
0.41487619 0.31386286 1.8940001
0.41848382 0.31386286 1.8940001
0.42209145 0.31386286 1.8940001
0.42569906 0.31386286 1.8940001
0.42930669 0.31386286 1.8940001
0.43291429 0.31386286 1.8940001
0.43652192 0.31386286 1.8940001
0.44012955 0.31386286 1.8940001
0.44373715 0.31386286 1.8940001
0.44734478 0.31386286 1.8940001
0.45095241 0.31386286 1.8940001
0.45456001 0.31386286 1.8940001
0.4605867 0.31552002 1.904
0.46421334 0.31552002 1.904
0.47054288 0.31734288 1.9150001
0.4741905 0.31734288 1.9150001
0.4778381 0.31734288 1.9150001
0.48400003 0.31900001 1.9250001
0.4876667 0.31900001 1.9250001
0.48878098 0.31734288 1.9150001
0.4924286 0.31734288 1.9150001
0.4960762 0.31734288 1.9150001
0.49972382 0.31734288 1.9150001
0.50048 0.31552002 1.904
0.50701904 0.31734288 1.9150001
0.51066667 0.31734288 1.9150001
0.51700002 0.31900001 1.9250001
0.52066666 0.31900001 1.9250001
0.52732956 0.32082286 1.9360001
0.53101718 0.32082286 1.9360001
0.5347048 0.32082286 1.9360001
0.53839242 0.32082286 1.9360001
0.54208004 0.32082286 1.9360001
0.54576766 0.32082286 1.9360001
0.54945529 0.32082286 1.9360001
0.55628574 0.32264572 1.9470001
0.55999428 0.32264572 1.9470001
0.56370288 0.32264572 1.9470001
0.57061714 0.32446858 1.9580001
0.57112002 0.32264572 1.9470001
0.57482857 0.32264572 1.9470001
0.57853717 0.32264572 1.9470001
0.58224571 0.32264572 1.9470001
0.58926481 0.32446858 1.9580001
0.59299433 0.32446858 1.9580001
0.59672385 0.32446858 1.9580001
0.60045338 0.32446858 1.9580001
0.6041829 0.32446858 1.9580001
0.61132765 0.32629144 1.9690001
0.61507809 0.32629144 1.9690001
0.61537147 0.32446858 1.9580001
0.6225791 0.32629144 1.9690001
0.62632954 0.32629144 1.9690001
0.63008004 0.32629144 1.9690001
0.63383049 0.32629144 1.9690001
0.63758099 0.32629144 1.9690001
0.64133143 0.32629144 1.9690001
0.64868575 0.3281143 1.9800001
0.65245718 0.3281143 1.9800001
0.6562286 0.3281143 1.9800001
0.66000003 0.3281143 1.9800001
0.66377145 0.3281143 1.9800001
0.66754287 0.3281143 1.9800001
0.67538285 0.33010286 1.9920001
0.67917717 0.33010286 1.9920001
0.68297148 0.33010286 1.9920001
0.68676573 0.33010286 1.9920001
0.69437337 0.33192572 2.003
0.6981886 0.33192572 2.003
0.70200384 0.33192572 2.003
0.71004766 0.33391431 2.0150001
0.71388572 0.33391431 2.0150001
0.71772385 0.33391431 2.0150001
0.72156191 0.33391431 2.0150001
0.72540003 0.33391431 2.0150001
0.72923809 0.33391431 2.0150001
0.73307621 0.33391431 2.0150001
0.74130291 0.33590287 2.0270002
0.74516386 0.33590287 2.0270002
0.74902481 0.33590287 2.0270002
0.75288576 0.33590287 2.0270002
0.76122671 0.33789143 2.039
0.76511049 0.33789143 2.039
0.76899433 0.33789143 2.039
0.77742672 0.33988002 2.0510001
0.78133339 0.33988002 2.0510001
0.78524005 0.33988002 2.0510001
0.79376382 0.34186858 2.0630002
0.79769337 0.34186858 2.0630002
0.80162287 0.34186858 2.0630002
0.80555242 0.34186858 2.0630002
0.80948192 0.34186858 2.0630002
0.81341147 0.34186858 2.0630002
0.81734097 0.34186858 2.0630002
0.82644576 0.34402287 2.0760002
0.83040005 0.34402287 2.0760002
0.83435434 0.34402287 2.0760002
0.83830857 0.34402287 2.0760002
0.84226286 0.34402287 2.0760002
0.84621716 0.34402287 2.0760002
0.85017145 0.34402287 2.0760002
0.85906291 0.34601143 2.0880001
0.85808003 0.34402287 2.0760002
0.86701715 0.34601143 2.0880001
0.87099433 0.34601143 2.0880001
0.87497145 0.34601143 2.0880001
0.88442099 0.34816572 2.1010001
0.88842291 0.34816572 2.1010001
0.89242482 0.34816572 2.1010001
0.90197337 0.35032001 2.1140001
0.90600002 0.35032001 2.1140001
0.91002673 0.35032001 2.1140001
0.91967434 0.3524743 2.1270001
0.92372572 0.3524743 2.1270001
0.92777717 0.3524743 2.1270001
0.93752384 0.35462859 2.1400001
0.93588001 0.3524743 2.1270001
0.93993145 0.3524743 2.1270001
0.94975239 0.35462859 2.1400001
0.95382863 0.35462859 2.1400001
0.95208573 0.3524743 2.1270001
0.95613718 0.3524743 2.1270001
0.95432001 0.35032001 2.1140001
0.95834672 0.35032001 2.1140001
-0.24514095 0.50168383 2.993
-0.23944001 0.50168383 2.993
-0.23373906 0.50168383 2.993
-0.2280381 0.50168383 2.993
-0.22233716 0.50168383 2.993
-0.2166362 0.50168383 2.993
-0.21093525 0.50168383 2.993
-0.11100572 0.44402286 2.6490002
-0.10516001 0.44067049 2.6290002
-0.10015239 0.44067049 2.6290002
-0.094420955 0.43731812 2.6090002
-0.089451432 0.43731812 2.6090002
-0.08448191 0.43731812 2.6090002
-0.079512388 0.43731812 2.6090002
-0.074542858 0.43731812 2.6090002
-0.069573335 0.43731812 2.6090002
-0.064108573 0.43396574 2.5890002
-0.058742858 0.43078098 2.5700002
-0.053847622 0.43078098 2.5700002
-0.048590478 0.42759621 2.5510001
-0.043731429 0.42759621 2.5510001
-0.038582858 0.42441145 2.5320001
-0.03328 0.41837716 2.4960001
-0.028320001 0.41536 2.4780002
-0.023600001 0.41536 2.4780002
-0.018742858 0.41234288 2.46
-0.014057144 0.41234288 2.46
-0.0093066674 0.40949336 2.4430001
-0.0046209525 0.40664384 2.4260001
0 0.40379429 2.4090002
0.0045885714 0.40379429 2.4090002
0.0091123814 0.40094477 2.3920002
0.013577144 0.39826286 2.3760002
0.018102858 0.39826286 2.3760002
0.022466667 0.39541334 2.3590002
0.026777145 0.39273143 2.3430002
0.031240001 0.39273143 2.3430002
0.035459049 0.39004955 2.3270001
0.039891429 0.39004955 2.3270001
0.044323809 0.39004955 2.3270001
0.048441906 0.38753524 2.312
0.052845716 0.38753524 2.312
0.056878097 0.38502097 2.2970002
0.061253335 0.38502097 2.2970002
0.065171428 0.38233906 2.2810001
0.069059052 0.37982479 2.266
0.07337524 0.37982479 2.266
0.077211432 0.37747812 2.2520001
0.081500955 0.37747812 2.2520001
0.085219048 0.37496382 2.237
0.089480005 0.37496382 2.237
0.093154289 0.37261716 2.223
0.096731432 0.37010288 2.2080002
0.10029715 0.36775622 2.194
0.10447619 0.36775622 2.194
0.10801143 0.36557716 2.181
0.11216572 0.36557716 2.181
0.11557334 0.3632305 2.1670001
0.11970095 0.3632305 2.1670001
0.12302858 0.36088383 2.1530001
0.12712952 0.36088383 2.1530001
0.13123049 0.36088383 2.1530001
0.13451429 0.35870478 2.1400001
0.13859048 0.35870478 2.1400001
0.1418 0.35652572 2.1270001
0.14406858 0.35216764 2.1010001
0.14807048 0.35216764 2.1010001
0.15113144 0.34998858 2.0880001
0.15510857 0.34998858 2.0880001
0.15817143 0.34797716 2.0760002
0.16212572 0.34797716 2.0760002
0.16504 0.34579811 2.0630002
0.16798668 0.34378669 2.0510001
0.17189334 0.34378669 2.0510001
0.17477143 0.34177524 2.039
0.17865525 0.34177524 2.039
0.18146476 0.33976382 2.0270002
0.18532573 0.33976382 2.0270002
0.18694668 0.33574095 2.003
0.19190477 0.3377524 2.0150001
0.19457714 0.33574095 2.003
0.19839239 0.33574095 2.003
0.20109715 0.33389714 1.9920001
0.20365715 0.33188573 1.9800001
0.20627619 0.33004192 1.9690001
0.20885333 0.32819811 1.9580001
0.21258287 0.32819811 1.9580001
0.21509714 0.3263543 1.9470001
0.21880572 0.3263543 1.9470001
0.22251429 0.3263543 1.9470001
0.22622287 0.3263543 1.9470001
0.22863239 0.32451048 1.9360001
0.23100001 0.32266667 1.9250001
0.23344763 0.3209905 1.9150001
0.23573335 0.31914669 1.904
0.23810287 0.31747049 1.8940001
0.24030668 0.31562668 1.8830001
0.2425981 0.31395048 1.8730001
0.24616572 0.31395048 1.8730001
0.2484 0.31227431 1.863
0.2519486 0.31227431 1.863
0.2527543 0.3089219 1.8430001
0.25626478 0.3089219 1.8430001
0.25977525 0.3089219 1.8430001
0.26328573 0.3089219 1.8430001
0.2667962 0.3089219 1.8430001
0.26884001 0.30724573 1.8330001
0.27233145 0.30724573 1.8330001
0.27582288 0.30724573 1.8330001
0.27931431 0.30724573 1.8330001
0.28280571 0.30724573 1.8330001
0.28785905 0.3089219 1.8430001
0.29136953 0.3089219 1.8430001
0.29488 0.3089219 1.8430001
0.29677144 0.30724573 1.8330001
0.30026287 0.30724573 1.8330001
0.3037543 0.30724573 1.8330001
0.3089219 0.3089219 1.8430001
0.31243238 0.3089219 1.8430001
0.31594288 0.3089219 1.8430001
0.32118669 0.31059811 1.853
0.32471621 0.31059811 1.853
0.32824573 0.31059811 1.853
0.33177525 0.31059811 1.853
0.33530477 0.31059811 1.853
0.34066287 0.31227431 1.863
0.34421143 0.31227431 1.863
0.34776002 0.31227431 1.863
0.34942287 0.31059811 1.853
0.35295239 0.31059811 1.853
0.35648191 0.31059811 1.853
0.3619543 0.31227431 1.863
0.36550286 0.31227431 1.863
0.36905146 0.31227431 1.863
0.37260002 0.31227431 1.863
0.37614858 0.31227431 1.863
0.37969714 0.31227431 1.863
0.38530287 0.31395048 1.8730001
0.38887048 0.31395048 1.8730001
0.39243811 0.31395048 1.8730001
0.39812002 0.31562668 1.8830001
0.4017067 0.31562668 1.8830001
0.40529335 0.31562668 1.8830001
0.40888003 0.31562668 1.8830001
0.41487619 0.31747049 1.8940001
0.41848382 0.31747049 1.8940001
0.42209145 0.31747049 1.8940001
0.42569906 0.31747049 1.8940001
0.42930669 0.31747049 1.8940001
0.43291429 0.31747049 1.8940001
0.43652192 0.31747049 1.8940001
0.44012955 0.31747049 1.8940001
0.44373715 0.31747049 1.8940001
0.44734478 0.31747049 1.8940001
0.45095241 0.31747049 1.8940001
0.45456001 0.31747049 1.8940001
0.4605867 0.31914669 1.904
0.46421334 0.31914669 1.904
0.47054288 0.3209905 1.9150001
0.4741905 0.3209905 1.9150001
0.48033336 0.32266667 1.9250001
0.48400003 0.32266667 1.9250001
0.4876667 0.32266667 1.9250001
0.49133337 0.32266667 1.9250001
0.4924286 0.3209905 1.9150001
0.4960762 0.3209905 1.9150001
0.49972382 0.3209905 1.9150001
0.50048 0.31914669 1.904
0.50701904 0.3209905 1.9150001
0.51066667 0.3209905 1.9150001
0.51700002 0.32266667 1.9250001
0.52066666 0.32266667 1.9250001
0.52433336 0.32266667 1.9250001
0.53101718 0.32451048 1.9360001
0.5347048 0.32451048 1.9360001
0.53839242 0.32451048 1.9360001
0.54208004 0.32451048 1.9360001
0.54576766 0.32451048 1.9360001
0.54945529 0.32451048 1.9360001
0.55628574 0.3263543 1.9470001
0.55999428 0.3263543 1.9470001
0.56370288 0.3263543 1.9470001
0.57061714 0.32819811 1.9580001
0.57112002 0.3263543 1.9470001
0.57482857 0.3263543 1.9470001
0.57853717 0.3263543 1.9470001
0.58224571 0.3263543 1.9470001
0.58595431 0.3263543 1.9470001
0.59299433 0.32819811 1.9580001
0.59672385 0.32819811 1.9580001
0.60045338 0.32819811 1.9580001
0.6041829 0.32819811 1.9580001
0.61132765 0.33004192 1.9690001
0.61507809 0.33004192 1.9690001
0.61882859 0.33004192 1.9690001
0.6225791 0.33004192 1.9690001
0.62632954 0.33004192 1.9690001
0.63008004 0.33004192 1.9690001
0.63383049 0.33004192 1.9690001
0.63758099 0.33004192 1.9690001
0.64133143 0.33004192 1.9690001
0.64868575 0.33188573 1.9800001
0.65245718 0.33188573 1.9800001
0.6562286 0.33188573 1.9800001
0.66000003 0.33188573 1.9800001
0.66377145 0.33188573 1.9800001
0.66754287 0.33188573 1.9800001
0.67538285 0.33389714 1.9920001
0.67917717 0.33389714 1.9920001
0.6867429 0.33574095 2.003
0.69055814 0.33574095 2.003
0.69437337 0.33574095 2.003
0.6981886 0.33574095 2.003
0.70620954 0.3377524 2.0150001
0.71004766 0.3377524 2.0150001
0.71388572 0.3377524 2.0150001
0.71772385 0.3377524 2.0150001
0.72156191 0.3377524 2.0150001
0.72540003 0.3377524 2.0150001
0.72923809 0.3377524 2.0150001
0.73744196 0.33976382 2.0270002
0.74130291 0.33976382 2.0270002
0.74516386 0.33976382 2.0270002
0.74902481 0.33976382 2.0270002
0.75734288 0.34177524 2.039
0.76122671 0.34177524 2.039
0.76961339 0.34378669 2.0510001
0.77352005 0.34378669 2.0510001
0.77742672 0.34378669 2.0510001
0.78133339 0.34378669 2.0510001
0.78983432 0.34579811 2.0630002
0.79376382 0.34579811 2.0630002
0.79769337 0.34579811 2.0630002
0.80162287 0.34579811 2.0630002
0.80555242 0.34579811 2.0630002
0.80948192 0.34579811 2.0630002
0.81341147 0.34579811 2.0630002
0.82249147 0.34797716 2.0760002
0.82644576 0.34797716 2.0760002
0.83040005 0.34797716 2.0760002
0.83435434 0.34797716 2.0760002
0.83830857 0.34797716 2.0760002
0.84226286 0.34797716 2.0760002
0.84621716 0.34797716 2.0760002
0.85017145 0.34797716 2.0760002
0.85906291 0.34998858 2.0880001
0.85808003 0.34797716 2.0760002
0.86701715 0.34998858 2.0880001
0.87099433 0.34998858 2.0880001
0.88041908 0.35216764 2.1010001
0.88442099 0.35216764 2.1010001
0.88842291 0.35216764 2.1010001
0.89794672 0.35434669 2.1140001
0.90197337 0.35434669 2.1140001
0.91157144 0.35652572 2.1270001
0.91002673 0.35434669 2.1140001
0.91967434 0.35652572 2.1270001
0.92372572 0.35652572 2.1270001
0.92777717 0.35652572 2.1270001
0.93752384 0.35870478 2.1400001
0.93588001 0.35652572 2.1270001
0.93993145 0.35652572 2.1270001
0.94975239 0.35870478 2.1400001
0.95382863 0.35870478 2.1400001
0.95208573 0.35652572 2.1270001
0.95029336 0.35434669 2.1140001
0.95432001 0.35434669 2.1140001
0.95834672 0.35434669 2.1140001
-0.11100572 0.44906858 2.6490002
-0.10516001 0.44567811 2.6290002
-0.10015239 0.44567811 2.6290002
-0.095144764 0.44567811 2.6290002
-0.089451432 0.44228762 2.6090002
-0.08448191 0.44228762 2.6090002
-0.079512388 0.44228762 2.6090002
-0.074542858 0.44228762 2.6090002
-0.069573335 0.44228762 2.6090002
-0.064108573 0.43889716 2.5890002
-0.059177145 0.43889716 2.5890002
-0.053847622 0.43567622 2.5700002
-0.048952382 0.43567622 2.5700002
-0.043731429 0.43245524 2.5510001
-0.038582858 0.4292343 2.5320001
-0.03328 0.42313144 2.4960001
-0.028320001 0.42008001 2.4780002
-0.023428572 0.41702858 2.46
-0.018742858 0.41702858 2.46
-0.014057144 0.41702858 2.46
-0.0093066674 0.41414669 2.4430001
-0.0046209525 0.41126478 2.4260001
0 0.40838286 2.4090002
0.0045885714 0.40838286 2.4090002
0.0091123814 0.40550098 2.3920002
0.013668572 0.40550098 2.3920002
0.018224763 0.40550098 2.3920002
0.022628572 0.40278858 2.3760002
0.026777145 0.3971943 2.3430002
0.031240001 0.3971943 2.3430002
0.035459049 0.39448193 2.3270001
0.039891429 0.39448193 2.3270001
0.044323809 0.39448193 2.3270001
0.048441906 0.39193907 2.312
0.052845716 0.39193907 2.312
0.056878097 0.38939619 2.2970002
0.06082667 0.38668382 2.2810001
0.064742863 0.38414097 2.266
0.069059052 0.38414097 2.266
0.07337524 0.38414097 2.266
0.077211432 0.38176763 2.2520001
0.081500955 0.38176763 2.2520001
0.085219048 0.37922478 2.237
0.088920005 0.37685144 2.223
0.092525721 0.37430859 2.2080002
0.096731432 0.37430859 2.2080002
0.10029715 0.37193525 2.194
0.10385714 0.36973146 2.181
0.10801143 0.36973146 2.181
0.11144572 0.36735812 2.1670001
0.11557334 0.36735812 2.1670001
0.11892762 0.36498478 2.1530001
0.12302858 0.36498478 2.1530001
0.12712952 0.36498478 2.1530001
0.1304381 0.36278096 2.1400001
0.13451429 0.36278096 2.1400001
0.13859048 0.36278096 2.1400001
0.1418 0.36057717 2.1270001
0.14406858 0.35616955 2.1010001
0.14807048 0.35616955 2.1010001
0.15113144 0.35396573 2.0880001
0.15510857 0.35396573 2.0880001
0.15908572 0.35396573 2.0880001
0.16212572 0.35193145 2.0760002
0.16504 0.34972763 2.0630002
0.16896953 0.34972763 2.0630002
0.17189334 0.34769335 2.0510001
0.17477143 0.34565905 2.039
0.17865525 0.34565905 2.039
0.18146476 0.34362477 2.0270002
0.18532573 0.34362477 2.0270002
0.18806668 0.34159049 2.0150001
0.19076191 0.33955622 2.003
0.19457714 0.33955622 2.003
0.19839239 0.33955622 2.003
0.20109715 0.33769143 1.9920001
0.20489144 0.33769143 1.9920001
0.20627619 0.33379239 1.9690001
0.20885333 0.33192763 1.9580001
0.21258287 0.33192763 1.9580001
0.21631239 0.33192763 1.9580001
0.21880572 0.33006287 1.9470001
0.22251429 0.33006287 1.9470001
0.22622287 0.33006287 1.9470001
0.22863239 0.32819811 1.9360001
0.22980002 0.3246381 1.9150001
0.23344763 0.3246381 1.9150001
0.23573335 0.32277334 1.904
0.23672001 0.31921333 1.8830001
0.24030668 0.31921333 1.8830001
0.2425981 0.31751812 1.8730001
0.24616572 0.31751812 1.8730001
0.2484 0.31582287 1.863
0.2519486 0.31582287 1.863
0.2527543 0.31243238 1.8430001
0.25487429 0.31073716 1.8330001
0.25836572 0.31073716 1.8330001
0.26185715 0.31073716 1.8330001
0.2667962 0.31243238 1.8430001
0.26884001 0.31073716 1.8330001
0.27233145 0.31073716 1.8330001
0.27582288 0.31073716 1.8330001
0.27931431 0.31073716 1.8330001
0.28280571 0.31073716 1.8330001
0.28629714 0.31073716 1.8330001
0.29136953 0.31243238 1.8430001
0.29488 0.31243238 1.8430001
0.29839048 0.31243238 1.8430001
0.30190095 0.31243238 1.8430001
0.30541143 0.31243238 1.8430001
0.3089219 0.31243238 1.8430001
0.31412762 0.31412762 1.853
0.31594288 0.31243238 1.8430001
0.32118669 0.31412762 1.853
0.32471621 0.31412762 1.853
0.32824573 0.31412762 1.853
0.33177525 0.31412762 1.853
0.33530477 0.31412762 1.853
0.34066287 0.31582287 1.863
0.34421143 0.31582287 1.863
0.34589335 0.31412762 1.853
0.34942287 0.31412762 1.853
0.35295239 0.31412762 1.853
0.35840574 0.31582287 1.863
0.3619543 0.31582287 1.863
0.36550286 0.31582287 1.863
0.36905146 0.31582287 1.863
0.37260002 0.31582287 1.863
0.37614858 0.31582287 1.863
0.38173527 0.31751812 1.8730001
0.38530287 0.31751812 1.8730001
0.38887048 0.31751812 1.8730001
0.39453334 0.31921333 1.8830001
0.39812002 0.31921333 1.8830001
0.4017067 0.31921333 1.8830001
0.40766096 0.32107812 1.8940001
0.41126859 0.32107812 1.8940001
0.41487619 0.32107812 1.8940001
0.41848382 0.32107812 1.8940001
0.42209145 0.32107812 1.8940001
0.42569906 0.32107812 1.8940001
0.42930669 0.32107812 1.8940001
0.43291429 0.32107812 1.8940001
0.43398669 0.31921333 1.8830001
0.43757334 0.31921333 1.8830001
0.44373715 0.32107812 1.8940001
0.44734478 0.32107812 1.8940001
0.45095241 0.32107812 1.8940001
0.45456001 0.32107812 1.8940001
0.45816764 0.32107812 1.8940001
0.46421334 0.32277334 1.904
0.46784002 0.32277334 1.904
0.4741905 0.3246381 1.9150001
0.4778381 0.3246381 1.9150001
0.48400003 0.32633334 1.9250001
0.4876667 0.32633334 1.9250001
0.49133337 0.32633334 1.9250001
0.4924286 0.3246381 1.9150001
0.4960762 0.3246381 1.9150001
0.49685335 0.32277334 1.904
0.50048 0.32277334 1.904
0.5041067 0.32277334 1.904
0.51066667 0.3246381 1.9150001
0.51431429 0.3246381 1.9150001
0.52066666 0.32633334 1.9250001
0.52433336 0.32633334 1.9250001
0.528 0.32633334 1.9250001
0.5316667 0.32633334 1.9250001
0.53533334 0.32633334 1.9250001
0.53900003 0.32633334 1.9250001
0.54576766 0.32819811 1.9360001
0.54945529 0.32819811 1.9360001
0.55314291 0.32819811 1.9360001
0.55999428 0.33006287 1.9470001
0.56370288 0.33006287 1.9470001
0.56741142 0.33006287 1.9470001
0.57112002 0.33006287 1.9470001
0.57482857 0.33006287 1.9470001
0.57853717 0.33006287 1.9470001
0.58553529 0.33192763 1.9580001
0.58926481 0.33192763 1.9580001
0.59299433 0.33192763 1.9580001
0.59672385 0.33192763 1.9580001
0.60045338 0.33192763 1.9580001
0.60757715 0.33379239 1.9690001
0.61132765 0.33379239 1.9690001
0.61507809 0.33379239 1.9690001
0.61882859 0.33379239 1.9690001
0.6225791 0.33379239 1.9690001
0.62632954 0.33379239 1.9690001
0.63008004 0.33379239 1.9690001
0.63383049 0.33379239 1.9690001
0.6411429 0.33565715 1.9800001
0.64491433 0.33565715 1.9800001
0.64868575 0.33565715 1.9800001
0.65245718 0.33565715 1.9800001
0.6562286 0.33565715 1.9800001
0.66000003 0.33565715 1.9800001
0.66377145 0.33565715 1.9800001
0.6715886 0.33769143 1.9920001
0.67538285 0.33769143 1.9920001
0.68292767 0.33955622 2.003
0.6867429 0.33955622 2.003
0.69055814 0.33955622 2.003
0.69437337 0.33955622 2.003
0.70237148 0.34159049 2.0150001
0.70620954 0.34159049 2.0150001
0.71004766 0.34159049 2.0150001
0.71388572 0.34159049 2.0150001
0.71772385 0.34159049 2.0150001
0.72156191 0.34159049 2.0150001
0.72540003 0.34159049 2.0150001
0.72923809 0.34159049 2.0150001
0.73744196 0.34362477 2.0270002
0.74130291 0.34362477 2.0270002
0.74516386 0.34362477 2.0270002
0.74902481 0.34362477 2.0270002
0.75734288 0.34565905 2.039
0.76122671 0.34565905 2.039
0.76961339 0.34769335 2.0510001
0.77352005 0.34769335 2.0510001
0.77742672 0.34769335 2.0510001
0.78133339 0.34769335 2.0510001
0.78983432 0.34972763 2.0630002
0.79376382 0.34972763 2.0630002
0.79769337 0.34972763 2.0630002
0.80162287 0.34972763 2.0630002
0.80555242 0.34972763 2.0630002
0.80948192 0.34972763 2.0630002
0.81853718 0.35193145 2.0760002
0.82249147 0.35193145 2.0760002
0.82644576 0.35193145 2.0760002
0.83040005 0.35193145 2.0760002
0.83435434 0.35193145 2.0760002
0.83830857 0.35193145 2.0760002
0.84226286 0.35193145 2.0760002
0.84621716 0.35193145 2.0760002
0.85017145 0.35193145 2.0760002
0.85906291 0.35396573 2.0880001
0.86304003 0.35396573 2.0880001
0.86701715 0.35396573 2.0880001
0.87641716 0.35616955 2.1010001
0.88041908 0.35616955 2.1010001
0.88442099 0.35616955 2.1010001
0.89392 0.35837334 2.1140001
0.89794672 0.35837334 2.1140001
0.90752006 0.36057717 2.1270001
0.91157144 0.36057717 2.1270001
0.91562289 0.36057717 2.1270001
0.91967434 0.36057717 2.1270001
0.92372572 0.36057717 2.1270001
0.92777717 0.36057717 2.1270001
0.93182862 0.36057717 2.1270001
0.93588001 0.36057717 2.1270001
0.93993145 0.36057717 2.1270001
0.94975239 0.36278096 2.1400001
0.95382863 0.36278096 2.1400001
0.95208573 0.36057717 2.1270001
0.95029336 0.35837334 2.1140001
0.95432001 0.35837334 2.1140001
0.95834672 0.35837334 2.1140001
-0.095144764 0.45068574 2.6290002
-0.090137146 0.45068574 2.6290002
-0.08448191 0.44725716 2.6090002
-0.078902863 0.44382858 2.5890002
-0.073971428 0.44382858 2.5890002
-0.06904 0.44382858 2.5890002
-0.064108573 0.44382858 2.5890002
-0.059177145 0.44382858 2.5890002
-0.054245718 0.44382858 2.5890002
-0.048952382 0.44057146 2.5700002
-0.043731429 0.4373143 2.5510001
-0.038582858 0.43405715 2.5320001
-0.033040002 0.42480001 2.4780002
-0.028320001 0.42480001 2.4780002
-0.023428572 0.42171431 2.46
-0.018742858 0.42171431 2.46
-0.014057144 0.42171431 2.46
-0.0093066674 0.41880003 2.4430001
-0.0046209525 0.41588572 2.4260001
0 0.41297144 2.4090002
0.0045885714 0.41297144 2.4090002
0.0091123814 0.41005716 2.3920002
0.013668572 0.41005716 2.3920002
0.018102858 0.4073143 2.3760002
0.022466667 0.40440002 2.3590002
0.026594287 0.39891431 2.3270001
0.031240001 0.40165716 2.3430002
0.035459049 0.39891431 2.3270001
0.039891429 0.39891431 2.3270001
0.044323809 0.39891431 2.3270001
0.048441906 0.39634287 2.312
0.052845716 0.39634287 2.312
0.056878097 0.39377144 2.2970002
0.06082667 0.39102858 2.2810001
0.064742863 0.38845715 2.266
0.069059052 0.38845715 2.266
0.07337524 0.38845715 2.266
0.077211432 0.38605717 2.2520001
0.081500955 0.38605717 2.2520001
0.085790478 0.38605717 2.2520001
0.088920005 0.38108572 2.223
0.092525721 0.37851429 2.2080002
0.096731432 0.37851429 2.2080002
0.10029715 0.37611431 2.194
0.10447619 0.37611431 2.194
0.10865524 0.37611431 2.194
0.11144572 0.37148574 2.1670001
0.11557334 0.37148574 2.1670001
0.11892762 0.36908573 2.1530001
0.12302858 0.36908573 2.1530001
0.12712952 0.36908573 2.1530001
0.13123049 0.36908573 2.1530001
0.13451429 0.36685717 2.1400001
0.13859048 0.36685717 2.1400001
0.1418 0.36462858 2.1270001
0.14406858 0.36017144 2.1010001
0.14807048 0.36017144 2.1010001
0.15113144 0.35794288 2.0880001
0.15510857 0.35794288 2.0880001
0.15908572 0.35794288 2.0880001
0.16212572 0.35588571 2.0760002
0.16504 0.35365716 2.0630002
0.16896953 0.35365716 2.0630002
0.17088762 0.34954286 2.039
0.17477143 0.34954286 2.039
0.17865525 0.34954286 2.039
0.18146476 0.34748572 2.0270002
0.18532573 0.34748572 2.0270002
0.18806668 0.34542859 2.0150001
0.19190477 0.34542859 2.0150001
0.19457714 0.34337145 2.003
0.19839239 0.34337145 2.003
0.20109715 0.34148574 1.9920001
0.20365715 0.33942857 1.9800001
0.20627619 0.33754286 1.9690001
0.20885333 0.33565715 1.9580001
0.21258287 0.33565715 1.9580001
0.21631239 0.33565715 1.9580001
0.21880572 0.33377144 1.9470001
0.22251429 0.33377144 1.9470001
0.22622287 0.33377144 1.9470001
0.22863239 0.33188573 1.9360001
0.22980002 0.32828572 1.9150001
0.23344763 0.32828572 1.9150001
0.23573335 0.32640001 1.904
0.23810287 0.32468572 1.8940001
0.24030668 0.32280001 1.8830001
0.2425981 0.32108572 1.8730001
0.24616572 0.32108572 1.8730001
0.2484 0.31937143 1.863
0.2505962 0.31765714 1.853
0.2527543 0.31594288 1.8430001
0.25626478 0.31594288 1.8430001
0.25836572 0.31422859 1.8330001
0.26185715 0.31422859 1.8330001
0.2667962 0.31594288 1.8430001
0.26884001 0.31422859 1.8330001
0.27233145 0.31422859 1.8330001
0.27582288 0.31422859 1.8330001
0.27931431 0.31422859 1.8330001
0.28280571 0.31422859 1.8330001
0.28629714 0.31422859 1.8330001
0.29136953 0.31594288 1.8430001
0.29488 0.31594288 1.8430001
0.29839048 0.31594288 1.8430001
0.30190095 0.31594288 1.8430001
0.30541143 0.31594288 1.8430001
0.31059811 0.31765714 1.853
0.31412762 0.31765714 1.853
0.31765714 0.31765714 1.853
0.32118669 0.31765714 1.853
0.32471621 0.31765714 1.853
0.32824573 0.31765714 1.853
0.33177525 0.31765714 1.853
0.33530477 0.31765714 1.853
0.34066287 0.31937143 1.863
0.34421143 0.31937143 1.863
0.34776002 0.31937143 1.863
0.34942287 0.31765714 1.853
0.35295239 0.31765714 1.853
0.35840574 0.31937143 1.863
0.3619543 0.31937143 1.863
0.36550286 0.31937143 1.863
0.36905146 0.31937143 1.863
0.37260002 0.31937143 1.863
0.37614858 0.31937143 1.863
0.38173527 0.32108572 1.8730001
0.38530287 0.32108572 1.8730001
0.38887048 0.32108572 1.8730001
0.39453334 0.32280001 1.8830001
0.39812002 0.32280001 1.8830001
0.4017067 0.32280001 1.8830001
0.40766096 0.32468572 1.8940001
0.41126859 0.32468572 1.8940001
0.41487619 0.32468572 1.8940001
0.41848382 0.32468572 1.8940001
0.42209145 0.32468572 1.8940001
0.42569906 0.32468572 1.8940001
0.42930669 0.32468572 1.8940001
0.43291429 0.32468572 1.8940001
0.43652192 0.32468572 1.8940001
0.44012955 0.32468572 1.8940001
0.44373715 0.32468572 1.8940001
0.44734478 0.32468572 1.8940001
0.45095241 0.32468572 1.8940001
0.45456001 0.32468572 1.8940001
0.45816764 0.32468572 1.8940001
0.46177524 0.32468572 1.8940001
0.46784002 0.32640001 1.904
0.47146669 0.32640001 1.904
0.4778381 0.32828572 1.9150001
0.48148572 0.32828572 1.9150001
0.48513335 0.32828572 1.9150001
0.48878098 0.32828572 1.9150001
0.4924286 0.32828572 1.9150001
0.49322668 0.32640001 1.904
0.49685335 0.32640001 1.904
0.50048 0.32640001 1.904
0.5041067 0.32640001 1.904
0.50773335 0.32640001 1.904
0.51431429 0.32828572 1.9150001
0.51796192 0.32828572 1.9150001
0.52433336 0.33000001 1.9250001
0.528 0.33000001 1.9250001
0.5316667 0.33000001 1.9250001
0.53533334 0.33000001 1.9250001
0.54208004 0.33188573 1.9360001
0.54576766 0.33188573 1.9360001
0.54945529 0.33188573 1.9360001
0.55314291 0.33188573 1.9360001
0.55999428 0.33377144 1.9470001
0.56370288 0.33377144 1.9470001
0.57061714 0.33565715 1.9580001
0.57112002 0.33377144 1.9470001
0.57482857 0.33377144 1.9470001
0.57853717 0.33377144 1.9470001
0.58553529 0.33565715 1.9580001
0.58926481 0.33565715 1.9580001
0.59299433 0.33565715 1.9580001
0.59672385 0.33565715 1.9580001
0.60045338 0.33565715 1.9580001
0.60757715 0.33754286 1.9690001
0.61132765 0.33754286 1.9690001
0.61507809 0.33754286 1.9690001
0.61882859 0.33754286 1.9690001
0.6225791 0.33754286 1.9690001
0.62632954 0.33754286 1.9690001
0.63008004 0.33754286 1.9690001
0.63383049 0.33754286 1.9690001
0.63758099 0.33754286 1.9690001
0.64491433 0.33942857 1.9800001
0.64868575 0.33942857 1.9800001
0.65245718 0.33942857 1.9800001
0.6562286 0.33942857 1.9800001
0.66000003 0.33942857 1.9800001
0.66377145 0.33942857 1.9800001
0.6715886 0.34148574 1.9920001
0.67538285 0.34148574 1.9920001
0.67917717 0.34148574 1.9920001
0.6867429 0.34337145 2.003
0.69055814 0.34337145 2.003
0.69437337 0.34337145 2.003
0.70237148 0.34542859 2.0150001
0.70620954 0.34542859 2.0150001
0.71004766 0.34542859 2.0150001
0.71388572 0.34542859 2.0150001
0.71772385 0.34542859 2.0150001
0.72156191 0.34542859 2.0150001
0.72540003 0.34542859 2.0150001
0.72923809 0.34542859 2.0150001
0.73744196 0.34748572 2.0270002
0.74130291 0.34748572 2.0270002
0.74516386 0.34748572 2.0270002
0.74902481 0.34748572 2.0270002
0.75734288 0.34954286 2.039
0.76122671 0.34954286 2.039
0.76961339 0.35160002 2.0510001
0.77352005 0.35160002 2.0510001
0.77742672 0.35160002 2.0510001
0.78590477 0.35365716 2.0630002
0.78983432 0.35365716 2.0630002
0.79376382 0.35365716 2.0630002
0.79769337 0.35365716 2.0630002
0.80162287 0.35365716 2.0630002
0.80555242 0.35365716 2.0630002
0.80948192 0.35365716 2.0630002
0.81853718 0.35588571 2.0760002
0.82249147 0.35588571 2.0760002
0.82644576 0.35588571 2.0760002
0.83040005 0.35588571 2.0760002
0.83435434 0.35588571 2.0760002
0.83830857 0.35588571 2.0760002
0.84226286 0.35588571 2.0760002
0.84621716 0.35588571 2.0760002
0.85017145 0.35588571 2.0760002
0.85906291 0.35794288 2.0880001
0.85808003 0.35588571 2.0760002
0.86701715 0.35794288 2.0880001
0.87641716 0.36017144 2.1010001
0.87497145 0.35794288 2.0880001
0.88442099 0.36017144 2.1010001
0.89392 0.36240003 2.1140001
0.89794672 0.36240003 2.1140001
0.90752006 0.36462858 2.1270001
0.91157144 0.36462858 2.1270001
0.91562289 0.36462858 2.1270001
0.91967434 0.36462858 2.1270001
0.92372572 0.36462858 2.1270001
0.92777717 0.36462858 2.1270001
0.93182862 0.36462858 2.1270001
0.93588001 0.36462858 2.1270001
0.93993145 0.36462858 2.1270001
0.9439829 0.36462858 2.1270001
0.95382863 0.36685717 2.1400001
0.95208573 0.36462858 2.1270001
0.95029336 0.36240003 2.1140001
0.95432001 0.36240003 2.1140001
0.95834672 0.36240003 2.1140001
-0.08448191 0.45222667 2.6090002
-0.078902863 0.44876 2.5890002
-0.073971428 0.44876 2.5890002
-0.06904 0.44876 2.5890002
-0.064108573 0.44876 2.5890002
-0.059177145 0.44876 2.5890002
-0.054245718 0.44876 2.5890002
-0.048952382 0.4454667 2.5700002
-0.043731429 0.44217336 2.5510001
-0.038308572 0.43576002 2.5140002
-0.033040002 0.42952001 2.4780002
-0.028320001 0.42952001 2.4780002
-0.023428572 0.42640001 2.46
-0.018742858 0.42640001 2.46
-0.01396 0.42345336 2.4430001
-0.0093066674 0.42345336 2.4430001
-0.0046209525 0.42050669 2.4260001
0 0.41756001 2.4090002
0.0045561907 0.41461334 2.3920002
0.0091123814 0.41461334 2.3920002
0.013577144 0.41184002 2.3760002
0.018102858 0.41184002 2.3760002
0.022466667 0.40889335 2.3590002
0.026777145 0.40612 2.3430002
0.031026667 0.40334669 2.3270001
0.035459049 0.40334669 2.3270001
0.039891429 0.40334669 2.3270001
0.044323809 0.40334669 2.3270001
0.048441906 0.40074667 2.312
0.052845716 0.40074667 2.312
0.056878097 0.39814669 2.2970002
0.060426667 0.39277336 2.266
0.064742863 0.39277336 2.266
0.069059052 0.39277336 2.266
0.07337524 0.39277336 2.266
0.077211432 0.39034668 2.2520001
0.081500955 0.39034668 2.2520001
0.085790478 0.39034668 2.2520001
0.089480005 0.38774669 2.237
0.092525721 0.38272002 2.2080002
0.096731432 0.38272002 2.2080002
0.10029715 0.38029334 2.194
0.10385714 0.37804002 2.181
0.10801143 0.37804002 2.181
0.11144572 0.37561336 2.1670001
0.11557334 0.37561336 2.1670001
0.11892762 0.37318668 2.1530001
0.12302858 0.37318668 2.1530001
0.12712952 0.37318668 2.1530001
0.13123049 0.37318668 2.1530001
0.13451429 0.37093335 2.1400001
0.13859048 0.37093335 2.1400001
0.1418 0.36868 2.1270001
0.14496 0.36642668 2.1140001
0.14807048 0.36417335 2.1010001
0.15113144 0.36192 2.0880001
0.15510857 0.36192 2.0880001
0.15908572 0.36192 2.0880001
0.16212572 0.35984001 2.0760002
0.16504 0.35758668 2.0630002
0.16896953 0.35758668 2.0630002
0.17189334 0.35550669 2.0510001
0.17477143 0.35342667 2.039
0.17865525 0.35342667 2.039
