# .PCD v0.7 - Point Cloud Data file format
VERSION 0.7
FIELDS x y z
SIZE 4 4 4
TYPE F F F
COUNT 1 1 1
WIDTH 1492
HEIGHT 1
VIEWPOINT 0 0 0 1 0 0 0
POINTS 1492
DATA ascii
0.65153527 0.031893335 2.3920002
0.66075432 0.032120001 2.4090002
0.66534287 0.032120001 2.4090002
0.66520381 0.031893335 2.3920002
0.66976005 0.031893335 2.3920002
0.67431623 0.031893335 2.3920002
0.67887241 0.031893335 2.3920002
0.68342859 0.031893335 2.3920002
0.68798476 0.031893335 2.3920002
0.692541 0.031893335 2.3920002
0.69709718 0.031893335 2.3920002
0.70664001 0.032120001 2.4090002
0.71122861 0.032120001 2.4090002
0.71581715 0.032120001 2.4090002
0.72548956 0.03234667 2.4260001
0.7249943 0.032120001 2.4090002
0.73473144 0.03234667 2.4260001
0.73935241 0.03234667 2.4260001
0.73876005 0.032120001 2.4090002
0.73810291 0.031893335 2.3920002
0.73769146 0.031680003 2.3760002
0.73690671 0.031453334 2.3590002
0.7414 0.031453334 2.3590002
0.73577529 0.031026667 2.3270001
0.7354362 0.030826667 2.312
0.73984003 0.030826667 2.312
0.73941529 0.030626668 2.2970002
0.73860955 0.030413335 2.2810001
0.73806858 0.030213334 2.266
0.73779809 0.030026669 2.2520001
0.73714477 0.029826667 2.237
0.74140573 0.029826667 2.237
0.736 0.029440001 2.2080002
0.73551244 0.029253334 2.194
0.73969144 0.029253334 2.194
0.72996956 0.028706668 2.1530001
0.7296381 0.028533334 2.1400001
0.72925717 0.028360002 2.1270001
0.73330861 0.028360002 2.1270001
0.73285335 0.028186668 2.1140001
0.73234862 0.028013334 2.1010001
0.7317943 0.027840002 2.0880001
0.73154289 0.02768 2.0760002
0.73549718 0.02768 2.0760002
0.7262724 0.027186668 2.039
0.72585905 0.027026668 2.0270002
0.72972006 0.027026668 2.0270002
0.72923809 0.026866667 2.0150001
0.73307621 0.026866667 2.0150001
0.72850287 0.026560001 1.9920001
0.72788572 0.026400002 1.9800001
0.72759241 0.026253335 1.9690001
0.72725719 0.026106667 1.9580001
0.72277337 0.025813334 1.9360001
0.72646099 0.025813334 1.9360001
0.72600001 0.025666667 1.9250001
0.72966671 0.025666667 1.9250001
0.72952384 0.025533333 1.9150001
0.73317146 0.025533333 1.9150001
0.73258668 0.025386667 1.904
0.73621339 0.025386667 1.904
0.73984003 0.025386667 1.904
0.74346668 0.025386667 1.904
0.74709338 0.025386667 1.904
0.75072002 0.025386667 1.904
0.75038481 0.025253335 1.8940001
0.75399244 0.025253335 1.8940001
0.75760001 0.025253335 1.8940001
0.76120764 0.025253335 1.8940001
0.76481527 0.025253335 1.8940001
0.7684229 0.025253335 1.8940001
0.77203053 0.025253335 1.8940001
0.7756381 0.025253335 1.8940001
0.77924573 0.025253335 1.8940001
0.78285336 0.025253335 1.8940001
0.786461 0.025253335 1.8940001
0.79006863 0.025253335 1.8940001
0.7936762 0.025253335 1.8940001
0.79728383 0.025253335 1.8940001
0.80089146 0.025253335 1.8940001
0.80449909 0.025253335 1.8940001
0.80810672 0.025253335 1.8940001
0.81171429 0.025253335 1.8940001
0.81058669 0.025106668 1.8830001
0.81417334 0.025106668 1.8830001
-1.0324477 0.030704763 2.0150001
-1.0286095 0.030704763 2.0150001
-1.0186687 0.030521905 2.003
-1.0148534 0.030521905 2.003
-1.0054858 0.030354287 1.9920001
-1.0016915 0.030354287 1.9920001
-0.99789721 0.030354287 1.9920001
-0.9941029 0.030354287 1.9920001
-0.99030858 0.030354287 1.9920001
-0.98057145 0.03017143 1.9800001
-0.98272002 0.030354287 1.9920001
-0.97892576 0.030354287 1.9920001
-0.96925718 0.03017143 1.9800001
-0.96548575 0.03017143 1.9800001
-0.96171433 0.03017143 1.9800001
-0.96374863 0.030354287 1.9920001
-0.95995432 0.030354287 1.9920001
-0.95616001 0.030354287 1.9920001
-0.95236576 0.030354287 1.9920001
-0.95380956 0.030521905 2.003
-0.94999433 0.030521905 2.003
-0.94617909 0.030521905 2.003
-0.94236386 0.030521905 2.003
-0.93854862 0.030521905 2.003
-0.93473339 0.030521905 2.003
-0.93091816 0.030521905 2.003
-0.93265718 0.030704763 2.0150001
-0.92881906 0.030704763 2.0150001
-0.924981 0.030704763 2.0150001
-0.92662859 0.030887621 2.0270002
-0.92276764 0.030887621 2.0270002
-0.92978668 0.031253334 2.0510001
-0.93129718 0.03143619 2.0630002
-0.92736763 0.03143619 2.0630002
-0.92343813 0.03143619 2.0630002
-0.91950858 0.03143619 2.0630002
-0.92134863 0.031634286 2.0760002
-0.91739434 0.031634286 2.0760002
-0.91872001 0.031817146 2.0880001
-0.92043811 0.032015238 2.1010001
-0.92210668 0.032213334 2.1140001
-0.91808003 0.032213334 2.1140001
-0.91405338 0.032213334 2.1140001
-0.91562289 0.03241143 2.1270001
-0.91157144 0.03241143 2.1270001
-0.91306669 0.032609526 2.1400001
-0.92045909 0.033020955 2.1670001
-0.91633147 0.033020955 2.1670001
-0.9180972 0.033234287 2.181
-0.9193905 0.033432383 2.194
-0.91521144 0.033432383 2.194
-0.91684574 0.033645716 2.2080002
-0.91884005 0.033874288 2.223
-0.92036575 0.034087621 2.237
-0.91610479 0.034087621 2.237
-0.91184384 0.034087621 2.237
-0.91366863 0.034316193 2.2520001
-0.90937907 0.034316193 2.2520001
-0.90508956 0.034316193 2.2520001
-0.90640002 0.034529526 2.266
-0.90805525 0.034758095 2.2810001
-0.91004956 0.035001907 2.2970002
-0.90567434 0.035001907 2.2970002
-0.9130705 0.035459049 2.3270001
-0.90863812 0.035459049 2.3270001
-0.90420574 0.035459049 2.3270001
-0.90596002 0.035702858 2.3430002
-0.90149719 0.035702858 2.3430002
-0.90316004 0.035946667 2.3590002
-0.91123813 0.036449526 2.3920002
-0.90668195 0.036449526 2.3920002
-0.90853715 0.036708571 2.4090002
-0.91032767 0.03696762 2.4260001
-0.9057067 0.03696762 2.4260001
-0.90740001 0.037226669 2.4430001
-0.90902859 0.037485715 2.46
-0.91096002 0.037760001 2.4780002
-0.90624005 0.037760001 2.4780002
-0.9080686 0.038034286 2.4960001
-0.90331429 0.038034286 2.4960001
-0.89856005 0.038034286 2.4960001
-0.89380574 0.038034286 2.4960001
-0.89546287 0.038308572 2.5140002
-0.89067429 0.038308572 2.5140002
-0.8922286 0.038582858 2.5320001
-0.88740575 0.038582858 2.5320001
-0.87630862 0.038308572 2.5140002
-0.87152004 0.038308572 2.5140002
-0.86673146 0.038308572 2.5140002
-0.86194289 0.038308572 2.5140002
-0.85101718 0.038034286 2.4960001
-0.84626287 0.038034286 2.4960001
-0.84150863 0.038034286 2.4960001
-0.83072001 0.037760001 2.4780002
-0.82600003 0.037760001 2.4780002
-0.82724577 0.038034286 2.4960001
-0.81656003 0.037760001 2.4780002
-0.81773716 0.038034286 2.4960001
-0.81298292 0.038034286 2.4960001
-0.80822861 0.038034286 2.4960001
-0.79768002 0.037760001 2.4780002
-0.79296005 0.037760001 2.4780002
-0.78824002 0.037760001 2.4780002
-0.78352004 0.037760001 2.4780002
-0.77880001 0.037760001 2.4780002
-0.77408004 0.037760001 2.4780002
-0.76936001 0.037760001 2.4780002
-0.76464003 0.037760001 2.4780002
-0.75992 0.037760001 2.4780002
-0.74453336 0.037226669 2.4430001
-0.74502861 0.037485715 2.46
-0.74034286 0.037485715 2.46
-0.73565716 0.037485715 2.46
-0.73097146 0.037485715 2.46
-0.72628576 0.037485715 2.46
-0.72160006 0.037485715 2.46
-0.71196002 0.037226669 2.4430001
-0.70730668 0.037226669 2.4430001
-0.70265335 0.037226669 2.4430001
-0.69800001 0.037226669 2.4430001
-0.69334668 0.037226669 2.4430001
-0.68869334 0.037226669 2.4430001
-0.68404001 0.037226669 2.4430001
-0.67938668 0.037226669 2.4430001
-0.6700381 0.03696762 2.4260001
-0.66541719 0.03696762 2.4260001
-0.66079623 0.03696762 2.4260001
-0.65617526 0.03696762 2.4260001
-0.65155429 0.03696762 2.4260001
-0.64693338 0.03696762 2.4260001
-0.64231241 0.03696762 2.4260001
-0.63769144 0.03696762 2.4260001
-0.63750666 0.037226669 2.4430001
-0.62844956 0.03696762 2.4260001
-0.62819999 0.037226669 2.4430001
-0.62354666 0.037226669 2.4430001
-0.61889338 0.037226669 2.4430001
-0.6185143 0.037485715 2.46
-0.6138286 0.037485715 2.46
-0.6091429 0.037485715 2.46
-0.60445714 0.037485715 2.46
-0.59977144 0.037485715 2.46
-0.59508574 0.037485715 2.46
-0.59040004 0.037485715 2.46
-0.58571428 0.037485715 2.46
-0.58102858 0.037485715 2.46
-0.57634288 0.037485715 2.46
-0.57165718 0.037485715 2.46
-0.56697142 0.037485715 2.46
-0.55840003 0.037226669 2.4430001
-0.5537467 0.037226669 2.4430001
-0.55291432 0.037485715 2.46
-0.54822856 0.037485715 2.46
-0.54354286 0.037485715 2.46
-0.53885716 0.037485715 2.46
-0.53417146 0.037485715 2.46
-0.52948576 0.037485715 2.46
-0.5248 0.037485715 2.46
-0.5201143 0.037485715 2.46
-0.5154286 0.037485715 2.46
-0.5107429 0.037485715 2.46
-0.50976002 0.037760001 2.4780002
-0.50503999 0.037760001 2.4780002
-0.50032002 0.037760001 2.4780002
-0.49560001 0.037760001 2.4780002
-0.49088001 0.037760001 2.4780002
-0.48262858 0.037485715 2.46
-0.48144001 0.037760001 2.4780002
-0.47672001 0.037760001 2.4780002
-0.472 0.037760001 2.4780002
-0.46728003 0.037760001 2.4780002
-0.45920002 0.037485715 2.46
-0.45451429 0.037485715 2.46
-0.44982859 0.037485715 2.46
-0.44514287 0.037485715 2.46
-0.44368002 0.037760001 2.4780002
-0.43896002 0.037760001 2.4780002
-0.43424001 0.037760001 2.4780002
-0.42952001 0.037760001 2.4780002
-0.42480001 0.037760001 2.4780002
-0.42008001 0.037760001 2.4780002
-0.41536 0.037760001 2.4780002
-0.41064 0.037760001 2.4780002
-0.40592003 0.037760001 2.4780002
-0.40120003 0.037760001 2.4780002
-0.39648002 0.037760001 2.4780002
-0.39176002 0.037760001 2.4780002
-0.38704002 0.037760001 2.4780002
-0.38509715 0.038034286 2.4960001
-0.38034287 0.038034286 2.4960001
-0.37829715 0.038308572 2.5140002
-0.37350857 0.038308572 2.5140002
-0.36872002 0.038308572 2.5140002
-0.36393145 0.038308572 2.5140002
-0.35914287 0.038308572 2.5140002
-0.35181716 0.038034286 2.4960001
-0.34706286 0.038034286 2.4960001
-0.34230858 0.038034286 2.4960001
-0.33755431 0.038034286 2.4960001
-0.33040002 0.037760001 2.4780002
-0.32804573 0.038034286 2.4960001
-0.32329145 0.038034286 2.4960001
-0.31853715 0.038034286 2.4960001
-0.31378287 0.038034286 2.4960001
-0.3090286 0.038034286 2.4960001
-0.30208001 0.037760001 2.4780002
-0.29736 0.037760001 2.4780002
-0.29264 0.037760001 2.4780002
-0.28792 0.037760001 2.4780002
-0.2832 0.037760001 2.4780002
-0.27848002 0.037760001 2.4780002
-0.27376002 0.037760001 2.4780002
-0.26904002 0.037760001 2.4780002
-0.26432002 0.037760001 2.4780002
-0.25960001 0.037760001 2.4780002
-0.25488001 0.037760001 2.4780002
-0.25016001 0.037760001 2.4780002
-0.24544001 0.037760001 2.4780002
-0.24072 0.037760001 2.4780002
-0.236 0.037760001 2.4780002
-0.23128001 0.037760001 2.4780002
-0.22820573 0.038034286 2.4960001
-0.22184001 0.037760001 2.4780002
-0.21869715 0.038034286 2.4960001
-0.21394287 0.038034286 2.4960001
-0.20768 0.037760001 2.4780002
-0.20443429 0.038034286 2.4960001
-0.19968 0.038034286 2.4960001
-0.19492573 0.038034286 2.4960001
-0.18880001 0.037760001 2.4780002
-0.18541715 0.038034286 2.4960001
-0.18066287 0.038034286 2.4960001
-0.17590858 0.038034286 2.4960001
-0.17115429 0.038034286 2.4960001
-0.16520001 0.037760001 2.4780002
-0.16048001 0.037760001 2.4780002
-0.15576001 0.037760001 2.4780002
-0.15104 0.037760001 2.4780002
-0.14632 0.037760001 2.4780002
-0.1416 0.037760001 2.4780002
-0.13688001 0.037760001 2.4780002
-0.13216001 0.037760001 2.4780002
-0.12744001 0.037760001 2.4780002
-0.12272 0.037760001 2.4780002
-0.118 0.037760001 2.4780002
-0.11328001 0.037760001 2.4780002
-0.10856 0.037760001 2.4780002
-0.10384 0.037760001 2.4780002
-0.099120006 0.037760001 2.4780002
-0.094400004 0.037760001 2.4780002
-0.089680001 0.037760001 2.4780002
-0.084960006 0.037760001 2.4780002
-0.080240004 0.037760001 2.4780002
-0.075520001 0.037760001 2.4780002
-0.070799999 0.037760001 2.4780002
-0.066080004 0.037760001 2.4780002
-0.061360002 0.037760001 2.4780002
-0.056640003 0.037760001 2.4780002
-0.05192 0.037760001 2.4780002
-0.047200002 0.037760001 2.4780002
-0.042480003 0.037760001 2.4780002
-0.037760001 0.037760001 2.4780002
-0.0328 0.037485715 2.46
-0.028114287 0.037485715 2.46
-0.023428572 0.037485715 2.46
-0.018742858 0.037485715 2.46
-0.01396 0.037226669 2.4430001
-0.0093066674 0.037226669 2.4430001
-0.0046533337 0.037226669 2.4430001
0 0.037226669 2.4430001
0.0046533337 0.037226669 2.4430001
0.0093066674 0.037226669 2.4430001
0.01396 0.037226669 2.4430001
0.018613335 0.037226669 2.4430001
0.023428572 0.037485715 2.46
0.028114287 0.037485715 2.46
0.0328 0.037485715 2.46
0.037485715 0.037485715 2.46
0.04217143 0.037485715 2.46
0.046857145 0.037485715 2.46
0.05154286 0.037485715 2.46
0.055840001 0.037226669 2.4430001
0.060493335 0.037226669 2.4430001
0.06514667 0.037226669 2.4430001
0.069800004 0.037226669 2.4430001
0.074453339 0.037226669 2.4430001
0.079106666 0.037226669 2.4430001
0.083760001 0.037226669 2.4430001
0.088413335 0.037226669 2.4430001
0.09306667 0.037226669 2.4430001
0.097720005 0.037226669 2.4430001
0.10237334 0.037226669 2.4430001
0.10702667 0.037226669 2.4430001
0.11168 0.037226669 2.4430001
0.11633334 0.037226669 2.4430001
0.12098667 0.037226669 2.4430001
0.12564 0.037226669 2.4430001
0.13029334 0.037226669 2.4430001
0.13588572 0.037485715 2.46
0.13960001 0.037226669 2.4430001
0.14425334 0.037226669 2.4430001
0.14890668 0.037226669 2.4430001
0.15462857 0.037485715 2.46
0.15821333 0.037226669 2.4430001
0.16286667 0.037226669 2.4430001
0.16752 0.037226669 2.4430001
0.17337143 0.037485715 2.46
0.17805715 0.037485715 2.46
0.18274286 0.037485715 2.46
0.18742858 0.037485715 2.46
0.19211429 0.037485715 2.46
0.19680001 0.037485715 2.46
0.20148572 0.037485715 2.46
0.20617144 0.037485715 2.46
0.21085715 0.037485715 2.46
0.21554287 0.037485715 2.46
0.22022858 0.037485715 2.46
0.2249143 0.037485715 2.46
0.22960001 0.037485715 2.46
0.23428573 0.037485715 2.46
0.23732001 0.037226669 2.4430001
0.24365716 0.037485715 2.46
0.24834287 0.037485715 2.46
0.25302857 0.037485715 2.46
0.2577143 0.037485715 2.46
0.26058668 0.037226669 2.4430001
0.26524001 0.037226669 2.4430001
0.26989335 0.037226669 2.4430001
0.27454668 0.037226669 2.4430001
0.27920002 0.037226669 2.4430001
0.28385335 0.037226669 2.4430001
0.28850669 0.037226669 2.4430001
0.29316002 0.037226669 2.4430001
0.29781336 0.037226669 2.4430001
0.30246669 0.037226669 2.4430001
0.30712003 0.037226669 2.4430001
0.31177333 0.037226669 2.4430001
0.31642666 0.037226669 2.4430001
0.32108 0.037226669 2.4430001
0.32573333 0.037226669 2.4430001
0.33038667 0.037226669 2.4430001
0.33504 0.037226669 2.4430001
0.33969334 0.037226669 2.4430001
0.34434667 0.037226669 2.4430001
0.34900001 0.037226669 2.4430001
0.35365334 0.037226669 2.4430001
0.35830668 0.037226669 2.4430001
0.36548573 0.037485715 2.46
0.36761335 0.037226669 2.4430001
0.37226668 0.037226669 2.4430001
0.37692001 0.037226669 2.4430001
0.38157335 0.037226669 2.4430001
0.38622668 0.037226669 2.4430001
0.38816002 0.03696762 2.4260001
0.39278096 0.03696762 2.4260001
0.39740193 0.03696762 2.4260001
0.40202287 0.03696762 2.4260001
0.40664384 0.03696762 2.4260001
0.41126478 0.03696762 2.4260001
0.41880003 0.037226669 2.4430001
0.42345336 0.037226669 2.4430001
0.4281067 0.037226669 2.4430001
0.42974859 0.03696762 2.4260001
0.43436953 0.03696762 2.4260001
0.4389905 0.03696762 2.4260001
0.44672 0.037226669 2.4430001
0.44823241 0.03696762 2.4260001
0.45285335 0.03696762 2.4260001
0.45747429 0.03696762 2.4260001
0.46209526 0.03696762 2.4260001
0.4667162 0.03696762 2.4260001
0.47133717 0.03696762 2.4260001
0.47595811 0.03696762 2.4260001
0.48057908 0.03696762 2.4260001
0.48520002 0.03696762 2.4260001
0.48638859 0.036708571 2.4090002
0.49097717 0.036708571 2.4090002
0.49556574 0.036708571 2.4090002
0.50015432 0.036708571 2.4090002
0.50830477 0.03696762 2.4260001
0.51292574 0.03696762 2.4260001
0.51754671 0.03696762 2.4260001
0.52216762 0.03696762 2.4260001
0.52678859 0.03696762 2.4260001
0.53140956 0.03696762 2.4260001
0.53603047 0.03696762 2.4260001
0.54065144 0.03696762 2.4260001
0.54527241 0.03696762 2.4260001
0.54989338 0.03696762 2.4260001
0.55451429 0.03696762 2.4260001
0.55913526 0.03696762 2.4260001
0.56375623 0.03696762 2.4260001
0.56837714 0.03696762 2.4260001
0.57299811 0.03696762 2.4260001
0.57761908 0.03696762 2.4260001
0.58224005 0.03696762 2.4260001
0.58274859 0.036708571 2.4090002
0.59148192 0.03696762 2.4260001
0.59610289 0.03696762 2.4260001
0.6007238 0.03696762 2.4260001
0.60534477 0.03696762 2.4260001
0.60996574 0.03696762 2.4260001
0.61458671 0.03696762 2.4260001
0.61486858 0.036708571 2.4090002
0.61945719 0.036708571 2.4090002
0.6196419 0.036449526 2.3920002
0.62419814 0.036449526 2.3920002
0.62875432 0.036449526 2.3920002
0.6333105 0.036449526 2.3920002
0.63786668 0.036449526 2.3920002
0.64242285 0.036449526 2.3920002
0.64697909 0.036449526 2.3920002
0.65153527 0.036449526 2.3920002
0.66075432 0.036708571 2.4090002
0.66534287 0.036708571 2.4090002
0.66520381 0.036449526 2.3920002
0.66976005 0.036449526 2.3920002
0.67431623 0.036449526 2.3920002
0.67887241 0.036449526 2.3920002
0.68342859 0.036449526 2.3920002
0.68798476 0.036449526 2.3920002
0.692541 0.036449526 2.3920002
0.69709718 0.036449526 2.3920002
0.70165336 0.036449526 2.3920002
0.70620954 0.036449526 2.3920002
0.71581715 0.036708571 2.4090002
0.72040576 0.036708571 2.4090002
0.7249943 0.036708571 2.4090002
0.73473144 0.03696762 2.4260001
0.73935241 0.03696762 2.4260001
0.73876005 0.036708571 2.4090002
0.73810291 0.036449526 2.3920002
0.73769146 0.036205716 2.3760002
0.73690671 0.035946667 2.3590002
0.7414 0.035946667 2.3590002
0.7408343 0.035702858 2.3430002
0.74020767 0.035459049 2.3270001
0.73984003 0.035230476 2.312
0.73941529 0.035001907 2.2970002
0.73860955 0.034758095 2.2810001
0.73806858 0.034529526 2.266
0.73779809 0.034316193 2.2520001
0.74208766 0.034316193 2.2520001
0.74140573 0.034087621 2.237
0.736 0.033645716 2.2080002
0.73551244 0.033432383 2.194
0.73530859 0.033234287 2.181
0.72996956 0.032807622 2.1530001
0.7296381 0.032609526 2.1400001
0.72925717 0.03241143 2.1270001
0.73330861 0.03241143 2.1270001
0.73285335 0.032213334 2.1140001
0.73234862 0.032015238 2.1010001
0.7317943 0.031817146 2.0880001
0.73154289 0.031634286 2.0760002
0.73549718 0.031634286 2.0760002
0.7262724 0.031070478 2.039
0.72585905 0.030887621 2.0270002
0.72972006 0.030887621 2.0270002
0.73358101 0.030887621 2.0270002
0.73307621 0.030704763 2.0150001
0.73252577 0.030521905 2.003
0.73229718 0.030354287 1.9920001
0.73165715 0.03017143 1.9800001
0.72725719 0.029836191 1.9580001
0.72277337 0.029500954 1.9360001
0.72233337 0.029333334 1.9250001
0.72600001 0.029333334 1.9250001
0.72587621 0.029180953 1.9150001
0.72952384 0.029180953 1.9150001
0.72896004 0.029013334 1.904
0.73258668 0.029013334 1.904
0.73621339 0.029013334 1.904
0.73984003 0.029013334 1.904
0.74346668 0.029013334 1.904
0.74316955 0.028860953 1.8940001
0.74677718 0.028860953 1.8940001
0.75038481 0.028860953 1.8940001
0.75399244 0.028860953 1.8940001
0.75760001 0.028860953 1.8940001
0.76120764 0.028860953 1.8940001
0.76481527 0.028860953 1.8940001
0.7684229 0.028860953 1.8940001
0.77203053 0.028860953 1.8940001
0.7756381 0.028860953 1.8940001
0.77924573 0.028860953 1.8940001
0.78285336 0.028860953 1.8940001
0.786461 0.028860953 1.8940001
0.79006863 0.028860953 1.8940001
0.7936762 0.028860953 1.8940001
0.80149335 0.029013334 1.904
0.80089146 0.028860953 1.8940001
0.8087467 0.029013334 1.904
0.80810672 0.028860953 1.8940001
0.81171429 0.028860953 1.8940001
0.81532192 0.028860953 1.8940001
0.81892955 0.028860953 1.8940001
-1.0262991 0.034337144 2.003
-1.0224838 0.034337144 2.003
-1.0186687 0.034337144 2.003
-1.0092801 0.034148574 1.9920001
-0.99942863 0.03394286 1.9800001
-1.0016915 0.034148574 1.9920001
-0.99789721 0.034148574 1.9920001
-0.9941029 0.034148574 1.9920001
-0.98434287 0.03394286 1.9800001
-0.98057145 0.03394286 1.9800001
-0.97680002 0.03394286 1.9800001
-0.97892576 0.034148574 1.9920001
-0.96925718 0.03394286 1.9800001
-0.96548575 0.03394286 1.9800001
-0.96171433 0.03394286 1.9800001
-0.9579429 0.03394286 1.9800001
-0.95995432 0.034148574 1.9920001
-0.95616001 0.034148574 1.9920001
-0.95236576 0.034148574 1.9920001
-0.95380956 0.034337144 2.003
-0.94999433 0.034337144 2.003
-0.94617909 0.034337144 2.003
-0.94236386 0.034337144 2.003
-0.93854862 0.034337144 2.003
-0.93473339 0.034337144 2.003
-0.93091816 0.034337144 2.003
-0.92710286 0.034337144 2.003
-0.92881906 0.034542859 2.0150001
-0.924981 0.034542859 2.0150001
-0.92662859 0.034748573 2.0270002
-0.93369335 0.035160001 2.0510001
-0.92978668 0.035160001 2.0510001
-0.93129718 0.035365716 2.0630002
-0.92736763 0.035365716 2.0630002
-0.92343813 0.035365716 2.0630002
-0.91950858 0.035365716 2.0630002
-0.92134863 0.035588574 2.0760002
-0.91739434 0.035588574 2.0760002
-0.92444003 0.036017146 2.1010001
-0.92043811 0.036017146 2.1010001
-0.92210668 0.03624 2.1140001
-0.91808003 0.03624 2.1140001
-0.91405338 0.03624 2.1140001
-0.91562289 0.036462858 2.1270001
-0.91714287 0.036685716 2.1400001
-0.91306669 0.036685716 2.1400001
-0.9145124 0.036908574 2.1530001
-0.91041148 0.036908574 2.1530001
-0.9180972 0.037388574 2.181
-0.9193905 0.037611429 2.194
-0.92105144 0.03785143 2.2080002
-0.92307431 0.038108572 2.223
-0.91884005 0.038108572 2.223
-0.92036575 0.038348574 2.237
-0.91610479 0.038348574 2.237
-0.91795814 0.038605716 2.2520001
-0.91366863 0.038605716 2.2520001
-0.90937907 0.038605716 2.2520001
-0.91071624 0.038845714 2.266
-0.91240001 0.03910286 2.2810001
-0.90805525 0.03910286 2.2810001
-0.91004956 0.039377145 2.2970002
-0.90567434 0.039377145 2.2970002
-0.9130705 0.039891429 2.3270001
-0.90863812 0.039891429 2.3270001
-0.90420574 0.039891429 2.3270001
-0.90596002 0.040165715 2.3430002
-0.90149719 0.040165715 2.3430002
-0.90966862 0.04073143 2.3760002
-0.91123813 0.041005716 2.3920002
-0.91312575 0.041297145 2.4090002
-0.90853715 0.041297145 2.4090002
-0.90394861 0.041297145 2.4090002
-0.9057067 0.041588575 2.4260001
-0.90740001 0.04188 2.4430001
-0.90274668 0.04188 2.4430001
-0.90434289 0.04217143 2.46
-0.90624005 0.042480003 2.4780002
-0.90152001 0.042480003 2.4780002
-0.90331429 0.042788573 2.4960001
-0.89856005 0.042788573 2.4960001
-0.89380574 0.042788573 2.4960001
-0.89546287 0.043097146 2.5140002
-0.89067429 0.043097146 2.5140002
-0.8922286 0.043405715 2.5320001
-0.8810972 0.043097146 2.5140002
-0.87630862 0.043097146 2.5140002
-0.87152004 0.043097146 2.5140002
-0.86673146 0.043097146 2.5140002
-0.86194289 0.043097146 2.5140002
-0.85101718 0.042788573 2.4960001
-0.84626287 0.042788573 2.4960001
-0.84150863 0.042788573 2.4960001
-0.83072001 0.042480003 2.4780002
-0.82600003 0.042480003 2.4780002
-0.82128 0.042480003 2.4780002
-0.81656003 0.042480003 2.4780002
-0.81184006 0.042480003 2.4780002
-0.81298292 0.042788573 2.4960001
-0.80822861 0.042788573 2.4960001
-0.80347431 0.042788573 2.4960001
-0.79296005 0.042480003 2.4780002
-0.78824002 0.042480003 2.4780002
-0.78352004 0.042480003 2.4780002
-0.77880001 0.042480003 2.4780002
-0.77408004 0.042480003 2.4780002
-0.76377147 0.04217143 2.46
-0.75908571 0.04217143 2.46
-0.75440001 0.04217143 2.46
-0.73935241 0.041588575 2.4260001
-0.73473144 0.041588575 2.4260001
-0.73522669 0.04188 2.4430001
-0.73057336 0.04188 2.4430001
-0.72086859 0.041588575 2.4260001
-0.71624762 0.041588575 2.4260001
-0.72160006 0.04217143 2.46
-0.71196002 0.04188 2.4430001
-0.70238477 0.041588575 2.4260001
-0.69776386 0.041588575 2.4260001
-0.69314289 0.041588575 2.4260001
-0.68852192 0.041588575 2.4260001
-0.68390095 0.041588575 2.4260001
-0.67452002 0.041297145 2.4090002
-0.66993147 0.041297145 2.4090002
-0.66534287 0.041297145 2.4090002
-0.66075432 0.041297145 2.4090002
-0.66079623 0.041588575 2.4260001
-0.66077334 0.04188 2.4430001
-0.65155429 0.041588575 2.4260001
-0.64693338 0.041588575 2.4260001
-0.64231241 0.041588575 2.4260001
-0.64216 0.04188 2.4430001
-0.63750666 0.04188 2.4430001
-0.62404573 0.041297145 2.4090002
-0.62819999 0.04188 2.4430001
-0.62788576 0.04217143 2.46
-0.6232 0.04217143 2.46
-0.6185143 0.04217143 2.46
-0.6138286 0.04217143 2.46
-0.6091429 0.04217143 2.46
-0.60445714 0.04217143 2.46
-0.59977144 0.04217143 2.46
-0.59508574 0.04217143 2.46
-0.59040004 0.04217143 2.46
-0.58571428 0.04217143 2.46
-0.58102858 0.04217143 2.46
-0.57236004 0.04188 2.4430001
-0.5677067 0.04188 2.4430001
-0.56305337 0.04188 2.4430001
-0.55840003 0.04188 2.4430001
-0.5537467 0.04188 2.4430001
-0.54909337 0.04188 2.4430001
-0.54822856 0.04217143 2.46
-0.54354286 0.04217143 2.46
-0.53885716 0.04217143 2.46
-0.53417146 0.04217143 2.46
-0.52948576 0.04217143 2.46
-0.5248 0.04217143 2.46
-0.5201143 0.04217143 2.46
-0.5154286 0.04217143 2.46
-0.5107429 0.04217143 2.46
-0.50605714 0.04217143 2.46
-0.50503999 0.042480003 2.4780002
-0.50032002 0.042480003 2.4780002
-0.49560001 0.042480003 2.4780002
-0.49088001 0.042480003 2.4780002
-0.48616001 0.042480003 2.4780002
-0.48144001 0.042480003 2.4780002
-0.47672001 0.042480003 2.4780002
-0.472 0.042480003 2.4780002
-0.46728003 0.042480003 2.4780002
-0.45920002 0.04217143 2.46
-0.45451429 0.04217143 2.46
-0.44982859 0.04217143 2.46
-0.44514287 0.04217143 2.46
-0.44368002 0.042480003 2.4780002
-0.43896002 0.042480003 2.4780002
-0.43424001 0.042480003 2.4780002
-0.42952001 0.042480003 2.4780002
-0.42480001 0.042480003 2.4780002
-0.42008001 0.042480003 2.4780002
-0.41536 0.042480003 2.4780002
-0.41064 0.042480003 2.4780002
-0.40592003 0.042480003 2.4780002
-0.40120003 0.042480003 2.4780002
-0.39648002 0.042480003 2.4780002
-0.39176002 0.042480003 2.4780002
-0.38704002 0.042480003 2.4780002
-0.38509715 0.042788573 2.4960001
-0.38034287 0.042788573 2.4960001
-0.37829715 0.043097146 2.5140002
-0.37350857 0.043097146 2.5140002
-0.36872002 0.043097146 2.5140002
-0.36393145 0.043097146 2.5140002
-0.35914287 0.043097146 2.5140002
-0.35181716 0.042788573 2.4960001
-0.34706286 0.042788573 2.4960001
-0.34230858 0.042788573 2.4960001
-0.33755431 0.042788573 2.4960001
-0.3328 0.042788573 2.4960001
-0.32568002 0.042480003 2.4780002
-0.32096002 0.042480003 2.4780002
-0.31624001 0.042480003 2.4780002
-0.31152001 0.042480003 2.4780002
-0.30680001 0.042480003 2.4780002
-0.30208001 0.042480003 2.4780002
-0.29736 0.042480003 2.4780002
-0.29264 0.042480003 2.4780002
-0.28792 0.042480003 2.4780002
-0.2832 0.042480003 2.4780002
-0.27848002 0.042480003 2.4780002
-0.27376002 0.042480003 2.4780002
-0.26904002 0.042480003 2.4780002
-0.26432002 0.042480003 2.4780002
-0.25960001 0.042480003 2.4780002
-0.25488001 0.042480003 2.4780002
-0.25016001 0.042480003 2.4780002
-0.24544001 0.042480003 2.4780002
-0.24072 0.042480003 2.4780002
-0.236 0.042480003 2.4780002
-0.23296002 0.042788573 2.4960001
-0.22820573 0.042788573 2.4960001
-0.22345144 0.042788573 2.4960001
-0.21869715 0.042788573 2.4960001
-0.21394287 0.042788573 2.4960001
-0.20918858 0.042788573 2.4960001
-0.20443429 0.042788573 2.4960001
-0.19968 0.042788573 2.4960001
-0.19492573 0.042788573 2.4960001
-0.18880001 0.042480003 2.4780002
-0.18408 0.042480003 2.4780002
-0.18066287 0.042788573 2.4960001
-0.17590858 0.042788573 2.4960001
-0.17115429 0.042788573 2.4960001
-0.1664 0.042788573 2.4960001
-0.16048001 0.042480003 2.4780002
-0.15576001 0.042480003 2.4780002
-0.15104 0.042480003 2.4780002
-0.14632 0.042480003 2.4780002
-0.1416 0.042480003 2.4780002
-0.13688001 0.042480003 2.4780002
-0.13216001 0.042480003 2.4780002
-0.12744001 0.042480003 2.4780002
-0.12272 0.042480003 2.4780002
-0.118 0.042480003 2.4780002
-0.11328001 0.042480003 2.4780002
-0.10856 0.042480003 2.4780002
-0.10384 0.042480003 2.4780002
-0.099120006 0.042480003 2.4780002
-0.094400004 0.042480003 2.4780002
-0.089680001 0.042480003 2.4780002
-0.084960006 0.042480003 2.4780002
-0.080240004 0.042480003 2.4780002
-0.075520001 0.042480003 2.4780002
-0.070799999 0.042480003 2.4780002
-0.066080004 0.042480003 2.4780002
-0.061360002 0.042480003 2.4780002
-0.056640003 0.042480003 2.4780002
-0.05192 0.042480003 2.4780002
-0.047200002 0.042480003 2.4780002
-0.042480003 0.042480003 2.4780002
-0.037760001 0.042480003 2.4780002
-0.0328 0.04217143 2.46
-0.028114287 0.04217143 2.46
-0.023428572 0.04217143 2.46
-0.018742858 0.04217143 2.46
-0.014057144 0.04217143 2.46
-0.0093714288 0.04217143 2.46
-0.0046857144 0.04217143 2.46
0 0.04188 2.4430001
0.0046533337 0.04188 2.4430001
0.0093066674 0.04188 2.4430001
0.01396 0.04188 2.4430001
0.018613335 0.04188 2.4430001
0.023428572 0.04217143 2.46
0.028114287 0.04217143 2.46
0.0328 0.04217143 2.46
0.037485715 0.04217143 2.46
0.04217143 0.04217143 2.46
0.046857145 0.04217143 2.46
0.05154286 0.04217143 2.46
0.055840001 0.04188 2.4430001
0.060493335 0.04188 2.4430001
0.06514667 0.04188 2.4430001
0.069800004 0.04188 2.4430001
0.074453339 0.04188 2.4430001
0.079106666 0.04188 2.4430001
0.083760001 0.04188 2.4430001
0.088413335 0.04188 2.4430001
0.09306667 0.04188 2.4430001
0.097720005 0.04188 2.4430001
0.10237334 0.04188 2.4430001
0.10702667 0.04188 2.4430001
0.11168 0.04188 2.4430001
0.11633334 0.04188 2.4430001
0.12098667 0.04188 2.4430001
0.12564 0.04188 2.4430001
0.13029334 0.04188 2.4430001
0.13494667 0.04188 2.4430001
0.13960001 0.04188 2.4430001
0.14425334 0.04188 2.4430001
0.14994286 0.04217143 2.46
0.15356001 0.04188 2.4430001
0.15821333 0.04188 2.4430001
0.16286667 0.04188 2.4430001
0.16868572 0.04217143 2.46
0.17337143 0.04217143 2.46
0.17805715 0.04217143 2.46
0.18274286 0.04217143 2.46
0.18742858 0.04217143 2.46
0.19211429 0.04217143 2.46
0.19680001 0.04217143 2.46
0.20148572 0.04217143 2.46
0.20617144 0.04217143 2.46
0.21085715 0.04217143 2.46
0.21554287 0.04217143 2.46
0.22022858 0.04217143 2.46
0.2249143 0.04217143 2.46
0.22960001 0.04217143 2.46
0.23428573 0.04217143 2.46
0.23897144 0.04217143 2.46
0.24365716 0.04217143 2.46
0.24834287 0.04217143 2.46
0.25302857 0.04217143 2.46
0.2577143 0.04217143 2.46
0.26058668 0.04188 2.4430001
0.26524001 0.04188 2.4430001
0.26989335 0.04188 2.4430001
0.27454668 0.04188 2.4430001
0.27920002 0.04188 2.4430001
0.28385335 0.04188 2.4430001
0.28850669 0.04188 2.4430001
0.29316002 0.04188 2.4430001
0.29781336 0.04188 2.4430001
0.30246669 0.04188 2.4430001
0.30712003 0.04188 2.4430001
0.31177333 0.04188 2.4430001
0.31642666 0.04188 2.4430001
0.32108 0.04188 2.4430001
0.32573333 0.04188 2.4430001
0.33038667 0.04188 2.4430001
0.33504 0.04188 2.4430001
0.33969334 0.04188 2.4430001
0.34434667 0.04188 2.4430001
0.34900001 0.04188 2.4430001
0.35365334 0.04188 2.4430001
0.35830668 0.04188 2.4430001
0.36296001 0.04188 2.4430001
0.36761335 0.04188 2.4430001
0.37226668 0.04188 2.4430001
0.37692001 0.04188 2.4430001
0.38157335 0.04188 2.4430001
0.38622668 0.04188 2.4430001
0.38816002 0.041588575 2.4260001
0.39278096 0.041588575 2.4260001
0.39740193 0.041588575 2.4260001
0.40484002 0.04188 2.4430001
0.40664384 0.041588575 2.4260001
0.41414669 0.04188 2.4430001
0.41880003 0.04188 2.4430001
0.42345336 0.04188 2.4430001
0.4281067 0.04188 2.4430001
0.43276003 0.04188 2.4430001
0.43741333 0.04188 2.4430001
0.44206667 0.04188 2.4430001
0.44672 0.04188 2.4430001
0.45137334 0.04188 2.4430001
0.45285335 0.041588575 2.4260001
0.45747429 0.041588575 2.4260001
0.46209526 0.041588575 2.4260001
0.4667162 0.041588575 2.4260001
0.47133717 0.041588575 2.4260001
0.47595811 0.041588575 2.4260001
0.48057908 0.041588575 2.4260001
0.48520002 0.041588575 2.4260001
0.48638859 0.041297145 2.4090002
0.49097717 0.041297145 2.4090002
0.49556574 0.041297145 2.4090002
0.50015432 0.041297145 2.4090002
0.50474286 0.041297145 2.4090002
0.50933146 0.041297145 2.4090002
0.51392001 0.041297145 2.4090002
0.52216762 0.041588575 2.4260001
0.52678859 0.041588575 2.4260001
0.53140956 0.041588575 2.4260001
0.53603047 0.041588575 2.4260001
0.54065144 0.041588575 2.4260001
0.54527241 0.041588575 2.4260001
0.54989338 0.041588575 2.4260001
0.55451429 0.041588575 2.4260001
0.55913526 0.041588575 2.4260001
0.56375623 0.041588575 2.4260001
0.56837714 0.041588575 2.4260001
0.57299811 0.041588575 2.4260001
0.57761908 0.041588575 2.4260001
0.58224005 0.041588575 2.4260001
0.58274859 0.041297145 2.4090002
0.59148192 0.041588575 2.4260001
0.59610289 0.041588575 2.4260001
0.6007238 0.041588575 2.4260001
0.60534477 0.041588575 2.4260001
0.60996574 0.041588575 2.4260001
0.61458671 0.041588575 2.4260001
0.61486858 0.041297145 2.4090002
0.61945719 0.041297145 2.4090002
0.6196419 0.041005716 2.3920002
0.62419814 0.041005716 2.3920002
0.62875432 0.041005716 2.3920002
0.6333105 0.041005716 2.3920002
0.63786668 0.041005716 2.3920002
0.64242285 0.041005716 2.3920002
0.64697909 0.041005716 2.3920002
0.65616572 0.041297145 2.4090002
0.66075432 0.041297145 2.4090002
0.66534287 0.041297145 2.4090002
0.66520381 0.041005716 2.3920002
0.66976005 0.041005716 2.3920002
0.67431623 0.041005716 2.3920002
0.67887241 0.041005716 2.3920002
0.68342859 0.041005716 2.3920002
0.68798476 0.041005716 2.3920002
0.692541 0.041005716 2.3920002
0.69709718 0.041005716 2.3920002
0.70165336 0.041005716 2.3920002
0.71122861 0.041297145 2.4090002
0.71581715 0.041297145 2.4090002
0.72040576 0.041297145 2.4090002
0.7249943 0.041297145 2.4090002
0.73473144 0.041588575 2.4260001
0.73935241 0.041588575 2.4260001
0.73876005 0.041297145 2.4090002
0.73810291 0.041005716 2.3920002
0.73769146 0.04073143 2.3760002
0.74221718 0.04073143 2.3760002
0.7414 0.040440001 2.3590002
0.7408343 0.040165715 2.3430002
0.74020767 0.039891429 2.3270001
0.73984003 0.039634287 2.312
0.73941529 0.039377145 2.2970002
0.73860955 0.03910286 2.2810001
0.73806858 0.038845714 2.266
0.73779809 0.038605716 2.2520001
0.74208766 0.038605716 2.2520001
0.74140573 0.038348574 2.237
0.736 0.03785143 2.2080002
0.73551244 0.037611429 2.194
0.73530859 0.037388574 2.181
0.72996956 0.036908574 2.1530001
0.73407048 0.036908574 2.1530001
0.73371434 0.036685716 2.1400001
0.73330861 0.036462858 2.1270001
0.73285335 0.03624 2.1140001
0.73234862 0.036017146 2.1010001
0.7317943 0.035794288 2.0880001
0.73154289 0.035588574 2.0760002
0.73549718 0.035588574 2.0760002
0.7262724 0.034954287 2.039
0.73015624 0.034954287 2.039
0.72972006 0.034748573 2.0270002
0.72923809 0.034542859 2.0150001
0.73307621 0.034542859 2.0150001
0.72850287 0.034148574 1.9920001
0.73229718 0.034148574 1.9920001
0.73165715 0.03394286 1.9800001
0.73134291 0.033754285 1.9690001
0.72277337 0.033188574 1.9360001
0.72646099 0.033188574 1.9360001
0.72600001 0.033 1.9250001
0.72966671 0.033 1.9250001
0.72952384 0.032828573 1.9150001
0.72896004 0.032640003 1.904
0.73258668 0.032640003 1.904
0.73621339 0.032640003 1.904
0.73984003 0.032640003 1.904
0.73956192 0.032468572 1.8940001
0.74316955 0.032468572 1.8940001
0.74677718 0.032468572 1.8940001
0.75038481 0.032468572 1.8940001
0.75399244 0.032468572 1.8940001
0.75760001 0.032468572 1.8940001
0.76120764 0.032468572 1.8940001
0.76481527 0.032468572 1.8940001
0.7684229 0.032468572 1.8940001
0.77203053 0.032468572 1.8940001
0.7756381 0.032468572 1.8940001
0.77924573 0.032468572 1.8940001
0.78285336 0.032468572 1.8940001
0.786461 0.032468572 1.8940001
0.79006863 0.032468572 1.8940001
0.7936762 0.032468572 1.8940001
0.80149335 0.032640003 1.904
0.80089146 0.032468572 1.8940001
0.8087467 0.032640003 1.904
0.80810672 0.032468572 1.8940001
0.81171429 0.032468572 1.8940001
0.81532192 0.032468572 1.8940001
0.81892955 0.032468572 1.8940001
-1.0244572 0.03794286 1.9920001
-1.0262991 0.038152382 2.003
-1.0224838 0.038152382 2.003
-1.0186687 0.038152382 2.003
-1.0092801 0.03794286 1.9920001
-0.99942863 0.037714288 1.9800001
-1.0016915 0.03794286 1.9920001
-0.99789721 0.03794286 1.9920001
-0.9941029 0.03794286 1.9920001
-0.99030858 0.03794286 1.9920001
-0.98651433 0.03794286 1.9920001
-0.98272002 0.03794286 1.9920001
-0.97892576 0.03794286 1.9920001
-0.96925718 0.037714288 1.9800001
-0.96548575 0.037714288 1.9800001
-0.96171433 0.037714288 1.9800001
-0.96374863 0.03794286 1.9920001
-0.95995432 0.03794286 1.9920001
-0.95616001 0.03794286 1.9920001
-0.95236576 0.03794286 1.9920001
-0.95380956 0.038152382 2.003
-0.94999433 0.038152382 2.003
-0.94617909 0.038152382 2.003
-0.94236386 0.038152382 2.003
-0.93854862 0.038152382 2.003
-0.93473339 0.038152382 2.003
-0.93091816 0.038152382 2.003
-0.92710286 0.038152382 2.003
-0.92881906 0.038380954 2.0150001
-0.93048954 0.038609527 2.0270002
-0.92662859 0.038609527 2.0270002
-0.92823052 0.038838096 2.039
-0.92434669 0.038838096 2.039
-0.92588001 0.039066669 2.0510001
-0.92736763 0.039295241 2.0630002
-0.92343813 0.039295241 2.0630002
-0.91950858 0.039295241 2.0630002
-0.92134863 0.039542858 2.0760002
-0.91739434 0.039542858 2.0760002
-0.92444003 0.04001905 2.1010001
-0.92043811 0.04001905 2.1010001
-0.92210668 0.040266667 2.1140001
-0.91808003 0.040266667 2.1140001
-0.91967434 0.040514287 2.1270001
-0.91562289 0.040514287 2.1270001
-0.91714287 0.040761907 2.1400001
-0.91306669 0.040761907 2.1400001
-0.9145124 0.041009527 2.1530001
-0.91633147 0.04127619 2.1670001
-0.9180972 0.041542858 2.181
-0.9193905 0.041790478 2.194
-0.92105144 0.042057145 2.2080002
-0.92307431 0.04234286 2.223
-0.91884005 0.04234286 2.223
-0.92036575 0.042609524 2.237
-0.91610479 0.042609524 2.237
-0.91184384 0.042609524 2.237
-0.91366863 0.042895239 2.2520001
-0.90937907 0.042895239 2.2520001
-0.91071624 0.043161906 2.266
-0.91240001 0.043447621 2.2810001
-0.90805525 0.043447621 2.2810001
-0.91004956 0.043752383 2.2970002
-0.90567434 0.043752383 2.2970002
-0.90129906 0.043752383 2.2970002
-0.90863812 0.044323809 2.3270001
-0.90420574 0.044323809 2.3270001
-0.90596002 0.044628572 2.3430002
-0.90149719 0.044628572 2.3430002
-0.90966862 0.045257144 2.3760002
-0.9177143 0.045885716 2.4090002
-0.91312575 0.045885716 2.4090002
-0.90853715 0.045885716 2.4090002
-0.91032767 0.046209525 2.4260001
-0.9057067 0.046209525 2.4260001
-0.90740001 0.046533335 2.4430001
-0.90902859 0.046857145 2.46
-0.91096002 0.047200002 2.4780002
-0.90624005 0.047200002 2.4780002
-0.90152001 0.047200002 2.4780002
-0.90331429 0.047542859 2.4960001
-0.89856005 0.047542859 2.4960001
-0.89380574 0.047542859 2.4960001
-0.88905144 0.047542859 2.4960001
-0.89067429 0.047885716 2.5140002
-0.88588578 0.047885716 2.5140002
-0.8810972 0.047885716 2.5140002
-0.87630862 0.047885716 2.5140002
-0.86528003 0.047542859 2.4960001
-0.86052573 0.047542859 2.4960001
-0.86194289 0.047885716 2.5140002
-0.85101718 0.047542859 2.4960001
-0.84626287 0.047542859 2.4960001
-0.84150863 0.047542859 2.4960001
-0.83072001 0.047200002 2.4780002
-0.83200002 0.047542859 2.4960001
-0.82128 0.047200002 2.4780002
-0.81656003 0.047200002 2.4780002
-0.81184006 0.047200002 2.4780002
-0.80712003 0.047200002 2.4780002
-0.80822861 0.047542859 2.4960001
-0.80347431 0.047542859 2.4960001
-0.79872 0.047542859 2.4960001
-0.78824002 0.047200002 2.4780002
-0.78352004 0.047200002 2.4780002
-0.77880001 0.047200002 2.4780002
-0.77408004 0.047200002 2.4780002
-0.76936001 0.047200002 2.4780002
-0.75384003 0.046533335 2.4430001
-0.74918669 0.046533335 2.4430001
-0.73935241 0.046209525 2.4260001
-0.73473144 0.046209525 2.4260001
-0.73011053 0.046209525 2.4260001
-0.72548956 0.046209525 2.4260001
-0.72086859 0.046209525 2.4260001
-0.71624762 0.046209525 2.4260001
-0.71162671 0.046209525 2.4260001
-0.70700574 0.046209525 2.4260001
-0.70238477 0.046209525 2.4260001
-0.69287431 0.045885716 2.4090002
-0.68828577 0.045885716 2.4090002
-0.68852192 0.046209525 2.4260001
-0.67910862 0.045885716 2.4090002
-0.67452002 0.045885716 2.4090002
-0.66993147 0.045885716 2.4090002
-0.66534287 0.045885716 2.4090002
-0.66541719 0.046209525 2.4260001
-0.66079623 0.046209525 2.4260001
-0.66077334 0.046533335 2.4430001
-0.65155429 0.046209525 2.4260001
-0.64693338 0.046209525 2.4260001
-0.63781142 0.045885716 2.4090002
-0.63769144 0.046209525 2.4260001
-0.63307053 0.046209525 2.4260001
-0.62844956 0.046209525 2.4260001
-0.62819999 0.046533335 2.4430001
-0.62354666 0.046533335 2.4430001
-0.61889338 0.046533335 2.4430001
-0.6185143 0.046857145 2.46
-0.6138286 0.046857145 2.46
-0.6091429 0.046857145 2.46
-0.60445714 0.046857145 2.46
-0.59977144 0.046857145 2.46
-0.59508574 0.046857145 2.46
-0.59040004 0.046857145 2.46
-0.58571428 0.046857145 2.46
-0.58102858 0.046857145 2.46
-0.57236004 0.046533335 2.4430001
-0.5677067 0.046533335 2.4430001
-0.56305337 0.046533335 2.4430001
-0.55840003 0.046533335 2.4430001
-0.5537467 0.046533335 2.4430001
-0.54909337 0.046533335 2.4430001
-0.54444003 0.046533335 2.4430001
-0.5397867 0.046533335 2.4430001
-0.53885716 0.046857145 2.46
-0.53048003 0.046533335 2.4430001
-0.52582669 0.046533335 2.4430001
-0.5248 0.046857145 2.46
-0.5201143 0.046857145 2.46
-0.5154286 0.046857145 2.46
-0.5107429 0.046857145 2.46
-0.50605714 0.046857145 2.46
-0.50137144 0.046857145 2.46
-0.49668574 0.046857145 2.46
-0.49560001 0.047200002 2.4780002
-0.49088001 0.047200002 2.4780002
-0.48616001 0.047200002 2.4780002
-0.48144001 0.047200002 2.4780002
-0.47672001 0.047200002 2.4780002
-0.472 0.047200002 2.4780002
-0.46728003 0.047200002 2.4780002
-0.45920002 0.046857145 2.46
-0.45451429 0.046857145 2.46
-0.44982859 0.046857145 2.46
-0.44514287 0.046857145 2.46
-0.44368002 0.047200002 2.4780002
-0.43896002 0.047200002 2.4780002
-0.43424001 0.047200002 2.4780002
-0.42952001 0.047200002 2.4780002
-0.42480001 0.047200002 2.4780002
-0.42008001 0.047200002 2.4780002
-0.41536 0.047200002 2.4780002
-0.41064 0.047200002 2.4780002
-0.40592003 0.047200002 2.4780002
-0.40120003 0.047200002 2.4780002
-0.39648002 0.047200002 2.4780002
-0.39176002 0.047200002 2.4780002
-0.38704002 0.047200002 2.4780002
-0.38509715 0.047542859 2.4960001
-0.38034287 0.047542859 2.4960001
-0.37829715 0.047885716 2.5140002
-0.37350857 0.047885716 2.5140002
-0.36872002 0.047885716 2.5140002
-0.36393145 0.047885716 2.5140002
-0.35914287 0.047885716 2.5140002
-0.35181716 0.047542859 2.4960001
-0.34706286 0.047542859 2.4960001
-0.34230858 0.047542859 2.4960001
-0.33755431 0.047542859 2.4960001
-0.33040002 0.047200002 2.4780002
-0.32568002 0.047200002 2.4780002
-0.32096002 0.047200002 2.4780002
-0.31624001 0.047200002 2.4780002
-0.31152001 0.047200002 2.4780002
-0.30680001 0.047200002 2.4780002
-0.30208001 0.047200002 2.4780002
-0.29736 0.047200002 2.4780002
-0.29264 0.047200002 2.4780002
-0.28792 0.047200002 2.4780002
-0.2832 0.047200002 2.4780002
-0.27848002 0.047200002 2.4780002
-0.27376002 0.047200002 2.4780002
-0.26904002 0.047200002 2.4780002
-0.26432002 0.047200002 2.4780002
-0.25960001 0.047200002 2.4780002
-0.25488001 0.047200002 2.4780002
-0.25016001 0.047200002 2.4780002
-0.24544001 0.047200002 2.4780002
-0.24072 0.047200002 2.4780002
-0.236 0.047200002 2.4780002
-0.23296002 0.047542859 2.4960001
-0.22820573 0.047542859 2.4960001
-0.22184001 0.047200002 2.4780002
-0.21869715 0.047542859 2.4960001
-0.2124 0.047200002 2.4780002
-0.20768 0.047200002 2.4780002
-0.20296001 0.047200002 2.4780002
-0.19968 0.047542859 2.4960001
-0.19352001 0.047200002 2.4780002
-0.18880001 0.047200002 2.4780002
-0.18408 0.047200002 2.4780002
-0.18066287 0.047542859 2.4960001
-0.17590858 0.047542859 2.4960001
-0.16992001 0.047200002 2.4780002
-0.16520001 0.047200002 2.4780002
-0.16048001 0.047200002 2.4780002
-0.15576001 0.047200002 2.4780002
-0.15104 0.047200002 2.4780002
-0.14632 0.047200002 2.4780002
-0.1416 0.047200002 2.4780002
-0.13688001 0.047200002 2.4780002
-0.13216001 0.047200002 2.4780002
-0.12744001 0.047200002 2.4780002
-0.12272 0.047200002 2.4780002
-0.118 0.047200002 2.4780002
-0.11328001 0.047200002 2.4780002
-0.10856 0.047200002 2.4780002
-0.10384 0.047200002 2.4780002
-0.099120006 0.047200002 2.4780002
-0.094400004 0.047200002 2.4780002
-0.089680001 0.047200002 2.4780002
-0.084960006 0.047200002 2.4780002
-0.080240004 0.047200002 2.4780002
-0.075520001 0.047200002 2.4780002
-0.070799999 0.047200002 2.4780002
-0.066080004 0.047200002 2.4780002
-0.061360002 0.047200002 2.4780002
-0.056640003 0.047200002 2.4780002
-0.05192 0.047200002 2.4780002
-0.047200002 0.047200002 2.4780002
-0.042480003 0.047200002 2.4780002
-0.037760001 0.047200002 2.4780002
-0.0328 0.046857145 2.46
-0.028114287 0.046857145 2.46
-0.023428572 0.046857145 2.46
-0.018742858 0.046857145 2.46
-0.014057144 0.046857145 2.46
-0.0093714288 0.046857145 2.46
-0.0046857144 0.046857145 2.46
0 0.046857145 2.46
0.0046533337 0.046533335 2.4430001
0.0093066674 0.046533335 2.4430001
0.01396 0.046533335 2.4430001
0.018742858 0.046857145 2.46
0.023428572 0.046857145 2.46
0.028114287 0.046857145 2.46
0.0328 0.046857145 2.46
0.037485715 0.046857145 2.46
0.04217143 0.046857145 2.46
0.046857145 0.046857145 2.46
0.05154286 0.046857145 2.46
0.055840001 0.046533335 2.4430001
0.060493335 0.046533335 2.4430001
0.06514667 0.046533335 2.4430001
0.069800004 0.046533335 2.4430001
0.074453339 0.046533335 2.4430001
0.079106666 0.046533335 2.4430001
0.083760001 0.046533335 2.4430001
0.088413335 0.046533335 2.4430001
0.09306667 0.046533335 2.4430001
0.097720005 0.046533335 2.4430001
0.10237334 0.046533335 2.4430001
0.10702667 0.046533335 2.4430001
0.11168 0.046533335 2.4430001
0.11633334 0.046533335 2.4430001
0.12098667 0.046533335 2.4430001
0.12564 0.046533335 2.4430001
0.13029334 0.046533335 2.4430001
0.13494667 0.046533335 2.4430001
0.13960001 0.046533335 2.4430001
0.14425334 0.046533335 2.4430001
0.14890668 0.046533335 2.4430001
0.15356001 0.046533335 2.4430001
0.15821333 0.046533335 2.4430001
0.16286667 0.046533335 2.4430001
0.16868572 0.046857145 2.46
0.17217334 0.046533335 2.4430001
0.17805715 0.046857145 2.46
0.18148001 0.046533335 2.4430001
0.18742858 0.046857145 2.46
0.19211429 0.046857145 2.46
0.19680001 0.046857145 2.46
0.20148572 0.046857145 2.46
0.20617144 0.046857145 2.46
0.21085715 0.046857145 2.46
0.21554287 0.046857145 2.46
0.22022858 0.046857145 2.46
0.2249143 0.046857145 2.46
0.22960001 0.046857145 2.46
0.23428573 0.046857145 2.46
0.23732001 0.046533335 2.4430001
0.24197334 0.046533335 2.4430001
0.24662668 0.046533335 2.4430001
0.25128001 0.046533335 2.4430001
0.2577143 0.046857145 2.46
0.26058668 0.046533335 2.4430001
0.26524001 0.046533335 2.4430001
0.26989335 0.046533335 2.4430001
0.27454668 0.046533335 2.4430001
0.27920002 0.046533335 2.4430001
0.28385335 0.046533335 2.4430001
0.28850669 0.046533335 2.4430001
0.29316002 0.046533335 2.4430001
0.29781336 0.046533335 2.4430001
0.30246669 0.046533335 2.4430001
0.30712003 0.046533335 2.4430001
0.31177333 0.046533335 2.4430001
0.31642666 0.046533335 2.4430001
0.32108 0.046533335 2.4430001
0.32573333 0.046533335 2.4430001
0.33038667 0.046533335 2.4430001
0.33504 0.046533335 2.4430001
0.33969334 0.046533335 2.4430001
0.34434667 0.046533335 2.4430001
0.34900001 0.046533335 2.4430001
0.35365334 0.046533335 2.4430001
0.35830668 0.046533335 2.4430001
0.36296001 0.046533335 2.4430001
0.36761335 0.046533335 2.4430001
0.37226668 0.046533335 2.4430001
0.37692001 0.046533335 2.4430001
0.38157335 0.046533335 2.4430001
0.38622668 0.046533335 2.4430001
0.38816002 0.046209525 2.4260001
0.39553335 0.046533335 2.4430001
0.40018669 0.046533335 2.4430001
0.40484002 0.046533335 2.4430001
0.40664384 0.046209525 2.4260001
0.41126478 0.046209525 2.4260001
0.41880003 0.046533335 2.4430001
0.42345336 0.046533335 2.4430001
0.42512763 0.046209525 2.4260001
0.42974859 0.046209525 2.4260001
0.43436953 0.046209525 2.4260001
0.44206667 0.046533335 2.4430001
0.44672 0.046533335 2.4430001
0.45137334 0.046533335 2.4430001
0.45285335 0.046209525 2.4260001
0.45747429 0.046209525 2.4260001
0.46209526 0.046209525 2.4260001
0.4667162 0.046209525 2.4260001
0.47133717 0.046209525 2.4260001
0.47595811 0.046209525 2.4260001
0.48057908 0.046209525 2.4260001
0.48520002 0.046209525 2.4260001
0.48638859 0.045885716 2.4090002
0.49097717 0.045885716 2.4090002
0.49556574 0.045885716 2.4090002
0.50015432 0.045885716 2.4090002
0.50474286 0.045885716 2.4090002
0.50933146 0.045885716 2.4090002
0.51392001 0.045885716 2.4090002
0.52216762 0.046209525 2.4260001
0.52678859 0.046209525 2.4260001
0.53140956 0.046209525 2.4260001
0.53603047 0.046209525 2.4260001
0.54065144 0.046209525 2.4260001
0.54527241 0.046209525 2.4260001
0.54989338 0.046209525 2.4260001
0.55451429 0.046209525 2.4260001
0.55913526 0.046209525 2.4260001
0.56375623 0.046209525 2.4260001
0.56837714 0.046209525 2.4260001
0.57299811 0.046209525 2.4260001
0.57761908 0.046209525 2.4260001
0.58224005 0.046209525 2.4260001
0.58274859 0.045885716 2.4090002
0.59148192 0.046209525 2.4260001
0.59610289 0.046209525 2.4260001
0.6007238 0.046209525 2.4260001
0.60534477 0.046209525 2.4260001
0.60996574 0.046209525 2.4260001
0.61458671 0.046209525 2.4260001
0.61920762 0.046209525 2.4260001
0.61945719 0.045885716 2.4090002
0.6196419 0.045561906 2.3920002
0.62419814 0.045561906 2.3920002
0.62875432 0.045561906 2.3920002
0.6333105 0.045561906 2.3920002
0.63786668 0.045561906 2.3920002
0.64698857 0.045885716 2.4090002
0.65157717 0.045885716 2.4090002
