# .PCD v0.7 - Point Cloud Data file format
VERSION 0.7
FIELDS x y z
SIZE 4 4 4
TYPE F F F
COUNT 1 1 1
WIDTH 1467
HEIGHT 1
VIEWPOINT 0 0 0 1 0 0 0
POINTS 1467
DATA ascii
0.29376 -0.11605334 1.904
0.29738668 -0.11605334 1.904
0.30275241 -0.11672381 1.9150001
0.308 -0.11733334 1.9250001
0.31166667 -0.11733334 1.9250001
0.31713524 -0.11800382 1.9360001
0.32264572 -0.11867429 1.9470001
0.3263543 -0.11867429 1.9470001
0.33192763 -0.11934476 1.9580001
0.33565715 -0.11934476 1.9580001
0.3432 -0.12068572 1.9800001
0.3490743 -0.12141715 1.9920001
0.35481715 -0.12208762 2.003
0.35863239 -0.12208762 2.003
0.36244762 -0.12208762 2.003
0.36626288 -0.12208762 2.003
0.37229526 -0.12281905 2.0150001
0.37613335 -0.12281905 2.0150001
0.38223431 -0.12355048 2.0270002
0.38609526 -0.12355048 2.0270002
0.39226478 -0.12428191 2.039
0.39848003 -0.12501334 2.0510001
0.40474096 -0.12574476 2.0630002
0.41124573 -0.12653714 2.0760002
0.41760001 -0.12726858 2.0880001
0.42420191 -0.12806095 2.1010001
0.43085334 -0.12885334 2.1140001
0.43488002 -0.12885334 2.1140001
0.44160572 -0.12964572 2.1270001
0.44838098 -0.1304381 2.1400001
0.45245716 -0.1304381 2.1400001
0.45930669 -0.13123049 2.1530001
0.46642098 -0.13208382 2.1670001
0.47358859 -0.13293715 2.181
0.47774288 -0.13293715 2.181
0.48476955 -0.13372953 2.194
0.48894858 -0.13372953 2.194
0.49312764 -0.13372953 2.194
0.50048 -0.13458286 2.2080002
0.50468576 -0.13458286 2.2080002
0.51557523 -0.13635048 2.237
0.51983619 -0.13635048 2.237
0.52761143 -0.13726477 2.2520001
0.53190094 -0.13726477 2.2520001
0.53619051 -0.13726477 2.2520001
0.54383999 -0.1381181 2.266
0.5481562 -0.1381181 2.266
0.55612952 -0.13903238 2.2810001
0.56809145 -0.14092191 2.312
0.57620955 -0.1418362 2.3270001
0.5846343 -0.14281143 2.3430002
0.59312004 -0.14378667 2.3590002
0.59761333 -0.14378667 2.3590002
0.60210669 -0.14378667 2.3590002
0.61097145 -0.14482287 2.3760002
0.61549717 -0.14482287 2.3760002
0.62419814 -0.1457981 2.3920002
0.63322288 -0.14683428 2.4090002
0.63781142 -0.14683428 2.4090002
0.64693338 -0.14787048 2.4260001
0.65155429 -0.14787048 2.4260001
0.66077334 -0.14890668 2.4430001
0.67005718 -0.14994286 2.46
0.67474288 -0.14994286 2.46
0.68440002 -0.15104 2.4780002
0.69412571 -0.15213715 2.4960001
0.70392001 -0.15323429 2.5140002
0.70870858 -0.15323429 2.5140002
0.72399813 -0.15548953 2.5510001
0.73428571 -0.15664762 2.5700002
0.73918098 -0.15664762 2.5700002
0.74957716 -0.15780573 2.5890002
0.75450861 -0.15780573 2.5890002
0.76530671 -0.15902478 2.6090002
0.77618098 -0.16024381 2.6290002
0.78118861 -0.16024381 2.6290002
0.7921772 -0.16146286 2.6490002
0.79722291 -0.16146286 2.6490002
0.80226862 -0.16146286 2.6490002
0.80731434 -0.16146286 2.6490002
-0.15456 -0.085560001 1.4490001
-0.15180001 -0.085560001 1.4490001
-0.14842287 -0.085205719 1.4430001
-0.14567429 -0.085205719 1.4430001
-0.14233144 -0.084851429 1.437
-0.13959429 -0.084851429 1.437
-0.13685715 -0.084851429 1.437
-0.13356 -0.084497146 1.4310001
-0.1308343 -0.084497146 1.4310001
-0.12757143 -0.084142864 1.4250001
-0.12433143 -0.083788574 1.419
-0.12162858 -0.083788574 1.419
-0.11892572 -0.083788574 1.419
-0.11573143 -0.083434291 1.4130001
-0.11304001 -0.083434291 1.4130001
-0.10988 -0.083080001 1.4070001
-0.1072 -0.083080001 1.4070001
-0.10452 -0.083080001 1.4070001
-0.10184 -0.083080001 1.4070001
-0.099160001 -0.083080001 1.4070001
-0.096480004 -0.083080001 1.4070001
-0.093800001 -0.083080001 1.4070001
-0.091120005 -0.083080001 1.4070001
-0.088125721 -0.082784764 1.4020001
-0.085089527 -0.082430482 1.396
-0.082430482 -0.082430482 1.396
-0.079771429 -0.082430482 1.396
-0.077112384 -0.082430482 1.396
-0.074453339 -0.082430482 1.396
-0.071794286 -0.082430482 1.396
-0.069135241 -0.082430482 1.396
-0.066476196 -0.082430482 1.396
-0.063817143 -0.082430482 1.396
-0.061158098 -0.082430482 1.396
-0.058499049 -0.082430482 1.396
-0.055840001 -0.082430482 1.396
-0.053180955 -0.082430482 1.396
-0.050521906 -0.082430482 1.396
-0.048068572 -0.082784764 1.4020001
-0.045398097 -0.082784764 1.4020001
-0.042880002 -0.083080001 1.4070001
-0.040200002 -0.083080001 1.4070001
-0.03768 -0.083434291 1.4130001
-0.034988571 -0.083434291 1.4130001
-0.032297146 -0.083434291 1.4130001
-0.029480001 -0.083080001 1.4070001
-0.026800001 -0.083080001 1.4070001
-0.024222858 -0.083434291 1.4130001
-0.021531429 -0.083434291 1.4130001
-0.018920001 -0.083788574 1.419
-0.016285716 -0.084142864 1.4250001
-0.013628572 -0.084497146 1.4310001
-0.010902857 -0.084497146 1.4310001
-0.0082114292 -0.084851429 1.437
-0.0054971431 -0.085205719 1.4430001
-0.0027485716 -0.085205719 1.4430001
0 -0.085560001 1.4490001
0.0027714288 -0.085914291 1.455
0.0055657146 -0.086268574 1.4610001
0.0083485721 -0.086268574 1.4610001
0.011177143 -0.086622864 1.4670001
0.014028572 -0.086977147 1.473
0.016834287 -0.086977147 1.473
0.019733334 -0.087390482 1.48
0.02264381 -0.087744765 1.4860001
0.025577145 -0.088099048 1.4920001
0.028419049 -0.088099048 1.4920001
0.031407621 -0.088512383 1.4990001
0.03442286 -0.088925719 1.506
0.03729143 -0.088925719 1.506
0.04016 -0.088925719 1.506
0.043200001 -0.089280002 1.5120001
0.046080001 -0.089280002 1.5120001
0.04896 -0.089280002 1.5120001
0.052080002 -0.089693338 1.5190001
0.055190478 -0.09004762 1.5250001
0.058361907 -0.090460956 1.5320001
0.061840001 -0.09128762 1.5460001
0.064784765 -0.09128762 1.5460001
0.068036191 -0.091700956 1.5530001
0.07131429 -0.092114292 1.5600001
0.074285716 -0.092114292 1.5600001
0.077257149 -0.092114292 1.5600001
0.080588572 -0.09252762 1.567
0.083573334 -0.09252762 1.567
0.086944766 -0.092940956 1.5740001
0.090342857 -0.093354292 1.5810001
0.093826666 -0.093826666 1.5890001
0.096853338 -0.093826666 1.5890001
0.099880002 -0.093826666 1.5890001
0.10381334 -0.094653338 1.603
0.10686667 -0.094653338 1.603
0.11094858 -0.095539048 1.618
0.11403048 -0.095539048 1.618
0.11769143 -0.09601143 1.626
0.12078857 -0.09601143 1.626
0.12449525 -0.096483812 1.6340001
0.12815429 -0.096897148 1.641
0.13192001 -0.097369529 1.649
0.13506095 -0.097369529 1.649
0.13887239 -0.097841911 1.6570001
0.14202857 -0.097841911 1.6570001
0.14658667 -0.098786667 1.6730001
0.14977334 -0.098786667 1.6730001
0.15369144 -0.099259049 1.6810001
0.15689334 -0.099259049 1.6810001
0.16095239 -0.099790476 1.6900001
0.16417143 -0.099790476 1.6900001
0.16818286 -0.10026286 1.6980001
0.17222477 -0.10073524 1.7060001
0.17640001 -0.10126667 1.715
0.18050477 -0.10173905 1.723
0.18474667 -0.10227048 1.7320001
0.18902287 -0.10280191 1.7410001
0.19333334 -0.10333334 1.7500001
0.19666667 -0.10333334 1.7500001
0.20102859 -0.10386477 1.7590001
0.20437905 -0.10386477 1.7590001
0.20772953 -0.10386477 1.7590001
0.21216001 -0.10439619 1.7680001
0.21552762 -0.10439619 1.7680001
0.22000954 -0.10492762 1.7770001
0.22452572 -0.10545905 1.7860001
0.22792763 -0.10545905 1.7860001
0.23249525 -0.10599048 1.7950001
0.23709716 -0.10652191 1.8040001
0.24186668 -0.10711239 1.8140001
0.2466743 -0.10770286 1.8240001
0.25138286 -0.10823429 1.8330001
0.25626478 -0.10882477 1.8430001
0.26259428 -0.11000572 1.863
0.26614287 -0.11000572 1.863
0.27113906 -0.11059619 1.8730001
0.27617335 -0.11118667 1.8830001
0.27976 -0.11118667 1.8830001
0.2850019 -0.11183619 1.8940001
0.28860953 -0.11183619 1.8940001
0.29376 -0.11242667 1.904
0.29738668 -0.11242667 1.904
0.30275241 -0.1130762 1.9150001
0.308 -0.11366667 1.9250001
0.31344762 -0.1143162 1.9360001
0.31713524 -0.1143162 1.9360001
0.32264572 -0.11496572 1.9470001
0.3263543 -0.11496572 1.9470001
0.33006287 -0.11496572 1.9470001
0.33754286 -0.11626477 1.9690001
0.34129333 -0.11626477 1.9690001
0.3490743 -0.11762286 1.9920001
0.35481715 -0.11827239 2.003
0.36078095 -0.11898096 2.0150001
0.36244762 -0.11827239 2.003
0.36626288 -0.11827239 2.003
0.37229526 -0.11898096 2.0150001
0.37837335 -0.11968953 2.0270002
0.38223431 -0.11968953 2.0270002
0.38609526 -0.11968953 2.0270002
0.39226478 -0.1203981 2.039
0.39848003 -0.12110667 2.0510001
0.40474096 -0.12181524 2.0630002
0.41124573 -0.12258286 2.0760002
0.41520002 -0.12258286 2.0760002
0.42157716 -0.12329143 2.0880001
0.42820382 -0.12405905 2.1010001
0.43488002 -0.12482667 2.1140001
0.44160572 -0.12559429 2.1270001
0.44838098 -0.12636191 2.1400001
0.45245716 -0.12636191 2.1400001
0.45653334 -0.12636191 2.1400001
0.46340764 -0.12712952 2.1530001
0.47358859 -0.12878287 2.181
0.47774288 -0.12878287 2.181
0.48476955 -0.12955049 2.194
0.48894858 -0.12955049 2.194
0.49312764 -0.12955049 2.194
0.50048 -0.13037714 2.2080002
0.50468576 -0.13037714 2.2080002
0.51234859 -0.13126287 2.223
0.51983619 -0.13208953 2.237
0.52761143 -0.13297524 2.2520001
0.53190094 -0.13297524 2.2520001
0.53952384 -0.13380191 2.266
0.54383999 -0.13380191 2.266
0.55178475 -0.13468762 2.2810001
0.56003052 -0.13563238 2.2970002
0.56809145 -0.13651811 2.312
0.57620955 -0.13740382 2.3270001
0.5846343 -0.13834858 2.3430002
0.59312004 -0.13929334 2.3590002
0.59761333 -0.13929334 2.3590002
0.60644573 -0.14029714 2.3760002
0.61097145 -0.14029714 2.3760002
0.6196419 -0.14124191 2.3920002
0.62419814 -0.14124191 2.3920002
0.63322288 -0.14224572 2.4090002
0.63781142 -0.14224572 2.4090002
0.64693338 -0.14324953 2.4260001
0.65155429 -0.14324953 2.4260001
0.66077334 -0.14425334 2.4430001
0.67005718 -0.14525715 2.46
0.67474288 -0.14525715 2.46
0.68440002 -0.14632 2.4780002
0.69412571 -0.14738286 2.4960001
0.70392001 -0.14844573 2.5140002
0.70870858 -0.14844573 2.5140002
0.72399813 -0.15063049 2.5510001
0.73428571 -0.15175238 2.5700002
0.73918098 -0.15175238 2.5700002
0.74957716 -0.15287429 2.5890002
0.75450861 -0.15287429 2.5890002
0.76530671 -0.15405524 2.6090002
0.77027625 -0.15405524 2.6090002
0.78118861 -0.1552362 2.6290002
0.7921772 -0.15641715 2.6490002
0.79722291 -0.15641715 2.6490002
0.80226862 -0.15641715 2.6490002
0.80731434 -0.15641715 2.6490002
-0.15392001 -0.082457148 1.4430001
-0.15117143 -0.082457148 1.4430001
-0.14842287 -0.082457148 1.4430001
-0.14506857 -0.082114287 1.437
-0.14233144 -0.082114287 1.437
-0.13959429 -0.082114287 1.437
-0.13628572 -0.081771433 1.4310001
-0.13356 -0.081771433 1.4310001
-0.13028572 -0.081428573 1.4250001
-0.12757143 -0.081428573 1.4250001
-0.12433143 -0.081085719 1.419
-0.12162858 -0.081085719 1.419
-0.11892572 -0.081085719 1.419
-0.11573143 -0.080742858 1.4130001
-0.11304001 -0.080742858 1.4130001
-0.11034857 -0.080742858 1.4130001
-0.10765715 -0.080742858 1.4130001
-0.10452 -0.080400005 1.4070001
-0.10184 -0.080400005 1.4070001
-0.099160001 -0.080400005 1.4070001
-0.096480004 -0.080400005 1.4070001
-0.093800001 -0.080400005 1.4070001
-0.091120005 -0.080400005 1.4070001
-0.088125721 -0.08011429 1.4020001
-0.085455239 -0.08011429 1.4020001
-0.082784764 -0.08011429 1.4020001
-0.08011429 -0.08011429 1.4020001
-0.077443816 -0.08011429 1.4020001
-0.074453339 -0.079771429 1.396
-0.071794286 -0.079771429 1.396
-0.069135241 -0.079771429 1.396
-0.066476196 -0.079771429 1.396
-0.063817143 -0.079771429 1.396
-0.061158098 -0.079771429 1.396
-0.058499049 -0.079771429 1.396
-0.055840001 -0.079771429 1.396
-0.053180955 -0.079771429 1.396
-0.050521906 -0.079771429 1.396
-0.048068572 -0.08011429 1.4020001
-0.045398097 -0.08011429 1.4020001
-0.042727619 -0.08011429 1.4020001
-0.040200002 -0.080400005 1.4070001
-0.037520003 -0.080400005 1.4070001
-0.034988571 -0.080742858 1.4130001
-0.032297146 -0.080742858 1.4130001
-0.029480001 -0.080400005 1.4070001
-0.026800001 -0.080400005 1.4070001
-0.024222858 -0.080742858 1.4130001
-0.021531429 -0.080742858 1.4130001
-0.018920001 -0.081085719 1.419
-0.016285716 -0.081428573 1.4250001
-0.013628572 -0.081771433 1.4310001
-0.010902857 -0.081771433 1.4310001
-0.0082114292 -0.082114287 1.437
-0.0054742857 -0.082114287 1.437
-0.0027485716 -0.082457148 1.4430001
0 -0.082800001 1.4490001
0.0027714288 -0.083142862 1.455
0.0055657146 -0.083485715 1.4610001
0.0083485721 -0.083485715 1.4610001
0.011177143 -0.083828576 1.4670001
0.014028572 -0.084171429 1.473
0.016834287 -0.084171429 1.473
0.019733334 -0.084571429 1.48
0.02264381 -0.084914289 1.4860001
0.025474288 -0.084914289 1.4860001
0.028419049 -0.085257143 1.4920001
0.031407621 -0.08565715 1.4990001
0.034262858 -0.08565715 1.4990001
0.03729143 -0.086057149 1.506
0.04016 -0.086057149 1.506
0.043200001 -0.086400002 1.5120001
0.046080001 -0.086400002 1.5120001
0.04896 -0.086400002 1.5120001
0.052080002 -0.086800002 1.5190001
0.054973334 -0.086800002 1.5190001
0.058361907 -0.087542862 1.5320001
0.061560001 -0.087942861 1.539
0.064784765 -0.08834286 1.5460001
0.068036191 -0.08874286 1.5530001
0.070994288 -0.08874286 1.5530001
0.074285716 -0.089142859 1.5600001
0.077257149 -0.089142859 1.5600001
0.080588572 -0.089542858 1.567
0.083573334 -0.089542858 1.567
0.086944766 -0.089942858 1.5740001
0.090342857 -0.090342857 1.5810001
0.093826666 -0.090800002 1.5890001
0.096853338 -0.090800002 1.5890001
0.099880002 -0.090800002 1.5890001
0.10336 -0.091200002 1.5960001
0.10686667 -0.091600001 1.603
0.11046857 -0.092057146 1.6110001
0.11403048 -0.092457145 1.618
0.11769143 -0.092914291 1.626
0.12078857 -0.092914291 1.626
0.12449525 -0.093371429 1.6340001
0.12815429 -0.093771435 1.641
0.13128 -0.093771435 1.641
0.13506095 -0.094228573 1.649
0.13820191 -0.094228573 1.649
0.14202857 -0.094685718 1.6570001
0.14588572 -0.095142864 1.6650001
0.14977334 -0.095600002 1.6730001
0.15369144 -0.096057147 1.6810001
0.15773334 -0.096571431 1.6900001
0.16095239 -0.096571431 1.6900001
0.16417143 -0.096571431 1.6900001
0.16818286 -0.097028576 1.6980001
0.17222477 -0.097485721 1.7060001
0.17640001 -0.098000005 1.715
0.18050477 -0.09845715 1.723
0.18474667 -0.098971434 1.7320001
0.18902287 -0.099485718 1.7410001
0.19333334 -0.1 1.7500001
0.19666667 -0.1 1.7500001
0.20102859 -0.10051429 1.7590001
0.20437905 -0.10051429 1.7590001
0.20772953 -0.10051429 1.7590001
0.21216001 -0.10102858 1.7680001
0.21552762 -0.10102858 1.7680001
0.22000954 -0.10154286 1.7770001
0.22452572 -0.10205714 1.7860001
0.22907619 -0.10257144 1.7950001
0.23249525 -0.10257144 1.7950001
0.23709716 -0.10308572 1.8040001
0.24186668 -0.10365715 1.8140001
0.2466743 -0.10422858 1.8240001
0.25138286 -0.10474286 1.8330001
0.25626478 -0.10531429 1.8430001
0.26118478 -0.10588572 1.853
0.26614287 -0.10645714 1.863
0.26969144 -0.10645714 1.863
0.27470669 -0.10702857 1.8730001
0.27976 -0.1076 1.8830001
0.28334668 -0.1076 1.8830001
0.28860953 -0.10822857 1.8940001
0.29376 -0.1088 1.904
0.29738668 -0.1088 1.904
0.30275241 -0.10942858 1.9150001
0.308 -0.11000001 1.9250001
0.31344762 -0.11062858 1.9360001
0.31893715 -0.11125714 1.9470001
0.32264572 -0.11125714 1.9470001
0.32819811 -0.11188572 1.9580001
0.33192763 -0.11188572 1.9580001
0.33754286 -0.11251429 1.9690001
0.3432 -0.11314286 1.9800001
0.3490743 -0.11382858 1.9920001
0.35481715 -0.11445715 2.003
0.36078095 -0.11514286 2.0150001
0.36244762 -0.11445715 2.003
0.36626288 -0.11445715 2.003
0.37229526 -0.11514286 2.0150001
0.37837335 -0.11582857 2.0270002
0.38223431 -0.11582857 2.0270002
0.38609526 -0.11582857 2.0270002
0.39226478 -0.11651429 2.039
0.39848003 -0.1172 2.0510001
0.40474096 -0.11788572 2.0630002
0.41124573 -0.11862858 2.0760002
0.41760001 -0.11931429 2.0880001
0.42157716 -0.11931429 2.0880001
0.43085334 -0.1208 2.1140001
0.43488002 -0.1208 2.1140001
0.44160572 -0.12154286 2.1270001
0.44838098 -0.12228572 2.1400001
0.45245716 -0.12228572 2.1400001
0.45653334 -0.12228572 2.1400001
0.46340764 -0.12302858 2.1530001
0.47358859 -0.12462857 2.181
0.47774288 -0.12462857 2.181
0.48476955 -0.12537143 2.194
0.48894858 -0.12537143 2.194
0.49627429 -0.12617144 2.2080002
0.50048 -0.12617144 2.2080002
0.50811428 -0.12702857 2.223
0.51557523 -0.12782858 2.237
0.51983619 -0.12782858 2.237
0.52761143 -0.12868571 2.2520001
0.53190094 -0.12868571 2.2520001
0.53952384 -0.12948573 2.266
0.54383999 -0.12948573 2.266
0.55178475 -0.13034286 2.2810001
0.56003052 -0.13125715 2.2970002
0.56809145 -0.13211429 2.312
0.57620955 -0.13297144 2.3270001
0.5846343 -0.13388573 2.3430002
0.59312004 -0.1348 2.3590002
0.59761333 -0.1348 2.3590002
0.60644573 -0.13577144 2.3760002
0.61097145 -0.13577144 2.3760002
0.6196419 -0.13668571 2.3920002
0.62419814 -0.13668571 2.3920002
0.63322288 -0.13765715 2.4090002
0.64231241 -0.13862857 2.4260001
0.64693338 -0.13862857 2.4260001
0.65155429 -0.13862857 2.4260001
0.66077334 -0.13960001 2.4430001
0.67005718 -0.14057143 2.46
0.67474288 -0.14057143 2.46
0.68440002 -0.1416 2.4780002
0.69412571 -0.14262858 2.4960001
0.70392001 -0.14365715 2.5140002
0.70870858 -0.14365715 2.5140002
0.72399813 -0.14577143 2.5510001
0.73428571 -0.14685714 2.5700002
0.73918098 -0.14685714 2.5700002
0.74957716 -0.14794286 2.5890002
0.76033717 -0.14908572 2.6090002
0.77117336 -0.15022857 2.6290002
0.77027625 -0.14908572 2.6090002
0.78118861 -0.15022857 2.6290002
0.7921772 -0.15137143 2.6490002
0.79722291 -0.15137143 2.6490002
0.80226862 -0.15137143 2.6490002
0.80731434 -0.15137143 2.6490002
-0.15666857 -0.079708576 1.4430001
-0.15392001 -0.079708576 1.4430001
-0.15117143 -0.079708576 1.4430001
-0.14842287 -0.079708576 1.4430001
-0.14506857 -0.079377145 1.437
-0.14233144 -0.079377145 1.437
-0.13959429 -0.079377145 1.437
-0.13628572 -0.07904572 1.4310001
-0.13356 -0.07904572 1.4310001
-0.13028572 -0.078714289 1.4250001
-0.12757143 -0.078714289 1.4250001
-0.12433143 -0.078382857 1.419
-0.12162858 -0.078382857 1.419
-0.11892572 -0.078382857 1.419
-0.11622286 -0.078382857 1.419
-0.11304001 -0.078051433 1.4130001
-0.11034857 -0.078051433 1.4130001
-0.10765715 -0.078051433 1.4130001
-0.10496572 -0.078051433 1.4130001
-0.10184 -0.077720001 1.4070001
-0.099160001 -0.077720001 1.4070001
-0.096480004 -0.077720001 1.4070001
-0.093800001 -0.077720001 1.4070001
-0.091120005 -0.077720001 1.4070001
-0.088125721 -0.077443816 1.4020001
-0.085455239 -0.077443816 1.4020001
-0.082784764 -0.077443816 1.4020001
-0.08011429 -0.077443816 1.4020001
-0.077443816 -0.077443816 1.4020001
-0.074453339 -0.077112384 1.396
-0.071794286 -0.077112384 1.396
-0.069135241 -0.077112384 1.396
-0.066476196 -0.077112384 1.396
-0.063817143 -0.077112384 1.396
-0.061158098 -0.077112384 1.396
-0.058247622 -0.076780953 1.3900001
-0.055840001 -0.077112384 1.396
-0.053180955 -0.077112384 1.396
-0.050521906 -0.077112384 1.396
-0.047862858 -0.077112384 1.396
-0.045398097 -0.077443816 1.4020001
-0.042727619 -0.077443816 1.4020001
-0.040057145 -0.077443816 1.4020001
-0.037520003 -0.077720001 1.4070001
-0.034988571 -0.078051433 1.4130001
-0.032297146 -0.078051433 1.4130001
-0.029480001 -0.077720001 1.4070001
-0.026800001 -0.077720001 1.4070001
-0.024222858 -0.078051433 1.4130001
-0.021531429 -0.078051433 1.4130001
-0.01884 -0.078051433 1.4130001
-0.016217144 -0.078382857 1.419
-0.013571429 -0.078714289 1.4250001
-0.010902857 -0.07904572 1.4310001
-0.0082114292 -0.079377145 1.437
-0.0054742857 -0.079377145 1.437
-0.0027485716 -0.079708576 1.4430001
0 -0.08004 1.4490001
0.0027714288 -0.080371432 1.455
0.0055657146 -0.080702864 1.4610001
0.0083485721 -0.080702864 1.4610001
0.011177143 -0.081034288 1.4670001
0.014028572 -0.081365719 1.473
0.016834287 -0.081365719 1.473
0.019733334 -0.081752382 1.48
0.022552382 -0.081752382 1.48
0.025474288 -0.082083814 1.4860001
0.028304763 -0.082083814 1.4860001
0.031407621 -0.082801908 1.4990001
0.034262858 -0.082801908 1.4990001
0.03729143 -0.083188571 1.506
0.04016 -0.083188571 1.506
0.043200001 -0.083520003 1.5120001
0.046080001 -0.083520003 1.5120001
0.04896 -0.083520003 1.5120001
0.052080002 -0.083906673 1.5190001
0.054973334 -0.083906673 1.5190001
0.058361907 -0.084624767 1.5320001
0.061560001 -0.08501143 1.539
0.064784765 -0.0853981 1.5460001
0.068036191 -0.085784763 1.5530001
0.070994288 -0.085784763 1.5530001
0.074285716 -0.086171433 1.5600001
0.077257149 -0.086171433 1.5600001
0.080588572 -0.086558096 1.567
0.083573334 -0.086558096 1.567
0.086944766 -0.086944766 1.5740001
0.090342857 -0.087331429 1.5810001
0.093826666 -0.087773338 1.5890001
0.096853338 -0.087773338 1.5890001
0.099880002 -0.087773338 1.5890001
0.10336 -0.088160001 1.5960001
0.10686667 -0.088546671 1.603
0.11094858 -0.089375243 1.618
0.11403048 -0.089375243 1.618
0.11769143 -0.089817144 1.626
0.12078857 -0.089817144 1.626
0.12449525 -0.090259053 1.6340001
0.12815429 -0.090645716 1.641
0.13128 -0.090645716 1.641
0.13506095 -0.091087624 1.649
0.13820191 -0.091087624 1.649
0.14202857 -0.091529526 1.6570001
0.14588572 -0.091971435 1.6650001
0.14977334 -0.092413336 1.6730001
0.15369144 -0.092855245 1.6810001
0.15773334 -0.093352385 1.6900001
0.16095239 -0.093352385 1.6900001
0.16417143 -0.093352385 1.6900001
0.16818286 -0.093794286 1.6980001
0.17141715 -0.093794286 1.6980001
0.17640001 -0.094733335 1.715
0.18050477 -0.095175244 1.723
0.18474667 -0.095672384 1.7320001
0.18804573 -0.095672384 1.7320001
0.19233905 -0.096169524 1.7410001
0.19666667 -0.096666671 1.7500001
0.20102859 -0.097163811 1.7590001
0.20437905 -0.097163811 1.7590001
0.20772953 -0.097163811 1.7590001
0.21216001 -0.097660959 1.7680001
0.21662477 -0.098158099 1.7770001
0.22000954 -0.098158099 1.7770001
0.22452572 -0.098655239 1.7860001
0.22792763 -0.098655239 1.7860001
0.23249525 -0.099152386 1.7950001
0.23709716 -0.099649526 1.8040001
0.24186668 -0.1002019 1.8140001
0.2466743 -0.10075429 1.8240001
0.25014859 -0.10075429 1.8240001
0.25487429 -0.10125143 1.8330001
0.25977525 -0.10180382 1.8430001
0.26614287 -0.10290857 1.863
0.26969144 -0.10290857 1.863
0.27470669 -0.10346095 1.8730001
0.2813943 -0.10462096 1.8940001
0.2850019 -0.10462096 1.8940001
0.29013336 -0.10517333 1.904
0.29376 -0.10517333 1.904
0.29910478 -0.10578096 1.9150001
0.30433336 -0.10633334 1.9250001
0.30976 -0.10694095 1.9360001
0.31344762 -0.10694095 1.9360001
0.31893715 -0.10754857 1.9470001
0.32264572 -0.10754857 1.9470001
0.32819811 -0.1081562 1.9580001
0.33379239 -0.10876381 1.9690001
0.33942857 -0.10937143 1.9800001
0.3432 -0.10937143 1.9800001
0.3490743 -0.11003429 1.9920001
0.35481715 -0.11064191 2.003
0.35863239 -0.11064191 2.003
0.36045715 -0.11003429 1.9920001
0.36626288 -0.11064191 2.003
0.37229526 -0.11130477 2.0150001
0.37837335 -0.11196762 2.0270002
0.38223431 -0.11196762 2.0270002
0.38838097 -0.11263048 2.039
0.39226478 -0.11263048 2.039
0.39848003 -0.11329333 2.0510001
0.40474096 -0.1139562 2.0630002
0.41124573 -0.11467429 2.0760002
0.41520002 -0.11467429 2.0760002
0.42157716 -0.11533715 2.0880001
0.43085334 -0.11677334 2.1140001
0.43488002 -0.11677334 2.1140001
0.44160572 -0.11749143 2.1270001
0.44838098 -0.11820953 2.1400001
0.45245716 -0.11820953 2.1400001
0.45930669 -0.11892762 2.1530001
0.46642098 -0.11970095 2.1670001
0.47358859 -0.12047429 2.181
0.48059049 -0.12119239 2.194
0.48476955 -0.12119239 2.194
0.48894858 -0.12119239 2.194
0.49627429 -0.12196572 2.2080002
0.50048 -0.12196572 2.2080002
0.50811428 -0.12279429 2.223
0.51234859 -0.12279429 2.223
0.51983619 -0.12356763 2.237
0.52409714 -0.12356763 2.237
0.53190094 -0.1243962 2.2520001
0.53952384 -0.12516953 2.266
0.54383999 -0.12516953 2.266
0.55178475 -0.12599809 2.2810001
0.56003052 -0.12688191 2.2970002
0.56809145 -0.12771048 2.312
0.57620955 -0.12853906 2.3270001
0.5846343 -0.12942286 2.3430002
0.59312004 -0.13030668 2.3590002
0.59761333 -0.13030668 2.3590002
0.60644573 -0.13124572 2.3760002
0.61097145 -0.13124572 2.3760002
0.6196419 -0.13212954 2.3920002
0.62419814 -0.13212954 2.3920002
0.63322288 -0.13306858 2.4090002
0.64231241 -0.13400762 2.4260001
0.64693338 -0.13400762 2.4260001
0.65155429 -0.13400762 2.4260001
0.66077334 -0.13494667 2.4430001
0.67005718 -0.13588572 2.46
0.67474288 -0.13588572 2.46
0.68440002 -0.13688001 2.4780002
0.69412571 -0.13787429 2.4960001
0.70392001 -0.13886857 2.5140002
0.70870858 -0.13886857 2.5140002
0.72399813 -0.14091238 2.5510001
0.72885716 -0.14091238 2.5510001
0.73918098 -0.14196192 2.5700002
0.74957716 -0.14301144 2.5890002
0.76033717 -0.14411619 2.6090002
0.76530671 -0.14411619 2.6090002
0.77027625 -0.14411619 2.6090002
0.78118861 -0.14522097 2.6290002
0.7921772 -0.14632572 2.6490002
0.79722291 -0.14632572 2.6490002
0.80226862 -0.14632572 2.6490002
0.80731434 -0.14632572 2.6490002
-0.16008 -0.07728 1.4490001
-0.15666857 -0.076960005 1.4430001
-0.15392001 -0.076960005 1.4430001
-0.15117143 -0.076960005 1.4430001
-0.14842287 -0.076960005 1.4430001
-0.14506857 -0.076640002 1.437
-0.14233144 -0.076640002 1.437
-0.13959429 -0.076640002 1.437
-0.13628572 -0.07632 1.4310001
-0.13356 -0.07632 1.4310001
-0.13028572 -0.076000005 1.4250001
-0.12757143 -0.076000005 1.4250001
-0.12433143 -0.075680003 1.419
-0.12162858 -0.075680003 1.419
-0.11892572 -0.075680003 1.419
-0.11622286 -0.075680003 1.419
-0.11304001 -0.07536 1.4130001
-0.11034857 -0.07536 1.4130001
-0.10765715 -0.07536 1.4130001
-0.10496572 -0.07536 1.4130001
-0.10184 -0.075040005 1.4070001
-0.099160001 -0.075040005 1.4070001
-0.096137144 -0.074773334 1.4020001
-0.093466669 -0.074773334 1.4020001
-0.091120005 -0.075040005 1.4070001
-0.088125721 -0.074773334 1.4020001
-0.085089527 -0.074453339 1.396
-0.082430482 -0.074453339 1.396
-0.08011429 -0.074773334 1.4020001
-0.077443816 -0.074773334 1.4020001
-0.074453339 -0.074453339 1.396
-0.071794286 -0.074453339 1.396
-0.069135241 -0.074453339 1.396
-0.066476196 -0.074453339 1.396
-0.063817143 -0.074453339 1.396
-0.061158098 -0.074453339 1.396
-0.058247622 -0.074133337 1.3900001
-0.055600002 -0.074133337 1.3900001
-0.052952383 -0.074133337 1.3900001
-0.050521906 -0.074453339 1.396
-0.047862858 -0.074453339 1.396
-0.045203812 -0.074453339 1.396
-0.042544764 -0.074453339 1.396
-0.040057145 -0.074773334 1.4020001
-0.037520003 -0.075040005 1.4070001
-0.034988571 -0.07536 1.4130001
-0.032297146 -0.07536 1.4130001
-0.029480001 -0.075040005 1.4070001
-0.026800001 -0.075040005 1.4070001
-0.024222858 -0.07536 1.4130001
-0.021531429 -0.07536 1.4130001
-0.018920001 -0.075680003 1.419
-0.016285716 -0.076000005 1.4250001
-0.013571429 -0.076000005 1.4250001
-0.010902857 -0.07632 1.4310001
-0.0082114292 -0.076640002 1.437
-0.0054742857 -0.076640002 1.437
-0.0027485716 -0.076960005 1.4430001
0 -0.07728 1.4490001
0.0027714288 -0.077600002 1.455
0.0055657146 -0.077920005 1.4610001
0.0083485721 -0.077920005 1.4610001
0.011177143 -0.07824 1.4670001
0.014028572 -0.078560002 1.473
0.016834287 -0.078560002 1.473
0.019640001 -0.078560002 1.473
0.022552382 -0.078933336 1.48
0.025474288 -0.079253338 1.4860001
0.028304763 -0.079253338 1.4860001
0.031260952 -0.079573333 1.4920001
0.034262858 -0.079946667 1.4990001
0.03729143 -0.080320001 1.506
0.04016 -0.080320001 1.506
0.043200001 -0.080640003 1.5120001
0.046080001 -0.080640003 1.5120001
0.04896 -0.080640003 1.5120001
0.052080002 -0.081013337 1.5190001
0.054973334 -0.081013337 1.5190001
0.058095239 -0.081333339 1.5250001
0.061560001 -0.082080007 1.539
0.064784765 -0.082453333 1.5460001
0.067729525 -0.082453333 1.5460001
0.070994288 -0.082826667 1.5530001
0.074285716 -0.0832 1.5600001
0.077257149 -0.0832 1.5600001
0.080588572 -0.083573334 1.567
0.083573334 -0.083573334 1.567
0.086944766 -0.083946668 1.5740001
0.090342857 -0.084320001 1.5810001
0.093826666 -0.084746666 1.5890001
0.096853338 -0.084746666 1.5890001
0.099880002 -0.084746666 1.5890001
0.10336 -0.08512 1.5960001
0.10686667 -0.085493334 1.603
0.11046857 -0.085920006 1.6110001
0.11403048 -0.08629334 1.618
0.11769143 -0.086720005 1.626
0.12078857 -0.086720005 1.626
0.12449525 -0.08714667 1.6340001
0.12815429 -0.087520003 1.641
0.13128 -0.087520003 1.641
0.13506095 -0.087946668 1.649
0.13820191 -0.087946668 1.649
0.14202857 -0.088373333 1.6570001
0.14588572 -0.088800006 1.6650001
0.14977334 -0.089226671 1.6730001
0.15369144 -0.089653336 1.6810001
0.15773334 -0.090133339 1.6900001
0.16095239 -0.090133339 1.6900001
0.16417143 -0.090133339 1.6900001
0.16818286 -0.090560004 1.6980001
0.17222477 -0.090986669 1.7060001
0.17640001 -0.091466673 1.715
0.18050477 -0.091893338 1.723
0.18474667 -0.092373334 1.7320001
0.18902287 -0.092853338 1.7410001
0.19233905 -0.092853338 1.7410001
0.19666667 -0.093333334 1.7500001
0.2 -0.093333334 1.7500001
0.20437905 -0.093813337 1.7590001
0.20772953 -0.093813337 1.7590001
0.21216001 -0.094293334 1.7680001
0.21662477 -0.094773337 1.7770001
0.22112381 -0.095253333 1.7860001
0.22452572 -0.095253333 1.7860001
0.22907619 -0.095733337 1.7950001
0.23366097 -0.096213333 1.8040001
0.23709716 -0.096213333 1.8040001
0.24186668 -0.096746668 1.8140001
0.2466743 -0.097280003 1.8240001
0.25014859 -0.097280003 1.8240001
0.25626478 -0.098293334 1.8430001
0.26118478 -0.098826669 1.853
0.26614287 -0.099360004 1.863
0.26969144 -0.099360004 1.863
0.27470669 -0.099893339 1.8730001
0.27976 -0.10042667 1.8830001
0.2850019 -0.10101334 1.8940001
0.29013336 -0.10154667 1.904
0.29376 -0.10154667 1.904
0.29910478 -0.10213333 1.9150001
0.30433336 -0.10266667 1.9250001
0.308 -0.10266667 1.9250001
0.31344762 -0.10325333 1.9360001
0.31893715 -0.10384 1.9470001
0.32446858 -0.10442667 1.9580001
0.32819811 -0.10442667 1.9580001
0.33379239 -0.10501334 1.9690001
0.33942857 -0.10560001 1.9800001
0.3432 -0.10560001 1.9800001
0.3490743 -0.10624 1.9920001
0.35481715 -0.10682667 2.003
0.35863239 -0.10682667 2.003
0.36244762 -0.10682667 2.003
0.36626288 -0.10682667 2.003
0.37229526 -0.10746667 2.0150001
0.37837335 -0.10810667 2.0270002
0.38223431 -0.10810667 2.0270002
0.38838097 -0.10874667 2.039
0.39226478 -0.10874667 2.039
0.39848003 -0.10938667 2.0510001
0.40474096 -0.11002667 2.0630002
0.41124573 -0.11072 2.0760002
0.41520002 -0.11072 2.0760002
0.42157716 -0.11136001 2.0880001
0.42820382 -0.11205333 2.1010001
0.43488002 -0.11274667 2.1140001
0.44160572 -0.11344001 2.1270001
0.44838098 -0.11413334 2.1400001
0.45245716 -0.11413334 2.1400001
0.45930669 -0.11482667 2.1530001
0.46642098 -0.11557334 2.1670001
0.47358859 -0.11632001 2.181
0.47774288 -0.11632001 2.181
0.48476955 -0.11701334 2.194
0.48894858 -0.11701334 2.194
0.49627429 -0.11776 2.2080002
0.50048 -0.11776 2.2080002
0.50468576 -0.11776 2.2080002
0.51234859 -0.11856 2.223
0.51983619 -0.11930667 2.237
0.52409714 -0.11930667 2.237
0.53190094 -0.12010667 2.2520001
0.53619051 -0.12010667 2.2520001
0.54383999 -0.12085333 2.266
0.55178475 -0.12165334 2.2810001
0.56003052 -0.12250667 2.2970002
0.56809145 -0.12330667 2.312
0.57620955 -0.12410667 2.3270001
0.5846343 -0.12496001 2.3430002
0.59312004 -0.12581334 2.3590002
0.59761333 -0.12581334 2.3590002
0.60644573 -0.12672001 2.3760002
0.61097145 -0.12672001 2.3760002
0.6196419 -0.12757334 2.3920002
0.62419814 -0.12757334 2.3920002
0.63322288 -0.12848 2.4090002
0.64231241 -0.12938668 2.4260001
0.64693338 -0.12938668 2.4260001
0.65155429 -0.12938668 2.4260001
0.66077334 -0.13029334 2.4430001
0.67005718 -0.1312 2.46
0.67968005 -0.13216001 2.4780002
0.68440002 -0.13216001 2.4780002
0.69412571 -0.13312 2.4960001
0.69888002 -0.13312 2.4960001
0.70870858 -0.13408001 2.5140002
0.71860576 -0.13504 2.5320001
0.72885716 -0.13605334 2.5510001
0.73918098 -0.13706668 2.5700002
0.74957716 -0.13808 2.5890002
0.76033717 -0.13914667 2.6090002
0.77117336 -0.14021334 2.6290002
0.77618098 -0.14021334 2.6290002
0.78118861 -0.14021334 2.6290002
0.7921772 -0.14128001 2.6490002
0.79722291 -0.14128001 2.6490002
0.80226862 -0.14128001 2.6490002
-0.16008 -0.074519999 1.4490001
-0.15666857 -0.074211434 1.4430001
-0.15392001 -0.074211434 1.4430001
-0.15117143 -0.074211434 1.4430001
-0.14842287 -0.074211434 1.4430001
-0.14506857 -0.07390286 1.437
-0.14233144 -0.07390286 1.437
-0.13901143 -0.073594287 1.4310001
-0.13628572 -0.073594287 1.4310001
-0.133 -0.073285714 1.4250001
-0.13028572 -0.073285714 1.4250001
-0.12757143 -0.073285714 1.4250001
-0.12433143 -0.072977148 1.419
-0.12162858 -0.072977148 1.419
-0.11892572 -0.072977148 1.419
-0.11622286 -0.072977148 1.419
-0.11304001 -0.072668575 1.4130001
-0.11034857 -0.072668575 1.4130001
-0.10765715 -0.072668575 1.4130001
-0.10496572 -0.072668575 1.4130001
-0.10184 -0.072360002 1.4070001
-0.099160001 -0.072360002 1.4070001
-0.096480004 -0.072360002 1.4070001
-0.093800001 -0.072360002 1.4070001
-0.091120005 -0.072360002 1.4070001
-0.088125721 -0.07210286 1.4020001
-0.085455239 -0.07210286 1.4020001
-0.082430482 -0.071794286 1.396
-0.079771429 -0.071794286 1.396
-0.077112384 -0.071794286 1.396
-0.074453339 -0.071794286 1.396
-0.071794286 -0.071794286 1.396
-0.069135241 -0.071794286 1.396
-0.066476196 -0.071794286 1.396
-0.063817143 -0.071794286 1.396
-0.061158098 -0.071794286 1.396
-0.058247622 -0.071485721 1.3900001
-0.055840001 -0.071794286 1.396
-0.052952383 -0.071485721 1.3900001
-0.050521906 -0.071794286 1.396
-0.047862858 -0.071794286 1.396
-0.045203812 -0.071794286 1.396
-0.042544764 -0.071794286 1.396
-0.040057145 -0.07210286 1.4020001
-0.037520003 -0.072360002 1.4070001
-0.034840003 -0.072360002 1.4070001
-0.032160003 -0.072360002 1.4070001
-0.029480001 -0.072360002 1.4070001
-0.026800001 -0.072360002 1.4070001
-0.024222858 -0.072668575 1.4130001
-0.021531429 -0.072668575 1.4130001
-0.018920001 -0.072977148 1.419
-0.016285716 -0.073285714 1.4250001
-0.013628572 -0.073594287 1.4310001
-0.010902857 -0.073594287 1.4310001
-0.0082114292 -0.07390286 1.437
-0.0054742857 -0.07390286 1.437
-0.0027485716 -0.074211434 1.4430001
0 -0.074211434 1.4430001
0.0027714288 -0.074828573 1.455
0.0055657146 -0.075137146 1.4610001
0.0083485721 -0.075137146 1.4610001
0.011177143 -0.075445719 1.4670001
0.013971429 -0.075445719 1.4670001
0.016834287 -0.075754285 1.473
0.019640001 -0.075754285 1.473
0.022552382 -0.076114289 1.48
0.025371429 -0.076114289 1.48
0.028304763 -0.076422863 1.4860001
0.031260952 -0.076731429 1.4920001
0.034262858 -0.077091433 1.4990001
0.037118096 -0.077091433 1.4990001
0.04016 -0.07745143 1.506
0.043028574 -0.07745143 1.506
0.046080001 -0.077760004 1.5120001
0.04896 -0.077760004 1.5120001
0.052080002 -0.078120001 1.5190001
0.054973334 -0.078120001 1.5190001
0.058095239 -0.078428574 1.5250001
0.061560001 -0.079148576 1.539
0.064784765 -0.079508573 1.5460001
0.067729525 -0.079508573 1.5460001
0.070994288 -0.079868577 1.5530001
0.073952384 -0.079868577 1.5530001
0.077257149 -0.080228575 1.5600001
0.080588572 -0.080588572 1.567
0.083573334 -0.080588572 1.567
0.086944766 -0.080948576 1.5740001
0.090342857 -0.081308573 1.5810001
0.093826666 -0.081720002 1.5890001
0.096853338 -0.081720002 1.5890001
0.099880002 -0.081720002 1.5890001
0.10336 -0.082080007 1.5960001
0.10686667 -0.082440004 1.603
0.11046857 -0.082851432 1.6110001
0.11403048 -0.083211429 1.618
0.11769143 -0.083622858 1.626
0.12078857 -0.083622858 1.626
0.12449525 -0.084034286 1.6340001
0.12815429 -0.084394291 1.641
0.13128 -0.084394291 1.641
0.13506095 -0.08480572 1.649
0.13820191 -0.08480572 1.649
0.14271429 -0.085628577 1.6650001
0.14658667 -0.086040005 1.6730001
0.14977334 -0.086040005 1.6730001
0.15369144 -0.086451434 1.6810001
0.15689334 -0.086451434 1.6810001
0.16095239 -0.086914286 1.6900001
0.16417143 -0.086914286 1.6900001
0.16739048 -0.086914286 1.6900001
0.17222477 -0.087737143 1.7060001
0.17640001 -0.088200003 1.715
0.18050477 -0.088611431 1.723
0.18378668 -0.088611431 1.723
0.18804573 -0.089074291 1.7320001
0.19233905 -0.089537144 1.7410001
0.19666667 -0.090000004 1.7500001
0.2 -0.090000004 1.7500001
0.20437905 -0.090462863 1.7590001
0.20772953 -0.090462863 1.7590001
0.21216001 -0.090925716 1.7680001
0.21662477 -0.091388576 1.7770001
0.22112381 -0.091851436 1.7860001
0.22452572 -0.091851436 1.7860001
0.22907619 -0.092314288 1.7950001
0.23366097 -0.092777148 1.8040001
0.23841144 -0.093291432 1.8140001
0.24186668 -0.093291432 1.8140001
0.2466743 -0.093805715 1.8240001
0.25014859 -0.093805715 1.8240001
0.25626478 -0.094782859 1.8430001
0.26118478 -0.095297143 1.853
0.26614287 -0.095811434 1.863
0.26969144 -0.095811434 1.863
0.27470669 -0.096325718 1.8730001
0.27976 -0.096840002 1.8830001
0.2850019 -0.097405717 1.8940001
0.29013336 -0.097920001 1.904
0.29376 -0.097920001 1.904
0.29910478 -0.098485716 1.9150001
0.30433336 -0.099000007 1.9250001
0.30976 -0.099565715 1.9360001
0.31344762 -0.099565715 1.9360001
0.31893715 -0.10013143 1.9470001
0.32446858 -0.10069714 1.9580001
0.32819811 -0.10069714 1.9580001
0.33379239 -0.10126286 1.9690001
0.33942857 -0.10182858 1.9800001
0.34528002 -0.10244572 1.9920001
0.3490743 -0.10244572 1.9920001
0.35481715 -0.10301143 2.003
0.35863239 -0.10301143 2.003
0.36045715 -0.10244572 1.9920001
0.36626288 -0.10301143 2.003
0.37229526 -0.10362858 2.0150001
0.37837335 -0.10424571 2.0270002
0.38223431 -0.10424571 2.0270002
0.38838097 -0.10486286 2.039
0.39226478 -0.10486286 2.039
0.39848003 -0.10548 2.0510001
0.40474096 -0.10609715 2.0630002
0.41124573 -0.10676572 2.0760002
0.41520002 -0.10676572 2.0760002
0.42157716 -0.10738286 2.0880001
0.42820382 -0.10805143 2.1010001
0.43488002 -0.10872 2.1140001
0.44160572 -0.10938857 2.1270001
0.44838098 -0.11005715 2.1400001
0.45245716 -0.11005715 2.1400001
0.45930669 -0.11072572 2.1530001
0.46642098 -0.11144572 2.1670001
0.47358859 -0.11216572 2.181
0.47774288 -0.11216572 2.181
0.48476955 -0.11283429 2.194
0.48894858 -0.11283429 2.194
0.49627429 -0.11355429 2.2080002
0.50048 -0.11355429 2.2080002
0.50811428 -0.11432572 2.223
0.51557523 -0.11504572 2.237
0.51983619 -0.11504572 2.237
0.52761143 -0.11581714 2.2520001
0.53190094 -0.11581714 2.2520001
0.53952384 -0.11653715 2.266
0.54383999 -0.11653715 2.266
0.55178475 -0.11730858 2.2810001
0.56003052 -0.11813144 2.2970002
0.56809145 -0.11890286 2.312
0.57620955 -0.11967429 2.3270001
0.5846343 -0.12049714 2.3430002
0.59312004 -0.12132 2.3590002
0.59761333 -0.12132 2.3590002
0.60644573 -0.12219429 2.3760002
0.61097145 -0.12219429 2.3760002
0.61549717 -0.12219429 2.3760002
0.62419814 -0.12301715 2.3920002
0.63322288 -0.12389144 2.4090002
0.64231241 -0.12476572 2.4260001
0.64693338 -0.12476572 2.4260001
0.65612 -0.12564 2.4430001
0.66077334 -0.12564 2.4430001
0.67005718 -0.12651429 2.46
0.67968005 -0.12744001 2.4780002
0.68440002 -0.12744001 2.4780002
0.69412571 -0.12836573 2.4960001
0.70392001 -0.12929143 2.5140002
0.70870858 -0.12929143 2.5140002
0.71860576 -0.13021715 2.5320001
0.72342861 -0.13021715 2.5320001
0.73918098 -0.13217144 2.5700002
0.74407619 -0.13217144 2.5700002
0.76033717 -0.13417715 2.6090002
0.76530671 -0.13417715 2.6090002
0.77027625 -0.13417715 2.6090002
0.77524573 -0.13417715 2.6090002
0.7921772 -0.13623428 2.6490002
0.79120386 -0.13520572 2.6290002
0.79621148 -0.13520572 2.6290002
-0.16486286 -0.072651431 1.4670001
-0.16008 -0.071760006 1.4490001
-0.15732001 -0.071760006 1.4490001
-0.15392001 -0.071462862 1.4430001
-0.15117143 -0.071462862 1.4430001
-0.14780572 -0.071165718 1.437
-0.14506857 -0.071165718 1.437
-0.14233144 -0.071165718 1.437
-0.13901143 -0.070868574 1.4310001
-0.13628572 -0.070868574 1.4310001
-0.133 -0.07057143 1.4250001
-0.13028572 -0.07057143 1.4250001
-0.12757143 -0.07057143 1.4250001
-0.12433143 -0.070274286 1.419
-0.12162858 -0.070274286 1.419
-0.11892572 -0.070274286 1.419
-0.11622286 -0.070274286 1.419
-0.11304001 -0.069977142 1.4130001
-0.11034857 -0.069977142 1.4130001
-0.10765715 -0.069977142 1.4130001
-0.10496572 -0.069977142 1.4130001
-0.10227429 -0.069977142 1.4130001
-0.099160001 -0.069680005 1.4070001
-0.096480004 -0.069680005 1.4070001
-0.093800001 -0.069680005 1.4070001
-0.091120005 -0.069680005 1.4070001
-0.088440001 -0.069680005 1.4070001
-0.085455239 -0.069432385 1.4020001
-0.082430482 -0.069135241 1.396
-0.079771429 -0.069135241 1.396
-0.077112384 -0.069135241 1.396
-0.074453339 -0.069135241 1.396
-0.071794286 -0.069135241 1.396
-0.069135241 -0.069135241 1.396
-0.066476196 -0.069135241 1.396
-0.063817143 -0.069135241 1.396
-0.061158098 -0.069135241 1.396
-0.058247622 -0.068838097 1.3900001
-0.055600002 -0.068838097 1.3900001
-0.052952383 -0.068838097 1.3900001
-0.050521906 -0.069135241 1.396
-0.047862858 -0.069135241 1.396
-0.045203812 -0.069135241 1.396
-0.042544764 -0.069135241 1.396
-0.040057145 -0.069432385 1.4020001
-0.037386667 -0.069432385 1.4020001
-0.034840003 -0.069680005 1.4070001
-0.032160003 -0.069680005 1.4070001
-0.029480001 -0.069680005 1.4070001
-0.026800001 -0.069680005 1.4070001
-0.024222858 -0.069977142 1.4130001
-0.021531429 -0.069977142 1.4130001
-0.019000001 -0.07057143 1.4250001
-0.016285716 -0.07057143 1.4250001
-0.013628572 -0.070868574 1.4310001
-0.010902857 -0.070868574 1.4310001
-0.0082114292 -0.071165718 1.437
-0.0054742857 -0.071165718 1.437
-0.0027371428 -0.071165718 1.437
0 -0.071462862 1.4430001
0.0027714288 -0.072057143 1.455
0.0055657146 -0.072354287 1.4610001
0.0083485721 -0.072354287 1.4610001
0.011177143 -0.072651431 1.4670001
0.013971429 -0.072651431 1.4670001
0.016834287 -0.072948575 1.473
0.019733334 -0.073295243 1.48
0.022552382 -0.073295243 1.48
0.025371429 -0.073295243 1.48
0.028304763 -0.073592387 1.4860001
0.031135239 -0.073592387 1.4860001
0.034102857 -0.073889524 1.4920001
0.037118096 -0.074236192 1.4990001
0.04016 -0.07458286 1.506
0.043028574 -0.07458286 1.506
0.046080001 -0.074880004 1.5120001
0.04896 -0.074880004 1.5120001
0.052080002 -0.075226672 1.5190001
0.054973334 -0.075226672 1.5190001
0.058095239 -0.075523809 1.5250001
0.061280001 -0.075870477 1.5320001
0.064491428 -0.076217145 1.539
0.067729525 -0.076563813 1.5460001
0.070994288 -0.076910481 1.5530001
0.073952384 -0.076910481 1.5530001
0.077257149 -0.077257149 1.5600001
0.080588572 -0.07760381 1.567
0.083573334 -0.07760381 1.567
0.086944766 -0.077950478 1.5740001
0.090342857 -0.078297146 1.5810001
0.093354292 -0.078297146 1.5810001
0.09636572 -0.078297146 1.5810001
0.099880002 -0.078693338 1.5890001
0.10336 -0.079040006 1.5960001
0.10686667 -0.079386666 1.603
0.11046857 -0.079782858 1.6110001
0.11403048 -0.080129527 1.618
0.11711238 -0.080129527 1.618
0.12078857 -0.080525719 1.626
0.12388572 -0.080525719 1.626
0.12815429 -0.081268571 1.641
0.13192001 -0.081664763 1.649
0.13506095 -0.081664763 1.649
0.13887239 -0.082060955 1.6570001
0.14271429 -0.082457148 1.6650001
0.14658667 -0.08285334 1.6730001
0.15048952 -0.083249524 1.6810001
0.15369144 -0.083249524 1.6810001
0.15773334 -0.08369524 1.6900001
0.16095239 -0.08369524 1.6900001
0.16417143 -0.08369524 1.6900001
0.16818286 -0.084091432 1.6980001
0.17222477 -0.084487624 1.7060001
0.17640001 -0.084933333 1.715
0.18050477 -0.085329525 1.723
0.18378668 -0.085329525 1.723
0.18804573 -0.085775241 1.7320001
0.19233905 -0.086220957 1.7410001
0.19666667 -0.086666673 1.7500001
0.2 -0.086666673 1.7500001
0.20437905 -0.087112382 1.7590001
0.20772953 -0.087112382 1.7590001
0.21216001 -0.087558098 1.7680001
0.21662477 -0.088003814 1.7770001
0.22112381 -0.08844953 1.7860001
0.22452572 -0.08844953 1.7860001
0.22907619 -0.088895239 1.7950001
0.23366097 -0.089340955 1.8040001
0.23841144 -0.089836195 1.8140001
0.24186668 -0.089836195 1.8140001
0.2466743 -0.090331435 1.8240001
0.25138286 -0.090777144 1.8330001
0.25626478 -0.091272384 1.8430001
0.26118478 -0.091767624 1.853
0.26614287 -0.092262864 1.863
0.26969144 -0.092262864 1.863
0.27470669 -0.092758097 1.8730001
0.27976 -0.093253337 1.8830001
0.2850019 -0.093798101 1.8940001
0.29013336 -0.094293334 1.904
0.29376 -0.094293334 1.904
0.29910478 -0.094838098 1.9150001
0.30433336 -0.095333338 1.9250001
0.308 -0.095333338 1.9250001
0.31344762 -0.095878102 1.9360001
0.31893715 -0.096422859 1.9470001
0.32446858 -0.096967623 1.9580001
0.32819811 -0.096967623 1.9580001
0.33379239 -0.097512387 1.9690001
0.33942857 -0.098057143 1.9800001
0.34528002 -0.098651432 1.9920001
0.3490743 -0.098651432 1.9920001
0.35481715 -0.099196196 2.003
0.35863239 -0.099196196 2.003
0.36244762 -0.099196196 2.003
0.36626288 -0.099196196 2.003
0.37229526 -0.099790476 2.0150001
0.37837335 -0.10038476 2.0270002
0.38449717 -0.10097905 2.039
0.38838097 -0.10097905 2.039
0.39457336 -0.10157334 2.0510001
0.40081143 -0.10216762 2.0630002
0.40474096 -0.10216762 2.0630002
0.41124573 -0.10281143 2.0760002
0.41520002 -0.10281143 2.0760002
0.42157716 -0.10340572 2.0880001
0.42820382 -0.10404953 2.1010001
0.43488002 -0.10469334 2.1140001
0.44160572 -0.10533715 2.1270001
0.44838098 -0.10598096 2.1400001
0.45245716 -0.10598096 2.1400001
0.45930669 -0.10662477 2.1530001
0.46642098 -0.1073181 2.1670001
0.47358859 -0.10801143 2.181
0.48059049 -0.10865524 2.194
0.48476955 -0.10865524 2.194
0.48894858 -0.10865524 2.194
0.49627429 -0.10934857 2.2080002
0.50048 -0.10934857 2.2080002
0.50811428 -0.11009143 2.223
0.51557523 -0.11078477 2.237
0.52332193 -0.11152762 2.2520001
0.52761143 -0.11152762 2.2520001
0.53190094 -0.11152762 2.2520001
0.53952384 -0.11222096 2.266
0.54383999 -0.11222096 2.266
0.55565524 -0.11375619 2.2970002
0.56003052 -0.11375619 2.2970002
0.56809145 -0.11449905 2.312
0.57620955 -0.11524191 2.3270001
0.5846343 -0.11603429 2.3430002
0.59312004 -0.11682667 2.3590002
0.59761333 -0.11682667 2.3590002
0.60644573 -0.11766858 2.3760002
0.61097145 -0.11766858 2.3760002
0.61549717 -0.11766858 2.3760002
0.62419814 -0.11846095 2.3920002
0.63322288 -0.11930286 2.4090002
0.64231241 -0.12014477 2.4260001
0.64693338 -0.12014477 2.4260001
0.65612 -0.12098667 2.4430001
0.66077334 -0.12098667 2.4430001
0.67005718 -0.12182858 2.46
0.67474288 -0.12182858 2.46
0.68440002 -0.12272 2.4780002
0.69412571 -0.12361144 2.4960001
0.69888002 -0.12361144 2.4960001
0.70870858 -0.12450286 2.5140002
0.71860576 -0.12539428 2.5320001
0.72885716 -0.12633525 2.5510001
0.73918098 -0.1272762 2.5700002
0.74407619 -0.1272762 2.5700002
0.75450861 -0.12821715 2.5890002
0.76530671 -0.12920763 2.6090002
0.77027625 -0.12920763 2.6090002
0.78118861 -0.13019811 2.6290002
0.7921772 -0.13118857 2.6490002
0.79120386 -0.13019811 2.6290002
0.79621148 -0.13019811 2.6290002
-0.16765715 -0.069857143 1.4670001
-0.16418858 -0.069571428 1.4610001
-0.16140573 -0.069571428 1.4610001
-0.15732001 -0.069000006 1.4490001
-0.15456 -0.069000006 1.4490001
-0.15117143 -0.068714291 1.4430001
-0.14842287 -0.068714291 1.4430001
-0.14506857 -0.068428576 1.437
-0.14233144 -0.068428576 1.437
-0.13901143 -0.068142861 1.4310001
-0.13628572 -0.068142861 1.4310001
-0.133 -0.067857146 1.4250001
-0.13028572 -0.067857146 1.4250001
-0.12757143 -0.067857146 1.4250001
-0.12433143 -0.067571431 1.419
-0.12162858 -0.067571431 1.419
-0.11892572 -0.067571431 1.419
-0.11622286 -0.067571431 1.419
-0.11304001 -0.067285717 1.4130001
-0.11034857 -0.067285717 1.4130001
-0.10765715 -0.067285717 1.4130001
-0.10496572 -0.067285717 1.4130001
-0.10227429 -0.067285717 1.4130001
-0.099160001 -0.067000002 1.4070001
-0.096480004 -0.067000002 1.4070001
-0.093466669 -0.066761911 1.4020001
-0.091120005 -0.067000002 1.4070001
-0.088440001 -0.067000002 1.4070001
-0.085455239 -0.066761911 1.4020001
-0.082784764 -0.066761911 1.4020001
-0.08011429 -0.066761911 1.4020001
-0.077112384 -0.066476196 1.396
-0.074453339 -0.066476196 1.396
-0.071794286 -0.066476196 1.396
-0.069135241 -0.066476196 1.396
-0.066476196 -0.066476196 1.396
-0.063817143 -0.066476196 1.396
-0.060895242 -0.066190481 1.3900001
-0.058247622 -0.066190481 1.3900001
-0.055600002 -0.066190481 1.3900001
-0.052952383 -0.066190481 1.3900001
-0.050304763 -0.066190481 1.3900001
-0.047862858 -0.066476196 1.396
-0.045203812 -0.066476196 1.396
-0.042544764 -0.066476196 1.396
-0.040057145 -0.066761911 1.4020001
-0.037386667 -0.066761911 1.4020001
-0.034840003 -0.067000002 1.4070001
-0.032160003 -0.067000002 1.4070001
-0.029480001 -0.067000002 1.4070001
-0.026914287 -0.067285717 1.4130001
-0.024222858 -0.067285717 1.4130001
-0.021622857 -0.067571431 1.419
-0.019000001 -0.067857146 1.4250001
-0.016285716 -0.067857146 1.4250001
-0.013628572 -0.068142861 1.4310001
-0.010902857 -0.068142861 1.4310001
-0.0082114292 -0.068428576 1.437
-0.0054742857 -0.068428576 1.437
-0.0027371428 -0.068428576 1.437
0 -0.068714291 1.4430001
0.0027714288 -0.069285713 1.455
0.0055657146 -0.069571428 1.4610001
0.0083485721 -0.069571428 1.4610001
0.011177143 -0.069857143 1.4670001
0.014028572 -0.070142858 1.473
0.016834287 -0.070142858 1.473
0.019733334 -0.070476197 1.48
0.022552382 -0.070476197 1.48
0.025371429 -0.070476197 1.48
0.028304763 -0.070761904 1.4860001
0.031135239 -0.070761904 1.4860001
0.034102857 -0.071047619 1.4920001
0.037118096 -0.071380958 1.4990001
0.04016 -0.071714289 1.506
0.043028574 -0.071714289 1.506
0.046080001 -0.072000004 1.5120001
0.04896 -0.072000004 1.5120001
0.052080002 -0.072333336 1.5190001
0.054973334 -0.072333336 1.5190001
