# .PCD v0.7 - Point Cloud Data file format
VERSION 0.7
FIELDS x y z
SIZE 4 4 4
TYPE F F F
COUNT 1 1 1
WIDTH 1530
HEIGHT 1
VIEWPOINT 0 0 0 1 0 0 0
POINTS 1530
DATA ascii
0.60000002 0.26666668 1.7500001
0.60023052 0.26529524 1.7410001
0.60354668 0.26529524 1.7410001
0.6068629 0.26529524 1.7410001
0.61017907 0.26529524 1.7410001
0.61349529 0.26529524 1.7410001
0.61681145 0.26529524 1.7410001
0.62012762 0.26529524 1.7410001
0.62344384 0.26529524 1.7410001
0.62676001 0.26529524 1.7410001
0.63007623 0.26529524 1.7410001
0.63339239 0.26529524 1.7410001
0.63670862 0.26529524 1.7410001
0.63671619 0.26392382 1.7320001
0.64001524 0.26392382 1.7320001
0.63997144 0.26255238 1.723
0.64325339 0.26255238 1.723
0.64653528 0.26255238 1.723
0.64981717 0.26255238 1.723
0.65309906 0.26255238 1.723
0.65333337 0.26133335 1.715
0.6566 0.26133335 1.715
0.65986669 0.26133335 1.715
0.66313338 0.26133335 1.715
0.66950858 0.26255238 1.723
0.67279053 0.26255238 1.723
0.67293334 0.26133335 1.715
0.67620003 0.26133335 1.715
0.67946666 0.26133335 1.715
0.68273336 0.26133335 1.715
0.68600005 0.26133335 1.715
0.68926668 0.26133335 1.715
0.69253337 0.26133335 1.715
0.69580001 0.26133335 1.715
0.6990667 0.26133335 1.715
0.70233333 0.26133335 1.715
0.70560002 0.26133335 1.715
0.71217334 0.26255238 1.723
0.71545529 0.26255238 1.723
0.71873719 0.26255238 1.723
0.71866667 0.26133335 1.715
0.72193336 0.26133335 1.715
0.7252 0.26133335 1.715
0.72846669 0.26133335 1.715
0.73173338 0.26133335 1.715
0.73500001 0.26133335 1.715
0.7343924 0.2599619 1.7060001
0.73764193 0.2599619 1.7060001
0.74089146 0.2599619 1.7060001
0.74414098 0.2599619 1.7060001
0.74739051 0.2599619 1.7060001
0.75064003 0.2599619 1.7060001
0.75388956 0.2599619 1.7060001
0.75713909 0.2599619 1.7060001
0.76038861 0.2599619 1.7060001
0.76363814 0.2599619 1.7060001
0.76688766 0.2599619 1.7060001
0.77013719 0.2599619 1.7060001
0.77338672 0.2599619 1.7060001
0.77663624 0.2599619 1.7060001
0.77988577 0.2599619 1.7060001
0.78313529 0.2599619 1.7060001
0.78638476 0.2599619 1.7060001
0.78963429 0.2599619 1.7060001
0.79706669 0.26133335 1.715
0.79613334 0.2599619 1.7060001
0.79938287 0.2599619 1.7060001
-0.94798481 0.34745145 2.2520001
-0.94369525 0.34745145 2.2520001
-0.93314862 0.34513715 2.237
-0.92888767 0.34513715 2.237
-0.92462671 0.34513715 2.237
-0.92036575 0.34513715 2.237
-0.91610479 0.34513715 2.237
-0.91184384 0.34513715 2.237
-0.90758288 0.34513715 2.237
-0.90332192 0.34513715 2.237
-0.89906096 0.34513715 2.237
-0.89480001 0.34513715 2.237
-0.89053911 0.34513715 2.237
-0.88627815 0.34513715 2.237
-0.8820172 0.34513715 2.237
-0.8722629 0.34297717 2.223
-0.86802858 0.34297717 2.223
-0.86379433 0.34297717 2.223
-0.85956001 0.34297717 2.223
-0.85532576 0.34297717 2.223
-0.85109144 0.34297717 2.223
-0.84685719 0.34297717 2.223
-0.84262288 0.34297717 2.223
-0.83838862 0.34297717 2.223
-0.83415431 0.34297717 2.223
-0.82432002 0.34066287 2.2080002
-0.82011431 0.34066287 2.2080002
-0.81590861 0.34066287 2.2080002
-0.80655622 0.33850288 2.194
-0.80237716 0.33850288 2.194
-0.7981981 0.33850288 2.194
-0.7940191 0.33850288 2.194
-0.78984004 0.33850288 2.194
-0.78566098 0.33850288 2.194
-0.78148192 0.33850288 2.194
-0.77730286 0.33850288 2.194
-0.77312386 0.33850288 2.194
-0.76438862 0.33649716 2.181
-0.7602343 0.33649716 2.181
-0.75608003 0.33649716 2.181
-0.75192577 0.33649716 2.181
-0.74777144 0.33649716 2.181
-0.74361718 0.33649716 2.181
-0.73946291 0.33649716 2.181
-0.73530859 0.33649716 2.181
-0.73115432 0.33649716 2.181
-0.727 0.33649716 2.181
-0.71820575 0.33433715 2.1670001
-0.71407813 0.33433715 2.1670001
-0.70995051 0.33433715 2.1670001
-0.70582289 0.33433715 2.1670001
-0.70169526 0.33433715 2.1670001
-0.69756764 0.33433715 2.1670001
-0.69344002 0.33433715 2.1670001
-0.6893124 0.33433715 2.1670001
-0.68518478 0.33433715 2.1670001
-0.68105716 0.33433715 2.1670001
-0.67692953 0.33433715 2.1670001
-0.67280191 0.33433715 2.1670001
-0.66867429 0.33433715 2.1670001
-0.66025335 0.33217716 2.1530001
-0.65615243 0.33217716 2.1530001
-0.65205145 0.33217716 2.1530001
-0.64403814 0.33017144 2.1400001
-0.63996196 0.33017144 2.1400001
-0.63588572 0.33017144 2.1400001
-0.63180953 0.33017144 2.1400001
-0.62773335 0.33017144 2.1400001
-0.61986858 0.32816574 2.1270001
-0.61581719 0.32816574 2.1270001
-0.61176574 0.32816574 2.1270001
-0.6077143 0.32816574 2.1270001
-0.59997338 0.32616001 2.1140001
-0.59594667 0.32616001 2.1140001
-0.59192002 0.32616001 2.1140001
-0.58789337 0.32616001 2.1140001
-0.58745718 0.32816574 2.1270001
-0.58340573 0.32816574 2.1270001
-0.57935429 0.32816574 2.1270001
-0.5753029 0.32816574 2.1270001
-0.57125145 0.32816574 2.1270001
-0.56720001 0.32816574 2.1270001
-0.56314862 0.32816574 2.1270001
-0.55568004 0.32616001 2.1140001
-0.54826099 0.32415429 2.1010001
-0.54425907 0.32415429 2.1010001
-0.54025716 0.32415429 2.1010001
-0.53625524 0.32415429 2.1010001
-0.53225332 0.32415429 2.1010001
-0.52498287 0.32214859 2.0880001
-0.52100575 0.32214859 2.0880001
-0.52024764 0.32415429 2.1010001
-0.51305145 0.32214859 2.0880001
-0.50907433 0.32214859 2.0880001
-0.50219429 0.32029715 2.0760002
-0.49824002 0.32029715 2.0760002
-0.49428573 0.32029715 2.0760002
-0.49033144 0.32029715 2.0760002
-0.48637715 0.32029715 2.0760002
-0.48242289 0.32029715 2.0760002
-0.4784686 0.32029715 2.0760002
-0.47451431 0.32029715 2.0760002
-0.47056001 0.32029715 2.0760002
-0.46660572 0.32029715 2.0760002
-0.45975429 0.31829143 2.0630002
-0.45869717 0.32029715 2.0760002
-0.45474288 0.32029715 2.0760002
-0.44796574 0.31829143 2.0630002
-0.44403622 0.31829143 2.0630002
-0.44010669 0.31829143 2.0630002
-0.43617716 0.31829143 2.0630002
-0.43748572 0.32214859 2.0880001
-0.43350857 0.32214859 2.0880001
-0.42706287 0.32029715 2.0760002
-0.42045906 0.31829143 2.0630002
-0.41652954 0.31829143 2.0630002
-0.41260001 0.31829143 2.0630002
-0.40867049 0.31829143 2.0630002
-0.40474096 0.31829143 2.0630002
-0.40081143 0.31829143 2.0630002
-0.39688191 0.31829143 2.0630002
-0.39295238 0.31829143 2.0630002
-0.38902286 0.31829143 2.0630002
-0.38285336 0.31644002 2.0510001
-0.37894669 0.31644002 2.0510001
-0.37504002 0.31644002 2.0510001
-0.37113336 0.31644002 2.0510001
-0.36722669 0.31644002 2.0510001
-0.36332002 0.31644002 2.0510001
-0.36151621 0.31829143 2.0630002
-0.35758668 0.31829143 2.0630002
-0.35160002 0.31644002 2.0510001
-0.34769335 0.31644002 2.0510001
-0.34378669 0.31644002 2.0510001
-0.33988002 0.31644002 2.0510001
-0.33597335 0.31644002 2.0510001
-0.33206668 0.31644002 2.0510001
-0.32816002 0.31644002 2.0510001
-0.32425335 0.31644002 2.0510001
-0.31847239 0.31458858 2.039
-0.31273717 0.31273717 2.0270002
-0.30887622 0.31273717 2.0270002
-0.30501524 0.31273717 2.0270002
-0.30115429 0.31273717 2.0270002
-0.29729334 0.31273717 2.0270002
-0.29169524 0.31088573 2.0150001
-0.28957143 0.31273717 2.0270002
-0.28401905 0.31088573 2.0150001
-0.28184953 0.31273717 2.0270002
-0.27634287 0.31088573 2.0150001
-0.27250478 0.31088573 2.0150001
-0.26866668 0.31088573 2.0150001
-0.26482859 0.31088573 2.0150001
-0.2609905 0.31088573 2.0150001
-0.26021525 0.31458858 2.039
-0.25482288 0.31273717 2.0270002
-0.25244763 0.31458858 2.039
-0.24856383 0.31458858 2.039
-0.24324001 0.31273717 2.0270002
-0.23796192 0.31088573 2.0150001
-0.23412381 0.31088573 2.0150001
-0.23028572 0.31088573 2.0150001
-0.22644763 0.31088573 2.0150001
-0.22260953 0.31088573 2.0150001
-0.21877144 0.31088573 2.0150001
-0.21493334 0.31088573 2.0150001
-0.21109524 0.31088573 2.0150001
-0.20725715 0.31088573 2.0150001
-0.20220762 0.30903429 2.003
-0.19839239 0.30903429 2.003
-0.19457714 0.30903429 2.003
-0.19190477 0.31088573 2.0150001
-0.18806668 0.31088573 2.0150001
-0.18313144 0.30903429 2.003
-0.18039048 0.31088573 2.0150001
-0.17655239 0.31088573 2.0150001
-0.17271429 0.31088573 2.0150001
-0.1688762 0.31088573 2.0150001
-0.16405524 0.30903429 2.003
-0.16024001 0.30903429 2.003
-0.15642476 0.30903429 2.003
-0.15260953 0.30903429 2.003
-0.14879429 0.30903429 2.003
-0.14497906 0.30903429 2.003
-0.14116381 0.30903429 2.003
-0.1365943 0.30733716 1.9920001
-0.1328 0.30733716 1.9920001
-0.12900572 0.30733716 1.9920001
-0.12521143 0.30733716 1.9920001
-0.12141715 0.30733716 1.9920001
-0.11762286 0.30733716 1.9920001
-0.11382858 0.30733716 1.9920001
-0.11003429 0.30733716 1.9920001
-0.10624 0.30733716 1.9920001
-0.10182858 0.30548573 1.9800001
-0.097512387 0.30378857 1.9690001
-0.094285719 0.30548573 1.9800001
-0.090514287 0.30548573 1.9800001
-0.086742863 0.30548573 1.9800001
-0.082971431 0.30548573 1.9800001
-0.0792 0.30548573 1.9800001
-0.075428575 0.30548573 1.9800001
-0.07209143 0.30733716 1.9920001
-0.068297148 0.30733716 1.9920001
-0.064114287 0.30548573 1.9800001
-0.060342859 0.30548573 1.9800001
-0.056571431 0.30548573 1.9800001
-0.05250667 0.30378857 1.9690001
-0.048756193 0.30378857 1.9690001
-0.045005716 0.30378857 1.9690001
-0.041255239 0.30378857 1.9690001
-0.037504762 0.30378857 1.9690001
-0.033754285 0.30378857 1.9690001
-0.029836191 0.30209145 1.9580001
-0.026106667 0.30209145 1.9580001
-0.022377145 0.30209145 1.9580001
-0.01864762 0.30209145 1.9580001
-0.014918095 0.30209145 1.9580001
-0.011188572 0.30209145 1.9580001
-0.0074171433 0.3003943 1.9470001
-0.0037085717 0.3003943 1.9470001
0 0.3003943 1.9470001
0.0037085717 0.3003943 1.9470001
0.0074171433 0.3003943 1.9470001
0.011125715 0.3003943 1.9470001
0.014750477 0.29869714 1.9360001
0.018438095 0.29869714 1.9360001
0.022125715 0.29869714 1.9360001
0.025813334 0.29869714 1.9360001
0.029500954 0.29869714 1.9360001
0.033 0.29700002 1.9250001
0.036666669 0.29700002 1.9250001
0.040333334 0.29700002 1.9250001
0.044251431 0.29869714 1.9360001
0.047939051 0.29869714 1.9360001
0.051626667 0.29869714 1.9360001
0.055314288 0.29869714 1.9360001
0.059001908 0.29869714 1.9360001
0.062689528 0.29869714 1.9360001
0.066377148 0.29869714 1.9360001
0.069666669 0.29700002 1.9250001
0.073333338 0.29700002 1.9250001
0.077 0.29700002 1.9250001
0.080666669 0.29700002 1.9250001
0.084333338 0.29700002 1.9250001
0.088 0.29700002 1.9250001
0.09119048 0.29545715 1.9150001
0.094838098 0.29545715 1.9150001
0.098485716 0.29545715 1.9150001
0.10213333 0.29545715 1.9150001
0.10578096 0.29545715 1.9150001
0.10942858 0.29545715 1.9150001
0.1130762 0.29545715 1.9150001
0.11672381 0.29545715 1.9150001
0.12037143 0.29545715 1.9150001
0.12401905 0.29545715 1.9150001
0.12766667 0.29545715 1.9150001
0.13056001 0.29376 1.904
0.13418667 0.29376 1.904
0.13781334 0.29376 1.904
0.14144 0.29376 1.904
0.14430477 0.29221717 1.8940001
0.14791238 0.29221717 1.8940001
0.15152 0.29221717 1.8940001
0.15594667 0.29376 1.904
0.15957335 0.29376 1.904
0.16234286 0.29221717 1.8940001
0.16595048 0.29221717 1.8940001
0.16955811 0.29221717 1.8940001
0.17216 0.29052001 1.8830001
0.17574668 0.29052001 1.8830001
0.17933334 0.29052001 1.8830001
0.18194857 0.28897715 1.8730001
0.18650667 0.29052001 1.8830001
0.19009334 0.29052001 1.8830001
0.19368 0.29052001 1.8830001
0.19726667 0.29052001 1.8830001
0.20085335 0.29052001 1.8830001
0.20444001 0.29052001 1.8830001
0.20802668 0.29052001 1.8830001
0.21161334 0.29052001 1.8830001
0.21520001 0.29052001 1.8830001
0.21762477 0.28897715 1.8730001
0.22119239 0.28897715 1.8730001
0.22476001 0.28897715 1.8730001
0.22832763 0.28897715 1.8730001
0.23189525 0.28897715 1.8730001
0.23546286 0.28897715 1.8730001
0.23903048 0.28897715 1.8730001
0.2425981 0.28897715 1.8730001
0.24485144 0.28743431 1.863
0.2484 0.28743431 1.863
0.2519486 0.28743431 1.863
0.25549716 0.28743431 1.863
0.25904572 0.28743431 1.863
0.26259428 0.28743431 1.863
0.26614287 0.28743431 1.863
0.26969144 0.28743431 1.863
0.27324 0.28743431 1.863
0.27678859 0.28743431 1.863
0.28033715 0.28743431 1.863
0.28236192 0.28589144 1.853
0.28589144 0.28589144 1.853
0.28942096 0.28589144 1.853
0.29295048 0.28589144 1.853
0.29648 0.28589144 1.853
0.30000955 0.28589144 1.853
0.30353907 0.28589144 1.853
0.30706859 0.28589144 1.853
0.31059811 0.28589144 1.853
0.31412762 0.28589144 1.853
0.31765714 0.28589144 1.853
0.32118669 0.28589144 1.853
0.32471621 0.28589144 1.853
0.32647431 0.28434858 1.8430001
0.32998478 0.28434858 1.8430001
0.33168572 0.28280571 1.8330001
0.33517715 0.28280571 1.8330001
0.33866858 0.28280571 1.8330001
0.34216002 0.28280571 1.8330001
0.34565145 0.28280571 1.8330001
0.34914288 0.28280571 1.8330001
0.35263431 0.28280571 1.8330001
0.35612574 0.28280571 1.8330001
0.35961714 0.28280571 1.8330001
0.36310858 0.28280571 1.8330001
0.36480001 0.28141716 1.8240001
0.37009144 0.28280571 1.8330001
0.3717486 0.28141716 1.8240001
0.37522286 0.28141716 1.8240001
0.37869716 0.28141716 1.8240001
0.38217145 0.28141716 1.8240001
0.38564572 0.28141716 1.8240001
0.38912001 0.28141716 1.8240001
0.39044192 0.27987429 1.8140001
0.39389715 0.27987429 1.8140001
0.3973524 0.27987429 1.8140001
0.40080762 0.27987429 1.8140001
0.40426287 0.27987429 1.8140001
0.40771812 0.27987429 1.8140001
0.41117334 0.27987429 1.8140001
0.4146286 0.27987429 1.8140001
0.41577905 0.27833143 1.8040001
0.41921526 0.27833143 1.8040001
0.42265144 0.27833143 1.8040001
0.42396191 0.27694288 1.7950001
0.42738098 0.27694288 1.7950001
0.43080002 0.27694288 1.7950001
0.43204191 0.2755543 1.7860001
0.43544382 0.2755543 1.7860001
0.43884572 0.2755543 1.7860001
0.44224763 0.2755543 1.7860001
0.44564953 0.2755543 1.7860001
0.44905144 0.2755543 1.7860001
0.45017335 0.27416572 1.7770001
0.45355812 0.27416572 1.7770001
0.45694289 0.27416572 1.7770001
0.46032763 0.27416572 1.7770001
0.46371239 0.27416572 1.7770001
0.46709716 0.27416572 1.7770001
0.47048193 0.27416572 1.7770001
0.47386667 0.27416572 1.7770001
0.47725144 0.27416572 1.7770001
0.48063621 0.27416572 1.7770001
0.48402098 0.27416572 1.7770001
0.48493716 0.27277714 1.7680001
0.48830479 0.27277714 1.7680001
0.4916724 0.27277714 1.7680001
0.49504003 0.27277714 1.7680001
0.49840763 0.27277714 1.7680001
0.50432956 0.27416572 1.7770001
0.50771433 0.27416572 1.7770001
0.50851047 0.27277714 1.7680001
0.51187813 0.27277714 1.7680001
0.51524574 0.27277714 1.7680001
0.51861334 0.27277714 1.7680001
0.51932383 0.27138859 1.7590001
0.52267432 0.27138859 1.7590001
0.52602476 0.27138859 1.7590001
0.52937526 0.27138859 1.7590001
0.53000003 0.27000001 1.7500001
0.53607619 0.27138859 1.7590001
0.53942668 0.27138859 1.7590001
0.54277718 0.27138859 1.7590001
0.54612762 0.27138859 1.7590001
0.54666668 0.27000001 1.7500001
0.55000001 0.27000001 1.7500001
0.55333334 0.27000001 1.7500001
0.55666667 0.27000001 1.7500001
0.56 0.27000001 1.7500001
0.56333333 0.27000001 1.7500001
0.56375241 0.26861143 1.7410001
0.56999999 0.27000001 1.7500001
0.57333338 0.27000001 1.7500001
0.57666671 0.27000001 1.7500001
0.57701719 0.26861143 1.7410001
0.58333337 0.27000001 1.7500001
0.5866667 0.27000001 1.7500001
0.59000003 0.27000001 1.7500001
0.5902819 0.26861143 1.7410001
0.59666669 0.27000001 1.7500001
0.60000002 0.27000001 1.7500001
0.60333335 0.27000001 1.7500001
0.60354668 0.26861143 1.7410001
0.6068629 0.26861143 1.7410001
0.61017907 0.26861143 1.7410001
0.61349529 0.26861143 1.7410001
0.61681145 0.26861143 1.7410001
0.62012762 0.26861143 1.7410001
0.62344384 0.26861143 1.7410001
0.62676001 0.26861143 1.7410001
0.63007623 0.26861143 1.7410001
0.63339239 0.26861143 1.7410001
0.63670862 0.26861143 1.7410001
0.63671619 0.26722288 1.7320001
0.64001524 0.26722288 1.7320001
0.6433143 0.26722288 1.7320001
0.64325339 0.2658343 1.723
0.64653528 0.2658343 1.723
0.64981717 0.2658343 1.723
0.65309906 0.2658343 1.723
0.65638095 0.2658343 1.723
0.6596629 0.2658343 1.723
0.66294479 0.2658343 1.723
0.66622669 0.2658343 1.723
0.66950858 0.2658343 1.723
0.67279053 0.2658343 1.723
0.67607242 0.2658343 1.723
0.67620003 0.26460001 1.715
0.67946666 0.26460001 1.715
0.68273336 0.26460001 1.715
0.68600005 0.26460001 1.715
0.68926668 0.26460001 1.715
0.69253337 0.26460001 1.715
0.69580001 0.26460001 1.715
0.70232767 0.2658343 1.723
0.70560956 0.2658343 1.723
0.70889145 0.2658343 1.723
0.71589339 0.26722288 1.7320001
0.71919239 0.26722288 1.7320001
0.72249144 0.26722288 1.7320001
0.72201908 0.2658343 1.723
0.72530097 0.2658343 1.723
0.7252 0.26460001 1.715
0.72846669 0.26460001 1.715
0.73173338 0.26460001 1.715
0.73500001 0.26460001 1.715
0.7343924 0.26321143 1.7060001
0.73764193 0.26321143 1.7060001
0.74089146 0.26321143 1.7060001
0.74414098 0.26321143 1.7060001
0.74739051 0.26321143 1.7060001
0.75064003 0.26321143 1.7060001
0.75388956 0.26321143 1.7060001
0.76113337 0.26460001 1.715
0.76038861 0.26321143 1.7060001
0.76363814 0.26321143 1.7060001
0.76688766 0.26321143 1.7060001
0.77013719 0.26321143 1.7060001
0.77746671 0.26460001 1.715
0.78073335 0.26460001 1.715
0.77988577 0.26321143 1.7060001
0.78313529 0.26321143 1.7060001
0.78638476 0.26321143 1.7060001
0.78963429 0.26321143 1.7060001
0.79706669 0.26460001 1.715
0.80033338 0.26460001 1.715
0.80360001 0.26460001 1.715
-0.94798481 0.35174096 2.2520001
-0.94369525 0.35174096 2.2520001
-0.93314862 0.34939811 2.237
-0.92888767 0.34939811 2.237
-0.92462671 0.34939811 2.237
-0.92036575 0.34939811 2.237
-0.91610479 0.34939811 2.237
-0.91184384 0.34939811 2.237
-0.90758288 0.34939811 2.237
-0.90332192 0.34939811 2.237
-0.89906096 0.34939811 2.237
-0.89480001 0.34939811 2.237
-0.89053911 0.34939811 2.237
-0.88627815 0.34939811 2.237
-0.8820172 0.34939811 2.237
-0.8722629 0.34721145 2.223
-0.86802858 0.34721145 2.223
-0.86379433 0.34721145 2.223
-0.85956001 0.34721145 2.223
-0.85532576 0.34721145 2.223
-0.85109144 0.34721145 2.223
-0.84685719 0.34721145 2.223
-0.84262288 0.34721145 2.223
-0.83273149 0.34486857 2.2080002
-0.83415431 0.34721145 2.223
-0.82992005 0.34721145 2.223
-0.82011431 0.34486857 2.2080002
-0.81590861 0.34486857 2.2080002
-0.80655622 0.34268191 2.194
-0.80237716 0.34268191 2.194
-0.7981981 0.34268191 2.194
-0.7940191 0.34268191 2.194
-0.78984004 0.34268191 2.194
-0.78566098 0.34268191 2.194
-0.78148192 0.34268191 2.194
-0.77730286 0.34268191 2.194
-0.76854289 0.34065145 2.181
-0.76438862 0.34065145 2.181
-0.7602343 0.34065145 2.181
-0.75608003 0.34065145 2.181
-0.75192577 0.34065145 2.181
-0.74777144 0.34065145 2.181
-0.74361718 0.34065145 2.181
-0.73946291 0.34065145 2.181
-0.73530859 0.34065145 2.181
-0.73115432 0.34065145 2.181
-0.727 0.34065145 2.181
-0.71820575 0.33846477 2.1670001
-0.71407813 0.33846477 2.1670001
-0.70995051 0.33846477 2.1670001
-0.70582289 0.33846477 2.1670001
-0.70169526 0.33846477 2.1670001
-0.69756764 0.33846477 2.1670001
-0.69344002 0.33846477 2.1670001
-0.6893124 0.33846477 2.1670001
-0.68518478 0.33846477 2.1670001
-0.68105716 0.33846477 2.1670001
-0.67692953 0.33846477 2.1670001
-0.67280191 0.33846477 2.1670001
-0.66867429 0.33846477 2.1670001
-0.66025335 0.33627811 2.1530001
-0.65615243 0.33627811 2.1530001
-0.65205145 0.33627811 2.1530001
-0.64795047 0.33627811 2.1530001
-0.63996196 0.33424762 2.1400001
-0.63588572 0.33424762 2.1400001
-0.63180953 0.33424762 2.1400001
-0.62773335 0.33424762 2.1400001
-0.61986858 0.33221716 2.1270001
-0.61581719 0.33221716 2.1270001
-0.61176574 0.33221716 2.1270001
-0.6077143 0.33221716 2.1270001
-0.60366291 0.33221716 2.1270001
-0.59961146 0.33221716 2.1270001
-0.59192002 0.33018667 2.1140001
-0.58789337 0.33018667 2.1140001
-0.58745718 0.33221716 2.1270001
-0.58340573 0.33221716 2.1270001
-0.57935429 0.33221716 2.1270001
-0.5753029 0.33221716 2.1270001
-0.57125145 0.33221716 2.1270001
-0.56720001 0.33221716 2.1270001
-0.56314862 0.33221716 2.1270001
-0.55568004 0.33018667 2.1140001
-0.55165333 0.33018667 2.1140001
-0.54425907 0.3281562 2.1010001
-0.54025716 0.3281562 2.1010001
-0.53625524 0.3281562 2.1010001
-0.53225332 0.3281562 2.1010001
-0.52498287 0.32612574 2.0880001
-0.51801145 0.32425144 2.0760002
-0.52024764 0.3281562 2.1010001
-0.51305145 0.32612574 2.0880001
-0.50907433 0.32612574 2.0880001
-0.50219429 0.32425144 2.0760002
-0.49824002 0.32425144 2.0760002
-0.49428573 0.32425144 2.0760002
-0.49316573 0.32612574 2.0880001
-0.48918858 0.32612574 2.0880001
-0.48521143 0.32612574 2.0880001
-0.48123431 0.32612574 2.0880001
-0.47451431 0.32425144 2.0760002
-0.47056001 0.32425144 2.0760002
-0.46660572 0.32425144 2.0760002
-0.45975429 0.32222095 2.0630002
-0.45582479 0.32222095 2.0630002
-0.45189527 0.32222095 2.0630002
-0.44796574 0.32222095 2.0630002
-0.44403622 0.32222095 2.0630002
-0.44010669 0.32222095 2.0630002
-0.43617716 0.32222095 2.0630002
-0.43748572 0.32612574 2.0880001
-0.43350857 0.32612574 2.0880001
-0.42706287 0.32425144 2.0760002
-0.42045906 0.32222095 2.0630002
-0.41652954 0.32222095 2.0630002
-0.41520002 0.32425144 2.0760002
-0.40867049 0.32222095 2.0630002
-0.40474096 0.32222095 2.0630002
-0.40081143 0.32222095 2.0630002
-0.39688191 0.32222095 2.0630002
-0.39295238 0.32222095 2.0630002
-0.38902286 0.32222095 2.0630002
-0.38285336 0.32034668 2.0510001
-0.37894669 0.32034668 2.0510001
-0.37504002 0.32034668 2.0510001
-0.37113336 0.32034668 2.0510001
-0.36722669 0.32034668 2.0510001
-0.36332002 0.32034668 2.0510001
-0.36151621 0.32222095 2.0630002
-0.35758668 0.32222095 2.0630002
-0.35160002 0.32034668 2.0510001
-0.34769335 0.32034668 2.0510001
-0.34378669 0.32034668 2.0510001
-0.33988002 0.32034668 2.0510001
-0.33597335 0.32034668 2.0510001
-0.33206668 0.32034668 2.0510001
-0.32816002 0.32034668 2.0510001
-0.32425335 0.32034668 2.0510001
-0.31847239 0.31847239 2.039
-0.31458858 0.31847239 2.039
-0.31070477 0.31847239 2.039
-0.30501524 0.31659812 2.0270002
-0.30115429 0.31659812 2.0270002
-0.29729334 0.31659812 2.0270002
-0.29343238 0.31659812 2.0270002
-0.28957143 0.31659812 2.0270002
-0.28571048 0.31659812 2.0270002
-0.28184953 0.31659812 2.0270002
-0.27798858 0.31659812 2.0270002
-0.27412763 0.31659812 2.0270002
-0.27026668 0.31659812 2.0270002
-0.26640573 0.31659812 2.0270002
-0.2609905 0.31472382 2.0150001
-0.25715238 0.31472382 2.0150001
-0.25482288 0.31659812 2.0270002
-0.25244763 0.31847239 2.039
-0.24856383 0.31847239 2.039
-0.24324001 0.31659812 2.0270002
-0.23937906 0.31659812 2.0270002
-0.2355181 0.31659812 2.0270002
-0.23165715 0.31659812 2.0270002
-0.22644763 0.31472382 2.0150001
-0.22260953 0.31472382 2.0150001
-0.21877144 0.31472382 2.0150001
-0.21493334 0.31472382 2.0150001
-0.21109524 0.31472382 2.0150001
-0.20725715 0.31472382 2.0150001
-0.20341906 0.31472382 2.0150001
-0.19958095 0.31472382 2.0150001
-0.19574286 0.31472382 2.0150001
-0.19190477 0.31472382 2.0150001
-0.18806668 0.31472382 2.0150001
-0.18422858 0.31472382 2.0150001
-0.18039048 0.31472382 2.0150001
-0.17655239 0.31472382 2.0150001
-0.17271429 0.31472382 2.0150001
-0.1688762 0.31472382 2.0150001
-0.16503809 0.31472382 2.0150001
-0.1612 0.31472382 2.0150001
-0.15642476 0.31284952 2.003
-0.15260953 0.31284952 2.003
-0.14879429 0.31284952 2.003
-0.14418286 0.31113145 1.9920001
-0.14038858 0.31113145 1.9920001
-0.1365943 0.31113145 1.9920001
-0.1328 0.31113145 1.9920001
-0.12900572 0.31113145 1.9920001
-0.12521143 0.31113145 1.9920001
-0.12141715 0.31113145 1.9920001
-0.11762286 0.31113145 1.9920001
-0.11382858 0.31113145 1.9920001
-0.11003429 0.31113145 1.9920001
-0.10560001 0.30925715 1.9800001
-0.10182858 0.30925715 1.9800001
-0.097512387 0.30753905 1.9690001
-0.093761906 0.30753905 1.9690001
-0.090514287 0.30925715 1.9800001
-0.086742863 0.30925715 1.9800001
-0.082971431 0.30925715 1.9800001
-0.0792 0.30925715 1.9800001
-0.075428575 0.30925715 1.9800001
-0.071657144 0.30925715 1.9800001
-0.067885719 0.30925715 1.9800001
-0.064114287 0.30925715 1.9800001
-0.060342859 0.30925715 1.9800001
-0.056571431 0.30925715 1.9800001
-0.05250667 0.30753905 1.9690001
-0.048756193 0.30753905 1.9690001
-0.045005716 0.30753905 1.9690001
-0.041255239 0.30753905 1.9690001
-0.037504762 0.30753905 1.9690001
-0.033754285 0.30753905 1.9690001
-0.029836191 0.30582097 1.9580001
-0.026106667 0.30582097 1.9580001
-0.022377145 0.30582097 1.9580001
-0.01864762 0.30582097 1.9580001
-0.014918095 0.30582097 1.9580001
-0.011188572 0.30582097 1.9580001
-0.0074171433 0.30410287 1.9470001
-0.0037085717 0.30410287 1.9470001
0 0.30410287 1.9470001
0.0037085717 0.30410287 1.9470001
0.0074171433 0.30410287 1.9470001
0.011125715 0.30410287 1.9470001
0.014750477 0.30238476 1.9360001
0.018438095 0.30238476 1.9360001
0.022125715 0.30238476 1.9360001
0.025813334 0.30238476 1.9360001
0.029500954 0.30238476 1.9360001
0.033 0.30066669 1.9250001
0.03687619 0.30238476 1.9360001
0.040563811 0.30238476 1.9360001
0.044251431 0.30238476 1.9360001
0.047939051 0.30238476 1.9360001
0.051626667 0.30238476 1.9360001
0.055314288 0.30238476 1.9360001
0.059001908 0.30238476 1.9360001
0.062689528 0.30238476 1.9360001
0.066377148 0.30238476 1.9360001
0.070064768 0.30238476 1.9360001
0.073752381 0.30238476 1.9360001
0.077 0.30066669 1.9250001
0.080666669 0.30066669 1.9250001
0.084333338 0.30066669 1.9250001
0.088 0.30066669 1.9250001
0.091666669 0.30066669 1.9250001
0.095333338 0.30066669 1.9250001
0.098485716 0.29910478 1.9150001
0.10213333 0.29910478 1.9150001
0.10578096 0.29910478 1.9150001
0.10942858 0.29910478 1.9150001
0.1130762 0.29910478 1.9150001
0.11672381 0.29910478 1.9150001
0.12037143 0.29910478 1.9150001
0.12401905 0.29910478 1.9150001
0.12766667 0.29910478 1.9150001
0.13056001 0.29738668 1.904
0.13418667 0.29738668 1.904
0.13781334 0.29738668 1.904
0.14144 0.29738668 1.904
0.14430477 0.29582477 1.8940001
0.14791238 0.29582477 1.8940001
0.15152 0.29582477 1.8940001
0.15594667 0.29738668 1.904
0.15957335 0.29738668 1.904
0.16234286 0.29582477 1.8940001
0.16595048 0.29582477 1.8940001
0.16955811 0.29582477 1.8940001
0.17316572 0.29582477 1.8940001
0.17574668 0.29410669 1.8830001
0.17933334 0.29410669 1.8830001
0.18292001 0.29410669 1.8830001
0.18551619 0.29254478 1.8730001
0.18908381 0.29254478 1.8730001
0.19265144 0.29254478 1.8730001
0.19726667 0.29410669 1.8830001
0.20085335 0.29410669 1.8830001
0.20444001 0.29410669 1.8830001
0.20802668 0.29410669 1.8830001
0.21161334 0.29410669 1.8830001
0.21520001 0.29410669 1.8830001
0.21762477 0.29254478 1.8730001
0.22119239 0.29254478 1.8730001
0.22476001 0.29254478 1.8730001
0.22832763 0.29254478 1.8730001
0.23189525 0.29254478 1.8730001
0.23546286 0.29254478 1.8730001
0.23903048 0.29254478 1.8730001
0.2425981 0.29254478 1.8730001
0.24616572 0.29254478 1.8730001
0.2484 0.29098287 1.863
0.2519486 0.29098287 1.863
0.25549716 0.29098287 1.863
0.25904572 0.29098287 1.863
0.26259428 0.29098287 1.863
0.26614287 0.29098287 1.863
0.26969144 0.29098287 1.863
0.27324 0.29098287 1.863
0.27678859 0.29098287 1.863
0.28033715 0.29098287 1.863
0.28388572 0.29098287 1.863
0.28589144 0.28942096 1.853
0.28942096 0.28942096 1.853
0.29295048 0.28942096 1.853
0.29648 0.28942096 1.853
0.29839048 0.28785905 1.8430001
0.30190095 0.28785905 1.8430001
0.30541143 0.28785905 1.8430001
0.3089219 0.28785905 1.8430001
0.31412762 0.28942096 1.853
0.31765714 0.28942096 1.853
0.32118669 0.28942096 1.853
0.32471621 0.28942096 1.853
0.32647431 0.28785905 1.8430001
0.32998478 0.28785905 1.8430001
0.33349526 0.28785905 1.8430001
0.33700573 0.28785905 1.8430001
0.33866858 0.28629714 1.8330001
0.34216002 0.28629714 1.8330001
0.34565145 0.28629714 1.8330001
0.34914288 0.28629714 1.8330001
0.35263431 0.28629714 1.8330001
0.35612574 0.28629714 1.8330001
0.35961714 0.28629714 1.8330001
0.36310858 0.28629714 1.8330001
0.36660001 0.28629714 1.8330001
0.37009144 0.28629714 1.8330001
0.3717486 0.28489143 1.8240001
0.37522286 0.28489143 1.8240001
0.37869716 0.28489143 1.8240001
0.38217145 0.28489143 1.8240001
0.38564572 0.28489143 1.8240001
0.38912001 0.28489143 1.8240001
0.39259431 0.28489143 1.8240001
0.39389715 0.28332955 1.8140001
0.3973524 0.28332955 1.8140001
0.40080762 0.28332955 1.8140001
0.40426287 0.28332955 1.8140001
0.40771812 0.28332955 1.8140001
0.41117334 0.28332955 1.8140001
0.4146286 0.28332955 1.8140001
0.41577905 0.28176764 1.8040001
0.41712382 0.28036192 1.7950001
0.42054287 0.28036192 1.7950001
0.42396191 0.28036192 1.7950001
0.42738098 0.28036192 1.7950001
0.42864001 0.2789562 1.7860001
0.43204191 0.2789562 1.7860001
0.43544382 0.2789562 1.7860001
0.43884572 0.2789562 1.7860001
0.44224763 0.2789562 1.7860001
0.44564953 0.2789562 1.7860001
0.44678858 0.27755049 1.7770001
0.45017335 0.27755049 1.7770001
0.45355812 0.27755049 1.7770001
0.45694289 0.27755049 1.7770001
0.46032763 0.27755049 1.7770001
0.46371239 0.27755049 1.7770001
0.46709716 0.27755049 1.7770001
0.47048193 0.27755049 1.7770001
0.47386667 0.27755049 1.7770001
0.47725144 0.27755049 1.7770001
0.48063621 0.27755049 1.7770001
0.48402098 0.27755049 1.7770001
0.48740572 0.27755049 1.7770001
0.49079049 0.27755049 1.7770001
0.49417526 0.27755049 1.7770001
0.49756002 0.27755049 1.7770001
0.50094479 0.27755049 1.7770001
0.50432956 0.27755049 1.7770001
0.50771433 0.27755049 1.7770001
0.51109904 0.27755049 1.7770001
0.51187813 0.27614477 1.7680001
0.51524574 0.27614477 1.7680001
0.51597333 0.27473906 1.7590001
0.51932383 0.27473906 1.7590001
0.52267432 0.27473906 1.7590001
0.52602476 0.27473906 1.7590001
0.52937526 0.27473906 1.7590001
0.53272575 0.27473906 1.7590001
0.53607619 0.27473906 1.7590001
0.53942668 0.27473906 1.7590001
0.54277718 0.27473906 1.7590001
0.54612762 0.27473906 1.7590001
0.54666668 0.27333334 1.7500001
0.55000001 0.27333334 1.7500001
0.55333334 0.27333334 1.7500001
0.55666667 0.27333334 1.7500001
0.56 0.27333334 1.7500001
0.56333333 0.27333334 1.7500001
0.56666666 0.27333334 1.7500001
0.56999999 0.27333334 1.7500001
0.57333338 0.27333334 1.7500001
0.57666671 0.27333334 1.7500001
0.57701719 0.27192762 1.7410001
0.58333337 0.27333334 1.7500001
0.5866667 0.27333334 1.7500001
0.58696574 0.27192762 1.7410001
0.59333336 0.27333334 1.7500001
0.59666669 0.27333334 1.7500001
0.60000002 0.27333334 1.7500001
0.60333335 0.27333334 1.7500001
0.60354668 0.27192762 1.7410001
0.6068629 0.27192762 1.7410001
0.61017907 0.27192762 1.7410001
0.61349529 0.27192762 1.7410001
0.61681145 0.27192762 1.7410001
0.62012762 0.27192762 1.7410001
0.62344384 0.27192762 1.7410001
0.62676001 0.27192762 1.7410001
0.63007623 0.27192762 1.7410001
0.63339239 0.27192762 1.7410001
0.63341719 0.27052191 1.7320001
0.63671619 0.27052191 1.7320001
0.64001524 0.27052191 1.7320001
0.6433143 0.27052191 1.7320001
0.64661336 0.27052191 1.7320001
0.64991242 0.27052191 1.7320001
0.65321147 0.27052191 1.7320001
0.65651047 0.27052191 1.7320001
0.65638095 0.26911619 1.723
0.6596629 0.26911619 1.723
0.66294479 0.26911619 1.723
0.66622669 0.26911619 1.723
0.66950858 0.26911619 1.723
0.66966671 0.26786667 1.715
0.67293334 0.26786667 1.715
0.67620003 0.26786667 1.715
0.67946666 0.26786667 1.715
0.68273336 0.26786667 1.715
0.68600005 0.26786667 1.715
0.68926668 0.26786667 1.715
0.69253337 0.26786667 1.715
0.69580001 0.26786667 1.715
0.70232767 0.26911619 1.723
0.70560956 0.26911619 1.723
0.70889145 0.26911619 1.723
0.71589339 0.27052191 1.7320001
0.71919239 0.27052191 1.7320001
0.72249144 0.27052191 1.7320001
0.72201908 0.26911619 1.723
0.72530097 0.26911619 1.723
0.7252 0.26786667 1.715
0.72846669 0.26786667 1.715
0.73173338 0.26786667 1.715
0.73500001 0.26786667 1.715
0.73826671 0.26786667 1.715
0.74153334 0.26786667 1.715
0.74480003 0.26786667 1.715
0.74414098 0.26646096 1.7060001
0.74739051 0.26646096 1.7060001
0.75064003 0.26646096 1.7060001
0.75388956 0.26646096 1.7060001
0.76113337 0.26786667 1.715
0.76038861 0.26646096 1.7060001
0.76363814 0.26646096 1.7060001
0.76688766 0.26646096 1.7060001
0.77013719 0.26646096 1.7060001
0.77338672 0.26646096 1.7060001
0.77663624 0.26646096 1.7060001
0.77988577 0.26646096 1.7060001
0.78313529 0.26646096 1.7060001
0.78638476 0.26646096 1.7060001
0.78963429 0.26646096 1.7060001
0.79706669 0.26786667 1.715
0.80033338 0.26786667 1.715
0.80360001 0.26786667 1.715
-0.94798481 0.35603049 2.2520001
-0.94369525 0.35603049 2.2520001
-0.93314862 0.35365906 2.237
-0.92888767 0.35365906 2.237
-0.92462671 0.35365906 2.237
-0.92036575 0.35365906 2.237
-0.91610479 0.35365906 2.237
-0.91184384 0.35365906 2.237
-0.90758288 0.35365906 2.237
-0.90332192 0.35365906 2.237
-0.89343435 0.35144573 2.223
-0.89480001 0.35365906 2.237
-0.89053911 0.35365906 2.237
-0.88073146 0.35144573 2.223
-0.87649715 0.35144573 2.223
-0.8722629 0.35144573 2.223
-0.86802858 0.35144573 2.223
-0.86379433 0.35144573 2.223
-0.85956001 0.35144573 2.223
-0.85532576 0.35144573 2.223
-0.85109144 0.35144573 2.223
-0.84685719 0.35144573 2.223
-0.84262288 0.35144573 2.223
-0.83273149 0.3490743 2.2080002
-0.83415431 0.35144573 2.223
-0.82992005 0.35144573 2.223
-0.82011431 0.3490743 2.2080002
-0.81590861 0.3490743 2.2080002
-0.80655622 0.34686098 2.194
-0.80237716 0.34686098 2.194
-0.7981981 0.34686098 2.194
-0.7940191 0.34686098 2.194
-0.78984004 0.34686098 2.194
-0.78566098 0.34686098 2.194
-0.78148192 0.34686098 2.194
-0.77730286 0.34686098 2.194
-0.76854289 0.34480572 2.181
-0.76438862 0.34480572 2.181
-0.7602343 0.34480572 2.181
-0.75608003 0.34480572 2.181
-0.75192577 0.34480572 2.181
-0.74777144 0.34480572 2.181
-0.74361718 0.34480572 2.181
-0.73946291 0.34480572 2.181
-0.73530859 0.34480572 2.181
-0.73115432 0.34480572 2.181
-0.72233337 0.34259239 2.1670001
-0.71820575 0.34259239 2.1670001
-0.71407813 0.34259239 2.1670001
-0.70995051 0.34259239 2.1670001
-0.70582289 0.34259239 2.1670001
-0.70169526 0.34259239 2.1670001
-0.69756764 0.34259239 2.1670001
-0.69344002 0.34259239 2.1670001
-0.6893124 0.34259239 2.1670001
-0.68518478 0.34259239 2.1670001
-0.68105716 0.34259239 2.1670001
-0.67692953 0.34259239 2.1670001
-0.67280191 0.34259239 2.1670001
-0.66867429 0.34259239 2.1670001
-0.66454667 0.34259239 2.1670001
-0.66041905 0.34259239 2.1670001
-0.65205145 0.34037906 2.1530001
-0.64795047 0.34037906 2.1530001
-0.63996196 0.33832383 2.1400001
-0.63588572 0.33832383 2.1400001
-0.63180953 0.33832383 2.1400001
-0.62773335 0.33832383 2.1400001
-0.62365717 0.33832383 2.1400001
-0.61581719 0.33626857 2.1270001
-0.61176574 0.33626857 2.1270001
-0.6077143 0.33626857 2.1270001
-0.60366291 0.33626857 2.1270001
-0.59961146 0.33626857 2.1270001
-0.59556001 0.33626857 2.1270001
-0.59150857 0.33626857 2.1270001
-0.58745718 0.33626857 2.1270001
-0.58340573 0.33626857 2.1270001
-0.57935429 0.33626857 2.1270001
-0.5753029 0.33626857 2.1270001
-0.57125145 0.33626857 2.1270001
-0.56720001 0.33626857 2.1270001
-0.56314862 0.33626857 2.1270001
-0.55568004 0.33421335 2.1140001
-0.55165333 0.33421335 2.1140001
-0.54762667 0.33421335 2.1140001
-0.54025716 0.33215812 2.1010001
-0.53625524 0.33215812 2.1010001
-0.53225332 0.33215812 2.1010001
-0.52498287 0.33010286 2.0880001
-0.51801145 0.32820573 2.0760002
-0.51702857 0.33010286 2.0880001
-0.51305145 0.33010286 2.0880001
-0.50907433 0.33010286 2.0880001
-0.50509715 0.33010286 2.0880001
-0.50112003 0.33010286 2.0880001
-0.49428573 0.32820573 2.0760002
-0.49316573 0.33010286 2.0880001
-0.48918858 0.33010286 2.0880001
-0.48521143 0.33010286 2.0880001
-0.48123431 0.33010286 2.0880001
-0.47451431 0.32820573 2.0760002
-0.47328001 0.33010286 2.0880001
-0.46660572 0.32820573 2.0760002
-0.46265143 0.32820573 2.0760002
-0.45869717 0.32820573 2.0760002
-0.45474288 0.32820573 2.0760002
-0.44796574 0.32615048 2.0630002
-0.4468343 0.32820573 2.0760002
-0.44544002 0.33010286 2.0880001
-0.43892574 0.32820573 2.0760002
-0.43748572 0.33010286 2.0880001
-0.43350857 0.33010286 2.0880001
-0.42706287 0.32820573 2.0760002
-0.42310858 0.32820573 2.0760002
-0.41915429 0.32820573 2.0760002
-0.41520002 0.32820573 2.0760002
-0.40867049 0.32615048 2.0630002
-0.40474096 0.32615048 2.0630002
-0.40081143 0.32615048 2.0630002
-0.39938286 0.32820573 2.0760002
-0.39295238 0.32615048 2.0630002
-0.38902286 0.32615048 2.0630002
-0.38509336 0.32615048 2.0630002
-0.37894669 0.32425335 2.0510001
-0.37504002 0.32425335 2.0510001
-0.37113336 0.32425335 2.0510001
-0.36722669 0.32425335 2.0510001
-0.36332002 0.32425335 2.0510001
-0.36151621 0.32615048 2.0630002
-0.35550669 0.32425335 2.0510001
-0.35160002 0.32425335 2.0510001
-0.34769335 0.32425335 2.0510001
-0.34378669 0.32425335 2.0510001
-0.33988002 0.32425335 2.0510001
-0.33597335 0.32425335 2.0510001
-0.33400953 0.32615048 2.0630002
-0.32816002 0.32425335 2.0510001
-0.32425335 0.32425335 2.0510001
-0.31847239 0.32235619 2.039
-0.31458858 0.32235619 2.039
-0.31070477 0.32235619 2.039
-0.30501524 0.32045907 2.0270002
-0.30115429 0.32045907 2.0270002
-0.29729334 0.32045907 2.0270002
-0.29343238 0.32045907 2.0270002
-0.28957143 0.32045907 2.0270002
-0.28571048 0.32045907 2.0270002
-0.28184953 0.32045907 2.0270002
-0.27798858 0.32045907 2.0270002
-0.27412763 0.32045907 2.0270002
-0.27026668 0.32045907 2.0270002
-0.26640573 0.32045907 2.0270002
-0.2609905 0.31856191 2.0150001
-0.25715238 0.31856191 2.0150001
-0.25331429 0.31856191 2.0150001
-0.24947619 0.31856191 2.0150001
-0.2456381 0.31856191 2.0150001
-0.24324001 0.32045907 2.0270002
-0.23796192 0.31856191 2.0150001
-0.23412381 0.31856191 2.0150001
-0.23165715 0.32045907 2.0270002
-0.22644763 0.31856191 2.0150001
-0.22260953 0.31856191 2.0150001
-0.21877144 0.31856191 2.0150001
-0.21493334 0.31856191 2.0150001
-0.21109524 0.31856191 2.0150001
-0.20725715 0.31856191 2.0150001
-0.20341906 0.31856191 2.0150001
-0.19958095 0.31856191 2.0150001
-0.19574286 0.31856191 2.0150001
-0.19190477 0.31856191 2.0150001
-0.18806668 0.31856191 2.0150001
-0.18422858 0.31856191 2.0150001
-0.18039048 0.31856191 2.0150001
-0.17655239 0.31856191 2.0150001
-0.17271429 0.31856191 2.0150001
-0.1688762 0.31856191 2.0150001
-0.16503809 0.31856191 2.0150001
-0.1612 0.31856191 2.0150001
-0.15642476 0.31666479 2.003
-0.15260953 0.31666479 2.003
-0.14879429 0.31666479 2.003
-0.14497906 0.31666479 2.003
-0.14038858 0.31492573 1.9920001
-0.1365943 0.31492573 1.9920001
-0.1328 0.31492573 1.9920001
-0.12900572 0.31492573 1.9920001
-0.12521143 0.31492573 1.9920001
-0.12141715 0.31492573 1.9920001
-0.11762286 0.31492573 1.9920001
-0.11382858 0.31492573 1.9920001
-0.11003429 0.31492573 1.9920001
-0.10560001 0.31302857 1.9800001
-0.10182858 0.31302857 1.9800001
-0.097512387 0.31128955 1.9690001
-0.093761906 0.31128955 1.9690001
-0.090514287 0.31302857 1.9800001
-0.086742863 0.31302857 1.9800001
-0.082971431 0.31302857 1.9800001
-0.0792 0.31302857 1.9800001
-0.075428575 0.31302857 1.9800001
-0.071657144 0.31302857 1.9800001
-0.067885719 0.31302857 1.9800001
-0.064114287 0.31302857 1.9800001
-0.060342859 0.31302857 1.9800001
-0.056571431 0.31302857 1.9800001
-0.05250667 0.31128955 1.9690001
-0.048756193 0.31128955 1.9690001
-0.045005716 0.31128955 1.9690001
-0.041255239 0.31128955 1.9690001
-0.037504762 0.31128955 1.9690001
-0.033754285 0.31128955 1.9690001
-0.029836191 0.30955049 1.9580001
-0.026106667 0.30955049 1.9580001
-0.022377145 0.30955049 1.9580001
-0.01864762 0.30955049 1.9580001
-0.014918095 0.30955049 1.9580001
-0.011188572 0.30955049 1.9580001
-0.0074590477 0.30955049 1.9580001
-0.0037085717 0.30781144 1.9470001
0 0.30781144 1.9470001
0.0037085717 0.30781144 1.9470001
0.0074171433 0.30781144 1.9470001
0.011125715 0.30781144 1.9470001
0.014750477 0.30607238 1.9360001
0.018438095 0.30607238 1.9360001
0.022125715 0.30607238 1.9360001
0.025813334 0.30607238 1.9360001
0.029500954 0.30607238 1.9360001
0.033 0.30433336 1.9250001
0.03687619 0.30607238 1.9360001
0.040563811 0.30607238 1.9360001
0.044251431 0.30607238 1.9360001
0.047939051 0.30607238 1.9360001
0.051626667 0.30607238 1.9360001
0.055314288 0.30607238 1.9360001
0.059001908 0.30607238 1.9360001
0.062689528 0.30607238 1.9360001
0.066377148 0.30607238 1.9360001
0.070064768 0.30607238 1.9360001
0.073752381 0.30607238 1.9360001
0.077440001 0.30607238 1.9360001
0.080666669 0.30433336 1.9250001
0.084333338 0.30433336 1.9250001
0.088 0.30433336 1.9250001
0.091666669 0.30433336 1.9250001
0.095333338 0.30433336 1.9250001
0.099000007 0.30433336 1.9250001
0.10213333 0.30275241 1.9150001
0.10578096 0.30275241 1.9150001
0.10942858 0.30275241 1.9150001
0.1130762 0.30275241 1.9150001
0.11672381 0.30275241 1.9150001
0.12037143 0.30275241 1.9150001
0.12401905 0.30275241 1.9150001
0.12766667 0.30275241 1.9150001
0.13056001 0.30101335 1.904
0.13418667 0.30101335 1.904
0.13781334 0.30101335 1.904
0.14144 0.30101335 1.904
0.14506668 0.30101335 1.904
0.14869334 0.30101335 1.904
0.15232001 0.30101335 1.904
0.15594667 0.30101335 1.904
0.15957335 0.30101335 1.904
0.16234286 0.2994324 1.8940001
0.16595048 0.2994324 1.8940001
0.16955811 0.2994324 1.8940001
0.17316572 0.2994324 1.8940001
0.17574668 0.29769334 1.8830001
0.17933334 0.29769334 1.8830001
0.18292001 0.29769334 1.8830001
0.18650667 0.29769334 1.8830001
0.18908381 0.29611239 1.8730001
0.19265144 0.29611239 1.8730001
0.19726667 0.29769334 1.8830001
0.20085335 0.29769334 1.8830001
0.20444001 0.29769334 1.8830001
0.20802668 0.29769334 1.8830001
0.21161334 0.29769334 1.8830001
0.21520001 0.29769334 1.8830001
0.21762477 0.29611239 1.8730001
0.22119239 0.29611239 1.8730001
0.22476001 0.29611239 1.8730001
0.22832763 0.29611239 1.8730001
0.23189525 0.29611239 1.8730001
0.23546286 0.29611239 1.8730001
0.23903048 0.29611239 1.8730001
0.2425981 0.29611239 1.8730001
0.24616572 0.29611239 1.8730001
0.2484 0.29453143 1.863
0.2519486 0.29453143 1.863
0.25549716 0.29453143 1.863
0.25904572 0.29453143 1.863
0.26259428 0.29453143 1.863
0.26614287 0.29453143 1.863
0.26969144 0.29453143 1.863
0.27324 0.29453143 1.863
0.27678859 0.29453143 1.863
0.28033715 0.29453143 1.863
0.28236192 0.29295048 1.853
0.28589144 0.29295048 1.853
0.28942096 0.29295048 1.853
0.29295048 0.29295048 1.853
0.29488 0.29136953 1.8430001
0.29839048 0.29136953 1.8430001
0.30190095 0.29136953 1.8430001
0.30541143 0.29136953 1.8430001
0.31059811 0.29295048 1.853
0.31412762 0.29295048 1.853
0.31765714 0.29295048 1.853
0.32118669 0.29295048 1.853
0.32471621 0.29295048 1.853
0.32647431 0.29136953 1.8430001
0.32998478 0.29136953 1.8430001
0.33349526 0.29136953 1.8430001
0.33700573 0.29136953 1.8430001
0.33866858 0.28978857 1.8330001
0.34216002 0.28978857 1.8330001
0.34565145 0.28978857 1.8330001
0.34914288 0.28978857 1.8330001
0.35263431 0.28978857 1.8330001
0.35612574 0.28978857 1.8330001
0.35961714 0.28978857 1.8330001
0.36310858 0.28978857 1.8330001
0.36660001 0.28978857 1.8330001
0.37009144 0.28978857 1.8330001
0.37358287 0.28978857 1.8330001
0.37522286 0.28836572 1.8240001
0.37869716 0.28836572 1.8240001
0.38217145 0.28836572 1.8240001
0.38564572 0.28836572 1.8240001
0.38912001 0.28836572 1.8240001
0.39259431 0.28836572 1.8240001
0.39606857 0.28836572 1.8240001
0.3973524 0.28678477 1.8140001
0.40080762 0.28678477 1.8140001
0.40426287 0.28678477 1.8140001
0.40771812 0.28678477 1.8140001
0.41117334 0.28678477 1.8140001
0.4146286 0.28678477 1.8140001
0.41577905 0.28520381 1.8040001
0.41921526 0.28520381 1.8040001
0.42054287 0.28378096 1.7950001
0.42396191 0.28378096 1.7950001
0.42738098 0.28378096 1.7950001
0.42864001 0.28235811 1.7860001
0.43204191 0.28235811 1.7860001
0.43544382 0.28235811 1.7860001
0.43884572 0.28235811 1.7860001
0.44224763 0.28235811 1.7860001
0.44564953 0.28235811 1.7860001
0.44905144 0.28235811 1.7860001
0.45245335 0.28235811 1.7860001
0.45355812 0.28093526 1.7770001
0.45694289 0.28093526 1.7770001
0.46032763 0.28093526 1.7770001
0.46371239 0.28093526 1.7770001
0.46709716 0.28093526 1.7770001
0.47048193 0.28093526 1.7770001
0.47626668 0.28235811 1.7860001
0.47725144 0.28093526 1.7770001
0.48063621 0.28093526 1.7770001
0.48402098 0.28093526 1.7770001
0.48740572 0.28093526 1.7770001
0.49079049 0.28093526 1.7770001
0.49417526 0.28093526 1.7770001
0.49756002 0.28093526 1.7770001
0.50094479 0.28093526 1.7770001
0.50432956 0.28093526 1.7770001
0.50771433 0.28093526 1.7770001
0.51109904 0.28093526 1.7770001
0.51187813 0.27951241 1.7680001
0.51524574 0.27951241 1.7680001
0.51597333 0.27808952 1.7590001
0.51932383 0.27808952 1.7590001
0.52267432 0.27808952 1.7590001
0.52602476 0.27808952 1.7590001
0.52937526 0.27808952 1.7590001
0.53272575 0.27808952 1.7590001
0.53607619 0.27808952 1.7590001
0.53942668 0.27808952 1.7590001
0.54277718 0.27808952 1.7590001
0.54612762 0.27808952 1.7590001
0.54666668 0.27666667 1.7500001
0.55000001 0.27666667 1.7500001
0.55333334 0.27666667 1.7500001
0.55666667 0.27666667 1.7500001
0.56 0.27666667 1.7500001
0.56333333 0.27666667 1.7500001
0.56666666 0.27666667 1.7500001
0.56999999 0.27666667 1.7500001
0.57333338 0.27666667 1.7500001
0.57666671 0.27666667 1.7500001
0.57701719 0.27524382 1.7410001
0.58333337 0.27666667 1.7500001
0.5866667 0.27666667 1.7500001
0.58696574 0.27524382 1.7410001
0.59333336 0.27666667 1.7500001
0.59666669 0.27666667 1.7500001
0.60000002 0.27666667 1.7500001
0.60333335 0.27666667 1.7500001
0.60666668 0.27666667 1.7500001
0.6068629 0.27524382 1.7410001
0.61017907 0.27524382 1.7410001
0.61349529 0.27524382 1.7410001
0.61681145 0.27524382 1.7410001
0.62012762 0.27524382 1.7410001
0.62344384 0.27524382 1.7410001
0.62676001 0.27524382 1.7410001
0.63007623 0.27524382 1.7410001
0.63339239 0.27524382 1.7410001
0.63670862 0.27524382 1.7410001
0.63671619 0.27382097 1.7320001
0.64001524 0.27382097 1.7320001
0.6433143 0.27382097 1.7320001
0.64661336 0.27382097 1.7320001
0.64991242 0.27382097 1.7320001
0.65321147 0.27382097 1.7320001
0.65651047 0.27382097 1.7320001
0.65980953 0.27382097 1.7320001
0.66310859 0.27382097 1.7320001
0.66640764 0.27382097 1.7320001
0.66622669 0.27239811 1.723
0.66950858 0.27239811 1.723
0.67279053 0.27239811 1.723
0.67293334 0.27113333 1.715
0.67620003 0.27113333 1.715
0.67946666 0.27113333 1.715
0.68273336 0.27113333 1.715
0.68600005 0.27113333 1.715
0.68926668 0.27113333 1.715
0.69253337 0.27113333 1.715
0.69580001 0.27113333 1.715
0.70232767 0.27239811 1.723
0.70560956 0.27239811 1.723
0.70889145 0.27239811 1.723
0.71217334 0.27239811 1.723
0.71545529 0.27239811 1.723
0.72249144 0.27382097 1.7320001
0.72201908 0.27239811 1.723
0.72530097 0.27239811 1.723
0.7252 0.27113333 1.715
0.72846669 0.27113333 1.715
0.73173338 0.27113333 1.715
0.73500001 0.27113333 1.715
0.73826671 0.27113333 1.715
0.74153334 0.27113333 1.715
0.74480003 0.27113333 1.715
0.74414098 0.26971048 1.7060001
0.74739051 0.26971048 1.7060001
0.75064003 0.26971048 1.7060001
0.75786668 0.27113333 1.715
0.76113337 0.27113333 1.715
0.76038861 0.26971048 1.7060001
0.76363814 0.26971048 1.7060001
0.76688766 0.26971048 1.7060001
0.77013719 0.26971048 1.7060001
0.77746671 0.27113333 1.715
0.78073335 0.27113333 1.715
0.77988577 0.26971048 1.7060001
0.78726667 0.27113333 1.715
0.79053336 0.27113333 1.715
0.79380006 0.27113333 1.715
0.80078477 0.27239811 1.723
0.80406672 0.27239811 1.723
0.80734861 0.27239811 1.723
-0.9538781 0.36256 2.266
-0.94369525 0.36032 2.2520001
-0.93940574 0.36032 2.2520001
-0.92888767 0.35792002 2.237
-0.92462671 0.35792002 2.237
-0.92036575 0.35792002 2.237
-0.91037148 0.35568002 2.223
-0.91184384 0.35792002 2.237
-0.90190291 0.35568002 2.223
-0.90332192 0.35792002 2.237
-0.89343435 0.35568002 2.223
-0.88920003 0.35568002 2.223
-0.88496572 0.35568002 2.223
-0.88073146 0.35568002 2.223
-0.8820172 0.35792002 2.237
-0.8722629 0.35568002 2.223
-0.86802858 0.35568002 2.223
-0.86379433 0.35568002 2.223
-0.85956001 0.35568002 2.223
-0.85532576 0.35568002 2.223
-0.85109144 0.35568002 2.223
-0.84685719 0.35568002 2.223
-0.83693719 0.35328001 2.2080002
-0.83838862 0.35568002 2.223
-0.83415431 0.35568002 2.223
-0.82992005 0.35568002 2.223
-0.82011431 0.35328001 2.2080002
-0.81073529 0.35104001 2.194
-0.80655622 0.35104001 2.194
-0.80237716 0.35104001 2.194
-0.7981981 0.35104001 2.194
-0.7940191 0.35104001 2.194
-0.78984004 0.35104001 2.194
-0.78100574 0.34896001 2.181
-0.78148192 0.35104001 2.194
-0.77730286 0.35104001 2.194
-0.76854289 0.34896001 2.181
-0.76438862 0.34896001 2.181
-0.7602343 0.34896001 2.181
-0.76058668 0.35104001 2.194
-0.75192577 0.34896001 2.181
-0.74777144 0.34896001 2.181
-0.74361718 0.34896001 2.181
-0.73946291 0.34896001 2.181
-0.73530859 0.34896001 2.181
-0.73115432 0.34896001 2.181
-0.727 0.34896001 2.181
-0.72284573 0.34896001 2.181
-0.71407813 0.34672001 2.1670001
-0.70995051 0.34672001 2.1670001
-0.70582289 0.34672001 2.1670001
-0.70169526 0.34672001 2.1670001
-0.69756764 0.34672001 2.1670001
-0.69344002 0.34672001 2.1670001
-0.6893124 0.34672001 2.1670001
-0.68518478 0.34672001 2.1670001
-0.68105716 0.34672001 2.1670001
-0.67692953 0.34672001 2.1670001
-0.67280191 0.34672001 2.1670001
