# .PCD v0.7 - Point Cloud Data file format
VERSION 0.7
FIELDS x y z
SIZE 4 4 4
TYPE F F F
COUNT 1 1 1
WIDTH 1551
HEIGHT 1
VIEWPOINT 0 0 0 1 0 0 0
POINTS 1551
DATA ascii
0.2037943 0.11888 1.4860001
0.20662478 0.11888 1.4860001
0.20945525 0.11888 1.4860001
0.21314287 0.11936001 1.4920001
0.21598478 0.11936001 1.4920001
0.21794668 0.11888 1.4860001
0.22166859 0.11936001 1.4920001
0.22451049 0.11936001 1.4920001
0.22841905 0.11992001 1.4990001
0.23127429 0.11992001 1.4990001
0.23412953 0.11992001 1.4990001
0.23809144 0.12048 1.506
0.24096 0.12048 1.506
0.24382858 0.12048 1.506
0.24669716 0.12048 1.506
0.24956572 0.12048 1.506
0.25243428 0.12048 1.506
0.25530288 0.12048 1.506
0.25817144 0.12048 1.506
0.26104 0.12048 1.506
0.26390859 0.12048 1.506
0.26677716 0.12048 1.506
0.26964572 0.12048 1.506
0.27251428 0.12048 1.506
0.27538288 0.12048 1.506
0.27825144 0.12048 1.506
0.28224 0.12096 1.5120001
0.28512001 0.12096 1.5120001
0.28800002 0.12096 1.5120001
0.29088002 0.12096 1.5120001
0.29376 0.12096 1.5120001
0.29664001 0.12096 1.5120001
0.30090669 0.12152001 1.5190001
0.30380002 0.12152001 1.5190001
0.30790478 0.122 1.5250001
0.30958667 0.12152001 1.5190001
0.3137143 0.122 1.5250001
0.31661907 0.122 1.5250001
0.31952381 0.122 1.5250001
0.32242858 0.122 1.5250001
0.32533336 0.122 1.5250001
0.3282381 0.122 1.5250001
0.33114287 0.122 1.5250001
0.33273333 0.12152001 1.5190001
0.33562669 0.12152001 1.5190001
0.33852002 0.12152001 1.5190001
0.34141335 0.12152001 1.5190001
0.34566668 0.122 1.5250001
0.34857145 0.122 1.5250001
0.35147619 0.122 1.5250001
0.35438097 0.122 1.5250001
0.35728574 0.122 1.5250001
0.36019048 0.122 1.5250001
0.36309525 0.122 1.5250001
0.36600003 0.122 1.5250001
0.36890477 0.122 1.5250001
0.37180954 0.122 1.5250001
0.37471429 0.122 1.5250001
0.37761906 0.122 1.5250001
0.38227049 0.12256 1.5320001
0.38518858 0.12256 1.5320001
0.38810667 0.12256 1.5320001
0.39102477 0.12256 1.5320001
0.39394286 0.12256 1.5320001
0.39686096 0.12256 1.5320001
0.39977905 0.12256 1.5320001
0.40269715 0.12256 1.5320001
0.40561524 0.12256 1.5320001
0.40853333 0.12256 1.5320001
0.41145143 0.12256 1.5320001
0.41436955 0.12256 1.5320001
0.41728765 0.12256 1.5320001
0.42020574 0.12256 1.5320001
0.42312384 0.12256 1.5320001
0.42604193 0.12256 1.5320001
0.42896003 0.12256 1.5320001
0.43187812 0.12256 1.5320001
0.43479621 0.12256 1.5320001
0.43771431 0.12256 1.5320001
0.44264573 0.12312 1.539
0.44557714 0.12312 1.539
0.44850859 0.12312 1.539
0.45144001 0.12312 1.539
0.45437145 0.12312 1.539
0.45938286 0.12368 1.5460001
0.46232763 0.12368 1.5460001
0.4652724 0.12368 1.5460001
0.46821716 0.12368 1.5460001
0.47116193 0.12368 1.5460001
0.47410667 0.12368 1.5460001
0.47705144 0.12368 1.5460001
0.48216954 0.12424 1.5530001
0.48512763 0.12424 1.5530001
0.48808575 0.12424 1.5530001
0.49104384 0.12424 1.5530001
0.49400192 0.12424 1.5530001
0.49696001 0.12424 1.5530001
0.4999181 0.12424 1.5530001
0.50287622 0.12424 1.5530001
0.50583428 0.12424 1.5530001
0.5087924 0.12424 1.5530001
0.51405716 0.1248 1.5600001
0.51702857 0.1248 1.5600001
0.52000004 0.1248 1.5600001
0.52297145 0.1248 1.5600001
0.52594286 0.1248 1.5600001
0.52891433 0.1248 1.5600001
0.53188574 0.1248 1.5600001
0.53485715 0.1248 1.5600001
0.53782856 0.1248 1.5600001
0.54080003 0.1248 1.5600001
0.54377145 0.1248 1.5600001
0.54674286 0.1248 1.5600001
0.54971433 0.1248 1.5600001
0.55268574 0.1248 1.5600001
0.55815047 0.12536001 1.567
0.56113523 0.12536001 1.567
0.56664002 0.12592 1.5740001
0.56963813 0.12592 1.5740001
0.57263619 0.12592 1.5740001
0.57819432 0.12648 1.5810001
0.58120573 0.12648 1.5810001
0.58421719 0.12648 1.5810001
0.5872286 0.12648 1.5810001
0.59024 0.12648 1.5810001
0.59325147 0.12648 1.5810001
0.59626287 0.12648 1.5810001
0.59927434 0.12648 1.5810001
0.60228574 0.12648 1.5810001
0.60529715 0.12648 1.5810001
0.60830861 0.12648 1.5810001
0.61132002 0.12648 1.5810001
0.61433142 0.12648 1.5810001
0.61734289 0.12648 1.5810001
0.62035429 0.12648 1.5810001
0.62336576 0.12648 1.5810001
0.6295467 0.12712 1.5890001
0.63257337 0.12712 1.5890001
0.63560003 0.12712 1.5890001
0.63862669 0.12712 1.5890001
0.64165336 0.12712 1.5890001
0.64468002 0.12712 1.5890001
0.64770669 0.12712 1.5890001
0.65073335 0.12712 1.5890001
0.65376002 0.12712 1.5890001
-0.51308382 0.22744954 2.7770002
-0.50779432 0.22744954 2.7770002
-0.49834287 0.22556572 2.7540002
-0.49309716 0.22556572 2.7540002
-0.48413146 0.22384572 2.733
-0.47139049 0.22032382 2.6900001
-0.45569336 0.21532762 2.6290002
-0.44382858 0.21205144 2.5890002
-0.43245524 0.20893906 2.5510001
-0.42139429 0.20590858 2.5140002
-0.41362289 0.20443429 2.4960001
-0.40297145 0.20148572 2.46
-0.39278096 0.19870096 2.4260001
-0.38544002 0.19730859 2.4090002
-0.37816381 0.19591619 2.3920002
-0.36345527 0.19059239 2.3270001
-0.35670859 0.18936382 2.312
-0.35001907 0.18813525 2.2970002
-0.34564382 0.18813525 2.2970002
-0.33889145 0.18682477 2.2810001
-0.33234668 0.1855962 2.266
-0.3280305 0.1855962 2.266
-0.32371429 0.1855962 2.266
-0.31742477 0.18444952 2.2520001
-0.31313524 0.18444952 2.2520001
-0.30884573 0.18444952 2.2520001
-0.30252764 0.18322095 2.237
-0.29640001 0.18207429 2.223
-0.29216573 0.18207429 2.223
-0.28598857 0.18084572 2.2080002
-0.27999619 0.17969905 2.194
-0.27581716 0.17969905 2.194
-0.27002859 0.17863429 2.181
-0.2658743 0.17863429 2.181
-0.26172 0.17863429 2.181
-0.25756574 0.17863429 2.181
-0.25341144 0.17863429 2.181
-0.24925715 0.17863429 2.181
-0.24510287 0.17863429 2.181
-0.24094859 0.17863429 2.181
-0.2352743 0.17748763 2.1670001
-0.23114668 0.17748763 2.1670001
-0.22701906 0.17748763 2.1670001
-0.22289144 0.17748763 2.1670001
-0.21876381 0.17748763 2.1670001
-0.21463619 0.17748763 2.1670001
-0.21050858 0.17748763 2.1670001
-0.20638096 0.17748763 2.1670001
-0.20225334 0.17748763 2.1670001
-0.19684573 0.17634095 2.1530001
-0.19274476 0.17634095 2.1530001
-0.11544 0.11818857 1.4430001
-0.11269143 0.11818857 1.4430001
-0.10948572 0.11769715 1.437
-0.10674857 0.11769715 1.437
-0.10357714 0.11720572 1.4310001
-0.10085143 0.11720572 1.4310001
-0.09771429 0.11671429 1.4250001
-0.094600007 0.11622286 1.419
-0.091897145 0.11622286 1.419
-0.08919429 0.11622286 1.419
-0.086491428 0.11622286 1.419
-0.083788574 0.11622286 1.419
-0.081085719 0.11622286 1.419
-0.078382857 0.11622286 1.419
-0.075680003 0.11622286 1.419
-0.072977148 0.11622286 1.419
-0.070274286 0.11622286 1.419
-0.067571431 0.11622286 1.419
-0.064868577 0.11622286 1.419
-0.062165715 0.11622286 1.419
-0.05946286 0.11622286 1.419
-0.057000004 0.11671429 1.4250001
-0.054285716 0.11671429 1.4250001
-0.051571429 0.11671429 1.4250001
-0.048857145 0.11671429 1.4250001
-0.046337146 0.11720572 1.4310001
-0.04361143 0.11720572 1.4310001
-0.040885717 0.11720572 1.4310001
-0.03816 0.11720572 1.4310001
-0.035434287 0.11720572 1.4310001
-0.032708574 0.11720572 1.4310001
-0.029857144 0.11671429 1.4250001
-0.027142858 0.11671429 1.4250001
-0.024428573 0.11671429 1.4250001
-0.021714287 0.11671429 1.4250001
-0.019000001 0.11671429 1.4250001
-0.016354287 0.11720572 1.4310001
-0.013628572 0.11720572 1.4310001
-0.010902857 0.11720572 1.4310001
-0.0081771435 0.11720572 1.4310001
-0.0054514287 0.11720572 1.4310001
-0.0027257144 0.11720572 1.4310001
0 0.11720572 1.4310001
0.0027257144 0.11720572 1.4310001
0.0054514287 0.11720572 1.4310001
0.0081771435 0.11720572 1.4310001
0.010902857 0.11720572 1.4310001
0.013628572 0.11720572 1.4310001
0.016422858 0.11769715 1.437
0.019160001 0.11769715 1.437
0.021897143 0.11769715 1.437
0.024634287 0.11769715 1.437
0.027371429 0.11769715 1.437
0.030108573 0.11769715 1.437
0.032845717 0.11769715 1.437
0.035582859 0.11769715 1.437
0.038320001 0.11769715 1.437
0.041057143 0.11769715 1.437
0.043794286 0.11769715 1.437
0.046531431 0.11769715 1.437
0.049474288 0.11818857 1.4430001
0.052222859 0.11818857 1.4430001
0.05497143 0.11818857 1.4430001
0.057720002 0.11818857 1.4430001
0.060468573 0.11818857 1.4430001
0.063217148 0.11818857 1.4430001
0.066240005 0.11868001 1.4490001
0.069000006 0.11868001 1.4490001
0.071760006 0.11868001 1.4490001
0.074519999 0.11868001 1.4490001
0.07728 0.11868001 1.4490001
0.08004 0.11868001 1.4490001
0.083142862 0.11917143 1.455
0.085914291 0.11917143 1.455
0.088685721 0.11917143 1.455
0.091457143 0.11917143 1.455
0.094228573 0.11917143 1.455
0.097000003 0.11917143 1.455
0.099771433 0.11917143 1.455
0.10254286 0.11917143 1.455
0.10531429 0.11917143 1.455
0.10808572 0.11917143 1.455
0.11085714 0.11917143 1.455
0.11362857 0.11917143 1.455
0.11688001 0.11966286 1.4610001
0.12015429 0.12015429 1.4670001
0.12294858 0.12015429 1.4670001
0.12574287 0.12015429 1.4670001
0.12853715 0.12015429 1.4670001
0.13133143 0.12015429 1.4670001
0.13412572 0.12015429 1.4670001
0.13692001 0.12015429 1.4670001
0.13971429 0.12015429 1.4670001
0.14250858 0.12015429 1.4670001
0.14530286 0.12015429 1.4670001
0.14809714 0.12015429 1.4670001
0.15150857 0.12064572 1.473
0.15431429 0.12064572 1.473
0.15786667 0.12121905 1.48
0.16068572 0.12121905 1.48
0.16350476 0.12121905 1.48
0.16632381 0.12121905 1.48
0.16914286 0.12121905 1.48
0.17196192 0.12121905 1.48
0.17478096 0.12121905 1.48
0.17760001 0.12121905 1.48
0.18041906 0.12121905 1.48
0.18398096 0.12171048 1.4860001
0.18681143 0.12171048 1.4860001
0.18964191 0.12171048 1.4860001
0.19247238 0.12171048 1.4860001
0.19530286 0.12171048 1.4860001
0.19813333 0.12171048 1.4860001
0.20096381 0.12171048 1.4860001
0.2037943 0.12171048 1.4860001
0.20662478 0.12171048 1.4860001
0.20945525 0.12171048 1.4860001
0.21228573 0.12171048 1.4860001
0.2151162 0.12171048 1.4860001
0.21794668 0.12171048 1.4860001
0.22166859 0.12220191 1.4920001
0.22451049 0.12220191 1.4920001
0.22841905 0.12277524 1.4990001
0.23127429 0.12277524 1.4990001
0.23412953 0.12277524 1.4990001
0.23698477 0.12277524 1.4990001
0.24096 0.12334858 1.506
0.24382858 0.12334858 1.506
0.24669716 0.12334858 1.506
0.24956572 0.12334858 1.506
0.25243428 0.12334858 1.506
0.25530288 0.12334858 1.506
0.25817144 0.12334858 1.506
0.26104 0.12334858 1.506
0.26390859 0.12334858 1.506
0.26677716 0.12334858 1.506
0.26964572 0.12334858 1.506
0.27251428 0.12334858 1.506
0.27538288 0.12334858 1.506
0.27825144 0.12334858 1.506
0.28112 0.12334858 1.506
0.28512001 0.12384 1.5120001
0.28800002 0.12384 1.5120001
0.29088002 0.12384 1.5120001
0.29376 0.12384 1.5120001
0.29664001 0.12384 1.5120001
0.30090669 0.12441334 1.5190001
0.30380002 0.12441334 1.5190001
0.30669335 0.12441334 1.5190001
0.30958667 0.12441334 1.5190001
0.31248 0.12441334 1.5190001
0.31537333 0.12441334 1.5190001
0.31826669 0.12441334 1.5190001
0.32116002 0.12441334 1.5190001
0.32405335 0.12441334 1.5190001
0.3282381 0.12490477 1.5250001
0.33114287 0.12490477 1.5250001
0.33273333 0.12441334 1.5190001
0.33562669 0.12441334 1.5190001
0.33852002 0.12441334 1.5190001
0.34141335 0.12441334 1.5190001
0.34566668 0.12490477 1.5250001
0.34857145 0.12490477 1.5250001
0.35147619 0.12490477 1.5250001
0.35438097 0.12490477 1.5250001
0.35728574 0.12490477 1.5250001
0.36019048 0.12490477 1.5250001
0.36309525 0.12490477 1.5250001
0.36600003 0.12490477 1.5250001
0.36890477 0.12490477 1.5250001
0.37180954 0.12490477 1.5250001
0.37471429 0.12490477 1.5250001
0.37935239 0.1254781 1.5320001
0.38227049 0.1254781 1.5320001
0.38518858 0.1254781 1.5320001
0.38810667 0.1254781 1.5320001
0.39102477 0.1254781 1.5320001
0.39394286 0.1254781 1.5320001
0.39686096 0.1254781 1.5320001
0.39977905 0.1254781 1.5320001
0.40269715 0.1254781 1.5320001
0.40561524 0.1254781 1.5320001
0.40853333 0.1254781 1.5320001
0.41145143 0.1254781 1.5320001
0.41436955 0.1254781 1.5320001
0.41728765 0.1254781 1.5320001
0.42020574 0.1254781 1.5320001
0.42312384 0.1254781 1.5320001
0.42604193 0.1254781 1.5320001
0.42896003 0.1254781 1.5320001
0.43187812 0.1254781 1.5320001
0.43479621 0.1254781 1.5320001
0.43771431 0.1254781 1.5320001
0.44264573 0.12605143 1.539
0.44557714 0.12605143 1.539
0.44850859 0.12605143 1.539
0.45144001 0.12605143 1.539
0.45643812 0.12662476 1.5460001
0.45938286 0.12662476 1.5460001
0.46232763 0.12662476 1.5460001
0.4652724 0.12662476 1.5460001
0.46821716 0.12662476 1.5460001
0.47116193 0.12662476 1.5460001
0.47410667 0.12662476 1.5460001
0.47921145 0.1271981 1.5530001
0.48216954 0.1271981 1.5530001
0.48512763 0.1271981 1.5530001
0.48808575 0.1271981 1.5530001
0.49104384 0.1271981 1.5530001
0.49400192 0.1271981 1.5530001
0.49696001 0.1271981 1.5530001
0.4999181 0.1271981 1.5530001
0.50287622 0.1271981 1.5530001
0.50583428 0.1271981 1.5530001
0.51108575 0.12777144 1.5600001
0.51405716 0.12777144 1.5600001
0.51702857 0.12777144 1.5600001
0.52000004 0.12777144 1.5600001
0.52297145 0.12777144 1.5600001
0.52594286 0.12777144 1.5600001
0.52891433 0.12777144 1.5600001
0.53188574 0.12777144 1.5600001
0.53485715 0.12777144 1.5600001
0.53782856 0.12777144 1.5600001
0.54080003 0.12777144 1.5600001
0.54377145 0.12777144 1.5600001
0.54674286 0.12777144 1.5600001
0.54971433 0.12777144 1.5600001
0.55268574 0.12777144 1.5600001
0.55815047 0.12834476 1.567
0.56113523 0.12834476 1.567
0.56664002 0.1289181 1.5740001
0.56963813 0.1289181 1.5740001
0.57263619 0.1289181 1.5740001
0.57819432 0.12949143 1.5810001
0.58120573 0.12949143 1.5810001
0.58421719 0.12949143 1.5810001
0.5872286 0.12949143 1.5810001
0.59024 0.12949143 1.5810001
0.59325147 0.12949143 1.5810001
0.59626287 0.12949143 1.5810001
0.59927434 0.12949143 1.5810001
0.60228574 0.12949143 1.5810001
0.60529715 0.12949143 1.5810001
0.60830861 0.12949143 1.5810001
0.61132002 0.12949143 1.5810001
0.61433142 0.12949143 1.5810001
0.61734289 0.12949143 1.5810001
0.62035429 0.12949143 1.5810001
0.62336576 0.12949143 1.5810001
0.6295467 0.13014667 1.5890001
0.63257337 0.13014667 1.5890001
0.63560003 0.13014667 1.5890001
0.63862669 0.13014667 1.5890001
0.64165336 0.13014667 1.5890001
0.64468002 0.13014667 1.5890001
0.64770669 0.13014667 1.5890001
0.65073335 0.13014667 1.5890001
-0.5088343 0.23081143 2.7540002
-0.50358862 0.23081143 2.7540002
-0.49834287 0.23081143 2.7540002
-0.48933715 0.22905144 2.733
-0.48413146 0.22905144 2.733
-0.47507051 0.22720763 2.7110002
-0.45569336 0.22033525 2.6290002
-0.44382858 0.21698287 2.5890002
-0.43567622 0.21539049 2.5700002
-0.42441145 0.21220572 2.5320001
-0.41362289 0.20918858 2.4960001
-0.40297145 0.20617144 2.46
-0.3900286 0.20189714 2.4090002
-0.38272002 0.20047238 2.3920002
-0.37041715 0.19636571 2.3430002
-0.36345527 0.19502477 2.3270001
-0.35670859 0.19376762 2.312
-0.34758097 0.19116953 2.2810001
-0.34323621 0.19116953 2.2810001
-0.33666286 0.18991239 2.266
-0.33029336 0.18873906 2.2520001
-0.32600382 0.18873906 2.2520001
-0.32171431 0.18873906 2.2520001
-0.31531048 0.18748191 2.237
-0.30910286 0.18630858 2.223
-0.30486858 0.18630858 2.223
-0.29860574 0.18505144 2.2080002
-0.29440001 0.18505144 2.2080002
-0.28835431 0.18387811 2.194
-0.28249145 0.18278858 2.181
-0.27655047 0.18161525 2.1670001
-0.27242288 0.18161525 2.1670001
-0.26829526 0.18161525 2.1670001
-0.26416764 0.18161525 2.1670001
-0.26004001 0.18161525 2.1670001
-0.25591239 0.18161525 2.1670001
-0.25178477 0.18161525 2.1670001
-0.24765715 0.18161525 2.1670001
-0.2419562 0.18044192 2.1530001
-0.23785524 0.18044192 2.1530001
-0.23375429 0.18044192 2.1530001
-0.22965334 0.18044192 2.1530001
-0.22555239 0.18044192 2.1530001
-0.22145143 0.18044192 2.1530001
-0.21735048 0.18044192 2.1530001
-0.21324953 0.18044192 2.1530001
-0.20914859 0.18044192 2.1530001
-0.20504762 0.18044192 2.1530001
-0.20094667 0.18044192 2.1530001
-0.19565715 0.17935239 2.1400001
-0.19158097 0.17935239 2.1400001
-0.11544 0.12093715 1.4430001
-0.11269143 0.12093715 1.4430001
-0.10948572 0.12043429 1.437
-0.10674857 0.12043429 1.437
-0.10357714 0.11993143 1.4310001
-0.10085143 0.11993143 1.4310001
-0.098125719 0.11993143 1.4310001
-0.095000006 0.11942858 1.4250001
-0.091897145 0.11892572 1.419
-0.08919429 0.11892572 1.419
-0.086491428 0.11892572 1.419
-0.083788574 0.11892572 1.419
-0.081085719 0.11892572 1.419
-0.078382857 0.11892572 1.419
-0.075680003 0.11892572 1.419
-0.072977148 0.11892572 1.419
-0.070274286 0.11892572 1.419
-0.067571431 0.11892572 1.419
-0.064868577 0.11892572 1.419
-0.062165715 0.11892572 1.419
-0.059714288 0.11942858 1.4250001
-0.057000004 0.11942858 1.4250001
-0.054285716 0.11942858 1.4250001
-0.051571429 0.11942858 1.4250001
-0.049062859 0.11993143 1.4310001
-0.046337146 0.11993143 1.4310001
-0.04361143 0.11993143 1.4310001
-0.040885717 0.11993143 1.4310001
-0.03816 0.11993143 1.4310001
-0.035434287 0.11993143 1.4310001
-0.032708574 0.11993143 1.4310001
-0.029857144 0.11942858 1.4250001
-0.027028572 0.11892572 1.419
-0.024325715 0.11892572 1.419
-0.021622857 0.11892572 1.419
-0.019000001 0.11942858 1.4250001
-0.016285716 0.11942858 1.4250001
-0.013571429 0.11942858 1.4250001
-0.010902857 0.11993143 1.4310001
-0.0081771435 0.11993143 1.4310001
-0.0054514287 0.11993143 1.4310001
-0.0027257144 0.11993143 1.4310001
0 0.11993143 1.4310001
0.0027257144 0.11993143 1.4310001
0.0054514287 0.11993143 1.4310001
0.0081771435 0.11993143 1.4310001
0.010902857 0.11993143 1.4310001
0.013685714 0.12043429 1.437
0.016422858 0.12043429 1.437
0.019160001 0.12043429 1.437
0.021897143 0.12043429 1.437
0.024634287 0.12043429 1.437
0.027371429 0.12043429 1.437
0.030108573 0.12043429 1.437
0.032845717 0.12043429 1.437
0.035582859 0.12043429 1.437
0.038320001 0.12043429 1.437
0.041057143 0.12043429 1.437
0.043977145 0.12093715 1.4430001
0.046725716 0.12093715 1.4430001
0.049474288 0.12093715 1.4430001
0.052222859 0.12093715 1.4430001
0.05497143 0.12093715 1.4430001
0.057720002 0.12093715 1.4430001
0.060468573 0.12093715 1.4430001
0.063217148 0.12093715 1.4430001
0.06596572 0.12093715 1.4430001
0.069000006 0.12144 1.4490001
0.071760006 0.12144 1.4490001
0.074519999 0.12144 1.4490001
0.077600002 0.12194286 1.455
0.080371432 0.12194286 1.455
0.083142862 0.12194286 1.455
0.085914291 0.12194286 1.455
0.088685721 0.12194286 1.455
0.091457143 0.12194286 1.455
0.094228573 0.12194286 1.455
0.097000003 0.12194286 1.455
0.099771433 0.12194286 1.455
0.10254286 0.12194286 1.455
0.10531429 0.12194286 1.455
0.10808572 0.12194286 1.455
0.11085714 0.12194286 1.455
0.11409715 0.12244572 1.4610001
0.11688001 0.12244572 1.4610001
0.12015429 0.12294858 1.4670001
0.12294858 0.12294858 1.4670001
0.12574287 0.12294858 1.4670001
0.12853715 0.12294858 1.4670001
0.13133143 0.12294858 1.4670001
0.13412572 0.12294858 1.4670001
0.13692001 0.12294858 1.4670001
0.13971429 0.12294858 1.4670001
0.14309144 0.12345143 1.473
0.14530286 0.12294858 1.4670001
0.14870286 0.12345143 1.473
0.15150857 0.12345143 1.473
0.15504763 0.1240381 1.48
0.15786667 0.1240381 1.48
0.16068572 0.1240381 1.48
0.16350476 0.1240381 1.48
0.16632381 0.1240381 1.48
0.16982858 0.12454095 1.4860001
0.17265905 0.12454095 1.4860001
0.17478096 0.1240381 1.48
0.17760001 0.1240381 1.48
0.18041906 0.1240381 1.48
0.18398096 0.12454095 1.4860001
0.18681143 0.12454095 1.4860001
0.18964191 0.12454095 1.4860001
0.19247238 0.12454095 1.4860001
0.19530286 0.12454095 1.4860001
0.19813333 0.12454095 1.4860001
0.20096381 0.12454095 1.4860001
0.2037943 0.12454095 1.4860001
0.20662478 0.12454095 1.4860001
0.20945525 0.12454095 1.4860001
0.21228573 0.12454095 1.4860001
0.2151162 0.12454095 1.4860001
0.21794668 0.12454095 1.4860001
0.22077715 0.12454095 1.4860001
0.22451049 0.12504381 1.4920001
0.22841905 0.12563048 1.4990001
0.23127429 0.12563048 1.4990001
0.23412953 0.12563048 1.4990001
0.23698477 0.12563048 1.4990001
0.23984002 0.12563048 1.4990001
0.24382858 0.12621714 1.506
0.24669716 0.12621714 1.506
0.24956572 0.12621714 1.506
0.25243428 0.12621714 1.506
0.25530288 0.12621714 1.506
0.25817144 0.12621714 1.506
0.26104 0.12621714 1.506
0.26390859 0.12621714 1.506
0.26677716 0.12621714 1.506
0.26964572 0.12621714 1.506
0.27251428 0.12621714 1.506
0.27538288 0.12621714 1.506
0.27825144 0.12621714 1.506
0.28224 0.12672001 1.5120001
0.28512001 0.12672001 1.5120001
0.28800002 0.12672001 1.5120001
0.29088002 0.12672001 1.5120001
0.29376 0.12672001 1.5120001
0.29801333 0.12730667 1.5190001
0.30090669 0.12730667 1.5190001
0.30380002 0.12730667 1.5190001
0.30669335 0.12730667 1.5190001
0.30958667 0.12730667 1.5190001
0.31248 0.12730667 1.5190001
0.31537333 0.12730667 1.5190001
0.31826669 0.12730667 1.5190001
0.32116002 0.12730667 1.5190001
0.32405335 0.12730667 1.5190001
0.3282381 0.12780952 1.5250001
0.33114287 0.12780952 1.5250001
0.33273333 0.12730667 1.5190001
0.33408001 0.12672001 1.5120001
0.33696002 0.12672001 1.5120001
0.34141335 0.12730667 1.5190001
0.34430668 0.12730667 1.5190001
0.34720001 0.12730667 1.5190001
0.35147619 0.12780952 1.5250001
0.35438097 0.12780952 1.5250001
0.35728574 0.12780952 1.5250001
0.36019048 0.12780952 1.5250001
0.36309525 0.12780952 1.5250001
0.36600003 0.12780952 1.5250001
0.36890477 0.12780952 1.5250001
0.37180954 0.12780952 1.5250001
0.37471429 0.12780952 1.5250001
0.37761906 0.12780952 1.5250001
0.38052383 0.12780952 1.5250001
0.38518858 0.1283962 1.5320001
0.38810667 0.1283962 1.5320001
0.39102477 0.1283962 1.5320001
0.39394286 0.1283962 1.5320001
0.39686096 0.1283962 1.5320001
0.39977905 0.1283962 1.5320001
0.40269715 0.1283962 1.5320001
0.40561524 0.1283962 1.5320001
0.40853333 0.1283962 1.5320001
0.41145143 0.1283962 1.5320001
0.41436955 0.1283962 1.5320001
0.41728765 0.1283962 1.5320001
0.42020574 0.1283962 1.5320001
0.42312384 0.1283962 1.5320001
0.42604193 0.1283962 1.5320001
0.42896003 0.1283962 1.5320001
0.43187812 0.1283962 1.5320001
0.43479621 0.1283962 1.5320001
0.43771431 0.1283962 1.5320001
0.4406324 0.1283962 1.5320001
0.44557714 0.12898286 1.539
0.44850859 0.12898286 1.539
0.45144001 0.12898286 1.539
0.45643812 0.12956953 1.5460001
0.45938286 0.12956953 1.5460001
0.46232763 0.12956953 1.5460001
0.4652724 0.12956953 1.5460001
0.47033715 0.13015619 1.5530001
0.47329524 0.13015619 1.5530001
0.47625336 0.13015619 1.5530001
0.47921145 0.13015619 1.5530001
0.48216954 0.13015619 1.5530001
0.48512763 0.13015619 1.5530001
0.48808575 0.13015619 1.5530001
0.49104384 0.13015619 1.5530001
0.49400192 0.13015619 1.5530001
0.49696001 0.13015619 1.5530001
0.4999181 0.13015619 1.5530001
0.50287622 0.13015619 1.5530001
0.50583428 0.13015619 1.5530001
0.5087924 0.13015619 1.5530001
0.51405716 0.13074286 1.5600001
0.51702857 0.13074286 1.5600001
0.52000004 0.13074286 1.5600001
0.52297145 0.13074286 1.5600001
0.52594286 0.13074286 1.5600001
0.52891433 0.13074286 1.5600001
0.53188574 0.13074286 1.5600001
0.53485715 0.13074286 1.5600001
0.53782856 0.13074286 1.5600001
0.54080003 0.13074286 1.5600001
0.54377145 0.13074286 1.5600001
0.54674286 0.13074286 1.5600001
0.54971433 0.13074286 1.5600001
0.55516571 0.13132952 1.567
0.55815047 0.13132952 1.567
0.56113523 0.13132952 1.567
0.56664002 0.1319162 1.5740001
0.56963813 0.1319162 1.5740001
0.57263619 0.1319162 1.5740001
0.57819432 0.13250287 1.5810001
0.58120573 0.13250287 1.5810001
0.58421719 0.13250287 1.5810001
0.5872286 0.13250287 1.5810001
0.59024 0.13250287 1.5810001
0.59325147 0.13250287 1.5810001
0.59626287 0.13250287 1.5810001
0.59927434 0.13250287 1.5810001
0.60228574 0.13250287 1.5810001
0.60529715 0.13250287 1.5810001
0.60830861 0.13250287 1.5810001
0.61132002 0.13250287 1.5810001
0.61433142 0.13250287 1.5810001
0.61734289 0.13250287 1.5810001
0.62035429 0.13250287 1.5810001
0.62652004 0.13317333 1.5890001
0.6295467 0.13317333 1.5890001
0.63257337 0.13317333 1.5890001
0.63560003 0.13317333 1.5890001
0.63862669 0.13317333 1.5890001
0.64165336 0.13317333 1.5890001
0.64468002 0.13317333 1.5890001
0.64770669 0.13317333 1.5890001
-0.51837337 0.23802859 2.7770002
-0.51308382 0.23802859 2.7770002
-0.50779432 0.23802859 2.7770002
-0.50250477 0.23802859 2.7770002
-0.49309716 0.23605715 2.7540002
-0.4802343 0.23237143 2.7110002
-0.47507051 0.23237143 2.7110002
-0.45569336 0.22534287 2.6290002
-0.44057146 0.22028573 2.5700002
-0.43245524 0.21865715 2.5510001
-0.42139429 0.21548572 2.5140002
-0.41064 0.2124 2.4780002
-0.40297145 0.21085715 2.46
-0.3900286 0.20648572 2.4090002
-0.38272002 0.20502858 2.3920002
-0.37041715 0.20082858 2.3430002
-0.36111239 0.19817144 2.312
-0.35439429 0.19688572 2.2970002
-0.34758097 0.19551429 2.2810001
-0.34323621 0.19551429 2.2810001
-0.33458287 0.19302858 2.2520001
-0.32604 0.19054286 2.223
-0.32383239 0.19174287 2.237
-0.31957144 0.19174287 2.237
-0.31333715 0.19054286 2.223
-0.3013162 0.18574287 2.1670001
-0.2952686 0.18454286 2.1530001
-0.29306096 0.18574287 2.1670001
-0.28706667 0.18454286 2.1530001
-0.28296572 0.18454286 2.1530001
-0.27886477 0.18454286 2.1530001
-0.27476382 0.18454286 2.1530001
-0.27066287 0.18454286 2.1530001
-0.26656193 0.18454286 2.1530001
-0.26416764 0.18574287 2.1670001
-0.25836 0.18454286 2.1530001
-0.25425905 0.18454286 2.1530001
-0.2501581 0.18454286 2.1530001
-0.24605715 0.18454286 2.1530001
-0.2390343 0.18231429 2.1270001
-0.23498286 0.18231429 2.1270001
-0.23093143 0.18231429 2.1270001
-0.22826667 0.18342859 2.1400001
-0.22282858 0.18231429 2.1270001
-0.21877715 0.18231429 2.1270001
-0.21472572 0.18231429 2.1270001
-0.21196191 0.18342859 2.1400001
-0.20788573 0.18342859 2.1400001
-0.20380953 0.18342859 2.1400001
-0.19973335 0.18342859 2.1400001
-0.19446857 0.18231429 2.1270001
-0.19041716 0.18231429 2.1270001
-0.11269143 0.12368572 1.4430001
-0.10994286 0.12368572 1.4430001
-0.10674857 0.12317143 1.437
-0.10401143 0.12317143 1.437
-0.10085143 0.12265715 1.4310001
-0.098125719 0.12265715 1.4310001
-0.095000006 0.12214286 1.4250001
-0.091897145 0.12162858 1.419
-0.08919429 0.12162858 1.419
-0.086491428 0.12162858 1.419
-0.083788574 0.12162858 1.419
-0.081085719 0.12162858 1.419
-0.078382857 0.12162858 1.419
-0.075680003 0.12162858 1.419
-0.072977148 0.12162858 1.419
-0.070274286 0.12162858 1.419
-0.067571431 0.12162858 1.419
-0.064868577 0.12162858 1.419
-0.062428575 0.12214286 1.4250001
-0.059714288 0.12214286 1.4250001
-0.057000004 0.12214286 1.4250001
-0.054285716 0.12214286 1.4250001
-0.051571429 0.12214286 1.4250001
-0.048857145 0.12214286 1.4250001
-0.046142858 0.12214286 1.4250001
-0.04361143 0.12265715 1.4310001
-0.040885717 0.12265715 1.4310001
-0.03816 0.12265715 1.4310001
-0.035434287 0.12265715 1.4310001
-0.032708574 0.12265715 1.4310001
-0.029857144 0.12214286 1.4250001
-0.027028572 0.12162858 1.419
-0.024428573 0.12214286 1.4250001
-0.021714287 0.12214286 1.4250001
-0.019000001 0.12214286 1.4250001
-0.016354287 0.12265715 1.4310001
-0.013628572 0.12265715 1.4310001
-0.010902857 0.12265715 1.4310001
-0.0081771435 0.12265715 1.4310001
-0.0054514287 0.12265715 1.4310001
-0.0027257144 0.12265715 1.4310001
0 0.12265715 1.4310001
0.0027257144 0.12265715 1.4310001
0.0054514287 0.12265715 1.4310001
0.0081771435 0.12265715 1.4310001
0.010902857 0.12265715 1.4310001
0.013685714 0.12317143 1.437
0.016422858 0.12317143 1.437
0.019160001 0.12317143 1.437
0.021897143 0.12317143 1.437
0.024634287 0.12317143 1.437
0.027371429 0.12317143 1.437
0.030108573 0.12317143 1.437
0.032845717 0.12317143 1.437
0.035582859 0.12317143 1.437
0.038320001 0.12317143 1.437
0.041057143 0.12317143 1.437
0.043977145 0.12368572 1.4430001
0.046725716 0.12368572 1.4430001
0.049474288 0.12368572 1.4430001
0.052222859 0.12368572 1.4430001
0.05497143 0.12368572 1.4430001
0.057960004 0.1242 1.4490001
0.06072 0.1242 1.4490001
0.063217148 0.12368572 1.4430001
0.066240005 0.1242 1.4490001
0.069000006 0.1242 1.4490001
0.071760006 0.1242 1.4490001
0.074519999 0.1242 1.4490001
0.077600002 0.12471429 1.455
0.080371432 0.12471429 1.455
0.083142862 0.12471429 1.455
0.085914291 0.12471429 1.455
0.088685721 0.12471429 1.455
0.091457143 0.12471429 1.455
0.094228573 0.12471429 1.455
0.097000003 0.12471429 1.455
0.099771433 0.12471429 1.455
0.10254286 0.12471429 1.455
0.10531429 0.12471429 1.455
0.10808572 0.12471429 1.455
0.11085714 0.12471429 1.455
0.11409715 0.12522857 1.4610001
0.11688001 0.12522857 1.4610001
0.12015429 0.12574287 1.4670001
0.12294858 0.12574287 1.4670001
0.12625715 0.12625715 1.473
0.12906286 0.12625715 1.473
0.13133143 0.12574287 1.4670001
0.13412572 0.12574287 1.4670001
0.13748001 0.12625715 1.473
0.14028572 0.12625715 1.473
0.14309144 0.12625715 1.473
0.14530286 0.12574287 1.4670001
0.14870286 0.12625715 1.473
0.15150857 0.12625715 1.473
0.15504763 0.12685715 1.48
0.15786667 0.12685715 1.48
0.16068572 0.12685715 1.48
0.16350476 0.12685715 1.48
0.1669981 0.12737143 1.4860001
0.16982858 0.12737143 1.4860001
0.17265905 0.12737143 1.4860001
0.17478096 0.12685715 1.48
0.17760001 0.12685715 1.48
0.18041906 0.12685715 1.48
0.18398096 0.12737143 1.4860001
0.18681143 0.12737143 1.4860001
0.18964191 0.12737143 1.4860001
0.19247238 0.12737143 1.4860001
0.19530286 0.12737143 1.4860001
0.19813333 0.12737143 1.4860001
0.20096381 0.12737143 1.4860001
0.2037943 0.12737143 1.4860001
0.20662478 0.12737143 1.4860001
0.20945525 0.12737143 1.4860001
0.21314287 0.12788571 1.4920001
0.21598478 0.12788571 1.4920001
0.21794668 0.12737143 1.4860001
0.22077715 0.12737143 1.4860001
0.22451049 0.12788571 1.4920001
0.2273524 0.12788571 1.4920001
0.23127429 0.12848572 1.4990001
0.23412953 0.12848572 1.4990001
0.23698477 0.12848572 1.4990001
0.23984002 0.12848572 1.4990001
0.24269524 0.12848572 1.4990001
0.24669716 0.12908572 1.506
0.24956572 0.12908572 1.506
0.25243428 0.12908572 1.506
0.25530288 0.12908572 1.506
0.25817144 0.12908572 1.506
0.26104 0.12908572 1.506
0.26390859 0.12908572 1.506
0.26677716 0.12908572 1.506
0.26964572 0.12908572 1.506
0.27251428 0.12908572 1.506
0.27538288 0.12908572 1.506
0.27825144 0.12908572 1.506
0.28112 0.12908572 1.506
0.28512001 0.1296 1.5120001
0.28800002 0.1296 1.5120001
0.29088002 0.1296 1.5120001
0.29376 0.1296 1.5120001
0.29801333 0.1302 1.5190001
0.30090669 0.1302 1.5190001
0.30380002 0.1302 1.5190001
0.30669335 0.1302 1.5190001
0.30958667 0.1302 1.5190001
0.31248 0.1302 1.5190001
0.31537333 0.1302 1.5190001
0.31826669 0.1302 1.5190001
0.32116002 0.1302 1.5190001
0.32405335 0.1302 1.5190001
0.32694668 0.1302 1.5190001
0.32984 0.1302 1.5190001
0.3312 0.1296 1.5120001
0.33408001 0.1296 1.5120001
0.33696002 0.1296 1.5120001
0.33984002 0.1296 1.5120001
0.34430668 0.1302 1.5190001
0.34720001 0.1302 1.5190001
0.35009333 0.1302 1.5190001
0.35438097 0.1307143 1.5250001
0.35728574 0.1307143 1.5250001
0.36019048 0.1307143 1.5250001
0.36309525 0.1307143 1.5250001
0.36600003 0.1307143 1.5250001
0.36890477 0.1307143 1.5250001
0.37180954 0.1307143 1.5250001
0.37471429 0.1307143 1.5250001
0.37761906 0.1307143 1.5250001
0.38052383 0.1307143 1.5250001
0.38518858 0.13131429 1.5320001
0.38633335 0.1307143 1.5250001
0.39102477 0.13131429 1.5320001
0.39214286 0.1307143 1.5250001
0.39686096 0.13131429 1.5320001
0.39977905 0.13131429 1.5320001
0.40085715 0.1307143 1.5250001
0.40561524 0.13131429 1.5320001
0.40853333 0.13131429 1.5320001
0.41145143 0.13131429 1.5320001
0.41436955 0.13131429 1.5320001
0.41728765 0.13131429 1.5320001
0.42020574 0.13131429 1.5320001
0.42312384 0.13131429 1.5320001
0.42604193 0.13131429 1.5320001
0.42896003 0.13131429 1.5320001
0.43187812 0.13131429 1.5320001
0.43479621 0.13131429 1.5320001
0.43771431 0.13131429 1.5320001
0.4406324 0.13131429 1.5320001
0.44557714 0.13191429 1.539
0.44850859 0.13191429 1.539
0.45144001 0.13191429 1.539
0.45643812 0.1325143 1.5460001
0.45938286 0.1325143 1.5460001
0.46232763 0.1325143 1.5460001
0.4652724 0.1325143 1.5460001
0.47033715 0.13311429 1.5530001
0.47116193 0.1325143 1.5460001
0.47410667 0.1325143 1.5460001
0.47921145 0.13311429 1.5530001
0.48216954 0.13311429 1.5530001
0.48512763 0.13311429 1.5530001
0.48808575 0.13311429 1.5530001
0.49104384 0.13311429 1.5530001
0.49400192 0.13311429 1.5530001
0.49696001 0.13311429 1.5530001
0.4999181 0.13311429 1.5530001
0.50287622 0.13311429 1.5530001
0.50583428 0.13311429 1.5530001
0.5087924 0.13311429 1.5530001
0.51405716 0.13371429 1.5600001
0.51702857 0.13371429 1.5600001
0.52000004 0.13371429 1.5600001
0.52297145 0.13371429 1.5600001
0.52594286 0.13371429 1.5600001
0.52891433 0.13371429 1.5600001
0.53188574 0.13371429 1.5600001
0.53485715 0.13371429 1.5600001
0.53782856 0.13371429 1.5600001
0.54322666 0.13431428 1.567
0.54621142 0.13431428 1.567
0.54919618 0.13431428 1.567
0.55218095 0.13431428 1.567
0.55516571 0.13431428 1.567
0.55815047 0.13431428 1.567
0.56364191 0.13491429 1.5740001
0.56664002 0.13491429 1.5740001
0.56963813 0.13491429 1.5740001
0.57263619 0.13491429 1.5740001
0.57819432 0.13551429 1.5810001
0.58120573 0.13551429 1.5810001
0.58421719 0.13551429 1.5810001
0.5872286 0.13551429 1.5810001
0.59024 0.13551429 1.5810001
0.59325147 0.13551429 1.5810001
0.59626287 0.13551429 1.5810001
0.59927434 0.13551429 1.5810001
0.60228574 0.13551429 1.5810001
0.60529715 0.13551429 1.5810001
0.60830861 0.13551429 1.5810001
0.61132002 0.13551429 1.5810001
0.61433142 0.13551429 1.5810001
0.61734289 0.13551429 1.5810001
0.62035429 0.13551429 1.5810001
0.62652004 0.13620001 1.5890001
0.6295467 0.13620001 1.5890001
0.63257337 0.13620001 1.5890001
0.63560003 0.13620001 1.5890001
0.63862669 0.13620001 1.5890001
0.64165336 0.13620001 1.5890001
0.64468002 0.13620001 1.5890001
0.64770669 0.13620001 1.5890001
-0.51837337 0.24331811 2.7770002
-0.51308382 0.24331811 2.7770002
-0.50779432 0.24331811 2.7770002
-0.50250477 0.24331811 2.7770002
-0.49721527 0.24331811 2.7770002
-0.4802343 0.23753525 2.7110002
-0.47139049 0.23569524 2.6900001
-0.44876 0.22684573 2.5890002
-0.4373143 0.2235162 2.5510001
-0.4292343 0.22185144 2.5320001
-0.42139429 0.2202743 2.5140002
-0.41064 0.21712001 2.4780002
-0.40297145 0.21554287 2.46
-0.3900286 0.21107429 2.4090002
-0.38272002 0.20958477 2.3920002
-0.36788765 0.20388953 2.3270001
-0.36111239 0.20257525 2.312
-0.35439429 0.20126095 2.2970002
-0.34758097 0.19985905 2.2810001
-0.34097907 0.19854477 2.266
-0.33235431 0.19600381 2.237
-0.32604 0.19477715 2.223
-0.31963429 0.19346286 2.2080002
-0.31542858 0.19346286 2.2080002
-0.30544382 0.18987048 2.1670001
-0.29936954 0.18864381 2.1530001
-0.29348573 0.18750477 2.1400001
-0.28940955 0.18750477 2.1400001
-0.28186667 0.18522668 2.1140001
-0.27613145 0.18408762 2.1010001
-0.27549714 0.18636572 2.1270001
-0.27310476 0.18750477 2.1400001
-0.26902857 0.18750477 2.1400001
-0.26495239 0.18750477 2.1400001
-0.26246098 0.18864381 2.1530001
-0.2568 0.18750477 2.1400001
-0.25272381 0.18750477 2.1400001
-0.2501581 0.18864381 2.1530001
-0.24457143 0.18750477 2.1400001
-0.2390343 0.18636572 2.1270001
-0.23498286 0.18636572 2.1270001
-0.23093143 0.18636572 2.1270001
-0.22688001 0.18636572 2.1270001
-0.22282858 0.18636572 2.1270001
-0.21744001 0.18522668 2.1140001
-0.21472572 0.18636572 2.1270001
-0.2106743 0.18636572 2.1270001
-0.20662287 0.18636572 2.1270001
-0.20257144 0.18636572 2.1270001
-0.19730668 0.18522668 2.1140001
-0.19328001 0.18522668 2.1140001
-0.18925335 0.18522668 2.1140001
-0.11316001 0.12696001 1.4490001
-0.10994286 0.1264343 1.4430001
-0.10674857 0.12590858 1.437
-0.10401143 0.12590858 1.437
-0.10085143 0.12538286 1.4310001
-0.098125719 0.12538286 1.4310001
-0.095000006 0.12485715 1.4250001
-0.091897145 0.12433143 1.419
-0.08919429 0.12433143 1.419
-0.086491428 0.12433143 1.419
-0.083788574 0.12433143 1.419
-0.081085719 0.12433143 1.419
-0.078382857 0.12433143 1.419
-0.075680003 0.12433143 1.419
-0.072977148 0.12433143 1.419
-0.070274286 0.12433143 1.419
-0.067571431 0.12433143 1.419
-0.065142862 0.12485715 1.4250001
-0.062428575 0.12485715 1.4250001
-0.059714288 0.12485715 1.4250001
-0.057000004 0.12485715 1.4250001
-0.054285716 0.12485715 1.4250001
-0.051571429 0.12485715 1.4250001
-0.048857145 0.12485715 1.4250001
-0.046337146 0.12538286 1.4310001
-0.04361143 0.12538286 1.4310001
-0.040885717 0.12538286 1.4310001
-0.03816 0.12538286 1.4310001
-0.035434287 0.12538286 1.4310001
-0.032708574 0.12538286 1.4310001
-0.029857144 0.12485715 1.4250001
-0.027142858 0.12485715 1.4250001
-0.024428573 0.12485715 1.4250001
-0.021714287 0.12485715 1.4250001
-0.019000001 0.12485715 1.4250001
-0.016354287 0.12538286 1.4310001
-0.013628572 0.12538286 1.4310001
-0.010902857 0.12538286 1.4310001
-0.0081771435 0.12538286 1.4310001
-0.0054514287 0.12538286 1.4310001
-0.0027257144 0.12538286 1.4310001
0 0.12538286 1.4310001
0.0027257144 0.12538286 1.4310001
0.0054514287 0.12538286 1.4310001
0.0081771435 0.12538286 1.4310001
0.010948571 0.12590858 1.437
0.013685714 0.12590858 1.437
0.016422858 0.12590858 1.437
0.019160001 0.12590858 1.437
0.021897143 0.12590858 1.437
0.024634287 0.12590858 1.437
0.027371429 0.12590858 1.437
0.030108573 0.12590858 1.437
0.032845717 0.12590858 1.437
0.035582859 0.12590858 1.437
0.038320001 0.12590858 1.437
0.041228574 0.1264343 1.4430001
0.043977145 0.1264343 1.4430001
0.046725716 0.1264343 1.4430001
0.049680002 0.12696001 1.4490001
0.052440003 0.12696001 1.4490001
0.055200003 0.12696001 1.4490001
0.057960004 0.12696001 1.4490001
0.06072 0.12696001 1.4490001
0.063480005 0.12696001 1.4490001
0.066240005 0.12696001 1.4490001
0.069000006 0.12696001 1.4490001
0.071760006 0.12696001 1.4490001
0.074519999 0.12696001 1.4490001
0.077600002 0.12748572 1.455
0.08004 0.12696001 1.4490001
0.083142862 0.12748572 1.455
0.085914291 0.12748572 1.455
0.088685721 0.12748572 1.455
0.091457143 0.12748572 1.455
0.094228573 0.12748572 1.455
0.097000003 0.12748572 1.455
0.099771433 0.12748572 1.455
0.10254286 0.12748572 1.455
0.10531429 0.12748572 1.455
0.10808572 0.12748572 1.455
0.11131429 0.12801144 1.4610001
0.11409715 0.12801144 1.4610001
0.11688001 0.12801144 1.4610001
0.12015429 0.12853715 1.4670001
0.12294858 0.12853715 1.4670001
0.12625715 0.12906286 1.473
0.12906286 0.12906286 1.473
0.13133143 0.12853715 1.4670001
0.13412572 0.12853715 1.4670001
0.13748001 0.12906286 1.473
0.14028572 0.12906286 1.473
0.14309144 0.12906286 1.473
0.14589715 0.12906286 1.473
0.14870286 0.12906286 1.473
0.15150857 0.12906286 1.473
0.15504763 0.12967619 1.48
0.15786667 0.12967619 1.48
0.16068572 0.12967619 1.48
0.16416763 0.13020191 1.4860001
0.1669981 0.13020191 1.4860001
0.16982858 0.13020191 1.4860001
0.17265905 0.13020191 1.4860001
0.17478096 0.12967619 1.48
0.17760001 0.12967619 1.48
0.18041906 0.12967619 1.48
0.18398096 0.13020191 1.4860001
0.18681143 0.13020191 1.4860001
0.18964191 0.13020191 1.4860001
0.19247238 0.13020191 1.4860001
0.19530286 0.13020191 1.4860001
0.19813333 0.13020191 1.4860001
0.20096381 0.13020191 1.4860001
0.2037943 0.13020191 1.4860001
0.20662478 0.13020191 1.4860001
0.20945525 0.13020191 1.4860001
0.21228573 0.13020191 1.4860001
0.2151162 0.13020191 1.4860001
0.21794668 0.13020191 1.4860001
0.22077715 0.13020191 1.4860001
0.22451049 0.13072762 1.4920001
0.2273524 0.13072762 1.4920001
0.23127429 0.13134095 1.4990001
0.23303621 0.13072762 1.4920001
0.23698477 0.13134095 1.4990001
0.23984002 0.13134095 1.4990001
0.24269524 0.13134095 1.4990001
0.24669716 0.1319543 1.506
0.24956572 0.1319543 1.506
0.25243428 0.1319543 1.506
0.25530288 0.1319543 1.506
0.25817144 0.1319543 1.506
0.26104 0.1319543 1.506
0.26390859 0.1319543 1.506
0.26677716 0.1319543 1.506
0.26964572 0.1319543 1.506
0.27251428 0.1319543 1.506
0.27538288 0.1319543 1.506
0.27936 0.13248001 1.5120001
0.28224 0.13248001 1.5120001
0.28512001 0.13248001 1.5120001
0.28800002 0.13248001 1.5120001
0.29088002 0.13248001 1.5120001
0.29376 0.13248001 1.5120001
0.29801333 0.13309334 1.5190001
0.30090669 0.13309334 1.5190001
0.30380002 0.13309334 1.5190001
0.30669335 0.13309334 1.5190001
0.30958667 0.13309334 1.5190001
0.31248 0.13309334 1.5190001
0.31537333 0.13309334 1.5190001
0.3168 0.13248001 1.5120001
0.31968001 0.13248001 1.5120001
0.32256001 0.13248001 1.5120001
0.32694668 0.13309334 1.5190001
0.32984 0.13309334 1.5190001
0.3312 0.13248001 1.5120001
0.33408001 0.13248001 1.5120001
0.33696002 0.13248001 1.5120001
0.34141335 0.13309334 1.5190001
0.34430668 0.13309334 1.5190001
0.34720001 0.13309334 1.5190001
0.35147619 0.13361906 1.5250001
0.35438097 0.13361906 1.5250001
0.35728574 0.13361906 1.5250001
0.36019048 0.13361906 1.5250001
0.36309525 0.13361906 1.5250001
0.36600003 0.13361906 1.5250001
0.36890477 0.13361906 1.5250001
0.37180954 0.13361906 1.5250001
0.37471429 0.13361906 1.5250001
0.37761906 0.13361906 1.5250001
0.38052383 0.13361906 1.5250001
0.38342857 0.13361906 1.5250001
0.38633335 0.13361906 1.5250001
0.38923812 0.13361906 1.5250001
0.39214286 0.13361906 1.5250001
0.39686096 0.13423239 1.5320001
0.39977905 0.13423239 1.5320001
0.40085715 0.13361906 1.5250001
0.40561524 0.13423239 1.5320001
0.40853333 0.13423239 1.5320001
0.41145143 0.13423239 1.5320001
0.41436955 0.13423239 1.5320001
0.41728765 0.13423239 1.5320001
0.42020574 0.13423239 1.5320001
0.42312384 0.13423239 1.5320001
0.42604193 0.13423239 1.5320001
0.42896003 0.13423239 1.5320001
0.43187812 0.13423239 1.5320001
0.43479621 0.13423239 1.5320001
0.43771431 0.13423239 1.5320001
0.4406324 0.13423239 1.5320001
0.44557714 0.13484572 1.539
0.44850859 0.13484572 1.539
0.45144001 0.13484572 1.539
0.45643812 0.13545905 1.5460001
0.45938286 0.13545905 1.5460001
0.46442097 0.13607238 1.5530001
0.4652724 0.13545905 1.5460001
0.47033715 0.13607238 1.5530001
0.47329524 0.13607238 1.5530001
0.47625336 0.13607238 1.5530001
0.47921145 0.13607238 1.5530001
0.48216954 0.13607238 1.5530001
0.48512763 0.13607238 1.5530001
0.48808575 0.13607238 1.5530001
0.49104384 0.13607238 1.5530001
0.49400192 0.13607238 1.5530001
0.49696001 0.13607238 1.5530001
0.4999181 0.13607238 1.5530001
0.50287622 0.13607238 1.5530001
0.50583428 0.13607238 1.5530001
0.5087924 0.13607238 1.5530001
0.51405716 0.13668571 1.5600001
0.51702857 0.13668571 1.5600001
0.52000004 0.13668571 1.5600001
0.52297145 0.13668571 1.5600001
0.52594286 0.13668571 1.5600001
0.52891433 0.13668571 1.5600001
0.53188574 0.13668571 1.5600001
0.53485715 0.13668571 1.5600001
0.5402419 0.13729905 1.567
0.54322666 0.13729905 1.567
0.54621142 0.13729905 1.567
0.54919618 0.13729905 1.567
0.55218095 0.13729905 1.567
0.55516571 0.13729905 1.567
0.56064385 0.13791239 1.5740001
0.56364191 0.13791239 1.5740001
0.56664002 0.13791239 1.5740001
0.57217145 0.13852572 1.5810001
0.57518286 0.13852572 1.5810001
0.57819432 0.13852572 1.5810001
0.58120573 0.13852572 1.5810001
0.58421719 0.13852572 1.5810001
0.5872286 0.13852572 1.5810001
0.59024 0.13852572 1.5810001
0.59325147 0.13852572 1.5810001
0.59626287 0.13852572 1.5810001
0.59927434 0.13852572 1.5810001
0.60228574 0.13852572 1.5810001
0.60529715 0.13852572 1.5810001
0.60830861 0.13852572 1.5810001
0.61132002 0.13852572 1.5810001
0.61433142 0.13852572 1.5810001
0.62046671 0.13922668 1.5890001
0.62349337 0.13922668 1.5890001
0.62652004 0.13922668 1.5890001
0.6295467 0.13922668 1.5890001
0.63257337 0.13922668 1.5890001
0.63560003 0.13922668 1.5890001
0.63862669 0.13922668 1.5890001
0.64165336 0.13922668 1.5890001
0.64468002 0.13922668 1.5890001
0.64770669 0.13922668 1.5890001
-0.50779432 0.24860764 2.7770002
-0.50250477 0.24860764 2.7770002
-0.47429717 0.23714858 2.6490002
-0.46925145 0.23714858 2.6490002
-0.45719621 0.23356763 2.6090002
-0.4454667 0.23007619 2.5700002
-0.4373143 0.22837524 2.5510001
-0.4292343 0.22667429 2.5320001
-0.42139429 0.22506286 2.5140002
-0.41362289 0.22345144 2.4960001
-0.40297145 0.22022858 2.46
-0.3900286 0.21566287 2.4090002
-0.38272002 0.21414097 2.3920002
-0.37041715 0.20975429 2.3430002
-0.35876954 0.2056362 2.2970002
-0.35192573 0.20420381 2.2810001
-0.34529525 0.20286097 2.266
-0.33661526 0.20026477 2.237
-0.33027428 0.19901143 2.223
-0.32384002 0.19766858 2.2080002
-0.31760764 0.19641525 2.194
-0.31342858 0.19641525 2.194
-0.30741715 0.19525144 2.181
-0.3013162 0.1939981 2.1670001
-0.2952686 0.19274476 2.1530001
-0.28940955 0.19158097 2.1400001
-0.28013334 0.18808953 2.1010001
-0.27954859 0.19041716 2.1270001
-0.27381334 0.18925335 2.1140001
-0.26978669 0.18925335 2.1140001
-0.2673943 0.19041716 2.1270001
-0.26334286 0.19041716 2.1270001
-0.26087621 0.19158097 2.1400001
-0.25524002 0.19041716 2.1270001
-0.25118858 0.19041716 2.1270001
-0.24864763 0.19158097 2.1400001
-0.24308573 0.19041716 2.1270001
-0.23757334 0.18925335 2.1140001
-0.23354667 0.18925335 2.1140001
-0.22952001 0.18925335 2.1140001
-0.22549334 0.18925335 2.1140001
-0.22146668 0.18925335 2.1140001
-0.21744001 0.18925335 2.1140001
-0.21341334 0.18925335 2.1140001
-0.20938668 0.18925335 2.1140001
-0.20536001 0.18925335 2.1140001
-0.20009525 0.18808953 2.1010001
-0.19609334 0.18808953 2.1010001
-0.19209144 0.18808953 2.1010001
-0.18808953 0.18808953 2.1010001
-0.11269143 0.12918286 1.4430001
-0.10994286 0.12918286 1.4430001
-0.10674857 0.12864572 1.437
-0.10401143 0.12864572 1.437
-0.10127429 0.12864572 1.437
-0.098125719 0.12810858 1.4310001
-0.095000006 0.12757143 1.4250001
-0.092285715 0.12757143 1.4250001
-0.08919429 0.12703429 1.419
-0.086491428 0.12703429 1.419
-0.083788574 0.12703429 1.419
-0.081085719 0.12703429 1.419
-0.078382857 0.12703429 1.419
-0.076000005 0.12757143 1.4250001
-0.072977148 0.12703429 1.419
-0.07057143 0.12757143 1.4250001
-0.067857146 0.12757143 1.4250001
-0.065142862 0.12757143 1.4250001
-0.062428575 0.12757143 1.4250001
-0.059714288 0.12757143 1.4250001
-0.057000004 0.12757143 1.4250001
-0.054285716 0.12757143 1.4250001
-0.051571429 0.12757143 1.4250001
-0.048857145 0.12757143 1.4250001
-0.046337146 0.12810858 1.4310001
-0.04361143 0.12810858 1.4310001
-0.040885717 0.12810858 1.4310001
-0.03816 0.12810858 1.4310001
-0.035434287 0.12810858 1.4310001
-0.032708574 0.12810858 1.4310001
-0.029857144 0.12757143 1.4250001
-0.027142858 0.12757143 1.4250001
-0.024428573 0.12757143 1.4250001
-0.021714287 0.12757143 1.4250001
-0.019000001 0.12757143 1.4250001
-0.016354287 0.12810858 1.4310001
-0.013628572 0.12810858 1.4310001
-0.010902857 0.12810858 1.4310001
-0.0081771435 0.12810858 1.4310001
-0.0054514287 0.12810858 1.4310001
-0.0027257144 0.12810858 1.4310001
0 0.12810858 1.4310001
0.0027257144 0.12810858 1.4310001
0.0054514287 0.12810858 1.4310001
0.0081771435 0.12810858 1.4310001
0.010948571 0.12864572 1.437
0.013685714 0.12864572 1.437
0.016422858 0.12864572 1.437
0.019160001 0.12864572 1.437
0.021897143 0.12864572 1.437
0.024634287 0.12864572 1.437
0.027371429 0.12864572 1.437
0.030108573 0.12864572 1.437
0.03298286 0.12918286 1.4430001
0.035582859 0.12864572 1.437
0.038320001 0.12864572 1.437
0.041228574 0.12918286 1.4430001
0.043977145 0.12918286 1.4430001
0.046725716 0.12918286 1.4430001
0.049680002 0.12972 1.4490001
0.052440003 0.12972 1.4490001
0.055200003 0.12972 1.4490001
0.057960004 0.12972 1.4490001
0.06072 0.12972 1.4490001
0.063480005 0.12972 1.4490001
0.066240005 0.12972 1.4490001
0.069000006 0.12972 1.4490001
0.071760006 0.12972 1.4490001
0.074828573 0.13025714 1.455
0.077600002 0.13025714 1.455
0.080371432 0.13025714 1.455
0.083142862 0.13025714 1.455
0.085914291 0.13025714 1.455
0.088685721 0.13025714 1.455
0.091457143 0.13025714 1.455
0.094228573 0.13025714 1.455
0.097000003 0.13025714 1.455
0.099771433 0.13025714 1.455
0.10254286 0.13025714 1.455
0.10531429 0.13025714 1.455
0.10808572 0.13025714 1.455
0.11131429 0.13079429 1.4610001
0.11409715 0.13079429 1.4610001
0.11688001 0.13079429 1.4610001
0.12015429 0.13133143 1.4670001
0.12294858 0.13133143 1.4670001
0.12625715 0.13186857 1.473
0.12906286 0.13186857 1.473
0.13186857 0.13186857 1.473
0.1346743 0.13186857 1.473
0.13748001 0.13186857 1.473
0.14028572 0.13186857 1.473
0.14309144 0.13186857 1.473
0.14589715 0.13186857 1.473
0.14870286 0.13186857 1.473
0.15222858 0.13249524 1.48
0.15504763 0.13249524 1.48
0.15850668 0.13303238 1.4860001
0.16133715 0.13303238 1.4860001
0.16416763 0.13303238 1.4860001
0.1669981 0.13303238 1.4860001
0.16982858 0.13303238 1.4860001
0.17265905 0.13303238 1.4860001
0.17478096 0.13249524 1.48
0.17760001 0.13249524 1.48
0.18041906 0.13249524 1.48
0.18398096 0.13303238 1.4860001
0.18681143 0.13303238 1.4860001
0.18964191 0.13303238 1.4860001
0.19247238 0.13303238 1.4860001
0.19530286 0.13303238 1.4860001
0.19813333 0.13303238 1.4860001
0.20096381 0.13303238 1.4860001
0.2037943 0.13303238 1.4860001
0.20662478 0.13303238 1.4860001
0.20945525 0.13303238 1.4860001
0.21228573 0.13303238 1.4860001
0.2151162 0.13303238 1.4860001
0.21794668 0.13303238 1.4860001
0.22077715 0.13303238 1.4860001
0.22451049 0.13356952 1.4920001
0.2273524 0.13356952 1.4920001
0.23127429 0.13419619 1.4990001
