# .PCD v0.7 - Point Cloud Data file format
VERSION 0.7
FIELDS x y z
SIZE 4 4 4
TYPE F F F
COUNT 1 1 1
WIDTH 1484
HEIGHT 1
VIEWPOINT 0 0 0 1 0 0 0
POINTS 1484
DATA ascii
-0.2940343 -0.036754288 3.2160001
-0.28790858 -0.036754288 3.2160001
-0.28178287 -0.036754288 3.2160001
-0.27308571 -0.036411431 3.1860001
-0.26701716 -0.036411431 3.1860001
-0.26094857 -0.036411431 3.1860001
-0.25488001 -0.036411431 3.1860001
-0.24881144 -0.036411431 3.1860001
-0.24274287 -0.036411431 3.1860001
-0.23667429 -0.036411431 3.1860001
-0.23060572 -0.036411431 3.1860001
-0.22453715 -0.036411431 3.1860001
-0.21846858 -0.036411431 3.1860001
-0.2124 -0.036411431 3.1860001
-0.20633143 -0.036411431 3.1860001
-0.20026286 -0.036411431 3.1860001
-0.19419429 -0.036411431 3.1860001
-0.18812571 -0.036411431 3.1860001
-0.18205714 -0.036411431 3.1860001
-0.17598858 -0.036411431 3.1860001
-0.16992001 -0.036411431 3.1860001
-0.16385144 -0.036411431 3.1860001
-0.15778287 -0.036411431 3.1860001
-0.1517143 -0.036411431 3.1860001
-0.14564572 -0.036411431 3.1860001
-0.13957715 -0.036411431 3.1860001
-0.13350858 -0.036411431 3.1860001
-0.12744001 -0.036411431 3.1860001
-0.12137143 -0.036411431 3.1860001
-0.11530286 -0.036411431 3.1860001
-0.10923429 -0.036411431 3.1860001
-0.10316572 -0.036411431 3.1860001
-0.097097144 -0.036411431 3.1860001
-0.091028571 -0.036411431 3.1860001
-0.084960006 -0.036411431 3.1860001
-0.078891434 -0.036411431 3.1860001
-0.072822861 -0.036411431 3.1860001
-0.066754289 -0.036411431 3.1860001
-0.060685717 -0.036411431 3.1860001
-0.054617144 -0.036411431 3.1860001
-0.048548572 -0.036411431 3.1860001
-0.042480003 -0.036411431 3.1860001
-0.036080003 -0.036080003 3.1570001
-0.030066667 -0.036080003 3.1570001
-0.024053333 -0.036080003 3.1570001
-0.018040001 -0.036080003 3.1570001
-0.012026667 -0.036080003 3.1570001
-0.0060133333 -0.036080003 3.1570001
0 -0.036080003 3.1570001
0.0060133333 -0.036080003 3.1570001
0.012026667 -0.036080003 3.1570001
0.018040001 -0.036080003 3.1570001
0.024053333 -0.036080003 3.1570001
0.030066667 -0.036080003 3.1570001
0.036080003 -0.036080003 3.1570001
0.042093337 -0.036080003 3.1570001
0.048106667 -0.036080003 3.1570001
0.05412 -0.036080003 3.1570001
0.059600003 -0.03576 3.1290002
0.065560006 -0.03576 3.1290002
0.071520001 -0.03576 3.1290002
0.077480003 -0.03576 3.1290002
0.083440006 -0.03576 3.1290002
0.089400001 -0.03576 3.1290002
0.096213333 -0.036080003 3.1570001
0.10222667 -0.036080003 3.1570001
0.10824 -0.036080003 3.1570001
0.11324 -0.03576 3.1290002
0.11920001 -0.03576 3.1290002
0.12516001 -0.03576 3.1290002
0.13112001 -0.03576 3.1290002
0.13708 -0.03576 3.1290002
0.14432001 -0.036080003 3.1570001
0.15033334 -0.036080003 3.1570001
0.15634668 -0.036080003 3.1570001
0.16236001 -0.036080003 3.1570001
0.16837335 -0.036080003 3.1570001
0.17438668 -0.036080003 3.1570001
0.18040001 -0.036080003 3.1570001
0.18476 -0.03576 3.1290002
0.19072001 -0.03576 3.1290002
0.19668001 -0.03576 3.1290002
0.20264001 -0.03576 3.1290002
0.20860001 -0.03576 3.1290002
0.21456 -0.03576 3.1290002
0.22052 -0.03576 3.1290002
0.22648001 -0.03576 3.1290002
0.23244001 -0.03576 3.1290002
0.23626667 -0.035440002 3.1010001
0.23170859 -0.033908572 2.9670002
0.22760001 -0.032514285 2.845
0.22744954 -0.031737145 2.7770002
0.23273906 -0.031737145 2.7770002
0.23605715 -0.031474289 2.7540002
0.23753525 -0.030982858 2.7110002
0.24081905 -0.030742858 2.6900001
0.24402286 -0.030502858 2.6690001
0.24724001 -0.030274287 2.6490002
0.25038096 -0.030045716 2.6290002
0.25538859 -0.030045716 2.6290002
0.25841525 -0.029817143 2.6090002
0.2349162 -0.026594287 2.3270001
0.23934858 -0.026594287 2.3270001
0.23896192 -0.026068572 2.2810001
0.23861334 -0.025565716 2.237
0.2413543 -0.025405716 2.223
0.24238478 -0.025074286 2.194
0.2419562 -0.024605716 2.1530001
0.24457143 -0.024457144 2.1400001
0.24562667 -0.024160001 2.1140001
0.2481181 -0.024011429 2.1010001
0.25212002 -0.024011429 2.1010001
0.2561219 -0.024011429 2.1010001
0.23573335 -0.02176 1.904
0.23936 -0.02176 1.904
0.24298668 -0.02176 1.904
0.24661334 -0.02176 1.904
0.24892573 -0.021645715 1.8940001
0.25253335 -0.021645715 1.8940001
0.23910096 -0.020205716 1.7680001
0.24246858 -0.020205716 1.7680001
0.2458362 -0.020205716 1.7680001
0.24666667 -0.020000001 1.7500001
0.2487143 -0.019897144 1.7410001
0.24826668 -0.0196 1.715
0.24786668 -0.019314287 1.6900001
0.24974859 -0.01921143 1.6810001
0.25174668 -0.01912 1.6730001
0.25371429 -0.019028572 1.6650001
0.25441715 -0.018845715 1.649
0.25521526 -0.018674286 1.6340001
0.25706285 -0.018582858 1.626
0.25776002 -0.01841143 1.6110001
0.25953335 -0.01832 1.603
0.26144001 -0.018240001 1.5960001
0.26448002 -0.018240001 1.5960001
0.26634666 -0.01816 1.5890001
0.26801714 -0.018068573 1.5810001
0.26982859 -0.017988572 1.5740001
0.27161333 -0.017908571 1.567
0.27337143 -0.017828573 1.5600001
0.27634287 -0.017828573 1.5600001
0.27806097 -0.017748572 1.5530001
0.2797524 -0.017668571 1.5460001
0.28141716 -0.017588573 1.539
0.28434858 -0.017588573 1.539
0.28728002 -0.017588573 1.539
0.29021144 -0.017588573 1.539
0.29180953 -0.017508572 1.5320001
0.29338098 -0.017428571 1.5250001
0.29512 -0.01736 1.5190001
0.29801333 -0.01736 1.5190001
0.30090669 -0.01736 1.5190001
0.30240002 -0.017280001 1.5120001
0.3040686 -0.01721143 1.506
0.30693716 -0.01721143 1.506
0.30980572 -0.01721143 1.506
0.31267428 -0.01721143 1.506
0.31407622 -0.017131429 1.4990001
0.31693143 -0.017131429 1.4990001
0.31978667 -0.017131429 1.4990001
0.32264191 -0.017131429 1.4990001
0.32549715 -0.017131429 1.4990001
0.32835239 -0.017131429 1.4990001
0.33120763 -0.017131429 1.4990001
0.33406287 -0.017131429 1.4990001
0.33691812 -0.017131429 1.4990001
0.33977336 -0.017131429 1.4990001
0.3426286 -0.017131429 1.4990001
0.34548381 -0.017131429 1.4990001
0.34833905 -0.017131429 1.4990001
0.35119429 -0.017131429 1.4990001
0.35404953 -0.017131429 1.4990001
0.35523811 -0.017051429 1.4920001
0.35808 -0.017051429 1.4920001
0.36092192 -0.017051429 1.4920001
0.36376381 -0.017051429 1.4920001
0.36832574 -0.017131429 1.4990001
0.37118095 -0.017131429 1.4990001
0.37403619 -0.017131429 1.4990001
0.37689143 -0.017131429 1.4990001
0.37974668 -0.017131429 1.4990001
0.38260192 -0.017131429 1.4990001
0.38545716 -0.017131429 1.4990001
0.3883124 -0.017131429 1.4990001
0.39116764 -0.017131429 1.4990001
0.39218286 -0.017051429 1.4920001
0.39502478 -0.017051429 1.4920001
0.3978667 -0.017051429 1.4920001
0.40070859 -0.017051429 1.4920001
0.40355051 -0.017051429 1.4920001
0.4047581 -0.016982857 1.4860001
0.4075886 -0.016982857 1.4860001
0.41041908 -0.016982857 1.4860001
0.41324955 -0.016982857 1.4860001
0.41776001 -0.017051429 1.4920001
0.42060193 -0.017051429 1.4920001
0.42344382 -0.017051429 1.4920001
0.42628574 -0.017051429 1.4920001
0.42912763 -0.017051429 1.4920001
0.4339962 -0.017131429 1.4990001
0.43481144 -0.017051429 1.4920001
0.43765336 -0.017051429 1.4920001
0.44256192 -0.017131429 1.4990001
0.44541717 -0.017131429 1.4990001
0.44827241 -0.017131429 1.4990001
0.45112765 -0.017131429 1.4990001
0.45398286 -0.017131429 1.4990001
0.4568381 -0.017131429 1.4990001
0.45969334 -0.017131429 1.4990001
0.46254858 -0.017131429 1.4990001
0.46540383 -0.017131429 1.4990001
0.46825907 -0.017131429 1.4990001
-0.30914286 -0.030914286 3.2460001
-0.30296001 -0.030914286 3.2460001
-0.2940343 -0.030628573 3.2160001
-0.28790858 -0.030628573 3.2160001
-0.28178287 -0.030628573 3.2160001
-0.27565715 -0.030628573 3.2160001
-0.26701716 -0.030342858 3.1860001
-0.26094857 -0.030342858 3.1860001
-0.25488001 -0.030342858 3.1860001
-0.24881144 -0.030342858 3.1860001
-0.24274287 -0.030342858 3.1860001
-0.23667429 -0.030342858 3.1860001
-0.23060572 -0.030342858 3.1860001
-0.22453715 -0.030342858 3.1860001
-0.21846858 -0.030342858 3.1860001
-0.2124 -0.030342858 3.1860001
-0.20633143 -0.030342858 3.1860001
-0.20026286 -0.030342858 3.1860001
-0.19419429 -0.030342858 3.1860001
-0.18812571 -0.030342858 3.1860001
-0.18205714 -0.030342858 3.1860001
-0.17598858 -0.030342858 3.1860001
-0.16992001 -0.030342858 3.1860001
-0.16385144 -0.030342858 3.1860001
-0.15778287 -0.030342858 3.1860001
-0.1517143 -0.030342858 3.1860001
-0.14564572 -0.030342858 3.1860001
-0.13957715 -0.030342858 3.1860001
-0.13350858 -0.030342858 3.1860001
-0.12744001 -0.030342858 3.1860001
-0.12137143 -0.030342858 3.1860001
-0.11530286 -0.030342858 3.1860001
-0.10923429 -0.030342858 3.1860001
-0.10316572 -0.030342858 3.1860001
-0.097097144 -0.030342858 3.1860001
-0.091028571 -0.030342858 3.1860001
-0.084960006 -0.030342858 3.1860001
-0.078891434 -0.030342858 3.1860001
-0.072822861 -0.030342858 3.1860001
-0.066754289 -0.030342858 3.1860001
-0.060685717 -0.030342858 3.1860001
-0.054617144 -0.030342858 3.1860001
-0.048548572 -0.030342858 3.1860001
-0.042480003 -0.030342858 3.1860001
-0.036080003 -0.030066667 3.1570001
-0.030066667 -0.030066667 3.1570001
-0.024053333 -0.030066667 3.1570001
-0.01788 -0.029800002 3.1290002
-0.01192 -0.029800002 3.1290002
-0.0059600002 -0.029800002 3.1290002
0 -0.029800002 3.1290002
0.0059600002 -0.029800002 3.1290002
0.01192 -0.029800002 3.1290002
0.01788 -0.029800002 3.1290002
0.024053333 -0.030066667 3.1570001
0.030066667 -0.030066667 3.1570001
0.036080003 -0.030066667 3.1570001
0.042093337 -0.030066667 3.1570001
0.047680002 -0.029800002 3.1290002
0.053640001 -0.029800002 3.1290002
0.059600003 -0.029800002 3.1290002
0.065560006 -0.029800002 3.1290002
0.071520001 -0.029800002 3.1290002
0.077480003 -0.029800002 3.1290002
0.083440006 -0.029800002 3.1290002
0.089400001 -0.029800002 3.1290002
0.096213333 -0.030066667 3.1570001
0.10132001 -0.029800002 3.1290002
0.10728 -0.029800002 3.1290002
0.11324 -0.029800002 3.1290002
0.11920001 -0.029800002 3.1290002
0.12516001 -0.029800002 3.1290002
0.13112001 -0.029800002 3.1290002
0.13708 -0.029800002 3.1290002
0.14304 -0.029800002 3.1290002
0.15033334 -0.030066667 3.1570001
0.15634668 -0.030066667 3.1570001
0.16236001 -0.030066667 3.1570001
0.16837335 -0.030066667 3.1570001
0.17438668 -0.030066667 3.1570001
0.18040001 -0.030066667 3.1570001
0.18476 -0.029800002 3.1290002
0.19072001 -0.029800002 3.1290002
0.19668001 -0.029800002 3.1290002
0.20264001 -0.029800002 3.1290002
0.20860001 -0.029800002 3.1290002
0.21456 -0.029800002 3.1290002
0.22052 -0.029800002 3.1290002
0.22648001 -0.029800002 3.1290002
0.23244001 -0.029800002 3.1290002
0.22605716 -0.028257145 2.9670002
0.23170859 -0.028257145 2.9670002
0.22760001 -0.02709524 2.845
0.22925144 -0.026657144 2.799
0.23273906 -0.02644762 2.7770002
0.23425715 -0.026028572 2.733
0.23569524 -0.025619049 2.6900001
0.23893906 -0.025419049 2.6690001
0.24402286 -0.025419049 2.6690001
0.24724001 -0.025228573 2.6490002
0.25228572 -0.025228573 2.6490002
0.25538859 -0.025038097 2.6290002
0.25841525 -0.024847619 2.6090002
0.23340191 -0.022019049 2.312
0.23780572 -0.022019049 2.312
0.23739049 -0.021580953 2.266
0.23712 -0.02117143 2.223
0.23972572 -0.021028573 2.2080002
0.23940191 -0.020638095 2.1670001
0.2419562 -0.020504763 2.1530001
0.24457143 -0.020380953 2.1400001
0.24562667 -0.020133333 2.1140001
0.2481181 -0.020009525 2.1010001
0.25212002 -0.020009525 2.1010001
0.2561219 -0.020009525 2.1010001
0.23573335 -0.018133335 1.904
0.23936 -0.018133335 1.904
0.24298668 -0.018133335 1.904
0.2453181 -0.018038096 1.8940001
0.24892573 -0.018038096 1.8940001
0.25253335 -0.018038096 1.8940001
0.23910096 -0.016838096 1.7680001
0.24246858 -0.016838096 1.7680001
0.24458477 -0.016752381 1.7590001
0.24666667 -0.016666668 1.7500001
0.24742858 -0.016495239 1.7320001
0.24942477 -0.016409524 1.723
0.24786668 -0.016095238 1.6900001
0.24974859 -0.016009524 1.6810001
0.25054288 -0.015857143 1.6650001
0.25249526 -0.015780954 1.6570001
0.25441715 -0.015704762 1.649
0.25396574 -0.015485715 1.626
0.25342667 -0.015266667 1.603
0.25648001 -0.015266667 1.603
0.25840002 -0.0152 1.5960001
0.26144001 -0.0152 1.5960001
0.26332 -0.015133334 1.5890001
0.26634666 -0.015133334 1.5890001
0.26801714 -0.015057144 1.5810001
0.26982859 -0.014990477 1.5740001
0.27161333 -0.01492381 1.567
0.27337143 -0.014857143 1.5600001
0.27634287 -0.014857143 1.5600001
0.27806097 -0.014790476 1.5530001
0.2797524 -0.01472381 1.5460001
0.28141716 -0.014657144 1.539
0.28434858 -0.014657144 1.539
0.28597334 -0.014590477 1.5320001
0.28889143 -0.014590477 1.5320001
0.29180953 -0.014590477 1.5320001
0.29338098 -0.01452381 1.5250001
0.29512 -0.014466668 1.5190001
0.29801333 -0.014466668 1.5190001
0.30090669 -0.014466668 1.5190001
0.30240002 -0.014400001 1.5120001
0.3040686 -0.014342858 1.506
0.30693716 -0.014342858 1.506
0.30980572 -0.014342858 1.506
0.31267428 -0.014342858 1.506
0.31407622 -0.014276191 1.4990001
0.31693143 -0.014276191 1.4990001
0.31978667 -0.014276191 1.4990001
0.32264191 -0.014276191 1.4990001
0.32549715 -0.014276191 1.4990001
0.32835239 -0.014276191 1.4990001
0.33120763 -0.014276191 1.4990001
0.33406287 -0.014276191 1.4990001
0.33691812 -0.014276191 1.4990001
0.33977336 -0.014276191 1.4990001
0.3426286 -0.014276191 1.4990001
0.34548381 -0.014276191 1.4990001
0.34833905 -0.014276191 1.4990001
0.35119429 -0.014276191 1.4990001
0.35404953 -0.014276191 1.4990001
0.35690477 -0.014276191 1.4990001
0.35976002 -0.014276191 1.4990001
0.36261526 -0.014276191 1.4990001
0.3654705 -0.014276191 1.4990001
0.36832574 -0.014276191 1.4990001
0.37118095 -0.014276191 1.4990001
0.37403619 -0.014276191 1.4990001
0.37689143 -0.014276191 1.4990001
0.37974668 -0.014276191 1.4990001
0.38260192 -0.014276191 1.4990001
0.38545716 -0.014276191 1.4990001
0.3883124 -0.014276191 1.4990001
0.39116764 -0.014276191 1.4990001
0.39218286 -0.014209525 1.4920001
0.39502478 -0.014209525 1.4920001
0.39626667 -0.014152382 1.4860001
0.40070859 -0.014209525 1.4920001
0.40355051 -0.014209525 1.4920001
0.4063924 -0.014209525 1.4920001
0.4075886 -0.014152382 1.4860001
0.41041908 -0.014152382 1.4860001
0.41324955 -0.014152382 1.4860001
0.41776001 -0.014209525 1.4920001
0.42060193 -0.014209525 1.4920001
0.42344382 -0.014209525 1.4920001
0.42628574 -0.014209525 1.4920001
0.43114096 -0.014276191 1.4990001
0.4339962 -0.014276191 1.4990001
0.43685144 -0.014276191 1.4990001
0.43970668 -0.014276191 1.4990001
0.44256192 -0.014276191 1.4990001
0.44541717 -0.014276191 1.4990001
0.44827241 -0.014276191 1.4990001
0.44902098 -0.014209525 1.4920001
0.45398286 -0.014276191 1.4990001
0.4568381 -0.014276191 1.4990001
0.45969334 -0.014276191 1.4990001
0.46254858 -0.014276191 1.4990001
0.46540383 -0.014276191 1.4990001
0.46825907 -0.014276191 1.4990001
-0.30914286 -0.024731429 3.2460001
-0.30296001 -0.024731429 3.2460001
-0.2940343 -0.024502859 3.2160001
-0.28790858 -0.024502859 3.2160001
-0.28178287 -0.024502859 3.2160001
-0.27565715 -0.024502859 3.2160001
-0.26953143 -0.024502859 3.2160001
-0.26094857 -0.024274286 3.1860001
-0.25488001 -0.024274286 3.1860001
-0.24881144 -0.024274286 3.1860001
-0.24274287 -0.024274286 3.1860001
-0.23667429 -0.024274286 3.1860001
-0.23060572 -0.024274286 3.1860001
-0.22453715 -0.024274286 3.1860001
-0.21846858 -0.024274286 3.1860001
-0.21440001 -0.024502859 3.2160001
-0.20633143 -0.024274286 3.1860001
-0.20026286 -0.024274286 3.1860001
-0.19419429 -0.024274286 3.1860001
-0.18812571 -0.024274286 3.1860001
-0.18205714 -0.024274286 3.1860001
-0.17598858 -0.024274286 3.1860001
-0.16992001 -0.024274286 3.1860001
-0.16385144 -0.024274286 3.1860001
-0.15778287 -0.024274286 3.1860001
-0.1517143 -0.024274286 3.1860001
-0.14564572 -0.024274286 3.1860001
-0.13957715 -0.024274286 3.1860001
-0.13350858 -0.024274286 3.1860001
-0.12744001 -0.024274286 3.1860001
-0.12137143 -0.024274286 3.1860001
-0.11530286 -0.024274286 3.1860001
-0.10923429 -0.024274286 3.1860001
-0.10316572 -0.024274286 3.1860001
-0.097097144 -0.024274286 3.1860001
-0.091028571 -0.024274286 3.1860001
-0.084960006 -0.024274286 3.1860001
-0.078891434 -0.024274286 3.1860001
-0.072822861 -0.024274286 3.1860001
-0.066754289 -0.024274286 3.1860001
-0.060685717 -0.024274286 3.1860001
-0.054617144 -0.024274286 3.1860001
-0.048548572 -0.024274286 3.1860001
-0.042480003 -0.024274286 3.1860001
-0.036080003 -0.024053333 3.1570001
-0.030066667 -0.024053333 3.1570001
-0.024053333 -0.024053333 3.1570001
-0.018040001 -0.024053333 3.1570001
-0.01192 -0.023840001 3.1290002
-0.0059600002 -0.023840001 3.1290002
0 -0.023840001 3.1290002
0.0059600002 -0.023840001 3.1290002
0.01192 -0.023840001 3.1290002
0.01788 -0.023840001 3.1290002
0.024053333 -0.024053333 3.1570001
0.030066667 -0.024053333 3.1570001
0.036080003 -0.024053333 3.1570001
0.042093337 -0.024053333 3.1570001
0.048106667 -0.024053333 3.1570001
0.053640001 -0.023840001 3.1290002
0.059600003 -0.023840001 3.1290002
0.065560006 -0.023840001 3.1290002
0.071520001 -0.023840001 3.1290002
0.077480003 -0.023840001 3.1290002
0.083440006 -0.023840001 3.1290002
0.090200007 -0.024053333 3.1570001
0.096213333 -0.024053333 3.1570001
0.10222667 -0.024053333 3.1570001
0.10824 -0.024053333 3.1570001
0.11324 -0.023840001 3.1290002
0.11920001 -0.023840001 3.1290002
0.12516001 -0.023840001 3.1290002
0.13112001 -0.023840001 3.1290002
0.13708 -0.023840001 3.1290002
0.14304 -0.023840001 3.1290002
0.15033334 -0.024053333 3.1570001
0.15634668 -0.024053333 3.1570001
0.16236001 -0.024053333 3.1570001
0.16837335 -0.024053333 3.1570001
0.17438668 -0.024053333 3.1570001
0.18040001 -0.024053333 3.1570001
0.18476 -0.023840001 3.1290002
0.19072001 -0.023840001 3.1290002
0.19668001 -0.023840001 3.1290002
0.20264001 -0.023840001 3.1290002
0.21046667 -0.024053333 3.1570001
0.21456 -0.023840001 3.1290002
0.22052 -0.023840001 3.1290002
0.22648001 -0.023840001 3.1290002
0.23244001 -0.023840001 3.1290002
0.21676192 -0.021676192 2.845
0.22218096 -0.021676192 2.845
0.22576001 -0.021500953 2.822
0.22925144 -0.021325715 2.799
0.23273906 -0.021158095 2.7770002
0.23425715 -0.020822858 2.733
0.23569524 -0.02049524 2.6900001
0.24081905 -0.02049524 2.6900001
0.24402286 -0.020335238 2.6690001
0.24724001 -0.020182857 2.6490002
0.25228572 -0.020182857 2.6490002
0.25733143 -0.020182857 2.6490002
0.23048382 -0.017729525 2.3270001
0.23340191 -0.017615238 2.312
0.23626287 -0.017500954 2.2970002
0.23739049 -0.017264763 2.266
0.23402667 -0.016716192 2.194
0.2352743 -0.016510477 2.1670001
0.23785524 -0.016403811 2.1530001
0.24049525 -0.016304763 2.1400001
0.24308573 -0.016205715 2.1270001
0.24562667 -0.016106667 2.1140001
0.2481181 -0.016007619 2.1010001
0.25212002 -0.016007619 2.1010001
0.2561219 -0.016007619 2.1010001
0.23573335 -0.014506667 1.904
0.23936 -0.014506667 1.904
0.24298668 -0.014506667 1.904
0.2453181 -0.014430476 1.8940001
0.24892573 -0.014430476 1.8940001
0.23813334 -0.013607619 1.7860001
0.23910096 -0.013470476 1.7680001
0.24246858 -0.013470476 1.7680001
0.24458477 -0.013401905 1.7590001
0.24666667 -0.013333334 1.7500001
0.24742858 -0.013196191 1.7320001
0.24826668 -0.013066667 1.715
0.24654667 -0.01280762 1.6810001
0.24856001 -0.012746667 1.6730001
0.24933906 -0.012624762 1.6570001
0.2512762 -0.01256381 1.649
0.25318286 -0.012502857 1.641
0.25396574 -0.012388572 1.626
0.25342667 -0.012213334 1.603
0.25648001 -0.012213334 1.603
0.25840002 -0.01216 1.5960001
0.26029333 -0.012106667 1.5890001
0.26332 -0.012106667 1.5890001
0.26634666 -0.012106667 1.5890001
0.26801714 -0.012045715 1.5810001
0.26982859 -0.011992381 1.5740001
0.27161333 -0.011939048 1.567
0.27337143 -0.011885715 1.5600001
0.27510285 -0.011832382 1.5530001
0.27680764 -0.011779048 1.5460001
0.2797524 -0.011779048 1.5460001
0.28141716 -0.011725714 1.539
0.28434858 -0.011725714 1.539
0.28597334 -0.011672381 1.5320001
0.28889143 -0.011672381 1.5320001
0.29180953 -0.011672381 1.5320001
0.29338098 -0.011619048 1.5250001
0.29512 -0.011573334 1.5190001
0.29801333 -0.011573334 1.5190001
0.30090669 -0.011573334 1.5190001
0.30240002 -0.01152 1.5120001
0.3040686 -0.011474286 1.506
0.30693716 -0.011474286 1.506
0.30980572 -0.011474286 1.506
0.31267428 -0.011474286 1.506
0.31407622 -0.011420953 1.4990001
0.31693143 -0.011420953 1.4990001
0.31978667 -0.011420953 1.4990001
0.32264191 -0.011420953 1.4990001
0.32549715 -0.011420953 1.4990001
0.32835239 -0.011420953 1.4990001
0.33120763 -0.011420953 1.4990001
0.33406287 -0.011420953 1.4990001
0.33691812 -0.011420953 1.4990001
0.33977336 -0.011420953 1.4990001
0.3426286 -0.011420953 1.4990001
0.34548381 -0.011420953 1.4990001
0.34833905 -0.011420953 1.4990001
0.35119429 -0.011420953 1.4990001
0.35404953 -0.011420953 1.4990001
0.35690477 -0.011420953 1.4990001
0.35976002 -0.011420953 1.4990001
0.36261526 -0.011420953 1.4990001
0.3654705 -0.011420953 1.4990001
0.36832574 -0.011420953 1.4990001
0.37118095 -0.011420953 1.4990001
0.37403619 -0.011420953 1.4990001
0.37689143 -0.011420953 1.4990001
0.37974668 -0.011420953 1.4990001
0.38260192 -0.011420953 1.4990001
0.38545716 -0.011420953 1.4990001
0.3883124 -0.011420953 1.4990001
0.39116764 -0.011420953 1.4990001
0.39218286 -0.011367619 1.4920001
0.39502478 -0.011367619 1.4920001
0.3978667 -0.011367619 1.4920001
0.40070859 -0.011367619 1.4920001
0.40355051 -0.011367619 1.4920001
0.4063924 -0.011367619 1.4920001
0.4075886 -0.011321905 1.4860001
0.41041908 -0.011321905 1.4860001
0.41324955 -0.011321905 1.4860001
0.41776001 -0.011367619 1.4920001
0.42060193 -0.011367619 1.4920001
0.42344382 -0.011367619 1.4920001
0.42828572 -0.011420953 1.4990001
0.43114096 -0.011420953 1.4990001
0.4339962 -0.011420953 1.4990001
0.43685144 -0.011420953 1.4990001
0.43970668 -0.011420953 1.4990001
0.44256192 -0.011420953 1.4990001
0.44541717 -0.011420953 1.4990001
0.44827241 -0.011420953 1.4990001
0.45112765 -0.011420953 1.4990001
0.45398286 -0.011420953 1.4990001
0.4568381 -0.011420953 1.4990001
0.45969334 -0.011420953 1.4990001
0.4603886 -0.011367619 1.4920001
0.46323049 -0.011367619 1.4920001
0.46607241 -0.011367619 1.4920001
-0.30628574 -0.018377144 3.2160001
-0.30016002 -0.018377144 3.2160001
-0.2940343 -0.018377144 3.2160001
-0.28790858 -0.018377144 3.2160001
-0.28178287 -0.018377144 3.2160001
-0.27565715 -0.018377144 3.2160001
-0.26953143 -0.018377144 3.2160001
-0.26094857 -0.018205715 3.1860001
-0.25488001 -0.018205715 3.1860001
-0.24881144 -0.018205715 3.1860001
-0.24274287 -0.018205715 3.1860001
-0.23890287 -0.018377144 3.2160001
-0.23060572 -0.018205715 3.1860001
-0.22453715 -0.018205715 3.1860001
-0.21846858 -0.018205715 3.1860001
-0.21440001 -0.018377144 3.2160001
-0.20827429 -0.018377144 3.2160001
-0.20214857 -0.018377144 3.2160001
-0.19419429 -0.018205715 3.1860001
-0.18812571 -0.018205715 3.1860001
-0.18205714 -0.018205715 3.1860001
-0.17598858 -0.018205715 3.1860001
-0.16992001 -0.018205715 3.1860001
-0.16385144 -0.018205715 3.1860001
-0.15778287 -0.018205715 3.1860001
-0.1517143 -0.018205715 3.1860001
-0.14564572 -0.018205715 3.1860001
-0.13957715 -0.018205715 3.1860001
-0.13350858 -0.018205715 3.1860001
-0.12744001 -0.018205715 3.1860001
-0.12137143 -0.018205715 3.1860001
-0.11530286 -0.018205715 3.1860001
-0.10923429 -0.018205715 3.1860001
-0.10316572 -0.018205715 3.1860001
-0.097097144 -0.018205715 3.1860001
-0.091028571 -0.018205715 3.1860001
-0.084960006 -0.018205715 3.1860001
-0.078891434 -0.018205715 3.1860001
-0.072822861 -0.018205715 3.1860001
-0.066754289 -0.018205715 3.1860001
-0.060685717 -0.018205715 3.1860001
-0.054617144 -0.018205715 3.1860001
-0.048548572 -0.018205715 3.1860001
-0.042480003 -0.018205715 3.1860001
-0.036080003 -0.018040001 3.1570001
-0.030066667 -0.018040001 3.1570001
-0.024053333 -0.018040001 3.1570001
-0.018040001 -0.018040001 3.1570001
-0.01192 -0.01788 3.1290002
-0.0059600002 -0.01788 3.1290002
0 -0.01788 3.1290002
0.0059600002 -0.01788 3.1290002
0.01192 -0.01788 3.1290002
0.01788 -0.01788 3.1290002
0.024053333 -0.018040001 3.1570001
0.030066667 -0.018040001 3.1570001
0.036080003 -0.018040001 3.1570001
0.042093337 -0.018040001 3.1570001
0.048106667 -0.018040001 3.1570001
0.05412 -0.018040001 3.1570001
0.060133334 -0.018040001 3.1570001
0.066146672 -0.018040001 3.1570001
0.072160006 -0.018040001 3.1570001
0.077480003 -0.01788 3.1290002
0.083440006 -0.01788 3.1290002
0.089400001 -0.01788 3.1290002
0.096213333 -0.018040001 3.1570001
0.10222667 -0.018040001 3.1570001
0.10728 -0.01788 3.1290002
0.11324 -0.01788 3.1290002
0.11920001 -0.01788 3.1290002
0.12516001 -0.01788 3.1290002
0.13112001 -0.01788 3.1290002
0.13708 -0.01788 3.1290002
0.14304 -0.01788 3.1290002
0.15033334 -0.018040001 3.1570001
0.15634668 -0.018040001 3.1570001
0.16236001 -0.018040001 3.1570001
0.16837335 -0.018040001 3.1570001
0.17438668 -0.018040001 3.1570001
0.18040001 -0.018040001 3.1570001
0.18476 -0.01788 3.1290002
0.19072001 -0.01788 3.1290002
0.19668001 -0.01788 3.1290002
0.20264001 -0.01788 3.1290002
0.20860001 -0.01788 3.1290002
0.21456 -0.01788 3.1290002
0.22052 -0.01788 3.1290002
0.22445334 -0.017720001 3.1010001
0.23036 -0.017720001 3.1010001
0.21676192 -0.016257143 2.845
0.22218096 -0.016257143 2.845
0.22392 -0.015994286 2.799
0.22744954 -0.015868573 2.7770002
0.23081143 -0.015737144 2.7540002
0.23425715 -0.015617143 2.733
0.23569524 -0.015371429 2.6900001
0.23893906 -0.015251429 2.6690001
0.24402286 -0.015251429 2.6690001
0.24910668 -0.015251429 2.6690001
0.25419047 -0.015251429 2.6690001
0.22605143 -0.013297143 2.3270001
0.23048382 -0.013297143 2.3270001
0.23340191 -0.013211429 2.312
0.23626287 -0.013125715 2.2970002
0.23288572 -0.012702858 2.223
0.23402667 -0.012537143 2.194
0.2352743 -0.012382858 2.1670001
0.23785524 -0.012302858 2.1530001
0.24049525 -0.012228572 2.1400001
0.24308573 -0.012154286 2.1270001
0.24562667 -0.012080001 2.1140001
0.2481181 -0.012005715 2.1010001
0.25212002 -0.012005715 2.1010001
0.2561219 -0.012005715 2.1010001
0.23573335 -0.01088 1.904
0.23810287 -0.010822858 1.8940001
0.24171048 -0.010822858 1.8940001
0.2453181 -0.010822858 1.8940001
0.24892573 -0.010822858 1.8940001
0.23813334 -0.010205715 1.7860001
0.23910096 -0.010102858 1.7680001
0.24246858 -0.010102858 1.7680001
0.24458477 -0.010051429 1.7590001
0.24666667 -0.010000001 1.7500001
0.24614286 -0.009845715 1.723
0.24580573 -0.0097028576 1.6980001
0.24537334 -0.0095600002 1.6730001
0.24737144 -0.0095142862 1.6650001
0.24813525 -0.0094228573 1.649
0.25005716 -0.0093771433 1.641
0.25210285 -0.009337143 1.6340001
0.25396574 -0.0092914291 1.626
0.25342667 -0.0091599999 1.603
0.25536001 -0.0091200005 1.5960001
0.25840002 -0.0091200005 1.5960001
0.26029333 -0.0090800002 1.5890001
0.26332 -0.0090800002 1.5890001
0.26500574 -0.0090342863 1.5810001
0.26801714 -0.0090342863 1.5810001
0.26982859 -0.0089942859 1.5740001
0.27161333 -0.0089542856 1.567
0.27337143 -0.0089142863 1.5600001
0.27510285 -0.008874286 1.5530001
0.27680764 -0.0088342857 1.5460001
0.27848572 -0.0087942863 1.539
0.28141716 -0.0087942863 1.539
0.28305525 -0.008754286 1.5320001
0.28597334 -0.008754286 1.5320001
0.28889143 -0.008754286 1.5320001
0.29180953 -0.008754286 1.5320001
0.29222667 -0.00868 1.5190001
0.29512 -0.00868 1.5190001
0.29801333 -0.00868 1.5190001
0.30090669 -0.00868 1.5190001
0.30240002 -0.0086400006 1.5120001
0.3040686 -0.0086057149 1.506
0.30693716 -0.0086057149 1.506
0.30980572 -0.0086057149 1.506
0.31267428 -0.0086057149 1.506
0.31554288 -0.0086057149 1.506
0.31693143 -0.0085657146 1.4990001
0.31978667 -0.0085657146 1.4990001
0.32264191 -0.0085657146 1.4990001
0.32549715 -0.0085657146 1.4990001
0.32835239 -0.0085657146 1.4990001
0.33120763 -0.0085657146 1.4990001
0.33406287 -0.0085657146 1.4990001
0.33691812 -0.0085657146 1.4990001
0.33977336 -0.0085657146 1.4990001
0.3426286 -0.0085657146 1.4990001
0.34548381 -0.0085657146 1.4990001
0.34833905 -0.0085657146 1.4990001
0.35119429 -0.0085657146 1.4990001
0.35404953 -0.0085657146 1.4990001
0.35690477 -0.0085657146 1.4990001
0.35976002 -0.0085657146 1.4990001
0.36261526 -0.0085657146 1.4990001
0.3654705 -0.0085657146 1.4990001
0.36832574 -0.0085657146 1.4990001
0.37118095 -0.0085657146 1.4990001
0.37403619 -0.0085657146 1.4990001
0.37689143 -0.0085657146 1.4990001
0.37974668 -0.0085657146 1.4990001
0.38260192 -0.0085657146 1.4990001
0.38545716 -0.0085657146 1.4990001
0.3883124 -0.0085657146 1.4990001
0.39116764 -0.0085657146 1.4990001
0.39218286 -0.0085257143 1.4920001
0.39502478 -0.0085257143 1.4920001
0.3978667 -0.0085257143 1.4920001
0.40070859 -0.0085257143 1.4920001
0.40355051 -0.0085257143 1.4920001
0.4063924 -0.0085257143 1.4920001
0.40923432 -0.0085257143 1.4920001
0.41041908 -0.0084914286 1.4860001
0.41491812 -0.0085257143 1.4920001
0.41776001 -0.0085257143 1.4920001
0.42060193 -0.0085257143 1.4920001
0.42344382 -0.0085257143 1.4920001
0.42828572 -0.0085657146 1.4990001
0.43114096 -0.0085657146 1.4990001
0.4339962 -0.0085657146 1.4990001
0.43685144 -0.0085657146 1.4990001
0.43970668 -0.0085657146 1.4990001
0.44256192 -0.0085657146 1.4990001
0.44541717 -0.0085657146 1.4990001
0.44827241 -0.0085657146 1.4990001
0.45112765 -0.0085657146 1.4990001
0.45398286 -0.0085657146 1.4990001
0.4568381 -0.0085657146 1.4990001
0.45969334 -0.0085657146 1.4990001
0.46254858 -0.0085657146 1.4990001
0.46540383 -0.0085657146 1.4990001
0.46825907 -0.0085657146 1.4990001
-0.29736 -0.012137143 3.1860001
-0.2940343 -0.012251429 3.2160001
-0.28790858 -0.012251429 3.2160001
-0.28178287 -0.012251429 3.2160001
-0.27308571 -0.012137143 3.1860001
-0.26701716 -0.012137143 3.1860001
-0.26094857 -0.012137143 3.1860001
-0.25488001 -0.012137143 3.1860001
-0.24881144 -0.012137143 3.1860001
-0.24274287 -0.012137143 3.1860001
-0.23890287 -0.012251429 3.2160001
-0.23277715 -0.012251429 3.2160001
-0.22665143 -0.012251429 3.2160001
-0.22052573 -0.012251429 3.2160001
-0.21440001 -0.012251429 3.2160001
-0.20827429 -0.012251429 3.2160001
-0.20214857 -0.012251429 3.2160001
-0.19419429 -0.012137143 3.1860001
-0.18812571 -0.012137143 3.1860001
-0.18205714 -0.012137143 3.1860001
-0.17598858 -0.012137143 3.1860001
-0.16992001 -0.012137143 3.1860001
-0.16385144 -0.012137143 3.1860001
-0.15778287 -0.012137143 3.1860001
-0.1517143 -0.012137143 3.1860001
-0.14564572 -0.012137143 3.1860001
-0.13957715 -0.012137143 3.1860001
-0.13350858 -0.012137143 3.1860001
-0.12744001 -0.012137143 3.1860001
-0.12137143 -0.012137143 3.1860001
-0.11530286 -0.012137143 3.1860001
-0.10923429 -0.012137143 3.1860001
-0.10316572 -0.012137143 3.1860001
-0.097097144 -0.012137143 3.1860001
-0.091028571 -0.012137143 3.1860001
-0.085760005 -0.012251429 3.2160001
-0.078891434 -0.012137143 3.1860001
-0.072822861 -0.012137143 3.1860001
-0.066754289 -0.012137143 3.1860001
-0.060685717 -0.012137143 3.1860001
-0.054617144 -0.012137143 3.1860001
-0.048548572 -0.012137143 3.1860001
-0.042480003 -0.012137143 3.1860001
-0.036080003 -0.012026667 3.1570001
-0.030066667 -0.012026667 3.1570001
-0.024053333 -0.012026667 3.1570001
-0.018040001 -0.012026667 3.1570001
-0.01192 -0.01192 3.1290002
-0.0059600002 -0.01192 3.1290002
0 -0.012026667 3.1570001
0.0059600002 -0.01192 3.1290002
0.01192 -0.01192 3.1290002
0.018040001 -0.012026667 3.1570001
0.024053333 -0.012026667 3.1570001
0.030066667 -0.012026667 3.1570001
0.036080003 -0.012026667 3.1570001
0.042093337 -0.012026667 3.1570001
0.048106667 -0.012026667 3.1570001
0.05412 -0.012026667 3.1570001
0.060133334 -0.012026667 3.1570001
0.066146672 -0.012026667 3.1570001
0.072160006 -0.012026667 3.1570001
0.078173339 -0.012026667 3.1570001
0.083440006 -0.01192 3.1290002
0.089400001 -0.01192 3.1290002
0.096213333 -0.012026667 3.1570001
0.10222667 -0.012026667 3.1570001
0.10824 -0.012026667 3.1570001
0.11324 -0.01192 3.1290002
0.11920001 -0.01192 3.1290002
0.12516001 -0.01192 3.1290002
0.13112001 -0.01192 3.1290002
0.13830668 -0.012026667 3.1570001
0.14304 -0.01192 3.1290002
0.149 -0.01192 3.1290002
0.15634668 -0.012026667 3.1570001
0.16236001 -0.012026667 3.1570001
0.16837335 -0.012026667 3.1570001
0.17438668 -0.012026667 3.1570001
0.18040001 -0.012026667 3.1570001
0.18641333 -0.012026667 3.1570001
0.19072001 -0.01192 3.1290002
0.19668001 -0.01192 3.1290002
0.20264001 -0.01192 3.1290002
0.21046667 -0.012026667 3.1570001
0.21456 -0.01192 3.1290002
0.22052 -0.01192 3.1290002
0.22445334 -0.011813334 3.1010001
0.22828001 -0.011706667 3.0730002
0.21676192 -0.010838096 2.845
0.22218096 -0.010838096 2.845
0.22392 -0.010662857 2.799
0.22744954 -0.010579048 2.7770002
0.23081143 -0.010491429 2.7540002
0.23237143 -0.01032762 2.7110002
0.23569524 -0.01024762 2.6900001
0.23893906 -0.010167619 2.6690001
0.24402286 -0.010167619 2.6690001
0.24910668 -0.010167619 2.6690001
0.25419047 -0.010167619 2.6690001
0.22605143 -0.0088647623 2.3270001
0.23048382 -0.0088647623 2.3270001
0.23027238 -0.0086895237 2.2810001
0.23307429 -0.0086323814 2.266
0.2313143 -0.0084114289 2.2080002
0.23264001 -0.0083085718 2.181
0.2352743 -0.0082552386 2.1670001
0.23785524 -0.0082019055 2.1530001
0.24049525 -0.0081523815 2.1400001
0.24308573 -0.0081028575 2.1270001
0.24562667 -0.0080533335 2.1140001
0.2481181 -0.0080038095 2.1010001
0.25212002 -0.0080038095 2.1010001
0.23344763 -0.0072952383 1.9150001
0.23573335 -0.0072533335 1.904
0.23936 -0.0072533335 1.904
0.24298668 -0.0072533335 1.904
0.2453181 -0.0072152382 1.8940001
0.24892573 -0.0072152382 1.8940001
0.23933335 -0.0068380954 1.7950001
0.23910096 -0.0067352382 1.7680001
0.24123429 -0.0067009525 1.7590001
0.24333334 -0.0066666668 1.7500001
0.2453981 -0.0066323811 1.7410001
0.24371429 -0.0064990479 1.7060001
0.24334477 -0.0064038099 1.6810001
0.24537334 -0.0063733337 1.6730001
0.24618286 -0.006312381 1.6570001
0.24813525 -0.0062819049 1.649
0.25005716 -0.0062514287 1.641
0.25210285 -0.0062247622 1.6340001
0.25271621 -0.0061638099 1.618
0.25342667 -0.0061066668 1.603
0.25536001 -0.0060800002 1.5960001
0.25840002 -0.0060800002 1.5960001
0.26029333 -0.0060533336 1.5890001
0.26332 -0.0060533336 1.5890001
0.26500574 -0.0060228575 1.5810001
0.26683047 -0.0059961905 1.5740001
0.26862857 -0.0059695239 1.567
0.27161333 -0.0059695239 1.567
0.27337143 -0.0059428574 1.5600001
0.27510285 -0.0059161908 1.5530001
0.27680764 -0.0058895242 1.5460001
0.27848572 -0.0058628572 1.539
0.28141716 -0.0058628572 1.539
0.28434858 -0.0058628572 1.539
0.28597334 -0.0058361907 1.5320001
0.28889143 -0.0058361907 1.5320001
0.29180953 -0.0058361907 1.5320001
0.29222667 -0.0057866671 1.5190001
0.29512 -0.0057866671 1.5190001
0.29801333 -0.0057866671 1.5190001
0.29952002 -0.0057600001 1.5120001
0.30240002 -0.0057600001 1.5120001
0.3040686 -0.0057371431 1.506
0.30693716 -0.0057371431 1.506
0.30980572 -0.0057371431 1.506
0.31267428 -0.0057371431 1.506
0.31554288 -0.0057371431 1.506
0.31693143 -0.0057104765 1.4990001
0.31978667 -0.0057104765 1.4990001
0.32264191 -0.0057104765 1.4990001
0.32549715 -0.0057104765 1.4990001
0.32835239 -0.0057104765 1.4990001
0.33120763 -0.0057104765 1.4990001
0.33406287 -0.0057104765 1.4990001
0.33691812 -0.0057104765 1.4990001
0.33977336 -0.0057104765 1.4990001
0.3426286 -0.0057104765 1.4990001
0.34548381 -0.0057104765 1.4990001
0.34833905 -0.0057104765 1.4990001
0.35119429 -0.0057104765 1.4990001
0.35404953 -0.0057104765 1.4990001
0.35690477 -0.0057104765 1.4990001
0.35976002 -0.0057104765 1.4990001
0.36261526 -0.0057104765 1.4990001
0.3654705 -0.0057104765 1.4990001
0.36832574 -0.0057104765 1.4990001
0.37118095 -0.0057104765 1.4990001
0.37403619 -0.0057104765 1.4990001
0.37689143 -0.0057104765 1.4990001
0.37974668 -0.0057104765 1.4990001
0.38260192 -0.0057104765 1.4990001
0.38545716 -0.0057104765 1.4990001
0.38649905 -0.0056838095 1.4920001
0.38934097 -0.0056838095 1.4920001
0.39218286 -0.0056838095 1.4920001
0.39502478 -0.0056838095 1.4920001
0.3978667 -0.0056838095 1.4920001
0.40070859 -0.0056838095 1.4920001
0.40544382 -0.0057104765 1.4990001
0.40829906 -0.0057104765 1.4990001
0.4111543 -0.0057104765 1.4990001
0.41400954 -0.0057104765 1.4990001
0.41491812 -0.0056838095 1.4920001
0.41972002 -0.0057104765 1.4990001
0.42257527 -0.0057104765 1.4990001
0.42543051 -0.0057104765 1.4990001
0.42828572 -0.0057104765 1.4990001
0.43114096 -0.0057104765 1.4990001
0.4339962 -0.0057104765 1.4990001
0.43685144 -0.0057104765 1.4990001
0.43970668 -0.0057104765 1.4990001
0.44256192 -0.0057104765 1.4990001
0.44541717 -0.0057104765 1.4990001
0.44827241 -0.0057104765 1.4990001
0.45112765 -0.0057104765 1.4990001
0.45398286 -0.0057104765 1.4990001
0.4568381 -0.0057104765 1.4990001
0.45969334 -0.0057104765 1.4990001
0.46254858 -0.0057104765 1.4990001
0.46757716 -0.0057371431 1.506
0.47044572 -0.0057371431 1.506
-0.30342859 -0.0060685715 3.1860001
-0.29736 -0.0060685715 3.1860001
-0.2940343 -0.0061257146 3.2160001
-0.28790858 -0.0061257146 3.2160001
-0.28178287 -0.0061257146 3.2160001
-0.27308571 -0.0060685715 3.1860001
-0.26701716 -0.0060685715 3.1860001
-0.26094857 -0.0060685715 3.1860001
-0.25488001 -0.0060685715 3.1860001
-0.24881144 -0.0060685715 3.1860001
-0.24274287 -0.0060685715 3.1860001
-0.23890287 -0.0061257146 3.2160001
-0.23277715 -0.0061257146 3.2160001
-0.22665143 -0.0061257146 3.2160001
-0.22052573 -0.0061257146 3.2160001
-0.21440001 -0.0061257146 3.2160001
-0.20827429 -0.0061257146 3.2160001
-0.20214857 -0.0061257146 3.2160001
-0.19419429 -0.0060685715 3.1860001
-0.18812571 -0.0060685715 3.1860001
-0.18205714 -0.0060685715 3.1860001
-0.17598858 -0.0060685715 3.1860001
-0.16992001 -0.0060685715 3.1860001
-0.16385144 -0.0060685715 3.1860001
-0.15778287 -0.0060685715 3.1860001
-0.1517143 -0.0060685715 3.1860001
-0.14564572 -0.0060685715 3.1860001
-0.13957715 -0.0060685715 3.1860001
-0.13350858 -0.0060685715 3.1860001
-0.12744001 -0.0060685715 3.1860001
-0.12137143 -0.0060685715 3.1860001
-0.11530286 -0.0060685715 3.1860001
-0.10923429 -0.0060685715 3.1860001
-0.10316572 -0.0060685715 3.1860001
-0.097097144 -0.0060685715 3.1860001
-0.091028571 -0.0060685715 3.1860001
-0.084960006 -0.0060685715 3.1860001
-0.078891434 -0.0060685715 3.1860001
-0.072822861 -0.0060685715 3.1860001
-0.066754289 -0.0060685715 3.1860001
-0.060685717 -0.0060685715 3.1860001
-0.054617144 -0.0060685715 3.1860001
-0.048548572 -0.0060685715 3.1860001
-0.042480003 -0.0060685715 3.1860001
-0.036080003 -0.0060133333 3.1570001
-0.030066667 -0.0060133333 3.1570001
-0.024053333 -0.0060133333 3.1570001
-0.018040001 -0.0060133333 3.1570001
-0.012026667 -0.0060133333 3.1570001
-0.0059600002 -0.0059600002 3.1290002
0 -0.0059600002 3.1290002
0.0060133333 -0.0060133333 3.1570001
0.01192 -0.0059600002 3.1290002
0.018040001 -0.0060133333 3.1570001
0.024053333 -0.0060133333 3.1570001
0.030066667 -0.0060133333 3.1570001
0.036080003 -0.0060133333 3.1570001
0.042093337 -0.0060133333 3.1570001
0.048106667 -0.0060133333 3.1570001
0.05412 -0.0060133333 3.1570001
0.060133334 -0.0060133333 3.1570001
0.066146672 -0.0060133333 3.1570001
0.072160006 -0.0060133333 3.1570001
0.077480003 -0.0059600002 3.1290002
0.083440006 -0.0059600002 3.1290002
0.089400001 -0.0059600002 3.1290002
0.095360003 -0.0059600002 3.1290002
0.10222667 -0.0060133333 3.1570001
0.10728 -0.0059600002 3.1290002
0.11324 -0.0059600002 3.1290002
0.11920001 -0.0059600002 3.1290002
0.12628001 -0.0060133333 3.1570001
0.13229334 -0.0060133333 3.1570001
0.13830668 -0.0060133333 3.1570001
0.14432001 -0.0060133333 3.1570001
0.15033334 -0.0060133333 3.1570001
0.15634668 -0.0060133333 3.1570001
0.16236001 -0.0060133333 3.1570001
0.16837335 -0.0060133333 3.1570001
0.17438668 -0.0060133333 3.1570001
0.18040001 -0.0060133333 3.1570001
0.18641333 -0.0060133333 3.1570001
0.19072001 -0.0059600002 3.1290002
0.19844 -0.0060133333 3.1570001
0.20264001 -0.0059600002 3.1290002
0.21046667 -0.0060133333 3.1570001
0.21456 -0.0059600002 3.1290002
0.22052 -0.0059600002 3.1290002
0.22445334 -0.0059066671 3.1010001
0.22828001 -0.0058533335 3.0730002
0.21500953 -0.0053752381 2.822
0.22038478 -0.0053752381 2.822
0.22392 -0.0053314287 2.799
0.22556572 -0.0052457144 2.7540002
0.22905144 -0.0052057146 2.733
0.23237143 -0.0051638098 2.7110002
0.23569524 -0.0051238099 2.6900001
0.23893906 -0.0050838096 2.6690001
0.24402286 -0.0050838096 2.6690001
0.24910668 -0.0050838096 2.6690001
0.22314286 -0.0044628573 2.3430002
0.22605143 -0.0044323811 2.3270001
0.22899811 -0.0044038096 2.312
0.23027238 -0.0043447618 2.2810001
0.23307429 -0.0043161907 2.266
0.22984762 -0.0041790479 2.194
0.23264001 -0.0041542859 2.181
0.2352743 -0.0041276193 2.1670001
0.23641905 -0.0040761908 2.1400001
0.24049525 -0.0040761908 2.1400001
0.24308573 -0.0040514288 2.1270001
0.24562667 -0.0040266667 2.1140001
0.2481181 -0.0040019047 2.1010001
0.25056002 -0.0039771432 2.0880001
0.23344763 -0.0036476192 1.9150001
0.23449525 -0.0036076191 1.8940001
0.23810287 -0.0036076191 1.8940001
0.24030668 -0.0035866669 1.8830001
0.2425981 -0.0035676192 1.8730001
0.24616572 -0.0035676192 1.8730001
0.23693334 -0.003384762 1.7770001
0.23910096 -0.0033676191 1.7680001
0.24123429 -0.0033504763 1.7590001
0.24333334 -0.0033333334 1.7500001
0.24286096 -0.0032819049 1.723
0.24257144 -0.0032342859 1.6980001
0.24334477 -0.0032019049 1.6810001
0.24420001 -0.0031714286 1.6650001
0.24618286 -0.0031561905 1.6570001
0.24813525 -0.0031409524 1.649
0.24899049 -0.0031123811 1.6340001
0.25086859 -0.003097143 1.626
0.25271621 -0.003081905 1.618
0.25342667 -0.0030533334 1.603
0.25536001 -0.0030400001 1.5960001
0.25726667 -0.0030266668 1.5890001
0.26029333 -0.0030266668 1.5890001
0.2619943 -0.0030114288 1.5810001
0.26500574 -0.0030114288 1.5810001
0.26683047 -0.0029980952 1.5740001
0.26862857 -0.002984762 1.567
0.27040002 -0.0029714287 1.5600001
0.27214476 -0.0029580954 1.5530001
0.27510285 -0.0029580954 1.5530001
0.27680764 -0.0029447621 1.5460001
0.27848572 -0.0029314286 1.539
0.28141716 -0.0029314286 1.539
0.28434858 -0.0029314286 1.539
0.28597334 -0.0029180953 1.5320001
0.28889143 -0.0029180953 1.5320001
0.29180953 -0.0029180953 1.5320001
0.29338098 -0.002904762 1.5250001
0.29628572 -0.002904762 1.5250001
0.29801333 -0.0028933336 1.5190001
0.30090669 -0.0028933336 1.5190001
0.30240002 -0.00288 1.5120001
0.3040686 -0.0028685716 1.506
0.30816001 -0.00288 1.5120001
0.30980572 -0.0028685716 1.506
0.31267428 -0.0028685716 1.506
0.31554288 -0.0028685716 1.506
0.31841144 -0.0028685716 1.506
0.32128 -0.0028685716 1.506
0.32264191 -0.0028552383 1.4990001
0.32549715 -0.0028552383 1.4990001
0.32835239 -0.0028552383 1.4990001
0.33120763 -0.0028552383 1.4990001
0.33406287 -0.0028552383 1.4990001
0.33691812 -0.0028552383 1.4990001
0.33977336 -0.0028552383 1.4990001
0.3426286 -0.0028552383 1.4990001
0.34548381 -0.0028552383 1.4990001
0.34833905 -0.0028552383 1.4990001
0.35119429 -0.0028552383 1.4990001
0.35404953 -0.0028552383 1.4990001
0.35690477 -0.0028552383 1.4990001
0.35976002 -0.0028552383 1.4990001
0.36261526 -0.0028552383 1.4990001
0.3654705 -0.0028552383 1.4990001
0.36832574 -0.0028552383 1.4990001
0.37118095 -0.0028552383 1.4990001
0.37403619 -0.0028552383 1.4990001
0.37689143 -0.0028552383 1.4990001
0.37974668 -0.0028552383 1.4990001
0.38260192 -0.0028552383 1.4990001
0.38365716 -0.0028419048 1.4920001
0.3883124 -0.0028552383 1.4990001
0.38934097 -0.0028419048 1.4920001
0.39402288 -0.0028552383 1.4990001
0.39687812 -0.0028552383 1.4990001
0.3978667 -0.0028419048 1.4920001
0.40258858 -0.0028552383 1.4990001
0.40544382 -0.0028552383 1.4990001
0.40829906 -0.0028552383 1.4990001
0.4111543 -0.0028552383 1.4990001
0.41400954 -0.0028552383 1.4990001
0.41491812 -0.0028419048 1.4920001
0.41972002 -0.0028552383 1.4990001
0.42257527 -0.0028552383 1.4990001
0.42543051 -0.0028552383 1.4990001
0.42828572 -0.0028552383 1.4990001
0.43114096 -0.0028552383 1.4990001
0.4339962 -0.0028552383 1.4990001
0.43685144 -0.0028552383 1.4990001
0.43970668 -0.0028552383 1.4990001
0.44256192 -0.0028552383 1.4990001
0.44541717 -0.0028552383 1.4990001
0.44827241 -0.0028552383 1.4990001
0.45112765 -0.0028552383 1.4990001
0.45398286 -0.0028552383 1.4990001
0.4568381 -0.0028552383 1.4990001
0.46184 -0.0028685716 1.506
0.46254858 -0.0028552383 1.4990001
0.46757716 -0.0028685716 1.506
0.47044572 -0.0028685716 1.506
-0.30016002 0 3.2160001
-0.2940343 0 3.2160001
-0.28790858 0 3.2160001
-0.28178287 0 3.2160001
-0.27308571 0 3.1860001
-0.26701716 0 3.1860001
-0.26340571 0 3.2160001
-0.25488001 0 3.1860001
-0.2511543 0 3.2160001
-0.24502859 0 3.2160001
-0.23890287 0 3.2160001
-0.23277715 0 3.2160001
-0.22665143 0 3.2160001
-0.22052573 0 3.2160001
-0.21440001 0 3.2160001
-0.20827429 0 3.2160001
-0.20214857 0 3.2160001
-0.19419429 0 3.1860001
-0.18989715 0 3.2160001
-0.18377143 0 3.2160001
-0.17598858 0 3.1860001
-0.16992001 0 3.1860001
-0.16385144 0 3.1860001
-0.15778287 0 3.1860001
-0.1517143 0 3.1860001
-0.14564572 0 3.1860001
-0.13957715 0 3.1860001
-0.13350858 0 3.1860001
-0.12744001 0 3.1860001
-0.12137143 0 3.1860001
-0.11530286 0 3.1860001
-0.10923429 0 3.1860001
-0.10316572 0 3.1860001
-0.097097144 0 3.1860001
-0.091028571 0 3.1860001
-0.085760005 0 3.2160001
-0.079634286 0 3.2160001
-0.072822861 0 3.1860001
-0.066754289 0 3.1860001
-0.060685717 0 3.1860001
-0.054617144 0 3.1860001
-0.048548572 0 3.1860001
-0.042480003 0 3.1860001
-0.036080003 0 3.1570001
-0.030066667 0 3.1570001
-0.024053333 0 3.1570001
-0.018040001 0 3.1570001
-0.01192 0 3.1290002
-0.0059600002 0 3.1290002
0 0 3.1290002
0.0059600002 0 3.1290002
0.01192 0 3.1290002
0.018040001 0 3.1570001
0.024053333 0 3.1570001
0.030066667 0 3.1570001
0.036080003 0 3.1570001
0.042093337 0 3.1570001
0.048106667 0 3.1570001
0.05412 0 3.1570001
0.060133334 0 3.1570001
0.066146672 0 3.1570001
0.072160006 0 3.1570001
0.077480003 0 3.1290002
0.083440006 0 3.1290002
0.089400001 0 3.1290002
0.096213333 0 3.1570001
0.10132001 0 3.1290002
0.10728 0 3.1290002
0.11324 0 3.1290002
0.11920001 0 3.1290002
0.12628001 0 3.1570001
0.13229334 0 3.1570001
0.13830668 0 3.1570001
0.14432001 0 3.1570001
0.15033334 0 3.1570001
0.15634668 0 3.1570001
0.16236001 0 3.1570001
0.16837335 0 3.1570001
0.17438668 0 3.1570001
0.18040001 0 3.1570001
0.18641333 0 3.1570001
0.19072001 0 3.1290002
0.19844 0 3.1570001
0.20264001 0 3.1290002
0.20860001 0 3.1290002
0.21456 0 3.1290002
0.21854667 0 3.1010001
0.22242667 0 3.0730002
0.22828001 0 3.0730002
0.21325715 0 2.799
0.21858858 0 2.799
0.22392 0 2.799
0.22556572 0 2.7540002
0.22720763 0 2.7110002
0.23057143 0 2.6900001
0.23385525 0 2.6690001
0.23893906 0 2.6690001
0.24402286 0 2.6690001
0.24910668 0 2.6690001
0.22314286 0 2.3430002
0.22605143 0 2.3270001
0.23048382 0 2.3270001
0.23027238 0 2.2810001
0.23461716 0 2.2810001
0.22848572 0 2.181
0.23114668 0 2.1670001
0.23375429 0 2.1530001
0.23641905 0 2.1400001
0.2390343 0 2.1270001
0.24160001 0 2.1140001
0.24562667 0 2.1140001
0.2481181 0 2.1010001
0.25056002 0 2.0880001
0.25453717 0 2.0880001
0.23573335 0 1.904
0.23672001 0 1.8830001
0.23903048 0 1.8730001
0.2425981 0 1.8730001
0.23591429 0 1.7950001
0.23693334 0 1.7770001
0.23910096 0 1.7680001
0.24123429 0 1.7590001
0.24208191 0 1.7410001
0.24173334 0 1.715
0.24257144 0 1.6980001
0.24218668 0 1.6730001
0.24420001 0 1.6650001
0.24618286 0 1.6570001
0.24813525 0 1.649
0.24899049 0 1.6340001
0.25086859 0 1.626
0.25271621 0 1.618
0.25342667 0 1.603
0.25536001 0 1.5960001
0.25726667 0 1.5890001
0.26029333 0 1.5890001
0.2619943 0 1.5810001
0.26383239 0 1.5740001
0.26564381 0 1.567
0.26742858 0 1.5600001
0.26918668 0 1.5530001
0.27214476 0 1.5530001
0.27386287 0 1.5460001
0.27680764 0 1.5460001
0.27848572 0 1.539
0.28141716 0 1.539
0.28434858 0 1.539
0.28597334 0 1.5320001
0.28889143 0 1.5320001
0.29180953 0 1.5320001
0.29338098 0 1.5250001
0.29512 0 1.5190001
0.29801333 0 1.5190001
0.29952002 0 1.5120001
0.30240002 0 1.5120001
0.3040686 0 1.506
0.30693716 0 1.506
0.30980572 0 1.506
0.31267428 0 1.506
0.31554288 0 1.506
0.31841144 0 1.506
0.32128 0 1.506
0.3241486 0 1.506
0.32549715 0 1.4990001
0.32835239 0 1.4990001
0.33120763 0 1.4990001
0.33406287 0 1.4990001
0.33691812 0 1.4990001
0.33977336 0 1.4990001
0.3426286 0 1.4990001
0.34548381 0 1.4990001
0.34833905 0 1.4990001
0.35119429 0 1.4990001
0.35404953 0 1.4990001
0.35690477 0 1.4990001
0.35976002 0 1.4990001
0.36261526 0 1.4990001
0.3654705 0 1.4990001
0.36832574 0 1.4990001
0.37118095 0 1.4990001
0.37403619 0 1.4990001
0.37689143 0 1.4990001
0.37974668 0 1.4990001
0.38260192 0 1.4990001
0.38545716 0 1.4990001
0.3883124 0 1.4990001
0.39116764 0 1.4990001
0.39402288 0 1.4990001
0.39687812 0 1.4990001
0.39973333 0 1.4990001
0.40258858 0 1.4990001
0.40544382 0 1.4990001
0.40829906 0 1.4990001
0.4111543 0 1.4990001
0.41400954 0 1.4990001
0.41686478 0 1.4990001
0.41972002 0 1.4990001
