# .PCD v0.7 - Point Cloud Data file format
VERSION 0.7
FIELDS x y z
SIZE 4 4 4
TYPE F F F
COUNT 1 1 1
WIDTH 1544
HEIGHT 1
VIEWPOINT 0 0 0 1 0 0 0
POINTS 1544
DATA ascii
0.42960003 0.29151431 1.6110001
0.43454859 0.29278097 1.618
0.4397943 0.29422858 1.626
0.44071239 0.29278097 1.618
0.4459886 0.29422858 1.626
0.44908574 0.29422858 1.626
0.45440763 0.2956762 1.6340001
0.45752001 0.2956762 1.6340001
0.46260574 0.29694286 1.641
0.46573144 0.29694286 1.641
0.47114289 0.29839048 1.649
0.47428381 0.29839048 1.649
0.47742477 0.29839048 1.649
0.48289716 0.2998381 1.6570001
0.48840001 0.30128571 1.6650001
0.49393335 0.30273333 1.6730001
0.49712002 0.30273333 1.6730001
0.50030667 0.30273333 1.6730001
0.50590098 0.30418095 1.6810001
0.5118286 0.30580953 1.6900001
0.51504761 0.30580953 1.6900001
0.52072001 0.30725715 1.6980001
0.52642286 0.30870476 1.7060001
0.52967238 0.30870476 1.7060001
0.53292191 0.30870476 1.7060001
0.53900003 0.31033334 1.715
0.54226667 0.31033334 1.715
0.54807812 0.31178096 1.723
0.55136001 0.31178096 1.723
0.5546419 0.31178096 1.723
0.56375241 0.31503811 1.7410001
0.56999999 0.31666669 1.7500001
0.57333338 0.31666669 1.7500001
0.5796324 0.31829524 1.7590001
0.58596575 0.31992382 1.7680001
0.59233338 0.3215524 1.7770001
0.59571815 0.3215524 1.7770001
0.59910285 0.3215524 1.7770001
0.60553908 0.32318097 1.7860001
0.60894096 0.32318097 1.7860001
0.61542857 0.32480952 1.7950001
0.61884767 0.32480952 1.7950001
0.62226671 0.32480952 1.7950001
0.62882286 0.3264381 1.8040001
0.63576382 0.32824764 1.8140001
0.64274287 0.33005714 1.8240001
0.64621717 0.33005714 1.8240001
0.64969146 0.33005714 1.8240001
0.65638858 0.33168572 1.8330001
0.66348004 0.33349526 1.8430001
0.66699052 0.33349526 1.8430001
0.67413908 0.33530477 1.853
0.67766857 0.33530477 1.853
0.6848743 0.3371143 1.863
0.69211811 0.33892381 1.8730001
0.69568574 0.33892381 1.8730001
0.70298672 0.34073335 1.8830001
0.71070099 0.34272382 1.8940001
0.71430862 0.34272382 1.8940001
0.72170669 0.34453335 1.904
0.72533333 0.34453335 1.904
0.73317146 0.34652382 1.9150001
0.74066669 0.34833336 1.9250001
0.74858671 0.35032383 1.9360001
0.75227433 0.35032383 1.9360001
0.76025718 0.35231429 1.9470001
0.76396573 0.35231429 1.9470001
0.76767433 0.35231429 1.9470001
0.77574098 0.35430476 1.9580001
0.7794705 0.35430476 1.9580001
0.78760004 0.35629526 1.9690001
0.79135048 0.35629526 1.9690001
0.7995429 0.35828573 1.9800001
0.80331433 0.35828573 1.9800001
0.81197715 0.36045715 1.9920001
0.81577146 0.36045715 1.9920001
0.82409143 0.36244762 2.003
0.83286667 0.36461905 2.0150001
0.84168768 0.3667905 2.0270002
0.84554863 0.3667905 2.0270002
0.84940958 0.3667905 2.0270002
0.85832196 0.36896193 2.039
0.86220574 0.36896193 2.039
0.87118667 0.37113336 2.0510001
0.87509334 0.37113336 2.0510001
0.88414288 0.37330478 2.0630002
0.89366859 0.37565717 2.0760002
0.89762288 0.37565717 2.0760002
0.90678859 0.3778286 2.0880001
0.91076577 0.3778286 2.0880001
0.92043811 0.38018095 2.1010001
0.92444003 0.38018095 2.1010001
0.9341867 0.38253334 2.1140001
0.94975239 0.38723812 2.1400001
0.95382863 0.38723812 2.1400001
-0.8688972 0.52461714 2.8690002
-0.86343241 0.52461714 2.8690002
-0.84391242 0.51602286 2.822
-0.53808004 0.45312002 2.4780002
-0.53336 0.45312002 2.4780002
-0.52864003 0.45312002 2.4780002
-0.52392 0.45312002 2.4780002
-0.51920003 0.45312002 2.4780002
-0.5107429 0.44982859 2.46
-0.50605714 0.44982859 2.46
-0.50137144 0.44982859 2.46
-0.49668574 0.44982859 2.46
-0.49200001 0.44982859 2.46
-0.48394668 0.44672 2.4430001
-0.47595811 0.44361144 2.4260001
-0.47133717 0.44361144 2.4260001
-0.46344572 0.44050288 2.4090002
-0.46209526 0.44361144 2.4260001
-0.45426857 0.44050288 2.4090002
-0.44968003 0.44050288 2.4090002
-0.4419505 0.43739429 2.3920002
-0.43739429 0.43739429 2.3920002
-0.43283811 0.43739429 2.3920002
-0.42828193 0.43739429 2.3920002
-0.42089143 0.4344686 2.3760002
-0.41338667 0.43136001 2.3590002
-0.40889335 0.43136001 2.3590002
-0.40165716 0.42843431 2.3430002
-0.3971943 0.42843431 2.3430002
-0.39273143 0.42843431 2.3430002
-0.38826859 0.42843431 2.3430002
-0.38380572 0.42843431 2.3430002
-0.37934288 0.42843431 2.3430002
-0.37232003 0.42550859 2.3270001
-0.36788765 0.42550859 2.3270001
-0.36111239 0.42276573 2.312
-0.35670859 0.42276573 2.312
-0.35230479 0.42276573 2.312
-0.34564382 0.42002288 2.2970002
-0.34126857 0.42002288 2.2970002
-0.33689335 0.42002288 2.2970002
-0.3325181 0.42002288 2.2970002
-0.32585716 0.41709715 2.2810001
-0.3215124 0.41709715 2.2810001
-0.31716764 0.41709715 2.2810001
-0.31076571 0.41435429 2.266
-0.30644953 0.41435429 2.266
-0.30213335 0.41435429 2.266
-0.29597715 0.4117943 2.2520001
-0.28974476 0.40905145 2.237
-0.28548381 0.40905145 2.237
-0.28122288 0.40905145 2.237
-0.27522859 0.40649146 2.223
-0.27099431 0.40649146 2.223
-0.26676002 0.40649146 2.223
-0.26252574 0.40649146 2.223
-0.25829142 0.40649146 2.223
-0.25405714 0.40649146 2.223
-0.24982287 0.40649146 2.223
-0.24558859 0.40649146 2.223
-0.2413543 0.40649146 2.223
-0.23712 0.40649146 2.223
-0.2313143 0.40374857 2.2080002
-0.22710858 0.40374857 2.2080002
-0.22148953 0.40118858 2.194
-0.21731049 0.40118858 2.194
-0.21313144 0.40118858 2.194
-0.20895238 0.40118858 2.194
-0.20356001 0.39881143 2.181
-0.19940571 0.39881143 2.181
-0.19525144 0.39881143 2.181
-0.18987048 0.39625144 2.1670001
-0.18574287 0.39625144 2.1670001
-0.18161525 0.39625144 2.1670001
-0.17634095 0.39369145 2.1530001
-0.17224 0.39369145 2.1530001
-0.16813906 0.39369145 2.1530001
-0.16304763 0.3913143 2.1400001
-0.15897143 0.3913143 2.1400001
-0.1539543 0.38893715 2.1270001
-0.14990287 0.38893715 2.1270001
-0.14496 0.38656002 2.1140001
-0.14093333 0.38656002 2.1140001
-0.13690667 0.38656002 2.1140001
-0.13206287 0.38418287 2.1010001
-0.12806095 0.38418287 2.1010001
-0.12405905 0.38418287 2.1010001
-0.11931429 0.38180572 2.0880001
-0.11533715 0.38180572 2.0880001
-0.11136001 0.38180572 2.0880001
-0.10676572 0.37961143 2.0760002
-0.10281143 0.37961143 2.0760002
-0.098238096 0.37723431 2.0630002
-0.094308577 0.37723431 2.0630002
-0.090379052 0.37723431 2.0630002
-0.086449526 0.37723431 2.0630002
-0.082040004 0.37504002 2.0510001
-0.078133337 0.37504002 2.0510001
-0.07422667 0.37504002 2.0510001
-0.070731431 0.37723431 2.0630002
-0.066413336 0.37504002 2.0510001
-0.062506668 0.37504002 2.0510001
-0.058600001 0.37504002 2.0510001
-0.054373335 0.37284574 2.039
-0.050489526 0.37284574 2.039
-0.046331432 0.37065145 2.0270002
-0.04221905 0.36845717 2.0150001
-0.038380954 0.36845717 2.0150001
-0.034542859 0.36845717 2.0150001
-0.030521905 0.36626288 2.003
-0.026706668 0.36626288 2.003
-0.02289143 0.36626288 2.003
-0.01897143 0.36425143 1.9920001
-0.015177144 0.36425143 1.9920001
-0.011382857 0.36425143 1.9920001
-0.0075428574 0.36205715 1.9800001
-0.0037714287 0.36205715 1.9800001
0 0.36004573 1.9690001
0.0037504763 0.36004573 1.9690001
0.0074590477 0.35803431 1.9580001
0.011188572 0.35803431 1.9580001
0.014834287 0.35602286 1.9470001
0.018542858 0.35602286 1.9470001
0.022125715 0.35401145 1.9360001
0.025813334 0.35401145 1.9360001
0.029500954 0.35401145 1.9360001
0.033188574 0.35401145 1.9360001
0.036666669 0.352 1.9250001
0.040563811 0.35401145 1.9360001
0.044 0.352 1.9250001
0.047419049 0.35017145 1.9150001
0.050773334 0.34816 1.904
0.054400001 0.34816 1.904
0.057721905 0.34633145 1.8940001
0.061329525 0.34633145 1.8940001
0.064937145 0.34633145 1.8940001
0.068146668 0.34432 1.8830001
0.071352385 0.34249145 1.8730001
0.074920006 0.34249145 1.8730001
0.078068577 0.34066287 1.863
0.081617147 0.34066287 1.863
0.084708571 0.33883429 1.853
0.087761909 0.33700573 1.8430001
0.091272384 0.33700573 1.8430001
0.094268575 0.33517715 1.8330001
0.097760007 0.33517715 1.8330001
0.10125143 0.33517715 1.8330001
0.10422858 0.33353144 1.8240001
0.10770286 0.33353144 1.8240001
0.11117715 0.33353144 1.8240001
0.11402286 0.33170286 1.8140001
0.1174781 0.33170286 1.8140001
0.12026667 0.32987431 1.8040001
0.12308572 0.32822859 1.7950001
0.12650476 0.32822859 1.7950001
0.12992382 0.32822859 1.7950001
0.13334286 0.32822859 1.7950001
0.1360762 0.32658288 1.7860001
0.1394781 0.32658288 1.7860001
0.14288001 0.32658288 1.7860001
0.14628191 0.32658288 1.7860001
0.14968382 0.32658288 1.7860001
0.15231429 0.32493716 1.7770001
0.15569906 0.32493716 1.7770001
0.15908381 0.32493716 1.7770001
0.16164573 0.32329145 1.7680001
0.16501334 0.32329145 1.7680001
0.16752382 0.32164574 1.7590001
0.1708743 0.32164574 1.7590001
0.17422476 0.32164574 1.7590001
0.17666668 0.32000002 1.7500001
0.18000001 0.32000002 1.7500001
0.18333334 0.32000002 1.7500001
0.18570668 0.31835431 1.7410001
0.18902287 0.31835431 1.7410001
0.19134477 0.31670859 1.7320001
0.19363239 0.31506288 1.723
0.1969143 0.31506288 1.723
0.20019619 0.31506288 1.723
0.2034781 0.31506288 1.723
0.20676 0.31506288 1.723
0.20906667 0.3136 1.715
0.21121906 0.31195429 1.7060001
0.21446858 0.31195429 1.7060001
0.21771811 0.31195429 1.7060001
0.21993144 0.31049144 1.6980001
0.22316572 0.31049144 1.6980001
0.2264 0.31049144 1.6980001
0.22855239 0.3090286 1.6900001
0.23177144 0.3090286 1.6900001
0.23499048 0.3090286 1.6900001
0.23820953 0.3090286 1.6900001
0.24142858 0.3090286 1.6900001
0.24334477 0.30738288 1.6810001
0.24654667 0.30738288 1.6810001
0.24974859 0.30738288 1.6810001
0.25295049 0.30738288 1.6810001
0.25615239 0.30738288 1.6810001
0.25812 0.30592 1.6730001
0.26005715 0.30445716 1.6650001
0.2632286 0.30445716 1.6650001
0.26512 0.30299431 1.6570001
0.26827621 0.30299431 1.6570001
0.2714324 0.30299431 1.6570001
0.27326286 0.30153143 1.649
0.27640381 0.30153143 1.649
0.27954477 0.30153143 1.649
0.28131428 0.30006859 1.641
0.28444001 0.30006859 1.641
0.28633904 0.29878858 1.6340001
0.28945145 0.29878858 1.6340001
0.29113144 0.29732573 1.626
0.29422858 0.29732573 1.626
0.29732573 0.29732573 1.626
0.30042288 0.29732573 1.626
0.30352002 0.29732573 1.626
0.30661714 0.29732573 1.626
0.30971429 0.29732573 1.626
0.31281143 0.29732573 1.626
0.31590858 0.29732573 1.626
0.31900573 0.29732573 1.626
0.32051811 0.29586285 1.618
0.32360002 0.29586285 1.618
0.32829717 0.29732573 1.626
0.32976383 0.29586285 1.618
0.33284572 0.29586285 1.618
0.3344743 0.29458287 1.6110001
0.33754286 0.29458287 1.6110001
0.34061143 0.29458287 1.6110001
0.34197333 0.29312 1.603
0.34502667 0.29312 1.603
0.34656 0.29184002 1.5960001
0.34960002 0.29184002 1.5960001
0.35264 0.29184002 1.5960001
0.35412002 0.29056001 1.5890001
0.35714668 0.29056001 1.5890001
0.36017334 0.29056001 1.5890001
0.36320001 0.29056001 1.5890001
0.36622667 0.29056001 1.5890001
0.36925334 0.29056001 1.5890001
0.37040573 0.28909716 1.5810001
0.37341717 0.28909716 1.5810001
0.37642857 0.28909716 1.5810001
0.37944001 0.28909716 1.5810001
0.38245144 0.28909716 1.5810001
0.38546288 0.28909716 1.5810001
0.38847429 0.28909716 1.5810001
0.39148572 0.28909716 1.5810001
0.39449716 0.28909716 1.5810001
0.39952001 0.29056001 1.5890001
0.40254667 0.29056001 1.5890001
0.40557334 0.29056001 1.5890001
0.4104 0.29184002 1.5960001
0.41344002 0.29184002 1.5960001
0.41648 0.29184002 1.5960001
0.42136002 0.29312 1.603
0.42653143 0.29458287 1.6110001
0.42960003 0.29458287 1.6110001
0.43454859 0.29586285 1.618
0.4397943 0.29732573 1.626
0.44071239 0.29586285 1.618
0.4459886 0.29732573 1.626
0.45129526 0.29878858 1.6340001
0.45440763 0.29878858 1.6340001
0.45752001 0.29878858 1.6340001
0.46260574 0.30006859 1.641
0.46573144 0.30006859 1.641
0.47114289 0.30153143 1.649
0.47428381 0.30153143 1.649
0.47742477 0.30153143 1.649
0.48289716 0.30299431 1.6570001
0.48840001 0.30445716 1.6650001
0.49157146 0.30445716 1.6650001
0.49712002 0.30592 1.6730001
0.50030667 0.30592 1.6730001
0.50590098 0.30738288 1.6810001
0.50910288 0.30738288 1.6810001
0.51504761 0.3090286 1.6900001
0.51826668 0.3090286 1.6900001
0.52395433 0.31049144 1.6980001
0.52967238 0.31195429 1.7060001
0.53292191 0.31195429 1.7060001
0.53900003 0.3136 1.715
0.54479623 0.31506288 1.723
0.54807812 0.31506288 1.723
0.55424005 0.31670859 1.7320001
0.55753905 0.31670859 1.7320001
0.56375241 0.31835431 1.7410001
0.56999999 0.32000002 1.7500001
0.57628191 0.32164574 1.7590001
0.58259809 0.32329145 1.7680001
0.58596575 0.32329145 1.7680001
0.59233338 0.32493716 1.7770001
0.59571815 0.32493716 1.7770001
0.59910285 0.32493716 1.7770001
0.60553908 0.32658288 1.7860001
0.60894096 0.32658288 1.7860001
0.61234289 0.32658288 1.7860001
0.61884767 0.32822859 1.7950001
0.62226671 0.32822859 1.7950001
0.62882286 0.32987431 1.8040001
0.63576382 0.33170286 1.8140001
0.64274287 0.33353144 1.8240001
0.64621717 0.33353144 1.8240001
0.65289718 0.33517715 1.8330001
0.65638858 0.33517715 1.8330001
0.66348004 0.33700573 1.8430001
0.67060953 0.33883429 1.853
0.67413908 0.33883429 1.853
0.68132573 0.34066287 1.863
0.6848743 0.34066287 1.863
0.69211811 0.34249145 1.8730001
0.69568574 0.34249145 1.8730001
0.70298672 0.34432 1.8830001
0.71070099 0.34633145 1.8940001
0.71430862 0.34633145 1.8940001
0.72170669 0.34816 1.904
0.72533333 0.34816 1.904
0.72896004 0.34816 1.904
0.74066669 0.352 1.9250001
0.74858671 0.35401145 1.9360001
0.75227433 0.35401145 1.9360001
0.76025718 0.35602286 1.9470001
0.76396573 0.35602286 1.9470001
0.76767433 0.35602286 1.9470001
0.77574098 0.35803431 1.9580001
0.7794705 0.35803431 1.9580001
0.78760004 0.36004573 1.9690001
0.79577148 0.36205715 1.9800001
0.7995429 0.36205715 1.9800001
0.8081829 0.36425143 1.9920001
0.81197715 0.36425143 1.9920001
0.81577146 0.36425143 1.9920001
0.82409143 0.36626288 2.003
0.83286667 0.36845717 2.0150001
0.84168768 0.37065145 2.0270002
0.84554863 0.37065145 2.0270002
0.85443813 0.37284574 2.039
0.85832196 0.37284574 2.039
0.86220574 0.37284574 2.039
0.87118667 0.37504002 2.0510001
0.87509334 0.37504002 2.0510001
0.88414288 0.37723431 2.0630002
0.89366859 0.37961143 2.0760002
0.89762288 0.37961143 2.0760002
0.90678859 0.38180572 2.0880001
0.9164362 0.38418287 2.1010001
0.92043811 0.38418287 2.1010001
0.93016005 0.38656002 2.1140001
0.9341867 0.38656002 2.1140001
0.9439829 0.38893715 2.1270001
0.94803435 0.38893715 2.1270001
-0.8688972 0.53008193 2.8690002
-0.85620958 0.52564764 2.845
-0.84391242 0.52139813 2.822
-0.5154286 0.45451429 2.46
-0.5107429 0.45451429 2.46
-0.50605714 0.45451429 2.46
-0.50137144 0.45451429 2.46
-0.49668574 0.45451429 2.46
-0.48860002 0.45137334 2.4430001
-0.48057908 0.44823241 2.4260001
-0.47595811 0.44823241 2.4260001
-0.4680343 0.44509146 2.4090002
-0.46344572 0.44509146 2.4090002
-0.45885715 0.44509146 2.4090002
-0.45426857 0.44509146 2.4090002
-0.44968003 0.44509146 2.4090002
-0.4419505 0.4419505 2.3920002
-0.43739429 0.4419505 2.3920002
-0.43283811 0.4419505 2.3920002
-0.42828193 0.4419505 2.3920002
-0.42089143 0.43899429 2.3760002
-0.41338667 0.43585336 2.3590002
-0.40612 0.43289715 2.3430002
-0.40165716 0.43289715 2.3430002
-0.3971943 0.43289715 2.3430002
-0.39273143 0.43289715 2.3430002
-0.38826859 0.43289715 2.3430002
-0.38380572 0.43289715 2.3430002
-0.37934288 0.43289715 2.3430002
-0.37232003 0.42994097 2.3270001
-0.36788765 0.42994097 2.3270001
-0.36111239 0.42716953 2.312
-0.35670859 0.42716953 2.312
-0.35230479 0.42716953 2.312
-0.34790096 0.42716953 2.312
-0.34126857 0.42439812 2.2970002
-0.33689335 0.42439812 2.2970002
-0.3325181 0.42439812 2.2970002
-0.32585716 0.42144191 2.2810001
-0.3215124 0.42144191 2.2810001
-0.31716764 0.42144191 2.2810001
-0.31076571 0.41867051 2.266
-0.30644953 0.41867051 2.266
-0.30213335 0.41867051 2.266
-0.29597715 0.41608381 2.2520001
-0.28974476 0.41331241 2.237
-0.28548381 0.41331241 2.237
-0.28122288 0.41331241 2.237
-0.27696192 0.41331241 2.237
-0.27099431 0.41072574 2.223
-0.26676002 0.41072574 2.223
-0.26252574 0.41072574 2.223
-0.25829142 0.41072574 2.223
-0.25405714 0.41072574 2.223
-0.24982287 0.41072574 2.223
-0.24558859 0.41072574 2.223
-0.2413543 0.41072574 2.223
-0.23552001 0.40795431 2.2080002
-0.2313143 0.40795431 2.2080002
-0.22710858 0.40795431 2.2080002
-0.22148953 0.40536764 2.194
-0.21731049 0.40536764 2.194
-0.21313144 0.40536764 2.194
-0.20895238 0.40536764 2.194
-0.20477334 0.40536764 2.194
-0.19940571 0.40296572 2.181
-0.19525144 0.40296572 2.181
-0.18987048 0.40037906 2.1670001
-0.18574287 0.40037906 2.1670001
-0.18161525 0.40037906 2.1670001
-0.17748763 0.40037906 2.1670001
-0.17224 0.3977924 2.1530001
-0.16813906 0.3977924 2.1530001
-0.16304763 0.39539048 2.1400001
-0.15897143 0.39539048 2.1400001
-0.1539543 0.39298859 2.1270001
-0.14990287 0.39298859 2.1270001
-0.14496 0.39058667 2.1140001
-0.14093333 0.39058667 2.1140001
-0.13690667 0.39058667 2.1140001
-0.13206287 0.38818479 2.1010001
-0.12885334 0.39058667 2.1140001
-0.12405905 0.38818479 2.1010001
-0.12005715 0.38818479 2.1010001
-0.11605524 0.38818479 2.1010001
-0.11205333 0.38818479 2.1010001
-0.10738286 0.38578287 2.0880001
-0.10281143 0.38356572 2.0760002
-0.098857149 0.38356572 2.0760002
-0.094308577 0.38116384 2.0630002
-0.090379052 0.38116384 2.0630002
-0.086449526 0.38116384 2.0630002
-0.082040004 0.37894669 2.0510001
-0.078133337 0.37894669 2.0510001
-0.07422667 0.37894669 2.0510001
-0.070320003 0.37894669 2.0510001
-0.066413336 0.37894669 2.0510001
-0.062506668 0.37894669 2.0510001
-0.058600001 0.37894669 2.0510001
-0.054373335 0.37672955 2.039
-0.050192382 0.3745124 2.0270002
-0.046331432 0.3745124 2.0270002
-0.042470478 0.3745124 2.0270002
-0.038380954 0.37229526 2.0150001
-0.034542859 0.37229526 2.0150001
-0.030521905 0.37007812 2.003
-0.026706668 0.37007812 2.003
-0.02289143 0.37007812 2.003
-0.01897143 0.36804572 1.9920001
-0.015177144 0.36804572 1.9920001
-0.011382857 0.36804572 1.9920001
-0.0075428574 0.36582857 1.9800001
-0.0037714287 0.36582857 1.9800001
0 0.3637962 1.9690001
0.0037504763 0.3637962 1.9690001
0.0074590477 0.36176383 1.9580001
0.011188572 0.36176383 1.9580001
0.014918095 0.36176383 1.9580001
0.018542858 0.35973144 1.9470001
0.022251429 0.35973144 1.9470001
0.025813334 0.35769907 1.9360001
0.029500954 0.35769907 1.9360001
0.033188574 0.35769907 1.9360001
0.03687619 0.35769907 1.9360001
0.040563811 0.35769907 1.9360001
0.044251431 0.35769907 1.9360001
0.047666669 0.35566667 1.9250001
0.051333334 0.35566667 1.9250001
0.054714289 0.35381907 1.9150001
0.058026668 0.35178667 1.904
0.061329525 0.34993905 1.8940001
0.064937145 0.34993905 1.8940001
0.068544768 0.34993905 1.8940001
0.071733333 0.34790668 1.8830001
0.074920006 0.34605905 1.8730001
0.07848762 0.34605905 1.8730001
0.081617147 0.34421143 1.863
0.085165717 0.34421143 1.863
0.088238098 0.34236383 1.853
0.091272384 0.34051621 1.8430001
0.094782859 0.34051621 1.8430001
0.097760007 0.33866858 1.8330001
0.10125143 0.33866858 1.8330001
0.10474286 0.33866858 1.8330001
0.10770286 0.33700573 1.8240001
0.11117715 0.33700573 1.8240001
0.11465143 0.33700573 1.8240001
0.11812572 0.33700573 1.8240001
0.12093334 0.33515811 1.8140001
0.12370286 0.33331048 1.8040001
0.12650476 0.33164763 1.7950001
0.12992382 0.33164763 1.7950001
0.13334286 0.33164763 1.7950001
0.1367619 0.33164763 1.7950001
0.14018096 0.33164763 1.7950001
0.1436 0.33164763 1.7950001
0.14628191 0.32998478 1.7860001
0.14968382 0.32998478 1.7860001
0.15308572 0.32998478 1.7860001
0.15569906 0.3283219 1.7770001
0.15908381 0.3283219 1.7770001
0.16164573 0.32665905 1.7680001
0.16501334 0.32665905 1.7680001
0.16838096 0.32665905 1.7680001
0.1708743 0.3249962 1.7590001
0.17422476 0.3249962 1.7590001
0.17666668 0.32333335 1.7500001
0.18000001 0.32333335 1.7500001
0.18333334 0.32333335 1.7500001
0.18570668 0.3216705 1.7410001
0.18902287 0.3216705 1.7410001
0.19134477 0.32000762 1.7320001
0.19464381 0.32000762 1.7320001
0.19794287 0.32000762 1.7320001
0.20019619 0.31834477 1.723
0.2034781 0.31834477 1.723
0.20676 0.31834477 1.723
0.20906667 0.31686667 1.715
0.21233334 0.31686667 1.715
0.21446858 0.31520382 1.7060001
0.21771811 0.31520382 1.7060001
0.21993144 0.31372574 1.6980001
0.22316572 0.31372574 1.6980001
0.2264 0.31372574 1.6980001
0.22855239 0.31224763 1.6900001
0.23177144 0.31224763 1.6900001
0.23499048 0.31224763 1.6900001
0.23820953 0.31224763 1.6900001
0.24142858 0.31224763 1.6900001
0.24334477 0.31058478 1.6810001
0.24654667 0.31058478 1.6810001
0.24974859 0.31058478 1.6810001
0.25295049 0.31058478 1.6810001
0.25615239 0.31058478 1.6810001
0.25812 0.30910668 1.6730001
0.26005715 0.30762857 1.6650001
0.2632286 0.30762857 1.6650001
0.26512 0.3061505 1.6570001
0.26827621 0.3061505 1.6570001
0.2714324 0.3061505 1.6570001
0.27326286 0.30467239 1.649
0.27640381 0.30467239 1.649
0.27954477 0.30467239 1.649
0.28131428 0.30319428 1.641
0.28444001 0.30319428 1.641
0.28633904 0.30190095 1.6340001
0.28945145 0.30190095 1.6340001
0.29113144 0.30042288 1.626
0.29422858 0.30042288 1.626
0.29732573 0.30042288 1.626
0.30042288 0.30042288 1.626
0.30352002 0.30042288 1.626
0.30661714 0.30042288 1.626
0.30971429 0.30042288 1.626
0.31281143 0.30042288 1.626
0.31590858 0.30042288 1.626
0.31900573 0.30042288 1.626
0.32210287 0.30042288 1.626
0.32520002 0.30042288 1.626
0.32829717 0.30042288 1.626
0.32976383 0.29894477 1.618
0.33284572 0.29894477 1.618
0.33592764 0.29894477 1.618
0.33754286 0.29765144 1.6110001
0.34061143 0.29765144 1.6110001
0.34197333 0.29617333 1.603
0.34502667 0.29617333 1.603
0.34656 0.29488 1.5960001
0.34960002 0.29488 1.5960001
0.35264 0.29488 1.5960001
0.35412002 0.29358667 1.5890001
0.35714668 0.29358667 1.5890001
0.36017334 0.29358667 1.5890001
0.36320001 0.29358667 1.5890001
0.36622667 0.29358667 1.5890001
0.36925334 0.29358667 1.5890001
0.37228 0.29358667 1.5890001
0.37530667 0.29358667 1.5890001
0.37833336 0.29358667 1.5890001
0.37944001 0.2921086 1.5810001
0.38245144 0.2921086 1.5810001
0.38546288 0.2921086 1.5810001
0.38847429 0.2921086 1.5810001
0.39346668 0.29358667 1.5890001
0.39449716 0.2921086 1.5810001
0.39952001 0.29358667 1.5890001
0.40254667 0.29358667 1.5890001
0.40557334 0.29358667 1.5890001
0.4104 0.29488 1.5960001
0.41344002 0.29488 1.5960001
0.41648 0.29488 1.5960001
0.42136002 0.29617333 1.603
0.42653143 0.29765144 1.6110001
0.43146667 0.29894477 1.618
0.43454859 0.29894477 1.618
0.4397943 0.30042288 1.626
0.44289145 0.30042288 1.626
0.4459886 0.30042288 1.626
0.45129526 0.30190095 1.6340001
0.45440763 0.30190095 1.6340001
0.45948002 0.30319428 1.641
0.46260574 0.30319428 1.641
0.46573144 0.30319428 1.641
0.47114289 0.30467239 1.649
0.47428381 0.30467239 1.649
0.47742477 0.30467239 1.649
0.48289716 0.3061505 1.6570001
0.48840001 0.30762857 1.6650001
0.49157146 0.30762857 1.6650001
0.49712002 0.30910668 1.6730001
0.50030667 0.30910668 1.6730001
0.50590098 0.31058478 1.6810001
0.50910288 0.31058478 1.6810001
0.51230478 0.31058478 1.6810001
0.51826668 0.31224763 1.6900001
0.52395433 0.31372574 1.6980001
0.52967238 0.31520382 1.7060001
0.53292191 0.31520382 1.7060001
0.53900003 0.31686667 1.715
0.54479623 0.31834477 1.723
0.55094099 0.32000762 1.7320001
0.55424005 0.32000762 1.7320001
0.55753905 0.32000762 1.7320001
0.56375241 0.3216705 1.7410001
0.56999999 0.32333335 1.7500001
0.57628191 0.3249962 1.7590001
0.5796324 0.3249962 1.7590001
0.58596575 0.32665905 1.7680001
0.59233338 0.3283219 1.7770001
0.59571815 0.3283219 1.7770001
0.59910285 0.3283219 1.7770001
0.60248762 0.3283219 1.7770001
0.60894096 0.32998478 1.7860001
0.61234289 0.32998478 1.7860001
0.61884767 0.33164763 1.7950001
0.62226671 0.33164763 1.7950001
0.62882286 0.33331048 1.8040001
0.63576382 0.33515811 1.8140001
0.64274287 0.33700573 1.8240001
0.64621717 0.33700573 1.8240001
0.65289718 0.33866858 1.8330001
0.65638858 0.33866858 1.8330001
0.66348004 0.34051621 1.8430001
0.67060953 0.34236383 1.853
0.67413908 0.34236383 1.853
0.68132573 0.34421143 1.863
0.6848743 0.34421143 1.863
0.69211811 0.34605905 1.8730001
0.69568574 0.34605905 1.8730001
0.70298672 0.34790668 1.8830001
0.71070099 0.34993905 1.8940001
0.71430862 0.34993905 1.8940001
0.72170669 0.35178667 1.904
0.72533333 0.35178667 1.904
0.72896004 0.35178667 1.904
0.74066669 0.35566667 1.9250001
0.74858671 0.35769907 1.9360001
0.75227433 0.35769907 1.9360001
0.76025718 0.35973144 1.9470001
0.76396573 0.35973144 1.9470001
0.76767433 0.35973144 1.9470001
0.77574098 0.36176383 1.9580001
0.7794705 0.36176383 1.9580001
0.78760004 0.3637962 1.9690001
0.79577148 0.36582857 1.9800001
0.7995429 0.36582857 1.9800001
0.8081829 0.36804572 1.9920001
0.81197715 0.36804572 1.9920001
0.8202762 0.37007812 2.003
0.82902861 0.37229526 2.0150001
0.83782667 0.3745124 2.0270002
0.84168768 0.3745124 2.0270002
0.84554863 0.3745124 2.0270002
0.85443813 0.37672955 2.039
0.85832196 0.37672955 2.039
0.86728001 0.37894669 2.0510001
0.87118667 0.37894669 2.0510001
0.88021338 0.38116384 2.0630002
0.88414288 0.38116384 2.0630002
0.89366859 0.38356572 2.0760002
0.90281147 0.38578287 2.0880001
0.90678859 0.38578287 2.0880001
0.9164362 0.38818479 2.1010001
0.92043811 0.38818479 2.1010001
0.92444003 0.38818479 2.1010001
0.9341867 0.39058667 2.1140001
0.93821335 0.39058667 2.1140001
0.94803435 0.39298859 2.1270001
-0.85620958 0.53106672 2.845
-0.8507905 0.53106672 2.845
-0.50256002 0.45602667 2.4430001
-0.49790668 0.45602667 2.4430001
-0.49668574 0.45920002 2.46
-0.48860002 0.45602667 2.4430001
-0.48057908 0.45285335 2.4260001
-0.47262287 0.44968003 2.4090002
-0.4680343 0.44968003 2.4090002
-0.46344572 0.44968003 2.4090002
-0.45885715 0.44968003 2.4090002
-0.45426857 0.44968003 2.4090002
-0.44968003 0.44968003 2.4090002
-0.4419505 0.44650668 2.3920002
-0.43739429 0.44650668 2.3920002
-0.43283811 0.44650668 2.3920002
-0.42828193 0.44650668 2.3920002
-0.42089143 0.44352001 2.3760002
-0.41338667 0.44034669 2.3590002
-0.40889335 0.44034669 2.3590002
-0.40440002 0.44034669 2.3590002
-0.39990669 0.44034669 2.3590002
-0.39273143 0.43736002 2.3430002
-0.38826859 0.43736002 2.3430002
-0.38380572 0.43736002 2.3430002
-0.37675241 0.43437335 2.3270001
-0.37232003 0.43437335 2.3270001
-0.36788765 0.43437335 2.3270001
-0.36111239 0.43157336 2.312
-0.35670859 0.43157336 2.312
-0.35230479 0.43157336 2.312
-0.34790096 0.43157336 2.312
-0.34126857 0.42877334 2.2970002
-0.33689335 0.42877334 2.2970002
-0.33020192 0.42578667 2.2810001
-0.32585716 0.42578667 2.2810001
-0.31939811 0.42298669 2.266
-0.31508192 0.42298669 2.266
-0.31076571 0.42298669 2.266
-0.30644953 0.42298669 2.266
-0.30213335 0.42298669 2.266
-0.29597715 0.42037335 2.2520001
-0.29168764 0.42037335 2.2520001
-0.2873981 0.42037335 2.2520001
-0.28122288 0.41757336 2.237
-0.27696192 0.41757336 2.237
-0.27099431 0.41496003 2.223
-0.26676002 0.41496003 2.223
-0.26252574 0.41496003 2.223
-0.25829142 0.41496003 2.223
-0.25405714 0.41496003 2.223
-0.24982287 0.41496003 2.223
-0.24558859 0.41496003 2.223
-0.2413543 0.41496003 2.223
-0.23712 0.41496003 2.223
-0.2313143 0.41216001 2.2080002
-0.22710858 0.41216001 2.2080002
-0.22148953 0.40954667 2.194
-0.21731049 0.40954667 2.194
-0.21313144 0.40954667 2.194
-0.20895238 0.40954667 2.194
-0.20356001 0.40712002 2.181
-0.19940571 0.40712002 2.181
-0.19525144 0.40712002 2.181
-0.18987048 0.40450668 2.1670001
-0.18574287 0.40450668 2.1670001
-0.18161525 0.40450668 2.1670001
-0.17634095 0.40189335 2.1530001
-0.17224 0.40189335 2.1530001
-0.16813906 0.40189335 2.1530001
-0.16304763 0.39946669 2.1400001
-0.15897143 0.39946669 2.1400001
-0.1539543 0.39704001 2.1270001
-0.14990287 0.39704001 2.1270001
-0.14585143 0.39704001 2.1270001
-0.14093333 0.39461336 2.1140001
-0.13690667 0.39461336 2.1140001
-0.13288 0.39461336 2.1140001
-0.12885334 0.39461336 2.1140001
-0.12405905 0.39218667 2.1010001
-0.12005715 0.39218667 2.1010001
-0.11605524 0.39218667 2.1010001
-0.11205333 0.39218667 2.1010001
-0.10738286 0.38976002 2.0880001
-0.10281143 0.38752002 2.0760002
-0.098857149 0.38752002 2.0760002
-0.094308577 0.38509336 2.0630002
-0.090379052 0.38509336 2.0630002
-0.086449526 0.38509336 2.0630002
-0.082040004 0.38285336 2.0510001
-0.078133337 0.38285336 2.0510001
-0.07422667 0.38285336 2.0510001
-0.070320003 0.38285336 2.0510001
-0.066413336 0.38285336 2.0510001
-0.062506668 0.38285336 2.0510001
-0.058600001 0.38285336 2.0510001
-0.054373335 0.38061336 2.039
-0.050192382 0.37837335 2.0270002
-0.046057146 0.37613335 2.0150001
-0.04221905 0.37613335 2.0150001
-0.038380954 0.37613335 2.0150001
-0.034542859 0.37613335 2.0150001
-0.030521905 0.37389335 2.003
-0.026560001 0.37184 1.9920001
-0.022765715 0.37184 1.9920001
-0.01897143 0.37184 1.9920001
-0.015177144 0.37184 1.9920001
-0.011314286 0.36960003 1.9800001
-0.0075428574 0.36960003 1.9800001
-0.0037714287 0.36960003 1.9800001
0 0.36754668 1.9690001
0.0037504763 0.36754668 1.9690001
0.0074590477 0.36549336 1.9580001
0.011188572 0.36549336 1.9580001
0.014918095 0.36549336 1.9580001
0.018542858 0.36344001 1.9470001
0.022251429 0.36344001 1.9470001
0.02596 0.36344001 1.9470001
0.029500954 0.36138669 1.9360001
0.033188574 0.36138669 1.9360001
0.03687619 0.36138669 1.9360001
0.040563811 0.36138669 1.9360001
0.044251431 0.36138669 1.9360001
0.047666669 0.35933334 1.9250001
0.051333334 0.35933334 1.9250001
0.054714289 0.35746667 1.9150001
0.058026668 0.35541335 1.904
0.061653335 0.35541335 1.904
0.065280005 0.35541335 1.904
0.068906672 0.35541335 1.904
0.072152384 0.35354668 1.8940001
0.075320005 0.35149336 1.8830001
0.07848762 0.34962669 1.8730001
0.082055241 0.34962669 1.8730001
0.085165717 0.34776002 1.863
0.088238098 0.34589335 1.853
0.092262864 0.34776002 1.863
0.095811434 0.34776002 1.863
0.098826669 0.34589335 1.853
0.1023562 0.34589335 1.853
0.10645714 0.34776002 1.863
0.10823429 0.34216002 1.8330001
0.11172572 0.34216002 1.8330001
0.11465143 0.34048 1.8240001
0.11812572 0.34048 1.8240001
0.12093334 0.33861333 1.8140001
0.12370286 0.33674669 1.8040001
0.12650476 0.33506668 1.7950001
0.12992382 0.33506668 1.7950001
0.13334286 0.33506668 1.7950001
0.1367619 0.33506668 1.7950001
0.14018096 0.33506668 1.7950001
0.1436 0.33506668 1.7950001
0.14701906 0.33506668 1.7950001
0.14968382 0.33338669 1.7860001
0.15308572 0.33338669 1.7860001
0.15648763 0.33338669 1.7860001
0.15908381 0.33170667 1.7770001
0.16246858 0.33170667 1.7770001
0.16501334 0.33002669 1.7680001
0.16838096 0.33002669 1.7680001
0.1708743 0.32834667 1.7590001
0.17422476 0.32834667 1.7590001
0.17666668 0.32666668 1.7500001
0.18000001 0.32666668 1.7500001
0.18333334 0.32666668 1.7500001
0.18570668 0.32498667 1.7410001
0.18902287 0.32498667 1.7410001
0.19134477 0.32330668 1.7320001
0.19464381 0.32330668 1.7320001
0.19794287 0.32330668 1.7320001
0.20019619 0.32162669 1.723
0.2034781 0.32162669 1.723
0.20676 0.32162669 1.723
0.20906667 0.32013336 1.715
0.21233334 0.32013336 1.715
0.21446858 0.31845334 1.7060001
0.21771811 0.31845334 1.7060001
0.21993144 0.31696001 1.6980001
0.22316572 0.31696001 1.6980001
0.2264 0.31696001 1.6980001
0.2296343 0.31696001 1.6980001
0.23177144 0.31546667 1.6900001
0.23499048 0.31546667 1.6900001
0.23820953 0.31546667 1.6900001
0.24142858 0.31546667 1.6900001
0.24464762 0.31546667 1.6900001
0.24654667 0.31378669 1.6810001
0.24974859 0.31378669 1.6810001
0.25295049 0.31378669 1.6810001
0.25615239 0.31378669 1.6810001
0.25812 0.31229335 1.6730001
0.26130667 0.31229335 1.6730001
0.2632286 0.31080002 1.6650001
0.26512 0.30930668 1.6570001
0.26827621 0.30930668 1.6570001
0.2714324 0.30930668 1.6570001
0.27326286 0.30781335 1.649
0.27640381 0.30781335 1.649
0.27954477 0.30781335 1.649
0.28131428 0.30632001 1.641
0.28444001 0.30632001 1.641
0.28756574 0.30632001 1.641
0.28945145 0.30501336 1.6340001
0.29113144 0.30352002 1.626
0.29422858 0.30352002 1.626
0.29732573 0.30352002 1.626
0.30042288 0.30352002 1.626
0.30352002 0.30352002 1.626
0.30661714 0.30352002 1.626
0.30971429 0.30352002 1.626
0.31281143 0.30352002 1.626
0.31590858 0.30352002 1.626
0.31900573 0.30352002 1.626
0.32210287 0.30352002 1.626
0.32520002 0.30352002 1.626
0.32829717 0.30352002 1.626
0.33139428 0.30352002 1.626
0.33284572 0.30202669 1.618
0.33592764 0.30202669 1.618
0.33900952 0.30202669 1.618
0.34061143 0.30072001 1.6110001
0.34368002 0.30072001 1.6110001
0.34502667 0.29922667 1.603
0.34656 0.29792002 1.5960001
0.34960002 0.29792002 1.5960001
0.35264 0.29792002 1.5960001
0.35412002 0.29661334 1.5890001
0.35714668 0.29661334 1.5890001
0.36017334 0.29661334 1.5890001
0.36320001 0.29661334 1.5890001
0.36622667 0.29661334 1.5890001
0.36925334 0.29661334 1.5890001
0.37228 0.29661334 1.5890001
0.37530667 0.29661334 1.5890001
0.37833336 0.29661334 1.5890001
0.38136002 0.29661334 1.5890001
0.38438669 0.29661334 1.5890001
0.38741335 0.29661334 1.5890001
0.39044002 0.29661334 1.5890001
0.39346668 0.29661334 1.5890001
0.39649335 0.29661334 1.5890001
0.39952001 0.29661334 1.5890001
0.40254667 0.29661334 1.5890001
0.40736002 0.29792002 1.5960001
0.4104 0.29792002 1.5960001
0.41344002 0.29792002 1.5960001
0.41830668 0.29922667 1.603
0.42136002 0.29922667 1.603
0.42653143 0.30072001 1.6110001
0.43146667 0.30202669 1.618
0.43454859 0.30202669 1.618
0.4397943 0.30352002 1.626
0.44289145 0.30352002 1.626
0.4459886 0.30352002 1.626
0.45129526 0.30501336 1.6340001
0.45635429 0.30632001 1.641
0.45948002 0.30632001 1.641
0.46260574 0.30632001 1.641
0.46573144 0.30632001 1.641
0.47114289 0.30781335 1.649
0.47428381 0.30781335 1.649
0.47742477 0.30781335 1.649
0.48289716 0.30930668 1.6570001
0.48840001 0.31080002 1.6650001
0.49393335 0.31229335 1.6730001
0.49712002 0.31229335 1.6730001
0.50030667 0.31229335 1.6730001
0.50590098 0.31378669 1.6810001
0.50910288 0.31378669 1.6810001
0.51230478 0.31378669 1.6810001
0.51826668 0.31546667 1.6900001
0.52395433 0.31696001 1.6980001
0.52967238 0.31845334 1.7060001
0.53573334 0.32013336 1.715
0.53900003 0.32013336 1.715
0.54479623 0.32162669 1.723
0.55094099 0.32330668 1.7320001
0.55424005 0.32330668 1.7320001
0.55753905 0.32330668 1.7320001
0.56375241 0.32498667 1.7410001
0.56999999 0.32666668 1.7500001
0.57628191 0.32834667 1.7590001
0.5796324 0.32834667 1.7590001
0.58596575 0.33002669 1.7680001
0.59233338 0.33170667 1.7770001
0.59571815 0.33170667 1.7770001
0.59910285 0.33170667 1.7770001
0.60248762 0.33170667 1.7770001
0.60894096 0.33338669 1.7860001
0.61234289 0.33338669 1.7860001
0.61574477 0.33338669 1.7860001
0.62226671 0.33506668 1.7950001
0.62882286 0.33674669 1.8040001
0.63576382 0.33861333 1.8140001
0.64274287 0.34048 1.8240001
0.64940572 0.34216002 1.8330001
0.65289718 0.34216002 1.8330001
0.65638858 0.34216002 1.8330001
0.66348004 0.34402668 1.8430001
0.67060953 0.34589335 1.853
0.67413908 0.34589335 1.853
0.68132573 0.34776002 1.863
0.6848743 0.34776002 1.863
0.69211811 0.34962669 1.8730001
0.69940001 0.35149336 1.8830001
0.70298672 0.35149336 1.8830001
0.71070099 0.35354668 1.8940001
0.71430862 0.35354668 1.8940001
0.72170669 0.35541335 1.904
0.72533333 0.35541335 1.904
0.72896004 0.35541335 1.904
0.74066669 0.35933334 1.9250001
0.74858671 0.36138669 1.9360001
0.75227433 0.36138669 1.9360001
0.76025718 0.36344001 1.9470001
0.76396573 0.36344001 1.9470001
0.76767433 0.36344001 1.9470001
0.77138287 0.36344001 1.9470001
0.7794705 0.36549336 1.9580001
0.78760004 0.36754668 1.9690001
0.79135048 0.36754668 1.9690001
0.7995429 0.36960003 1.9800001
0.8081829 0.37184 1.9920001
0.81197715 0.37184 1.9920001
0.8202762 0.37389335 2.003
0.82902861 0.37613335 2.0150001
0.83286667 0.37613335 2.0150001
0.84168768 0.37837335 2.0270002
0.84554863 0.37837335 2.0270002
0.84940958 0.37837335 2.0270002
0.85832196 0.38061336 2.039
0.86728001 0.38285336 2.0510001
0.87118667 0.38285336 2.0510001
0.88021338 0.38509336 2.0630002
0.88414288 0.38509336 2.0630002
0.89366859 0.38752002 2.0760002
0.89762288 0.38752002 2.0760002
0.90678859 0.38976002 2.0880001
0.91076577 0.38976002 2.0880001
0.92613339 0.39461336 2.1140001
0.93016005 0.39461336 2.1140001
0.9341867 0.39461336 2.1140001
0.93821335 0.39461336 2.1140001
0.94224006 0.39461336 2.1140001
-0.48860002 0.46068001 2.4430001
-0.48057908 0.45747429 2.4260001
-0.46928763 0.45106289 2.3920002
-0.46473145 0.45106289 2.3920002
-0.46017525 0.45106289 2.3920002
-0.45885715 0.45426857 2.4090002
-0.45426857 0.45426857 2.4090002
-0.44650668 0.45106289 2.3920002
-0.4419505 0.45106289 2.3920002
-0.43739429 0.45106289 2.3920002
-0.43283811 0.45106289 2.3920002
-0.42828193 0.45106289 2.3920002
-0.42089143 0.44804573 2.3760002
-0.41338667 0.44484001 2.3590002
-0.40889335 0.44484001 2.3590002
-0.40440002 0.44484001 2.3590002
-0.3971943 0.44182289 2.3430002
-0.39273143 0.44182289 2.3430002
-0.38826859 0.44182289 2.3430002
-0.38118479 0.43880573 2.3270001
-0.37675241 0.43880573 2.3270001
-0.37232003 0.43880573 2.3270001
-0.36551622 0.43597716 2.312
-0.36345527 0.43880573 2.3270001
-0.35670859 0.43597716 2.312
-0.35230479 0.43597716 2.312
-0.34790096 0.43597716 2.312
-0.34349716 0.43597716 2.312
-0.33689335 0.43314859 2.2970002
-0.3325181 0.43314859 2.2970002
-0.32585716 0.43013144 2.2810001
-0.3215124 0.43013144 2.2810001
-0.31716764 0.43013144 2.2810001
-0.31076571 0.42730287 2.266
-0.30644953 0.42730287 2.266
-0.30213335 0.42730287 2.266
-0.29597715 0.42466286 2.2520001
-0.29168764 0.42466286 2.2520001
-0.2873981 0.42466286 2.2520001
-0.28310859 0.42466286 2.2520001
-0.27696192 0.42183429 2.237
-0.27099431 0.41919431 2.223
-0.26676002 0.41919431 2.223
-0.26252574 0.41919431 2.223
-0.25829142 0.41919431 2.223
-0.25405714 0.41919431 2.223
-0.24982287 0.41919431 2.223
-0.24558859 0.41919431 2.223
-0.2413543 0.41919431 2.223
-0.23552001 0.41636574 2.2080002
-0.2313143 0.41636574 2.2080002
-0.22710858 0.41636574 2.2080002
-0.22148953 0.41372573 2.194
-0.21731049 0.41372573 2.194
-0.21313144 0.41372573 2.194
-0.20895238 0.41372573 2.194
-0.20477334 0.41372573 2.194
-0.20059429 0.41372573 2.194
-0.19525144 0.41127431 2.181
-0.19109716 0.41127431 2.181
-0.18694286 0.41127431 2.181
-0.18161525 0.40863431 2.1670001
-0.17748763 0.40863431 2.1670001
-0.17224 0.4059943 2.1530001
-0.16813906 0.4059943 2.1530001
-0.16403811 0.4059943 2.1530001
-0.15897143 0.40354288 2.1400001
-0.15489525 0.40354288 2.1400001
-0.15081905 0.40354288 2.1400001
-0.14585143 0.40109146 2.1270001
-0.1418 0.40109146 2.1270001
-0.13690667 0.39864001 2.1140001
-0.13288 0.39864001 2.1140001
-0.12885334 0.39864001 2.1140001
-0.12482667 0.39864001 2.1140001
-0.12005715 0.39618859 2.1010001
-0.11605524 0.39618859 2.1010001
-0.11205333 0.39618859 2.1010001
-0.10738286 0.39373717 2.0880001
-0.10281143 0.39147431 2.0760002
-0.098857149 0.39147431 2.0760002
-0.094308577 0.38902286 2.0630002
-0.090379052 0.38902286 2.0630002
-0.086449526 0.38902286 2.0630002
-0.082520001 0.38902286 2.0630002
-0.078133337 0.38676003 2.0510001
-0.07422667 0.38676003 2.0510001
-0.070320003 0.38676003 2.0510001
-0.066413336 0.38676003 2.0510001
-0.062506668 0.38676003 2.0510001
-0.058600001 0.38676003 2.0510001
-0.054373335 0.38449717 2.039
-0.050192382 0.38223431 2.0270002
-0.046057146 0.37997144 2.0150001
-0.04221905 0.37997144 2.0150001
-0.038152382 0.37770858 2.003
-0.034542859 0.37997144 2.0150001
-0.030521905 0.37770858 2.003
-0.026560001 0.37563431 1.9920001
-0.02289143 0.37770858 2.003
-0.01897143 0.37563431 1.9920001
-0.015177144 0.37563431 1.9920001
-0.011314286 0.37337145 1.9800001
-0.0075428574 0.37337145 1.9800001
-0.0037504763 0.37129715 1.9690001
0 0.37129715 1.9690001
0.0037295239 0.36922288 1.9580001
0.0074590477 0.36922288 1.9580001
0.011188572 0.36922288 1.9580001
0.014918095 0.36922288 1.9580001
0.01864762 0.36922288 1.9580001
0.022377145 0.36922288 1.9580001
0.02596 0.36714858 1.9470001
0.029668573 0.36714858 1.9470001
0.033377144 0.36714858 1.9470001
0.03687619 0.36507431 1.9360001
0.040563811 0.36507431 1.9360001
0.044251431 0.36507431 1.9360001
0.047666669 0.36300001 1.9250001
0.051333334 0.36300001 1.9250001
0.055000003 0.36300001 1.9250001
0.058361907 0.36111429 1.9150001
0.061653335 0.35904002 1.904
0.065280005 0.35904002 1.904
0.068906672 0.35904002 1.904
0.072533339 0.35904002 1.904
0.076160006 0.35904002 1.904
0.07890667 0.35508001 1.8830001
0.082493335 0.35508001 1.8830001
0.085622862 0.3531943 1.8730001
0.089190483 0.3531943 1.8730001
0.092758097 0.3531943 1.8730001
0.096325718 0.3531943 1.8730001
0.099360004 0.35130858 1.863
0.10290857 0.35130858 1.863
0.10645714 0.35130858 1.863
0.11000572 0.35130858 1.863
0.11172572 0.34565145 1.8330001
0.11521715 0.34565145 1.8330001
0.11812572 0.34395429 1.8240001
0.1216 0.34395429 1.8240001
0.12438858 0.34206858 1.8140001
0.12713905 0.34018287 1.8040001
0.13057524 0.34018287 1.8040001
0.13401143 0.34018287 1.8040001
0.1367619 0.33848572 1.7950001
0.14018096 0.33848572 1.7950001
0.1436 0.33848572 1.7950001
0.14701906 0.33848572 1.7950001
0.14968382 0.33678859 1.7860001
0.15308572 0.33678859 1.7860001
0.15648763 0.33678859 1.7860001
0.15908381 0.33509144 1.7770001
0.16246858 0.33509144 1.7770001
0.16501334 0.33339429 1.7680001
0.16838096 0.33339429 1.7680001
0.17174858 0.33339429 1.7680001
0.17422476 0.33169717 1.7590001
0.17666668 0.33000001 1.7500001
0.18000001 0.33000001 1.7500001
0.18333334 0.33000001 1.7500001
0.18570668 0.32830286 1.7410001
0.18902287 0.32830286 1.7410001
0.19134477 0.32660574 1.7320001
0.19464381 0.32660574 1.7320001
0.19794287 0.32660574 1.7320001
0.20019619 0.32490858 1.723
0.2034781 0.32490858 1.723
0.20676 0.32490858 1.723
0.20906667 0.32340002 1.715
0.21233334 0.32340002 1.715
0.21446858 0.32170287 1.7060001
0.21771811 0.32170287 1.7060001
0.22096762 0.32170287 1.7060001
0.22316572 0.3201943 1.6980001
0.2264 0.3201943 1.6980001
0.2296343 0.3201943 1.6980001
0.23177144 0.31868574 1.6900001
0.23499048 0.31868574 1.6900001
0.23820953 0.31868574 1.6900001
0.24142858 0.31868574 1.6900001
0.24464762 0.31868574 1.6900001
0.24654667 0.31698859 1.6810001
0.24974859 0.31698859 1.6810001
0.25295049 0.31698859 1.6810001
0.25615239 0.31698859 1.6810001
0.25812 0.31548002 1.6730001
0.26130667 0.31548002 1.6730001
0.2632286 0.31397143 1.6650001
0.26640001 0.31397143 1.6650001
0.26827621 0.31246287 1.6570001
0.2714324 0.31246287 1.6570001
0.27326286 0.3109543 1.649
0.27640381 0.3109543 1.649
0.27954477 0.3109543 1.649
0.28268573 0.3109543 1.649
0.28444001 0.30944574 1.641
0.28756574 0.30944574 1.641
0.28945145 0.30812573 1.6340001
0.29113144 0.30661714 1.626
0.29422858 0.30661714 1.626
0.29732573 0.30661714 1.626
0.30042288 0.30661714 1.626
0.30352002 0.30661714 1.626
0.30661714 0.30661714 1.626
0.30971429 0.30661714 1.626
0.31281143 0.30661714 1.626
0.31590858 0.30661714 1.626
0.31900573 0.30661714 1.626
0.32210287 0.30661714 1.626
0.32520002 0.30661714 1.626
0.32829717 0.30661714 1.626
0.33139428 0.30661714 1.626
0.33449143 0.30661714 1.626
0.33592764 0.30510858 1.618
0.33900952 0.30510858 1.618
0.34209144 0.30510858 1.618
0.34368002 0.30378857 1.6110001
0.34502667 0.30228001 1.603
0.34656 0.30096 1.5960001
0.34960002 0.30096 1.5960001
0.35264 0.30096 1.5960001
0.35412002 0.29964 1.5890001
0.35714668 0.29964 1.5890001
0.36017334 0.29964 1.5890001
0.36320001 0.29964 1.5890001
0.36622667 0.29964 1.5890001
0.36925334 0.29964 1.5890001
0.37228 0.29964 1.5890001
0.37530667 0.29964 1.5890001
0.37833336 0.29964 1.5890001
0.38136002 0.29964 1.5890001
0.38438669 0.29964 1.5890001
0.38741335 0.29964 1.5890001
0.39044002 0.29964 1.5890001
0.39346668 0.29964 1.5890001
0.39649335 0.29964 1.5890001
0.39952001 0.29964 1.5890001
0.40432 0.30096 1.5960001
0.40736002 0.30096 1.5960001
0.4104 0.30096 1.5960001
0.41344002 0.30096 1.5960001
0.41830668 0.30228001 1.603
0.42346287 0.30378857 1.6110001
0.42653143 0.30378857 1.6110001
0.43146667 0.30510858 1.618
0.43454859 0.30510858 1.618
0.4397943 0.30661714 1.626
0.44507051 0.30812573 1.6340001
0.4459886 0.30661714 1.626
0.45129526 0.30812573 1.6340001
0.45440763 0.30812573 1.6340001
0.45948002 0.30944574 1.641
0.46260574 0.30944574 1.641
0.46573144 0.30944574 1.641
0.47114289 0.3109543 1.649
0.47428381 0.3109543 1.649
0.47742477 0.3109543 1.649
0.48289716 0.31246287 1.6570001
0.48840001 0.31397143 1.6650001
0.49393335 0.31548002 1.6730001
0.49712002 0.31548002 1.6730001
0.50030667 0.31548002 1.6730001
0.50590098 0.31698859 1.6810001
0.50910288 0.31698859 1.6810001
0.51230478 0.31698859 1.6810001
0.51826668 0.31868574 1.6900001
0.52395433 0.3201943 1.6980001
0.52967238 0.32170287 1.7060001
0.53573334 0.32340002 1.715
0.53900003 0.32340002 1.715
0.54479623 0.32490858 1.723
0.55094099 0.32660574 1.7320001
0.55424005 0.32660574 1.7320001
0.55753905 0.32660574 1.7320001
0.56375241 0.32830286 1.7410001
0.56999999 0.33000001 1.7500001
0.57628191 0.33169717 1.7590001
0.5796324 0.33169717 1.7590001
0.58596575 0.33339429 1.7680001
0.59233338 0.33509144 1.7770001
0.59571815 0.33509144 1.7770001
0.59910285 0.33509144 1.7770001
0.60553908 0.33678859 1.7860001
0.60894096 0.33678859 1.7860001
0.61234289 0.33678859 1.7860001
0.61884767 0.33848572 1.7950001
0.62538671 0.34018287 1.8040001
0.62882286 0.34018287 1.8040001
0.63576382 0.34206858 1.8140001
0.63921905 0.34206858 1.8140001
0.64621717 0.34395429 1.8240001
0.64969146 0.34395429 1.8240001
0.65638858 0.34565145 1.8330001
0.66348004 0.34753716 1.8430001
0.66699052 0.34753716 1.8430001
0.67413908 0.34942287 1.853
0.67766857 0.34942287 1.853
0.6848743 0.35130858 1.863
0.69211811 0.3531943 1.8730001
0.69568574 0.3531943 1.8730001
0.70298672 0.35508001 1.8830001
0.70657337 0.35508001 1.8830001
0.71430862 0.35715431 1.8940001
0.71791619 0.35715431 1.8940001
0.72533333 0.35904002 1.904
0.72896004 0.35904002 1.904
0.73681909 0.36111429 1.9150001
0.74433339 0.36300001 1.9250001
0.74800003 0.36300001 1.9250001
0.76025718 0.36714858 1.9470001
0.76396573 0.36714858 1.9470001
0.76767433 0.36714858 1.9470001
0.77574098 0.36922288 1.9580001
0.7794705 0.36922288 1.9580001
0.78760004 0.37129715 1.9690001
0.79577148 0.37337145 1.9800001
0.80438858 0.37563431 1.9920001
0.8081829 0.37563431 1.9920001
0.81646097 0.37770858 2.003
0.82519048 0.37997144 2.0150001
0.82902861 0.37997144 2.0150001
0.83782667 0.38223431 2.0270002
0.84168768 0.38223431 2.0270002
0.84554863 0.38223431 2.0270002
0.85443813 0.38449717 2.039
0.86337334 0.38676003 2.0510001
0.86728001 0.38676003 2.0510001
0.87118667 0.38676003 2.0510001
0.88021338 0.38902286 2.0630002
0.8897143 0.39147431 2.0760002
0.89366859 0.39147431 2.0760002
0.90281147 0.39373717 2.0880001
0.91243434 0.39618859 2.1010001
0.92210668 0.39864001 2.1140001
0.92613339 0.39864001 2.1140001
0.93016005 0.39864001 2.1140001
0.9341867 0.39864001 2.1140001
0.9439829 0.40109146 2.1270001
0.94803435 0.40109146 2.1270001
0.95208573 0.40109146 2.1270001
0.95613718 0.40109146 2.1270001
-0.46344572 0.45885715 2.4090002
-0.45885715 0.45885715 2.4090002
-0.45426857 0.45885715 2.4090002
-0.44968003 0.45885715 2.4090002
-0.44509146 0.45885715 2.4090002
-0.43739429 0.45561907 2.3920002
-0.43283811 0.45561907 2.3920002
-0.42828193 0.45561907 2.3920002
-0.42089143 0.45257145 2.3760002
-0.41338667 0.44933334 2.3590002
-0.40889335 0.44933334 2.3590002
-0.40440002 0.44933334 2.3590002
-0.39990669 0.44933334 2.3590002
-0.39273143 0.44628572 2.3430002
-0.38826859 0.44628572 2.3430002
-0.38380572 0.44628572 2.3430002
-0.37675241 0.44323811 2.3270001
-0.37232003 0.44323811 2.3270001
-0.36551622 0.44038096 2.312
-0.36111239 0.44038096 2.312
-0.35670859 0.44038096 2.312
-0.35230479 0.44038096 2.312
-0.34790096 0.44038096 2.312
-0.34349716 0.44038096 2.312
-0.33689335 0.43752381 2.2970002
-0.3325181 0.43752381 2.2970002
-0.32585716 0.4344762 2.2810001
-0.3215124 0.4344762 2.2810001
-0.31716764 0.4344762 2.2810001
-0.31076571 0.43161908 2.266
-0.30644953 0.43161908 2.266
-0.30213335 0.43161908 2.266
-0.29597715 0.4289524 2.2520001
-0.29168764 0.4289524 2.2520001
-0.2873981 0.4289524 2.2520001
-0.28310859 0.4289524 2.2520001
-0.27696192 0.42609525 2.237
-0.27270097 0.42609525 2.237
-0.26676002 0.4234286 2.223
-0.26252574 0.4234286 2.223
-0.25829142 0.4234286 2.223
-0.25405714 0.4234286 2.223
-0.24982287 0.4234286 2.223
-0.24558859 0.4234286 2.223
-0.2413543 0.4234286 2.223
-0.23712 0.4234286 2.223
-0.2313143 0.42057145 2.2080002
-0.22710858 0.42057145 2.2080002
-0.22290286 0.42057145 2.2080002
-0.21869715 0.42057145 2.2080002
-0.21313144 0.41790476 2.194
-0.20895238 0.41790476 2.194
-0.20477334 0.41790476 2.194
-0.19940571 0.41542858 2.181
-0.19525144 0.41542858 2.181
-0.18987048 0.41276193 2.1670001
-0.18574287 0.41276193 2.1670001
-0.18161525 0.41276193 2.1670001
-0.17748763 0.41276193 2.1670001
-0.17224 0.41009524 2.1530001
-0.16813906 0.41009524 2.1530001
-0.16304763 0.40761906 2.1400001
