# .PCD v0.7 - Point Cloud Data file format
VERSION 0.7
FIELDS x y z
SIZE 4 4 4
TYPE F F F
COUNT 1 1 1
WIDTH 1506
HEIGHT 1
VIEWPOINT 0 0 0 1 0 0 0
POINTS 1506
DATA ascii
-0.44371811 0.43472382 1.5740001
-0.44072002 0.43472382 1.5740001
-0.43772191 0.43472382 1.5740001
-0.43472382 0.43472382 1.5740001
-0.43172574 0.43472382 1.5740001
-0.42872763 0.43472382 1.5740001
-0.4238362 0.43279049 1.567
-0.42085144 0.43279049 1.567
-0.41786668 0.43279049 1.567
-0.41488191 0.43279049 1.567
-0.41189715 0.43279049 1.567
-0.40891239 0.43279049 1.567
-0.40411431 0.43085715 1.5600001
-0.40114287 0.43085715 1.5600001
-0.39638478 0.42892382 1.5530001
-0.39342669 0.42892382 1.5530001
-0.3904686 0.42892382 1.5530001
-0.38751048 0.42892382 1.5530001
-0.38455239 0.42892382 1.5530001
-0.37987429 0.42699048 1.5460001
-0.37692955 0.42699048 1.5460001
-0.37398478 0.42699048 1.5460001
-0.37272 0.42892382 1.5530001
-0.36976191 0.42892382 1.5530001
-0.36680382 0.42892382 1.5530001
-0.36220571 0.42699048 1.5460001
-0.35926098 0.42699048 1.5460001
-0.35792953 0.42892382 1.5530001
-0.35337144 0.42699048 1.5460001
-0.35042667 0.42699048 1.5460001
-0.34748191 0.42699048 1.5460001
-0.34453717 0.42699048 1.5460001
-0.3415924 0.42699048 1.5460001
-0.33864763 0.42699048 1.5460001
-0.33266288 0.42312384 1.5320001
-0.32974479 0.42312384 1.5320001
-0.32682669 0.42312384 1.5320001
-0.3239086 0.42312384 1.5320001
-0.31952381 0.4211905 1.5250001
-0.31661907 0.4211905 1.5250001
-0.3137143 0.4211905 1.5250001
-0.31080952 0.4211905 1.5250001
-0.30790478 0.4211905 1.5250001
-0.30500001 0.4211905 1.5250001
-0.30090669 0.41953334 1.5190001
-0.29801333 0.41953334 1.5190001
-0.29512 0.41953334 1.5190001
-0.29222667 0.41953334 1.5190001
-0.28933334 0.41953334 1.5190001
-0.28512001 0.41760001 1.5120001
-0.28354669 0.41953334 1.5190001
-0.28065336 0.41953334 1.5190001
-0.27776 0.41953334 1.5190001
-0.27486667 0.41953334 1.5190001
-0.27197334 0.41953334 1.5190001
-0.26908001 0.41953334 1.5190001
-0.26496002 0.41760001 1.5120001
-0.26208001 0.41760001 1.5120001
-0.25920001 0.41760001 1.5120001
-0.25632 0.41760001 1.5120001
-0.25344002 0.41760001 1.5120001
-0.24956572 0.41594288 1.506
-0.24555048 0.41400954 1.4990001
-0.24269524 0.41400954 1.4990001
-0.23984002 0.41400954 1.4990001
-0.23587811 0.41207621 1.4920001
-0.23303621 0.41207621 1.4920001
-0.2323543 0.41594288 1.506
-0.22841905 0.41400954 1.4990001
-0.22556382 0.41400954 1.4990001
-0.22270858 0.41400954 1.4990001
-0.21985334 0.41400954 1.4990001
-0.2169981 0.41400954 1.4990001
-0.21314287 0.41207621 1.4920001
-0.21030097 0.41207621 1.4920001
-0.20745906 0.41207621 1.4920001
-0.20461716 0.41207621 1.4920001
-0.20272191 0.41400954 1.4990001
-0.19893335 0.41207621 1.4920001
-0.19609143 0.41207621 1.4920001
-0.19324952 0.41207621 1.4920001
-0.19040762 0.41207621 1.4920001
-0.18756571 0.41207621 1.4920001
-0.18472381 0.41207621 1.4920001
-0.1818819 0.41207621 1.4920001
-0.17832001 0.41041908 1.4860001
-0.17548953 0.41041908 1.4860001
-0.17265905 0.41041908 1.4860001
-0.16914286 0.40876192 1.48
-0.16632381 0.40876192 1.48
-0.16273144 0.40682858 1.473
-0.15992571 0.40682858 1.473
-0.15712 0.40682858 1.473
-0.15431429 0.40682858 1.473
-0.15150857 0.40682858 1.473
-0.14870286 0.40682858 1.473
-0.14659049 0.40876192 1.48
-0.14377144 0.40876192 1.48
-0.14095239 0.40876192 1.48
-0.13748001 0.40682858 1.473
-0.1346743 0.40682858 1.473
-0.13186857 0.40682858 1.473
-0.12853715 0.40517145 1.4670001
-0.12574287 0.40517145 1.4670001
-0.12244572 0.4035143 1.4610001
-0.11966286 0.4035143 1.4610001
-0.11736 0.40517145 1.4670001
-0.11456572 0.40517145 1.4670001
-0.11177143 0.40517145 1.4670001
-0.10897715 0.40517145 1.4670001
-0.10618286 0.40517145 1.4670001
-0.10338858 0.40517145 1.4670001
-0.10018286 0.4035143 1.4610001
-0.097400002 0.4035143 1.4610001
-0.094617143 0.4035143 1.4610001
-0.091834292 0.4035143 1.4610001
-0.089051433 0.4035143 1.4610001
-0.086268574 0.4035143 1.4610001
-0.083485715 0.4035143 1.4610001
-0.080702864 0.4035143 1.4610001
-0.077920005 0.4035143 1.4610001
-0.075137146 0.4035143 1.4610001
-0.072354287 0.4035143 1.4610001
-0.069571428 0.4035143 1.4610001
-0.066788577 0.4035143 1.4610001
-0.063742861 0.40185717 1.455
-0.060971431 0.40185717 1.455
-0.057960004 0.40020001 1.4490001
-0.055200003 0.40020001 1.4490001
-0.052440003 0.40020001 1.4490001
-0.049680002 0.40020001 1.4490001
-0.046920002 0.40020001 1.4490001
-0.044160001 0.40020001 1.4490001
-0.0414 0.40020001 1.4490001
-0.038480002 0.39854288 1.4430001
-0.035731431 0.39854288 1.4430001
-0.03298286 0.39854288 1.4430001
-0.030234287 0.39854288 1.4430001
-0.027485715 0.39854288 1.4430001
-0.02453143 0.39522859 1.4310001
-0.021805715 0.39522859 1.4310001
-0.01908 0.39522859 1.4310001
-0.016354287 0.39522859 1.4310001
-0.013628572 0.39522859 1.4310001
-0.010902857 0.39522859 1.4310001
-0.0081428578 0.39357144 1.4250001
-0.0054285717 0.39357144 1.4250001
-0.0027257144 0.39522859 1.4310001
0 0.39357144 1.4250001
0.0027028571 0.39191431 1.419
0.0054057143 0.39191431 1.419
0.0081085721 0.39191431 1.419
0.010811429 0.39191431 1.419
0.013514286 0.39191431 1.419
0.016217144 0.39191431 1.419
0.018920001 0.39191431 1.419
0.021622857 0.39191431 1.419
0.024325715 0.39191431 1.419
0.027028572 0.39191431 1.419
0.02973143 0.39191431 1.419
0.032297146 0.39025715 1.4130001
0.034988571 0.39025715 1.4130001
0.03768 0.39025715 1.4130001
0.04054286 0.39191431 1.419
0.043245714 0.39191431 1.419
0.045754287 0.39025715 1.4130001
0.048445717 0.39025715 1.4130001
0.051137146 0.39025715 1.4130001
0.053828575 0.39025715 1.4130001
0.056520004 0.39025715 1.4130001
0.059211429 0.39025715 1.4130001
0.061640002 0.38860002 1.4070001
0.064320005 0.38860002 1.4070001
0.067000002 0.38860002 1.4070001
0.069680005 0.38860002 1.4070001
0.072360002 0.38860002 1.4070001
0.075040005 0.38860002 1.4070001
0.077720001 0.38860002 1.4070001
0.080400005 0.38860002 1.4070001
0.083080001 0.38860002 1.4070001
0.085760005 0.38860002 1.4070001
0.088440001 0.38860002 1.4070001
0.090796195 0.38721907 1.4020001
0.093466669 0.38721907 1.4020001
0.095725715 0.38556191 1.396
0.098384768 0.38556191 1.396
0.10104381 0.38556191 1.396
0.10370286 0.38556191 1.396
0.10590477 0.38390478 1.3900001
0.10855238 0.38390478 1.3900001
0.1112 0.38390478 1.3900001
0.11384762 0.38390478 1.3900001
0.11649524 0.38390478 1.3900001
0.11914286 0.38390478 1.3900001
0.12179048 0.38390478 1.3900001
0.1244381 0.38390478 1.3900001
0.12708572 0.38390478 1.3900001
0.12973334 0.38390478 1.3900001
0.13238096 0.38390478 1.3900001
0.13502857 0.38390478 1.3900001
0.13718095 0.38252383 1.3850001
0.13981906 0.38252383 1.3850001
0.14245714 0.38252383 1.3850001
0.14509524 0.38252383 1.3850001
0.14709334 0.38086668 1.3790001
0.14972 0.38086668 1.3790001
0.15179428 0.37948573 1.3740001
0.15441144 0.37948573 1.3740001
0.15702857 0.37948573 1.3740001
0.15964572 0.37948573 1.3740001
0.16226286 0.37948573 1.3740001
0.16488001 0.37948573 1.3740001
0.16749714 0.37948573 1.3740001
0.17011429 0.37948573 1.3740001
0.17273143 0.37948573 1.3740001
0.17458287 0.3778286 1.368
0.17718858 0.3778286 1.368
0.1797943 0.3778286 1.368
0.1824 0.3778286 1.368
0.18500572 0.3778286 1.368
0.18761143 0.3778286 1.368
0.19105144 0.37948573 1.3740001
0.19366857 0.37948573 1.3740001
0.19628572 0.37948573 1.3740001
0.19962667 0.38086668 1.3790001
0.20313334 0.38252383 1.3850001
0.20577143 0.38252383 1.3850001
0.20840953 0.38252383 1.3850001
0.21104762 0.38252383 1.3850001
0.21445715 0.38390478 1.3900001
0.21710476 0.38390478 1.3900001
0.21975239 0.38390478 1.3900001
0.24512 0.42312384 1.5320001
0.2480381 0.42312384 1.5320001
0.25210285 0.42505717 1.539
0.2550343 0.42505717 1.539
0.26031238 0.42892382 1.5530001
0.26564381 0.43279049 1.567
0.26862857 0.43279049 1.567
0.28582668 0.45543811 1.649
0.29317334 0.46206668 1.6730001
0.29352573 0.45764762 1.6570001
0.29954669 0.46206668 1.6730001
0.30418095 0.46427619 1.6810001
0.30738288 0.46427619 1.6810001
0.31058478 0.46427619 1.6810001
0.31378669 0.46427619 1.6810001
-0.53504002 0.44384003 1.5960001
-0.53200001 0.44384003 1.5960001
-0.53128004 0.44578668 1.603
-0.52822667 0.44578668 1.603
-0.52288002 0.44384003 1.5960001
-0.51984 0.44384003 1.5960001
-0.51680005 0.44384003 1.5960001
-0.51150668 0.44189334 1.5890001
-0.50848001 0.44189334 1.5890001
-0.50768 0.44384003 1.5960001
-0.50242668 0.44189334 1.5890001
-0.49940002 0.44189334 1.5890001
-0.49637336 0.44189334 1.5890001
-0.49086288 0.4396686 1.5810001
-0.49032003 0.44189334 1.5890001
-0.48729336 0.44189334 1.5890001
-0.4818286 0.4396686 1.5810001
-0.47881716 0.4396686 1.5810001
-0.47580573 0.4396686 1.5810001
-0.47279429 0.4396686 1.5810001
-0.46978289 0.4396686 1.5810001
-0.46677145 0.4396686 1.5810001
-0.46376002 0.4396686 1.5810001
-0.45870858 0.43772191 1.5740001
-0.4557105 0.43772191 1.5740001
-0.45271239 0.43772191 1.5740001
-0.4497143 0.43772191 1.5740001
-0.44671622 0.43772191 1.5740001
-0.44371811 0.43772191 1.5740001
-0.44072002 0.43772191 1.5740001
-0.43772191 0.43772191 1.5740001
-0.43472382 0.43772191 1.5740001
-0.43172574 0.43772191 1.5740001
-0.42872763 0.43772191 1.5740001
-0.42572954 0.43772191 1.5740001
-0.42085144 0.43577525 1.567
-0.41786668 0.43577525 1.567
-0.41488191 0.43577525 1.567
-0.41189715 0.43577525 1.567
-0.40891239 0.43577525 1.567
-0.40411431 0.43382859 1.5600001
-0.40114287 0.43382859 1.5600001
-0.39638478 0.43188193 1.5530001
-0.39342669 0.43188193 1.5530001
-0.3904686 0.43188193 1.5530001
-0.38751048 0.43188193 1.5530001
-0.38455239 0.43188193 1.5530001
-0.3815943 0.43188193 1.5530001
-0.37863621 0.43188193 1.5530001
-0.37567812 0.43188193 1.5530001
-0.37272 0.43188193 1.5530001
-0.36976191 0.43188193 1.5530001
-0.36680382 0.43188193 1.5530001
-0.36384574 0.43188193 1.5530001
-0.35926098 0.42993525 1.5460001
-0.35631621 0.42993525 1.5460001
-0.35337144 0.42993525 1.5460001
-0.35042667 0.42993525 1.5460001
-0.34748191 0.42993525 1.5460001
-0.34453717 0.42993525 1.5460001
-0.3415924 0.42993525 1.5460001
-0.3371143 0.42798859 1.539
-0.33266288 0.42604193 1.5320001
-0.32974479 0.42604193 1.5320001
-0.32682669 0.42604193 1.5320001
-0.3239086 0.42604193 1.5320001
-0.31952381 0.42409524 1.5250001
-0.31661907 0.42409524 1.5250001
-0.3137143 0.42409524 1.5250001
-0.31080952 0.42409524 1.5250001
-0.30790478 0.42409524 1.5250001
-0.30500001 0.42409524 1.5250001
-0.30090669 0.42242667 1.5190001
-0.29801333 0.42242667 1.5190001
-0.29512 0.42242667 1.5190001
-0.29222667 0.42242667 1.5190001
-0.28933334 0.42242667 1.5190001
-0.28644001 0.42242667 1.5190001
-0.28354669 0.42242667 1.5190001
-0.28065336 0.42242667 1.5190001
-0.27776 0.42242667 1.5190001
-0.27360001 0.42048001 1.5120001
-0.27072001 0.42048001 1.5120001
-0.26784 0.42048001 1.5120001
-0.26496002 0.42048001 1.5120001
-0.26208001 0.42048001 1.5120001
-0.25920001 0.42048001 1.5120001
-0.25632 0.42048001 1.5120001
-0.25243428 0.41881144 1.506
-0.24956572 0.41881144 1.506
-0.24555048 0.41686478 1.4990001
-0.24269524 0.41686478 1.4990001
-0.23984002 0.41686478 1.4990001
-0.23698477 0.41686478 1.4990001
-0.23522286 0.41881144 1.506
-0.2323543 0.41881144 1.506
-0.22841905 0.41686478 1.4990001
-0.22556382 0.41686478 1.4990001
-0.22270858 0.41686478 1.4990001
-0.21985334 0.41686478 1.4990001
-0.2169981 0.41686478 1.4990001
-0.21414286 0.41686478 1.4990001
-0.21030097 0.41491812 1.4920001
-0.20843239 0.41686478 1.4990001
-0.20557715 0.41686478 1.4990001
-0.20272191 0.41686478 1.4990001
-0.19986667 0.41686478 1.4990001
-0.19609143 0.41491812 1.4920001
-0.19324952 0.41491812 1.4920001
-0.19040762 0.41491812 1.4920001
-0.18756571 0.41491812 1.4920001
-0.18472381 0.41491812 1.4920001
-0.18115048 0.41324955 1.4860001
-0.17832001 0.41324955 1.4860001
-0.17548953 0.41324955 1.4860001
-0.17265905 0.41324955 1.4860001
-0.16982858 0.41324955 1.4860001
-0.16632381 0.41158098 1.48
-0.16350476 0.41158098 1.48
-0.16068572 0.41158098 1.48
-0.15786667 0.41158098 1.48
-0.15504763 0.41158098 1.48
-0.15222858 0.41158098 1.48
-0.14940953 0.41158098 1.48
-0.14718477 0.41324955 1.4860001
-0.14377144 0.41158098 1.48
-0.14095239 0.41158098 1.48
-0.13813333 0.41158098 1.48
-0.13531429 0.41158098 1.48
-0.13186857 0.40963429 1.473
-0.12906286 0.40963429 1.473
-0.12574287 0.40796572 1.4670001
-0.12294858 0.40796572 1.4670001
-0.12015429 0.40796572 1.4670001
-0.11736 0.40796572 1.4670001
-0.11456572 0.40796572 1.4670001
-0.11177143 0.40796572 1.4670001
-0.10897715 0.40796572 1.4670001
-0.10618286 0.40796572 1.4670001
-0.10338858 0.40796572 1.4670001
-0.10018286 0.40629715 1.4610001
-0.097400002 0.40629715 1.4610001
-0.094617143 0.40629715 1.4610001
-0.091834292 0.40629715 1.4610001
-0.089051433 0.40629715 1.4610001
-0.086268574 0.40629715 1.4610001
-0.083485715 0.40629715 1.4610001
-0.080702864 0.40629715 1.4610001
-0.077920005 0.40629715 1.4610001
-0.075137146 0.40629715 1.4610001
-0.072651431 0.40796572 1.4670001
-0.069571428 0.40629715 1.4610001
-0.066788577 0.40629715 1.4610001
-0.064005718 0.40629715 1.4610001
-0.060971431 0.40462857 1.455
-0.058200002 0.40462857 1.455
-0.055200003 0.40296 1.4490001
-0.052440003 0.40296 1.4490001
-0.049680002 0.40296 1.4490001
-0.046920002 0.40296 1.4490001
-0.043977145 0.40129143 1.4430001
-0.041228574 0.40129143 1.4430001
-0.038480002 0.40129143 1.4430001
-0.035731431 0.40129143 1.4430001
-0.03298286 0.40129143 1.4430001
-0.030234287 0.40129143 1.4430001
-0.027485715 0.40129143 1.4430001
-0.02453143 0.39795431 1.4310001
-0.021805715 0.39795431 1.4310001
-0.01908 0.39795431 1.4310001
-0.016354287 0.39795431 1.4310001
-0.013628572 0.39795431 1.4310001
-0.010902857 0.39795431 1.4310001
-0.0081428578 0.39628574 1.4250001
-0.0054285717 0.39628574 1.4250001
-0.0027257144 0.39795431 1.4310001
0 0.39628574 1.4250001
0.0027142859 0.39628574 1.4250001
0.0054285717 0.39628574 1.4250001
0.0081085721 0.39461717 1.419
0.010811429 0.39461717 1.419
0.013514286 0.39461717 1.419
0.016217144 0.39461717 1.419
0.018920001 0.39461717 1.419
0.021622857 0.39461717 1.419
0.024325715 0.39461717 1.419
0.027028572 0.39461717 1.419
0.02973143 0.39461717 1.419
0.032434288 0.39461717 1.419
0.035137143 0.39461717 1.419
0.03768 0.3929486 1.4130001
0.040371429 0.3929486 1.4130001
0.043245714 0.39461717 1.419
0.045948572 0.39461717 1.419
0.048445717 0.3929486 1.4130001
0.051137146 0.3929486 1.4130001
0.054057144 0.39461717 1.419
0.056520004 0.3929486 1.4130001
0.059211429 0.3929486 1.4130001
0.061902858 0.3929486 1.4130001
0.064320005 0.39128003 1.4070001
0.067000002 0.39128003 1.4070001
0.069680005 0.39128003 1.4070001
0.072360002 0.39128003 1.4070001
0.075040005 0.39128003 1.4070001
0.077720001 0.39128003 1.4070001
0.080400005 0.39128003 1.4070001
0.083080001 0.39128003 1.4070001
0.085760005 0.39128003 1.4070001
0.088440001 0.39128003 1.4070001
0.091120005 0.39128003 1.4070001
0.093466669 0.38988954 1.4020001
0.096137144 0.38988954 1.4020001
0.098384768 0.38822097 1.396
0.10104381 0.38822097 1.396
0.10370286 0.38822097 1.396
0.10636191 0.38822097 1.396
0.10855238 0.38655239 1.3900001
0.1112 0.38655239 1.3900001
0.11384762 0.38655239 1.3900001
0.11649524 0.38655239 1.3900001
0.11914286 0.38655239 1.3900001
0.12179048 0.38655239 1.3900001
0.1244381 0.38655239 1.3900001
0.12708572 0.38655239 1.3900001
0.12973334 0.38655239 1.3900001
0.13238096 0.38655239 1.3900001
0.13502857 0.38655239 1.3900001
0.13767619 0.38655239 1.3900001
0.13981906 0.38516191 1.3850001
0.14245714 0.38516191 1.3850001
0.14509524 0.38516191 1.3850001
0.14709334 0.38349333 1.3790001
0.14972 0.38349333 1.3790001
0.15179428 0.38210288 1.3740001
0.15441144 0.38210288 1.3740001
0.15702857 0.38210288 1.3740001
0.15964572 0.38210288 1.3740001
0.16226286 0.38210288 1.3740001
0.16488001 0.38210288 1.3740001
0.16749714 0.38210288 1.3740001
0.17011429 0.38210288 1.3740001
0.17273143 0.38210288 1.3740001
0.17534858 0.38210288 1.3740001
0.17718858 0.3804343 1.368
0.1797943 0.3804343 1.368
0.1824 0.3804343 1.368
0.18500572 0.3804343 1.368
0.18761143 0.3804343 1.368
0.19105144 0.38210288 1.3740001
0.19366857 0.38210288 1.3740001
0.19700001 0.38349333 1.3790001
0.19962667 0.38349333 1.3790001
0.20313334 0.38516191 1.3850001
0.20577143 0.38516191 1.3850001
0.20916191 0.38655239 1.3900001
0.21180953 0.38655239 1.3900001
0.21445715 0.38655239 1.3900001
0.21710476 0.38655239 1.3900001
0.21975239 0.38655239 1.3900001
0.24512 0.42604193 1.5320001
0.2480381 0.42604193 1.5320001
0.25210285 0.42798859 1.539
0.25619429 0.42993525 1.5460001
0.26148573 0.43382859 1.5600001
0.26564381 0.43577525 1.567
0.26862857 0.43577525 1.567
0.28721336 0.46080384 1.6570001
0.29317334 0.46525335 1.6730001
0.29494286 0.46302858 1.6650001
0.30097905 0.46747813 1.6810001
0.30418095 0.46747813 1.6810001
0.30445716 0.46302858 1.6650001
0.30762857 0.46302858 1.6650001
0.31080002 0.46302858 1.6650001
-0.53504002 0.44688001 1.5960001
-0.53200001 0.44688001 1.5960001
-0.53128004 0.44884002 1.603
-0.52592003 0.44688001 1.5960001
-0.52288002 0.44688001 1.5960001
-0.51984 0.44688001 1.5960001
-0.51680005 0.44688001 1.5960001
-0.51376003 0.44688001 1.5960001
-0.51072001 0.44688001 1.5960001
-0.50768 0.44688001 1.5960001
-0.50242668 0.44492 1.5890001
-0.50160003 0.44688001 1.5960001
-0.49637336 0.44492 1.5890001
-0.49334669 0.44492 1.5890001
-0.49032003 0.44492 1.5890001
-0.48729336 0.44492 1.5890001
-0.4818286 0.44268003 1.5810001
-0.47881716 0.44268003 1.5810001
-0.47580573 0.44268003 1.5810001
-0.47279429 0.44268003 1.5810001
-0.46978289 0.44268003 1.5810001
-0.46677145 0.44268003 1.5810001
-0.46376002 0.44268003 1.5810001
-0.45870858 0.44072002 1.5740001
-0.45773715 0.44268003 1.5810001
-0.45472574 0.44268003 1.5810001
-0.45171431 0.44268003 1.5810001
-0.44870287 0.44268003 1.5810001
-0.44371811 0.44072002 1.5740001
-0.44072002 0.44072002 1.5740001
-0.43772191 0.44072002 1.5740001
-0.43472382 0.44072002 1.5740001
-0.43172574 0.44072002 1.5740001
-0.42872763 0.44072002 1.5740001
-0.42572954 0.44072002 1.5740001
-0.42085144 0.43876001 1.567
-0.41786668 0.43876001 1.567
-0.41488191 0.43876001 1.567
-0.41189715 0.43876001 1.567
-0.40891239 0.43876001 1.567
-0.40230095 0.43484002 1.5530001
-0.39934286 0.43484002 1.5530001
-0.39638478 0.43484002 1.5530001
-0.39342669 0.43484002 1.5530001
-0.3904686 0.43484002 1.5530001
-0.38751048 0.43484002 1.5530001
-0.38455239 0.43484002 1.5530001
-0.3815943 0.43484002 1.5530001
-0.37863621 0.43484002 1.5530001
-0.37567812 0.43484002 1.5530001
-0.37272 0.43484002 1.5530001
-0.36976191 0.43484002 1.5530001
-0.36680382 0.43484002 1.5530001
-0.36220571 0.43288001 1.5460001
-0.35926098 0.43288001 1.5460001
-0.35631621 0.43288001 1.5460001
-0.35337144 0.43288001 1.5460001
-0.35042667 0.43288001 1.5460001
-0.34748191 0.43288001 1.5460001
-0.34453717 0.43288001 1.5460001
-0.3415924 0.43288001 1.5460001
-0.3371143 0.43092 1.539
-0.33266288 0.42896003 1.5320001
-0.32974479 0.42896003 1.5320001
-0.32682669 0.42896003 1.5320001
-0.32242858 0.42700002 1.5250001
-0.31952381 0.42700002 1.5250001
-0.31661907 0.42700002 1.5250001
-0.3137143 0.42700002 1.5250001
-0.31080952 0.42700002 1.5250001
-0.30790478 0.42700002 1.5250001
-0.30380002 0.42532003 1.5190001
-0.30090669 0.42532003 1.5190001
-0.29801333 0.42532003 1.5190001
-0.29512 0.42532003 1.5190001
-0.29222667 0.42532003 1.5190001
-0.28933334 0.42532003 1.5190001
-0.28644001 0.42532003 1.5190001
-0.28224 0.42336002 1.5120001
-0.27936 0.42336002 1.5120001
-0.27776 0.42532003 1.5190001
-0.27360001 0.42336002 1.5120001
-0.27072001 0.42336002 1.5120001
-0.26784 0.42336002 1.5120001
-0.26496002 0.42336002 1.5120001
-0.26208001 0.42336002 1.5120001
-0.25920001 0.42336002 1.5120001
-0.25530288 0.42168 1.506
-0.25243428 0.42168 1.506
-0.24956572 0.42168 1.506
-0.24555048 0.41972002 1.4990001
-0.24269524 0.41972002 1.4990001
-0.24096 0.42168 1.506
-0.23698477 0.41972002 1.4990001
-0.23522286 0.42168 1.506
-0.2323543 0.42168 1.506
-0.22841905 0.41972002 1.4990001
-0.22556382 0.41972002 1.4990001
-0.22270858 0.41972002 1.4990001
-0.21985334 0.41972002 1.4990001
-0.2169981 0.41972002 1.4990001
-0.21414286 0.41972002 1.4990001
-0.21030097 0.41776001 1.4920001
-0.20843239 0.41972002 1.4990001
-0.20557715 0.41972002 1.4990001
-0.20272191 0.41972002 1.4990001
-0.19893335 0.41776001 1.4920001
-0.19609143 0.41776001 1.4920001
-0.19324952 0.41776001 1.4920001
-0.19040762 0.41776001 1.4920001
-0.18756571 0.41776001 1.4920001
-0.18472381 0.41776001 1.4920001
-0.18115048 0.41608003 1.4860001
-0.17832001 0.41608003 1.4860001
-0.17548953 0.41608003 1.4860001
-0.17265905 0.41608003 1.4860001
-0.16982858 0.41608003 1.4860001
-0.1669981 0.41608003 1.4860001
-0.16350476 0.41440001 1.48
-0.16068572 0.41440001 1.48
-0.15786667 0.41440001 1.48
-0.15504763 0.41440001 1.48
-0.15222858 0.41440001 1.48
-0.14940953 0.41440001 1.48
-0.14718477 0.41608003 1.4860001
-0.14377144 0.41440001 1.48
-0.14095239 0.41440001 1.48
-0.13813333 0.41440001 1.48
-0.13531429 0.41440001 1.48
-0.13186857 0.41244 1.473
-0.12906286 0.41244 1.473
-0.12574287 0.41076002 1.4670001
-0.12294858 0.41076002 1.4670001
-0.12015429 0.41076002 1.4670001
-0.11736 0.41076002 1.4670001
-0.11456572 0.41076002 1.4670001
-0.11177143 0.41076002 1.4670001
-0.10897715 0.41076002 1.4670001
-0.10618286 0.41076002 1.4670001
-0.10338858 0.41076002 1.4670001
-0.10018286 0.40908003 1.4610001
-0.097400002 0.40908003 1.4610001
-0.094617143 0.40908003 1.4610001
-0.091834292 0.40908003 1.4610001
-0.089051433 0.40908003 1.4610001
-0.086268574 0.40908003 1.4610001
-0.083485715 0.40908003 1.4610001
-0.080702864 0.40908003 1.4610001
-0.077920005 0.40908003 1.4610001
-0.075445719 0.41076002 1.4670001
-0.072651431 0.41076002 1.4670001
-0.069571428 0.40908003 1.4610001
-0.066788577 0.40908003 1.4610001
-0.064005718 0.40908003 1.4610001
-0.061222859 0.40908003 1.4610001
-0.058200002 0.40740001 1.455
-0.055200003 0.40572003 1.4490001
-0.052440003 0.40572003 1.4490001
-0.049680002 0.40572003 1.4490001
-0.046920002 0.40572003 1.4490001
-0.043977145 0.40404001 1.4430001
-0.041228574 0.40404001 1.4430001
-0.038480002 0.40404001 1.4430001
-0.035731431 0.40404001 1.4430001
-0.03298286 0.40404001 1.4430001
-0.030234287 0.40404001 1.4430001
-0.027257144 0.40068001 1.4310001
-0.02453143 0.40068001 1.4310001
-0.021805715 0.40068001 1.4310001
-0.01908 0.40068001 1.4310001
-0.016354287 0.40068001 1.4310001
-0.013628572 0.40068001 1.4310001
-0.010902857 0.40068001 1.4310001
-0.0081428578 0.39900002 1.4250001
-0.0054285717 0.39900002 1.4250001
-0.0027142859 0.39900002 1.4250001
0 0.40068001 1.4310001
0.0027142859 0.39900002 1.4250001
0.0054285717 0.39900002 1.4250001
0.0081085721 0.39732 1.419
0.010811429 0.39732 1.419
0.013514286 0.39732 1.419
0.016217144 0.39732 1.419
0.018920001 0.39732 1.419
0.021622857 0.39732 1.419
0.024325715 0.39732 1.419
0.027028572 0.39732 1.419
0.02973143 0.39732 1.419
0.032434288 0.39732 1.419
0.035137143 0.39732 1.419
0.037840001 0.39732 1.419
0.04054286 0.39732 1.419
0.043245714 0.39732 1.419
0.045948572 0.39732 1.419
0.048651431 0.39732 1.419
0.051354289 0.39732 1.419
0.053828575 0.39564002 1.4130001
0.056520004 0.39564002 1.4130001
0.059211429 0.39564002 1.4130001
0.061902858 0.39564002 1.4130001
0.064320005 0.39396003 1.4070001
0.067000002 0.39396003 1.4070001
0.069680005 0.39396003 1.4070001
0.072360002 0.39396003 1.4070001
0.075040005 0.39396003 1.4070001
0.077720001 0.39396003 1.4070001
0.080400005 0.39396003 1.4070001
0.083080001 0.39396003 1.4070001
0.085760005 0.39396003 1.4070001
0.088440001 0.39396003 1.4070001
0.091120005 0.39396003 1.4070001
0.093466669 0.39256001 1.4020001
0.096137144 0.39256001 1.4020001
0.098807625 0.39256001 1.4020001
0.10104381 0.39088002 1.396
0.10370286 0.39088002 1.396
0.10636191 0.39088002 1.396
0.10855238 0.3892 1.3900001
0.1112 0.3892 1.3900001
0.11384762 0.3892 1.3900001
0.11649524 0.3892 1.3900001
0.11914286 0.3892 1.3900001
0.12179048 0.3892 1.3900001
0.1244381 0.3892 1.3900001
0.12708572 0.3892 1.3900001
0.12973334 0.3892 1.3900001
0.13238096 0.3892 1.3900001
0.13502857 0.3892 1.3900001
0.13767619 0.3892 1.3900001
0.13981906 0.38780001 1.3850001
0.14245714 0.38780001 1.3850001
0.14509524 0.38780001 1.3850001
0.14709334 0.38612002 1.3790001
0.14972 0.38612002 1.3790001
0.15179428 0.38472003 1.3740001
0.15441144 0.38472003 1.3740001
0.15702857 0.38472003 1.3740001
0.16022667 0.38612002 1.3790001
0.16226286 0.38472003 1.3740001
0.16548 0.38612002 1.3790001
0.16810668 0.38612002 1.3790001
0.17011429 0.38472003 1.3740001
0.17273143 0.38472003 1.3740001
0.17534858 0.38472003 1.3740001
0.17718858 0.38304001 1.368
0.1797943 0.38304001 1.368
0.1824 0.38304001 1.368
0.18500572 0.38304001 1.368
0.18761143 0.38304001 1.368
0.19021715 0.38304001 1.368
0.19366857 0.38472003 1.3740001
0.19628572 0.38472003 1.3740001
0.19962667 0.38612002 1.3790001
0.20313334 0.38780001 1.3850001
0.20577143 0.38780001 1.3850001
0.20840953 0.38780001 1.3850001
0.21180953 0.3892 1.3900001
0.21445715 0.3892 1.3900001
0.21804191 0.39088002 1.396
0.22070096 0.39088002 1.396
0.24512 0.42896003 1.5320001
0.2480381 0.42896003 1.5320001
0.25324953 0.43288001 1.5460001
0.25735429 0.43484002 1.5530001
0.26383239 0.44072002 1.5740001
0.26683047 0.44072002 1.5740001
0.27360001 0.44688001 1.5960001
0.27664 0.44688001 1.5960001
0.29317334 0.46844003 1.6730001
0.29494286 0.46620002 1.6650001
0.30097905 0.47068003 1.6810001
0.30273333 0.46844003 1.6730001
0.30445716 0.46620002 1.6650001
0.30762857 0.46620002 1.6650001
0.31080002 0.46620002 1.6650001
-0.53504002 0.44992003 1.5960001
-0.53200001 0.44992003 1.5960001
-0.53128004 0.45189336 1.603
-0.52592003 0.44992003 1.5960001
-0.52288002 0.44992003 1.5960001
-0.51984 0.44992003 1.5960001
-0.51680005 0.44992003 1.5960001
-0.51376003 0.44992003 1.5960001
-0.51072001 0.44992003 1.5960001
-0.50768 0.44992003 1.5960001
-0.50464004 0.44992003 1.5960001
-0.50160003 0.44992003 1.5960001
-0.49637336 0.4479467 1.5890001
-0.49334669 0.4479467 1.5890001
-0.49032003 0.4479467 1.5890001
-0.48729336 0.4479467 1.5890001
-0.4842667 0.4479467 1.5890001
-0.48124 0.4479467 1.5890001
-0.47821334 0.4479467 1.5890001
-0.47279429 0.44569144 1.5810001
-0.46978289 0.44569144 1.5810001
-0.46677145 0.44569144 1.5810001
-0.46376002 0.44569144 1.5810001
-0.45870858 0.44371811 1.5740001
-0.45773715 0.44569144 1.5810001
-0.45472574 0.44569144 1.5810001
-0.4497143 0.44371811 1.5740001
-0.44870287 0.44569144 1.5810001
-0.44371811 0.44371811 1.5740001
-0.44072002 0.44371811 1.5740001
-0.43772191 0.44371811 1.5740001
-0.43472382 0.44371811 1.5740001
-0.43172574 0.44371811 1.5740001
-0.42872763 0.44371811 1.5740001
-0.42572954 0.44371811 1.5740001
-0.42085144 0.44174477 1.567
-0.41786668 0.44174477 1.567
-0.41488191 0.44174477 1.567
-0.41189715 0.44174477 1.567
-0.40891239 0.44174477 1.567
-0.40411431 0.43977144 1.5600001
-0.39934286 0.43779811 1.5530001
-0.39638478 0.43779811 1.5530001
-0.39342669 0.43779811 1.5530001
-0.3904686 0.43779811 1.5530001
-0.38751048 0.43779811 1.5530001
-0.38455239 0.43779811 1.5530001
-0.37987429 0.43582478 1.5460001
-0.37863621 0.43779811 1.5530001
-0.37567812 0.43779811 1.5530001
-0.37272 0.43779811 1.5530001
-0.36809525 0.43582478 1.5460001
-0.36515048 0.43582478 1.5460001
-0.36220571 0.43582478 1.5460001
-0.35926098 0.43582478 1.5460001
-0.35631621 0.43582478 1.5460001
-0.35337144 0.43582478 1.5460001
-0.35042667 0.43582478 1.5460001
-0.34748191 0.43582478 1.5460001
-0.34453717 0.43582478 1.5460001
-0.3415924 0.43582478 1.5460001
-0.3371143 0.43385145 1.539
-0.33266288 0.43187812 1.5320001
-0.32974479 0.43187812 1.5320001
-0.32682669 0.43187812 1.5320001
-0.3239086 0.43187812 1.5320001
-0.31952381 0.42990479 1.5250001
-0.31661907 0.42990479 1.5250001
-0.3137143 0.42990479 1.5250001
-0.30958667 0.42821336 1.5190001
-0.30669335 0.42821336 1.5190001
-0.30380002 0.42821336 1.5190001
-0.30090669 0.42821336 1.5190001
-0.29801333 0.42821336 1.5190001
-0.29512 0.42821336 1.5190001
-0.29222667 0.42821336 1.5190001
-0.28933334 0.42821336 1.5190001
-0.28644001 0.42821336 1.5190001
-0.28354669 0.42821336 1.5190001
-0.28065336 0.42821336 1.5190001
-0.27776 0.42821336 1.5190001
-0.27360001 0.42624003 1.5120001
-0.27072001 0.42624003 1.5120001
-0.26784 0.42624003 1.5120001
-0.26496002 0.42624003 1.5120001
-0.26208001 0.42624003 1.5120001
-0.25920001 0.42624003 1.5120001
-0.25530288 0.4245486 1.506
-0.25243428 0.4245486 1.506
-0.24956572 0.4245486 1.506
-0.24555048 0.42257527 1.4990001
-0.24269524 0.42257527 1.4990001
-0.23984002 0.42257527 1.4990001
-0.23698477 0.42257527 1.4990001
-0.23412953 0.42257527 1.4990001
-0.23127429 0.42257527 1.4990001
-0.22841905 0.42257527 1.4990001
-0.22556382 0.42257527 1.4990001
-0.22270858 0.42257527 1.4990001
-0.21985334 0.42257527 1.4990001
-0.2169981 0.42257527 1.4990001
-0.21414286 0.42257527 1.4990001
-0.21128763 0.42257527 1.4990001
-0.20843239 0.42257527 1.4990001
-0.20557715 0.42257527 1.4990001
-0.20272191 0.42257527 1.4990001
-0.19893335 0.42060193 1.4920001
-0.19609143 0.42060193 1.4920001
-0.19324952 0.42060193 1.4920001
-0.19040762 0.42060193 1.4920001
-0.18756571 0.42060193 1.4920001
-0.18472381 0.42060193 1.4920001
-0.18115048 0.4189105 1.4860001
-0.17832001 0.4189105 1.4860001
-0.17548953 0.4189105 1.4860001
-0.17265905 0.4189105 1.4860001
-0.16982858 0.4189105 1.4860001
-0.1669981 0.4189105 1.4860001
-0.16416763 0.4189105 1.4860001
-0.16133715 0.4189105 1.4860001
-0.15850668 0.4189105 1.4860001
-0.1556762 0.4189105 1.4860001
-0.15284573 0.4189105 1.4860001
-0.15001525 0.4189105 1.4860001
-0.14718477 0.4189105 1.4860001
-0.14377144 0.41721907 1.48
-0.14095239 0.41721907 1.48
-0.13748001 0.41524574 1.473
-0.1346743 0.41524574 1.473
-0.13186857 0.41524574 1.473
-0.12906286 0.41524574 1.473
-0.12574287 0.41355431 1.4670001
-0.12294858 0.41355431 1.4670001
-0.12015429 0.41355431 1.4670001
-0.11736 0.41355431 1.4670001
-0.11456572 0.41355431 1.4670001
-0.11177143 0.41355431 1.4670001
-0.10897715 0.41355431 1.4670001
-0.10618286 0.41355431 1.4670001
-0.10338858 0.41355431 1.4670001
-0.10018286 0.41186288 1.4610001
-0.097400002 0.41186288 1.4610001
-0.094617143 0.41186288 1.4610001
-0.091834292 0.41186288 1.4610001
-0.089051433 0.41186288 1.4610001
-0.086268574 0.41186288 1.4610001
-0.083485715 0.41186288 1.4610001
-0.080702864 0.41186288 1.4610001
-0.077920005 0.41186288 1.4610001
-0.075445719 0.41355431 1.4670001
-0.072651431 0.41355431 1.4670001
-0.069571428 0.41186288 1.4610001
-0.066788577 0.41186288 1.4610001
-0.064005718 0.41186288 1.4610001
-0.060971431 0.41017145 1.455
-0.058200002 0.41017145 1.455
-0.055200003 0.40848002 1.4490001
-0.052440003 0.40848002 1.4490001
-0.049680002 0.40848002 1.4490001
-0.046920002 0.40848002 1.4490001
-0.043977145 0.40678859 1.4430001
-0.041228574 0.40678859 1.4430001
-0.038480002 0.40678859 1.4430001
-0.035731431 0.40678859 1.4430001
-0.03298286 0.40678859 1.4430001
-0.030234287 0.40678859 1.4430001
-0.027257144 0.40340573 1.4310001
-0.02453143 0.40340573 1.4310001
-0.021805715 0.40340573 1.4310001
-0.01908 0.40340573 1.4310001
-0.016354287 0.40340573 1.4310001
-0.013628572 0.40340573 1.4310001
-0.010857143 0.4017143 1.4250001
-0.0081428578 0.4017143 1.4250001
-0.0054514287 0.40340573 1.4310001
-0.0027257144 0.40340573 1.4310001
0 0.4017143 1.4250001
0.0027142859 0.4017143 1.4250001
0.0054285717 0.4017143 1.4250001
0.0081085721 0.40002286 1.419
0.010857143 0.4017143 1.4250001
0.013514286 0.40002286 1.419
0.016285716 0.4017143 1.4250001
0.019000001 0.4017143 1.4250001
0.021714287 0.4017143 1.4250001
0.024428573 0.4017143 1.4250001
0.027028572 0.40002286 1.419
0.02973143 0.40002286 1.419
0.032434288 0.40002286 1.419
0.035137143 0.40002286 1.419
0.03768 0.39833143 1.4130001
0.04054286 0.40002286 1.419
0.043245714 0.40002286 1.419
0.045948572 0.40002286 1.419
0.048651431 0.40002286 1.419
0.051137146 0.39833143 1.4130001
0.053828575 0.39833143 1.4130001
0.056520004 0.39833143 1.4130001
0.059211429 0.39833143 1.4130001
0.061902858 0.39833143 1.4130001
0.064594291 0.39833143 1.4130001
0.067000002 0.39664 1.4070001
0.069680005 0.39664 1.4070001
0.072360002 0.39664 1.4070001
0.075040005 0.39664 1.4070001
0.077720001 0.39664 1.4070001
0.080400005 0.39664 1.4070001
0.083080001 0.39664 1.4070001
0.085760005 0.39664 1.4070001
0.088440001 0.39664 1.4070001
0.091120005 0.39664 1.4070001
0.093466669 0.3952305 1.4020001
0.096137144 0.3952305 1.4020001
0.098807625 0.3952305 1.4020001
0.10104381 0.39353907 1.396
0.10325715 0.39184764 1.3900001
0.10636191 0.39353907 1.396
0.10855238 0.39184764 1.3900001
0.1112 0.39184764 1.3900001
0.11384762 0.39184764 1.3900001
0.11649524 0.39184764 1.3900001
0.11914286 0.39184764 1.3900001
0.12179048 0.39184764 1.3900001
0.1244381 0.39184764 1.3900001
0.12708572 0.39184764 1.3900001
0.12973334 0.39184764 1.3900001
0.13238096 0.39184764 1.3900001
0.13454287 0.39043811 1.3850001
0.13767619 0.39184764 1.3900001
0.13981906 0.39043811 1.3850001
0.14245714 0.39043811 1.3850001
0.14509524 0.39043811 1.3850001
0.14773335 0.39043811 1.3850001
0.15037143 0.39043811 1.3850001
0.15234667 0.38874668 1.3790001
0.15497334 0.38874668 1.3790001
0.1576 0.38874668 1.3790001
0.16022667 0.38874668 1.3790001
0.16285335 0.38874668 1.3790001
0.16548 0.38874668 1.3790001
0.16810668 0.38874668 1.3790001
0.17073333 0.38874668 1.3790001
0.17273143 0.38733715 1.3740001
0.17534858 0.38733715 1.3740001
0.17718858 0.38564572 1.368
0.1797943 0.38564572 1.368
0.1824 0.38564572 1.368
0.18500572 0.38564572 1.368
0.18761143 0.38564572 1.368
0.19105144 0.38733715 1.3740001
0.19366857 0.38733715 1.3740001
0.19628572 0.38733715 1.3740001
0.19962667 0.38874668 1.3790001
0.20313334 0.39043811 1.3850001
0.20577143 0.39043811 1.3850001
0.20840953 0.39043811 1.3850001
0.21180953 0.39184764 1.3900001
0.21445715 0.39184764 1.3900001
0.21710476 0.39184764 1.3900001
0.24220191 0.43187812 1.5320001
0.24512 0.43187812 1.5320001
0.25143811 0.43779811 1.5530001
0.2543962 0.43779811 1.5530001
0.25851429 0.43977144 1.5600001
0.26383239 0.44371811 1.5740001
0.26801714 0.44569144 1.5810001
0.27617145 0.45414859 1.6110001
0.28444001 0.46260574 1.641
0.29317334 0.47162667 1.6730001
0.29494286 0.46937144 1.6650001
0.29954669 0.47162667 1.6730001
0.30128571 0.46937144 1.6650001
0.30299431 0.46711621 1.6570001
0.3061505 0.46711621 1.6570001
0.31080002 0.46937144 1.6650001
-0.53571999 0.45097336 1.5890001
-0.53269333 0.45097336 1.5890001
-0.52966666 0.45097336 1.5890001
-0.52896005 0.45296001 1.5960001
-0.52592003 0.45296001 1.5960001
-0.52288002 0.45296001 1.5960001
-0.51984 0.45296001 1.5960001
-0.51680005 0.45296001 1.5960001
-0.51376003 0.45296001 1.5960001
-0.51072001 0.45296001 1.5960001
-0.50768 0.45296001 1.5960001
-0.50464004 0.45296001 1.5960001
-0.50160003 0.45296001 1.5960001
-0.49856001 0.45296001 1.5960001
-0.49334669 0.45097336 1.5890001
-0.49032003 0.45097336 1.5890001
-0.48944002 0.45296001 1.5960001
-0.4842667 0.45097336 1.5890001
-0.48124 0.45097336 1.5890001
-0.47821334 0.45097336 1.5890001
-0.47279429 0.44870287 1.5810001
-0.46978289 0.44870287 1.5810001
-0.46677145 0.44870287 1.5810001
-0.46376002 0.44870287 1.5810001
-0.45870858 0.44671622 1.5740001
-0.45773715 0.44870287 1.5810001
-0.45472574 0.44870287 1.5810001
-0.4497143 0.44671622 1.5740001
-0.44671622 0.44671622 1.5740001
-0.44371811 0.44671622 1.5740001
-0.44072002 0.44671622 1.5740001
-0.43772191 0.44671622 1.5740001
-0.43472382 0.44671622 1.5740001
-0.43172574 0.44671622 1.5740001
-0.42872763 0.44671622 1.5740001
-0.42572954 0.44671622 1.5740001
-0.42085144 0.44472954 1.567
-0.41786668 0.44472954 1.567
-0.41488191 0.44472954 1.567
-0.41189715 0.44472954 1.567
-0.40708572 0.44274288 1.5600001
-0.40411431 0.44274288 1.5600001
-0.39934286 0.4407562 1.5530001
-0.39638478 0.4407562 1.5530001
-0.39342669 0.4407562 1.5530001
-0.3904686 0.4407562 1.5530001
-0.38751048 0.4407562 1.5530001
-0.38455239 0.4407562 1.5530001
-0.3815943 0.4407562 1.5530001
-0.37863621 0.4407562 1.5530001
-0.37567812 0.4407562 1.5530001
-0.37272 0.4407562 1.5530001
-0.36809525 0.43876955 1.5460001
-0.36680382 0.4407562 1.5530001
-0.36220571 0.43876955 1.5460001
-0.35926098 0.43876955 1.5460001
-0.35631621 0.43876955 1.5460001
-0.35337144 0.43876955 1.5460001
-0.35042667 0.43876955 1.5460001
-0.34748191 0.43876955 1.5460001
-0.34453717 0.43876955 1.5460001
-0.3415924 0.43876955 1.5460001
-0.3371143 0.43678287 1.539
-0.33266288 0.43479621 1.5320001
-0.32974479 0.43479621 1.5320001
-0.32682669 0.43479621 1.5320001
-0.3239086 0.43479621 1.5320001
-0.31952381 0.43280953 1.5250001
-0.31661907 0.43280953 1.5250001
-0.3137143 0.43280953 1.5250001
-0.30958667 0.43110669 1.5190001
-0.30669335 0.43110669 1.5190001
-0.30380002 0.43110669 1.5190001
-0.30090669 0.43110669 1.5190001
-0.29801333 0.43110669 1.5190001
-0.29512 0.43110669 1.5190001
-0.29222667 0.43110669 1.5190001
-0.28933334 0.43110669 1.5190001
-0.28644001 0.43110669 1.5190001
-0.28354669 0.43110669 1.5190001
-0.28065336 0.43110669 1.5190001
-0.27776 0.43110669 1.5190001
-0.27486667 0.43110669 1.5190001
-0.27197334 0.43110669 1.5190001
-0.26784 0.42912 1.5120001
-0.26496002 0.42912 1.5120001
-0.26208001 0.42912 1.5120001
-0.25920001 0.42912 1.5120001
-0.25530288 0.42741716 1.506
-0.25243428 0.42741716 1.506
-0.24956572 0.42741716 1.506
-0.24555048 0.42543051 1.4990001
-0.24269524 0.42543051 1.4990001
-0.23984002 0.42543051 1.4990001
-0.23698477 0.42543051 1.4990001
-0.23412953 0.42543051 1.4990001
-0.2301943 0.42344382 1.4920001
-0.2273524 0.42344382 1.4920001
-0.22556382 0.42543051 1.4990001
-0.22166859 0.42344382 1.4920001
-0.21985334 0.42543051 1.4990001
-0.2169981 0.42543051 1.4990001
-0.21414286 0.42543051 1.4990001
-0.21128763 0.42543051 1.4990001
-0.20843239 0.42543051 1.4990001
-0.20557715 0.42543051 1.4990001
-0.20272191 0.42543051 1.4990001
-0.19893335 0.42344382 1.4920001
-0.19609143 0.42344382 1.4920001
-0.19324952 0.42344382 1.4920001
-0.19040762 0.42344382 1.4920001
-0.18681143 0.42174098 1.4860001
-0.18398096 0.42174098 1.4860001
-0.18115048 0.42174098 1.4860001
-0.17832001 0.42174098 1.4860001
-0.17548953 0.42174098 1.4860001
-0.17265905 0.42174098 1.4860001
-0.16982858 0.42174098 1.4860001
-0.1669981 0.42174098 1.4860001
-0.16416763 0.42174098 1.4860001
-0.16133715 0.42174098 1.4860001
-0.15850668 0.42174098 1.4860001
-0.1556762 0.42174098 1.4860001
-0.15284573 0.42174098 1.4860001
-0.14940953 0.4200381 1.48
-0.14659049 0.4200381 1.48
-0.14377144 0.4200381 1.48
-0.14095239 0.4200381 1.48
-0.13748001 0.41805145 1.473
-0.1346743 0.41805145 1.473
-0.13186857 0.41805145 1.473
-0.12906286 0.41805145 1.473
-0.12574287 0.41634858 1.4670001
-0.12294858 0.41634858 1.4670001
-0.12015429 0.41634858 1.4670001
-0.11736 0.41634858 1.4670001
-0.11503429 0.41805145 1.473
-0.11177143 0.41634858 1.4670001
-0.10897715 0.41634858 1.4670001
-0.10574858 0.41464573 1.4610001
-0.10338858 0.41634858 1.4670001
-0.10018286 0.41464573 1.4610001
-0.097400002 0.41464573 1.4610001
-0.094617143 0.41464573 1.4610001
-0.091834292 0.41464573 1.4610001
-0.089051433 0.41464573 1.4610001
-0.086268574 0.41464573 1.4610001
-0.083485715 0.41464573 1.4610001
-0.080702864 0.41464573 1.4610001
-0.077920005 0.41464573 1.4610001
-0.075137146 0.41464573 1.4610001
-0.072651431 0.41634858 1.4670001
-0.069571428 0.41464573 1.4610001
-0.066788577 0.41464573 1.4610001
-0.064005718 0.41464573 1.4610001
-0.060971431 0.41294289 1.455
-0.058200002 0.41294289 1.455
-0.055428572 0.41294289 1.455
-0.052440003 0.41124001 1.4490001
-0.049680002 0.41124001 1.4490001
-0.046920002 0.41124001 1.4490001
-0.043977145 0.40953717 1.4430001
-0.041228574 0.40953717 1.4430001
-0.038480002 0.40953717 1.4430001
-0.035731431 0.40953717 1.4430001
-0.03298286 0.40953717 1.4430001
-0.030234287 0.40953717 1.4430001
-0.027257144 0.40613145 1.4310001
-0.02453143 0.40613145 1.4310001
-0.021805715 0.40613145 1.4310001
-0.01908 0.40613145 1.4310001
-0.016354287 0.40613145 1.4310001
-0.013628572 0.40613145 1.4310001
-0.010902857 0.40613145 1.4310001
-0.0081771435 0.40613145 1.4310001
-0.0054514287 0.40613145 1.4310001
-0.0027257144 0.40613145 1.4310001
0 0.40613145 1.4310001
0.0027142859 0.40442857 1.4250001
0.0054285717 0.40442857 1.4250001
0.0081428578 0.40442857 1.4250001
0.010857143 0.40442857 1.4250001
0.013571429 0.40442857 1.4250001
0.016285716 0.40442857 1.4250001
0.01908 0.40613145 1.4310001
0.021714287 0.40442857 1.4250001
0.024428573 0.40442857 1.4250001
0.027142858 0.40442857 1.4250001
0.02973143 0.40272573 1.419
0.032434288 0.40272573 1.419
0.035137143 0.40272573 1.419
0.03768 0.40102288 1.4130001
0.04054286 0.40272573 1.419
0.043062858 0.40102288 1.4130001
0.045754287 0.40102288 1.4130001
0.048445717 0.40102288 1.4130001
0.051137146 0.40102288 1.4130001
0.053828575 0.40102288 1.4130001
0.056520004 0.40102288 1.4130001
0.059211429 0.40102288 1.4130001
0.061902858 0.40102288 1.4130001
0.064594291 0.40102288 1.4130001
0.067285717 0.40102288 1.4130001
0.069977142 0.40102288 1.4130001
0.072360002 0.39932001 1.4070001
0.075040005 0.39932001 1.4070001
0.077720001 0.39932001 1.4070001
0.080400005 0.39932001 1.4070001
0.083080001 0.39932001 1.4070001
0.085760005 0.39932001 1.4070001
0.088440001 0.39932001 1.4070001
0.091120005 0.39932001 1.4070001
0.093466669 0.39790097 1.4020001
0.096137144 0.39790097 1.4020001
0.098807625 0.39790097 1.4020001
0.10104381 0.39619812 1.396
0.10370286 0.39619812 1.396
0.10636191 0.39619812 1.396
0.10855238 0.39449525 1.3900001
0.1112 0.39449525 1.3900001
0.11384762 0.39449525 1.3900001
0.11649524 0.39449525 1.3900001
0.11914286 0.39449525 1.3900001
0.12179048 0.39449525 1.3900001
0.1244381 0.39449525 1.3900001
0.12708572 0.39449525 1.3900001
0.12973334 0.39449525 1.3900001
0.13238096 0.39449525 1.3900001
0.13502857 0.39449525 1.3900001
0.13767619 0.39449525 1.3900001
0.13981906 0.39307621 1.3850001
0.14245714 0.39307621 1.3850001
0.14509524 0.39307621 1.3850001
0.14773335 0.39307621 1.3850001
0.15037143 0.39307621 1.3850001
0.15234667 0.39137334 1.3790001
0.15497334 0.39137334 1.3790001
0.1576 0.39137334 1.3790001
0.16022667 0.39137334 1.3790001
0.16285335 0.39137334 1.3790001
0.16548 0.39137334 1.3790001
0.16810668 0.39137334 1.3790001
0.17073333 0.39137334 1.3790001
0.17273143 0.3899543 1.3740001
0.17534858 0.3899543 1.3740001
0.17718858 0.38825145 1.368
0.1797943 0.38825145 1.368
0.1824 0.38825145 1.368
0.18500572 0.38825145 1.368
0.18761143 0.38825145 1.368
0.19021715 0.38825145 1.368
0.19366857 0.3899543 1.3740001
0.19628572 0.3899543 1.3740001
0.19962667 0.39137334 1.3790001
0.20225334 0.39137334 1.3790001
0.20577143 0.39307621 1.3850001
0.20840953 0.39307621 1.3850001
0.21104762 0.39307621 1.3850001
0.21445715 0.39449525 1.3900001
0.21710476 0.39449525 1.3900001
0.24220191 0.43479621 1.5320001
0.24512 0.43479621 1.5320001
0.24917144 0.43678287 1.539
0.2543962 0.4407562 1.5530001
0.25851429 0.44274288 1.5600001
0.26383239 0.44671622 1.5740001
0.26564381 0.44472954 1.567
0.28268573 0.46800193 1.649
0.28721336 0.47027239 1.6570001
0.29317334 0.47481334 1.6730001
0.29636002 0.47481334 1.6730001
0.29954669 0.47481334 1.6730001
0.30128571 0.47254288 1.6650001
0.30299431 0.47027239 1.6570001
0.3061505 0.47027239 1.6570001
-0.53571999 0.45400003 1.5890001
-0.53269333 0.45400003 1.5890001
-0.52966666 0.45400003 1.5890001
-0.52896005 0.45600003 1.5960001
-0.52592003 0.45600003 1.5960001
-0.52288002 0.45600003 1.5960001
-0.51756001 0.45400003 1.5890001
-0.51453334 0.45400003 1.5890001
-0.51376003 0.45600003 1.5960001
-0.51072001 0.45600003 1.5960001
-0.50768 0.45600003 1.5960001
-0.50242668 0.45400003 1.5890001
-0.50160003 0.45600003 1.5960001
-0.49637336 0.45400003 1.5890001
-0.49334669 0.45400003 1.5890001
-0.49032003 0.45400003 1.5890001
-0.48729336 0.45400003 1.5890001
-0.4842667 0.45400003 1.5890001
-0.48124 0.45400003 1.5890001
-0.47580573 0.45171431 1.5810001
-0.47279429 0.45171431 1.5810001
-0.46978289 0.45171431 1.5810001
-0.46677145 0.45171431 1.5810001
-0.46376002 0.45171431 1.5810001
-0.45870858 0.4497143 1.5740001
-0.45773715 0.45171431 1.5810001
-0.45472574 0.45171431 1.5810001
-0.4497143 0.4497143 1.5740001
-0.44671622 0.4497143 1.5740001
-0.44371811 0.4497143 1.5740001
-0.44072002 0.4497143 1.5740001
-0.43772191 0.4497143 1.5740001
-0.43472382 0.4497143 1.5740001
-0.43172574 0.4497143 1.5740001
-0.42872763 0.4497143 1.5740001
-0.42572954 0.4497143 1.5740001
-0.42085144 0.4477143 1.567
-0.41786668 0.4477143 1.567
-0.41488191 0.4477143 1.567
-0.41189715 0.4477143 1.567
-0.40708572 0.44571429 1.5600001
-0.40230095 0.44371429 1.5530001
-0.39934286 0.44371429 1.5530001
-0.39638478 0.44371429 1.5530001
-0.39342669 0.44371429 1.5530001
-0.3904686 0.44371429 1.5530001
-0.38751048 0.44371429 1.5530001
-0.38455239 0.44371429 1.5530001
-0.3815943 0.44371429 1.5530001
-0.37863621 0.44371429 1.5530001
-0.37567812 0.44371429 1.5530001
-0.37272 0.44371429 1.5530001
-0.36976191 0.44371429 1.5530001
-0.36680382 0.44371429 1.5530001
-0.36220571 0.44171432 1.5460001
-0.35926098 0.44171432 1.5460001
-0.35631621 0.44171432 1.5460001
-0.35337144 0.44171432 1.5460001
-0.35042667 0.44171432 1.5460001
-0.34748191 0.44171432 1.5460001
-0.34453717 0.44171432 1.5460001
-0.34004572 0.43971431 1.539
-0.3371143 0.43971431 1.539
-0.33266288 0.43771431 1.5320001
-0.32974479 0.43771431 1.5320001
-0.32682669 0.43771431 1.5320001
-0.32242858 0.4357143 1.5250001
-0.31952381 0.4357143 1.5250001
-0.31661907 0.4357143 1.5250001
-0.3137143 0.4357143 1.5250001
-0.31080952 0.4357143 1.5250001
-0.30669335 0.43400002 1.5190001
-0.30380002 0.43400002 1.5190001
-0.30090669 0.43400002 1.5190001
-0.29801333 0.43400002 1.5190001
-0.29512 0.43400002 1.5190001
-0.29222667 0.43400002 1.5190001
-0.28933334 0.43400002 1.5190001
-0.28644001 0.43400002 1.5190001
-0.28354669 0.43400002 1.5190001
-0.28065336 0.43400002 1.5190001
-0.27776 0.43400002 1.5190001
-0.27486667 0.43400002 1.5190001
-0.27072001 0.43200001 1.5120001
-0.26784 0.43200001 1.5120001
-0.26496002 0.43200001 1.5120001
-0.26208001 0.43200001 1.5120001
-0.25920001 0.43200001 1.5120001
-0.25530288 0.43028572 1.506
-0.25243428 0.43028572 1.506
-0.24956572 0.43028572 1.506
-0.24669716 0.43028572 1.506
-0.24269524 0.42828572 1.4990001
-0.23984002 0.42828572 1.4990001
-0.23698477 0.42828572 1.4990001
-0.23412953 0.42828572 1.4990001
-0.23127429 0.42828572 1.4990001
-0.2273524 0.42628574 1.4920001
-0.22556382 0.42828572 1.4990001
-0.22166859 0.42628574 1.4920001
-0.21985334 0.42828572 1.4990001
-0.2169981 0.42828572 1.4990001
-0.21414286 0.42828572 1.4990001
-0.21128763 0.42828572 1.4990001
-0.20843239 0.42828572 1.4990001
-0.20557715 0.42828572 1.4990001
-0.20272191 0.42828572 1.4990001
-0.19893335 0.42628574 1.4920001
-0.19609143 0.42628574 1.4920001
-0.19324952 0.42628574 1.4920001
-0.19040762 0.42628574 1.4920001
-0.18756571 0.42628574 1.4920001
-0.18398096 0.42457145 1.4860001
-0.18115048 0.42457145 1.4860001
-0.17832001 0.42457145 1.4860001
-0.17548953 0.42457145 1.4860001
-0.17265905 0.42457145 1.4860001
-0.16982858 0.42457145 1.4860001
-0.1669981 0.42457145 1.4860001
-0.16416763 0.42457145 1.4860001
-0.16133715 0.42457145 1.4860001
-0.15850668 0.42457145 1.4860001
-0.1556762 0.42457145 1.4860001
-0.15222858 0.42285717 1.48
-0.14940953 0.42285717 1.48
-0.14659049 0.42285717 1.48
-0.14377144 0.42285717 1.48
-0.14028572 0.42085716 1.473
-0.13748001 0.42085716 1.473
-0.1346743 0.42085716 1.473
-0.13186857 0.42085716 1.473
-0.12906286 0.42085716 1.473
-0.12625715 0.42085716 1.473
-0.12345143 0.42085716 1.473
-0.12015429 0.41914287 1.4670001
-0.11784001 0.42085716 1.473
-0.11503429 0.42085716 1.473
-0.11177143 0.41914287 1.4670001
-0.10897715 0.41914287 1.4670001
-0.10574858 0.41742858 1.4610001
-0.10338858 0.41914287 1.4670001
-0.10018286 0.41742858 1.4610001
-0.097400002 0.41742858 1.4610001
-0.094617143 0.41742858 1.4610001
-0.091834292 0.41742858 1.4610001
-0.089051433 0.41742858 1.4610001
-0.086268574 0.41742858 1.4610001
-0.083485715 0.41742858 1.4610001
-0.080702864 0.41742858 1.4610001
-0.077920005 0.41742858 1.4610001
-0.075137146 0.41742858 1.4610001
-0.072354287 0.41742858 1.4610001
-0.069571428 0.41742858 1.4610001
-0.066788577 0.41742858 1.4610001
-0.064005718 0.41742858 1.4610001
-0.061222859 0.41742858 1.4610001
-0.058200002 0.41571429 1.455
-0.055200003 0.414 1.4490001
-0.052440003 0.414 1.4490001
