# .PCD v0.7 - Point Cloud Data file format
VERSION 0.7
FIELDS x y z
SIZE 4 4 4
TYPE F F F
COUNT 1 1 1
WIDTH 1529
HEIGHT 1
VIEWPOINT 0 0 0 1 0 0 0
POINTS 1529
DATA ascii
0.32310858 0.29878858 1.8240001
0.32658288 0.29878858 1.8240001
0.33005714 0.29878858 1.8240001
0.33353144 0.29878858 1.8240001
0.33700573 0.29878858 1.8240001
0.33861333 0.29715049 1.8140001
0.34206858 0.29715049 1.8140001
0.34361905 0.29551238 1.8040001
0.34705526 0.29551238 1.8040001
0.35049143 0.29551238 1.8040001
0.35216191 0.29403812 1.7950001
0.35558096 0.29403812 1.7950001
0.35900003 0.29403812 1.7950001
0.36241907 0.29403812 1.7950001
0.36583811 0.29403812 1.7950001
0.36740574 0.29256383 1.7860001
0.37080762 0.29256383 1.7860001
0.37420952 0.29256383 1.7860001
0.37761143 0.29256383 1.7860001
0.38101333 0.29256383 1.7860001
0.38441524 0.29256383 1.7860001
0.38586286 0.29108953 1.7770001
0.38924763 0.29108953 1.7770001
0.3926324 0.29108953 1.7770001
0.39401144 0.28961524 1.7680001
0.39737907 0.28961524 1.7680001
0.40074667 0.28961524 1.7680001
0.40411431 0.28961524 1.7680001
0.40748191 0.28961524 1.7680001
0.41084954 0.28961524 1.7680001
0.4121086 0.28814095 1.7590001
0.41545907 0.28814095 1.7590001
0.41880953 0.28814095 1.7590001
0.42216003 0.28814095 1.7590001
0.42333335 0.28666669 1.7500001
0.42666668 0.28666669 1.7500001
0.43000001 0.28666669 1.7500001
0.43333334 0.28666669 1.7500001
0.4366667 0.28666669 1.7500001
0.44000003 0.28666669 1.7500001
0.44333336 0.28666669 1.7500001
0.44666669 0.28666669 1.7500001
0.45000002 0.28666669 1.7500001
0.45333335 0.28666669 1.7500001
0.45431811 0.2851924 1.7410001
0.45526859 0.28371811 1.7320001
0.45856765 0.28371811 1.7320001
0.46186668 0.28371811 1.7320001
0.46274859 0.28224382 1.723
0.46603048 0.28224382 1.723
0.4693124 0.28224382 1.723
0.47259429 0.28224382 1.723
0.47587621 0.28224382 1.723
0.4791581 0.28224382 1.723
0.48244002 0.28224382 1.723
0.48572192 0.28224382 1.723
0.48900384 0.28224382 1.723
0.49228573 0.28224382 1.723
0.49556765 0.28224382 1.723
0.49884954 0.28224382 1.723
0.50213146 0.28224382 1.723
0.50306666 0.28093335 1.715
0.50633335 0.28093335 1.715
0.50960004 0.28093335 1.715
0.51286668 0.28093335 1.715
0.51613337 0.28093335 1.715
0.5194 0.28093335 1.715
0.52266669 0.28093335 1.715
0.52317333 0.27945906 1.7060001
0.52642286 0.27945906 1.7060001
0.52967238 0.27945906 1.7060001
0.53292191 0.27945906 1.7060001
0.53617144 0.27945906 1.7060001
0.53942096 0.27945906 1.7060001
0.54267049 0.27945906 1.7060001
0.54592001 0.27945906 1.7060001
0.54659432 0.27814859 1.6980001
0.54982859 0.27814859 1.6980001
0.55566859 0.27945906 1.7060001
0.55629718 0.27814859 1.6980001
0.55953145 0.27814859 1.6980001
0.56011432 0.27683809 1.6900001
0.56333333 0.27683809 1.6900001
0.5665524 0.27683809 1.6900001
0.56977147 0.27683809 1.6900001
0.56993908 0.27536383 1.6810001
0.57314098 0.27536383 1.6810001
0.57942861 0.27683809 1.6900001
0.58264762 0.27683809 1.6900001
0.58864003 0.27814859 1.6980001
0.5946629 0.27945906 1.7060001
0.60106671 0.28093335 1.715
0.61032385 0.28371811 1.7320001
0.62 0.28666669 1.7500001
0.62653905 0.28814095 1.7590001
0.63633525 0.29108953 1.7770001
0.64296001 0.29256383 1.7860001
0.6528762 0.29551238 1.8040001
0.65995049 0.29715049 1.8140001
0.66706288 0.29878858 1.8240001
0.67384577 0.30026287 1.8330001
0.68472767 0.30353907 1.853
0.69568574 0.30681524 1.8730001
0.70298672 0.30845335 1.8830001
0.71445334 0.31189334 1.904
0.72222859 0.31369525 1.9150001
0.72966671 0.31533334 1.9250001
0.75009525 0.32254097 1.9690001
0.75384575 0.32254097 1.9690001
0.76644576 0.32630858 1.9920001
0.77913338 0.33007619 2.0150001
0.79229718 0.33400762 2.039
0.80555242 0.33793905 2.0630002
0.81458288 0.34006858 2.0760002
0.82326859 0.34203431 2.0880001
0.83239621 0.34416384 2.1010001
0.84157336 0.34629336 2.1140001
0.85080004 0.34842286 2.1270001
0.86007625 0.35055238 2.1400001
0.86940193 0.35268191 2.1530001
0.87350291 0.35268191 2.1530001
0.90613717 0.36414859 2.223
0.91037148 0.36414859 2.223
0.93229717 0.3711924 2.266
0.93661338 0.3711924 2.266
0.94092953 0.3711924 2.266
0.94524574 0.3711924 2.266
-0.97899622 0.43234858 2.6090002
-0.97402668 0.43234858 2.6090002
-0.96162862 0.42903429 2.5890002
-0.95669717 0.42903429 2.5890002
-0.95176578 0.42903429 2.5890002
-0.94683433 0.42903429 2.5890002
-0.94190288 0.42903429 2.5890002
-0.93697149 0.42903429 2.5890002
-0.93204004 0.42903429 2.5890002
-0.92710859 0.42903429 2.5890002
-0.9221772 0.42903429 2.5890002
-0.91724575 0.42903429 2.5890002
-0.9123143 0.42903429 2.5890002
-0.90072381 0.42588574 2.5700002
-0.8958286 0.42588574 2.5700002
-0.89093339 0.42588574 2.5700002
-0.88603812 0.42588574 2.5700002
-0.88114291 0.42588574 2.5700002
-0.86976957 0.42273715 2.5510001
-0.86491048 0.42273715 2.5510001
-0.86005145 0.42273715 2.5510001
-0.85519242 0.42273715 2.5510001
-0.85033339 0.42273715 2.5510001
-0.8454743 0.42273715 2.5510001
-0.84061527 0.42273715 2.5510001
-0.82953143 0.4195886 2.5320001
-0.82470858 0.4195886 2.5320001
-0.81405717 0.41660574 2.5140002
-0.80347431 0.41362289 2.4960001
-0.79872 0.41362289 2.4960001
-0.78824002 0.41064 2.4780002
-0.78921145 0.41362289 2.4960001
-0.77880001 0.41064 2.4780002
-0.77408004 0.41064 2.4780002
-0.76936001 0.41064 2.4780002
-0.76464003 0.41064 2.4780002
-0.76544005 0.41362289 2.4960001
-0.75520003 0.41064 2.4780002
-0.75593144 0.41362289 2.4960001
-0.74034286 0.40765715 2.46
-0.73565716 0.40765715 2.46
-0.73097146 0.40765715 2.46
-0.72628576 0.40765715 2.46
-0.72160006 0.40765715 2.46
-0.7169143 0.40765715 2.46
-0.70730668 0.40484002 2.4430001
-0.70265335 0.40484002 2.4430001
-0.69800001 0.40484002 2.4430001
-0.69334668 0.40484002 2.4430001
-0.68390095 0.40202287 2.4260001
-0.67928004 0.40202287 2.4260001
-0.67465907 0.40202287 2.4260001
-0.66534287 0.39920571 2.4090002
-0.66075432 0.39920571 2.4090002
-0.65616572 0.39920571 2.4090002
-0.65157717 0.39920571 2.4090002
-0.64698857 0.39920571 2.4090002
-0.64240003 0.39920571 2.4090002
-0.63781142 0.39920571 2.4090002
-0.62875432 0.39638859 2.3920002
-0.62419814 0.39638859 2.3920002
-0.6196419 0.39638859 2.3920002
-0.61508572 0.39638859 2.3920002
-0.61052954 0.39638859 2.3920002
-0.60192001 0.39373717 2.3760002
-0.59739429 0.39373717 2.3760002
-0.59286857 0.39373717 2.3760002
-0.58834291 0.39373717 2.3760002
-0.58381718 0.39373717 2.3760002
-0.57514668 0.39092001 2.3590002
-0.57065338 0.39092001 2.3590002
-0.56616002 0.39092001 2.3590002
-0.56166667 0.39092001 2.3590002
-0.55717337 0.39092001 2.3590002
-0.55268002 0.39092001 2.3590002
-0.54818666 0.39092001 2.3590002
-0.54369336 0.39092001 2.3590002
-0.53920001 0.39092001 2.3590002
-0.53470671 0.39092001 2.3590002
-0.53021336 0.39092001 2.3590002
-0.52215433 0.38826859 2.3430002
-0.51769143 0.38826859 2.3430002
-0.5132286 0.38826859 2.3430002
-0.50876576 0.38826859 2.3430002
-0.50430286 0.38826859 2.3430002
-0.49642667 0.38561717 2.3270001
-0.49199429 0.38561717 2.3270001
-0.48756191 0.38561717 2.3270001
-0.48312953 0.38561717 2.3270001
-0.47869715 0.38561717 2.3270001
-0.47426477 0.38561717 2.3270001
-0.46983239 0.38561717 2.3270001
-0.46540001 0.38561717 2.3270001
-0.45502478 0.38064572 2.2970002
-0.45064953 0.38064572 2.2970002
-0.44627431 0.38064572 2.2970002
-0.43882096 0.3779943 2.2810001
-0.4344762 0.3779943 2.2810001
-0.43013144 0.3779943 2.2810001
-0.42578667 0.3779943 2.2810001
-0.42144191 0.3779943 2.2810001
-0.41709715 0.3779943 2.2810001
-0.41275239 0.3779943 2.2810001
-0.40840763 0.3779943 2.2810001
-0.40406287 0.3779943 2.2810001
-0.39708954 0.37550858 2.266
-0.39277336 0.37550858 2.266
-0.38845715 0.37550858 2.266
-0.38414097 0.37550858 2.266
-0.37982479 0.37550858 2.266
-0.37550858 0.37550858 2.266
-0.3711924 0.37550858 2.266
-0.36687621 0.37550858 2.266
-0.36256 0.37550858 2.266
-0.35824382 0.37550858 2.266
-0.35174096 0.37318859 2.2520001
-0.34745145 0.37318859 2.2520001
-0.34316191 0.37318859 2.2520001
-0.33661526 0.37070286 2.237
-0.33235431 0.37070286 2.237
-0.32809335 0.37070286 2.237
-0.32383239 0.37070286 2.237
-0.31757143 0.36838287 2.223
-0.31333715 0.36838287 2.223
-0.30910286 0.36838287 2.223
-0.30486858 0.36838287 2.223
-0.30063429 0.36838287 2.223
-0.29640001 0.36838287 2.223
-0.29216573 0.36838287 2.223
-0.28598857 0.36589715 2.2080002
-0.28369716 0.36838287 2.223
-0.27946287 0.36838287 2.223
-0.27522859 0.36838287 2.223
-0.27099431 0.36838287 2.223
-0.26676002 0.36838287 2.223
-0.26252574 0.36838287 2.223
-0.25829142 0.36838287 2.223
-0.25234288 0.36589715 2.2080002
-0.24656382 0.36357716 2.194
-0.24238478 0.36357716 2.194
-0.23820572 0.36357716 2.194
-0.23264001 0.36142287 2.181
-0.22848572 0.36142287 2.181
-0.22433144 0.36142287 2.181
-0.22017714 0.36142287 2.181
-0.21731049 0.36357716 2.194
-0.21313144 0.36357716 2.194
-0.20771429 0.36142287 2.181
-0.20356001 0.36142287 2.181
-0.19940571 0.36142287 2.181
-0.19525144 0.36142287 2.181
-0.19109716 0.36142287 2.181
-0.18574287 0.35910287 2.1670001
-0.18161525 0.35910287 2.1670001
-0.17863429 0.36142287 2.181
-0.17336001 0.35910287 2.1670001
-0.16923238 0.35910287 2.1670001
-0.16510476 0.35910287 2.1670001
-0.15993714 0.35678288 2.1530001
-0.15583619 0.35678288 2.1530001
-0.15173525 0.35678288 2.1530001
-0.1476343 0.35678288 2.1530001
-0.14266667 0.35462859 2.1400001
-0.13859048 0.35462859 2.1400001
-0.13451429 0.35462859 2.1400001
-0.13123049 0.35678288 2.1530001
-0.12712952 0.35678288 2.1530001
-0.12302858 0.35678288 2.1530001
-0.11820953 0.35462859 2.1400001
-0.11413334 0.35462859 2.1400001
-0.10938857 0.3524743 2.1270001
-0.10533715 0.3524743 2.1270001
-0.10066667 0.35032001 2.1140001
-0.096640006 0.35032001 2.1140001
-0.092613339 0.35032001 2.1140001
-0.088041909 0.34816572 2.1010001
-0.084559999 0.35032001 2.1140001
-0.0800381 0.34816572 2.1010001
-0.076506667 0.35032001 2.1140001
-0.072480001 0.35032001 2.1140001
-0.068453334 0.35032001 2.1140001
-0.064030476 0.34816572 2.1010001
-0.060028575 0.34816572 2.1010001
-0.056026667 0.34816572 2.1010001
-0.052024763 0.34816572 2.1010001
-0.048022859 0.34816572 2.1010001
-0.043748572 0.34601143 2.0880001
-0.03977143 0.34601143 2.0880001
-0.035588574 0.34402287 2.0760002
-0.031634286 0.34402287 2.0760002
-0.02768 0.34402287 2.0760002
-0.023577144 0.34186858 2.0630002
-0.019647621 0.34186858 2.0630002
-0.015718095 0.34186858 2.0630002
-0.011788572 0.34186858 2.0630002
-0.0078133335 0.33988002 2.0510001
-0.0039066668 0.33988002 2.0510001
0 0.33988002 2.0510001
0.0039066668 0.33988002 2.0510001
0.0077676196 0.33789143 2.039
0.011651429 0.33789143 2.039
0.015535239 0.33789143 2.039
0.019419048 0.33789143 2.039
0.023165716 0.33590287 2.0270002
0.026866667 0.33391431 2.0150001
0.030704763 0.33391431 2.0150001
0.034542859 0.33391431 2.0150001
0.038380954 0.33391431 2.0150001
0.041967619 0.33192572 2.003
0.04578286 0.33192572 2.003
0.049598098 0.33192572 2.003
0.053413335 0.33192572 2.003
0.05757143 0.33391431 2.0150001
0.061409526 0.33391431 2.0150001
0.064859048 0.33192572 2.003
0.068674289 0.33192572 2.003
0.07209143 0.33010286 1.9920001
0.075885721 0.33010286 1.9920001
0.079680003 0.33010286 1.9920001
0.083474286 0.33010286 1.9920001
0.087268576 0.33010286 1.9920001
0.090514287 0.3281143 1.9800001
0.094285719 0.3281143 1.9800001
0.098057143 0.3281143 1.9800001
0.10126286 0.32629144 1.9690001
0.10501334 0.32629144 1.9690001
0.1081562 0.32446858 1.9580001
0.11188572 0.32446858 1.9580001
0.11561524 0.32446858 1.9580001
0.11934476 0.32446858 1.9580001
0.12307429 0.32446858 1.9580001
0.12680382 0.32446858 1.9580001
0.13053334 0.32446858 1.9580001
0.13350858 0.32264572 1.9470001
0.13721715 0.32264572 1.9470001
0.14092572 0.32264572 1.9470001
0.14463429 0.32264572 1.9470001
0.14750476 0.32082286 1.9360001
0.15033334 0.31900001 1.9250001
0.154 0.31900001 1.9250001
0.15766667 0.31900001 1.9250001
0.16133334 0.31900001 1.9250001
0.16414286 0.31734288 1.9150001
0.16779049 0.31734288 1.9150001
0.1714381 0.31734288 1.9150001
0.17508572 0.31734288 1.9150001
0.17873333 0.31734288 1.9150001
0.18133333 0.31552002 1.904
0.18496001 0.31552002 1.904
0.18858667 0.31552002 1.904
0.19221334 0.31552002 1.904
0.19697143 0.31734288 1.9150001
0.20061906 0.31734288 1.9150001
0.20426667 0.31734288 1.9150001
0.20672001 0.31552002 1.904
0.21034667 0.31552002 1.904
0.21397334 0.31552002 1.904
0.2176 0.31552002 1.904
0.22006477 0.31386286 1.8940001
0.22237334 0.31204 1.8830001
0.22596 0.31204 1.8830001
0.22954668 0.31204 1.8830001
0.23313335 0.31204 1.8830001
0.23672001 0.31204 1.8830001
0.23903048 0.31038287 1.8730001
0.2425981 0.31038287 1.8730001
0.24616572 0.31038287 1.8730001
0.24973334 0.31038287 1.8730001
0.2519486 0.30872571 1.863
0.25549716 0.30872571 1.863
0.25904572 0.30872571 1.863
0.26259428 0.30872571 1.863
0.26614287 0.30872571 1.863
0.26969144 0.30872571 1.863
0.27177334 0.30706859 1.853
0.27678859 0.30872571 1.863
0.28033715 0.30872571 1.863
0.28236192 0.30706859 1.853
0.28589144 0.30706859 1.853
0.28942096 0.30706859 1.853
0.29295048 0.30706859 1.853
0.29648 0.30706859 1.853
0.29839048 0.30541143 1.8430001
0.30026287 0.3037543 1.8330001
0.3037543 0.3037543 1.8330001
0.30724573 0.3037543 1.8330001
0.31073716 0.3037543 1.8330001
0.31422859 0.3037543 1.8330001
0.31772003 0.3037543 1.8330001
0.31963429 0.30226287 1.8240001
0.32310858 0.30226287 1.8240001
0.32658288 0.30226287 1.8240001
0.33005714 0.30226287 1.8240001
0.33353144 0.30226287 1.8240001
0.33700573 0.30226287 1.8240001
0.33861333 0.30060571 1.8140001
0.34206858 0.30060571 1.8140001
0.34361905 0.29894859 1.8040001
0.34705526 0.29894859 1.8040001
0.35049143 0.29894859 1.8040001
0.35216191 0.29745716 1.7950001
0.35558096 0.29745716 1.7950001
0.35900003 0.29745716 1.7950001
0.36241907 0.29745716 1.7950001
0.36583811 0.29745716 1.7950001
0.36925715 0.29745716 1.7950001
0.37267619 0.29745716 1.7950001
0.37420952 0.29596573 1.7860001
0.37761143 0.29596573 1.7860001
0.38101333 0.29596573 1.7860001
0.38441524 0.29596573 1.7860001
0.38586286 0.2944743 1.7770001
0.38924763 0.2944743 1.7770001
0.3926324 0.2944743 1.7770001
0.39601716 0.2944743 1.7770001
0.39737907 0.29298288 1.7680001
0.40074667 0.29298288 1.7680001
0.40411431 0.29298288 1.7680001
0.40748191 0.29298288 1.7680001
0.4087581 0.29149145 1.7590001
0.4121086 0.29149145 1.7590001
0.41545907 0.29149145 1.7590001
0.41880953 0.29149145 1.7590001
0.42000002 0.29000002 1.7500001
0.42333335 0.29000002 1.7500001
0.42666668 0.29000002 1.7500001
0.43000001 0.29000002 1.7500001
0.43333334 0.29000002 1.7500001
0.4366667 0.29000002 1.7500001
0.44000003 0.29000002 1.7500001
0.44333336 0.29000002 1.7500001
0.44666669 0.29000002 1.7500001
0.45000002 0.29000002 1.7500001
0.45100191 0.28850859 1.7410001
0.45431811 0.28850859 1.7410001
0.45526859 0.28701717 1.7320001
0.45856765 0.28701717 1.7320001
0.46186668 0.28701717 1.7320001
0.46274859 0.28552574 1.723
0.46603048 0.28552574 1.723
0.4693124 0.28552574 1.723
0.47259429 0.28552574 1.723
0.47587621 0.28552574 1.723
0.4791581 0.28552574 1.723
0.48244002 0.28552574 1.723
0.48572192 0.28552574 1.723
0.48900384 0.28552574 1.723
0.49228573 0.28552574 1.723
0.49556765 0.28552574 1.723
0.50145525 0.28701717 1.7320001
0.50213146 0.28552574 1.723
0.50306666 0.28420001 1.715
0.50633335 0.28420001 1.715
0.50960004 0.28420001 1.715
0.51286668 0.28420001 1.715
0.51613337 0.28420001 1.715
0.5194 0.28420001 1.715
0.52266669 0.28420001 1.715
0.52317333 0.28270859 1.7060001
0.52642286 0.28270859 1.7060001
0.52967238 0.28270859 1.7060001
0.53292191 0.28270859 1.7060001
0.53617144 0.28270859 1.7060001
0.53942096 0.28270859 1.7060001
0.54267049 0.28270859 1.7060001
0.54592001 0.28270859 1.7060001
0.54659432 0.28138286 1.6980001
0.54982859 0.28138286 1.6980001
0.55306286 0.28138286 1.6980001
0.55629718 0.28138286 1.6980001
0.55953145 0.28138286 1.6980001
0.56011432 0.28005716 1.6900001
0.56333333 0.28005716 1.6900001
0.5665524 0.28005716 1.6900001
0.56673717 0.27856573 1.6810001
0.56993908 0.27856573 1.6810001
0.57314098 0.27856573 1.6810001
0.57634288 0.27856573 1.6810001
0.58264762 0.28005716 1.6900001
0.58586669 0.28005716 1.6900001
0.5946629 0.28270859 1.7060001
0.60387051 0.28552574 1.723
0.61666667 0.29000002 1.7500001
0.62318861 0.29149145 1.7590001
0.62974477 0.29298288 1.7680001
0.63633525 0.2944743 1.7770001
0.64296001 0.29596573 1.7860001
0.6528762 0.29894859 1.8040001
0.65995049 0.30060571 1.8140001
0.67035431 0.3037543 1.8330001
0.67384577 0.3037543 1.8330001
0.68842286 0.30872571 1.863
0.69940001 0.31204 1.8830001
0.70709336 0.31386286 1.8940001
0.71070099 0.31386286 1.8940001
0.72222859 0.31734288 1.9150001
0.73383623 0.32082286 1.9360001
0.75009525 0.32629144 1.9690001
0.75805718 0.3281143 1.9800001
0.76644576 0.33010286 1.9920001
0.77913338 0.33391431 2.0150001
0.79229718 0.33789143 2.039
0.80555242 0.34186858 2.0630002
0.80948192 0.34186858 2.0630002
0.82326859 0.34601143 2.0880001
0.83239621 0.34816572 2.1010001
0.84674859 0.3524743 2.1270001
0.85600001 0.35462859 2.1400001
0.86530101 0.35678288 2.1530001
0.88070858 0.36142287 2.181
0.8901372 0.36357716 2.194
0.90613717 0.36838287 2.223
0.92224765 0.37318859 2.2520001
0.92653716 0.37318859 2.2520001
0.93082672 0.37318859 2.2520001
0.93511623 0.37318859 2.2520001
0.93940574 0.37318859 2.2520001
-0.97899622 0.43731812 2.6090002
-0.97402668 0.43731812 2.6090002
-0.9690572 0.43731812 2.6090002
-0.96408767 0.43731812 2.6090002
-0.95911813 0.43731812 2.6090002
-0.95414859 0.43731812 2.6090002
-0.94190288 0.43396574 2.5890002
-0.93697149 0.43396574 2.5890002
-0.93204004 0.43396574 2.5890002
-0.92710859 0.43396574 2.5890002
-0.9221772 0.43396574 2.5890002
-0.91724575 0.43396574 2.5890002
-0.9123143 0.43396574 2.5890002
-0.90072381 0.43078098 2.5700002
-0.90245146 0.43396574 2.5890002
-0.89093339 0.43078098 2.5700002
-0.88603812 0.43078098 2.5700002
-0.88114291 0.43078098 2.5700002
-0.87624764 0.43078098 2.5700002
-0.86491048 0.42759621 2.5510001
-0.86005145 0.42759621 2.5510001
-0.85519242 0.42759621 2.5510001
-0.85033339 0.42759621 2.5510001
-0.8454743 0.42759621 2.5510001
-0.84061527 0.42759621 2.5510001
-0.82953143 0.42441145 2.5320001
-0.82470858 0.42441145 2.5320001
-0.81405717 0.42139429 2.5140002
-0.80347431 0.41837716 2.4960001
-0.79872 0.41837716 2.4960001
-0.79396576 0.41837716 2.4960001
-0.78921145 0.41837716 2.4960001
-0.78445715 0.41837716 2.4960001
-0.7797029 0.41837716 2.4960001
-0.76936001 0.41536 2.4780002
-0.76464003 0.41536 2.4780002
-0.75992 0.41536 2.4780002
-0.75520003 0.41536 2.4780002
-0.75593144 0.41837716 2.4960001
-0.74034286 0.41234288 2.46
-0.73565716 0.41234288 2.46
-0.73097146 0.41234288 2.46
-0.72628576 0.41234288 2.46
-0.72160006 0.41234288 2.46
-0.7169143 0.41234288 2.46
-0.70730668 0.40949336 2.4430001
-0.70265335 0.40949336 2.4430001
-0.69800001 0.40949336 2.4430001
-0.69334668 0.40949336 2.4430001
-0.68390095 0.40664384 2.4260001
-0.67928004 0.40664384 2.4260001
-0.67465907 0.40664384 2.4260001
-0.6700381 0.40664384 2.4260001
-0.66541719 0.40664384 2.4260001
-0.65616572 0.40379429 2.4090002
-0.65157717 0.40379429 2.4090002
-0.64698857 0.40379429 2.4090002
-0.64693338 0.40664384 2.4260001
-0.63781142 0.40379429 2.4090002
-0.62875432 0.40094477 2.3920002
-0.62419814 0.40094477 2.3920002
-0.6196419 0.40094477 2.3920002
-0.61508572 0.40094477 2.3920002
-0.60644573 0.39826286 2.3760002
-0.60192001 0.39826286 2.3760002
-0.59312004 0.39541334 2.3590002
-0.59286857 0.39826286 2.3760002
-0.58413333 0.39541334 2.3590002
-0.57964003 0.39541334 2.3590002
-0.57124573 0.39273143 2.3430002
-0.57065338 0.39541334 2.3590002
-0.56616002 0.39541334 2.3590002
-0.56166667 0.39541334 2.3590002
-0.55717337 0.39541334 2.3590002
-0.55268002 0.39541334 2.3590002
-0.54818666 0.39541334 2.3590002
-0.54369336 0.39541334 2.3590002
-0.53920001 0.39541334 2.3590002
-0.53470671 0.39541334 2.3590002
-0.52661717 0.39273143 2.3430002
-0.52215433 0.39273143 2.3430002
-0.51769143 0.39273143 2.3430002
-0.5132286 0.39273143 2.3430002
-0.50529146 0.39004955 2.3270001
-0.50085908 0.39004955 2.3270001
-0.49642667 0.39004955 2.3270001
-0.49199429 0.39004955 2.3270001
-0.48756191 0.39004955 2.3270001
-0.48312953 0.39004955 2.3270001
-0.47869715 0.39004955 2.3270001
-0.47426477 0.39004955 2.3270001
-0.46983239 0.39004955 2.3270001
-0.46240002 0.38753524 2.312
-0.45502478 0.38502097 2.2970002
-0.45064953 0.38502097 2.2970002
-0.44627431 0.38502097 2.2970002
-0.43882096 0.38233906 2.2810001
-0.4344762 0.38233906 2.2810001
-0.43013144 0.38233906 2.2810001
-0.42578667 0.38233906 2.2810001
-0.42144191 0.38233906 2.2810001
-0.41709715 0.38233906 2.2810001
-0.41275239 0.38233906 2.2810001
-0.40840763 0.38233906 2.2810001
-0.40406287 0.38233906 2.2810001
-0.39708954 0.37982479 2.266
-0.39277336 0.37982479 2.266
-0.38845715 0.37982479 2.266
-0.38414097 0.37982479 2.266
-0.37982479 0.37982479 2.266
-0.37550858 0.37982479 2.266
-0.3711924 0.37982479 2.266
-0.36687621 0.37982479 2.266
-0.36256 0.37982479 2.266
-0.35824382 0.37982479 2.266
-0.35174096 0.37747812 2.2520001
-0.34745145 0.37747812 2.2520001
-0.34316191 0.37747812 2.2520001
-0.33661526 0.37496382 2.237
-0.33235431 0.37496382 2.237
-0.32809335 0.37496382 2.237
-0.32383239 0.37496382 2.237
-0.31957144 0.37496382 2.237
-0.31531048 0.37496382 2.237
-0.31104952 0.37496382 2.237
-0.30678859 0.37496382 2.237
-0.30063429 0.37261716 2.223
-0.29640001 0.37261716 2.223
-0.29216573 0.37261716 2.223
-0.28793144 0.37261716 2.223
-0.28369716 0.37261716 2.223
-0.27946287 0.37261716 2.223
-0.27522859 0.37261716 2.223
-0.27270097 0.37496382 2.237
-0.26676002 0.37261716 2.223
-0.26252574 0.37261716 2.223
-0.25829142 0.37261716 2.223
-0.25405714 0.37261716 2.223
-0.24656382 0.36775622 2.194
-0.24238478 0.36775622 2.194
-0.23820572 0.36775622 2.194
-0.23264001 0.36557716 2.181
-0.22848572 0.36557716 2.181
-0.22433144 0.36557716 2.181
-0.22017714 0.36557716 2.181
-0.21731049 0.36775622 2.194
-0.21186858 0.36557716 2.181
-0.20771429 0.36557716 2.181
-0.20356001 0.36557716 2.181
-0.19940571 0.36557716 2.181
-0.19525144 0.36557716 2.181
-0.18987048 0.3632305 2.1670001
-0.18574287 0.3632305 2.1670001
-0.18161525 0.3632305 2.1670001
-0.17748763 0.3632305 2.1670001
-0.17336001 0.3632305 2.1670001
-0.16923238 0.3632305 2.1670001
-0.16510476 0.3632305 2.1670001
-0.15993714 0.36088383 2.1530001
-0.15583619 0.36088383 2.1530001
-0.15173525 0.36088383 2.1530001
-0.1476343 0.36088383 2.1530001
-0.14266667 0.35870478 2.1400001
-0.13859048 0.35870478 2.1400001
-0.13451429 0.35870478 2.1400001
-0.13123049 0.36088383 2.1530001
-0.12712952 0.36088383 2.1530001
-0.12228572 0.35870478 2.1400001
-0.11820953 0.35870478 2.1400001
-0.11413334 0.35870478 2.1400001
-0.10938857 0.35652572 2.1270001
-0.10469334 0.35434669 2.1140001
-0.10066667 0.35434669 2.1140001
-0.096640006 0.35434669 2.1140001
-0.092613339 0.35434669 2.1140001
-0.088041909 0.35216764 2.1010001
-0.084559999 0.35434669 2.1140001
-0.0800381 0.35216764 2.1010001
-0.076506667 0.35434669 2.1140001
-0.072480001 0.35434669 2.1140001
-0.068453334 0.35434669 2.1140001
-0.064030476 0.35216764 2.1010001
-0.060028575 0.35216764 2.1010001
-0.056026667 0.35216764 2.1010001
-0.052024763 0.35216764 2.1010001
-0.048022859 0.35216764 2.1010001
-0.043748572 0.34998858 2.0880001
-0.03977143 0.34998858 2.0880001
-0.035794288 0.34998858 2.0880001
-0.031817146 0.34998858 2.0880001
-0.02768 0.34797716 2.0760002
-0.023725715 0.34797716 2.0760002
-0.019647621 0.34579811 2.0630002
-0.015718095 0.34579811 2.0630002
-0.011788572 0.34579811 2.0630002
-0.0078590475 0.34579811 2.0630002
-0.0039066668 0.34378669 2.0510001
0 0.34378669 2.0510001
0.0039066668 0.34378669 2.0510001
0.0078133335 0.34378669 2.0510001
0.011720001 0.34378669 2.0510001
0.015535239 0.34177524 2.039
0.019419048 0.34177524 2.039
0.023165716 0.33976382 2.0270002
0.027026668 0.33976382 2.0270002
0.030887621 0.33976382 2.0270002
0.034542859 0.3377524 2.0150001
0.038609527 0.33976382 2.0270002
0.042470478 0.33976382 2.0270002
0.046331432 0.33976382 2.0270002
0.050192382 0.33976382 2.0270002
0.053733334 0.3377524 2.0150001
0.05757143 0.3377524 2.0150001
0.061409526 0.3377524 2.0150001
0.065247625 0.3377524 2.0150001
0.068674289 0.33574095 2.003
0.07248953 0.33574095 2.003
0.075885721 0.33389714 1.9920001
0.079680003 0.33389714 1.9920001
0.083474286 0.33389714 1.9920001
0.087268576 0.33389714 1.9920001
0.090514287 0.33188573 1.9800001
0.094285719 0.33188573 1.9800001
0.097512387 0.33004192 1.9690001
0.10126286 0.33004192 1.9690001
0.10501334 0.33004192 1.9690001
0.10876381 0.33004192 1.9690001
0.11251429 0.33004192 1.9690001
0.11626477 0.33004192 1.9690001
0.12001524 0.33004192 1.9690001
0.12376572 0.33004192 1.9690001
0.1275162 0.33004192 1.9690001
0.13126667 0.33004192 1.9690001
0.13426286 0.32819811 1.9580001
0.13799238 0.32819811 1.9580001
0.14092572 0.3263543 1.9470001
0.14463429 0.3263543 1.9470001
0.14750476 0.32451048 1.9360001
0.15205143 0.3263543 1.9470001
0.15576001 0.3263543 1.9470001
0.15946858 0.3263543 1.9470001
0.16133334 0.32266667 1.9250001
0.16500001 0.32266667 1.9250001
0.16779049 0.3209905 1.9150001
0.1714381 0.3209905 1.9150001
0.17508572 0.3209905 1.9150001
0.17873333 0.3209905 1.9150001
0.18238096 0.3209905 1.9150001
0.18602858 0.3209905 1.9150001
0.1896762 0.3209905 1.9150001
0.19332382 0.3209905 1.9150001
0.19697143 0.3209905 1.9150001
0.20061906 0.3209905 1.9150001
0.20426667 0.3209905 1.9150001
0.20791429 0.3209905 1.9150001
0.21034667 0.31914669 1.904
0.21397334 0.31914669 1.904
0.2176 0.31914669 1.904
0.22006477 0.31747049 1.8940001
0.22367239 0.31747049 1.8940001
0.22596 0.31562668 1.8830001
0.22954668 0.31562668 1.8830001
0.23313335 0.31562668 1.8830001
0.23672001 0.31562668 1.8830001
0.23903048 0.31395048 1.8730001
0.2425981 0.31395048 1.8730001
0.24616572 0.31395048 1.8730001
0.24973334 0.31395048 1.8730001
0.2519486 0.31227431 1.863
0.25549716 0.31227431 1.863
0.25904572 0.31227431 1.863
0.26259428 0.31227431 1.863
0.26614287 0.31227431 1.863
0.26969144 0.31227431 1.863
0.27324 0.31227431 1.863
0.27678859 0.31227431 1.863
0.28033715 0.31227431 1.863
0.28388572 0.31227431 1.863
0.28589144 0.31059811 1.853
0.28942096 0.31059811 1.853
0.29295048 0.31059811 1.853
0.29648 0.31059811 1.853
0.29839048 0.3089219 1.8430001
0.30190095 0.3089219 1.8430001
0.30541143 0.3089219 1.8430001
0.30724573 0.30724573 1.8330001
0.31073716 0.30724573 1.8330001
0.31422859 0.30724573 1.8330001
0.31772003 0.30724573 1.8330001
0.31963429 0.30573717 1.8240001
0.32310858 0.30573717 1.8240001
0.32658288 0.30573717 1.8240001
0.33005714 0.30573717 1.8240001
0.33353144 0.30573717 1.8240001
0.33700573 0.30573717 1.8240001
0.34048 0.30573717 1.8240001
0.34206858 0.30406097 1.8140001
0.34361905 0.30238476 1.8040001
0.34705526 0.30238476 1.8040001
0.35049143 0.30238476 1.8040001
0.35216191 0.3008762 1.7950001
0.35558096 0.3008762 1.7950001
0.35900003 0.3008762 1.7950001
0.36241907 0.3008762 1.7950001
0.36583811 0.3008762 1.7950001
0.36925715 0.3008762 1.7950001
0.37267619 0.3008762 1.7950001
0.37420952 0.29936764 1.7860001
0.37761143 0.29936764 1.7860001
0.38101333 0.29936764 1.7860001
0.38441524 0.29936764 1.7860001
0.38586286 0.29785907 1.7770001
0.38924763 0.29785907 1.7770001
0.3926324 0.29785907 1.7770001
0.39601716 0.29785907 1.7770001
0.39737907 0.29635048 1.7680001
0.40074667 0.29635048 1.7680001
0.40411431 0.29635048 1.7680001
0.40540764 0.29484192 1.7590001
0.4087581 0.29484192 1.7590001
0.4121086 0.29484192 1.7590001
0.41545907 0.29484192 1.7590001
0.41880953 0.29484192 1.7590001
0.42000002 0.29333335 1.7500001
0.42333335 0.29333335 1.7500001
0.42666668 0.29333335 1.7500001
0.43000001 0.29333335 1.7500001
0.43333334 0.29333335 1.7500001
0.4366667 0.29333335 1.7500001
0.44000003 0.29333335 1.7500001
0.44333336 0.29333335 1.7500001
0.44666669 0.29333335 1.7500001
0.45000002 0.29333335 1.7500001
0.45333335 0.29333335 1.7500001
0.45431811 0.29182476 1.7410001
0.45526859 0.29031619 1.7320001
0.45856765 0.29031619 1.7320001
0.4594667 0.28880763 1.723
0.46274859 0.28880763 1.723
0.46603048 0.28880763 1.723
0.4693124 0.28880763 1.723
0.47259429 0.28880763 1.723
0.47587621 0.28880763 1.723
0.4791581 0.28880763 1.723
0.48244002 0.28880763 1.723
0.48572192 0.28880763 1.723
0.48900384 0.28880763 1.723
0.49228573 0.28880763 1.723
0.49556765 0.28880763 1.723
0.50145525 0.29031619 1.7320001
0.50213146 0.28880763 1.723
0.50306666 0.28746668 1.715
0.50633335 0.28746668 1.715
0.50960004 0.28746668 1.715
0.51286668 0.28746668 1.715
0.51613337 0.28746668 1.715
0.5194 0.28746668 1.715
0.52266669 0.28746668 1.715
0.52317333 0.28595811 1.7060001
0.52642286 0.28595811 1.7060001
0.52967238 0.28595811 1.7060001
0.53292191 0.28595811 1.7060001
0.53617144 0.28595811 1.7060001
0.53942096 0.28595811 1.7060001
0.54267049 0.28595811 1.7060001
0.54592001 0.28595811 1.7060001
0.54916954 0.28595811 1.7060001
0.55241907 0.28595811 1.7060001
0.55566859 0.28595811 1.7060001
0.55629718 0.28461716 1.6980001
0.55953145 0.28461716 1.6980001
0.56011432 0.2832762 1.6900001
0.56033337 0.28176764 1.6810001
0.56353527 0.28176764 1.6810001
0.56673717 0.28176764 1.6810001
0.56993908 0.28176764 1.6810001
0.57314098 0.28176764 1.6810001
0.57942861 0.2832762 1.6900001
0.58264762 0.2832762 1.6900001
0.58864003 0.28461716 1.6980001
0.59780002 0.28746668 1.715
0.60387051 0.28880763 1.723
0.61983812 0.29484192 1.7590001
0.62637717 0.29635048 1.7680001
0.63295048 0.29785907 1.7770001
0.63633525 0.29785907 1.7770001
0.64296001 0.29936764 1.7860001
0.6528762 0.30238476 1.8040001
0.66358858 0.30573717 1.8240001
0.67035431 0.30724573 1.8330001
0.68119812 0.31059811 1.853
0.68842286 0.31227431 1.863
0.69568574 0.31395048 1.8730001
0.70709336 0.31747049 1.8940001
0.71445334 0.31914669 1.904
0.72222859 0.3209905 1.9150001
0.73383623 0.32451048 1.9360001
0.75009525 0.33004192 1.9690001
0.76265144 0.33389714 1.9920001
0.7706781 0.33574095 2.003
0.78377336 0.33976382 2.0270002
0.79229718 0.34177524 2.039
0.80555242 0.34579811 2.0630002
0.81458288 0.34797716 2.0760002
0.82326859 0.34998858 2.0880001
0.83754671 0.35434669 2.1140001
0.84674859 0.35652572 2.1270001
0.86120003 0.36088383 2.1530001
0.87092763 0.3632305 2.1670001
0.88070858 0.36557716 2.181
0.8901372 0.36775622 2.194
0.90613717 0.37261716 2.223
0.92224765 0.37747812 2.2520001
0.92653716 0.37747812 2.2520001
0.93082672 0.37747812 2.2520001
0.94092953 0.37982479 2.266
0.94524574 0.37982479 2.266
-0.97402668 0.44228762 2.6090002
-0.9690572 0.44228762 2.6090002
-0.96408767 0.44228762 2.6090002
-0.95911813 0.44228762 2.6090002
-0.95414859 0.44228762 2.6090002
-0.94917905 0.44228762 2.6090002
-0.93697149 0.43889716 2.5890002
-0.93924004 0.44228762 2.6090002
-0.92710859 0.43889716 2.5890002
-0.9221772 0.43889716 2.5890002
-0.91724575 0.43889716 2.5890002
-0.9123143 0.43889716 2.5890002
-0.90738291 0.43889716 2.5890002
-0.90245146 0.43889716 2.5890002
-0.89752001 0.43889716 2.5890002
-0.89258862 0.43889716 2.5890002
-0.88114291 0.43567622 2.5700002
-0.87624764 0.43567622 2.5700002
-0.87135243 0.43567622 2.5700002
-0.86645716 0.43567622 2.5700002
-0.85519242 0.43245524 2.5510001
-0.85033339 0.43245524 2.5510001
-0.8454743 0.43245524 2.5510001
-0.84061527 0.43245524 2.5510001
-0.82953143 0.4292343 2.5320001
-0.82470858 0.4292343 2.5320001
-0.81405717 0.42618287 2.5140002
-0.80347431 0.42313144 2.4960001
-0.79872 0.42313144 2.4960001
-0.79396576 0.42313144 2.4960001
-0.78921145 0.42313144 2.4960001
-0.78445715 0.42313144 2.4960001
-0.7797029 0.42313144 2.4960001
-0.76936001 0.42008001 2.4780002
-0.76464003 0.42008001 2.4780002
-0.76544005 0.42313144 2.4960001
-0.75520003 0.42008001 2.4780002
-0.75593144 0.42313144 2.4960001
-0.74034286 0.41702858 2.46
-0.73565716 0.41702858 2.46
-0.73097146 0.41702858 2.46
-0.72628576 0.41702858 2.46
-0.72160006 0.41702858 2.46
-0.7169143 0.41702858 2.46
-0.70730668 0.41414669 2.4430001
-0.70265335 0.41414669 2.4430001
-0.69800001 0.41414669 2.4430001
-0.68852192 0.41126478 2.4260001
-0.68390095 0.41126478 2.4260001
-0.67928004 0.41126478 2.4260001
-0.67465907 0.41126478 2.4260001
-0.6700381 0.41126478 2.4260001
-0.66075432 0.40838286 2.4090002
-0.65616572 0.40838286 2.4090002
-0.65157717 0.40838286 2.4090002
-0.64698857 0.40838286 2.4090002
-0.64240003 0.40838286 2.4090002
-0.6333105 0.40550098 2.3920002
-0.62875432 0.40550098 2.3920002
-0.62419814 0.40550098 2.3920002
-0.6196419 0.40550098 2.3920002
-0.61508572 0.40550098 2.3920002
-0.60644573 0.40278858 2.3760002
-0.60192001 0.40278858 2.3760002
-0.59312004 0.39990669 2.3590002
-0.58862668 0.39990669 2.3590002
-0.58413333 0.39990669 2.3590002
-0.57964003 0.39990669 2.3590002
-0.57124573 0.3971943 2.3430002
-0.57065338 0.39990669 2.3590002
-0.56616002 0.39990669 2.3590002
-0.55785716 0.3971943 2.3430002
-0.55339432 0.3971943 2.3430002
-0.54893142 0.3971943 2.3430002
-0.54818666 0.39990669 2.3590002
-0.54000574 0.3971943 2.3430002
-0.53554291 0.3971943 2.3430002
-0.53108001 0.3971943 2.3430002
-0.52661717 0.3971943 2.3430002
-0.52215433 0.3971943 2.3430002
-0.51769143 0.3971943 2.3430002
-0.5132286 0.3971943 2.3430002
-0.50529146 0.39448193 2.3270001
-0.50085908 0.39448193 2.3270001
-0.49642667 0.39448193 2.3270001
-0.49199429 0.39448193 2.3270001
-0.48756191 0.39448193 2.3270001
-0.48312953 0.39448193 2.3270001
-0.47869715 0.39448193 2.3270001
-0.47426477 0.39448193 2.3270001
-0.46983239 0.39448193 2.3270001
-0.46240002 0.39193907 2.312
-0.45502478 0.38939619 2.2970002
-0.45064953 0.38939619 2.2970002
-0.44627431 0.38939619 2.2970002
-0.43882096 0.38668382 2.2810001
-0.4344762 0.38668382 2.2810001
-0.43013144 0.38668382 2.2810001
-0.42578667 0.38668382 2.2810001
-0.42144191 0.38668382 2.2810001
-0.41709715 0.38668382 2.2810001
-0.41275239 0.38668382 2.2810001
-0.40840763 0.38668382 2.2810001
-0.40140572 0.38414097 2.266
-0.39708954 0.38414097 2.266
-0.39277336 0.38414097 2.266
-0.38845715 0.38414097 2.266
-0.38414097 0.38414097 2.266
-0.37982479 0.38414097 2.266
-0.37550858 0.38414097 2.266
-0.3711924 0.38414097 2.266
-0.36687621 0.38414097 2.266
-0.36256 0.38414097 2.266
-0.35603049 0.38176763 2.2520001
-0.35174096 0.38176763 2.2520001
-0.34513715 0.37922478 2.237
-0.34087619 0.37922478 2.237
-0.33661526 0.37922478 2.237
-0.33235431 0.37922478 2.237
-0.32809335 0.37922478 2.237
-0.32383239 0.37922478 2.237
-0.31957144 0.37922478 2.237
-0.31531048 0.37922478 2.237
-0.31104952 0.37922478 2.237
-0.30678859 0.37922478 2.237
-0.30252764 0.37922478 2.237
-0.29826668 0.37922478 2.237
-0.29216573 0.37685144 2.223
-0.28793144 0.37685144 2.223
-0.28548381 0.37922478 2.237
-0.27946287 0.37685144 2.223
-0.27696192 0.37922478 2.237
-0.27270097 0.37922478 2.237
-0.26844001 0.37922478 2.237
-0.26252574 0.37685144 2.223
-0.25829142 0.37685144 2.223
-0.25234288 0.37430859 2.2080002
-0.24813715 0.37430859 2.2080002
-0.24238478 0.37193525 2.194
-0.23820572 0.37193525 2.194
-0.23264001 0.36973146 2.181
-0.22848572 0.36973146 2.181
-0.22433144 0.36973146 2.181
-0.22017714 0.36973146 2.181
-0.21602286 0.36973146 2.181
-0.21186858 0.36973146 2.181
-0.20771429 0.36973146 2.181
-0.20356001 0.36973146 2.181
-0.19940571 0.36973146 2.181
-0.19525144 0.36973146 2.181
-0.19109716 0.36973146 2.181
-0.18574287 0.36735812 2.1670001
-0.18161525 0.36735812 2.1670001
-0.17748763 0.36735812 2.1670001
-0.17336001 0.36735812 2.1670001
-0.16923238 0.36735812 2.1670001
-0.16510476 0.36735812 2.1670001
-0.15993714 0.36498478 2.1530001
-0.15583619 0.36498478 2.1530001
-0.15173525 0.36498478 2.1530001
-0.1476343 0.36498478 2.1530001
-0.14353333 0.36498478 2.1530001
-0.13943239 0.36498478 2.1530001
-0.13533144 0.36498478 2.1530001
-0.13123049 0.36498478 2.1530001
-0.12712952 0.36498478 2.1530001
-0.12228572 0.36278096 2.1400001
-0.11820953 0.36278096 2.1400001
-0.11344001 0.36057717 2.1270001
-0.10938857 0.36057717 2.1270001
-0.10469334 0.35837334 2.1140001
-0.10066667 0.35837334 2.1140001
-0.096640006 0.35837334 2.1140001
-0.092613339 0.35837334 2.1140001
-0.088041909 0.35616955 2.1010001
-0.084559999 0.35837334 2.1140001
-0.0800381 0.35616955 2.1010001
-0.076506667 0.35837334 2.1140001
-0.072480001 0.35837334 2.1140001
-0.068453334 0.35837334 2.1140001
-0.064030476 0.35616955 2.1010001
-0.060028575 0.35616955 2.1010001
-0.056026667 0.35616955 2.1010001
-0.052024763 0.35616955 2.1010001
-0.048022859 0.35616955 2.1010001
-0.043748572 0.35396573 2.0880001
-0.03977143 0.35396573 2.0880001
-0.035794288 0.35396573 2.0880001
-0.031817146 0.35396573 2.0880001
-0.027506668 0.34972763 2.0630002
-0.023577144 0.34972763 2.0630002
-0.019647621 0.34972763 2.0630002
-0.015718095 0.34972763 2.0630002
-0.011788572 0.34972763 2.0630002
-0.0078590475 0.34972763 2.0630002
-0.0039295238 0.34972763 2.0630002
0 0.34769335 2.0510001
0.0039066668 0.34769335 2.0510001
0.0078133335 0.34769335 2.0510001
0.011720001 0.34769335 2.0510001
0.015626667 0.34769335 2.0510001
0.019419048 0.34565905 2.039
0.023302859 0.34565905 2.039
0.027186668 0.34565905 2.039
0.031070478 0.34565905 2.039
0.034954287 0.34565905 2.039
0.038609527 0.34362477 2.0270002
0.042470478 0.34362477 2.0270002
0.046331432 0.34362477 2.0270002
0.050192382 0.34362477 2.0270002
0.054053336 0.34362477 2.0270002
0.05757143 0.34159049 2.0150001
0.061409526 0.34159049 2.0150001
0.065247625 0.34159049 2.0150001
0.068674289 0.33955622 2.003
0.07248953 0.33955622 2.003
0.076304764 0.33955622 2.003
0.079680003 0.33769143 1.9920001
0.083474286 0.33769143 1.9920001
0.087268576 0.33769143 1.9920001
0.091062859 0.33769143 1.9920001
0.094285719 0.33565715 1.9800001
0.097512387 0.33379239 1.9690001
0.10126286 0.33379239 1.9690001
0.10501334 0.33379239 1.9690001
0.10937143 0.33565715 1.9800001
0.11251429 0.33379239 1.9690001
0.11626477 0.33379239 1.9690001
0.12001524 0.33379239 1.9690001
0.12376572 0.33379239 1.9690001
0.1275162 0.33379239 1.9690001
0.13126667 0.33379239 1.9690001
0.13501714 0.33379239 1.9690001
0.13799238 0.33192763 1.9580001
0.1417219 0.33192763 1.9580001
0.14545143 0.33192763 1.9580001
0.14834286 0.33006287 1.9470001
0.15291049 0.33192763 1.9580001
0.15576001 0.33006287 1.9470001
0.15946858 0.33006287 1.9470001
0.16317715 0.33006287 1.9470001
0.16594286 0.32819811 1.9360001
0.16866668 0.32633334 1.9250001
0.1714381 0.3246381 1.9150001
0.17508572 0.3246381 1.9150001
0.17873333 0.3246381 1.9150001
0.18238096 0.3246381 1.9150001
0.18602858 0.3246381 1.9150001
0.1896762 0.3246381 1.9150001
0.19332382 0.3246381 1.9150001
0.19697143 0.3246381 1.9150001
0.20061906 0.3246381 1.9150001
0.20426667 0.3246381 1.9150001
0.20791429 0.3246381 1.9150001
0.21156192 0.3246381 1.9150001
0.21397334 0.32277334 1.904
0.2176 0.32277334 1.904
0.22006477 0.32107812 1.8940001
0.22367239 0.32107812 1.8940001
0.22596 0.31921333 1.8830001
0.22954668 0.31921333 1.8830001
0.23313335 0.31921333 1.8830001
0.23672001 0.31921333 1.8830001
0.23903048 0.31751812 1.8730001
0.2425981 0.31751812 1.8730001
0.24616572 0.31751812 1.8730001
0.24973334 0.31751812 1.8730001
0.2519486 0.31582287 1.863
0.25549716 0.31582287 1.863
0.25904572 0.31582287 1.863
0.26259428 0.31582287 1.863
0.26614287 0.31582287 1.863
0.26969144 0.31582287 1.863
0.27324 0.31582287 1.863
0.27678859 0.31582287 1.863
0.28033715 0.31582287 1.863
0.28388572 0.31582287 1.863
0.28743431 0.31582287 1.863
0.28942096 0.31412762 1.853
0.29295048 0.31412762 1.853
0.29648 0.31412762 1.853
0.30000955 0.31412762 1.853
0.30190095 0.31243238 1.8430001
0.30541143 0.31243238 1.8430001
0.30724573 0.31073716 1.8330001
0.31073716 0.31073716 1.8330001
0.31422859 0.31073716 1.8330001
0.31772003 0.31073716 1.8330001
0.32121143 0.31073716 1.8330001
0.32310858 0.30921143 1.8240001
0.32658288 0.30921143 1.8240001
0.33005714 0.30921143 1.8240001
0.33353144 0.30921143 1.8240001
0.33700573 0.30921143 1.8240001
0.33861333 0.30751619 1.8140001
0.34206858 0.30751619 1.8140001
0.34361905 0.30582097 1.8040001
0.34705526 0.30582097 1.8040001
0.35049143 0.30582097 1.8040001
0.35216191 0.30429524 1.7950001
0.35558096 0.30429524 1.7950001
0.35900003 0.30429524 1.7950001
0.36241907 0.30429524 1.7950001
0.36583811 0.30429524 1.7950001
0.36925715 0.30429524 1.7950001
0.37267619 0.30429524 1.7950001
0.37420952 0.30276954 1.7860001
0.37951431 0.30429524 1.7950001
0.38293335 0.30429524 1.7950001
0.38441524 0.30276954 1.7860001
0.38781714 0.30276954 1.7860001
0.39121905 0.30276954 1.7860001
0.3926324 0.30124381 1.7770001
0.39601716 0.30124381 1.7770001
0.39940193 0.30124381 1.7770001
0.40074667 0.29971811 1.7680001
0.40411431 0.29971811 1.7680001
0.40748191 0.29971811 1.7680001
0.4087581 0.29819238 1.7590001
0.4121086 0.29819238 1.7590001
0.41545907 0.29819238 1.7590001
0.41880953 0.29819238 1.7590001
0.42216003 0.29819238 1.7590001
0.42333335 0.29666668 1.7500001
0.42666668 0.29666668 1.7500001
0.43000001 0.29666668 1.7500001
0.43333334 0.29666668 1.7500001
0.4366667 0.29666668 1.7500001
0.44000003 0.29666668 1.7500001
0.44333336 0.29666668 1.7500001
0.44666669 0.29666668 1.7500001
0.45000002 0.29666668 1.7500001
0.45333335 0.29666668 1.7500001
0.45431811 0.29514095 1.7410001
0.45526859 0.29361525 1.7320001
0.45618477 0.29208952 1.723
0.4594667 0.29208952 1.723
0.46274859 0.29208952 1.723
0.46603048 0.29208952 1.723
0.4693124 0.29208952 1.723
0.47259429 0.29208952 1.723
0.4736667 0.29073334 1.715
0.47693336 0.29073334 1.715
0.48244002 0.29208952 1.723
0.48572192 0.29208952 1.723
0.48900384 0.29208952 1.723
0.49228573 0.29208952 1.723
0.49556765 0.29208952 1.723
0.49884954 0.29208952 1.723
0.50213146 0.29208952 1.723
0.50306666 0.29073334 1.715
0.50633335 0.29073334 1.715
0.50960004 0.29073334 1.715
0.51286668 0.29073334 1.715
0.51613337 0.29073334 1.715
0.5194 0.29073334 1.715
0.52266669 0.29073334 1.715
0.52317333 0.28920764 1.7060001
0.52642286 0.28920764 1.7060001
0.52967238 0.28920764 1.7060001
0.53292191 0.28920764 1.7060001
0.53617144 0.28920764 1.7060001
0.53942096 0.28920764 1.7060001
0.54267049 0.28920764 1.7060001
0.54592001 0.28920764 1.7060001
0.54916954 0.28920764 1.7060001
0.55241907 0.28920764 1.7060001
0.55566859 0.28920764 1.7060001
0.55629718 0.28785145 1.6980001
0.55953145 0.28785145 1.6980001
0.56276572 0.28785145 1.6980001
0.56333333 0.28649524 1.6900001
0.5665524 0.28649524 1.6900001
0.56977147 0.28649524 1.6900001
0.56993908 0.28496954 1.6810001
0.57314098 0.28496954 1.6810001
0.57942861 0.28649524 1.6900001
0.58264762 0.28649524 1.6900001
0.58864003 0.28785145 1.6980001
0.59780002 0.29073334 1.715
0.60387051 0.29208952 1.723
0.61983812 0.29819238 1.7590001
0.62637717 0.29971811 1.7680001
0.63295048 0.30124381 1.7770001
0.63633525 0.30124381 1.7770001
0.6462 0.30429524 1.7950001
0.6528762 0.30582097 1.8040001
0.66358858 0.30921143 1.8240001
0.67401147 0.31243238 1.8430001
0.6848743 0.31582287 1.863
0.68842286 0.31582287 1.863
0.69940001 0.31921333 1.8830001
0.70709336 0.32107812 1.8940001
0.71445334 0.32277334 1.904
0.72222859 0.3246381 1.9150001
0.7463448 0.33379239 1.9690001
0.75428575 0.33565715 1.9800001
0.76265144 0.33769143 1.9920001
0.7706781 0.33955622 2.003
0.78377336 0.34362477 2.0270002
0.79229718 0.34565905 2.039
0.80555242 0.34972763 2.0630002
0.81458288 0.35193145 2.0760002
0.82839429 0.35616955 2.1010001
0.8426972 0.36057717 2.1270001
0.85192382 0.36278096 2.1400001
0.86680001 0.36735812 2.1670001
0.87655431 0.36973146 2.181
0.88070858 0.36973146 2.181
0.89581716 0.37430859 2.2080002
0.90613717 0.37685144 2.223
0.92224765 0.38176763 2.2520001
0.92653716 0.38176763 2.2520001
0.93661338 0.38414097 2.266
0.94092953 0.38414097 2.266
0.94524574 0.38414097 2.266
-0.96656001 0.44382858 2.5890002
-0.96162862 0.44382858 2.5890002
-0.95669717 0.44382858 2.5890002
-0.95176578 0.44382858 2.5890002
-0.95414859 0.44725716 2.6090002
-0.94917905 0.44725716 2.6090002
-0.93697149 0.44382858 2.5890002
-0.93924004 0.44725716 2.6090002
-0.9342705 0.44725716 2.6090002
-0.92930096 0.44725716 2.6090002
-0.92433149 0.44725716 2.6090002
-0.9123143 0.44382858 2.5890002
-0.90738291 0.44382858 2.5890002
-0.90942287 0.44725716 2.6090002
-0.89752001 0.44382858 2.5890002
-0.89258862 0.44382858 2.5890002
-0.88765717 0.44382858 2.5890002
-0.87624764 0.44057146 2.5700002
-0.87135243 0.44057146 2.5700002
-0.86645716 0.44057146 2.5700002
-0.85519242 0.4373143 2.5510001
-0.85033339 0.4373143 2.5510001
-0.8454743 0.4373143 2.5510001
-0.84061527 0.4373143 2.5510001
-0.82953143 0.43405715 2.5320001
-0.82470858 0.43405715 2.5320001
-0.81405717 0.43097144 2.5140002
-0.80347431 0.42788574 2.4960001
-0.79872 0.42788574 2.4960001
-0.79396576 0.42788574 2.4960001
-0.78921145 0.42788574 2.4960001
-0.78445715 0.42788574 2.4960001
-0.7797029 0.42788574 2.4960001
-0.7749486 0.42788574 2.4960001
-0.77019429 0.42788574 2.4960001
-0.76544005 0.42788574 2.4960001
-0.76068574 0.42788574 2.4960001
-0.75593144 0.42788574 2.4960001
-0.74576002 0.42480001 2.4780002
-0.74104005 0.42480001 2.4780002
-0.73097146 0.42171431 2.46
-0.72628576 0.42171431 2.46
-0.72160006 0.42171431 2.46
-0.7169143 0.42171431 2.46
-0.70730668 0.41880003 2.4430001
-0.70265335 0.41880003 2.4430001
-0.69800001 0.41880003 2.4430001
-0.68852192 0.41588572 2.4260001
-0.68390095 0.41588572 2.4260001
-0.67928004 0.41588572 2.4260001
-0.67465907 0.41588572 2.4260001
-0.6700381 0.41588572 2.4260001
-0.66541719 0.41588572 2.4260001
-0.65616572 0.41297144 2.4090002
-0.65157717 0.41297144 2.4090002
-0.64698857 0.41297144 2.4090002
-0.64240003 0.41297144 2.4090002
-0.6333105 0.41005716 2.3920002
-0.62875432 0.41005716 2.3920002
-0.62419814 0.41005716 2.3920002
-0.6196419 0.41005716 2.3920002
-0.61508572 0.41005716 2.3920002
-0.61052954 0.41005716 2.3920002
-0.60597336 0.41005716 2.3920002
-0.59739429 0.4073143 2.3760002
-0.59286857 0.4073143 2.3760002
-0.58413333 0.40440002 2.3590002
-0.57964003 0.40440002 2.3590002
-0.57514668 0.40440002 2.3590002
-0.57065338 0.40440002 2.3590002
-0.56231999 0.40165716 2.3430002
-0.55785716 0.40165716 2.3430002
-0.55339432 0.40165716 2.3430002
-0.55268002 0.40440002 2.3590002
-0.54818666 0.40440002 2.3590002
-0.54369336 0.40440002 2.3590002
-0.53554291 0.40165716 2.3430002
-0.53108001 0.40165716 2.3430002
-0.52661717 0.40165716 2.3430002
-0.52215433 0.40165716 2.3430002
-0.51769143 0.40165716 2.3430002
-0.5132286 0.40165716 2.3430002
-0.50529146 0.39891431 2.3270001
-0.50085908 0.39891431 2.3270001
-0.49642667 0.39891431 2.3270001
-0.49199429 0.39891431 2.3270001
-0.48441908 0.39634287 2.312
-0.48312953 0.39891431 2.3270001
-0.47869715 0.39891431 2.3270001
-0.47426477 0.39891431 2.3270001
-0.46680382 0.39634287 2.312
-0.46240002 0.39634287 2.312
-0.45502478 0.39377144 2.2970002
-0.45064953 0.39377144 2.2970002
-0.44316572 0.39102858 2.2810001
-0.43882096 0.39102858 2.2810001
-0.43161908 0.38845715 2.266
-0.43013144 0.39102858 2.2810001
-0.42578667 0.39102858 2.2810001
-0.42144191 0.39102858 2.2810001
-0.41709715 0.39102858 2.2810001
-0.41275239 0.39102858 2.2810001
-0.40840763 0.39102858 2.2810001
-0.40406287 0.39102858 2.2810001
-0.39708954 0.38845715 2.266
-0.39277336 0.38845715 2.266
-0.38845715 0.38845715 2.266
-0.38414097 0.38845715 2.266
-0.37982479 0.38845715 2.266
-0.37550858 0.38845715 2.266
-0.3711924 0.38845715 2.266
-0.36687621 0.38845715 2.266
-0.36256 0.38845715 2.266
-0.35603049 0.38605717 2.2520001
-0.35174096 0.38605717 2.2520001
-0.34513715 0.38348573 2.237
-0.34087619 0.38348573 2.237
-0.33661526 0.38348573 2.237
-0.33235431 0.38348573 2.237
-0.32809335 0.38348573 2.237
-0.32383239 0.38348573 2.237
-0.31957144 0.38348573 2.237
-0.31531048 0.38348573 2.237
-0.31104952 0.38348573 2.237
-0.30678859 0.38348573 2.237
-0.30252764 0.38348573 2.237
-0.29826668 0.38348573 2.237
-0.29216573 0.38108572 2.223
-0.28793144 0.38108572 2.223
-0.28369716 0.38108572 2.223
-0.27946287 0.38108572 2.223
-0.27696192 0.38348573 2.237
-0.27270097 0.38348573 2.237
-0.26676002 0.38108572 2.223
-0.26252574 0.38108572 2.223
-0.25829142 0.38108572 2.223
-0.25234288 0.37851429 2.2080002
-0.24813715 0.37851429 2.2080002
-0.24393144 0.37851429 2.2080002
-0.23972572 0.37851429 2.2080002
-0.23264001 0.37388572 2.181
-0.22984762 0.37611431 2.194
-0.22433144 0.37388572 2.181
-0.22017714 0.37388572 2.181
-0.21602286 0.37388572 2.181
-0.21050858 0.37148574 2.1670001
-0.20638096 0.37148574 2.1670001
-0.20225334 0.37148574 2.1670001
-0.19812572 0.37148574 2.1670001
-0.1939981 0.37148574 2.1670001
-0.18987048 0.37148574 2.1670001
-0.18574287 0.37148574 2.1670001
