# .PCD v0.7 - Point Cloud Data file format
VERSION 0.7
FIELDS x y z
SIZE 4 4 4
TYPE F F F
COUNT 1 1 1
WIDTH 1492
HEIGHT 1
VIEWPOINT 0 0 0 1 0 0 0
POINTS 1492
DATA ascii
0.29974857 0.041737143 1.9920001
0.30354288 0.041737143 1.9920001
0.30548573 0.041485716 1.9800001
0.30925715 0.041485716 1.9800001
0.31492573 0.041737143 1.9920001
0.31872001 0.041737143 1.9920001
0.3225143 0.041737143 1.9920001
0.32630858 0.041737143 1.9920001
0.33010286 0.041737143 1.9920001
0.33389714 0.041737143 1.9920001
0.33955622 0.041967619 2.003
0.34337145 0.041967619 2.003
0.34718668 0.041967619 2.003
0.35100192 0.041967619 2.003
0.35481715 0.041967619 2.003
0.35863239 0.041967619 2.003
0.36244762 0.041967619 2.003
0.36626288 0.041967619 2.003
0.37007812 0.041967619 2.003
0.37389335 0.041967619 2.003
0.37770858 0.041967619 2.003
0.38380954 0.04221905 2.0150001
0.38764763 0.04221905 2.0150001
0.39148572 0.04221905 2.0150001
0.39767811 0.042470478 2.0270002
0.40153906 0.042470478 2.0270002
0.40540001 0.042470478 2.0270002
0.41168383 0.042721905 2.039
0.41312191 0.042470478 2.0270002
0.4145143 0.04221905 2.0150001
0.42084384 0.042470478 2.0270002
0.42470479 0.042470478 2.0270002
0.42856574 0.042470478 2.0270002
0.43242669 0.042470478 2.0270002
0.43628764 0.042470478 2.0270002
0.44014859 0.042470478 2.0270002
0.44400954 0.042470478 2.0270002
0.44787049 0.042470478 2.0270002
0.45173144 0.042470478 2.0270002
0.45559239 0.042470478 2.0270002
0.45945334 0.042470478 2.0270002
0.46331429 0.042470478 2.0270002
0.46717525 0.042470478 2.0270002
0.4710362 0.042470478 2.0270002
0.47489715 0.042470478 2.0270002
0.47875813 0.042470478 2.0270002
0.4854762 0.042721905 2.039
0.48936 0.042721905 2.039
0.49324381 0.042721905 2.039
0.49712765 0.042721905 2.039
0.50101143 0.042721905 2.039
0.50489527 0.042721905 2.039
0.50877905 0.042721905 2.039
0.51266289 0.042721905 2.039
0.51958668 0.042973336 2.0510001
0.52349335 0.042973336 2.0510001
0.52740002 0.042973336 2.0510001
0.53441525 0.043224763 2.0630002
0.5383448 0.043224763 2.0630002
0.54569143 0.043497145 2.0760002
0.54964572 0.043497145 2.0760002
0.55013335 0.043224763 2.0630002
0.5575543 0.043497145 2.0760002
0.5615086 0.043497145 2.0760002
0.56546289 0.043497145 2.0760002
0.56585145 0.043224763 2.0630002
0.57337147 0.043497145 2.0760002
0.57732576 0.043497145 2.0760002
0.58127999 0.043497145 2.0760002
0.58523428 0.043497145 2.0760002
0.58918858 0.043497145 2.0760002
0.59657145 0.043748572 2.0880001
0.60054857 0.043748572 2.0880001
0.60452574 0.043748572 2.0880001
0.60850286 0.043748572 2.0880001
0.61248004 0.043748572 2.0880001
0.61645716 0.043748572 2.0880001
0.62043428 0.043748572 2.0880001
0.62441146 0.043748572 2.0880001
0.62838858 0.043748572 2.0880001
0.63236576 0.043748572 2.0880001
0.63634288 0.043748572 2.0880001
0.64032 0.043748572 2.0880001
0.64830858 0.044020955 2.1010001
0.65231049 0.044020955 2.1010001
0.66037333 0.044293337 2.1140001
0.66440004 0.044293337 2.1140001
0.66842669 0.044293337 2.1140001
0.67245334 0.044293337 2.1140001
0.67648 0.044293337 2.1140001
0.68050671 0.044293337 2.1140001
0.68453336 0.044293337 2.1140001
0.68856001 0.044293337 2.1140001
0.69258672 0.044293337 2.1140001
0.69661337 0.044293337 2.1140001
0.70064002 0.044293337 2.1140001
0.70900005 0.044565715 2.1270001
0.71305144 0.044565715 2.1270001
0.71710289 0.044565715 2.1270001
0.72115433 0.044565715 2.1270001
0.72520572 0.044565715 2.1270001
0.72925717 0.044565715 2.1270001
0.73779052 0.044838097 2.1400001
0.74186671 0.044838097 2.1400001
0.74594289 0.044838097 2.1400001
0.75001907 0.044838097 2.1400001
0.75409526 0.044838097 2.1400001
0.75817144 0.044838097 2.1400001
0.76687813 0.045110479 2.1530001
0.77097905 0.045110479 2.1530001
0.77508003 0.045110479 2.1530001
0.779181 0.045110479 2.1530001
0.78328192 0.045110479 2.1530001
0.7873829 0.045110479 2.1530001
0.7966305 0.045403812 2.1670001
0.80075812 0.045403812 2.1670001
0.80488575 0.045403812 2.1670001
0.81424004 0.045697145 2.181
0.8183943 0.045697145 2.181
0.82254863 0.045697145 2.181
0.82670289 0.045697145 2.181
0.83085716 0.045697145 2.181
0.83501148 0.045697145 2.181
0.83916575 0.045697145 2.181
0.84332001 0.045697145 2.181
0.84747434 0.045697145 2.181
0.85670477 0.045969527 2.194
0.86088383 0.045969527 2.194
0.86506289 0.045969527 2.194
0.86924195 0.045969527 2.194
0.87342101 0.045969527 2.194
0.88320005 0.04626286 2.2080002
0.88740575 0.04626286 2.2080002
0.89161146 0.04626286 2.2080002
0.89581716 0.04626286 2.2080002
0.90613717 0.046577144 2.223
0.91037148 0.046577144 2.223
0.91460574 0.046577144 2.223
0.91884005 0.046577144 2.223
0.92307431 0.046577144 2.223
0.93314862 0.046870477 2.237
0.93740958 0.046870477 2.237
0.94167054 0.046870477 2.237
0.94593143 0.046870477 2.237
0.95019239 0.046870477 2.237
0.95445335 0.046870477 2.237
0.95871431 0.046870477 2.237
0.96297526 0.046870477 2.237
0.96723622 0.046870477 2.237
0.97801149 0.047184765 2.2520001
-0.73894286 0.038057145 1.6650001
-0.73577148 0.038057145 1.6650001
-0.72204 0.037508573 1.641
-0.73293334 0.038240001 1.6730001
-0.7297467 0.038240001 1.6730001
-0.71266288 0.037508573 1.641
-0.70953715 0.037508573 1.641
-0.70641148 0.037508573 1.641
-0.70328575 0.037508573 1.641
-0.70698667 0.037874289 1.6570001
-0.70043242 0.037691429 1.649
-0.69390857 0.037508573 1.641
-0.6907829 0.037508573 1.641
-0.68765718 0.037508573 1.641
-0.68161148 0.037348572 1.6340001
-0.67517716 0.037165716 1.626
-0.67208004 0.037165716 1.626
-0.66898286 0.037165716 1.626
-0.66916192 0.037348572 1.6340001
-0.66890287 0.037508573 1.641
-0.66577715 0.037508573 1.641
-0.66265148 0.037508573 1.641
-0.65952575 0.037508573 1.641
-0.65640002 0.037508573 1.641
-0.6532743 0.037508573 1.641
-0.64737529 0.037348572 1.6340001
-0.64110857 0.037165716 1.626
-0.63487238 0.036982857 1.618
-0.63179052 0.036982857 1.618
-0.6287086 0.036982857 1.618
-0.62562668 0.036982857 1.618
-0.62254477 0.036982857 1.618
-0.6167829 0.036822859 1.6110001
-0.61638099 0.036982857 1.618
-0.61329907 0.036982857 1.618
-0.61021715 0.036982857 1.618
-0.60713524 0.036982857 1.618
-0.60405338 0.036982857 1.618
-0.60097146 0.036982857 1.618
-0.60084575 0.037165716 1.626
-0.59480762 0.036982857 1.618
-0.59172571 0.036982857 1.618
-0.58864385 0.036982857 1.618
-0.58845717 0.037165716 1.626
-0.58248001 0.036982857 1.618
-0.5793981 0.036982857 1.618
-0.57916576 0.037165716 1.626
-0.57606858 0.037165716 1.626
-0.57579052 0.037348572 1.6340001
-0.57267809 0.037348572 1.6340001
-0.56956571 0.037348572 1.6340001
-0.56645334 0.037348572 1.6340001
-0.56334096 0.037348572 1.6340001
-0.56022859 0.037348572 1.6340001
-0.55711621 0.037348572 1.6340001
-0.55400383 0.037348572 1.6340001
-0.55089146 0.037348572 1.6340001
-0.54777908 0.037348572 1.6340001
-0.54466671 0.037348572 1.6340001
-0.54155433 0.037348572 1.6340001
-0.5407486 0.037508573 1.641
-0.53762287 0.037508573 1.641
-0.53449714 0.037508573 1.641
-0.53137147 0.037508573 1.641
-0.52824575 0.037508573 1.641
-0.52512002 0.037508573 1.641
-0.52199429 0.037508573 1.641
-0.51886857 0.037508573 1.641
-0.5157429 0.037508573 1.641
-0.51511621 0.037691429 1.649
-0.50949144 0.037508573 1.641
-0.5088343 0.037691429 1.649
-0.50569338 0.037691429 1.649
-0.50255239 0.037691429 1.649
-0.49941143 0.037691429 1.649
-0.49627051 0.037691429 1.649
-0.49073717 0.037508573 1.641
-0.48761144 0.037508573 1.641
-0.48920953 0.037874289 1.6570001
-0.48136002 0.037508573 1.641
-0.4852286 0.038057145 1.6650001
-0.48205715 0.038057145 1.6650001
-0.48118669 0.038240001 1.6730001
-0.47342858 0.037874289 1.6570001
-0.47027239 0.037874289 1.6570001
-0.46711621 0.037874289 1.6570001
-0.46620002 0.038057145 1.6650001
-0.46302858 0.038057145 1.6650001
-0.45764762 0.037874289 1.6570001
-0.45668572 0.038057145 1.6650001
-0.45351431 0.038057145 1.6650001
-0.45034286 0.038057145 1.6650001
-0.44717145 0.038057145 1.6650001
-0.44613335 0.038240001 1.6730001
-0.44294667 0.038240001 1.6730001
-0.43976003 0.038240001 1.6730001
-0.43866098 0.03842286 1.6810001
-0.43545908 0.03842286 1.6810001
-0.43225715 0.03842286 1.6810001
-0.42905524 0.03842286 1.6810001
-0.42585334 0.03842286 1.6810001
-0.42265144 0.03842286 1.6810001
-0.41944954 0.03842286 1.6810001
-0.41624764 0.03842286 1.6810001
-0.41525716 0.038628574 1.6900001
-0.41203812 0.038628574 1.6900001
-0.40881905 0.038628574 1.6900001
-0.40560001 0.038628574 1.6900001
-0.40238097 0.038628574 1.6900001
-0.39916191 0.038628574 1.6900001
-0.39594287 0.038628574 1.6900001
-0.39458287 0.03881143 1.6980001
-0.3913486 0.03881143 1.6980001
-0.3881143 0.03881143 1.6980001
-0.38488001 0.03881143 1.6980001
-0.38164574 0.03881143 1.6980001
-0.37841144 0.03881143 1.6980001
-0.37517715 0.03881143 1.6980001
-0.37194288 0.03881143 1.6980001
-0.36870858 0.03881143 1.6980001
-0.36547431 0.03881143 1.6980001
-0.36224002 0.03881143 1.6980001
-0.35900572 0.03881143 1.6980001
-0.35744762 0.038994286 1.7060001
-0.35253716 0.03881143 1.6980001
-0.34930286 0.03881143 1.6980001
-0.34769905 0.038994286 1.7060001
-0.34444955 0.038994286 1.7060001
-0.34300002 0.0392 1.715
-0.33973333 0.0392 1.715
-0.33646667 0.0392 1.715
-0.33475429 0.03938286 1.723
-0.3314724 0.03938286 1.723
-0.32819048 0.03938286 1.723
-0.32490858 0.03938286 1.723
-0.32162669 0.03938286 1.723
-0.31834477 0.03938286 1.723
-0.31506288 0.03938286 1.723
-0.31340954 0.039588574 1.7320001
-0.31011048 0.039588574 1.7320001
-0.30681145 0.039588574 1.7320001
-0.30508953 0.039794289 1.7410001
-0.30177334 0.039794289 1.7410001
-0.29845715 0.039794289 1.7410001
-0.29514095 0.039794289 1.7410001
-0.29031619 0.039588574 1.7320001
-0.28701717 0.039588574 1.7320001
-0.2851924 0.039794289 1.7410001
-0.28187621 0.039794289 1.7410001
-0.27856001 0.039794289 1.7410001
-0.27524382 0.039794289 1.7410001
-0.27333334 0.040000003 1.7500001
-0.27000001 0.040000003 1.7500001
-0.26803809 0.040205717 1.7590001
-0.26468763 0.040205717 1.7590001
-0.26133716 0.040205717 1.7590001
-0.25798666 0.040205717 1.7590001
-0.2546362 0.040205717 1.7590001
-0.25257143 0.040411431 1.7680001
-0.24920382 0.040411431 1.7680001
-0.2458362 0.040411431 1.7680001
-0.24246858 0.040411431 1.7680001
-0.23910096 0.040411431 1.7680001
-0.23573335 0.040411431 1.7680001
-0.23236573 0.040411431 1.7680001
-0.23016381 0.040617146 1.7770001
-0.22563048 0.040411431 1.7680001
-0.22226286 0.040411431 1.7680001
-0.21889524 0.040411431 1.7680001
-0.21552762 0.040411431 1.7680001
-0.21216001 0.040411431 1.7680001
-0.20985524 0.040617146 1.7770001
-0.20647049 0.040617146 1.7770001
-0.20308572 0.040617146 1.7770001
-0.19970097 0.040617146 1.7770001
-0.19731048 0.04082286 1.7860001
-0.19390857 0.04082286 1.7860001
-0.19050667 0.04082286 1.7860001
-0.18804763 0.041028574 1.7950001
-0.18462858 0.041028574 1.7950001
-0.18120953 0.041028574 1.7950001
-0.17779048 0.041028574 1.7950001
-0.17437144 0.041028574 1.7950001
-0.17095239 0.041028574 1.7950001
-0.16753334 0.041028574 1.7950001
-0.1641143 0.041028574 1.7950001
-0.16069524 0.041028574 1.7950001
-0.1572762 0.041028574 1.7950001
-0.15385714 0.041028574 1.7950001
-0.15119238 0.041234288 1.8040001
-0.14775619 0.041234288 1.8040001
-0.14432001 0.041234288 1.8040001
-0.14166477 0.041462857 1.8140001
-0.13820952 0.041462857 1.8140001
-0.13475429 0.041462857 1.8140001
-0.13202286 0.04169143 1.8240001
-0.12854858 0.04169143 1.8240001
-0.12438858 0.041462857 1.8140001
-0.1216 0.04169143 1.8240001
-0.11812572 0.04169143 1.8240001
-0.11465143 0.04169143 1.8240001
-0.11172572 0.041897144 1.8330001
-0.10823429 0.041897144 1.8330001
-0.10474286 0.041897144 1.8330001
-0.10125143 0.041897144 1.8330001
-0.097760007 0.041897144 1.8330001
-0.094268575 0.041897144 1.8330001
-0.090777144 0.041897144 1.8330001
-0.08728572 0.041897144 1.8330001
-0.083794288 0.041897144 1.8330001
-0.080302857 0.041897144 1.8330001
-0.076811433 0.041897144 1.8330001
-0.073320001 0.041897144 1.8330001
-0.069828577 0.041897144 1.8330001
-0.06669905 0.042125717 1.8430001
-0.063188575 0.042125717 1.8430001
-0.059678096 0.042125717 1.8430001
-0.056167621 0.042125717 1.8430001
-0.052657146 0.042125717 1.8430001
-0.049146667 0.042125717 1.8430001
-0.045636192 0.042125717 1.8430001
-0.042354286 0.042354286 1.853
-0.038824763 0.042354286 1.853
-0.035295241 0.042354286 1.853
-0.031765714 0.042354286 1.853
-0.028083811 0.042125717 1.8430001
-0.024706667 0.042354286 1.853
-0.021177143 0.042354286 1.853
-0.01764762 0.042354286 1.853
-0.014118096 0.042354286 1.853
-0.010588571 0.042354286 1.853
-0.0070590479 0.042354286 1.853
-0.0035485716 0.042582858 1.863
0 0.042582858 1.863
0.0035485716 0.042582858 1.863
0.0070971432 0.042582858 1.863
0.010645715 0.042582858 1.863
0.014194286 0.042582858 1.863
0.017742857 0.042582858 1.863
0.021291429 0.042582858 1.863
0.024840001 0.042582858 1.863
0.028540954 0.042811431 1.8730001
0.032108571 0.042811431 1.8730001
0.035676192 0.042811431 1.8730001
0.03924381 0.042811431 1.8730001
0.042811431 0.042811431 1.8730001
0.046379048 0.042811431 1.8730001
0.049946669 0.042811431 1.8730001
0.053514287 0.042811431 1.8730001
0.057081908 0.042811431 1.8730001
0.060649525 0.042811431 1.8730001
0.064217143 0.042811431 1.8730001
0.068146668 0.04304 1.8830001
0.071733333 0.04304 1.8830001
0.075320005 0.04304 1.8830001
0.07890667 0.04304 1.8830001
0.082975239 0.043291431 1.8940001
0.086582862 0.043291431 1.8940001
0.090190478 0.043291431 1.8940001
0.093798101 0.043291431 1.8940001
0.097405717 0.043291431 1.8940001
0.10154667 0.04352 1.904
0.10517333 0.04352 1.904
0.1088 0.04352 1.904
0.11242667 0.04352 1.904
0.11605334 0.04352 1.904
0.11968 0.04352 1.904
0.12330667 0.04352 1.904
0.12693334 0.04352 1.904
0.13056001 0.04352 1.904
0.1349619 0.043771431 1.9150001
0.13860953 0.043771431 1.9150001
0.14225715 0.043771431 1.9150001
0.14590476 0.043771431 1.9150001
0.14955239 0.043771431 1.9150001
0.1532 0.043771431 1.9150001
0.15684763 0.043771431 1.9150001
0.16049525 0.043771431 1.9150001
0.16414286 0.043771431 1.9150001
0.16866668 0.044 1.9250001
0.17233334 0.044 1.9250001
0.176 0.044 1.9250001
0.17966667 0.044 1.9250001
0.18438096 0.044251431 1.9360001
0.18806858 0.044251431 1.9360001
0.1917562 0.044251431 1.9360001
0.19544382 0.044251431 1.9360001
0.19913143 0.044251431 1.9360001
0.20281905 0.044251431 1.9360001
0.20650667 0.044251431 1.9360001
0.21138857 0.044502858 1.9470001
0.21509714 0.044502858 1.9470001
0.21880572 0.044502858 1.9470001
0.22251429 0.044502858 1.9470001
0.22622287 0.044502858 1.9470001
0.22993144 0.044502858 1.9470001
0.23496 0.044754289 1.9580001
0.23868953 0.044754289 1.9580001
0.24241905 0.044754289 1.9580001
0.24614859 0.044754289 1.9580001
0.24987811 0.044754289 1.9580001
0.25360763 0.044754289 1.9580001
0.25733715 0.044754289 1.9580001
0.26106668 0.044754289 1.9580001
0.26628381 0.045005716 1.9690001
0.27003428 0.045005716 1.9690001
0.27378479 0.045005716 1.9690001
0.27908573 0.045257144 1.9800001
0.28285715 0.045257144 1.9800001
0.28662857 0.045257144 1.9800001
0.2904 0.045257144 1.9800001
0.29595429 0.045531429 1.9920001
0.29974857 0.045531429 1.9920001
0.30354288 0.045531429 1.9920001
0.30733716 0.045531429 1.9920001
0.31113145 0.045531429 1.9920001
0.31492573 0.045531429 1.9920001
0.31872001 0.045531429 1.9920001
0.3225143 0.045531429 1.9920001
0.32630858 0.045531429 1.9920001
0.33010286 0.045531429 1.9920001
0.33574095 0.04578286 2.003
0.33955622 0.04578286 2.003
0.34337145 0.04578286 2.003
0.34718668 0.04578286 2.003
0.35100192 0.04578286 2.003
0.35481715 0.04578286 2.003
0.35863239 0.04578286 2.003
0.36244762 0.04578286 2.003
0.36626288 0.04578286 2.003
0.37007812 0.04578286 2.003
0.37389335 0.04578286 2.003
0.37770858 0.04578286 2.003
0.38380954 0.046057146 2.0150001
0.38764763 0.046057146 2.0150001
0.39148572 0.046057146 2.0150001
0.39767811 0.046331432 2.0270002
0.40153906 0.046331432 2.0270002
0.40540001 0.046331432 2.0270002
0.40926096 0.046331432 2.0270002
0.41312191 0.046331432 2.0270002
0.4145143 0.046057146 2.0150001
0.42084384 0.046331432 2.0270002
0.42470479 0.046331432 2.0270002
0.42856574 0.046331432 2.0270002
0.43242669 0.046331432 2.0270002
0.43628764 0.046331432 2.0270002
0.44014859 0.046331432 2.0270002
0.44400954 0.046331432 2.0270002
0.44787049 0.046331432 2.0270002
0.45173144 0.046331432 2.0270002
0.45559239 0.046331432 2.0270002
0.45945334 0.046331432 2.0270002
0.46331429 0.046331432 2.0270002
0.46717525 0.046331432 2.0270002
0.4710362 0.046331432 2.0270002
0.47770858 0.046605717 2.039
0.48159239 0.046605717 2.039
0.4854762 0.046605717 2.039
0.48936 0.046605717 2.039
0.49324381 0.046605717 2.039
0.49712765 0.046605717 2.039
0.50101143 0.046605717 2.039
0.50489527 0.046605717 2.039
0.50877905 0.046605717 2.039
0.51266289 0.046605717 2.039
0.51958668 0.046880003 2.0510001
0.52349335 0.046880003 2.0510001
0.52740002 0.046880003 2.0510001
0.53441525 0.047154289 2.0630002
0.5383448 0.047154289 2.0630002
0.54569143 0.047451429 2.0760002
0.54964572 0.047451429 2.0760002
0.55013335 0.047154289 2.0630002
0.5575543 0.047451429 2.0760002
0.5615086 0.047451429 2.0760002
0.56546289 0.047451429 2.0760002
0.56585145 0.047154289 2.0630002
0.57337147 0.047451429 2.0760002
0.57732576 0.047451429 2.0760002
0.58127999 0.047451429 2.0760002
0.58523428 0.047451429 2.0760002
0.59259433 0.047725715 2.0880001
0.59657145 0.047725715 2.0880001
0.60054857 0.047725715 2.0880001
0.60452574 0.047725715 2.0880001
0.60850286 0.047725715 2.0880001
0.61248004 0.047725715 2.0880001
0.61645716 0.047725715 2.0880001
0.62043428 0.047725715 2.0880001
0.62441146 0.047725715 2.0880001
0.62838858 0.047725715 2.0880001
0.63236576 0.047725715 2.0880001
0.63634288 0.047725715 2.0880001
0.64032 0.047725715 2.0880001
0.64429718 0.047725715 2.0880001
0.65231049 0.048022859 2.1010001
0.66037333 0.048320003 2.1140001
0.66440004 0.048320003 2.1140001
0.66842669 0.048320003 2.1140001
0.67245334 0.048320003 2.1140001
0.67648 0.048320003 2.1140001
0.68050671 0.048320003 2.1140001
0.68453336 0.048320003 2.1140001
0.68856001 0.048320003 2.1140001
0.69258672 0.048320003 2.1140001
0.70089716 0.048617143 2.1270001
0.7049486 0.048617143 2.1270001
0.70900005 0.048617143 2.1270001
0.71305144 0.048617143 2.1270001
0.71710289 0.048617143 2.1270001
0.72115433 0.048617143 2.1270001
0.72520572 0.048617143 2.1270001
0.72925717 0.048617143 2.1270001
0.73330861 0.048617143 2.1270001
0.73736 0.048617143 2.1270001
0.74594289 0.048914287 2.1400001
0.75001907 0.048914287 2.1400001
0.75409526 0.048914287 2.1400001
0.75817144 0.048914287 2.1400001
0.76687813 0.049211431 2.1530001
0.77097905 0.049211431 2.1530001
0.77508003 0.049211431 2.1530001
0.779181 0.049211431 2.1530001
0.78328192 0.049211431 2.1530001
0.7873829 0.049211431 2.1530001
0.7966305 0.04953143 2.1670001
0.80075812 0.04953143 2.1670001
0.80488575 0.04953143 2.1670001
0.81424004 0.049851429 2.181
0.8183943 0.049851429 2.181
0.82254863 0.049851429 2.181
0.82670289 0.049851429 2.181
0.83085716 0.049851429 2.181
0.83501148 0.049851429 2.181
0.83916575 0.049851429 2.181
0.84332001 0.049851429 2.181
0.84747434 0.049851429 2.181
0.85670477 0.050148573 2.194
0.86088383 0.050148573 2.194
0.86506289 0.050148573 2.194
0.86924195 0.050148573 2.194
0.87342101 0.050148573 2.194
0.88320005 0.050468571 2.2080002
0.89343435 0.050811432 2.223
0.89161146 0.050468571 2.2080002
0.90190291 0.050811432 2.223
0.90613717 0.050811432 2.223
0.91037148 0.050811432 2.223
0.91460574 0.050811432 2.223
0.91884005 0.050811432 2.223
0.92307431 0.050811432 2.223
0.92730862 0.050811432 2.223
0.93740958 0.051131431 2.237
0.94167054 0.051131431 2.237
0.94593143 0.051131431 2.237
0.95019239 0.051131431 2.237
0.95445335 0.051131431 2.237
0.95871431 0.051131431 2.237
0.96297526 0.051131431 2.237
0.96723622 0.051131431 2.237
0.97149718 0.051131431 2.237
-0.73454291 0.040634286 1.641
-0.73141718 0.040634286 1.641
-0.72829145 0.040634286 1.641
-0.72516572 0.040634286 1.641
-0.71896005 0.040460955 1.6340001
-0.70883811 0.040064763 1.618
-0.70924574 0.040262859 1.626
-0.70962286 0.040460955 1.6340001
-0.70651048 0.040460955 1.6340001
-0.70339811 0.040460955 1.6340001
-0.70328575 0.040634286 1.641
-0.70016003 0.040634286 1.641
-0.6970343 0.040634286 1.641
-0.69094861 0.040460955 1.6340001
-0.6907829 0.040634286 1.641
-0.68472385 0.040460955 1.6340001
-0.68161148 0.040460955 1.6340001
-0.67517716 0.040262859 1.626
-0.67208004 0.040262859 1.626
-0.66898286 0.040262859 1.626
-0.66588575 0.040262859 1.626
-0.66604954 0.040460955 1.6340001
-0.66293716 0.040460955 1.6340001
-0.65982479 0.040460955 1.6340001
-0.65952575 0.040634286 1.641
-0.65640002 0.040634286 1.641
-0.6532743 0.040634286 1.641
-0.64737529 0.040460955 1.6340001
-0.64110857 0.040262859 1.626
-0.63487238 0.040064763 1.618
-0.62905717 0.039891429 1.6110001
-0.6287086 0.040064763 1.618
-0.62292004 0.039891429 1.6110001
-0.61985147 0.039891429 1.6110001
-0.6167829 0.039891429 1.6110001
-0.61638099 0.040064763 1.618
-0.61329907 0.040064763 1.618
-0.61021715 0.040064763 1.618
-0.60713524 0.040064763 1.618
-0.60704005 0.040262859 1.626
-0.60394287 0.040262859 1.626
-0.60084575 0.040262859 1.626
-0.59774858 0.040262859 1.626
-0.59465146 0.040262859 1.626
-0.58864385 0.040064763 1.618
-0.58845717 0.040262859 1.626
-0.58248001 0.040064763 1.618
-0.5793981 0.040064763 1.618
-0.58201528 0.040460955 1.6340001
-0.5789029 0.040460955 1.6340001
-0.57579052 0.040460955 1.6340001
-0.57267809 0.040460955 1.6340001
-0.56956571 0.040460955 1.6340001
-0.56645334 0.040460955 1.6340001
-0.56334096 0.040460955 1.6340001
-0.56022859 0.040460955 1.6340001
-0.55711621 0.040460955 1.6340001
-0.55400383 0.040460955 1.6340001
-0.55089146 0.040460955 1.6340001
-0.54777908 0.040460955 1.6340001
-0.54466671 0.040460955 1.6340001
-0.54155433 0.040460955 1.6340001
-0.5407486 0.040634286 1.641
-0.53762287 0.040634286 1.641
-0.53449714 0.040634286 1.641
-0.53137147 0.040634286 1.641
-0.52824575 0.040634286 1.641
-0.52512002 0.040634286 1.641
-0.52199429 0.040634286 1.641
-0.51886857 0.040634286 1.641
-0.5157429 0.040634286 1.641
-0.51511621 0.040832382 1.649
-0.51197523 0.040832382 1.649
-0.5088343 0.040832382 1.649
-0.50569338 0.040832382 1.649
-0.50255239 0.040832382 1.649
-0.49941143 0.040832382 1.649
-0.49627051 0.040832382 1.649
-0.49073717 0.040634286 1.641
-0.49236572 0.041030478 1.6570001
-0.48920953 0.041030478 1.6570001
-0.48136002 0.040634286 1.641
-0.47823429 0.040634286 1.641
-0.48205715 0.041228574 1.6650001
-0.48118669 0.04142667 1.6730001
-0.47114289 0.040832382 1.649
-0.47027239 0.041030478 1.6570001
-0.46711621 0.041030478 1.6570001
-0.46620002 0.041228574 1.6650001
-0.46302858 0.041228574 1.6650001
-0.45764762 0.041030478 1.6570001
-0.45668572 0.041228574 1.6650001
-0.45351431 0.041228574 1.6650001
-0.45250669 0.04142667 1.6730001
-0.44932002 0.04142667 1.6730001
-0.44613335 0.04142667 1.6730001
-0.44294667 0.04142667 1.6730001
-0.43976003 0.04142667 1.6730001
-0.43866098 0.041624762 1.6810001
-0.43545908 0.041624762 1.6810001
-0.43457144 0.04184762 1.6900001
-0.42905524 0.041624762 1.6810001
-0.42585334 0.041624762 1.6810001
-0.4249143 0.04184762 1.6900001
-0.42169526 0.04184762 1.6900001
-0.41847619 0.04184762 1.6900001
-0.41525716 0.04184762 1.6900001
-0.41398859 0.042045716 1.6980001
-0.40881905 0.04184762 1.6900001
-0.40560001 0.04184762 1.6900001
-0.40238097 0.04184762 1.6900001
-0.39916191 0.04184762 1.6900001
-0.39594287 0.04184762 1.6900001
-0.39458287 0.042045716 1.6980001
-0.3913486 0.042045716 1.6980001
-0.3881143 0.042045716 1.6980001
-0.38488001 0.042045716 1.6980001
-0.38164574 0.042045716 1.6980001
-0.37841144 0.042045716 1.6980001
-0.37517715 0.042045716 1.6980001
-0.37194288 0.042045716 1.6980001
-0.36870858 0.042045716 1.6980001
-0.36547431 0.042045716 1.6980001
-0.36224002 0.042045716 1.6980001
-0.35900572 0.042045716 1.6980001
-0.35744762 0.042243812 1.7060001
-0.3541981 0.042243812 1.7060001
-0.35094857 0.042243812 1.7060001
-0.34769905 0.042243812 1.7060001
-0.34626669 0.042466667 1.715
-0.34460002 0.042664763 1.723
-0.3413181 0.042664763 1.723
-0.33803621 0.042664763 1.723
-0.33650288 0.042887621 1.7320001
-0.3314724 0.042664763 1.723
-0.32819048 0.042664763 1.723
-0.32490858 0.042664763 1.723
-0.32330668 0.042887621 1.7320001
-0.32000762 0.042887621 1.7320001
-0.31670859 0.042887621 1.7320001
-0.31340954 0.042887621 1.7320001
-0.31011048 0.042887621 1.7320001
-0.30681145 0.042887621 1.7320001
-0.30508953 0.043110479 1.7410001
-0.30177334 0.043110479 1.7410001
-0.29845715 0.043110479 1.7410001
-0.29514095 0.043110479 1.7410001
-0.29031619 0.042887621 1.7320001
-0.28850859 0.043110479 1.7410001
-0.2851924 0.043110479 1.7410001
-0.28187621 0.043110479 1.7410001
-0.27856001 0.043110479 1.7410001
-0.27524382 0.043110479 1.7410001
-0.27333334 0.043333337 1.7500001
-0.27000001 0.043333337 1.7500001
-0.26803809 0.043556191 1.7590001
-0.26468763 0.043556191 1.7590001
-0.26133716 0.043556191 1.7590001
-0.25798666 0.043556191 1.7590001
-0.2546362 0.043556191 1.7590001
-0.25257143 0.043779049 1.7680001
-0.24920382 0.043779049 1.7680001
-0.2458362 0.043779049 1.7680001
-0.24246858 0.043779049 1.7680001
-0.23910096 0.043779049 1.7680001
-0.23573335 0.043779049 1.7680001
-0.23354858 0.044001907 1.7770001
-0.23016381 0.044001907 1.7770001
-0.22563048 0.043779049 1.7680001
-0.22226286 0.043779049 1.7680001
-0.21889524 0.043779049 1.7680001
-0.21552762 0.043779049 1.7680001
-0.21216001 0.043779049 1.7680001
-0.20879239 0.043779049 1.7680001
-0.20647049 0.044001907 1.7770001
-0.20411429 0.044224765 1.7860001
-0.20071238 0.044224765 1.7860001
-0.19731048 0.044224765 1.7860001
-0.19488572 0.044447619 1.7950001
-0.19146667 0.044447619 1.7950001
-0.18804763 0.044447619 1.7950001
-0.18462858 0.044447619 1.7950001
-0.1821181 0.044670478 1.8040001
-0.17779048 0.044447619 1.7950001
-0.17524572 0.044670478 1.8040001
-0.17180952 0.044670478 1.8040001
-0.16837335 0.044670478 1.8040001
-0.16493715 0.044670478 1.8040001
-0.16150096 0.044670478 1.8040001
-0.15806477 0.044670478 1.8040001
-0.15462857 0.044670478 1.8040001
-0.15119238 0.044670478 1.8040001
-0.14775619 0.044670478 1.8040001
-0.14432001 0.044670478 1.8040001
-0.14088382 0.044670478 1.8040001
-0.13820952 0.044918098 1.8140001
-0.13475429 0.044918098 1.8140001
-0.13129905 0.044918098 1.8140001
-0.12784381 0.044918098 1.8140001
-0.12438858 0.044918098 1.8140001
-0.12093334 0.044918098 1.8140001
-0.11812572 0.045165718 1.8240001
-0.11465143 0.045165718 1.8240001
-0.11172572 0.045388572 1.8330001
-0.10823429 0.045388572 1.8330001
-0.10474286 0.045388572 1.8330001
-0.10125143 0.045388572 1.8330001
-0.097760007 0.045388572 1.8330001
-0.094268575 0.045388572 1.8330001
-0.090777144 0.045388572 1.8330001
-0.08728572 0.045388572 1.8330001
-0.083794288 0.045388572 1.8330001
-0.080302857 0.045388572 1.8330001
-0.076811433 0.045388572 1.8330001
-0.073320001 0.045388572 1.8330001
-0.069828577 0.045388572 1.8330001
-0.06669905 0.045636192 1.8430001
-0.063188575 0.045636192 1.8430001
-0.059678096 0.045636192 1.8430001
-0.056167621 0.045636192 1.8430001
-0.052657146 0.045636192 1.8430001
-0.049413335 0.045883812 1.853
-0.045883812 0.045883812 1.853
-0.042354286 0.045883812 1.853
-0.038824763 0.045883812 1.853
-0.035295241 0.045883812 1.853
-0.031765714 0.045883812 1.853
-0.028083811 0.045636192 1.8430001
-0.024706667 0.045883812 1.853
-0.021177143 0.045883812 1.853
-0.01764762 0.045883812 1.853
-0.014118096 0.045883812 1.853
-0.010645715 0.046131432 1.863
-0.0070590479 0.045883812 1.853
-0.0035485716 0.046131432 1.863
0 0.046131432 1.863
0.0035485716 0.046131432 1.863
0.0070971432 0.046131432 1.863
0.010645715 0.046131432 1.863
0.014194286 0.046131432 1.863
0.017742857 0.046131432 1.863
0.021291429 0.046131432 1.863
0.024840001 0.046131432 1.863
0.028540954 0.046379048 1.8730001
0.032108571 0.046379048 1.8730001
0.035676192 0.046379048 1.8730001
0.03924381 0.046379048 1.8730001
0.042811431 0.046379048 1.8730001
0.046379048 0.046379048 1.8730001
0.049946669 0.046379048 1.8730001
0.053514287 0.046379048 1.8730001
0.057081908 0.046379048 1.8730001
0.060649525 0.046379048 1.8730001
0.064217143 0.046379048 1.8730001
0.068146668 0.046626668 1.8830001
0.071733333 0.046626668 1.8830001
0.075320005 0.046626668 1.8830001
0.07890667 0.046626668 1.8830001
0.082493335 0.046626668 1.8830001
0.086582862 0.04689905 1.8940001
0.090190478 0.04689905 1.8940001
0.093798101 0.04689905 1.8940001
0.097405717 0.04689905 1.8940001
0.10101334 0.04689905 1.8940001
0.10517333 0.047146667 1.904
0.1088 0.047146667 1.904
0.11242667 0.047146667 1.904
0.11605334 0.047146667 1.904
0.11968 0.047146667 1.904
0.12330667 0.047146667 1.904
0.12693334 0.047146667 1.904
0.13056001 0.047146667 1.904
0.1349619 0.047419049 1.9150001
0.13860953 0.047419049 1.9150001
0.14225715 0.047419049 1.9150001
0.14590476 0.047419049 1.9150001
0.14955239 0.047419049 1.9150001
0.1532 0.047419049 1.9150001
0.15684763 0.047419049 1.9150001
0.16049525 0.047419049 1.9150001
0.16414286 0.047419049 1.9150001
0.16866668 0.047666669 1.9250001
0.17233334 0.047666669 1.9250001
0.17700572 0.047939051 1.9360001
0.18069334 0.047939051 1.9360001
0.18438096 0.047939051 1.9360001
0.18806858 0.047939051 1.9360001
0.1917562 0.047939051 1.9360001
0.19544382 0.047939051 1.9360001
0.19913143 0.047939051 1.9360001
0.20397143 0.048211429 1.9470001
0.20768 0.048211429 1.9470001
0.21138857 0.048211429 1.9470001
0.21509714 0.048211429 1.9470001
0.21880572 0.048211429 1.9470001
0.22251429 0.048211429 1.9470001
0.22622287 0.048211429 1.9470001
0.22993144 0.048211429 1.9470001
0.23496 0.048483811 1.9580001
0.23868953 0.048483811 1.9580001
0.24241905 0.048483811 1.9580001
0.24614859 0.048483811 1.9580001
0.24987811 0.048483811 1.9580001
0.25360763 0.048483811 1.9580001
0.25733715 0.048483811 1.9580001
0.26106668 0.048483811 1.9580001
0.26628381 0.048756193 1.9690001
0.27003428 0.048756193 1.9690001
0.27378479 0.048756193 1.9690001
0.27908573 0.049028572 1.9800001
0.28285715 0.049028572 1.9800001
0.28662857 0.049028572 1.9800001
0.2904 0.049028572 1.9800001
0.29595429 0.049325716 1.9920001
0.29974857 0.049325716 1.9920001
0.30354288 0.049325716 1.9920001
0.30548573 0.049028572 1.9800001
0.30925715 0.049028572 1.9800001
0.31492573 0.049325716 1.9920001
0.31872001 0.049325716 1.9920001
0.3225143 0.049325716 1.9920001
0.32630858 0.049325716 1.9920001
0.33010286 0.049325716 1.9920001
0.33574095 0.049598098 2.003
0.33955622 0.049598098 2.003
0.34337145 0.049598098 2.003
0.34718668 0.049598098 2.003
0.35100192 0.049598098 2.003
0.35481715 0.049598098 2.003
0.35863239 0.049598098 2.003
0.36244762 0.049598098 2.003
0.36626288 0.049598098 2.003
0.37007812 0.049598098 2.003
0.37389335 0.049598098 2.003
0.37770858 0.049598098 2.003
0.38380954 0.049895238 2.0150001
0.38764763 0.049895238 2.0150001
0.39148572 0.049895238 2.0150001
0.39532381 0.049895238 2.0150001
0.40153906 0.050192382 2.0270002
0.40540001 0.050192382 2.0270002
0.40926096 0.050192382 2.0270002
0.41312191 0.050192382 2.0270002
0.41698286 0.050192382 2.0270002
0.42084384 0.050192382 2.0270002
0.42470479 0.050192382 2.0270002
0.42856574 0.050192382 2.0270002
0.43242669 0.050192382 2.0270002
0.43628764 0.050192382 2.0270002
0.44014859 0.050192382 2.0270002
0.44400954 0.050192382 2.0270002
0.44787049 0.050192382 2.0270002
0.45173144 0.050192382 2.0270002
0.45559239 0.050192382 2.0270002
0.45945334 0.050192382 2.0270002
0.46331429 0.050192382 2.0270002
0.46717525 0.050192382 2.0270002
0.4710362 0.050192382 2.0270002
0.47770858 0.050489526 2.039
0.48159239 0.050489526 2.039
0.4854762 0.050489526 2.039
0.48936 0.050489526 2.039
0.49324381 0.050489526 2.039
0.49712765 0.050489526 2.039
0.50101143 0.050489526 2.039
0.50489527 0.050489526 2.039
0.50877905 0.050489526 2.039
0.51266289 0.050489526 2.039
0.51958668 0.05078667 2.0510001
0.52655619 0.051083811 2.0630002
0.53048575 0.051083811 2.0630002
0.53441525 0.051083811 2.0630002
0.5383448 0.051083811 2.0630002
0.54569143 0.051405717 2.0760002
0.54964572 0.051405717 2.0760002
0.55360001 0.051405717 2.0760002
0.5575543 0.051405717 2.0760002
0.5615086 0.051405717 2.0760002
0.56546289 0.051405717 2.0760002
0.56941718 0.051405717 2.0760002
0.57337147 0.051405717 2.0760002
0.57732576 0.051405717 2.0760002
0.58127999 0.051405717 2.0760002
0.58523428 0.051405717 2.0760002
0.58918858 0.051405717 2.0760002
0.59657145 0.051702861 2.0880001
0.60054857 0.051702861 2.0880001
0.60452574 0.051702861 2.0880001
0.60850286 0.051702861 2.0880001
0.61248004 0.051702861 2.0880001
0.61645716 0.051702861 2.0880001
0.62043428 0.051702861 2.0880001
0.62441146 0.051702861 2.0880001
0.62838858 0.051702861 2.0880001
0.63236576 0.051702861 2.0880001
0.63634288 0.051702861 2.0880001
0.64032 0.051702861 2.0880001
0.64429718 0.051702861 2.0880001
0.65231049 0.052024763 2.1010001
0.65631241 0.052024763 2.1010001
0.66440004 0.052346669 2.1140001
0.66842669 0.052346669 2.1140001
0.67245334 0.052346669 2.1140001
0.67648 0.052346669 2.1140001
0.68050671 0.052346669 2.1140001
0.68453336 0.052346669 2.1140001
0.69279432 0.052668575 2.1270001
0.69258672 0.052346669 2.1140001
0.70089716 0.052668575 2.1270001
0.7049486 0.052668575 2.1270001
0.70900005 0.052668575 2.1270001
0.71305144 0.052668575 2.1270001
0.71710289 0.052668575 2.1270001
0.72115433 0.052668575 2.1270001
0.72520572 0.052668575 2.1270001
0.72925717 0.052668575 2.1270001
0.73330861 0.052668575 2.1270001
0.74186671 0.052990478 2.1400001
0.74594289 0.052990478 2.1400001
0.75001907 0.052990478 2.1400001
0.75409526 0.052990478 2.1400001
0.75817144 0.052990478 2.1400001
0.76687813 0.053312384 2.1530001
0.77097905 0.053312384 2.1530001
0.77508003 0.053312384 2.1530001
0.779181 0.053312384 2.1530001
0.78328192 0.053312384 2.1530001
0.7873829 0.053312384 2.1530001
0.79148382 0.053312384 2.1530001
0.80075812 0.053659048 2.1670001
0.80488575 0.053659048 2.1670001
0.81424004 0.054005716 2.181
0.8183943 0.054005716 2.181
0.82254863 0.054005716 2.181
0.82670289 0.054005716 2.181
0.83085716 0.054005716 2.181
0.83501148 0.054005716 2.181
0.83916575 0.054005716 2.181
0.84332001 0.054005716 2.181
0.84747434 0.054005716 2.181
0.85670477 0.054327622 2.194
0.86088383 0.054327622 2.194
0.86506289 0.054327622 2.194
0.86924195 0.054327622 2.194
0.87899435 0.054674286 2.2080002
0.88320005 0.054674286 2.2080002
0.88740575 0.054674286 2.2080002
0.8976686 0.055045716 2.223
0.89581716 0.054674286 2.2080002
0.90613717 0.055045716 2.223
0.91037148 0.055045716 2.223
0.91460574 0.055045716 2.223
0.91884005 0.055045716 2.223
0.92888767 0.055392385 2.237
0.93314862 0.055392385 2.237
0.93740958 0.055392385 2.237
0.94167054 0.055392385 2.237
0.94593143 0.055392385 2.237
0.95019239 0.055392385 2.237
0.9608534 0.055763811 2.2520001
0.96514291 0.055763811 2.2520001
0.96943241 0.055763811 2.2520001
0.96723622 0.055392385 2.237
0.97149718 0.055392385 2.237
-0.73766857 0.043760002 1.641
-0.73140955 0.043573335 1.6340001
-0.72829717 0.043573335 1.6340001
-0.7251848 0.043573335 1.6340001
-0.72207242 0.043573335 1.6340001
-0.71544003 0.043360002 1.626
-0.70883811 0.04314667 1.618
-0.70575619 0.04314667 1.618
-0.70267433 0.04314667 1.618
-0.69959241 0.04314667 1.618
-0.69995433 0.043360002 1.626
-0.69685715 0.043360002 1.626
-0.69717336 0.043573335 1.6340001
-0.69406098 0.043573335 1.6340001
-0.68756574 0.043360002 1.626
-0.68783623 0.043573335 1.6340001
-0.68472385 0.043573335 1.6340001
-0.67827433 0.043360002 1.626
-0.67185527 0.04314667 1.618
-0.66877335 0.04314667 1.618
-0.66569144 0.04314667 1.618
-0.66260958 0.04314667 1.618
-0.66604954 0.043573335 1.6340001
-0.66293716 0.043573335 1.6340001
-0.65982479 0.043573335 1.6340001
-0.65952575 0.043760002 1.641
-0.65640002 0.043760002 1.641
-0.6532743 0.043760002 1.641
-0.64737529 0.043573335 1.6340001
-0.64110857 0.043360002 1.626
-0.63487238 0.04314667 1.618
-0.63179052 0.04314667 1.618
-0.6287086 0.04314667 1.618
-0.62292004 0.042960003 1.6110001
-0.61985147 0.042960003 1.6110001
-0.6167829 0.042960003 1.6110001
-0.61638099 0.04314667 1.618
-0.61329907 0.04314667 1.618
-0.61021715 0.04314667 1.618
-0.60713524 0.04314667 1.618
-0.60405338 0.04314667 1.618
-0.60097146 0.04314667 1.618
-0.60084575 0.043360002 1.626
-0.59480762 0.04314667 1.618
-0.59172571 0.04314667 1.618
-0.58864385 0.04314667 1.618
-0.58556193 0.04314667 1.618
-0.58248001 0.04314667 1.618
-0.58226287 0.043360002 1.626
-0.57916576 0.043360002 1.626
-0.57606858 0.043360002 1.626
-0.57579052 0.043573335 1.6340001
-0.57267809 0.043573335 1.6340001
-0.56956571 0.043573335 1.6340001
-0.56645334 0.043573335 1.6340001
-0.56334096 0.043573335 1.6340001
-0.56022859 0.043573335 1.6340001
-0.55711621 0.043573335 1.6340001
-0.55400383 0.043573335 1.6340001
-0.54819429 0.043360002 1.626
-0.54777908 0.043573335 1.6340001
-0.54466671 0.043573335 1.6340001
-0.54155433 0.043573335 1.6340001
-0.5384419 0.043573335 1.6340001
-0.53532952 0.043573335 1.6340001
-0.53449714 0.043760002 1.641
-0.53137147 0.043760002 1.641
-0.52824575 0.043760002 1.641
-0.52512002 0.043760002 1.641
-0.52199429 0.043760002 1.641
-0.51886857 0.043760002 1.641
-0.5157429 0.043760002 1.641
-0.51261717 0.043760002 1.641
-0.50949144 0.043760002 1.641
-0.5088343 0.043973334 1.649
-0.50569338 0.043973334 1.649
-0.50255239 0.043973334 1.649
-0.49941143 0.043973334 1.649
-0.49627051 0.043973334 1.649
-0.49552193 0.044186667 1.6570001
-0.49236572 0.044186667 1.6570001
-0.48920953 0.044186667 1.6570001
-0.48605335 0.044186667 1.6570001
-0.4852286 0.044400003 1.6650001
-0.48205715 0.044400003 1.6650001
-0.48118669 0.044613335 1.6730001
-0.47342858 0.044186667 1.6570001
-0.47027239 0.044186667 1.6570001
-0.46711621 0.044186667 1.6570001
-0.46620002 0.044400003 1.6650001
-0.46302858 0.044400003 1.6650001
-0.45985717 0.044400003 1.6650001
-0.45888001 0.044613335 1.6730001
-0.45351431 0.044400003 1.6650001
-0.45250669 0.044613335 1.6730001
-0.44932002 0.044613335 1.6730001
-0.44613335 0.044613335 1.6730001
-0.44294667 0.044613335 1.6730001
-0.43976003 0.044613335 1.6730001
-0.43866098 0.044826668 1.6810001
-0.43545908 0.044826668 1.6810001
-0.43457144 0.04506667 1.6900001
-0.43135241 0.04506667 1.6900001
-0.42813334 0.04506667 1.6900001
-0.4249143 0.04506667 1.6900001
-0.42169526 0.04506667 1.6900001
-0.41847619 0.04506667 1.6900001
-0.41525716 0.04506667 1.6900001
-0.41203812 0.04506667 1.6900001
-0.40881905 0.04506667 1.6900001
-0.40560001 0.04506667 1.6900001
-0.40238097 0.04506667 1.6900001
-0.39916191 0.04506667 1.6900001
-0.39594287 0.04506667 1.6900001
-0.39458287 0.045280002 1.6980001
-0.3913486 0.045280002 1.6980001
-0.3881143 0.045280002 1.6980001
-0.38488001 0.045280002 1.6980001
-0.38164574 0.045280002 1.6980001
-0.37841144 0.045280002 1.6980001
-0.37517715 0.045280002 1.6980001
-0.37194288 0.045280002 1.6980001
-0.36870858 0.045280002 1.6980001
-0.36547431 0.045280002 1.6980001
-0.36224002 0.045280002 1.6980001
-0.35900572 0.045280002 1.6980001
-0.35744762 0.045493335 1.7060001
-0.3541981 0.045493335 1.7060001
-0.35094857 0.045493335 1.7060001
-0.34953335 0.045733336 1.715
-0.34626669 0.045733336 1.715
-0.34460002 0.045946669 1.723
-0.3413181 0.045946669 1.723
-0.33803621 0.045946669 1.723
-0.33650288 0.046186667 1.7320001
-0.33320382 0.046186667 1.7320001
-0.32990476 0.046186667 1.7320001
-0.32660574 0.046186667 1.7320001
-0.32162669 0.045946669 1.723
-0.32000762 0.046186667 1.7320001
-0.31670859 0.046186667 1.7320001
-0.31340954 0.046186667 1.7320001
-0.31011048 0.046186667 1.7320001
-0.30681145 0.046186667 1.7320001
-0.30508953 0.046426669 1.7410001
-0.30177334 0.046426669 1.7410001
-0.29845715 0.046426669 1.7410001
-0.29514095 0.046426669 1.7410001
-0.29031619 0.046186667 1.7320001
-0.28850859 0.046426669 1.7410001
-0.2851924 0.046426669 1.7410001
-0.28187621 0.046426669 1.7410001
-0.27856001 0.046426669 1.7410001
-0.27524382 0.046426669 1.7410001
-0.27333334 0.046666667 1.7500001
-0.27000001 0.046666667 1.7500001
-0.26803809 0.046906669 1.7590001
-0.26468763 0.046906669 1.7590001
-0.26133716 0.046906669 1.7590001
-0.25798666 0.046906669 1.7590001
-0.2546362 0.046906669 1.7590001
-0.25257143 0.047146667 1.7680001
-0.24920382 0.047146667 1.7680001
-0.2458362 0.047146667 1.7680001
-0.24246858 0.047146667 1.7680001
-0.2403181 0.047386669 1.7770001
-0.23693334 0.047386669 1.7770001
-0.23236573 0.047146667 1.7680001
-0.23016381 0.047386669 1.7770001
-0.22563048 0.047146667 1.7680001
-0.22226286 0.047146667 1.7680001
-0.21889524 0.047146667 1.7680001
-0.21552762 0.047146667 1.7680001
-0.21216001 0.047146667 1.7680001
-0.20879239 0.047146667 1.7680001
-0.20647049 0.047386669 1.7770001
-0.20308572 0.047386669 1.7770001
-0.20071238 0.047626667 1.7860001
-0.19731048 0.047626667 1.7860001
-0.19488572 0.047866669 1.7950001
-0.19146667 0.047866669 1.7950001
-0.18804763 0.047866669 1.7950001
-0.18462858 0.047866669 1.7950001
-0.18120953 0.047866669 1.7950001
-0.17779048 0.047866669 1.7950001
-0.17437144 0.047866669 1.7950001
-0.17180952 0.048106667 1.8040001
-0.16837335 0.048106667 1.8040001
-0.16493715 0.048106667 1.8040001
-0.16150096 0.048106667 1.8040001
-0.15806477 0.048106667 1.8040001
-0.15462857 0.048106667 1.8040001
-0.15119238 0.048106667 1.8040001
-0.14775619 0.048106667 1.8040001
-0.14432001 0.048106667 1.8040001
-0.14088382 0.048106667 1.8040001
-0.13820952 0.048373334 1.8140001
-0.13475429 0.048373334 1.8140001
-0.13129905 0.048373334 1.8140001
-0.12784381 0.048373334 1.8140001
-0.12438858 0.048373334 1.8140001
-0.1216 0.048640002 1.8240001
-0.11812572 0.048640002 1.8240001
-0.11521715 0.048880003 1.8330001
-0.11172572 0.048880003 1.8330001
-0.10823429 0.048880003 1.8330001
-0.10474286 0.048880003 1.8330001
-0.10125143 0.048880003 1.8330001
-0.097760007 0.048880003 1.8330001
-0.094268575 0.048880003 1.8330001
-0.090777144 0.048880003 1.8330001
-0.08728572 0.048880003 1.8330001
-0.083794288 0.048880003 1.8330001
-0.080302857 0.048880003 1.8330001
-0.076811433 0.048880003 1.8330001
-0.073720001 0.049146667 1.8430001
-0.069828577 0.048880003 1.8330001
-0.06669905 0.049146667 1.8430001
-0.063188575 0.049146667 1.8430001
-0.059678096 0.049146667 1.8430001
-0.056167621 0.049146667 1.8430001
-0.052942861 0.049413335 1.853
-0.049413335 0.049413335 1.853
-0.045883812 0.049413335 1.853
-0.042354286 0.049413335 1.853
-0.038824763 0.049413335 1.853
-0.035485715 0.049680002 1.863
-0.031765714 0.049413335 1.853
-0.028083811 0.049146667 1.8430001
-0.024706667 0.049413335 1.853
-0.021177143 0.049413335 1.853
-0.01764762 0.049413335 1.853
-0.014118096 0.049413335 1.853
-0.010645715 0.049680002 1.863
-0.0070590479 0.049413335 1.853
-0.0035485716 0.049680002 1.863
0 0.049680002 1.863
0.0035485716 0.049680002 1.863
0.0070971432 0.049680002 1.863
0.010645715 0.049680002 1.863
0.014194286 0.049680002 1.863
0.017742857 0.049680002 1.863
0.021291429 0.049680002 1.863
0.024840001 0.049680002 1.863
0.028540954 0.049946669 1.8730001
0.032108571 0.049946669 1.8730001
0.035676192 0.049946669 1.8730001
0.03924381 0.049946669 1.8730001
0.042811431 0.049946669 1.8730001
0.046379048 0.049946669 1.8730001
0.049946669 0.049946669 1.8730001
0.053514287 0.049946669 1.8730001
0.057081908 0.049946669 1.8730001
0.060649525 0.049946669 1.8730001
0.064217143 0.049946669 1.8730001
0.068146668 0.050213337 1.8830001
0.071733333 0.050213337 1.8830001
0.075320005 0.050213337 1.8830001
0.07890667 0.050213337 1.8830001
0.082493335 0.050213337 1.8830001
0.086582862 0.05050667 1.8940001
0.090190478 0.05050667 1.8940001
0.093798101 0.05050667 1.8940001
0.097405717 0.05050667 1.8940001
0.10154667 0.050773334 1.904
0.10517333 0.050773334 1.904
0.1088 0.050773334 1.904
0.11242667 0.050773334 1.904
0.11605334 0.050773334 1.904
0.11968 0.050773334 1.904
0.12330667 0.050773334 1.904
0.12693334 0.050773334 1.904
0.13056001 0.050773334 1.904
0.1349619 0.051066667 1.9150001
0.13860953 0.051066667 1.9150001
0.14225715 0.051066667 1.9150001
0.14590476 0.051066667 1.9150001
0.14955239 0.051066667 1.9150001
0.1532 0.051066667 1.9150001
0.15684763 0.051066667 1.9150001
0.16049525 0.051066667 1.9150001
0.16414286 0.051066667 1.9150001
0.16866668 0.051333334 1.9250001
0.17233334 0.051333334 1.9250001
0.176 0.051333334 1.9250001
0.18069334 0.051626667 1.9360001
0.18438096 0.051626667 1.9360001
0.18806858 0.051626667 1.9360001
0.1917562 0.051626667 1.9360001
0.19544382 0.051626667 1.9360001
0.19913143 0.051626667 1.9360001
0.20397143 0.05192 1.9470001
0.20768 0.05192 1.9470001
0.21138857 0.05192 1.9470001
0.21509714 0.05192 1.9470001
0.21880572 0.05192 1.9470001
0.22251429 0.05192 1.9470001
0.22750096 0.052213334 1.9580001
0.23123048 0.052213334 1.9580001
0.23496 0.052213334 1.9580001
0.23868953 0.052213334 1.9580001
0.24241905 0.052213334 1.9580001
0.24614859 0.052213334 1.9580001
0.24987811 0.052213334 1.9580001
0.25360763 0.052213334 1.9580001
0.25878286 0.05250667 1.9690001
0.26253334 0.05250667 1.9690001
0.26628381 0.05250667 1.9690001
0.27003428 0.05250667 1.9690001
0.27378479 0.05250667 1.9690001
0.27753526 0.05250667 1.9690001
0.28285715 0.052800003 1.9800001
0.28662857 0.052800003 1.9800001
0.2904 0.052800003 1.9800001
0.29417145 0.052800003 1.9800001
0.29794288 0.052800003 1.9800001
0.3017143 0.052800003 1.9800001
0.30548573 0.052800003 1.9800001
0.30925715 0.052800003 1.9800001
0.31492573 0.053120002 1.9920001
0.31872001 0.053120002 1.9920001
0.3225143 0.053120002 1.9920001
0.32630858 0.053120002 1.9920001
0.33010286 0.053120002 1.9920001
0.33574095 0.053413335 2.003
0.33955622 0.053413335 2.003
0.34337145 0.053413335 2.003
0.34718668 0.053413335 2.003
0.35100192 0.053413335 2.003
0.35481715 0.053413335 2.003
0.35863239 0.053413335 2.003
0.36244762 0.053413335 2.003
0.36626288 0.053413335 2.003
0.37007812 0.053413335 2.003
0.37389335 0.053413335 2.003
0.37997144 0.053733334 2.0150001
0.38380954 0.053733334 2.0150001
0.38764763 0.053733334 2.0150001
0.39148572 0.053733334 2.0150001
0.39767811 0.054053336 2.0270002
0.40153906 0.054053336 2.0270002
0.40540001 0.054053336 2.0270002
0.40926096 0.054053336 2.0270002
0.41312191 0.054053336 2.0270002
0.41698286 0.054053336 2.0270002
0.42084384 0.054053336 2.0270002
0.42470479 0.054053336 2.0270002
0.42856574 0.054053336 2.0270002
0.43242669 0.054053336 2.0270002
0.43628764 0.054053336 2.0270002
0.44014859 0.054053336 2.0270002
0.44400954 0.054053336 2.0270002
0.44787049 0.054053336 2.0270002
0.45173144 0.054053336 2.0270002
0.45559239 0.054053336 2.0270002
0.45945334 0.054053336 2.0270002
0.46331429 0.054053336 2.0270002
0.46994096 0.054373335 2.039
0.47382477 0.054373335 2.039
0.47770858 0.054373335 2.039
0.48159239 0.054373335 2.039
0.4854762 0.054373335 2.039
0.48936 0.054373335 2.039
0.49324381 0.054373335 2.039
0.49712765 0.054373335 2.039
0.50101143 0.054373335 2.039
0.50489527 0.054373335 2.039
0.50877905 0.054373335 2.039
0.51568002 0.054693334 2.0510001
0.51958668 0.054693334 2.0510001
0.52349335 0.054693334 2.0510001
0.52740002 0.054693334 2.0510001
0.53441525 0.055013336 2.0630002
0.5383448 0.055013336 2.0630002
0.5422743 0.055013336 2.0630002
0.54620385 0.055013336 2.0630002
0.55013335 0.055013336 2.0630002
0.5575543 0.055360001 2.0760002
0.5615086 0.055360001 2.0760002
0.56546289 0.055360001 2.0760002
0.56941718 0.055360001 2.0760002
0.57337147 0.055360001 2.0760002
0.5737105 0.055013336 2.0630002
0.58127999 0.055360001 2.0760002
0.58523428 0.055360001 2.0760002
0.58918858 0.055360001 2.0760002
0.59657145 0.055680003 2.0880001
0.60054857 0.055680003 2.0880001
0.60452574 0.055680003 2.0880001
0.60850286 0.055680003 2.0880001
0.61248004 0.055680003 2.0880001
0.61645716 0.055680003 2.0880001
0.62043428 0.055680003 2.0880001
0.62441146 0.055680003 2.0880001
0.62838858 0.055680003 2.0880001
0.63236576 0.055680003 2.0880001
0.63634288 0.055680003 2.0880001
0.64032 0.055680003 2.0880001
0.64429718 0.055680003 2.0880001
0.65231049 0.056026667 2.1010001
0.65631241 0.056026667 2.1010001
0.66031432 0.056026667 2.1010001
0.66842669 0.056373335 2.1140001
0.67245334 0.056373335 2.1140001
0.67648 0.056373335 2.1140001
0.68050671 0.056373335 2.1140001
0.68453336 0.056373335 2.1140001
0.68856001 0.056373335 2.1140001
0.69258672 0.056373335 2.1140001
0.69661337 0.056373335 2.1140001
0.7049486 0.056720003 2.1270001
0.70900005 0.056720003 2.1270001
0.71305144 0.056720003 2.1270001
0.71710289 0.056720003 2.1270001
0.72115433 0.056720003 2.1270001
0.72520572 0.056720003 2.1270001
