# .PCD v0.7 - Point Cloud Data file format
VERSION 0.7
FIELDS x y z
SIZE 4 4 4
TYPE F F F
COUNT 1 1 1
WIDTH 1508
HEIGHT 1
VIEWPOINT 0 0 0 1 0 0 0
POINTS 1508
DATA ascii
-0.81379431 0.32376763 2.2970002
-0.8094191 0.32376763 2.2970002
-0.80504382 0.32376763 2.2970002
-0.8006686 0.32376763 2.2970002
-0.79629338 0.32376763 2.2970002
-0.7919181 0.32376763 2.2970002
-0.78205717 0.3215124 2.2810001
-0.78316766 0.32376763 2.2970002
-0.77336764 0.3215124 2.2810001
-0.77441716 0.32376763 2.2970002
-0.76467812 0.3215124 2.2810001
-0.76033336 0.3215124 2.2810001
-0.7559886 0.3215124 2.2810001
-0.75164384 0.3215124 2.2810001
-0.74729908 0.3215124 2.2810001
-0.73806858 0.31939811 2.266
-0.73375243 0.31939811 2.266
-0.72943622 0.31939811 2.266
-0.72512001 0.31939811 2.266
-0.72080386 0.31939811 2.266
-0.71206099 0.31742477 2.2520001
-0.70777148 0.31742477 2.2520001
-0.69879621 0.31531048 2.237
-0.69453526 0.31531048 2.237
-0.6902743 0.31531048 2.237
-0.68601334 0.31531048 2.237
-0.67748576 0.31333715 2.223
-0.67325145 0.31333715 2.223
-0.6690172 0.31333715 2.223
-0.66478288 0.31333715 2.223
-0.66470861 0.31531048 2.237
-0.65631431 0.31333715 2.223
-0.65208 0.31333715 2.223
-0.64784575 0.31333715 2.223
-0.64361143 0.31333715 2.223
-0.63937718 0.31333715 2.223
-0.63085717 0.31122288 2.2080002
-0.63090861 0.31333715 2.223
-0.62667429 0.31333715 2.223
-0.62244004 0.31333715 2.223
-0.6140343 0.31122288 2.2080002
-0.60982859 0.31122288 2.2080002
-0.60562289 0.31122288 2.2080002
-0.60141718 0.31122288 2.2080002
-0.5934248 0.30924952 2.194
-0.58924574 0.30924952 2.194
-0.58506668 0.30924952 2.194
-0.58088762 0.30924952 2.194
-0.57670861 0.30924952 2.194
-0.5761829 0.31122288 2.2080002
-0.57197714 0.31122288 2.2080002
-0.56777143 0.31122288 2.2080002
-0.56356573 0.31122288 2.2080002
-0.55581337 0.30924952 2.194
-0.55163431 0.30924952 2.194
-0.54745525 0.30924952 2.194
-0.54005718 0.30741715 2.181
-0.53590286 0.30741715 2.181
-0.52833527 0.30544382 2.1670001
-0.52420765 0.30544382 2.1670001
-0.52008003 0.30544382 2.1670001
-0.51928574 0.30741715 2.181
-0.51182479 0.30544382 2.1670001
-0.51097715 0.30741715 2.181
-0.50682288 0.30741715 2.181
-0.50266862 0.30741715 2.181
-0.49851429 0.30741715 2.181
-0.49436003 0.30741715 2.181
-0.49020573 0.30741715 2.181
-0.48293144 0.30544382 2.1670001
-0.47880381 0.30544382 2.1670001
-0.47467622 0.30544382 2.1670001
-0.4705486 0.30544382 2.1670001
-0.46642098 0.30544382 2.1670001
-0.45930669 0.30347049 2.1530001
-0.45520574 0.30347049 2.1530001
-0.45110479 0.30347049 2.1530001
-0.44700381 0.30347049 2.1530001
-0.44578287 0.30544382 2.1670001
-0.43880191 0.30347049 2.1530001
-0.43470097 0.30347049 2.1530001
-0.43060002 0.30347049 2.1530001
-0.42649907 0.30347049 2.1530001
-0.42239812 0.30347049 2.1530001
-0.41829717 0.30347049 2.1530001
-0.41419619 0.30347049 2.1530001
-0.41009524 0.30347049 2.1530001
-0.4059943 0.30347049 2.1530001
-0.40189335 0.30347049 2.1530001
-0.3977924 0.30347049 2.1530001
-0.39369145 0.30347049 2.1530001
-0.3895905 0.30347049 2.1530001
-0.38548952 0.30347049 2.1530001
-0.38138857 0.30347049 2.1530001
-0.37728763 0.30347049 2.1530001
-0.37318668 0.30347049 2.1530001
-0.36908573 0.30347049 2.1530001
-0.36278096 0.3016381 2.1400001
-0.36088383 0.30347049 2.1530001
-0.35462859 0.3016381 2.1400001
-0.35268191 0.30347049 2.1530001
-0.34858096 0.30347049 2.1530001
-0.34240001 0.3016381 2.1400001
-0.33832383 0.3016381 2.1400001
-0.33424762 0.3016381 2.1400001
-0.33017144 0.3016381 2.1400001
-0.32411429 0.29980573 2.1270001
-0.32006288 0.29980573 2.1270001
-0.31601143 0.29980573 2.1270001
-0.31196001 0.29980573 2.1270001
-0.30790859 0.29980573 2.1270001
-0.30200002 0.29797333 2.1140001
-0.29797333 0.29797333 2.1140001
-0.29394668 0.29797333 2.1140001
-0.28992 0.29797333 2.1140001
-0.28589335 0.29797333 2.1140001
-0.28013334 0.29614097 2.1010001
-0.27954859 0.29980573 2.1270001
-0.27381334 0.29797333 2.1140001
-0.26978669 0.29797333 2.1140001
-0.26576 0.29797333 2.1140001
-0.26173335 0.29797333 2.1140001
-0.25770667 0.29797333 2.1140001
-0.25368002 0.29797333 2.1140001
-0.2481181 0.29614097 2.1010001
-0.2441162 0.29614097 2.1010001
-0.2401143 0.29614097 2.1010001
-0.23611239 0.29614097 2.1010001
-0.23211049 0.29614097 2.1010001
-0.22810858 0.29614097 2.1010001
-0.22410667 0.29614097 2.1010001
-0.22010477 0.29614097 2.1010001
-0.21610287 0.29614097 2.1010001
-0.21210095 0.29614097 2.1010001
-0.20809905 0.29614097 2.1010001
-0.20409715 0.29614097 2.1010001
-0.20009525 0.29614097 2.1010001
-0.19730668 0.29797333 2.1140001
-0.19328001 0.29797333 2.1140001
-0.18925335 0.29797333 2.1140001
-0.18408762 0.29614097 2.1010001
-0.18008572 0.29614097 2.1010001
-0.17608382 0.29614097 2.1010001
-0.17101716 0.29430857 2.0880001
-0.16704001 0.29430857 2.0880001
-0.16212572 0.29261714 2.0760002
-0.15817143 0.29261714 2.0760002
-0.15421715 0.29261714 2.0760002
-0.15026286 0.29261714 2.0760002
-0.14630857 0.29261714 2.0760002
-0.14235429 0.29261714 2.0760002
-0.1384 0.29261714 2.0760002
-0.13444571 0.29261714 2.0760002
-0.13049144 0.29261714 2.0760002
-0.12653714 0.29261714 2.0760002
-0.12258286 0.29261714 2.0760002
-0.11862858 0.29261714 2.0760002
-0.11467429 0.29261714 2.0760002
-0.11002667 0.29078478 2.0630002
-0.10609715 0.29078478 2.0630002
-0.10216762 0.29078478 2.0630002
-0.098238096 0.29078478 2.0630002
-0.094308577 0.29078478 2.0630002
-0.090379052 0.29078478 2.0630002
-0.086449526 0.29078478 2.0630002
-0.082520001 0.29078478 2.0630002
-0.078590482 0.29078478 2.0630002
-0.074660957 0.29078478 2.0630002
-0.070731431 0.29078478 2.0630002
-0.066801906 0.29078478 2.0630002
-0.06287238 0.29078478 2.0630002
-0.058600001 0.28909335 2.0510001
-0.054693334 0.28909335 2.0510001
-0.05078667 0.28909335 2.0510001
-0.046880003 0.28909335 2.0510001
-0.042973336 0.28909335 2.0510001
-0.038838096 0.28740191 2.039
-0.034954287 0.28740191 2.039
-0.031070478 0.28740191 2.039
-0.027026668 0.28571048 2.0270002
-0.023028573 0.28401905 2.0150001
-0.019304764 0.28571048 2.0270002
-0.015352381 0.28401905 2.0150001
-0.011514287 0.28401905 2.0150001
-0.0076304763 0.28232762 2.003
-0.0038152381 0.28232762 2.003
0 0.28401905 2.0150001
0.0038380953 0.28401905 2.0150001
0.0076761907 0.28401905 2.0150001
0.011514287 0.28401905 2.0150001
0.01544381 0.28571048 2.0270002
0.019190477 0.28401905 2.0150001
0.023028573 0.28401905 2.0150001
0.026866667 0.28401905 2.0150001
0.030521905 0.28232762 2.003
0.034337144 0.28232762 2.003
0.038152382 0.28232762 2.003
0.041967619 0.28232762 2.003
0.04578286 0.28232762 2.003
0.049598098 0.28232762 2.003
0.053413335 0.28232762 2.003
0.057228573 0.28232762 2.003
0.06104381 0.28232762 2.003
0.064859048 0.28232762 2.003
0.068297148 0.28077716 1.9920001
0.07209143 0.28077716 1.9920001
0.075885721 0.28077716 1.9920001
0.079680003 0.28077716 1.9920001
0.083474286 0.28077716 1.9920001
0.086742863 0.27908573 1.9800001
0.090514287 0.27908573 1.9800001
0.094285719 0.27908573 1.9800001
0.098057143 0.27908573 1.9800001
0.10182858 0.27908573 1.9800001
0.10560001 0.27908573 1.9800001
0.10937143 0.27908573 1.9800001
0.11314286 0.27908573 1.9800001
0.11691429 0.27908573 1.9800001
0.12068572 0.27908573 1.9800001
0.12376572 0.27753526 1.9690001
0.1275162 0.27753526 1.9690001
0.13126667 0.27753526 1.9690001
0.13501714 0.27753526 1.9690001
0.13876763 0.27753526 1.9690001
0.1425181 0.27753526 1.9690001
0.14626858 0.27753526 1.9690001
0.14918096 0.27598476 1.9580001
0.15291049 0.27598476 1.9580001
0.15752001 0.27753526 1.9690001
0.16127048 0.27753526 1.9690001
0.16502096 0.27753526 1.9690001
0.16877143 0.27753526 1.9690001
0.1725219 0.27753526 1.9690001
0.17627239 0.27753526 1.9690001
0.18002287 0.27753526 1.9690001
0.18377334 0.27753526 1.9690001
0.1864762 0.27598476 1.9580001
0.19020572 0.27598476 1.9580001
0.19393525 0.27598476 1.9580001
0.19766477 0.27598476 1.9580001
0.20139429 0.27598476 1.9580001
0.20512381 0.27598476 1.9580001
0.20885333 0.27598476 1.9580001
0.21258287 0.27598476 1.9580001
0.21631239 0.27598476 1.9580001
0.22004192 0.27598476 1.9580001
0.22377144 0.27598476 1.9580001
0.22622287 0.2744343 1.9470001
0.22993144 0.2744343 1.9470001
0.23364002 0.2744343 1.9470001
0.23734859 0.2744343 1.9470001
0.24105716 0.2744343 1.9470001
0.24476573 0.2744343 1.9470001
0.2484743 0.2744343 1.9470001
0.25218287 0.2744343 1.9470001
0.25589144 0.2744343 1.9470001
0.25960001 0.2744343 1.9470001
0.26182097 0.27288383 1.9360001
0.26550859 0.27288383 1.9360001
0.26766667 0.27133334 1.9250001
0.27133334 0.27133334 1.9250001
0.27500001 0.27133334 1.9250001
0.27866668 0.27133334 1.9250001
0.28086668 0.26992381 1.9150001
0.28451431 0.26992381 1.9150001
0.2881619 0.26992381 1.9150001
0.29333335 0.27133334 1.9250001
0.29700002 0.27133334 1.9250001
0.30238476 0.27288383 1.9360001
0.30607238 0.27288383 1.9360001
0.30976 0.27288383 1.9360001
0.31166667 0.27133334 1.9250001
0.31533334 0.27133334 1.9250001
0.31900001 0.27133334 1.9250001
0.32266667 0.27133334 1.9250001
0.3246381 0.26992381 1.9150001
0.32828572 0.26992381 1.9150001
0.33193335 0.26992381 1.9150001
0.33558097 0.26992381 1.9150001
0.33922857 0.26992381 1.9150001
0.3428762 0.26992381 1.9150001
0.34453335 0.26837334 1.904
0.34816 0.26837334 1.904
0.35178667 0.26837334 1.904
0.35541335 0.26837334 1.904
0.35904002 0.26837334 1.904
0.36266667 0.26837334 1.904
0.36436954 0.26696381 1.8940001
0.36797714 0.26696381 1.8940001
0.37158477 0.26696381 1.8940001
0.37301335 0.26541334 1.8830001
0.37660003 0.26541334 1.8830001
0.38018668 0.26541334 1.8830001
0.38377336 0.26541334 1.8830001
0.38530287 0.26400381 1.8730001
0.38887048 0.26400381 1.8730001
0.39243811 0.26400381 1.8730001
0.39600572 0.26400381 1.8730001
0.39957336 0.26400381 1.8730001
0.40314096 0.26400381 1.8730001
0.4067086 0.26400381 1.8730001
0.4102762 0.26400381 1.8730001
0.41384381 0.26400381 1.8730001
0.41741145 0.26400381 1.8730001
0.42097905 0.26400381 1.8730001
0.42454669 0.26400381 1.8730001
0.4281143 0.26400381 1.8730001
0.43168193 0.26400381 1.8730001
0.43524954 0.26400381 1.8730001
0.43881717 0.26400381 1.8730001
0.44238478 0.26400381 1.8730001
0.44595239 0.26400381 1.8730001
0.44952002 0.26400381 1.8730001
0.45308763 0.26400381 1.8730001
0.45665526 0.26400381 1.8730001
0.46022287 0.26400381 1.8730001
0.46379051 0.26400381 1.8730001
0.46486288 0.26259428 1.863
0.46841145 0.26259428 1.863
0.47196001 0.26259428 1.863
0.4755086 0.26259428 1.863
0.47905716 0.26259428 1.863
0.48260573 0.26259428 1.863
0.48354477 0.26118478 1.853
0.48707432 0.26118478 1.853
0.49060383 0.26118478 1.853
0.49413335 0.26118478 1.853
0.49766287 0.26118478 1.853
0.50119239 0.26118478 1.853
0.50199813 0.25977525 1.8430001
0.5055086 0.25977525 1.8430001
0.50901908 0.25977525 1.8430001
0.51252955 0.25977525 1.8430001
0.51604003 0.25977525 1.8430001
0.51673144 0.25836572 1.8330001
0.5202229 0.25836572 1.8330001
0.5211429 0.25709715 1.8240001
0.52461714 0.25709715 1.8240001
0.52809143 0.25709715 1.8240001
0.53156573 0.25709715 1.8240001
0.53504002 0.25709715 1.8240001
0.53851432 0.25709715 1.8240001
0.54198861 0.25709715 1.8240001
0.54546291 0.25709715 1.8240001
0.54893714 0.25709715 1.8240001
0.55241144 0.25709715 1.8240001
0.55588573 0.25709715 1.8240001
0.55629337 0.25568762 1.8140001
0.56283432 0.25709715 1.8240001
0.56320381 0.25568762 1.8140001
0.56665909 0.25568762 1.8140001
0.57011431 0.25568762 1.8140001
0.57356954 0.25568762 1.8140001
0.57702476 0.25568762 1.8140001
0.58048004 0.25568762 1.8140001
0.58393526 0.25568762 1.8140001
0.58739048 0.25568762 1.8140001
0.59084576 0.25568762 1.8140001
0.59430099 0.25568762 1.8140001
0.59775621 0.25568762 1.8140001
0.60121143 0.25568762 1.8140001
0.60466671 0.25568762 1.8140001
0.60812193 0.25568762 1.8140001
0.61157715 0.25568762 1.8140001
0.61503237 0.25568762 1.8140001
0.61848766 0.25568762 1.8140001
0.62537146 0.25709715 1.8240001
0.6253981 0.25568762 1.8140001
0.63232005 0.25709715 1.8240001
0.63579428 0.25709715 1.8240001
0.63926858 0.25709715 1.8240001
0.64274287 0.25709715 1.8240001
0.64621717 0.25709715 1.8240001
0.64969146 0.25709715 1.8240001
0.65316576 0.25709715 1.8240001
0.65664005 0.25709715 1.8240001
0.66011429 0.25709715 1.8240001
0.66358858 0.25709715 1.8240001
0.66706288 0.25709715 1.8240001
0.67053717 0.25709715 1.8240001
0.67031622 0.25568762 1.8140001
0.67377144 0.25568762 1.8140001
0.67722666 0.25568762 1.8140001
0.68068194 0.25568762 1.8140001
0.68413717 0.25568762 1.8140001
0.68759239 0.25568762 1.8140001
0.69104767 0.25568762 1.8140001
0.6906743 0.25427809 1.8040001
0.69411051 0.25427809 1.8040001
0.70141333 0.25568762 1.8140001
0.70486861 0.25568762 1.8140001
0.70832384 0.25568762 1.8140001
0.71177906 0.25568762 1.8140001
0.71523434 0.25568762 1.8140001
0.71868956 0.25568762 1.8140001
0.72214478 0.25568762 1.8140001
-1.0154934 0.33700001 2.3590002
-1.011 0.33700001 2.3590002
-1.0065067 0.33700001 2.3590002
-1.0020133 0.33700001 2.3590002
-0.99752003 0.33700001 2.3590002
-0.99302667 0.33700001 2.3590002
-0.98853338 0.33700001 2.3590002
-0.97736573 0.33471429 2.3430002
-0.97290289 0.33471429 2.3430002
-0.96844006 0.33471429 2.3430002
-0.96397716 0.33471429 2.3430002
-0.95951432 0.33471429 2.3430002
-0.95505148 0.33471429 2.3430002
-0.95058858 0.33471429 2.3430002
-0.94612575 0.33471429 2.3430002
-0.94166291 0.33471429 2.3430002
-0.93720001 0.33471429 2.3430002
-0.93273717 0.33471429 2.3430002
-0.92827433 0.33471429 2.3430002
-0.93012005 0.33700001 2.3590002
-0.9256267 0.33700001 2.3590002
-0.91488576 0.33471429 2.3430002
-0.91042286 0.33471429 2.3430002
-0.90596002 0.33471429 2.3430002
-0.90149719 0.33471429 2.3430002
-0.89703435 0.33471429 2.3430002
-0.89257145 0.33471429 2.3430002
-0.88204384 0.33242857 2.3270001
-0.88364577 0.33471429 2.3430002
-0.87317908 0.33242857 2.3270001
-0.8687467 0.33242857 2.3270001
-0.85874289 0.33028573 2.312
-0.85433906 0.33028573 2.312
-0.84993529 0.33028573 2.312
-0.84553146 0.33028573 2.312
-0.84112763 0.33028573 2.312
-0.83672386 0.33028573 2.312
-0.83232003 0.33028573 2.312
-0.8279162 0.33028573 2.312
-0.81816953 0.32814288 2.2970002
-0.81379431 0.32814288 2.2970002
-0.8094191 0.32814288 2.2970002
-0.80504382 0.32814288 2.2970002
-0.8006686 0.32814288 2.2970002
-0.79629338 0.32814288 2.2970002
-0.7919181 0.32814288 2.2970002
-0.78205717 0.32585716 2.2810001
-0.78316766 0.32814288 2.2970002
-0.77336764 0.32585716 2.2810001
-0.77441716 0.32814288 2.2970002
-0.76467812 0.32585716 2.2810001
-0.75533336 0.32371429 2.266
-0.75101715 0.32371429 2.266
-0.746701 0.32371429 2.266
-0.74238479 0.32371429 2.266
-0.73806858 0.32371429 2.266
-0.73860955 0.32585716 2.2810001
-0.73426479 0.32585716 2.2810001
-0.72512001 0.32371429 2.266
-0.72080386 0.32371429 2.266
-0.71206099 0.32171431 2.2520001
-0.70777148 0.32171431 2.2520001
-0.70348191 0.32171431 2.2520001
-0.69453526 0.31957144 2.237
-0.6902743 0.31957144 2.237
-0.68601334 0.31957144 2.237
-0.68175238 0.31957144 2.237
-0.67749143 0.31957144 2.237
-0.6690172 0.31757143 2.223
-0.66896957 0.31957144 2.237
-0.66470861 0.31957144 2.237
-0.66044766 0.31957144 2.237
-0.65208 0.31757143 2.223
-0.64784575 0.31757143 2.223
-0.64361143 0.31757143 2.223
-0.63937718 0.31757143 2.223
-0.63514286 0.31757143 2.223
-0.63090861 0.31757143 2.223
-0.62667429 0.31757143 2.223
-0.62244004 0.31757143 2.223
-0.61820573 0.31757143 2.223
-0.61397147 0.31757143 2.223
-0.60562289 0.31542858 2.2080002
-0.60141718 0.31542858 2.2080002
-0.59721148 0.31542858 2.2080002
-0.59300572 0.31542858 2.2080002
-0.58506668 0.31342858 2.194
-0.58459431 0.31542858 2.2080002
-0.57670861 0.31342858 2.194
-0.5761829 0.31542858 2.2080002
-0.57197714 0.31542858 2.2080002
-0.56777143 0.31542858 2.2080002
-0.56356573 0.31542858 2.2080002
-0.55936003 0.31542858 2.2080002
-0.55515432 0.31542858 2.2080002
-0.55094862 0.31542858 2.2080002
-0.54327619 0.31342858 2.194
-0.53909719 0.31342858 2.194
-0.53491813 0.31342858 2.194
-0.52759433 0.31157145 2.181
-0.52344 0.31157145 2.181
-0.51928574 0.31157145 2.181
-0.51513147 0.31157145 2.181
-0.51097715 0.31157145 2.181
-0.50682288 0.31157145 2.181
-0.50266862 0.31157145 2.181
-0.49851429 0.31157145 2.181
-0.49436003 0.31157145 2.181
-0.49020573 0.31157145 2.181
-0.48293144 0.30957144 2.1670001
-0.47880381 0.30957144 2.1670001
-0.47467622 0.30957144 2.1670001
-0.4705486 0.30957144 2.1670001
-0.46642098 0.30957144 2.1670001
-0.46229336 0.30957144 2.1670001
-0.45816574 0.30957144 2.1670001
-0.45403811 0.30957144 2.1670001
-0.44991049 0.30957144 2.1670001
-0.44578287 0.30957144 2.1670001
-0.44165525 0.30957144 2.1670001
-0.43752763 0.30957144 2.1670001
-0.43060002 0.30757144 2.1530001
-0.42649907 0.30757144 2.1530001
-0.42239812 0.30757144 2.1530001
-0.41829717 0.30757144 2.1530001
-0.41419619 0.30757144 2.1530001
-0.41009524 0.30757144 2.1530001
-0.4059943 0.30757144 2.1530001
-0.40189335 0.30757144 2.1530001
-0.3977924 0.30757144 2.1530001
-0.39369145 0.30757144 2.1530001
-0.3895905 0.30757144 2.1530001
-0.38548952 0.30757144 2.1530001
-0.38138857 0.30757144 2.1530001
-0.37728763 0.30757144 2.1530001
-0.37318668 0.30757144 2.1530001
-0.36908573 0.30757144 2.1530001
-0.36498478 0.30757144 2.1530001
-0.36088383 0.30757144 2.1530001
-0.35678288 0.30757144 2.1530001
-0.35268191 0.30757144 2.1530001
-0.34858096 0.30757144 2.1530001
-0.34448001 0.30757144 2.1530001
-0.33832383 0.30571431 2.1400001
-0.33424762 0.30571431 2.1400001
-0.33017144 0.30571431 2.1400001
-0.32609525 0.30571431 2.1400001
-0.32201907 0.30571431 2.1400001
-0.31794286 0.30571431 2.1400001
-0.31386667 0.30571431 2.1400001
-0.30790859 0.30385715 2.1270001
-0.30200002 0.30200002 2.1140001
-0.29797333 0.30200002 2.1140001
-0.29394668 0.30200002 2.1140001
-0.28992 0.30200002 2.1140001
-0.28589335 0.30200002 2.1140001
-0.28013334 0.30014285 2.1010001
-0.27613145 0.30014285 2.1010001
-0.27381334 0.30200002 2.1140001
-0.26812762 0.30014285 2.1010001
-0.26412573 0.30014285 2.1010001
-0.26012382 0.30014285 2.1010001
-0.25770667 0.30200002 2.1140001
-0.25368002 0.30200002 2.1140001
-0.2481181 0.30014285 2.1010001
-0.2441162 0.30014285 2.1010001
-0.2401143 0.30014285 2.1010001
-0.23611239 0.30014285 2.1010001
-0.23211049 0.30014285 2.1010001
-0.22810858 0.30014285 2.1010001
-0.22410667 0.30014285 2.1010001
-0.22010477 0.30014285 2.1010001
-0.21610287 0.30014285 2.1010001
-0.21210095 0.30014285 2.1010001
-0.20809905 0.30014285 2.1010001
-0.20409715 0.30014285 2.1010001
-0.20009525 0.30014285 2.1010001
-0.19730668 0.30200002 2.1140001
-0.19328001 0.30200002 2.1140001
-0.18925335 0.30200002 2.1140001
-0.18408762 0.30014285 2.1010001
-0.18008572 0.30014285 2.1010001
-0.17608382 0.30014285 2.1010001
-0.17101716 0.29828572 2.0880001
-0.16608001 0.29657143 2.0760002
-0.16212572 0.29657143 2.0760002
-0.15817143 0.29657143 2.0760002
-0.15421715 0.29657143 2.0760002
-0.15113144 0.29828572 2.0880001
-0.14539239 0.2947143 2.0630002
-0.14146286 0.2947143 2.0630002
-0.1384 0.29657143 2.0760002
-0.13444571 0.29657143 2.0760002
-0.13049144 0.29657143 2.0760002
-0.12653714 0.29657143 2.0760002
-0.12258286 0.29657143 2.0760002
-0.11862858 0.29657143 2.0760002
-0.11467429 0.29657143 2.0760002
-0.11002667 0.2947143 2.0630002
-0.10609715 0.2947143 2.0630002
-0.10216762 0.2947143 2.0630002
-0.098238096 0.2947143 2.0630002
-0.094308577 0.2947143 2.0630002
-0.090379052 0.2947143 2.0630002
-0.086449526 0.2947143 2.0630002
-0.082520001 0.2947143 2.0630002
-0.078590482 0.2947143 2.0630002
-0.074660957 0.2947143 2.0630002
-0.070731431 0.2947143 2.0630002
-0.066801906 0.2947143 2.0630002
-0.06287238 0.2947143 2.0630002
-0.058942858 0.2947143 2.0630002
-0.054693334 0.29300001 2.0510001
-0.05078667 0.29300001 2.0510001
-0.046880003 0.29300001 2.0510001
-0.042973336 0.29300001 2.0510001
-0.039066669 0.29300001 2.0510001
-0.034954287 0.29128572 2.039
-0.031070478 0.29128572 2.039
-0.027026668 0.28957143 2.0270002
-0.023165716 0.28957143 2.0270002
-0.019304764 0.28957143 2.0270002
-0.015352381 0.28785715 2.0150001
-0.011514287 0.28785715 2.0150001
-0.0076761907 0.28785715 2.0150001
-0.0038380953 0.28785715 2.0150001
0 0.28785715 2.0150001
0.0038380953 0.28785715 2.0150001
0.0076761907 0.28785715 2.0150001
0.011582858 0.28957143 2.0270002
0.01544381 0.28957143 2.0270002
0.019304764 0.28957143 2.0270002
0.023028573 0.28785715 2.0150001
0.026866667 0.28785715 2.0150001
0.030521905 0.28614286 2.003
0.034337144 0.28614286 2.003
0.038152382 0.28614286 2.003
0.041967619 0.28614286 2.003
0.04578286 0.28614286 2.003
0.049598098 0.28614286 2.003
0.053413335 0.28614286 2.003
0.057228573 0.28614286 2.003
0.06104381 0.28614286 2.003
0.064859048 0.28614286 2.003
0.068297148 0.28457144 1.9920001
0.07209143 0.28457144 1.9920001
0.075885721 0.28457144 1.9920001
0.079680003 0.28457144 1.9920001
0.083474286 0.28457144 1.9920001
0.087268576 0.28457144 1.9920001
0.090514287 0.28285715 1.9800001
0.094285719 0.28285715 1.9800001
0.098057143 0.28285715 1.9800001
0.10182858 0.28285715 1.9800001
0.10560001 0.28285715 1.9800001
0.10937143 0.28285715 1.9800001
0.11314286 0.28285715 1.9800001
0.11762286 0.28457144 1.9920001
0.12068572 0.28285715 1.9800001
0.12376572 0.28128573 1.9690001
0.1275162 0.28128573 1.9690001
0.13126667 0.28128573 1.9690001
0.13501714 0.28128573 1.9690001
0.13876763 0.28128573 1.9690001
0.1417219 0.27971429 1.9580001
0.14545143 0.27971429 1.9580001
0.14918096 0.27971429 1.9580001
0.15376952 0.28128573 1.9690001
0.15752001 0.28128573 1.9690001
0.16036953 0.27971429 1.9580001
0.16409905 0.27971429 1.9580001
0.16877143 0.28128573 1.9690001
0.1725219 0.28128573 1.9690001
0.17627239 0.28128573 1.9690001
0.18002287 0.28128573 1.9690001
0.18274668 0.27971429 1.9580001
0.1864762 0.27971429 1.9580001
0.19020572 0.27971429 1.9580001
0.19393525 0.27971429 1.9580001
0.19766477 0.27971429 1.9580001
0.20139429 0.27971429 1.9580001
0.20512381 0.27971429 1.9580001
0.20885333 0.27971429 1.9580001
0.21258287 0.27971429 1.9580001
0.21631239 0.27971429 1.9580001
0.22004192 0.27971429 1.9580001
0.22377144 0.27971429 1.9580001
0.22622287 0.27814287 1.9470001
0.22993144 0.27814287 1.9470001
0.23364002 0.27814287 1.9470001
0.23734859 0.27814287 1.9470001
0.24105716 0.27814287 1.9470001
0.24476573 0.27814287 1.9470001
0.2484743 0.27814287 1.9470001
0.25218287 0.27814287 1.9470001
0.25589144 0.27814287 1.9470001
0.25960001 0.27814287 1.9470001
0.26330858 0.27814287 1.9470001
0.26550859 0.27657145 1.9360001
0.27072573 0.27814287 1.9470001
0.27133334 0.27500001 1.9250001
0.27500001 0.27500001 1.9250001
0.27866668 0.27500001 1.9250001
0.28233334 0.27500001 1.9250001
0.28451431 0.27357143 1.9150001
0.28966668 0.27500001 1.9250001
0.29333335 0.27500001 1.9250001
0.29700002 0.27500001 1.9250001
0.30238476 0.27657145 1.9360001
0.30433336 0.27500001 1.9250001
0.308 0.27500001 1.9250001
0.31166667 0.27500001 1.9250001
0.31533334 0.27500001 1.9250001
0.31900001 0.27500001 1.9250001
0.32266667 0.27500001 1.9250001
0.3246381 0.27357143 1.9150001
0.32828572 0.27357143 1.9150001
0.33193335 0.27357143 1.9150001
0.33558097 0.27357143 1.9150001
0.33922857 0.27357143 1.9150001
0.3428762 0.27357143 1.9150001
0.34453335 0.27200001 1.904
0.34816 0.27200001 1.904
0.35178667 0.27200001 1.904
0.35541335 0.27200001 1.904
0.35904002 0.27200001 1.904
0.36076191 0.27057144 1.8940001
0.36436954 0.27057144 1.8940001
0.36797714 0.27057144 1.8940001
0.37158477 0.27057144 1.8940001
0.3751924 0.27057144 1.8940001
0.37660003 0.26900002 1.8830001
0.38018668 0.26900002 1.8830001
0.38377336 0.26900002 1.8830001
0.38736001 0.26900002 1.8830001
0.38887048 0.26757145 1.8730001
0.39243811 0.26757145 1.8730001
0.39600572 0.26757145 1.8730001
0.39957336 0.26757145 1.8730001
0.40314096 0.26757145 1.8730001
0.4067086 0.26757145 1.8730001
0.4102762 0.26757145 1.8730001
0.41384381 0.26757145 1.8730001
0.41741145 0.26757145 1.8730001
0.42322668 0.26900002 1.8830001
0.42454669 0.26757145 1.8730001
0.43040001 0.26900002 1.8830001
0.43398669 0.26900002 1.8830001
0.43524954 0.26757145 1.8730001
0.44116002 0.26900002 1.8830001
0.44238478 0.26757145 1.8730001
0.44595239 0.26757145 1.8730001
0.44952002 0.26757145 1.8730001
0.45308763 0.26757145 1.8730001
0.45665526 0.26757145 1.8730001
0.46022287 0.26757145 1.8730001
0.46379051 0.26757145 1.8730001
0.46486288 0.26614287 1.863
0.46841145 0.26614287 1.863
0.47196001 0.26614287 1.863
0.4755086 0.26614287 1.863
0.47905716 0.26614287 1.863
0.48260573 0.26614287 1.863
0.48615432 0.26614287 1.863
0.48707432 0.2647143 1.853
0.49060383 0.2647143 1.853
0.49413335 0.2647143 1.853
0.49766287 0.2647143 1.853
0.49848765 0.26328573 1.8430001
0.50199813 0.26328573 1.8430001
0.5055086 0.26328573 1.8430001
0.50901908 0.26328573 1.8430001
0.51252955 0.26328573 1.8430001
0.51604003 0.26328573 1.8430001
0.51673144 0.26185715 1.8330001
0.5202229 0.26185715 1.8330001
0.5211429 0.26057145 1.8240001
0.52461714 0.26057145 1.8240001
0.52809143 0.26057145 1.8240001
0.53156573 0.26057145 1.8240001
0.53504002 0.26057145 1.8240001
0.53851432 0.26057145 1.8240001
0.54198861 0.26057145 1.8240001
0.54546291 0.26057145 1.8240001
0.54893714 0.26057145 1.8240001
0.55241144 0.26057145 1.8240001
0.55588573 0.26057145 1.8240001
0.55629337 0.25914288 1.8140001
0.55974859 0.25914288 1.8140001
0.56320381 0.25914288 1.8140001
0.56665909 0.25914288 1.8140001
0.57011431 0.25914288 1.8140001
0.57356954 0.25914288 1.8140001
0.57702476 0.25914288 1.8140001
0.58048004 0.25914288 1.8140001
0.58393526 0.25914288 1.8140001
0.58739048 0.25914288 1.8140001
0.59084576 0.25914288 1.8140001
0.59430099 0.25914288 1.8140001
0.59775621 0.25914288 1.8140001
0.60121143 0.25914288 1.8140001
0.60466671 0.25914288 1.8140001
0.60812193 0.25914288 1.8140001
0.61157715 0.25914288 1.8140001
0.61503237 0.25914288 1.8140001
0.61848766 0.25914288 1.8140001
0.62194288 0.25914288 1.8140001
0.6253981 0.25914288 1.8140001
0.62885338 0.25914288 1.8140001
0.63579428 0.26057145 1.8240001
0.63926858 0.26057145 1.8240001
0.64274287 0.26057145 1.8240001
0.64621717 0.26057145 1.8240001
0.64969146 0.26057145 1.8240001
0.65316576 0.26057145 1.8240001
0.65664005 0.26057145 1.8240001
0.66011429 0.26057145 1.8240001
0.66358858 0.26057145 1.8240001
0.66706288 0.26057145 1.8240001
0.67053717 0.26057145 1.8240001
0.67031622 0.25914288 1.8140001
0.67377144 0.25914288 1.8140001
0.67722666 0.25914288 1.8140001
0.68068194 0.25914288 1.8140001
0.68413717 0.25914288 1.8140001
0.68759239 0.25914288 1.8140001
0.6872381 0.2577143 1.8040001
0.6906743 0.2577143 1.8040001
0.69795811 0.25914288 1.8140001
0.70141333 0.25914288 1.8140001
0.70098287 0.2577143 1.8040001
0.70832384 0.25914288 1.8140001
0.70785528 0.2577143 1.8040001
0.71523434 0.25914288 1.8140001
0.71868956 0.25914288 1.8140001
0.72214478 0.25914288 1.8140001
-1.0154934 0.34149334 2.3590002
-1.011 0.34149334 2.3590002
-1.0065067 0.34149334 2.3590002
-1.0020133 0.34149334 2.3590002
-0.99752003 0.34149334 2.3590002
-0.99302667 0.34149334 2.3590002
-0.98853338 0.34149334 2.3590002
-0.97736573 0.33917716 2.3430002
-0.97290289 0.33917716 2.3430002
-0.96844006 0.33917716 2.3430002
-0.96397716 0.33917716 2.3430002
-0.96606672 0.34149334 2.3590002
-0.95505148 0.33917716 2.3430002
-0.95058858 0.33917716 2.3430002
-0.95258671 0.34149334 2.3590002
-0.94809335 0.34149334 2.3590002
-0.94360006 0.34149334 2.3590002
-0.9391067 0.34149334 2.3590002
-0.93461335 0.34149334 2.3590002
-0.93012005 0.34149334 2.3590002
-0.9256267 0.34149334 2.3590002
-0.91488576 0.33917716 2.3430002
-0.91042286 0.33917716 2.3430002
-0.90596002 0.33917716 2.3430002
-0.90149719 0.33917716 2.3430002
-0.8909086 0.33686095 2.3270001
-0.89257145 0.33917716 2.3430002
-0.88204384 0.33686095 2.3270001
-0.87761146 0.33686095 2.3270001
-0.87317908 0.33686095 2.3270001
-0.8687467 0.33686095 2.3270001
-0.85874289 0.33468953 2.312
-0.85433906 0.33468953 2.312
-0.84993529 0.33468953 2.312
-0.84553146 0.33468953 2.312
-0.84112763 0.33468953 2.312
-0.83672386 0.33468953 2.312
-0.83232003 0.33468953 2.312
-0.8279162 0.33468953 2.312
-0.82351243 0.33468953 2.312
-0.81379431 0.3325181 2.2970002
-0.8094191 0.3325181 2.2970002
-0.80504382 0.3325181 2.2970002
-0.8006686 0.3325181 2.2970002
-0.79629338 0.3325181 2.2970002
-0.7919181 0.3325181 2.2970002
-0.78754288 0.3325181 2.2970002
-0.78316766 0.3325181 2.2970002
-0.77879238 0.3325181 2.2970002
-0.77441716 0.3325181 2.2970002
-0.76467812 0.33020192 2.2810001
-0.76033336 0.33020192 2.2810001
-0.75101715 0.3280305 2.266
-0.75164384 0.33020192 2.2810001
-0.74729908 0.33020192 2.2810001
-0.74295431 0.33020192 2.2810001
-0.73860955 0.33020192 2.2810001
-0.73426479 0.33020192 2.2810001
-0.72992003 0.33020192 2.2810001
-0.72557527 0.33020192 2.2810001
-0.71648765 0.3280305 2.266
-0.71217144 0.3280305 2.266
-0.70348191 0.32600382 2.2520001
-0.6991924 0.32600382 2.2520001
-0.6902743 0.32383239 2.237
-0.68601334 0.32383239 2.237
-0.68175238 0.32383239 2.237
-0.67749143 0.32383239 2.237
-0.67323053 0.32383239 2.237
-0.66896957 0.32383239 2.237
-0.66470861 0.32383239 2.237
-0.66044766 0.32383239 2.237
-0.65208 0.32180572 2.223
-0.64784575 0.32180572 2.223
-0.64361143 0.32180572 2.223
-0.63937718 0.32180572 2.223
-0.63514286 0.32180572 2.223
-0.63090861 0.32180572 2.223
-0.62667429 0.32180572 2.223
-0.62244004 0.32180572 2.223
-0.61820573 0.32180572 2.223
-0.61397147 0.32180572 2.223
-0.60973716 0.32180572 2.223
-0.6055029 0.32180572 2.223
-0.60126859 0.32180572 2.223
-0.59300572 0.31963429 2.2080002
-0.58506668 0.31760764 2.194
-0.58459431 0.31963429 2.2080002
-0.57670861 0.31760764 2.194
-0.5761829 0.31963429 2.2080002
-0.57197714 0.31963429 2.2080002
-0.56777143 0.31963429 2.2080002
-0.56356573 0.31963429 2.2080002
-0.55936003 0.31963429 2.2080002
-0.55515432 0.31963429 2.2080002
-0.55094862 0.31963429 2.2080002
-0.54674286 0.31963429 2.2080002
-0.54253715 0.31963429 2.2080002
-0.53491813 0.31760764 2.194
-0.52759433 0.31572571 2.181
-0.52656001 0.31760764 2.194
-0.52238095 0.31760764 2.194
-0.51513147 0.31572571 2.181
-0.51097715 0.31572571 2.181
-0.50682288 0.31572571 2.181
-0.50266862 0.31572571 2.181
-0.49851429 0.31572571 2.181
-0.49436003 0.31572571 2.181
-0.49020573 0.31572571 2.181
-0.48605144 0.31572571 2.181
-0.47880381 0.31369907 2.1670001
-0.47467622 0.31369907 2.1670001
-0.4705486 0.31369907 2.1670001
-0.46642098 0.31369907 2.1670001
-0.46229336 0.31369907 2.1670001
-0.45816574 0.31369907 2.1670001
-0.45403811 0.31369907 2.1670001
-0.44991049 0.31369907 2.1670001
-0.44578287 0.31369907 2.1670001
-0.44165525 0.31369907 2.1670001
-0.43752763 0.31369907 2.1670001
-0.43340001 0.31369907 2.1670001
-0.42927238 0.31369907 2.1670001
-0.42239812 0.31167239 2.1530001
-0.41829717 0.31167239 2.1530001
-0.41419619 0.31167239 2.1530001
-0.41276193 0.31369907 2.1670001
-0.4059943 0.31167239 2.1530001
-0.40450668 0.31369907 2.1670001
-0.3977924 0.31167239 2.1530001
-0.39625144 0.31369907 2.1670001
-0.39212382 0.31369907 2.1670001
-0.3879962 0.31369907 2.1670001
-0.38386858 0.31369907 2.1670001
-0.37974095 0.31369907 2.1670001
-0.37561336 0.31369907 2.1670001
-0.37148574 0.31369907 2.1670001
-0.36735812 0.31369907 2.1670001
-0.36088383 0.31167239 2.1530001
-0.35678288 0.31167239 2.1530001
-0.35268191 0.31167239 2.1530001
-0.34858096 0.31167239 2.1530001
-0.34448001 0.31167239 2.1530001
-0.34037906 0.31167239 2.1530001
-0.33424762 0.30979049 2.1400001
-0.33017144 0.30979049 2.1400001
-0.32609525 0.30979049 2.1400001
-0.32201907 0.30979049 2.1400001
-0.31601143 0.30790859 2.1270001
-0.31196001 0.30790859 2.1270001
-0.30790859 0.30790859 2.1270001
-0.30200002 0.30602667 2.1140001
-0.29797333 0.30602667 2.1140001
-0.29394668 0.30602667 2.1140001
-0.28992 0.30602667 2.1140001
-0.28589335 0.30602667 2.1140001
-0.28013334 0.30414477 2.1010001
-0.27613145 0.30414477 2.1010001
-0.27212954 0.30414477 2.1010001
-0.26812762 0.30414477 2.1010001
-0.26412573 0.30414477 2.1010001
-0.26012382 0.30414477 2.1010001
-0.25770667 0.30602667 2.1140001
-0.25368002 0.30602667 2.1140001
-0.2481181 0.30414477 2.1010001
-0.2441162 0.30414477 2.1010001
-0.2401143 0.30414477 2.1010001
-0.23611239 0.30414477 2.1010001
-0.23211049 0.30414477 2.1010001
-0.22810858 0.30414477 2.1010001
-0.22410667 0.30414477 2.1010001
-0.22010477 0.30414477 2.1010001
-0.21610287 0.30414477 2.1010001
-0.21210095 0.30414477 2.1010001
-0.20809905 0.30414477 2.1010001
-0.20409715 0.30414477 2.1010001
-0.20009525 0.30414477 2.1010001
-0.19730668 0.30602667 2.1140001
-0.19209144 0.30414477 2.1010001
-0.18925335 0.30602667 2.1140001
-0.18408762 0.30414477 2.1010001
-0.18008572 0.30414477 2.1010001
-0.17608382 0.30414477 2.1010001
-0.17208192 0.30414477 2.1010001
-0.16704001 0.30226287 2.0880001
-0.16306287 0.30226287 2.0880001
-0.15817143 0.30052572 2.0760002
-0.15421715 0.30052572 2.0760002
-0.15026286 0.30052572 2.0760002
-0.14539239 0.29864383 2.0630002
-0.14146286 0.29864383 2.0630002
-0.1384 0.30052572 2.0760002
-0.13444571 0.30052572 2.0760002
-0.13049144 0.30052572 2.0760002
-0.12574476 0.29864383 2.0630002
-0.12258286 0.30052572 2.0760002
-0.11862858 0.30052572 2.0760002
-0.1139562 0.29864383 2.0630002
-0.11002667 0.29864383 2.0630002
-0.10609715 0.29864383 2.0630002
-0.10216762 0.29864383 2.0630002
-0.098238096 0.29864383 2.0630002
-0.094308577 0.29864383 2.0630002
-0.090379052 0.29864383 2.0630002
-0.086449526 0.29864383 2.0630002
-0.082520001 0.29864383 2.0630002
-0.078590482 0.29864383 2.0630002
-0.074660957 0.29864383 2.0630002
-0.070731431 0.29864383 2.0630002
-0.066801906 0.29864383 2.0630002
-0.06287238 0.29864383 2.0630002
-0.058942858 0.29864383 2.0630002
-0.054693334 0.29690668 2.0510001
-0.05078667 0.29690668 2.0510001
-0.046880003 0.29690668 2.0510001
-0.042973336 0.29690668 2.0510001
-0.039066669 0.29690668 2.0510001
-0.035160001 0.29690668 2.0510001
-0.031070478 0.29516953 2.039
-0.027026668 0.29343238 2.0270002
-0.023165716 0.29343238 2.0270002
-0.019304764 0.29343238 2.0270002
-0.015352381 0.29169524 2.0150001
-0.011514287 0.29169524 2.0150001
-0.0076761907 0.29169524 2.0150001
-0.0038380953 0.29169524 2.0150001
0 0.29169524 2.0150001
0.0038609526 0.29343238 2.0270002
0.0077219051 0.29343238 2.0270002
0.011582858 0.29343238 2.0270002
0.01544381 0.29343238 2.0270002
0.019304764 0.29343238 2.0270002
0.023165716 0.29343238 2.0270002
0.026866667 0.29169524 2.0150001
0.030521905 0.28995812 2.003
0.034337144 0.28995812 2.003
0.038380954 0.29169524 2.0150001
0.041967619 0.28995812 2.003
0.04578286 0.28995812 2.003
0.049598098 0.28995812 2.003
0.053413335 0.28995812 2.003
0.057228573 0.28995812 2.003
0.06104381 0.28995812 2.003
0.064859048 0.28995812 2.003
0.068674289 0.28995812 2.003
0.07209143 0.28836572 1.9920001
0.075885721 0.28836572 1.9920001
0.079680003 0.28836572 1.9920001
0.083474286 0.28836572 1.9920001
0.087268576 0.28836572 1.9920001
0.090514287 0.28662857 1.9800001
0.094285719 0.28662857 1.9800001
0.098651432 0.28836572 1.9920001
0.10182858 0.28662857 1.9800001
0.10560001 0.28662857 1.9800001
0.10937143 0.28662857 1.9800001
0.11382858 0.28836572 1.9920001
0.11762286 0.28836572 1.9920001
0.12068572 0.28662857 1.9800001
0.12445715 0.28662857 1.9800001
0.12822857 0.28662857 1.9800001
0.132 0.28662857 1.9800001
0.13501714 0.28503621 1.9690001
0.13876763 0.28503621 1.9690001
0.1425181 0.28503621 1.9690001
0.14626858 0.28503621 1.9690001
0.15001905 0.28503621 1.9690001
0.15376952 0.28503621 1.9690001
0.15752001 0.28503621 1.9690001
0.16127048 0.28503621 1.9690001
0.16409905 0.28344381 1.9580001
0.16877143 0.28503621 1.9690001
0.1715581 0.28344381 1.9580001
0.17528762 0.28344381 1.9580001
0.17901716 0.28344381 1.9580001
0.18274668 0.28344381 1.9580001
0.1864762 0.28344381 1.9580001
0.19020572 0.28344381 1.9580001
0.19393525 0.28344381 1.9580001
0.19766477 0.28344381 1.9580001
0.20139429 0.28344381 1.9580001
0.20512381 0.28344381 1.9580001
0.20885333 0.28344381 1.9580001
0.21258287 0.28344381 1.9580001
0.21631239 0.28344381 1.9580001
0.22004192 0.28344381 1.9580001
0.22377144 0.28344381 1.9580001
0.22622287 0.28185144 1.9470001
0.22993144 0.28185144 1.9470001
0.23364002 0.28185144 1.9470001
0.23734859 0.28185144 1.9470001
0.24105716 0.28185144 1.9470001
0.24476573 0.28185144 1.9470001
0.2484743 0.28185144 1.9470001
0.25218287 0.28185144 1.9470001
0.25589144 0.28185144 1.9470001
0.25960001 0.28185144 1.9470001
0.26330858 0.28185144 1.9470001
0.26550859 0.28025907 1.9360001
0.27072573 0.28185144 1.9470001
0.27288383 0.28025907 1.9360001
0.27657145 0.28025907 1.9360001
0.27866668 0.27866668 1.9250001
0.28233334 0.27866668 1.9250001
0.28600001 0.27866668 1.9250001
0.28966668 0.27866668 1.9250001
0.29500952 0.28025907 1.9360001
0.29869714 0.28025907 1.9360001
0.30238476 0.28025907 1.9360001
0.30607238 0.28025907 1.9360001
0.308 0.27866668 1.9250001
0.31166667 0.27866668 1.9250001
0.31533334 0.27866668 1.9250001
0.31900001 0.27866668 1.9250001
0.32266667 0.27866668 1.9250001
0.3246381 0.27721906 1.9150001
0.32828572 0.27721906 1.9150001
0.33193335 0.27721906 1.9150001
0.33558097 0.27721906 1.9150001
0.33922857 0.27721906 1.9150001
0.3428762 0.27721906 1.9150001
0.34652382 0.27721906 1.9150001
0.34816 0.27562669 1.904
0.35178667 0.27562669 1.904
0.35541335 0.27562669 1.904
0.35904002 0.27562669 1.904
0.36266667 0.27562669 1.904
0.36436954 0.27417907 1.8940001
0.36797714 0.27417907 1.8940001
0.37158477 0.27417907 1.8940001
0.3751924 0.27417907 1.8940001
0.3788 0.27417907 1.8940001
0.38240764 0.27417907 1.8940001
0.38377336 0.27258667 1.8830001
0.38736001 0.27258667 1.8830001
0.39094669 0.27258667 1.8830001
0.39243811 0.27113906 1.8730001
0.39600572 0.27113906 1.8730001
0.39957336 0.27113906 1.8730001
0.40314096 0.27113906 1.8730001
0.4067086 0.27113906 1.8730001
0.4102762 0.27113906 1.8730001
0.41605335 0.27258667 1.8830001
0.41964 0.27258667 1.8830001
0.42322668 0.27258667 1.8830001
0.42681333 0.27258667 1.8830001
0.43040001 0.27258667 1.8830001
0.43398669 0.27258667 1.8830001
0.43757334 0.27258667 1.8830001
0.44116002 0.27258667 1.8830001
0.44238478 0.27113906 1.8730001
0.44595239 0.27113906 1.8730001
0.44952002 0.27113906 1.8730001
0.45308763 0.27113906 1.8730001
0.45665526 0.27113906 1.8730001
0.46022287 0.27113906 1.8730001
0.46379051 0.27113906 1.8730001
0.46486288 0.26969144 1.863
0.46841145 0.26969144 1.863
0.47196001 0.26969144 1.863
0.4755086 0.26969144 1.863
0.47905716 0.26969144 1.863
0.48260573 0.26969144 1.863
0.48354477 0.26824382 1.853
0.48707432 0.26824382 1.853
0.49060383 0.26824382 1.853
0.49413335 0.26824382 1.853
0.49766287 0.26824382 1.853
0.49848765 0.2667962 1.8430001
0.50199813 0.2667962 1.8430001
0.5055086 0.2667962 1.8430001
0.50901908 0.2667962 1.8430001
0.51252955 0.2667962 1.8430001
0.51604003 0.2667962 1.8430001
0.51673144 0.26534858 1.8330001
0.5202229 0.26534858 1.8330001
0.5237143 0.26534858 1.8330001
0.52461714 0.26404572 1.8240001
0.52809143 0.26404572 1.8240001
0.53156573 0.26404572 1.8240001
0.53504002 0.26404572 1.8240001
0.53851432 0.26404572 1.8240001
0.54198861 0.26404572 1.8240001
0.54546291 0.26404572 1.8240001
0.54893714 0.26404572 1.8240001
0.55241144 0.26404572 1.8240001
0.55588573 0.26404572 1.8240001
0.55629337 0.2625981 1.8140001
0.56283432 0.26404572 1.8240001
0.56320381 0.2625981 1.8140001
0.56978285 0.26404572 1.8240001
0.57011431 0.2625981 1.8140001
0.57356954 0.2625981 1.8140001
0.57702476 0.2625981 1.8140001
0.58048004 0.2625981 1.8140001
0.58393526 0.2625981 1.8140001
0.58739048 0.2625981 1.8140001
0.59084576 0.2625981 1.8140001
0.59430099 0.2625981 1.8140001
0.59775621 0.2625981 1.8140001
0.60452574 0.26404572 1.8240001
0.60800004 0.26404572 1.8240001
0.60812193 0.2625981 1.8140001
0.61157715 0.2625981 1.8140001
0.61503237 0.2625981 1.8140001
0.61848766 0.2625981 1.8140001
0.62194288 0.2625981 1.8140001
0.6253981 0.2625981 1.8140001
0.63232005 0.26404572 1.8240001
0.63579428 0.26404572 1.8240001
0.63926858 0.26404572 1.8240001
0.64274287 0.26404572 1.8240001
0.64621717 0.26404572 1.8240001
0.64969146 0.26404572 1.8240001
0.65316576 0.26404572 1.8240001
0.65664005 0.26404572 1.8240001
0.66011429 0.26404572 1.8240001
0.66358858 0.26404572 1.8240001
0.66706288 0.26404572 1.8240001
0.67053717 0.26404572 1.8240001
0.67401147 0.26404572 1.8240001
0.67377144 0.2625981 1.8140001
0.67722666 0.2625981 1.8140001
0.68068194 0.2625981 1.8140001
0.68413717 0.2625981 1.8140001
0.68759239 0.2625981 1.8140001
0.6872381 0.26115048 1.8040001
0.6906743 0.26115048 1.8040001
0.69795811 0.2625981 1.8140001
0.70141333 0.2625981 1.8140001
0.70098287 0.26115048 1.8040001
0.70441908 0.26115048 1.8040001
0.70785528 0.26115048 1.8040001
0.71129143 0.26115048 1.8040001
0.71868956 0.2625981 1.8140001
0.72214478 0.2625981 1.8140001
-1.0154934 0.34598669 2.3590002
-1.011 0.34598669 2.3590002
-1.0065067 0.34598669 2.3590002
-1.0092343 0.34848002 2.3760002
-0.99752003 0.34598669 2.3590002
-0.99302667 0.34598669 2.3590002
-0.98853338 0.34598669 2.3590002
-0.97736573 0.34364 2.3430002
-0.97290289 0.34364 2.3430002
-0.96844006 0.34364 2.3430002
-0.97056001 0.34598669 2.3590002
-0.95951432 0.34364 2.3430002
-0.95505148 0.34364 2.3430002
-0.95058858 0.34364 2.3430002
-0.94612575 0.34364 2.3430002
-0.94166291 0.34364 2.3430002
-0.94360006 0.34598669 2.3590002
-0.9391067 0.34598669 2.3590002
-0.92827433 0.34364 2.3430002
-0.93012005 0.34598669 2.3590002
-0.9193486 0.34364 2.3430002
-0.91488576 0.34364 2.3430002
-0.91042286 0.34364 2.3430002
-0.90596002 0.34364 2.3430002
-0.90149719 0.34364 2.3430002
-0.8909086 0.34129333 2.3270001
-0.88647622 0.34129333 2.3270001
-0.88204384 0.34129333 2.3270001
-0.87761146 0.34129333 2.3270001
-0.87317908 0.34129333 2.3270001
-0.8687467 0.34129333 2.3270001
-0.85874289 0.33909336 2.312
-0.85988194 0.34129333 2.3270001
-0.85544956 0.34129333 2.3270001
-0.85101718 0.34129333 2.3270001
-0.84112763 0.33909336 2.312
-0.83672386 0.33909336 2.312
-0.83232003 0.33909336 2.312
-0.8279162 0.33909336 2.312
-0.82351243 0.33909336 2.312
-0.81910861 0.33909336 2.312
-0.8094191 0.33689335 2.2970002
-0.80504382 0.33689335 2.2970002
-0.8006686 0.33689335 2.2970002
-0.79629338 0.33689335 2.2970002
-0.7919181 0.33689335 2.2970002
-0.78754288 0.33689335 2.2970002
-0.78316766 0.33689335 2.2970002
-0.77879238 0.33689335 2.2970002
-0.76902288 0.33454669 2.2810001
-0.76467812 0.33454669 2.2810001
-0.76033336 0.33454669 2.2810001
-0.7559886 0.33454669 2.2810001
-0.75164384 0.33454669 2.2810001
-0.74729908 0.33454669 2.2810001
-0.74295431 0.33454669 2.2810001
-0.73860955 0.33454669 2.2810001
-0.73426479 0.33454669 2.2810001
-0.72992003 0.33454669 2.2810001
-0.72557527 0.33454669 2.2810001
-0.71648765 0.33234668 2.266
-0.71217144 0.33234668 2.266
-0.70348191 0.33029336 2.2520001
-0.6991924 0.33029336 2.2520001
-0.6949029 0.33029336 2.2520001
-0.69061333 0.33029336 2.2520001
-0.68175238 0.32809335 2.237
-0.67749143 0.32809335 2.237
-0.67323053 0.32809335 2.237
-0.66896957 0.32809335 2.237
-0.66916573 0.33029336 2.2520001
-0.66487622 0.33029336 2.2520001
-0.6561867 0.32809335 2.237
-0.65192574 0.32809335 2.237
-0.64361143 0.32604 2.223
-0.63937718 0.32604 2.223
-0.63514286 0.32604 2.223
-0.63090861 0.32604 2.223
-0.62667429 0.32604 2.223
-0.62244004 0.32604 2.223
-0.61820573 0.32604 2.223
-0.61397147 0.32604 2.223
-0.60973716 0.32604 2.223
-0.6055029 0.32604 2.223
-0.60126859 0.32604 2.223
-0.59300572 0.32384002 2.2080002
-0.58880001 0.32384002 2.2080002
-0.58459431 0.32384002 2.2080002
-0.58038861 0.32384002 2.2080002
-0.5761829 0.32384002 2.2080002
-0.57197714 0.32384002 2.2080002
-0.56777143 0.32384002 2.2080002
-0.56356573 0.32384002 2.2080002
-0.55936003 0.32384002 2.2080002
-0.55515432 0.32384002 2.2080002
-0.55094862 0.32384002 2.2080002
-0.54674286 0.32384002 2.2080002
-0.54253715 0.32384002 2.2080002
-0.53833145 0.32384002 2.2080002
-0.53412575 0.32384002 2.2080002
-0.52992004 0.32384002 2.2080002
-0.52238095 0.32178667 2.194
-0.51820195 0.32178667 2.194
-0.51402289 0.32178667 2.194
-0.50682288 0.31988001 2.181
-0.50266862 0.31988001 2.181
-0.49851429 0.31988001 2.181
-0.49730667 0.32178667 2.194
-0.49312764 0.32178667 2.194
-0.48605144 0.31988001 2.181
-0.48189718 0.31988001 2.181
-0.47774288 0.31988001 2.181
-0.47358859 0.31988001 2.181
-0.46943429 0.31988001 2.181
-0.46229336 0.31782669 2.1670001
-0.45816574 0.31782669 2.1670001
-0.45403811 0.31782669 2.1670001
-0.44991049 0.31782669 2.1670001
-0.44578287 0.31782669 2.1670001
-0.44165525 0.31782669 2.1670001
-0.43752763 0.31782669 2.1670001
-0.43340001 0.31782669 2.1670001
-0.42927238 0.31782669 2.1670001
-0.42514479 0.31782669 2.1670001
-0.41829717 0.31577334 2.1530001
-0.41419619 0.31577334 2.1530001
-0.41276193 0.31782669 2.1670001
-0.4059943 0.31577334 2.1530001
-0.40450668 0.31782669 2.1670001
-0.40037906 0.31782669 2.1670001
-0.39625144 0.31782669 2.1670001
-0.39212382 0.31782669 2.1670001
-0.3879962 0.31782669 2.1670001
-0.38634858 0.31988001 2.181
-0.37974095 0.31782669 2.1670001
-0.37561336 0.31782669 2.1670001
-0.37148574 0.31782669 2.1670001
-0.36735812 0.31782669 2.1670001
-0.3632305 0.31782669 2.1670001
-0.35678288 0.31577334 2.1530001
-0.35268191 0.31577334 2.1530001
-0.34858096 0.31577334 2.1530001
-0.34448001 0.31577334 2.1530001
-0.33832383 0.31386667 2.1400001
-0.33424762 0.31386667 2.1400001
-0.33017144 0.31386667 2.1400001
-0.32609525 0.31386667 2.1400001
-0.32201907 0.31386667 2.1400001
-0.31601143 0.31196001 2.1270001
-0.31386667 0.31386667 2.1400001
-0.30790859 0.31196001 2.1270001
-0.30385715 0.31196001 2.1270001
-0.29980573 0.31196001 2.1270001
-0.29575428 0.31196001 2.1270001
-0.29170287 0.31196001 2.1270001
-0.28589335 0.31005335 2.1140001
-0.28186667 0.31005335 2.1140001
-0.27613145 0.30814669 2.1010001
-0.27381334 0.31005335 2.1140001
-0.26812762 0.30814669 2.1010001
-0.26412573 0.30814669 2.1010001
-0.26173335 0.31005335 2.1140001
-0.25770667 0.31005335 2.1140001
-0.25368002 0.31005335 2.1140001
-0.24965334 0.31005335 2.1140001
-0.2441162 0.30814669 2.1010001
-0.24160001 0.31005335 2.1140001
-0.23611239 0.30814669 2.1010001
-0.23211049 0.30814669 2.1010001
-0.22810858 0.30814669 2.1010001
-0.22410667 0.30814669 2.1010001
-0.22010477 0.30814669 2.1010001
-0.21744001 0.31005335 2.1140001
-0.21341334 0.31005335 2.1140001
-0.20809905 0.30814669 2.1010001
-0.20409715 0.30814669 2.1010001
-0.20133334 0.31005335 2.1140001
-0.19730668 0.31005335 2.1140001
-0.19209144 0.30814669 2.1010001
-0.18808953 0.30814669 2.1010001
-0.18408762 0.30814669 2.1010001
-0.18008572 0.30814669 2.1010001
-0.17608382 0.30814669 2.1010001
-0.17208192 0.30814669 2.1010001
-0.16704001 0.30624002 2.0880001
-0.16306287 0.30624002 2.0880001
-0.15908572 0.30624002 2.0880001
-0.15421715 0.30448002 2.0760002
-0.15113144 0.30624002 2.0880001
-0.14539239 0.30257335 2.0630002
-0.14235429 0.30448002 2.0760002
-0.1384 0.30448002 2.0760002
-0.13444571 0.30448002 2.0760002
-0.13049144 0.30448002 2.0760002
-0.12653714 0.30448002 2.0760002
-0.12258286 0.30448002 2.0760002
-0.11788572 0.30257335 2.0630002
-0.1139562 0.30257335 2.0630002
-0.11002667 0.30257335 2.0630002
-0.10609715 0.30257335 2.0630002
-0.10216762 0.30257335 2.0630002
-0.098238096 0.30257335 2.0630002
-0.094308577 0.30257335 2.0630002
-0.090379052 0.30257335 2.0630002
-0.086449526 0.30257335 2.0630002
-0.082520001 0.30257335 2.0630002
-0.078590482 0.30257335 2.0630002
-0.074660957 0.30257335 2.0630002
-0.070731431 0.30257335 2.0630002
-0.066801906 0.30257335 2.0630002
-0.06287238 0.30257335 2.0630002
-0.058942858 0.30257335 2.0630002
-0.055013336 0.30257335 2.0630002
-0.05078667 0.30081335 2.0510001
-0.046880003 0.30081335 2.0510001
-0.042973336 0.30081335 2.0510001
-0.039066669 0.30081335 2.0510001
-0.035160001 0.30081335 2.0510001
-0.031070478 0.29905334 2.039
-0.027026668 0.29729334 2.0270002
-0.023165716 0.29729334 2.0270002
-0.019304764 0.29729334 2.0270002
-0.015352381 0.29553336 2.0150001
-0.011514287 0.29553336 2.0150001
-0.0076761907 0.29553336 2.0150001
-0.0038380953 0.29553336 2.0150001
0 0.29553336 2.0150001
0.0038609526 0.29729334 2.0270002
0.0077219051 0.29729334 2.0270002
0.011582858 0.29729334 2.0270002
0.01544381 0.29729334 2.0270002
0.019304764 0.29729334 2.0270002
0.023165716 0.29729334 2.0270002
0.026866667 0.29553336 2.0150001
0.030521905 0.29377335 2.003
0.034542859 0.29553336 2.0150001
0.038152382 0.29377335 2.003
0.041967619 0.29377335 2.003
0.04578286 0.29377335 2.003
0.049598098 0.29377335 2.003
