# .PCD v0.7 - Point Cloud Data file format
VERSION 0.7
FIELDS x y z
SIZE 4 4 4
TYPE F F F
COUNT 1 1 1
WIDTH 1521
HEIGHT 1
VIEWPOINT 0 0 0 1 0 0 0
POINTS 1521
DATA ascii
-0.29845715 0.20892 1.7410001
-0.29666668 0.21000001 1.7500001
-0.29031619 0.20784001 1.7320001
-0.28552574 0.20676 1.723
-0.28093335 0.20580001 1.715
-0.27620953 0.20472001 1.7060001
-0.27296001 0.20472001 1.7060001
-0.26971048 0.20472001 1.7060001
-0.26646096 0.20472001 1.7060001
-0.26197717 0.20376001 1.6980001
-0.2575238 0.20280001 1.6900001
-0.25430477 0.20280001 1.6900001
-0.25108573 0.20280001 1.6900001
-0.24654667 0.20172001 1.6810001
-0.24218668 0.20076001 1.6730001
-0.23785715 0.19980001 1.6650001
-0.23468572 0.19980001 1.6650001
-0.23151429 0.19980001 1.6650001
-0.22834286 0.19980001 1.6650001
-0.22408953 0.19884001 1.6570001
-0.22093335 0.19884001 1.6570001
-0.21672572 0.19788 1.649
-0.21358477 0.19788 1.649
-0.21044382 0.19788 1.649
-0.20629714 0.19692001 1.641
-0.20230477 0.19608001 1.6340001
-0.20004572 0.19692001 1.641
-0.19608001 0.19608001 1.6340001
-0.19296762 0.19608001 1.6340001
-0.18985525 0.19608001 1.6340001
-0.18674286 0.19608001 1.6340001
-0.18363048 0.19608001 1.6340001
-0.18051811 0.19608001 1.6340001
-0.17740571 0.19608001 1.6340001
-0.17429334 0.19608001 1.6340001
-0.17118096 0.19608001 1.6340001
-0.16806857 0.19608001 1.6340001
-0.1649562 0.19608001 1.6340001
-0.16184382 0.19608001 1.6340001
-0.15873143 0.19608001 1.6340001
-0.15485714 0.19512001 1.626
-0.15101334 0.19416001 1.618
-0.14793143 0.19416001 1.618
-0.14484952 0.19416001 1.618
-0.14176762 0.19416001 1.618
-0.13868572 0.19416001 1.618
-0.13560382 0.19416001 1.618
-0.13252191 0.19416001 1.618
-0.12944001 0.19416001 1.618
-0.12581143 0.19332001 1.6110001
-0.12274286 0.19332001 1.6110001
-0.11967429 0.19332001 1.6110001
-0.11660572 0.19332001 1.6110001
-0.11353715 0.19332001 1.6110001
-0.11046857 0.19332001 1.6110001
-0.10740001 0.19332001 1.6110001
-0.10433143 0.19332001 1.6110001
-0.10076001 0.19236001 1.603
-0.098194286 0.19332001 1.6110001
-0.09512572 0.19332001 1.6110001
-0.091600001 0.19236001 1.603
-0.088546671 0.19236001 1.603
-0.085493334 0.19236001 1.603
-0.082440004 0.19236001 1.603
-0.079386666 0.19236001 1.603
-0.076333337 0.19236001 1.603
-0.072960004 0.19152001 1.5960001
-0.070226669 0.19236001 1.603
-0.067173339 0.19236001 1.603
-0.064120002 0.19236001 1.603
-0.061066668 0.19236001 1.603
-0.058013335 0.19236001 1.603
-0.054960001 0.19236001 1.603
-0.052165717 0.19332001 1.6110001
-0.049310479 0.19416001 1.618
-0.046228573 0.19416001 1.618
-0.042960003 0.19332001 1.6110001
-0.039891429 0.19332001 1.6110001
-0.036822859 0.19332001 1.6110001
-0.033754285 0.19332001 1.6110001
-0.030685715 0.19332001 1.6110001
-0.027480001 0.19236001 1.603
-0.024426667 0.19236001 1.603
-0.02128 0.19152001 1.5960001
-0.01832 0.19236001 1.603
-0.0152 0.19152001 1.5960001
-0.01216 0.19152001 1.5960001
-0.0091200005 0.19152001 1.5960001
-0.0060800002 0.19152001 1.5960001
-0.0030400001 0.19152001 1.5960001
0 0.19152001 1.5960001
0.0030400001 0.19152001 1.5960001
0.0060800002 0.19152001 1.5960001
0.0091200005 0.19152001 1.5960001
0.01216 0.19152001 1.5960001
0.015266667 0.19236001 1.603
0.01832 0.19236001 1.603
0.021373333 0.19236001 1.603
0.024548572 0.19332001 1.6110001
0.027617143 0.19332001 1.6110001
0.030533334 0.19236001 1.603
0.033754285 0.19332001 1.6110001
0.036822859 0.19332001 1.6110001
0.039891429 0.19332001 1.6110001
0.042746667 0.19236001 1.603
0.0458 0.19236001 1.603
0.048853334 0.19236001 1.603
0.051680002 0.19152001 1.5960001
0.054720003 0.19152001 1.5960001
0.057760004 0.19152001 1.5960001
0.060800001 0.19152001 1.5960001
0.063840002 0.19152001 1.5960001
0.066880003 0.19152001 1.5960001
0.069920003 0.19152001 1.5960001
0.072960004 0.19152001 1.5960001
0.076000005 0.19152001 1.5960001
0.079040006 0.19152001 1.5960001
0.082080007 0.19152001 1.5960001
0.08512 0.19152001 1.5960001
0.088160001 0.19152001 1.5960001
0.091200002 0.19152001 1.5960001
0.094653338 0.19236001 1.603
0.097706668 0.19236001 1.603
0.10076001 0.19236001 1.603
0.10433143 0.19332001 1.6110001
0.10740001 0.19332001 1.6110001
0.11094858 0.19416001 1.618
0.11403048 0.19416001 1.618
0.11711238 0.19416001 1.618
0.12019429 0.19416001 1.618
0.1232762 0.19416001 1.618
0.12635811 0.19416001 1.618
0.13008 0.19512001 1.626
0.13317715 0.19512001 1.626
0.13627429 0.19512001 1.626
0.13937144 0.19512001 1.626
0.14246857 0.19512001 1.626
0.14628191 0.19608001 1.6340001
0.14939429 0.19608001 1.6340001
0.15250668 0.19608001 1.6340001
0.15561906 0.19608001 1.6340001
0.15941143 0.19692001 1.641
0.16253714 0.19692001 1.641
0.16647048 0.19788 1.649
0.16961144 0.19788 1.649
0.17275238 0.19788 1.649
0.17674667 0.19884001 1.6570001
0.17903429 0.19788 1.649
0.18305905 0.19884001 1.6570001
0.18621525 0.19884001 1.6570001
0.19028573 0.19980001 1.6650001
0.19345716 0.19980001 1.6650001
0.19757333 0.20076001 1.6730001
0.20076001 0.20076001 1.6730001
0.20394668 0.20076001 1.6730001
0.20713334 0.20076001 1.6730001
0.21132572 0.20172001 1.6810001
0.2156762 0.20280001 1.6900001
0.21993144 0.20376001 1.6980001
0.22316572 0.20376001 1.6980001
0.22746667 0.20472001 1.7060001
0.2307162 0.20472001 1.7060001
0.23396572 0.20472001 1.7060001
-0.29031619 0.21113905 1.7320001
-0.28552574 0.21004191 1.723
-0.28093335 0.20906667 1.715
-0.27620953 0.20796953 1.7060001
-0.27168 0.2069943 1.6980001
-0.26971048 0.20796953 1.7060001
-0.26646096 0.20796953 1.7060001
-0.26321143 0.20796953 1.7060001
-0.25874287 0.2069943 1.6980001
-0.25430477 0.20601906 1.6900001
-0.25108573 0.20601906 1.6900001
-0.24654667 0.20492192 1.6810001
-0.24218668 0.20394668 1.6730001
-0.23900001 0.20394668 1.6730001
-0.23468572 0.20297143 1.6650001
-0.23151429 0.20297143 1.6650001
-0.22834286 0.20297143 1.6650001
-0.22408953 0.20199619 1.6570001
-0.22093335 0.20199619 1.6570001
-0.21777715 0.20199619 1.6570001
-0.21358477 0.20102096 1.649
-0.21044382 0.20102096 1.649
-0.20629714 0.20004572 1.641
-0.20317143 0.20004572 1.641
-0.20004572 0.20004572 1.641
-0.19692001 0.20004572 1.641
-0.1937943 0.20004572 1.641
-0.19066858 0.20004572 1.641
-0.18674286 0.19919239 1.6340001
-0.18363048 0.19919239 1.6340001
-0.18051811 0.19919239 1.6340001
-0.17740571 0.19919239 1.6340001
-0.17429334 0.19919239 1.6340001
-0.17118096 0.19919239 1.6340001
-0.16806857 0.19919239 1.6340001
-0.1649562 0.19919239 1.6340001
-0.16184382 0.19919239 1.6340001
-0.15795429 0.19821715 1.626
-0.15485714 0.19821715 1.626
-0.15101334 0.19724192 1.618
-0.14793143 0.19724192 1.618
-0.14484952 0.19724192 1.618
-0.14115429 0.19638857 1.6110001
-0.13808572 0.19638857 1.6110001
-0.13560382 0.19724192 1.618
-0.13194858 0.19638857 1.6110001
-0.12888001 0.19638857 1.6110001
-0.12581143 0.19638857 1.6110001
-0.12274286 0.19638857 1.6110001
-0.11967429 0.19638857 1.6110001
-0.11602667 0.19541334 1.603
-0.11297334 0.19541334 1.603
-0.10992 0.19541334 1.603
-0.10686667 0.19541334 1.603
-0.10381334 0.19541334 1.603
-0.10076001 0.19541334 1.603
-0.097706668 0.19541334 1.603
-0.094653338 0.19541334 1.603
-0.091600001 0.19541334 1.603
-0.088546671 0.19541334 1.603
-0.085493334 0.19541334 1.603
-0.082440004 0.19541334 1.603
-0.079386666 0.19541334 1.603
-0.076333337 0.19541334 1.603
-0.072960004 0.19456001 1.5960001
-0.069920003 0.19456001 1.5960001
-0.066880003 0.19456001 1.5960001
-0.063840002 0.19456001 1.5960001
-0.060800001 0.19456001 1.5960001
-0.058013335 0.19541334 1.603
-0.054960001 0.19541334 1.603
-0.051906668 0.19541334 1.603
-0.048853334 0.19541334 1.603
-0.0458 0.19541334 1.603
-0.042746667 0.19541334 1.603
-0.039693333 0.19541334 1.603
-0.036480002 0.19456001 1.5960001
-0.033440001 0.19456001 1.5960001
-0.030400001 0.19456001 1.5960001
-0.027240001 0.19370668 1.5890001
-0.024213335 0.19370668 1.5890001
-0.021186667 0.19370668 1.5890001
-0.01816 0.19370668 1.5890001
-0.015133334 0.19370668 1.5890001
-0.012106667 0.19370668 1.5890001
-0.0090800002 0.19370668 1.5890001
-0.0060533336 0.19370668 1.5890001
-0.0030266668 0.19370668 1.5890001
0 0.19370668 1.5890001
0.0030266668 0.19370668 1.5890001
0.0060800002 0.19456001 1.5960001
0.0090800002 0.19370668 1.5890001
0.01216 0.19456001 1.5960001
0.0152 0.19456001 1.5960001
0.018240001 0.19456001 1.5960001
0.02128 0.19456001 1.5960001
0.024320001 0.19456001 1.5960001
0.027360002 0.19456001 1.5960001
0.030400001 0.19456001 1.5960001
0.033440001 0.19456001 1.5960001
0.03664 0.19541334 1.603
0.039693333 0.19541334 1.603
0.042746667 0.19541334 1.603
0.045600001 0.19456001 1.5960001
0.048640002 0.19456001 1.5960001
0.051680002 0.19456001 1.5960001
0.054720003 0.19456001 1.5960001
0.057760004 0.19456001 1.5960001
0.060533337 0.19370668 1.5890001
0.063560002 0.19370668 1.5890001
0.066880003 0.19456001 1.5960001
0.069920003 0.19456001 1.5960001
0.072960004 0.19456001 1.5960001
0.076000005 0.19456001 1.5960001
0.079040006 0.19456001 1.5960001
0.082080007 0.19456001 1.5960001
0.08512 0.19456001 1.5960001
0.088546671 0.19541334 1.603
0.091600001 0.19541334 1.603
0.094653338 0.19541334 1.603
0.097706668 0.19541334 1.603
0.10126286 0.19638857 1.6110001
0.10433143 0.19638857 1.6110001
0.10740001 0.19638857 1.6110001
0.11094858 0.19724192 1.618
0.11403048 0.19724192 1.618
0.11711238 0.19724192 1.618
0.12019429 0.19724192 1.618
0.1232762 0.19724192 1.618
0.12698287 0.19821715 1.626
0.13008 0.19821715 1.626
0.13317715 0.19821715 1.626
0.13627429 0.19821715 1.626
0.13937144 0.19821715 1.626
0.14246857 0.19821715 1.626
0.14556572 0.19821715 1.626
0.14866287 0.19821715 1.626
0.15250668 0.19919239 1.6340001
0.15561906 0.19919239 1.6340001
0.15941143 0.20004572 1.641
0.16253714 0.20004572 1.641
0.16647048 0.20102096 1.649
0.16961144 0.20102096 1.649
0.17275238 0.20102096 1.649
0.17589334 0.20102096 1.649
0.17903429 0.20102096 1.649
0.18305905 0.20199619 1.6570001
0.18621525 0.20199619 1.6570001
0.19028573 0.20297143 1.6650001
0.19252762 0.20199619 1.6570001
0.19662859 0.20297143 1.6650001
0.20076001 0.20394668 1.6730001
0.20297143 0.20297143 1.6650001
0.20614286 0.20297143 1.6650001
0.20931429 0.20297143 1.6650001
0.2156762 0.20601906 1.6900001
0.21993144 0.2069943 1.6980001
0.22316572 0.2069943 1.6980001
-0.27945906 0.21121906 1.7060001
-0.27620953 0.21121906 1.7060001
-0.27296001 0.21121906 1.7060001
-0.26971048 0.21121906 1.7060001
-0.26646096 0.21121906 1.7060001
-0.26321143 0.21121906 1.7060001
-0.25874287 0.21022858 1.6980001
-0.25430477 0.2092381 1.6900001
-0.25108573 0.2092381 1.6900001
-0.24654667 0.20812382 1.6810001
-0.24334477 0.20812382 1.6810001
-0.23900001 0.20713334 1.6730001
-0.23581333 0.20713334 1.6730001
-0.23151429 0.20614286 1.6650001
-0.22834286 0.20614286 1.6650001
-0.22517143 0.20614286 1.6650001
-0.22093335 0.20515239 1.6570001
-0.21777715 0.20515239 1.6570001
-0.21358477 0.20416191 1.649
-0.21044382 0.20416191 1.649
-0.20629714 0.20317143 1.641
-0.20317143 0.20317143 1.641
-0.20004572 0.20317143 1.641
-0.19692001 0.20317143 1.641
-0.1937943 0.20317143 1.641
-0.19066858 0.20317143 1.641
-0.18674286 0.20230477 1.6340001
-0.18363048 0.20230477 1.6340001
-0.18051811 0.20230477 1.6340001
-0.17740571 0.20230477 1.6340001
-0.17429334 0.20230477 1.6340001
-0.17118096 0.20230477 1.6340001
-0.16806857 0.20230477 1.6340001
-0.16414858 0.2013143 1.626
-0.16105144 0.2013143 1.626
-0.15795429 0.2013143 1.626
-0.15485714 0.2013143 1.626
-0.15101334 0.20032382 1.618
-0.14793143 0.20032382 1.618
-0.14422286 0.19945715 1.6110001
-0.14115429 0.19945715 1.6110001
-0.13808572 0.19945715 1.6110001
-0.13501714 0.19945715 1.6110001
-0.13194858 0.19945715 1.6110001
-0.12888001 0.19945715 1.6110001
-0.12518667 0.19846667 1.603
-0.12213334 0.19846667 1.603
-0.11908001 0.19846667 1.603
-0.11602667 0.19846667 1.603
-0.11297334 0.19846667 1.603
-0.10992 0.19846667 1.603
-0.10686667 0.19846667 1.603
-0.10381334 0.19846667 1.603
-0.10076001 0.19846667 1.603
-0.097706668 0.19846667 1.603
-0.094653338 0.19846667 1.603
-0.091600001 0.19846667 1.603
-0.088546671 0.19846667 1.603
-0.085493334 0.19846667 1.603
-0.082080007 0.19760001 1.5960001
-0.079040006 0.19760001 1.5960001
-0.076000005 0.19760001 1.5960001
-0.072960004 0.19760001 1.5960001
-0.069920003 0.19760001 1.5960001
-0.066880003 0.19760001 1.5960001
-0.063840002 0.19760001 1.5960001
-0.060800001 0.19760001 1.5960001
-0.057760004 0.19760001 1.5960001
-0.054720003 0.19760001 1.5960001
-0.051680002 0.19760001 1.5960001
-0.048640002 0.19760001 1.5960001
-0.045600001 0.19760001 1.5960001
-0.04256 0.19760001 1.5960001
-0.039520003 0.19760001 1.5960001
-0.036320001 0.19673334 1.5890001
-0.033293333 0.19673334 1.5890001
-0.030266669 0.19673334 1.5890001
-0.027102858 0.19574286 1.5810001
-0.02409143 0.19574286 1.5810001
-0.02108 0.19574286 1.5810001
-0.018068573 0.19574286 1.5810001
-0.015057144 0.19574286 1.5810001
-0.012106667 0.19673334 1.5890001
-0.0090800002 0.19673334 1.5890001
-0.0060533336 0.19673334 1.5890001
-0.0030266668 0.19673334 1.5890001
0 0.19574286 1.5810001
0.0030266668 0.19673334 1.5890001
0.0060533336 0.19673334 1.5890001
0.0090800002 0.19673334 1.5890001
0.012106667 0.19673334 1.5890001
0.015133334 0.19673334 1.5890001
0.018068573 0.19574286 1.5810001
0.02108 0.19574286 1.5810001
0.02409143 0.19574286 1.5810001
0.027102858 0.19574286 1.5810001
0.030266669 0.19673334 1.5890001
0.033293333 0.19673334 1.5890001
0.036320001 0.19673334 1.5890001
0.039346669 0.19673334 1.5890001
0.042373333 0.19673334 1.5890001
0.045400001 0.19673334 1.5890001
0.048426669 0.19673334 1.5890001
0.051453337 0.19673334 1.5890001
0.054480001 0.19673334 1.5890001
0.057506669 0.19673334 1.5890001
0.060533337 0.19673334 1.5890001
0.063560002 0.19673334 1.5890001
0.066586666 0.19673334 1.5890001
0.069613338 0.19673334 1.5890001
0.072960004 0.19760001 1.5960001
0.076000005 0.19760001 1.5960001
0.079040006 0.19760001 1.5960001
0.082080007 0.19760001 1.5960001
0.08512 0.19760001 1.5960001
0.088160001 0.19760001 1.5960001
0.091200002 0.19760001 1.5960001
0.094653338 0.19846667 1.603
0.097706668 0.19846667 1.603
0.10126286 0.19945715 1.6110001
0.10433143 0.19945715 1.6110001
0.10740001 0.19945715 1.6110001
0.11094858 0.20032382 1.618
0.11403048 0.20032382 1.618
0.11711238 0.20032382 1.618
0.12019429 0.20032382 1.618
0.1232762 0.20032382 1.618
0.12698287 0.2013143 1.626
0.13008 0.2013143 1.626
0.13317715 0.2013143 1.626
0.13627429 0.2013143 1.626
0.13937144 0.2013143 1.626
0.14246857 0.2013143 1.626
0.14556572 0.2013143 1.626
0.14866287 0.2013143 1.626
0.15250668 0.20230477 1.6340001
0.15561906 0.20230477 1.6340001
0.15941143 0.20317143 1.641
0.16253714 0.20317143 1.641
0.16647048 0.20416191 1.649
0.16961144 0.20416191 1.649
0.17275238 0.20416191 1.649
0.17674667 0.20515239 1.6570001
0.17990287 0.20515239 1.6570001
0.18305905 0.20515239 1.6570001
0.18621525 0.20515239 1.6570001
0.19028573 0.20614286 1.6650001
0.19345716 0.20614286 1.6650001
0.19757333 0.20713334 1.6730001
0.20076001 0.20713334 1.6730001
0.20394668 0.20713334 1.6730001
0.20713334 0.20713334 1.6730001
0.21032001 0.20713334 1.6730001
-0.27945906 0.21446858 1.7060001
-0.27620953 0.21446858 1.7060001
-0.27296001 0.21446858 1.7060001
-0.26971048 0.21446858 1.7060001
-0.26646096 0.21446858 1.7060001
-0.26321143 0.21446858 1.7060001
-0.25874287 0.21346286 1.6980001
-0.25430477 0.21245715 1.6900001
-0.25108573 0.21245715 1.6900001
-0.24654667 0.21132572 1.6810001
-0.24218668 0.21032001 1.6730001
-0.23785715 0.20931429 1.6650001
-0.23468572 0.20931429 1.6650001
-0.23151429 0.20931429 1.6650001
-0.22834286 0.20931429 1.6650001
-0.22517143 0.20931429 1.6650001
-0.22093335 0.20830858 1.6570001
-0.21777715 0.20830858 1.6570001
-0.21462096 0.20830858 1.6570001
-0.21044382 0.20730287 1.649
-0.20730287 0.20730287 1.649
-0.20317143 0.20629714 1.641
-0.20004572 0.20629714 1.641
-0.19692001 0.20629714 1.641
-0.1937943 0.20629714 1.641
-0.19066858 0.20629714 1.641
-0.18674286 0.20541716 1.6340001
-0.18363048 0.20541716 1.6340001
-0.18051811 0.20541716 1.6340001
-0.17740571 0.20541716 1.6340001
-0.17429334 0.20541716 1.6340001
-0.17118096 0.20541716 1.6340001
-0.16724572 0.20441143 1.626
-0.16414858 0.20441143 1.626
-0.16105144 0.20441143 1.626
-0.15795429 0.20441143 1.626
-0.15485714 0.20441143 1.626
-0.15101334 0.20340572 1.618
-0.14793143 0.20340572 1.618
-0.14422286 0.20252572 1.6110001
-0.14115429 0.20252572 1.6110001
-0.13808572 0.20252572 1.6110001
-0.13501714 0.20252572 1.6110001
-0.13194858 0.20252572 1.6110001
-0.12824 0.20152001 1.603
-0.12518667 0.20152001 1.603
-0.12213334 0.20152001 1.603
-0.11908001 0.20152001 1.603
-0.11602667 0.20152001 1.603
-0.11297334 0.20152001 1.603
-0.10992 0.20152001 1.603
-0.10686667 0.20152001 1.603
-0.10381334 0.20152001 1.603
-0.10076001 0.20152001 1.603
-0.097706668 0.20152001 1.603
-0.094240002 0.20064001 1.5960001
-0.091200002 0.20064001 1.5960001
-0.088160001 0.20064001 1.5960001
-0.08512 0.20064001 1.5960001
-0.082080007 0.20064001 1.5960001
-0.079040006 0.20064001 1.5960001
-0.076000005 0.20064001 1.5960001
-0.072960004 0.20064001 1.5960001
-0.069920003 0.20064001 1.5960001
-0.066880003 0.20064001 1.5960001
-0.063840002 0.20064001 1.5960001
-0.060800001 0.20064001 1.5960001
-0.057760004 0.20064001 1.5960001
-0.054720003 0.20064001 1.5960001
-0.051680002 0.20064001 1.5960001
-0.048640002 0.20064001 1.5960001
-0.045600001 0.20064001 1.5960001
-0.04256 0.20064001 1.5960001
-0.039346669 0.19976 1.5890001
-0.036320001 0.19976 1.5890001
-0.033293333 0.19976 1.5890001
-0.030114288 0.1987543 1.5810001
-0.026982859 0.19787429 1.5740001
-0.023984762 0.19787429 1.5740001
-0.020986667 0.19787429 1.5740001
-0.017988572 0.19787429 1.5740001
-0.014990477 0.19787429 1.5740001
-0.012045715 0.1987543 1.5810001
-0.0090342863 0.1987543 1.5810001
-0.0060228575 0.1987543 1.5810001
-0.0030114288 0.1987543 1.5810001
0 0.1987543 1.5810001
0.0030114288 0.1987543 1.5810001
0.0060228575 0.1987543 1.5810001
0.0090342863 0.1987543 1.5810001
0.012045715 0.1987543 1.5810001
0.015057144 0.1987543 1.5810001
0.017988572 0.19787429 1.5740001
0.02108 0.1987543 1.5810001
0.02409143 0.1987543 1.5810001
0.027240001 0.19976 1.5890001
0.030266669 0.19976 1.5890001
0.033293333 0.19976 1.5890001
0.036320001 0.19976 1.5890001
0.039346669 0.19976 1.5890001
0.042373333 0.19976 1.5890001
0.045400001 0.19976 1.5890001
0.048426669 0.19976 1.5890001
0.051453337 0.19976 1.5890001
0.054480001 0.19976 1.5890001
0.057506669 0.19976 1.5890001
0.060533337 0.19976 1.5890001
0.063560002 0.19976 1.5890001
0.066586666 0.19976 1.5890001
0.069613338 0.19976 1.5890001
0.072960004 0.20064001 1.5960001
0.076000005 0.20064001 1.5960001
0.079040006 0.20064001 1.5960001
0.082080007 0.20064001 1.5960001
0.08512 0.20064001 1.5960001
0.088160001 0.20064001 1.5960001
0.091200002 0.20064001 1.5960001
0.094653338 0.20152001 1.603
0.097706668 0.20152001 1.603
0.10126286 0.20252572 1.6110001
0.10433143 0.20252572 1.6110001
0.10740001 0.20252572 1.6110001
0.11094858 0.20340572 1.618
0.11403048 0.20340572 1.618
0.11711238 0.20340572 1.618
0.12019429 0.20340572 1.618
0.1232762 0.20340572 1.618
0.12635811 0.20340572 1.618
0.13008 0.20441143 1.626
0.13317715 0.20441143 1.626
0.13627429 0.20441143 1.626
0.13937144 0.20441143 1.626
0.14246857 0.20441143 1.626
0.14556572 0.20441143 1.626
0.14866287 0.20441143 1.626
0.15176001 0.20441143 1.626
0.15561906 0.20541716 1.6340001
0.15941143 0.20629714 1.641
0.16253714 0.20629714 1.641
0.16647048 0.20730287 1.649
0.16961144 0.20730287 1.649
0.17359048 0.20830858 1.6570001
0.17674667 0.20830858 1.6570001
0.17990287 0.20830858 1.6570001
0.18305905 0.20830858 1.6570001
0.18621525 0.20830858 1.6570001
0.19028573 0.20931429 1.6650001
0.19345716 0.20931429 1.6650001
0.19757333 0.21032001 1.6730001
0.20076001 0.21032001 1.6730001
0.20394668 0.21032001 1.6730001
0.20713334 0.21032001 1.6730001
0.21032001 0.21032001 1.6730001
-0.26521143 0.21669716 1.6980001
-0.26197717 0.21669716 1.6980001
-0.25874287 0.21669716 1.6980001
-0.25430477 0.2156762 1.6900001
-0.25108573 0.2156762 1.6900001
-0.24654667 0.21452762 1.6810001
-0.24218668 0.21350667 1.6730001
-0.23785715 0.21248572 1.6650001
-0.23468572 0.21248572 1.6650001
-0.23151429 0.21248572 1.6650001
-0.22834286 0.21248572 1.6650001
-0.22408953 0.21146476 1.6570001
-0.22093335 0.21146476 1.6570001
-0.21672572 0.21044382 1.649
-0.21358477 0.21044382 1.649
-0.21044382 0.21044382 1.649
-0.20730287 0.21044382 1.649
-0.20317143 0.20942287 1.641
-0.20004572 0.20942287 1.641
-0.19692001 0.20942287 1.641
-0.1937943 0.20942287 1.641
-0.19066858 0.20942287 1.641
-0.18754287 0.20942287 1.641
-0.18363048 0.20852953 1.6340001
-0.18051811 0.20852953 1.6340001
-0.17740571 0.20852953 1.6340001
-0.17429334 0.20852953 1.6340001
-0.17118096 0.20852953 1.6340001
-0.16724572 0.20750858 1.626
-0.16414858 0.20750858 1.626
-0.16105144 0.20750858 1.626
-0.15795429 0.20750858 1.626
-0.15485714 0.20750858 1.626
-0.15101334 0.20648763 1.618
-0.14729144 0.20559429 1.6110001
-0.14422286 0.20559429 1.6110001
-0.14115429 0.20559429 1.6110001
-0.1374 0.20457335 1.603
-0.13434668 0.20457335 1.603
-0.13129334 0.20457335 1.603
-0.12824 0.20457335 1.603
-0.12518667 0.20457335 1.603
-0.12213334 0.20457335 1.603
-0.11908001 0.20457335 1.603
-0.11602667 0.20457335 1.603
-0.11297334 0.20457335 1.603
-0.10992 0.20457335 1.603
-0.10686667 0.20457335 1.603
-0.10381334 0.20457335 1.603
-0.10032 0.20368001 1.5960001
-0.097280003 0.20368001 1.5960001
-0.094240002 0.20368001 1.5960001
-0.091200002 0.20368001 1.5960001
-0.088160001 0.20368001 1.5960001
-0.08512 0.20368001 1.5960001
-0.082080007 0.20368001 1.5960001
-0.079040006 0.20368001 1.5960001
-0.076000005 0.20368001 1.5960001
-0.072960004 0.20368001 1.5960001
-0.069920003 0.20368001 1.5960001
-0.066880003 0.20368001 1.5960001
-0.063560002 0.20278667 1.5890001
-0.060533337 0.20278667 1.5890001
-0.057760004 0.20368001 1.5960001
-0.054720003 0.20368001 1.5960001
-0.051680002 0.20368001 1.5960001
-0.048640002 0.20368001 1.5960001
-0.045400001 0.20278667 1.5890001
-0.042373333 0.20278667 1.5890001
-0.039346669 0.20278667 1.5890001
-0.036320001 0.20278667 1.5890001
-0.033293333 0.20278667 1.5890001
-0.030266669 0.20278667 1.5890001
-0.027102858 0.20176572 1.5810001
-0.023984762 0.20087239 1.5740001
-0.02108 0.20176572 1.5810001
-0.017988572 0.20087239 1.5740001
-0.015057144 0.20176572 1.5810001
-0.012045715 0.20176572 1.5810001
-0.0090342863 0.20176572 1.5810001
-0.0060228575 0.20176572 1.5810001
-0.0030114288 0.20176572 1.5810001
0 0.20176572 1.5810001
0.0030114288 0.20176572 1.5810001
0.0060228575 0.20176572 1.5810001
0.0090342863 0.20176572 1.5810001
0.012045715 0.20176572 1.5810001
0.015057144 0.20176572 1.5810001
0.018068573 0.20176572 1.5810001
0.02108 0.20176572 1.5810001
0.024213335 0.20278667 1.5890001
0.027240001 0.20278667 1.5890001
0.030266669 0.20278667 1.5890001
0.033293333 0.20278667 1.5890001
0.036320001 0.20278667 1.5890001
0.039520003 0.20368001 1.5960001
0.042373333 0.20278667 1.5890001
0.045400001 0.20278667 1.5890001
0.048426669 0.20278667 1.5890001
0.051453337 0.20278667 1.5890001
0.054480001 0.20278667 1.5890001
0.057506669 0.20278667 1.5890001
0.060533337 0.20278667 1.5890001
0.063560002 0.20278667 1.5890001
0.066586666 0.20278667 1.5890001
0.069613338 0.20278667 1.5890001
0.072640002 0.20278667 1.5890001
0.076000005 0.20368001 1.5960001
0.079040006 0.20368001 1.5960001
0.082080007 0.20368001 1.5960001
0.08512 0.20368001 1.5960001
0.088160001 0.20368001 1.5960001
0.091200002 0.20368001 1.5960001
0.094240002 0.20368001 1.5960001
0.097706668 0.20457335 1.603
0.10076001 0.20457335 1.603
0.10433143 0.20559429 1.6110001
0.10740001 0.20559429 1.6110001
0.11046857 0.20559429 1.6110001
0.11403048 0.20648763 1.618
0.11711238 0.20648763 1.618
0.12019429 0.20648763 1.618
0.1232762 0.20648763 1.618
0.12698287 0.20750858 1.626
0.13008 0.20750858 1.626
0.13317715 0.20750858 1.626
0.13627429 0.20750858 1.626
0.13937144 0.20750858 1.626
0.14246857 0.20750858 1.626
0.14556572 0.20750858 1.626
0.14866287 0.20750858 1.626
0.15250668 0.20852953 1.6340001
0.15561906 0.20852953 1.6340001
0.15941143 0.20942287 1.641
0.16253714 0.20942287 1.641
0.16647048 0.21044382 1.649
0.1704343 0.21146476 1.6570001
0.17359048 0.21146476 1.6570001
0.17674667 0.21146476 1.6570001
0.17990287 0.21146476 1.6570001
0.18305905 0.21146476 1.6570001
0.18621525 0.21146476 1.6570001
0.19028573 0.21248572 1.6650001
0.19345716 0.21248572 1.6650001
0.19757333 0.21350667 1.6730001
0.20076001 0.21350667 1.6730001
-0.26521143 0.21993144 1.6980001
-0.25430477 0.21889524 1.6900001
-0.25108573 0.21889524 1.6900001
-0.24654667 0.21772954 1.6810001
-0.24334477 0.21772954 1.6810001
-0.23900001 0.21669334 1.6730001
-0.23581333 0.21669334 1.6730001
-0.23151429 0.21565714 1.6650001
-0.22834286 0.21565714 1.6650001
-0.22408953 0.21462096 1.6570001
-0.22093335 0.21462096 1.6570001
-0.21672572 0.21358477 1.649
-0.21358477 0.21358477 1.649
-0.21044382 0.21358477 1.649
-0.20629714 0.21254858 1.641
-0.20317143 0.21254858 1.641
-0.20004572 0.21254858 1.641
-0.19692001 0.21254858 1.641
-0.1937943 0.21254858 1.641
-0.19066858 0.21254858 1.641
-0.18754287 0.21254858 1.641
-0.18363048 0.21164191 1.6340001
-0.18051811 0.21164191 1.6340001
-0.17740571 0.21164191 1.6340001
-0.17429334 0.21164191 1.6340001
-0.17034286 0.21060573 1.626
-0.16724572 0.21060573 1.626
-0.16414858 0.21060573 1.626
-0.16105144 0.21060573 1.626
-0.15795429 0.21060573 1.626
-0.15409525 0.20956953 1.618
-0.15101334 0.20956953 1.618
-0.14729144 0.20866287 1.6110001
-0.14422286 0.20866287 1.6110001
-0.14115429 0.20866287 1.6110001
-0.1374 0.20762667 1.603
-0.13501714 0.20866287 1.6110001
-0.13194858 0.20866287 1.6110001
-0.12824 0.20762667 1.603
-0.12518667 0.20762667 1.603
-0.12213334 0.20762667 1.603
-0.11908001 0.20762667 1.603
-0.11602667 0.20762667 1.603
-0.11297334 0.20762667 1.603
-0.10992 0.20762667 1.603
-0.10686667 0.20762667 1.603
-0.10381334 0.20762667 1.603
-0.10076001 0.20762667 1.603
-0.097706668 0.20762667 1.603
-0.094240002 0.20672001 1.5960001
-0.091200002 0.20672001 1.5960001
-0.088160001 0.20672001 1.5960001
-0.08512 0.20672001 1.5960001
-0.082080007 0.20672001 1.5960001
-0.079040006 0.20672001 1.5960001
-0.076000005 0.20672001 1.5960001
-0.072960004 0.20672001 1.5960001
-0.069920003 0.20672001 1.5960001
-0.066880003 0.20672001 1.5960001
-0.063840002 0.20672001 1.5960001
-0.060800001 0.20672001 1.5960001
-0.057760004 0.20672001 1.5960001
-0.054720003 0.20672001 1.5960001
-0.051680002 0.20672001 1.5960001
-0.048640002 0.20672001 1.5960001
-0.045600001 0.20672001 1.5960001
-0.042373333 0.20581335 1.5890001
-0.039346669 0.20581335 1.5890001
-0.036320001 0.20581335 1.5890001
-0.033293333 0.20581335 1.5890001
-0.030266669 0.20581335 1.5890001
-0.027102858 0.20477715 1.5810001
-0.02409143 0.20477715 1.5810001
-0.02108 0.20477715 1.5810001
-0.018068573 0.20477715 1.5810001
-0.015057144 0.20477715 1.5810001
-0.012045715 0.20477715 1.5810001
-0.0090342863 0.20477715 1.5810001
-0.0060228575 0.20477715 1.5810001
-0.0030114288 0.20477715 1.5810001
0 0.20387049 1.5740001
0.0029980952 0.20387049 1.5740001
0.0059961905 0.20387049 1.5740001
0.0089942859 0.20387049 1.5740001
0.011992381 0.20387049 1.5740001
0.014990477 0.20387049 1.5740001
0.017988572 0.20387049 1.5740001
0.02108 0.20477715 1.5810001
0.02409143 0.20477715 1.5810001
0.027240001 0.20581335 1.5890001
0.030266669 0.20581335 1.5890001
0.033293333 0.20581335 1.5890001
0.036320001 0.20581335 1.5890001
0.039520003 0.20672001 1.5960001
0.042373333 0.20581335 1.5890001
0.045400001 0.20581335 1.5890001
0.048640002 0.20672001 1.5960001
0.051453337 0.20581335 1.5890001
0.054480001 0.20581335 1.5890001
0.057506669 0.20581335 1.5890001
0.060533337 0.20581335 1.5890001
0.063560002 0.20581335 1.5890001
0.066586666 0.20581335 1.5890001
0.069613338 0.20581335 1.5890001
0.072640002 0.20581335 1.5890001
0.076000005 0.20672001 1.5960001
0.079040006 0.20672001 1.5960001
0.082080007 0.20672001 1.5960001
0.08512 0.20672001 1.5960001
0.088160001 0.20672001 1.5960001
0.091200002 0.20672001 1.5960001
0.094240002 0.20672001 1.5960001
0.097280003 0.20672001 1.5960001
0.10076001 0.20762667 1.603
0.10433143 0.20866287 1.6110001
0.10740001 0.20866287 1.6110001
0.11046857 0.20866287 1.6110001
0.11403048 0.20956953 1.618
0.11711238 0.20956953 1.618
0.12019429 0.20956953 1.618
0.1232762 0.20956953 1.618
0.12635811 0.20956953 1.618
0.12944001 0.20956953 1.618
0.13252191 0.20956953 1.618
0.13627429 0.21060573 1.626
0.13937144 0.21060573 1.626
0.14246857 0.21060573 1.626
0.14556572 0.21060573 1.626
0.14866287 0.21060573 1.626
0.15250668 0.21164191 1.6340001
0.15485714 0.21060573 1.626
0.15941143 0.21254858 1.641
0.16253714 0.21254858 1.641
0.16647048 0.21358477 1.649
0.1704343 0.21462096 1.6570001
0.17359048 0.21462096 1.6570001
0.17589334 0.21358477 1.649
0.17903429 0.21358477 1.649
0.18217525 0.21358477 1.649
0.18531619 0.21358477 1.649
0.19028573 0.21565714 1.6650001
0.19345716 0.21565714 1.6650001
-0.23151429 0.21882857 1.6650001
-0.22834286 0.21882857 1.6650001
-0.22517143 0.21882857 1.6650001
-0.21777715 0.21777715 1.6570001
-0.21462096 0.21777715 1.6570001
-0.21146476 0.21777715 1.6570001
-0.20730287 0.21672572 1.649
-0.20416191 0.21672572 1.649
-0.20102096 0.21672572 1.649
-0.19788 0.21672572 1.649
-0.19473906 0.21672572 1.649
-0.1915981 0.21672572 1.649
-0.18754287 0.2156743 1.641
-0.18363048 0.2147543 1.6340001
-0.18051811 0.2147543 1.6340001
-0.17740571 0.2147543 1.6340001
-0.17344001 0.21370287 1.626
-0.17034286 0.21370287 1.626
-0.16724572 0.21370287 1.626
-0.16414858 0.21370287 1.626
-0.16105144 0.21370287 1.626
-0.15795429 0.21370287 1.626
-0.15485714 0.21370287 1.626
-0.15101334 0.21265143 1.618
-0.14729144 0.21173143 1.6110001
-0.14422286 0.21173143 1.6110001
-0.14115429 0.21173143 1.6110001
-0.1374 0.21068001 1.603
-0.13501714 0.21173143 1.6110001
-0.13129334 0.21068001 1.603
-0.12824 0.21068001 1.603
-0.12518667 0.21068001 1.603
-0.12213334 0.21068001 1.603
-0.11908001 0.21068001 1.603
-0.11602667 0.21068001 1.603
-0.11297334 0.21068001 1.603
-0.10992 0.21068001 1.603
-0.10686667 0.21068001 1.603
-0.10381334 0.21068001 1.603
-0.10076001 0.21068001 1.603
-0.097706668 0.21068001 1.603
-0.094653338 0.21068001 1.603
-0.091600001 0.21068001 1.603
-0.088546671 0.21068001 1.603
-0.085493334 0.21068001 1.603
-0.082080007 0.20976001 1.5960001
-0.079040006 0.20976001 1.5960001
-0.076000005 0.20976001 1.5960001
-0.072960004 0.20976001 1.5960001
-0.069920003 0.20976001 1.5960001
-0.066880003 0.20976001 1.5960001
-0.063840002 0.20976001 1.5960001
-0.060800001 0.20976001 1.5960001
-0.057760004 0.20976001 1.5960001
-0.054720003 0.20976001 1.5960001
-0.051680002 0.20976001 1.5960001
-0.048640002 0.20976001 1.5960001
-0.045600001 0.20976001 1.5960001
-0.042373333 0.20884001 1.5890001
-0.039346669 0.20884001 1.5890001
-0.036137145 0.20778857 1.5810001
-0.033293333 0.20884001 1.5890001
-0.030266669 0.20884001 1.5890001
-0.027102858 0.20778857 1.5810001
-0.02409143 0.20778857 1.5810001
-0.02108 0.20778857 1.5810001
-0.018068573 0.20778857 1.5810001
-0.015057144 0.20778857 1.5810001
-0.012045715 0.20778857 1.5810001
-0.0089942859 0.20686857 1.5740001
-0.0059961905 0.20686857 1.5740001
-0.0029980952 0.20686857 1.5740001
0 0.20686857 1.5740001
0.0029980952 0.20686857 1.5740001
0.0059961905 0.20686857 1.5740001
0.0089942859 0.20686857 1.5740001
0.011992381 0.20686857 1.5740001
0.015057144 0.20778857 1.5810001
0.017988572 0.20686857 1.5740001
0.02108 0.20778857 1.5810001
0.024213335 0.20884001 1.5890001
0.027240001 0.20884001 1.5890001
0.030266669 0.20884001 1.5890001
0.033293333 0.20884001 1.5890001
0.036320001 0.20884001 1.5890001
0.039346669 0.20884001 1.5890001
0.042373333 0.20884001 1.5890001
0.045400001 0.20884001 1.5890001
0.048426669 0.20884001 1.5890001
0.051453337 0.20884001 1.5890001
0.054480001 0.20884001 1.5890001
0.057506669 0.20884001 1.5890001
0.060533337 0.20884001 1.5890001
0.063560002 0.20884001 1.5890001
0.066586666 0.20884001 1.5890001
0.069613338 0.20884001 1.5890001
0.072640002 0.20884001 1.5890001
0.075666666 0.20884001 1.5890001
0.079040006 0.20976001 1.5960001
0.082080007 0.20976001 1.5960001
0.08512 0.20976001 1.5960001
0.088160001 0.20976001 1.5960001
0.090800002 0.20884001 1.5890001
0.094240002 0.20976001 1.5960001
0.097280003 0.20976001 1.5960001
0.10032 0.20976001 1.5960001
0.10381334 0.21068001 1.603
0.10740001 0.21173143 1.6110001
0.11046857 0.21173143 1.6110001
0.11353715 0.21173143 1.6110001
0.11660572 0.21173143 1.6110001
0.11967429 0.21173143 1.6110001
0.1232762 0.21265143 1.618
0.12635811 0.21265143 1.618
0.12944001 0.21265143 1.618
0.13252191 0.21265143 1.618
0.13560382 0.21265143 1.618
0.13937144 0.21370287 1.626
0.14176762 0.21265143 1.618
0.14484952 0.21265143 1.618
0.14793143 0.21265143 1.618
0.15101334 0.21265143 1.618
0.15409525 0.21265143 1.618
0.15717715 0.21265143 1.618
0.16025905 0.21265143 1.618
0.16334096 0.21265143 1.618
0.17208001 0.21988001 1.6730001
0.17526667 0.21988001 1.6730001
0.17589334 0.21672572 1.649
0.17903429 0.21672572 1.649
-0.20830858 0.22093335 1.6570001
-0.20515239 0.22093335 1.6570001
-0.20199619 0.22093335 1.6570001
-0.19884001 0.22093335 1.6570001
-0.19473906 0.21986668 1.649
-0.1915981 0.21986668 1.649
-0.18754287 0.21880001 1.641
-0.18363048 0.21786667 1.6340001
-0.18051811 0.21786667 1.6340001
-0.17740571 0.21786667 1.6340001
-0.17344001 0.2168 1.626
-0.17034286 0.2168 1.626
-0.16724572 0.2168 1.626
-0.16414858 0.2168 1.626
-0.16105144 0.2168 1.626
-0.15717715 0.21573333 1.618
-0.15409525 0.21573333 1.618
-0.15101334 0.21573333 1.618
-0.14729144 0.21480002 1.6110001
-0.14422286 0.21480002 1.6110001
-0.14115429 0.21480002 1.6110001
-0.1374 0.21373335 1.603
-0.13434668 0.21373335 1.603
-0.13129334 0.21373335 1.603
-0.12888001 0.21480002 1.6110001
-0.12581143 0.21480002 1.6110001
-0.12213334 0.21373335 1.603
-0.11967429 0.21480002 1.6110001
-0.11660572 0.21480002 1.6110001
-0.11297334 0.21373335 1.603
-0.10992 0.21373335 1.603
-0.10686667 0.21373335 1.603
-0.10381334 0.21373335 1.603
-0.10076001 0.21373335 1.603
-0.097706668 0.21373335 1.603
-0.094653338 0.21373335 1.603
-0.091600001 0.21373335 1.603
-0.088546671 0.21373335 1.603
-0.085493334 0.21373335 1.603
-0.082080007 0.21280001 1.5960001
-0.079040006 0.21280001 1.5960001
-0.076000005 0.21280001 1.5960001
-0.072960004 0.21280001 1.5960001
-0.069920003 0.21280001 1.5960001
-0.066880003 0.21280001 1.5960001
-0.063840002 0.21280001 1.5960001
-0.060800001 0.21280001 1.5960001
-0.057506669 0.21186668 1.5890001
-0.054480001 0.21186668 1.5890001
-0.051680002 0.21280001 1.5960001
-0.048426669 0.21186668 1.5890001
-0.045400001 0.21186668 1.5890001
-0.042373333 0.21186668 1.5890001
-0.039346669 0.21186668 1.5890001
-0.036320001 0.21186668 1.5890001
-0.033293333 0.21186668 1.5890001
-0.030266669 0.21186668 1.5890001
-0.027102858 0.21080001 1.5810001
-0.02409143 0.21080001 1.5810001
-0.02108 0.21080001 1.5810001
-0.018068573 0.21080001 1.5810001
-0.015057144 0.21080001 1.5810001
-0.012045715 0.21080001 1.5810001
-0.0090342863 0.21080001 1.5810001
-0.0060228575 0.21080001 1.5810001
-0.0030114288 0.21080001 1.5810001
0 0.20986667 1.5740001
0.0029980952 0.20986667 1.5740001
0.0059961905 0.20986667 1.5740001
0.0089942859 0.20986667 1.5740001
0.011992381 0.20986667 1.5740001
0.015057144 0.21080001 1.5810001
0.017988572 0.20986667 1.5740001
0.02108 0.21080001 1.5810001
0.024213335 0.21186668 1.5890001
0.027240001 0.21186668 1.5890001
0.030266669 0.21186668 1.5890001
0.033293333 0.21186668 1.5890001
0.036320001 0.21186668 1.5890001
0.039346669 0.21186668 1.5890001
0.042373333 0.21186668 1.5890001
0.045400001 0.21186668 1.5890001
0.048426669 0.21186668 1.5890001
0.051453337 0.21186668 1.5890001
0.054480001 0.21186668 1.5890001
0.057506669 0.21186668 1.5890001
0.060228575 0.21080001 1.5810001
0.063560002 0.21186668 1.5890001
0.066586666 0.21186668 1.5890001
0.069613338 0.21186668 1.5890001
0.072640002 0.21186668 1.5890001
0.075666666 0.21186668 1.5890001
0.078693338 0.21186668 1.5890001
0.081720002 0.21186668 1.5890001
0.084746666 0.21186668 1.5890001
0.087773338 0.21186668 1.5890001
0.090800002 0.21186668 1.5890001
0.093826666 0.21186668 1.5890001
0.096853338 0.21186668 1.5890001
0.10032 0.21280001 1.5960001
0.10336 0.21280001 1.5960001
0.10640001 0.21280001 1.5960001
0.11046857 0.21480002 1.6110001
0.11353715 0.21480002 1.6110001
0.11660572 0.21480002 1.6110001
0.11967429 0.21480002 1.6110001
0.12274286 0.21480002 1.6110001
0.12635811 0.21573333 1.618
0.12944001 0.21573333 1.618
0.13252191 0.21573333 1.618
0.13627429 0.2168 1.626
0.13937144 0.2168 1.626
0.14176762 0.21573333 1.618
0.14484952 0.21573333 1.618
0.14793143 0.21573333 1.618
0.15101334 0.21573333 1.618
0.15409525 0.21573333 1.618
0.15717715 0.21573333 1.618
0.16025905 0.21573333 1.618
0.16334096 0.21573333 1.618
-0.19884001 0.22408953 1.6570001
-0.19568382 0.22408953 1.6570001
-0.1915981 0.22300763 1.649
-0.18845715 0.22300763 1.649
-0.18363048 0.22097905 1.6340001
-0.18051811 0.22097905 1.6340001
-0.17653716 0.21989715 1.626
-0.15717715 0.21881525 1.618
-0.15409525 0.21881525 1.618
-0.15101334 0.21881525 1.618
-0.14656 0.21678667 1.603
-0.14350668 0.21678667 1.603
-0.14045334 0.21678667 1.603
-0.1374 0.21678667 1.603
-0.13434668 0.21678667 1.603
-0.13129334 0.21678667 1.603
-0.12824 0.21678667 1.603
-0.12581143 0.21786858 1.6110001
-0.12274286 0.21786858 1.6110001
-0.11967429 0.21786858 1.6110001
-0.11660572 0.21786858 1.6110001
-0.11297334 0.21678667 1.603
-0.10992 0.21678667 1.603
-0.10686667 0.21678667 1.603
-0.10381334 0.21678667 1.603
-0.10076001 0.21678667 1.603
-0.097706668 0.21678667 1.603
-0.094653338 0.21678667 1.603
-0.091600001 0.21678667 1.603
-0.088160001 0.21584001 1.5960001
-0.08512 0.21584001 1.5960001
-0.082080007 0.21584001 1.5960001
-0.079040006 0.21584001 1.5960001
-0.076000005 0.21584001 1.5960001
-0.072960004 0.21584001 1.5960001
-0.069920003 0.21584001 1.5960001
-0.066880003 0.21584001 1.5960001
-0.063840002 0.21584001 1.5960001
-0.060800001 0.21584001 1.5960001
-0.057506669 0.21489334 1.5890001
-0.054480001 0.21489334 1.5890001
-0.051680002 0.21584001 1.5960001
-0.048426669 0.21489334 1.5890001
-0.045600001 0.21584001 1.5960001
-0.042373333 0.21489334 1.5890001
-0.039346669 0.21489334 1.5890001
-0.036320001 0.21489334 1.5890001
-0.033293333 0.21489334 1.5890001
-0.030266669 0.21489334 1.5890001
-0.027102858 0.21381144 1.5810001
-0.02409143 0.21381144 1.5810001
-0.02108 0.21381144 1.5810001
-0.018068573 0.21381144 1.5810001
-0.015057144 0.21381144 1.5810001
-0.012045715 0.21381144 1.5810001
-0.0090342863 0.21381144 1.5810001
-0.0060228575 0.21381144 1.5810001
-0.0030114288 0.21381144 1.5810001
0 0.21381144 1.5810001
0.0030114288 0.21381144 1.5810001
0.0059961905 0.21286477 1.5740001
0.0089942859 0.21286477 1.5740001
0.011992381 0.21286477 1.5740001
0.015057144 0.21381144 1.5810001
0.017988572 0.21286477 1.5740001
0.02108 0.21381144 1.5810001
0.024213335 0.21489334 1.5890001
0.027240001 0.21489334 1.5890001
0.030266669 0.21489334 1.5890001
0.033293333 0.21489334 1.5890001
0.036320001 0.21489334 1.5890001
0.039520003 0.21584001 1.5960001
0.04256 0.21584001 1.5960001
0.045400001 0.21489334 1.5890001
0.048426669 0.21489334 1.5890001
0.051680002 0.21584001 1.5960001
0.054480001 0.21489334 1.5890001
0.057217143 0.21381144 1.5810001
0.060228575 0.21381144 1.5810001
0.063239999 0.21381144 1.5810001
0.066586666 0.21489334 1.5890001
0.069613338 0.21489334 1.5890001
0.072640002 0.21489334 1.5890001
0.075666666 0.21489334 1.5890001
0.078693338 0.21489334 1.5890001
0.081720002 0.21489334 1.5890001
0.084746666 0.21489334 1.5890001
0.087773338 0.21489334 1.5890001
0.091200002 0.21584001 1.5960001
0.093826666 0.21489334 1.5890001
0.096853338 0.21489334 1.5890001
0.099880002 0.21489334 1.5890001
0.10336 0.21584001 1.5960001
0.10640001 0.21584001 1.5960001
0.11046857 0.21786858 1.6110001
0.11353715 0.21786858 1.6110001
-0.15133333 0.21792001 1.5890001
-0.14830667 0.21792001 1.5890001
-0.14592001 0.21888001 1.5960001
-0.14350668 0.21984001 1.603
-0.14045334 0.21984001 1.603
-0.1374 0.21984001 1.603
-0.13434668 0.21984001 1.603
-0.13129334 0.21984001 1.603
-0.12888001 0.22093715 1.6110001
-0.12635811 0.22189716 1.618
-0.12274286 0.22093715 1.6110001
-0.11967429 0.22093715 1.6110001
-0.11660572 0.22093715 1.6110001
-0.11353715 0.22093715 1.6110001
-0.11046857 0.22093715 1.6110001
-0.10686667 0.21984001 1.603
-0.10381334 0.21984001 1.603
-0.10076001 0.21984001 1.603
-0.097706668 0.21984001 1.603
-0.094653338 0.21984001 1.603
-0.091600001 0.21984001 1.603
-0.088160001 0.21888001 1.5960001
-0.08512 0.21888001 1.5960001
-0.082080007 0.21888001 1.5960001
-0.079040006 0.21888001 1.5960001
-0.076000005 0.21888001 1.5960001
-0.072960004 0.21888001 1.5960001
-0.069920003 0.21888001 1.5960001
-0.066880003 0.21888001 1.5960001
-0.063840002 0.21888001 1.5960001
-0.060800001 0.21888001 1.5960001
-0.057506669 0.21792001 1.5890001
-0.054480001 0.21792001 1.5890001
-0.051453337 0.21792001 1.5890001
-0.048426669 0.21792001 1.5890001
-0.045600001 0.21888001 1.5960001
-0.042373333 0.21792001 1.5890001
-0.039346669 0.21792001 1.5890001
-0.036320001 0.21792001 1.5890001
-0.033440001 0.21888001 1.5960001
-0.030400001 0.21888001 1.5960001
-0.027240001 0.21792001 1.5890001
-0.02409143 0.21682286 1.5810001
-0.02108 0.21682286 1.5810001
-0.018068573 0.21682286 1.5810001
-0.015057144 0.21682286 1.5810001
-0.012045715 0.21682286 1.5810001
-0.0090342863 0.21682286 1.5810001
-0.0060228575 0.21682286 1.5810001
-0.0030266668 0.21792001 1.5890001
0 0.21682286 1.5810001
0.0030114288 0.21682286 1.5810001
0.0059961905 0.21586287 1.5740001
0.0089942859 0.21586287 1.5740001
0.011992381 0.21586287 1.5740001
0.015057144 0.21682286 1.5810001
0.017988572 0.21586287 1.5740001
0.02108 0.21682286 1.5810001
0.024213335 0.21792001 1.5890001
0.027240001 0.21792001 1.5890001
0.030266669 0.21792001 1.5890001
0.033293333 0.21792001 1.5890001
0.036320001 0.21792001 1.5890001
0.039520003 0.21888001 1.5960001
0.04256 0.21888001 1.5960001
0.045400001 0.21792001 1.5890001
0.048426669 0.21792001 1.5890001
0.051680002 0.21888001 1.5960001
0.054480001 0.21792001 1.5890001
0.057506669 0.21792001 1.5890001
0.060533337 0.21792001 1.5890001
0.063239999 0.21682286 1.5810001
0.066251434 0.21682286 1.5810001
0.069262862 0.21682286 1.5810001
0.07227429 0.21682286 1.5810001
0.075285718 0.21682286 1.5810001
0.081720002 0.21792001 1.5890001
0.084746666 0.21792001 1.5890001
0.087773338 0.21792001 1.5890001
0.099880002 0.21792001 1.5890001
-0.13984001 0.22192001 1.5960001
-0.13680001 0.22192001 1.5960001
-0.13376001 0.22192001 1.5960001
-0.12274286 0.22400573 1.6110001
-0.10381334 0.22289334 1.603
-0.10076001 0.22289334 1.603
-0.097706668 0.22289334 1.603
-0.094653338 0.22289334 1.603
-0.091600001 0.22289334 1.603
-0.088546671 0.22289334 1.603
-0.085493334 0.22289334 1.603
-0.082440004 0.22289334 1.603
-0.079040006 0.22192001 1.5960001
-0.076000005 0.22192001 1.5960001
-0.072960004 0.22192001 1.5960001
-0.069920003 0.22192001 1.5960001
-0.066880003 0.22192001 1.5960001
-0.063840002 0.22192001 1.5960001
-0.060800001 0.22192001 1.5960001
-0.057760004 0.22192001 1.5960001
-0.054480001 0.22094667 1.5890001
-0.051453337 0.22094667 1.5890001
-0.048426669 0.22094667 1.5890001
-0.045600001 0.22192001 1.5960001
-0.042373333 0.22094667 1.5890001
-0.039520003 0.22192001 1.5960001
-0.036480002 0.22192001 1.5960001
-0.033440001 0.22192001 1.5960001
-0.030400001 0.22192001 1.5960001
-0.027240001 0.22094667 1.5890001
-0.02409143 0.2198343 1.5810001
-0.02108 0.2198343 1.5810001
-0.01816 0.22094667 1.5890001
-0.0152 0.22192001 1.5960001
-0.01216 0.22192001 1.5960001
-0.0091200005 0.22192001 1.5960001
-0.0060533336 0.22094667 1.5890001
-0.0030266668 0.22094667 1.5890001
0 0.2198343 1.5810001
0.0029980952 0.21886095 1.5740001
0.0059961905 0.21886095 1.5740001
0.0089942859 0.21886095 1.5740001
0.011992381 0.21886095 1.5740001
0.014990477 0.21886095 1.5740001
0.017988572 0.21886095 1.5740001
0.02108 0.2198343 1.5810001
0.024213335 0.22094667 1.5890001
0.027240001 0.22094667 1.5890001
0.030266669 0.22094667 1.5890001
0.033293333 0.22094667 1.5890001
0.036320001 0.22094667 1.5890001
0.039520003 0.22192001 1.5960001
0.04256 0.22192001 1.5960001
-0.063840002 0.22496001 1.5960001
-0.060800001 0.22496001 1.5960001
-0.057760004 0.22496001 1.5960001
-0.054720003 0.22496001 1.5960001
-0.051453337 0.22397335 1.5890001
-0.039520003 0.22496001 1.5960001
-0.036480002 0.22496001 1.5960001
-0.03924381 0.26400381 1.8730001
-0.035676192 0.26400381 1.8730001
-0.032108571 0.26400381 1.8730001
-0.028236192 0.26118478 1.853
-0.024706667 0.26118478 1.853
-0.020948572 0.25836572 1.8330001
-0.017457144 0.25836572 1.8330001
-0.013965715 0.25836572 1.8330001
-0.010531429 0.25977525 1.8430001
-0.0060533336 0.22397335 1.5890001
-0.0030266668 0.22397335 1.5890001
0 0.22284572 1.5810001
0.0030114288 0.22284572 1.5810001
0.0059961905 0.22185905 1.5740001
0.0090342863 0.22284572 1.5810001
0.012045715 0.22284572 1.5810001
0.014990477 0.22185905 1.5740001
0.017988572 0.22185905 1.5740001
0.02108 0.22284572 1.5810001
0.024213335 0.22397335 1.5890001
-0.060800001 0.22800002 1.5960001
-0.057760004 0.22800002 1.5960001
-0.054720003 0.22800002 1.5960001
-0.046626668 0.26900002 1.8830001
-0.042811431 0.26757145 1.8730001
-0.03924381 0.26757145 1.8730001
-0.035676192 0.26757145 1.8730001
-0.032108571 0.26757145 1.8730001
-0.028236192 0.2647143 1.853
-0.024706667 0.2647143 1.853
-0.021177143 0.2647143 1.853
-0.017552381 0.26328573 1.8430001
-0.014041905 0.26328573 1.8430001
-0.010531429 0.26328573 1.8430001
-0.0070209526 0.26328573 1.8430001
-0.002984762 0.22385715 1.567
0 0.22285715 1.5600001
0.0029714287 0.22285715 1.5600001
0.0059961905 0.22485715 1.5740001
0.0090342863 0.22585715 1.5810001
0.012045715 0.22585715 1.5810001
-0.050213337 0.27258667 1.8830001
-0.046626668 0.27258667 1.8830001
-0.04304 0.27258667 1.8830001
-0.03924381 0.27113906 1.8730001
-0.035866667 0.27258667 1.8830001
-0.032108571 0.27113906 1.8730001
-0.028388573 0.26969144 1.863
-0.024840001 0.26969144 1.863
-0.021177143 0.26824382 1.853
-0.01764762 0.26824382 1.853
-0.014118096 0.26824382 1.853
-0.010588571 0.26824382 1.853
-0.0070590479 0.26824382 1.853
-0.002984762 0.22684191 1.567
0 0.22582857 1.5600001
0.0029714287 0.22582857 1.5600001
-0.050213337 0.27617335 1.8830001
-0.046626668 0.27617335 1.8830001
-0.04304 0.27617335 1.8830001
-0.039453335 0.27617335 1.8830001
-0.035866667 0.27617335 1.8830001
-0.032108571 0.27470669 1.8730001
-0.028388573 0.27324 1.863
-0.024840001 0.27324 1.863
-0.021291429 0.27324 1.863
-0.017742857 0.27324 1.863
-0.014118096 0.27177334 1.853
-0.010588571 0.27177334 1.853
-0.0070590479 0.27177334 1.853
-0.003529524 0.27177334 1.853
0 0.22982667 1.567
0.002984762 0.22982667 1.567
0.0070971432 0.27324 1.863
-0.05050667 0.2813943 1.8940001
-0.046626668 0.27976 1.8830001
-0.04304 0.27976 1.8830001
-0.039453335 0.27976 1.8830001
-0.035866667 0.27976 1.8830001
-0.032280002 0.27976 1.8830001
-0.028388573 0.27678859 1.863
-0.024840001 0.27678859 1.863
-0.021291429 0.27678859 1.863
-0.017742857 0.27678859 1.863
-0.014194286 0.27678859 1.863
-0.010645715 0.27678859 1.863
-0.0070590479 0.27530286 1.853
-0.003529524 0.27530286 1.853
0 0.22865143 1.539
0.0029314286 0.22865143 1.539
0.0070971432 0.27678859 1.863
-0.050213337 0.28334668 1.8830001
-0.046626668 0.28334668 1.8830001
-0.04304 0.28334668 1.8830001
-0.039453335 0.28334668 1.8830001
-0.035866667 0.28334668 1.8830001
-0.032280002 0.28334668 1.8830001
-0.028540954 0.2818419 1.8730001
-0.024973335 0.2818419 1.8730001
-0.021405715 0.2818419 1.8730001
-0.017838096 0.2818419 1.8730001
-0.014194286 0.28033715 1.863
-0.010645715 0.28033715 1.863
-0.0070971432 0.28033715 1.863
-0.003529524 0.27883241 1.853
0 0.23368953 1.5530001
0.0029580954 0.23368953 1.5530001
0.0070971432 0.28033715 1.863
-0.050213337 0.28693333 1.8830001
-0.046626668 0.28693333 1.8830001
-0.04304 0.28693333 1.8830001
-0.039453335 0.28693333 1.8830001
-0.035866667 0.28693333 1.8830001
-0.032280002 0.28693333 1.8830001
-0.028540954 0.28540954 1.8730001
-0.024973335 0.28540954 1.8730001
-0.021405715 0.28540954 1.8730001
-0.017838096 0.28540954 1.8730001
-0.014270477 0.28540954 1.8730001
-0.010645715 0.28388572 1.863
