# .PCD v0.7 - Point Cloud Data file format
VERSION 0.7
FIELDS x y z
SIZE 4 4 4
TYPE F F F
COUNT 1 1 1
WIDTH 1544
HEIGHT 1
VIEWPOINT 0 0 0 1 0 0 0
POINTS 1544
DATA ascii
-0.21030097 0.26145524 1.4920001
-0.20745906 0.26145524 1.4920001
-0.20461716 0.26145524 1.4920001
-0.20096381 0.26040381 1.4860001
-0.19813333 0.26040381 1.4860001
-0.19451429 0.25935239 1.48
-0.19169524 0.25935239 1.48
-0.1888762 0.25935239 1.48
-0.18605715 0.25935239 1.48
-0.1832381 0.25935239 1.48
-0.18041906 0.25935239 1.48
-0.17760001 0.25935239 1.48
-0.17478096 0.25935239 1.48
-0.17196192 0.25935239 1.48
-0.16914286 0.25935239 1.48
-0.16632381 0.25935239 1.48
-0.16273144 0.25812572 1.473
-0.15992571 0.25812572 1.473
-0.15648 0.2570743 1.4670001
-0.15368572 0.2570743 1.4670001
-0.15089144 0.2570743 1.4670001
-0.14809714 0.2570743 1.4670001
-0.14530286 0.2570743 1.4670001
-0.14250858 0.2570743 1.4670001
-0.13971429 0.2570743 1.4670001
-0.13636 0.25602287 1.4610001
-0.13357715 0.25602287 1.4610001
-0.13079429 0.25602287 1.4610001
-0.12801144 0.25602287 1.4610001
-0.12522857 0.25602287 1.4610001
-0.12244572 0.25602287 1.4610001
-0.11966286 0.25602287 1.4610001
-0.11688001 0.25602287 1.4610001
-0.11409715 0.25602287 1.4610001
-0.11131429 0.25602287 1.4610001
-0.10808572 0.25497144 1.455
-0.10531429 0.25497144 1.455
-0.10254286 0.25497144 1.455
-0.099771433 0.25497144 1.455
-0.096600004 0.25392002 1.4490001
-0.093840003 0.25392002 1.4490001
-0.091080002 0.25392002 1.4490001
-0.088320002 0.25392002 1.4490001
-0.085205719 0.25286859 1.4430001
-0.082457148 0.25286859 1.4430001
-0.079708576 0.25286859 1.4430001
-0.076960005 0.25286859 1.4430001
-0.074211434 0.25286859 1.4430001
-0.071165718 0.25181717 1.437
-0.068714291 0.25286859 1.4430001
-0.06596572 0.25286859 1.4430001
-0.063217148 0.25286859 1.4430001
-0.060468573 0.25286859 1.4430001
-0.057720002 0.25286859 1.4430001
-0.05497143 0.25286859 1.4430001
-0.052222859 0.25286859 1.4430001
-0.049268574 0.25181717 1.437
-0.046531431 0.25181717 1.437
-0.043794286 0.25181717 1.437
-0.041057143 0.25181717 1.437
-0.038320001 0.25181717 1.437
-0.035582859 0.25181717 1.437
-0.032845717 0.25181717 1.437
-0.030108573 0.25181717 1.437
-0.027257144 0.25076571 1.4310001
-0.02453143 0.25076571 1.4310001
-0.021805715 0.25076571 1.4310001
-0.019000001 0.2497143 1.4250001
-0.016285716 0.2497143 1.4250001
-0.013571429 0.2497143 1.4250001
-0.010811429 0.24866286 1.419
-0.0081428578 0.2497143 1.4250001
-0.0054285717 0.2497143 1.4250001
-0.0027142859 0.2497143 1.4250001
0 0.2497143 1.4250001
0.0027142859 0.2497143 1.4250001
0.0054742857 0.25181717 1.437
0.0082457149 0.25286859 1.4430001
0.010948571 0.25181717 1.437
0.013742858 0.25286859 1.4430001
0.016422858 0.25181717 1.437
0.019240001 0.25286859 1.4430001
0.021897143 0.25181717 1.437
0.02453143 0.25076571 1.4310001
0.027142858 0.2497143 1.4250001
0.029857144 0.2497143 1.4250001
0.032571431 0.2497143 1.4250001
0.035285715 0.2497143 1.4250001
0.038000003 0.2497143 1.4250001
0.04054286 0.24866286 1.419
0.043428574 0.2497143 1.4250001
0.046142858 0.2497143 1.4250001
0.048857145 0.2497143 1.4250001
0.051571429 0.2497143 1.4250001
0.054285716 0.2497143 1.4250001
0.056760002 0.24866286 1.419
0.059714288 0.2497143 1.4250001
0.062428575 0.2497143 1.4250001
0.065142862 0.2497143 1.4250001
0.067571431 0.24866286 1.419
0.07057143 0.2497143 1.4250001
0.073285714 0.2497143 1.4250001
0.076000005 0.2497143 1.4250001
0.078714289 0.2497143 1.4250001
0.081428573 0.2497143 1.4250001
0.084142864 0.2497143 1.4250001
0.086491428 0.24866286 1.419
0.089571431 0.2497143 1.4250001
0.092285715 0.2497143 1.4250001
0.095000006 0.2497143 1.4250001
0.09771429 0.2497143 1.4250001
0.10085143 0.25076571 1.4310001
0.10357714 0.25076571 1.4310001
0.10630286 0.25076571 1.4310001
0.10902858 0.25076571 1.4310001
0.11175429 0.25076571 1.4310001
0.11400001 0.2497143 1.4250001
0.11622286 0.24866286 1.419
0.11892572 0.24866286 1.419
0.12162858 0.24866286 1.419
0.12433143 0.24866286 1.419
0.12703429 0.24866286 1.419
0.12973715 0.24866286 1.419
0.13244 0.24866286 1.419
0.13457143 0.24761143 1.4130001
0.13726287 0.24761143 1.4130001
0.13995428 0.24761143 1.4130001
0.14264572 0.24761143 1.4130001
0.1459543 0.24866286 1.419
0.14928572 0.2497143 1.4250001
0.15200001 0.2497143 1.4250001
0.15536572 0.25076571 1.4310001
0.15809144 0.25076571 1.4310001
0.16081715 0.25076571 1.4310001
0.16422857 0.25181717 1.437
0.16766286 0.25286859 1.4430001
0.17112 0.25392002 1.4490001
0.17388001 0.25392002 1.4490001
0.17664 0.25392002 1.4490001
0.18014286 0.25497144 1.455
0.18366858 0.25602287 1.4610001
0.18798286 0.25812572 1.473
0.19078858 0.25812572 1.473
0.19451429 0.25935239 1.48
0.19813333 0.26040381 1.4860001
0.20177525 0.26145524 1.4920001
0.20461716 0.26145524 1.4920001
0.20745906 0.26145524 1.4920001
0.21030097 0.26145524 1.4920001
0.42730287 0.39708954 2.266
0.43161908 0.39708954 2.266
0.43593526 0.39708954 2.266
0.44025144 0.39708954 2.266
0.44456762 0.39708954 2.266
0.44888383 0.39708954 2.266
0.45320001 0.39708954 2.266
-0.53008765 0.28661716 1.618
-0.52700573 0.28661716 1.618
-0.52651429 0.28803429 1.626
-0.52599239 0.28945145 1.6340001
-0.52288002 0.28945145 1.6340001
-0.51976764 0.28945145 1.6340001
-0.51886857 0.29069144 1.641
-0.5157429 0.29069144 1.641
-0.51261717 0.29069144 1.641
-0.50949144 0.29069144 1.641
-0.50636572 0.29069144 1.641
-0.50109333 0.28945145 1.6340001
-0.49798098 0.28945145 1.6340001
-0.49244574 0.28803429 1.626
-0.48934859 0.28803429 1.626
-0.48625144 0.28803429 1.626
-0.48553145 0.28945145 1.6340001
-0.48241907 0.28945145 1.6340001
-0.48605335 0.29352573 1.6570001
-0.48289716 0.29352573 1.6570001
-0.47974098 0.29352573 1.6570001
-0.47658479 0.29352573 1.6570001
-0.47342858 0.29352573 1.6570001
-0.46800193 0.2921086 1.649
-0.46260574 0.29069144 1.641
-0.45948002 0.29069144 1.641
-0.3904686 0.27510285 1.5530001
-0.38751048 0.27510285 1.5530001
-0.38281906 0.27386287 1.5460001
-0.37987429 0.27386287 1.5460001
-0.37104002 0.27386287 1.5460001
-0.35792953 0.27510285 1.5530001
-0.35497144 0.27510285 1.5530001
-0.35201335 0.27510285 1.5530001
-0.34748191 0.27386287 1.5460001
-0.34453717 0.27386287 1.5460001
-0.3415924 0.27386287 1.5460001
-0.33864763 0.27386287 1.5460001
-0.33570287 0.27386287 1.5460001
-0.33125144 0.27262285 1.539
-0.32682669 0.27138287 1.5320001
-0.3239086 0.27138287 1.5320001
-0.3209905 0.27138287 1.5320001
-0.31537333 0.26908001 1.5190001
-0.31248 0.26908001 1.5190001
-0.30958667 0.26908001 1.5190001
-0.30790478 0.27014285 1.5250001
-0.30380002 0.26908001 1.5190001
-0.30090669 0.26908001 1.5190001
-0.29801333 0.26908001 1.5190001
-0.29512 0.26908001 1.5190001
-0.29222667 0.26908001 1.5190001
-0.28933334 0.26908001 1.5190001
-0.28644001 0.26908001 1.5190001
-0.28354669 0.26908001 1.5190001
-0.28065336 0.26908001 1.5190001
-0.27648002 0.26784 1.5120001
-0.27360001 0.26784 1.5120001
-0.26964572 0.26677716 1.506
-0.26677716 0.26677716 1.506
-0.26390859 0.26677716 1.506
-0.26104 0.26677716 1.506
-0.25817144 0.26677716 1.506
-0.25530288 0.26677716 1.506
-0.25243428 0.26677716 1.506
-0.24956572 0.26677716 1.506
-0.24555048 0.26553714 1.4990001
-0.24269524 0.26553714 1.4990001
-0.23984002 0.26553714 1.4990001
-0.23698477 0.26553714 1.4990001
-0.23412953 0.26553714 1.4990001
-0.23127429 0.26553714 1.4990001
-0.22841905 0.26553714 1.4990001
-0.22556382 0.26553714 1.4990001
-0.22270858 0.26553714 1.4990001
-0.21882668 0.26429716 1.4920001
-0.21598478 0.26429716 1.4920001
-0.21314287 0.26429716 1.4920001
-0.21030097 0.26429716 1.4920001
-0.20745906 0.26429716 1.4920001
-0.20461716 0.26429716 1.4920001
-0.20096381 0.26323429 1.4860001
-0.19813333 0.26323429 1.4860001
-0.19451429 0.26217145 1.48
-0.19169524 0.26217145 1.48
-0.1888762 0.26217145 1.48
-0.18605715 0.26217145 1.48
-0.1832381 0.26217145 1.48
-0.18041906 0.26217145 1.48
-0.17760001 0.26217145 1.48
-0.17478096 0.26217145 1.48
-0.17196192 0.26217145 1.48
-0.16914286 0.26217145 1.48
-0.16632381 0.26217145 1.48
-0.16273144 0.26093143 1.473
-0.15992571 0.26093143 1.473
-0.15648 0.25986859 1.4670001
-0.15368572 0.25986859 1.4670001
-0.15089144 0.25986859 1.4670001
-0.14809714 0.25986859 1.4670001
-0.14530286 0.25986859 1.4670001
-0.14250858 0.25986859 1.4670001
-0.13971429 0.25986859 1.4670001
-0.13636 0.25880572 1.4610001
-0.13357715 0.25880572 1.4610001
-0.13079429 0.25880572 1.4610001
-0.12801144 0.25880572 1.4610001
-0.12522857 0.25880572 1.4610001
-0.12244572 0.25880572 1.4610001
-0.11966286 0.25880572 1.4610001
-0.11688001 0.25880572 1.4610001
-0.11409715 0.25880572 1.4610001
-0.11131429 0.25880572 1.4610001
-0.10808572 0.25774285 1.455
-0.10531429 0.25774285 1.455
-0.10254286 0.25774285 1.455
-0.099360004 0.25668001 1.4490001
-0.096600004 0.25668001 1.4490001
-0.093840003 0.25668001 1.4490001
-0.090702862 0.25561714 1.4430001
-0.08795429 0.25561714 1.4430001
-0.085205719 0.25561714 1.4430001
-0.082457148 0.25561714 1.4430001
-0.079708576 0.25561714 1.4430001
-0.076960005 0.25561714 1.4430001
-0.07390286 0.2545543 1.437
-0.071165718 0.2545543 1.437
-0.068428576 0.2545543 1.437
-0.065691434 0.2545543 1.437
-0.062954292 0.2545543 1.437
-0.060217146 0.2545543 1.437
-0.057480004 0.2545543 1.437
-0.054742858 0.2545543 1.437
-0.052005716 0.2545543 1.437
-0.049268574 0.2545543 1.437
-0.046531431 0.2545543 1.437
-0.04361143 0.25349143 1.4310001
-0.040885717 0.25349143 1.4310001
-0.03816 0.25349143 1.4310001
-0.035434287 0.25349143 1.4310001
-0.032708574 0.25349143 1.4310001
-0.029982857 0.25349143 1.4310001
-0.027142858 0.25242859 1.4250001
-0.024428573 0.25242859 1.4250001
-0.021714287 0.25242859 1.4250001
-0.019000001 0.25242859 1.4250001
-0.016217144 0.25136572 1.419
-0.013514286 0.25136572 1.419
-0.010765715 0.25030288 1.4130001
-0.0081085721 0.25136572 1.419
-0.0054057143 0.25136572 1.419
-0.0027028571 0.25136572 1.419
0 0.25136572 1.419
0.0027028571 0.25136572 1.419
0.0054057143 0.25136572 1.419
0.0081085721 0.25136572 1.419
0.010811429 0.25136572 1.419
0.013514286 0.25136572 1.419
0.016285716 0.25242859 1.4250001
0.019000001 0.25242859 1.4250001
0.021714287 0.25242859 1.4250001
0.024325715 0.25136572 1.419
0.027028572 0.25136572 1.419
0.02973143 0.25136572 1.419
0.032297146 0.25030288 1.4130001
0.034988571 0.25030288 1.4130001
0.03768 0.25030288 1.4130001
0.040371429 0.25030288 1.4130001
0.043062858 0.25030288 1.4130001
0.045754287 0.25030288 1.4130001
0.048445717 0.25030288 1.4130001
0.051137146 0.25030288 1.4130001
0.053828575 0.25030288 1.4130001
0.056520004 0.25030288 1.4130001
0.059211429 0.25030288 1.4130001
0.061640002 0.24924001 1.4070001
0.064594291 0.25030288 1.4130001
0.067000002 0.24924001 1.4070001
0.069680005 0.24924001 1.4070001
0.07210286 0.2483543 1.4020001
0.075040005 0.24924001 1.4070001
0.077443816 0.2483543 1.4020001
0.08011429 0.2483543 1.4020001
0.083434291 0.25030288 1.4130001
0.086125717 0.25030288 1.4130001
0.088817149 0.25030288 1.4130001
0.091508575 0.25030288 1.4130001
0.094600007 0.25136572 1.419
0.097302862 0.25136572 1.419
0.10042857 0.25242859 1.4250001
0.10314286 0.25242859 1.4250001
0.10585715 0.25242859 1.4250001
0.10857143 0.25242859 1.4250001
0.11128572 0.25242859 1.4250001
0.11352 0.25136572 1.419
0.11573143 0.25030288 1.4130001
0.11842286 0.25030288 1.4130001
0.12060001 0.24924001 1.4070001
0.12328 0.24924001 1.4070001
0.12551239 0.2483543 1.4020001
0.12818286 0.2483543 1.4020001
0.13085334 0.2483543 1.4020001
0.13295239 0.24729143 1.396
0.13561143 0.24729143 1.396
0.13827048 0.24729143 1.396
0.14153524 0.2483543 1.4020001
0.14472 0.24924001 1.4070001
0.14802858 0.25030288 1.4130001
0.15072 0.25030288 1.4130001
0.15406287 0.25136572 1.419
0.15676571 0.25136572 1.419
0.16014287 0.25242859 1.4250001
0.16285715 0.25242859 1.4250001
0.16626857 0.25349143 1.4310001
0.16970286 0.2545543 1.437
0.17316 0.25561714 1.4430001
0.17664 0.25668001 1.4490001
0.17940001 0.25668001 1.4490001
0.18291429 0.25774285 1.455
0.18721715 0.25986859 1.4670001
0.19078858 0.26093143 1.473
0.19451429 0.26217145 1.48
0.19813333 0.26323429 1.4860001
0.20096381 0.26323429 1.4860001
0.20461716 0.26429716 1.4920001
0.20745906 0.26429716 1.4920001
0.42730287 0.40140572 2.266
0.43161908 0.40140572 2.266
0.43593526 0.40140572 2.266
0.44025144 0.40140572 2.266
0.44456762 0.40140572 2.266
0.44313908 0.39626858 2.237
0.4474 0.39626858 2.237
-0.53008765 0.28969905 1.618
-0.52700573 0.28969905 1.618
-0.52651429 0.29113144 1.626
-0.52341717 0.29113144 1.626
-0.52288002 0.29256383 1.6340001
-0.51976764 0.29256383 1.6340001
-0.51665527 0.29256383 1.6340001
-0.5157429 0.29381716 1.641
-0.51043051 0.29256383 1.6340001
-0.50949144 0.29381716 1.641
-0.50636572 0.29381716 1.641
-0.50109333 0.29256383 1.6340001
-0.49798098 0.29256383 1.6340001
-0.49244574 0.29113144 1.626
-0.4917562 0.29256383 1.6340001
-0.48864383 0.29256383 1.6340001
-0.48553145 0.29256383 1.6340001
-0.48920953 0.29668191 1.6570001
-0.48605335 0.29668191 1.6570001
-0.4852286 0.2981143 1.6650001
-0.48205715 0.2981143 1.6650001
-0.47888574 0.2981143 1.6650001
-0.47342858 0.29668191 1.6570001
-0.46800193 0.29524952 1.649
-0.46486098 0.29524952 1.649
-0.45948002 0.29381716 1.641
-0.38751048 0.27806097 1.5530001
-0.38281906 0.27680764 1.5460001
-0.37987429 0.27680764 1.5460001
-0.34748191 0.27680764 1.5460001
-0.34453717 0.27680764 1.5460001
-0.3415924 0.27680764 1.5460001
-0.33125144 0.2755543 1.539
-0.30380002 0.27197334 1.5190001
-0.30090669 0.27197334 1.5190001
-0.29801333 0.27197334 1.5190001
-0.29512 0.27197334 1.5190001
-0.29222667 0.27197334 1.5190001
-0.28933334 0.27197334 1.5190001
-0.28757143 0.27304763 1.5250001
-0.28466669 0.27304763 1.5250001
-0.28065336 0.27197334 1.5190001
-0.27648002 0.27072001 1.5120001
-0.27360001 0.27072001 1.5120001
-0.27072001 0.27072001 1.5120001
-0.26677716 0.26964572 1.506
-0.26390859 0.26964572 1.506
-0.25861335 0.26713905 1.4920001
-0.25817144 0.26964572 1.506
-0.25530288 0.26964572 1.506
-0.25243428 0.26964572 1.506
-0.24956572 0.26964572 1.506
-0.24555048 0.26839238 1.4990001
-0.24269524 0.26839238 1.4990001
-0.23984002 0.26839238 1.4990001
-0.23698477 0.26839238 1.4990001
-0.23412953 0.26839238 1.4990001
-0.23127429 0.26839238 1.4990001
-0.22841905 0.26839238 1.4990001
-0.22556382 0.26839238 1.4990001
-0.22270858 0.26839238 1.4990001
-0.21882668 0.26713905 1.4920001
-0.21598478 0.26713905 1.4920001
-0.21314287 0.26713905 1.4920001
-0.21030097 0.26713905 1.4920001
-0.20745906 0.26713905 1.4920001
-0.2037943 0.26606476 1.4860001
-0.20096381 0.26606476 1.4860001
-0.19813333 0.26606476 1.4860001
-0.19451429 0.26499048 1.48
-0.19169524 0.26499048 1.48
-0.1888762 0.26499048 1.48
-0.18605715 0.26499048 1.48
-0.1832381 0.26499048 1.48
-0.18041906 0.26499048 1.48
-0.17760001 0.26499048 1.48
-0.17478096 0.26499048 1.48
-0.17196192 0.26499048 1.48
-0.16834286 0.26373714 1.473
-0.16553715 0.26373714 1.473
-0.16273144 0.26373714 1.473
-0.15927429 0.26266286 1.4670001
-0.15648 0.26266286 1.4670001
-0.15368572 0.26266286 1.4670001
-0.15089144 0.26266286 1.4670001
-0.14809714 0.26266286 1.4670001
-0.14530286 0.26266286 1.4670001
-0.14250858 0.26266286 1.4670001
-0.13971429 0.26266286 1.4670001
-0.13636 0.26158857 1.4610001
-0.13357715 0.26158857 1.4610001
-0.13079429 0.26158857 1.4610001
-0.12801144 0.26158857 1.4610001
-0.12522857 0.26158857 1.4610001
-0.12244572 0.26158857 1.4610001
-0.11966286 0.26158857 1.4610001
-0.11688001 0.26158857 1.4610001
-0.11362857 0.26051429 1.455
-0.11085714 0.26051429 1.455
-0.10808572 0.26051429 1.455
-0.10531429 0.26051429 1.455
-0.10212 0.25944 1.4490001
-0.099360004 0.25944 1.4490001
-0.096200004 0.25836572 1.4430001
-0.093451433 0.25836572 1.4430001
-0.090702862 0.25836572 1.4430001
-0.08795429 0.25836572 1.4430001
-0.085205719 0.25836572 1.4430001
-0.082457148 0.25836572 1.4430001
-0.079377145 0.25729144 1.437
-0.076640002 0.25729144 1.437
-0.07390286 0.25729144 1.437
-0.071165718 0.25729144 1.437
-0.068428576 0.25729144 1.437
-0.065691434 0.25729144 1.437
-0.062954292 0.25729144 1.437
-0.060217146 0.25729144 1.437
-0.057480004 0.25729144 1.437
-0.054742858 0.25729144 1.437
-0.052005716 0.25729144 1.437
-0.049062859 0.25621715 1.4310001
-0.046337146 0.25621715 1.4310001
-0.04361143 0.25621715 1.4310001
-0.040885717 0.25621715 1.4310001
-0.038000003 0.25514287 1.4250001
-0.035285715 0.25514287 1.4250001
-0.032571431 0.25514287 1.4250001
-0.029982857 0.25621715 1.4310001
-0.027028572 0.25406858 1.419
-0.024325715 0.25406858 1.419
-0.021622857 0.25406858 1.419
-0.018920001 0.25406858 1.419
-0.016217144 0.25406858 1.419
-0.013457144 0.2529943 1.4130001
-0.010765715 0.2529943 1.4130001
-0.0080742864 0.2529943 1.4130001
-0.0053828573 0.2529943 1.4130001
-0.0026914286 0.2529943 1.4130001
0 0.2529943 1.4130001
0.0026914286 0.2529943 1.4130001
0.0053828573 0.2529943 1.4130001
0.0080742864 0.2529943 1.4130001
0.010765715 0.2529943 1.4130001
0.013457144 0.2529943 1.4130001
0.016148573 0.2529943 1.4130001
0.01884 0.2529943 1.4130001
0.021531429 0.2529943 1.4130001
0.024120001 0.25192001 1.4070001
0.026914287 0.2529943 1.4130001
0.029605715 0.2529943 1.4130001
0.032160003 0.25192001 1.4070001
0.034840003 0.25192001 1.4070001
0.037520003 0.25192001 1.4070001
0.040200002 0.25192001 1.4070001
0.042880002 0.25192001 1.4070001
0.045560002 0.25192001 1.4070001
0.047862858 0.24995048 1.396
0.05073905 0.25102478 1.4020001
0.053409524 0.25102478 1.4020001
0.056080002 0.25102478 1.4020001
0.058499049 0.24995048 1.396
0.061420955 0.25102478 1.4020001
0.063817143 0.24995048 1.396
0.066476196 0.24995048 1.396
0.069135241 0.24995048 1.396
0.071794286 0.24995048 1.396
0.074453339 0.24995048 1.396
0.076780953 0.2488762 1.3900001
0.079428576 0.2488762 1.3900001
0.082430482 0.24995048 1.396
0.085089527 0.24995048 1.396
0.087748572 0.24995048 1.396
0.090796195 0.25102478 1.4020001
0.093800001 0.25192001 1.4070001
0.096891433 0.2529943 1.4130001
0.099582858 0.2529943 1.4130001
0.10227429 0.2529943 1.4130001
0.10496572 0.2529943 1.4130001
0.10811429 0.25406858 1.419
0.11081715 0.25406858 1.419
0.11304001 0.2529943 1.4130001
0.11524001 0.25192001 1.4070001
0.11792 0.25192001 1.4070001
0.12017144 0.25102478 1.4020001
0.12284191 0.25102478 1.4020001
0.12497524 0.24995048 1.396
0.12763429 0.24995048 1.396
0.12973334 0.2488762 1.3900001
0.13238096 0.2488762 1.3900001
0.13502857 0.2488762 1.3900001
0.13767619 0.2488762 1.3900001
0.14092954 0.24995048 1.396
0.14420572 0.25102478 1.4020001
0.1468762 0.25102478 1.4020001
0.15008001 0.25192001 1.4070001
0.15341143 0.2529943 1.4130001
0.15610287 0.2529943 1.4130001
0.15946858 0.25406858 1.419
0.16217144 0.25406858 1.419
0.16557144 0.25514287 1.4250001
0.16899429 0.25621715 1.4310001
0.17244001 0.25729144 1.437
0.17590858 0.25836572 1.4430001
0.17865714 0.25836572 1.4430001
0.18140572 0.25836572 1.4430001
0.18568572 0.26051429 1.455
0.19001144 0.26266286 1.4670001
0.19280572 0.26266286 1.4670001
0.19733334 0.26499048 1.48
0.20096381 0.26606476 1.4860001
0.2037943 0.26606476 1.4860001
0.20745906 0.26713905 1.4920001
0.43324193 0.40321526 2.2520001
0.43753144 0.40321526 2.2520001
0.44182098 0.40321526 2.2520001
0.44611049 0.40321526 2.2520001
0.45040002 0.40321526 2.2520001
-0.53221714 0.2956762 1.6340001
-0.52910477 0.2956762 1.6340001
-0.52599239 0.2956762 1.6340001
-0.52288002 0.2956762 1.6340001
-0.51976764 0.2956762 1.6340001
-0.51665527 0.2956762 1.6340001
-0.51354289 0.2956762 1.6340001
-0.51043051 0.2956762 1.6340001
-0.50731814 0.2956762 1.6340001
-0.50636572 0.29694286 1.641
-0.50109333 0.2956762 1.6340001
-0.49798098 0.2956762 1.6340001
-0.49244574 0.29422858 1.626
-0.48934859 0.29422858 1.626
-0.48625144 0.29422858 1.626
-0.50217146 0.30580953 1.6900001
-0.49895239 0.30580953 1.6900001
-0.48840001 0.30128571 1.6650001
-0.4852286 0.30128571 1.6650001
-0.48205715 0.30128571 1.6650001
-0.47888574 0.30128571 1.6650001
-0.47342858 0.2998381 1.6570001
-0.47027239 0.2998381 1.6570001
-0.46711621 0.2998381 1.6570001
-0.46396002 0.2998381 1.6570001
-0.27072001 0.27360001 1.5120001
-0.26784 0.27360001 1.5120001
-0.26390859 0.27251428 1.506
-0.25982669 0.27124763 1.4990001
-0.25817144 0.27251428 1.506
-0.25530288 0.27251428 1.506
-0.25243428 0.27251428 1.506
-0.24956572 0.27251428 1.506
-0.24555048 0.27124763 1.4990001
-0.24269524 0.27124763 1.4990001
-0.24096 0.27251428 1.506
-0.23809144 0.27251428 1.506
-0.23412953 0.27124763 1.4990001
-0.23127429 0.27124763 1.4990001
-0.22841905 0.27124763 1.4990001
-0.22556382 0.27124763 1.4990001
-0.22270858 0.27124763 1.4990001
-0.21882668 0.26998097 1.4920001
-0.21598478 0.26998097 1.4920001
-0.21314287 0.26998097 1.4920001
-0.21030097 0.26998097 1.4920001
-0.20745906 0.26998097 1.4920001
-0.20461716 0.26998097 1.4920001
-0.20177525 0.26998097 1.4920001
-0.19813333 0.26889524 1.4860001
-0.19451429 0.26780954 1.48
-0.19169524 0.26780954 1.48
-0.1888762 0.26780954 1.48
-0.18605715 0.26780954 1.48
-0.1832381 0.26780954 1.48
-0.18041906 0.26780954 1.48
-0.17760001 0.26780954 1.48
-0.17478096 0.26780954 1.48
-0.17196192 0.26780954 1.48
-0.16834286 0.26654288 1.473
-0.16553715 0.26654288 1.473
-0.16273144 0.26654288 1.473
-0.15927429 0.26545715 1.4670001
-0.15648 0.26545715 1.4670001
-0.15431429 0.26654288 1.473
-0.15089144 0.26545715 1.4670001
-0.14870286 0.26654288 1.473
-0.14530286 0.26545715 1.4670001
-0.14250858 0.26545715 1.4670001
-0.13971429 0.26545715 1.4670001
-0.13692001 0.26545715 1.4670001
-0.13412572 0.26545715 1.4670001
-0.13079429 0.26437142 1.4610001
-0.12801144 0.26437142 1.4610001
-0.12522857 0.26437142 1.4610001
-0.12244572 0.26437142 1.4610001
-0.11966286 0.26437142 1.4610001
-0.11688001 0.26437142 1.4610001
-0.11362857 0.26328573 1.455
-0.11131429 0.26437142 1.4610001
-0.10808572 0.26328573 1.455
-0.10531429 0.26328573 1.455
-0.10212 0.2622 1.4490001
-0.099360004 0.2622 1.4490001
-0.096600004 0.2622 1.4490001
-0.093840003 0.2622 1.4490001
-0.090702862 0.2611143 1.4430001
-0.08795429 0.2611143 1.4430001
-0.085205719 0.2611143 1.4430001
-0.082457148 0.2611143 1.4430001
-0.079377145 0.26002857 1.437
-0.076640002 0.26002857 1.437
-0.07390286 0.26002857 1.437
-0.071165718 0.26002857 1.437
-0.068428576 0.26002857 1.437
-0.065691434 0.26002857 1.437
-0.062954292 0.26002857 1.437
-0.060217146 0.26002857 1.437
-0.057480004 0.26002857 1.437
-0.054742858 0.26002857 1.437
-0.052005716 0.26002857 1.437
-0.049062859 0.25894287 1.4310001
-0.046337146 0.25894287 1.4310001
-0.04361143 0.25894287 1.4310001
-0.040885717 0.25894287 1.4310001
-0.038000003 0.25785714 1.4250001
-0.035285715 0.25785714 1.4250001
-0.032571431 0.25785714 1.4250001
-0.029857144 0.25785714 1.4250001
-0.027028572 0.25677145 1.419
-0.024222858 0.25568572 1.4130001
-0.021531429 0.25568572 1.4130001
-0.01884 0.25568572 1.4130001
-0.016148573 0.25568572 1.4130001
-0.013457144 0.25568572 1.4130001
-0.010720001 0.25460002 1.4070001
-0.0080742864 0.25568572 1.4130001
-0.0053828573 0.25568572 1.4130001
-0.0026914286 0.25568572 1.4130001
0 0.25568572 1.4130001
0.0026800002 0.25460002 1.4070001
0.0053828573 0.25568572 1.4130001
0.0080742864 0.25568572 1.4130001
0.010765715 0.25568572 1.4130001
0.013457144 0.25568572 1.4130001
0.016148573 0.25568572 1.4130001
0.018760001 0.25460002 1.4070001
0.021440001 0.25460002 1.4070001
0.024120001 0.25460002 1.4070001
0.026800001 0.25460002 1.4070001
0.029480001 0.25460002 1.4070001
0.032045715 0.25369525 1.4020001
0.034716193 0.25369525 1.4020001
0.037386667 0.25369525 1.4020001
0.040057145 0.25369525 1.4020001
0.042727619 0.25369525 1.4020001
0.045009524 0.25152382 1.3900001
0.047657143 0.25152382 1.3900001
0.050304763 0.25152382 1.3900001
0.052952383 0.25152382 1.3900001
0.055600002 0.25152382 1.3900001
0.058247622 0.25152382 1.3900001
0.060895242 0.25152382 1.3900001
0.063542858 0.25152382 1.3900001
0.066190481 0.25152382 1.3900001
0.068838097 0.25152382 1.3900001
0.071485721 0.25152382 1.3900001
0.073866673 0.25061905 1.3850001
0.076780953 0.25152382 1.3900001
0.079142861 0.25061905 1.3850001
0.082076192 0.25152382 1.3900001
0.084723815 0.25152382 1.3900001
0.087371431 0.25152382 1.3900001
0.090407625 0.25260952 1.396
0.09306667 0.25260952 1.396
0.096137144 0.25369525 1.4020001
0.098807625 0.25369525 1.4020001
0.10104381 0.25260952 1.396
0.10370286 0.25260952 1.396
0.1072 0.25460002 1.4070001
0.10988 0.25460002 1.4070001
0.11256 0.25460002 1.4070001
0.11483048 0.25369525 1.4020001
0.11750095 0.25369525 1.4020001
0.12017144 0.25369525 1.4020001
0.1223162 0.25260952 1.396
0.1244381 0.25152382 1.3900001
0.12708572 0.25152382 1.3900001
0.12973334 0.25152382 1.3900001
0.13133334 0.24953334 1.3790001
0.13396001 0.24953334 1.3790001
0.13658667 0.24953334 1.3790001
0.13870858 0.24862859 1.3740001
0.14132571 0.24862859 1.3740001
0.14394286 0.24862859 1.3740001
0.14656 0.24862859 1.3740001
0.1509143 0.25152382 1.3900001
0.15488763 0.25369525 1.4020001
0.15812001 0.25460002 1.4070001
0.16080001 0.25460002 1.4070001
0.16487429 0.25677145 1.419
0.16828573 0.25785714 1.4250001
0.171 0.25785714 1.4250001
0.17444572 0.25894287 1.4310001
0.17791429 0.26002857 1.437
0.18065144 0.26002857 1.437
0.18338858 0.26002857 1.437
0.19001144 0.26545715 1.4670001
0.19280572 0.26545715 1.4670001
0.19733334 0.26780954 1.48
0.20096381 0.26889524 1.4860001
0.43324193 0.40750477 2.2520001
0.43753144 0.40750477 2.2520001
0.44182098 0.40750477 2.2520001
0.44611049 0.40750477 2.2520001
0.45040002 0.40750477 2.2520001
0.45468953 0.40750477 2.2520001
0.46923432 0.41275239 2.2810001
0.47357908 0.41275239 2.2810001
0.47792384 0.41275239 2.2810001
0.4822686 0.41275239 2.2810001
0.48341334 0.41003811 2.266
0.48772955 0.41003811 2.266
0.49204573 0.41003811 2.266
-0.52961147 0.29732573 1.626
-0.52651429 0.29732573 1.626
-0.52599239 0.29878858 1.6340001
-0.52032 0.29732573 1.626
-0.51976764 0.29878858 1.6340001
-0.51665527 0.29878858 1.6340001
-0.51354289 0.29878858 1.6340001
-0.51043051 0.29878858 1.6340001
-0.50731814 0.29878858 1.6340001
-0.5042057 0.29878858 1.6340001
-0.50109333 0.29878858 1.6340001
-0.49798098 0.29878858 1.6340001
-0.49486858 0.29878858 1.6340001
-0.48934859 0.29732573 1.626
-0.48625144 0.29732573 1.626
-0.50217146 0.3090286 1.6900001
-0.49157146 0.30445716 1.6650001
-0.48840001 0.30445716 1.6650001
-0.4852286 0.30445716 1.6650001
-0.48437336 0.30592 1.6730001
-0.47888574 0.30445716 1.6650001
-0.4757143 0.30445716 1.6650001
-0.47254288 0.30445716 1.6650001
-0.46937144 0.30445716 1.6650001
-0.46396002 0.30299431 1.6570001
-0.25982669 0.27410287 1.4990001
-0.25920001 0.27648002 1.5120001
-0.25530288 0.27538288 1.506
-0.25243428 0.27538288 1.506
-0.25056002 0.27648002 1.5120001
-0.24555048 0.27410287 1.4990001
-0.24382858 0.27538288 1.506
-0.24096 0.27538288 1.506
-0.23809144 0.27538288 1.506
-0.23412953 0.27410287 1.4990001
-0.23127429 0.27410287 1.4990001
-0.22948572 0.27538288 1.506
-0.22556382 0.27410287 1.4990001
-0.22166859 0.27282286 1.4920001
-0.21882668 0.27282286 1.4920001
-0.21598478 0.27282286 1.4920001
-0.21314287 0.27282286 1.4920001
-0.21030097 0.27282286 1.4920001
-0.20745906 0.27282286 1.4920001
-0.20461716 0.27282286 1.4920001
-0.20177525 0.27282286 1.4920001
-0.19813333 0.27172571 1.4860001
-0.19451429 0.27062857 1.48
-0.19169524 0.27062857 1.48
-0.1888762 0.27062857 1.48
-0.18605715 0.27062857 1.48
-0.1832381 0.27062857 1.48
-0.18041906 0.27062857 1.48
-0.17676 0.26934859 1.473
-0.17395429 0.26934859 1.473
-0.17196192 0.27062857 1.48
-0.16834286 0.26934859 1.473
-0.16553715 0.26934859 1.473
-0.16273144 0.26934859 1.473
-0.15992571 0.26934859 1.473
-0.15648 0.26825145 1.4670001
-0.15431429 0.26934859 1.473
-0.15150857 0.26934859 1.473
-0.14870286 0.26934859 1.473
-0.14530286 0.26825145 1.4670001
-0.14250858 0.26825145 1.4670001
-0.13971429 0.26825145 1.4670001
-0.13692001 0.26825145 1.4670001
-0.13412572 0.26825145 1.4670001
-0.13133143 0.26825145 1.4670001
-0.12801144 0.26715431 1.4610001
-0.12522857 0.26715431 1.4610001
-0.12244572 0.26715431 1.4610001
-0.11966286 0.26715431 1.4610001
-0.11688001 0.26715431 1.4610001
-0.11362857 0.26605716 1.455
-0.11085714 0.26605716 1.455
-0.10808572 0.26605716 1.455
-0.10531429 0.26605716 1.455
-0.10254286 0.26605716 1.455
-0.099360004 0.26496002 1.4490001
-0.096600004 0.26496002 1.4490001
-0.093840003 0.26496002 1.4490001
-0.091080002 0.26496002 1.4490001
-0.08795429 0.26386288 1.4430001
-0.085205719 0.26386288 1.4430001
-0.082457148 0.26386288 1.4430001
-0.079377145 0.26276574 1.437
-0.076640002 0.26276574 1.437
-0.07390286 0.26276574 1.437
-0.071165718 0.26276574 1.437
-0.068428576 0.26276574 1.437
-0.065691434 0.26276574 1.437
-0.062954292 0.26276574 1.437
-0.060217146 0.26276574 1.437
-0.057480004 0.26276574 1.437
-0.054742858 0.26276574 1.437
-0.052005716 0.26276574 1.437
-0.049062859 0.26166859 1.4310001
-0.046337146 0.26166859 1.4310001
-0.043428574 0.26057145 1.4250001
-0.040714286 0.26057145 1.4250001
-0.038000003 0.26057145 1.4250001
-0.035285715 0.26057145 1.4250001
-0.032571431 0.26057145 1.4250001
-0.029857144 0.26057145 1.4250001
-0.026914287 0.25837716 1.4130001
-0.024222858 0.25837716 1.4130001
-0.021531429 0.25837716 1.4130001
-0.01884 0.25837716 1.4130001
-0.016148573 0.25837716 1.4130001
-0.013457144 0.25837716 1.4130001
-0.010720001 0.25728002 1.4070001
-0.0080400007 0.25728002 1.4070001
-0.0053600003 0.25728002 1.4070001
-0.0026800002 0.25728002 1.4070001
0 0.25728002 1.4070001
0.0026800002 0.25728002 1.4070001
0.0053600003 0.25728002 1.4070001
0.0080400007 0.25728002 1.4070001
0.010720001 0.25728002 1.4070001
0.013400001 0.25728002 1.4070001
0.016080001 0.25728002 1.4070001
0.018760001 0.25728002 1.4070001
0.021440001 0.25728002 1.4070001
0.024034286 0.25636572 1.4020001
0.026704762 0.25636572 1.4020001
0.029375238 0.25636572 1.4020001
0.031908572 0.25526857 1.396
0.034567621 0.25526857 1.396
0.037226669 0.25526857 1.396
0.039885715 0.25526857 1.396
0.042544764 0.25526857 1.396
0.045009524 0.25417143 1.3900001
0.047485717 0.25325716 1.3850001
0.050304763 0.25417143 1.3900001
0.052761905 0.25325716 1.3850001
0.055600002 0.25417143 1.3900001
0.058038097 0.25325716 1.3850001
0.060676191 0.25325716 1.3850001
0.063314289 0.25325716 1.3850001
0.065952383 0.25325716 1.3850001
0.068838097 0.25417143 1.3900001
0.071228571 0.25325716 1.3850001
0.073866673 0.25325716 1.3850001
0.076504767 0.25325716 1.3850001
0.079142861 0.25325716 1.3850001
0.081780955 0.25325716 1.3850001
0.084419049 0.25325716 1.3850001
0.087057143 0.25325716 1.3850001
0.089695245 0.25325716 1.3850001
0.092333339 0.25325716 1.3850001
0.094971433 0.25325716 1.3850001
0.097609527 0.25325716 1.3850001
0.099813335 0.25216001 1.3790001
0.10206857 0.25124574 1.3740001
0.10468572 0.25124574 1.3740001
0.10730286 0.25124574 1.3740001
0.10992 0.25124574 1.3740001
0.11253715 0.25124574 1.3740001
0.11515429 0.25124574 1.3740001
0.1182 0.25216001 1.3790001
0.12082667 0.25216001 1.3790001
0.12345334 0.25216001 1.3790001
0.12562287 0.25124574 1.3740001
0.12824 0.25124574 1.3740001
0.13085715 0.25124574 1.3740001
0.13347429 0.25124574 1.3740001
0.13549715 0.25014859 1.368
0.13810286 0.25014859 1.368
0.14070858 0.25014859 1.368
0.14331429 0.25014859 1.368
0.14656 0.25124574 1.3740001
0.14917715 0.25124574 1.3740001
0.15356191 0.25417143 1.3900001
0.15688382 0.25526857 1.396
0.16022858 0.25636572 1.4020001
0.16417715 0.25837716 1.4130001
0.16757715 0.25947431 1.419
0.171 0.26057145 1.4250001
0.17444572 0.26166859 1.4310001
0.17717144 0.26166859 1.4310001
0.17989714 0.26166859 1.4310001
0.18262286 0.26166859 1.4310001
0.4289524 0.4117943 2.2520001
0.43882096 0.41709715 2.2810001
0.43753144 0.4117943 2.2520001
0.44182098 0.4117943 2.2520001
0.44611049 0.4117943 2.2520001
0.45040002 0.4117943 2.2520001
0.45751619 0.41435429 2.266
0.4618324 0.41435429 2.266
0.46923432 0.41709715 2.2810001
0.47046477 0.41435429 2.266
0.47792384 0.41709715 2.2810001
0.47909716 0.41435429 2.266
0.48341334 0.41435429 2.266
0.48471621 0.4117943 2.2520001
0.48900574 0.4117943 2.2520001
-0.52961147 0.30042288 1.626
-0.52651429 0.30042288 1.626
-0.52341717 0.30042288 1.626
-0.52032 0.30042288 1.626
-0.51722288 0.30042288 1.626
-0.5141257 0.30042288 1.626
-0.51354289 0.30190095 1.6340001
-0.50793147 0.30042288 1.626
-0.50731814 0.30190095 1.6340001
-0.50173718 0.30042288 1.626
-0.49864003 0.30042288 1.626
-0.49554288 0.30042288 1.626
-0.49244574 0.30042288 1.626
-0.49157146 0.30762857 1.6650001
-0.49309334 0.31058478 1.6810001
-0.48756 0.30910668 1.6730001
-0.48437336 0.30910668 1.6730001
-0.48118669 0.30910668 1.6730001
-0.4757143 0.30762857 1.6650001
-0.47027239 0.3061505 1.6570001
-0.46711621 0.3061505 1.6570001
-0.46396002 0.3061505 1.6570001
-0.25243428 0.27825144 1.506
-0.24625143 0.27455619 1.4860001
-0.24129143 0.2721543 1.473
-0.24480002 0.27936 1.5120001
-0.24096 0.27825144 1.506
-0.23809144 0.27825144 1.506
-0.23303621 0.27566478 1.4920001
-0.2323543 0.27825144 1.506
-0.22948572 0.27825144 1.506
-0.22556382 0.27695811 1.4990001
-0.22166859 0.27566478 1.4920001
-0.21882668 0.27566478 1.4920001
-0.21598478 0.27566478 1.4920001
-0.21314287 0.27566478 1.4920001
-0.21030097 0.27566478 1.4920001
-0.20745906 0.27566478 1.4920001
-0.20461716 0.27566478 1.4920001
-0.20177525 0.27566478 1.4920001
-0.19893335 0.27566478 1.4920001
-0.19451429 0.27344763 1.48
-0.19169524 0.27344763 1.48
-0.1888762 0.27344763 1.48
-0.18517715 0.2721543 1.473
-0.18237144 0.2721543 1.473
-0.17956573 0.2721543 1.473
-0.17676 0.2721543 1.473
-0.17395429 0.2721543 1.473
-0.17196192 0.27344763 1.48
-0.16914286 0.27344763 1.48
-0.16632381 0.27344763 1.48
-0.16350476 0.27344763 1.48
-0.15992571 0.2721543 1.473
-0.15712 0.2721543 1.473
-0.15504763 0.27344763 1.48
-0.15150857 0.2721543 1.473
-0.14940953 0.27344763 1.48
-0.14589715 0.2721543 1.473
-0.14309144 0.2721543 1.473
-0.14028572 0.2721543 1.473
-0.13748001 0.2721543 1.473
-0.1346743 0.2721543 1.473
-0.13133143 0.27104571 1.4670001
-0.12801144 0.26993716 1.4610001
-0.12522857 0.26993716 1.4610001
-0.12244572 0.26993716 1.4610001
-0.11966286 0.26993716 1.4610001
-0.11688001 0.26993716 1.4610001
-0.11409715 0.26993716 1.4610001
-0.11085714 0.26882857 1.455
-0.10808572 0.26882857 1.455
-0.10531429 0.26882857 1.455
-0.10254286 0.26882857 1.455
-0.099771433 0.26882857 1.455
-0.096600004 0.26772001 1.4490001
-0.093840003 0.26772001 1.4490001
-0.091080002 0.26772001 1.4490001
-0.088320002 0.26772001 1.4490001
-0.085205719 0.26661143 1.4430001
-0.082457148 0.26661143 1.4430001
-0.079708576 0.26661143 1.4430001
-0.076640002 0.26550287 1.437
-0.07390286 0.26550287 1.437
-0.071165718 0.26550287 1.437
-0.068428576 0.26550287 1.437
-0.065691434 0.26550287 1.437
-0.062954292 0.26550287 1.437
-0.060217146 0.26550287 1.437
-0.057480004 0.26550287 1.437
-0.054742858 0.26550287 1.437
-0.052005716 0.26550287 1.437
-0.049062859 0.26439428 1.4310001
-0.046337146 0.26439428 1.4310001
-0.043428574 0.26328573 1.4250001
-0.040714286 0.26328573 1.4250001
-0.038000003 0.26328573 1.4250001
-0.035285715 0.26328573 1.4250001
-0.032434288 0.26217714 1.419
-0.02973143 0.26217714 1.419
-0.026914287 0.26106858 1.4130001
-0.024222858 0.26106858 1.4130001
-0.021531429 0.26106858 1.4130001
-0.01884 0.26106858 1.4130001
-0.016080001 0.25996 1.4070001
-0.013400001 0.25996 1.4070001
-0.010720001 0.25996 1.4070001
-0.0080400007 0.25996 1.4070001
-0.0053600003 0.25996 1.4070001
-0.0026800002 0.25996 1.4070001
0 0.25996 1.4070001
0.0026800002 0.25996 1.4070001
0.0053600003 0.25996 1.4070001
0.0080400007 0.25996 1.4070001
0.010720001 0.25996 1.4070001
0.013400001 0.25996 1.4070001
0.016080001 0.25996 1.4070001
0.018760001 0.25996 1.4070001
0.021440001 0.25996 1.4070001
0.024034286 0.25903621 1.4020001
0.026704762 0.25903621 1.4020001
0.029375238 0.25903621 1.4020001
0.031908572 0.25792763 1.396
0.034567621 0.25792763 1.396
0.037226669 0.25792763 1.396
0.039714288 0.25681907 1.3900001
0.042361908 0.25681907 1.3900001
0.044847623 0.25589526 1.3850001
0.047485717 0.25589526 1.3850001
0.050123811 0.25589526 1.3850001
0.052761905 0.25589526 1.3850001
0.055400003 0.25589526 1.3850001
0.058038097 0.25589526 1.3850001
0.060676191 0.25589526 1.3850001
0.063314289 0.25589526 1.3850001
0.065952383 0.25589526 1.3850001
0.068590477 0.25589526 1.3850001
0.070920005 0.25478667 1.3790001
0.07354667 0.25478667 1.3790001
0.076173335 0.25478667 1.3790001
0.0788 0.25478667 1.3790001
0.081426673 0.25478667 1.3790001
0.084053338 0.25478667 1.3790001
0.086680003 0.25478667 1.3790001
0.089306667 0.25478667 1.3790001
0.09193334 0.25478667 1.3790001
0.094217144 0.25386286 1.3740001
0.096834287 0.25386286 1.3740001
0.099017143 0.2527543 1.368
0.10162286 0.2527543 1.368
0.10422858 0.2527543 1.368
0.10683429 0.2527543 1.368
0.10944001 0.2527543 1.368
0.11204572 0.2527543 1.368
0.11465143 0.2527543 1.368
0.11725715 0.2527543 1.368
0.11986286 0.2527543 1.368
0.12246858 0.2527543 1.368
0.1250743 0.2527543 1.368
0.12768 0.2527543 1.368
0.13028572 0.2527543 1.368
0.13289143 0.2527543 1.368
0.13549715 0.2527543 1.368
0.1375981 0.25183049 1.363
0.1401943 0.25183049 1.363
0.14331429 0.2527543 1.368
0.14592001 0.2527543 1.368
0.14852571 0.2527543 1.368
0.15179428 0.25386286 1.3740001
0.15620953 0.25681907 1.3900001
0.16022858 0.25903621 1.4020001
0.16417715 0.26106858 1.4130001
0.16686858 0.26106858 1.4130001
0.17028001 0.26217714 1.419
0.1737143 0.26328573 1.4250001
0.17642857 0.26328573 1.4250001
0.17989714 0.26439428 1.4310001
0.18262286 0.26439428 1.4310001
0.4344762 0.42144191 2.2810001
0.43882096 0.42144191 2.2810001
0.43753144 0.41608381 2.2520001
0.44182098 0.41608381 2.2520001
0.44611049 0.41608381 2.2520001
0.45320001 0.41867051 2.266
0.45751619 0.41867051 2.266
0.4618324 0.41867051 2.266
0.46923432 0.42144191 2.2810001
0.47357908 0.42144191 2.2810001
0.47792384 0.42144191 2.2810001
0.4822686 0.42144191 2.2810001
0.48661336 0.42144191 2.2810001
0.48772955 0.41867051 2.266
0.49204573 0.41867051 2.266
-0.52961147 0.30352002 1.626
-0.52651429 0.30352002 1.626
-0.52341717 0.30352002 1.626
-0.52032 0.30352002 1.626
-0.51722288 0.30352002 1.626
-0.5141257 0.30352002 1.626
-0.51354289 0.30501336 1.6340001
-0.51043051 0.30501336 1.6340001
-0.50731814 0.30501336 1.6340001
-0.5042057 0.30501336 1.6340001
-0.49864003 0.30352002 1.626
-0.49554288 0.30352002 1.626
-0.49244574 0.30352002 1.626
-0.49573335 0.31546667 1.6900001
-0.48756 0.31229335 1.6730001
-0.48437336 0.31229335 1.6730001
-0.48118669 0.31229335 1.6730001
-0.4757143 0.31080002 1.6650001
-0.47254288 0.31080002 1.6650001
-0.46937144 0.31080002 1.6650001
-0.46620002 0.31080002 1.6650001
-0.23809144 0.28112 1.506
-0.23303621 0.27850667 1.4920001
-0.23127429 0.27981335 1.4990001
-0.22841905 0.27981335 1.4990001
-0.22451049 0.27850667 1.4920001
-0.22077715 0.27738667 1.4860001
-0.21794668 0.27738667 1.4860001
-0.2151162 0.27738667 1.4860001
-0.21228573 0.27738667 1.4860001
-0.21030097 0.27850667 1.4920001
-0.20745906 0.27850667 1.4920001
-0.20461716 0.27850667 1.4920001
-0.20177525 0.27850667 1.4920001
-0.17956573 0.27496001 1.473
-0.17676 0.27496001 1.473
-0.17395429 0.27496001 1.473
-0.17196192 0.27626666 1.48
-0.16834286 0.27496001 1.473
-0.16632381 0.27626666 1.48
-0.16350476 0.27626666 1.48
-0.15992571 0.27496001 1.473
-0.15712 0.27496001 1.473
-0.15504763 0.27626666 1.48
-0.15222858 0.27626666 1.48
-0.14940953 0.27626666 1.48
-0.14659049 0.27626666 1.48
-0.14377144 0.27626666 1.48
-0.14028572 0.27496001 1.473
-0.13748001 0.27496001 1.473
-0.1346743 0.27496001 1.473
-0.13133143 0.27384001 1.4670001
-0.12801144 0.27272001 1.4610001
-0.12522857 0.27272001 1.4610001
-0.12244572 0.27272001 1.4610001
-0.11966286 0.27272001 1.4610001
-0.11688001 0.27272001 1.4610001
-0.11362857 0.27160001 1.455
-0.11085714 0.27160001 1.455
-0.10808572 0.27160001 1.455
-0.10531429 0.27160001 1.455
-0.10254286 0.27160001 1.455
-0.099771433 0.27160001 1.455
-0.096600004 0.27048001 1.4490001
-0.093840003 0.27048001 1.4490001
-0.091080002 0.27048001 1.4490001
-0.088320002 0.27048001 1.4490001
-0.085205719 0.26936001 1.4430001
-0.082457148 0.26936001 1.4430001
-0.079377145 0.26824 1.437
-0.076640002 0.26824 1.437
-0.07390286 0.26824 1.437
-0.071165718 0.26824 1.437
-0.068428576 0.26824 1.437
-0.065691434 0.26824 1.437
-0.062954292 0.26824 1.437
-0.060217146 0.26824 1.437
-0.057480004 0.26824 1.437
-0.054742858 0.26824 1.437
-0.052005716 0.26824 1.437
-0.049062859 0.26712 1.4310001
-0.046337146 0.26712 1.4310001
-0.04361143 0.26712 1.4310001
-0.040885717 0.26712 1.4310001
-0.038000003 0.266 1.4250001
-0.035285715 0.266 1.4250001
-0.032571431 0.266 1.4250001
-0.029857144 0.266 1.4250001
-0.026914287 0.26376 1.4130001
-0.024222858 0.26376 1.4130001
-0.021531429 0.26376 1.4130001
-0.01884 0.26376 1.4130001
-0.016148573 0.26376 1.4130001
-0.013400001 0.26264 1.4070001
-0.010720001 0.26264 1.4070001
-0.0080400007 0.26264 1.4070001
-0.0053600003 0.26264 1.4070001
-0.0026800002 0.26264 1.4070001
0 0.26264 1.4070001
0.0026800002 0.26264 1.4070001
0.0053600003 0.26264 1.4070001
0.0080400007 0.26264 1.4070001
0.010720001 0.26264 1.4070001
0.013400001 0.26264 1.4070001
0.016080001 0.26264 1.4070001
0.018760001 0.26264 1.4070001
0.02136381 0.26170668 1.4020001
0.024034286 0.26170668 1.4020001
0.026704762 0.26170668 1.4020001
0.029249525 0.26058668 1.396
0.031908572 0.26058668 1.396
0.034419049 0.25946668 1.3900001
0.037066668 0.25946668 1.3900001
0.039714288 0.25946668 1.3900001
0.042361908 0.25946668 1.3900001
0.044847623 0.25853333 1.3850001
0.047485717 0.25853333 1.3850001
0.050123811 0.25853333 1.3850001
0.052761905 0.25853333 1.3850001
0.055400003 0.25853333 1.3850001
0.058038097 0.25853333 1.3850001
0.060676191 0.25853333 1.3850001
0.063314289 0.25853333 1.3850001
0.065952383 0.25853333 1.3850001
0.068590477 0.25853333 1.3850001
0.070920005 0.25741336 1.3790001
0.07354667 0.25741336 1.3790001
0.076173335 0.25741336 1.3790001
0.0788 0.25741336 1.3790001
0.081426673 0.25741336 1.3790001
0.084053338 0.25741336 1.3790001
0.086680003 0.25741336 1.3790001
0.089306667 0.25741336 1.3790001
0.09193334 0.25741336 1.3790001
0.094217144 0.25648001 1.3740001
0.096834287 0.25648001 1.3740001
0.099017143 0.25536001 1.368
0.10162286 0.25536001 1.368
0.10422858 0.25536001 1.368
0.10683429 0.25536001 1.368
0.10944001 0.25536001 1.368
0.11204572 0.25536001 1.368
0.11465143 0.25536001 1.368
0.11725715 0.25536001 1.368
0.11986286 0.25536001 1.368
0.12246858 0.25536001 1.368
0.1250743 0.25536001 1.368
0.12768 0.25536001 1.368
0.12980953 0.25442669 1.363
0.13240571 0.25442669 1.363
0.13500191 0.25442669 1.363
0.1375981 0.25442669 1.363
0.1401943 0.25442669 1.363
0.14279048 0.25442669 1.363
0.14538667 0.25442669 1.363
0.14798287 0.25442669 1.363
0.15113144 0.25536001 1.368
0.15564762 0.25853333 1.3850001
0.15954286 0.26058668 1.396
0.16417715 0.26376 1.4130001
0.16686858 0.26376 1.4130001
0.17028001 0.26488 1.419
0.1737143 0.266 1.4250001
0.17568572 0.26488 1.419
0.17914286 0.266 1.4250001
0.18185715 0.266 1.4250001
0.43161908 0.42298669 2.266
0.43882096 0.42578667 2.2810001
0.43753144 0.42037335 2.2520001
0.44182098 0.42037335 2.2520001
0.44888383 0.42298669 2.266
0.45320001 0.42298669 2.266
0.45751619 0.42298669 2.266
0.4618324 0.42298669 2.266
0.46923432 0.42578667 2.2810001
0.47357908 0.42578667 2.2810001
0.47792384 0.42578667 2.2810001
0.4822686 0.42578667 2.2810001
0.48661336 0.42578667 2.2810001
0.49095812 0.42578667 2.2810001
0.49530289 0.42578667 2.2810001
-0.52961147 0.30661714 1.626
-0.52651429 0.30661714 1.626
-0.52341717 0.30661714 1.626
-0.52032 0.30661714 1.626
-0.51722288 0.30661714 1.626
-0.5141257 0.30661714 1.626
-0.51102859 0.30661714 1.626
-0.50793147 0.30661714 1.626
-0.50483429 0.30661714 1.626
-0.50173718 0.30661714 1.626
-0.49864003 0.30661714 1.626
-0.49554288 0.30661714 1.626
-0.49573335 0.31868574 1.6900001
-0.49251431 0.31868574 1.6900001
-0.48437336 0.31548002 1.6730001
-0.48118669 0.31548002 1.6730001
-0.47800002 0.31548002 1.6730001
-0.47481334 0.31548002 1.6730001
-0.47162667 0.31548002 1.6730001
-0.46620002 0.31397143 1.6650001
-0.17324573 0.27663431 1.4670001
-0.17196192 0.27908573 1.48
-0.16834286 0.27776572 1.473
-0.16632381 0.27908573 1.48
-0.16350476 0.27908573 1.48
-0.15992571 0.27776572 1.473
-0.15786667 0.27908573 1.48
-0.1556762 0.28021714 1.4860001
-0.15222858 0.27908573 1.48
-0.14940953 0.27908573 1.48
-0.14659049 0.27908573 1.48
-0.14377144 0.27908573 1.48
-0.14095239 0.27908573 1.48
-0.13748001 0.27776572 1.473
-0.1346743 0.27776572 1.473
-0.13133143 0.27663431 1.4670001
-0.12853715 0.27663431 1.4670001
-0.12522857 0.27550286 1.4610001
-0.12244572 0.27550286 1.4610001
-0.11966286 0.27550286 1.4610001
-0.11688001 0.27550286 1.4610001
-0.11409715 0.27550286 1.4610001
-0.11085714 0.27437145 1.455
-0.10808572 0.27437145 1.455
-0.10531429 0.27437145 1.455
-0.10212 0.27324 1.4490001
-0.099771433 0.27437145 1.455
-0.096600004 0.27324 1.4490001
-0.093840003 0.27324 1.4490001
-0.091457143 0.27437145 1.455
-0.088320002 0.27324 1.4490001
-0.085560001 0.27324 1.4490001
-0.082457148 0.27210858 1.4430001
-0.079708576 0.27210858 1.4430001
-0.076960005 0.27210858 1.4430001
-0.07390286 0.27097714 1.437
-0.071165718 0.27097714 1.437
-0.068428576 0.27097714 1.437
-0.065691434 0.27097714 1.437
-0.062954292 0.27097714 1.437
-0.060217146 0.27097714 1.437
-0.057480004 0.27097714 1.437
-0.054742858 0.27097714 1.437
-0.052005716 0.27097714 1.437
-0.049062859 0.26984572 1.4310001
-0.046337146 0.26984572 1.4310001
-0.04361143 0.26984572 1.4310001
-0.040885717 0.26984572 1.4310001
-0.03816 0.26984572 1.4310001
-0.035434287 0.26984572 1.4310001
-0.032571431 0.26871431 1.4250001
-0.029857144 0.26871431 1.4250001
-0.027028572 0.26758286 1.419
-0.024222858 0.26645145 1.4130001
-0.021531429 0.26645145 1.4130001
-0.01884 0.26645145 1.4130001
-0.016148573 0.26645145 1.4130001
-0.013457144 0.26645145 1.4130001
-0.010720001 0.26532 1.4070001
-0.0080400007 0.26532 1.4070001
-0.0053600003 0.26532 1.4070001
-0.0026800002 0.26532 1.4070001
0 0.26532 1.4070001
0.0026800002 0.26532 1.4070001
0.0053600003 0.26532 1.4070001
0.0080400007 0.26532 1.4070001
0.010720001 0.26532 1.4070001
0.013400001 0.26532 1.4070001
0.016080001 0.26532 1.4070001
0.018693333 0.26437715 1.4020001
0.02136381 0.26437715 1.4020001
0.024034286 0.26437715 1.4020001
0.026704762 0.26437715 1.4020001
0.029249525 0.26324573 1.396
0.031908572 0.26324573 1.396
0.034419049 0.26211429 1.3900001
0.037066668 0.26211429 1.3900001
0.039714288 0.26211429 1.3900001
0.042361908 0.26211429 1.3900001
0.044847623 0.26117143 1.3850001
0.047485717 0.26117143 1.3850001
0.050123811 0.26117143 1.3850001
0.052761905 0.26117143 1.3850001
0.055400003 0.26117143 1.3850001
0.058038097 0.26117143 1.3850001
0.060676191 0.26117143 1.3850001
0.063314289 0.26117143 1.3850001
0.065952383 0.26117143 1.3850001
0.068293333 0.26004001 1.3790001
0.070920005 0.26004001 1.3790001
0.073279999 0.25909716 1.3740001
0.075897142 0.25909716 1.3740001
0.078514285 0.25909716 1.3740001
0.081131428 0.25909716 1.3740001
0.083748572 0.25909716 1.3740001
0.086365715 0.25909716 1.3740001
0.088982858 0.25909716 1.3740001
0.091600001 0.25909716 1.3740001
0.094217144 0.25909716 1.3740001
0.096834287 0.25909716 1.3740001
0.099017143 0.25796571 1.368
0.10162286 0.25796571 1.368
0.10422858 0.25796571 1.368
0.10683429 0.25796571 1.368
0.10944001 0.25796571 1.368
0.11204572 0.25796571 1.368
0.11423238 0.25702286 1.363
0.11725715 0.25796571 1.368
0.11942477 0.25702286 1.363
0.12202096 0.25702286 1.363
0.12461714 0.25702286 1.363
0.12721334 0.25702286 1.363
0.12980953 0.25702286 1.363
0.13240571 0.25702286 1.363
0.13450667 0.25608 1.358
0.13709334 0.25608 1.358
0.13968 0.25608 1.358
0.14279048 0.25702286 1.363
0.14538667 0.25702286 1.363
0.14798287 0.25702286 1.363
0.15057905 0.25702286 1.363
0.15441144 0.25909716 1.3740001
0.15828572 0.26117143 1.3850001
0.16348 0.26532 1.4070001
0.16686858 0.26645145 1.4130001
0.16956 0.26645145 1.4130001
0.17298286 0.26758286 1.419
0.17568572 0.26758286 1.419
0.17838858 0.26758286 1.419
0.18185715 0.26871431 1.4250001
0.43752381 0.43314859 2.2970002
0.43882096 0.43013144 2.2810001
0.43753144 0.42466286 2.2520001
0.44456762 0.42730287 2.266
0.44888383 0.42730287 2.266
0.45320001 0.42730287 2.266
0.46054476 0.43013144 2.2810001
0.46488953 0.43013144 2.2810001
0.47561145 0.43597716 2.312
0.47357908 0.43013144 2.2810001
0.47792384 0.43013144 2.2810001
