# .PCD v0.7 - Point Cloud Data file format
VERSION 0.7
FIELDS x y z
SIZE 4 4 4
TYPE F F F
COUNT 1 1 1
WIDTH 1521
HEIGHT 1
VIEWPOINT 0 0 0 1 0 0 0
POINTS 1521
DATA ascii
0.28 0.23 1.7500001
0.28333333 0.23 1.7500001
0.28814095 0.23118286 1.7590001
0.29149145 0.23118286 1.7590001
0.29635048 0.23236573 1.7680001
0.29971811 0.23236573 1.7680001
0.30308571 0.23236573 1.7680001
0.30801335 0.23354858 1.7770001
0.31139812 0.23354858 1.7770001
0.31478286 0.23354858 1.7770001
0.31816763 0.23354858 1.7770001
0.3215524 0.23354858 1.7770001
0.32658288 0.23473144 1.7860001
0.32998478 0.23473144 1.7860001
0.33338669 0.23473144 1.7860001
0.33678859 0.23473144 1.7860001
0.3401905 0.23473144 1.7860001
0.34359241 0.23473144 1.7860001
0.34874287 0.23591429 1.7950001
0.35216191 0.23591429 1.7950001
0.35736382 0.23709716 1.8040001
0.3628 0.23841144 1.8140001
0.36625525 0.23841144 1.8140001
0.3717486 0.23972572 1.8240001
0.37316573 0.23841144 1.8140001
0.37662098 0.23841144 1.8140001
0.38217145 0.23972572 1.8240001
0.38564572 0.23972572 1.8240001
0.38912001 0.23972572 1.8240001
0.39044192 0.23841144 1.8140001
0.39389715 0.23841144 1.8140001
0.50662857 0.26482859 2.0150001
0.51350671 0.26640573 2.0270002
0.51736766 0.26640573 2.0270002
0.51814288 0.26482859 2.0150001
0.521981 0.26482859 2.0150001
0.52268761 0.26325142 2.003
0.52361143 0.26180571 1.9920001
0.52740574 0.26180571 1.9920001
0.53119999 0.26180571 1.9920001
0.5349943 0.26180571 1.9920001
0.53878862 0.26180571 1.9920001
0.53931433 0.26022857 1.9800001
0.54006857 0.25878286 1.9690001
0.54381907 0.25878286 1.9690001
0.54756957 0.25878286 1.9690001
0.55132002 0.25878286 1.9690001
0.55507052 0.25878286 1.9690001
0.55882096 0.25878286 1.9690001
0.5657143 0.26022857 1.9800001
-0.64918667 0.25106668 1.8830001
-0.64217144 0.24973334 1.8730001
-0.63860381 0.24973334 1.8730001
-0.63164574 0.2484 1.863
-0.62809718 0.2484 1.863
-0.62119621 0.24706668 1.853
-0.611 0.24440001 1.8330001
-0.60121143 0.24186668 1.8140001
-0.59446096 0.24053334 1.8040001
-0.58807623 0.23933335 1.7950001
-0.58465719 0.23933335 1.7950001
-0.57832384 0.23813334 1.7860001
-0.56912762 0.23573335 1.7680001
-0.56576002 0.23573335 1.7680001
-0.56239241 0.23573335 1.7680001
-0.55617905 0.23453334 1.7590001
-0.55000001 0.23333335 1.7500001
-0.54385525 0.23213334 1.7410001
-0.53774476 0.23093334 1.7320001
-0.53444576 0.23093334 1.7320001
-0.53114671 0.23093334 1.7320001
-0.52784765 0.23093334 1.7320001
-0.52182287 0.22973335 1.723
-0.51854098 0.22973335 1.723
-0.51525909 0.22973335 1.723
-0.50960004 0.22866668 1.715
-0.50367624 0.22746667 1.7060001
-0.49808002 0.2264 1.6980001
-0.49484572 0.2264 1.6980001
-0.48929524 0.22533335 1.6900001
-0.48607621 0.22533335 1.6900001
-0.48285717 0.22533335 1.6900001
-0.4796381 0.22533335 1.6900001
-0.47867429 0.2264 1.6980001
-0.47768003 0.22746667 1.7060001
-0.47220573 0.2264 1.6980001
-0.46897143 0.2264 1.6980001
-0.46573716 0.2264 1.6980001
-0.46250287 0.2264 1.6980001
-0.4592686 0.2264 1.6980001
-0.4560343 0.2264 1.6980001
-0.45280001 0.2264 1.6980001
-0.45168382 0.22746667 1.7060001
-0.44633144 0.2264 1.6980001
-0.44518477 0.22746667 1.7060001
-0.43986288 0.2264 1.6980001
-0.43662858 0.2264 1.6980001
-0.43339431 0.2264 1.6980001
-0.43016002 0.2264 1.6980001
-0.42692572 0.2264 1.6980001
-0.42169526 0.22533335 1.6900001
-0.42045715 0.2264 1.6980001
-0.41525716 0.22533335 1.6900001
-0.41203812 0.22533335 1.6900001
-0.40881905 0.22533335 1.6900001
-0.40752003 0.2264 1.6980001
-0.40428573 0.2264 1.6980001
-0.40105143 0.2264 1.6980001
-0.39781716 0.2264 1.6980001
-0.39458287 0.2264 1.6980001
-0.3913486 0.2264 1.6980001
-0.38994288 0.22746667 1.7060001
-0.38669336 0.22746667 1.7060001
-0.38164574 0.2264 1.6980001
-0.37841144 0.2264 1.6980001
-0.37517715 0.2264 1.6980001
-0.37194288 0.2264 1.6980001
-0.36870858 0.2264 1.6980001
-0.36547431 0.2264 1.6980001
-0.36224002 0.2264 1.6980001
-0.36069715 0.22746667 1.7060001
-0.35744762 0.22746667 1.7060001
-0.3541981 0.22746667 1.7060001
-0.35094857 0.22746667 1.7060001
-0.34769905 0.22746667 1.7060001
-0.34444955 0.22746667 1.7060001
-0.34300002 0.22866668 1.715
-0.33973333 0.22866668 1.715
-0.33313143 0.2264 1.6980001
-0.32989717 0.2264 1.6980001
-0.32666287 0.2264 1.6980001
-0.32342857 0.2264 1.6980001
-0.3201943 0.2264 1.6980001
-0.31696001 0.2264 1.6980001
-0.31372574 0.2264 1.6980001
-0.31049144 0.2264 1.6980001
-0.31033334 0.22866668 1.715
-0.30545524 0.22746667 1.7060001
-0.30220571 0.22746667 1.7060001
-0.29755428 0.2264 1.6980001
-0.29432002 0.2264 1.6980001
-0.28971431 0.22533335 1.6900001
-0.28785145 0.2264 1.6980001
-0.28461716 0.2264 1.6980001
-0.28420001 0.22866668 1.715
-0.28093335 0.22866668 1.715
-0.27766669 0.22866668 1.715
-0.27712002 0.23093334 1.7320001
-0.27382097 0.23093334 1.7320001
-0.27052191 0.23093334 1.7320001
-0.26722288 0.23093334 1.7320001
-0.26392382 0.23093334 1.7320001
-0.26062477 0.23093334 1.7320001
-0.25598857 0.22973335 1.723
-0.25270668 0.22973335 1.723
-0.24942477 0.22973335 1.723
-0.24614286 0.22973335 1.723
-0.24286096 0.22973335 1.723
-0.23846668 0.22866668 1.715
-0.23396572 0.22746667 1.7060001
-0.23193334 0.22866668 1.715
-0.22866668 0.22866668 1.715
-0.22421715 0.22746667 1.7060001
-0.22213334 0.22866668 1.715
-0.21886668 0.22866668 1.715
-0.21660572 0.22973335 1.723
-0.21332382 0.22973335 1.723
-0.21004191 0.22973335 1.723
-0.20676 0.22973335 1.723
-0.2034781 0.22973335 1.723
-0.20019619 0.22973335 1.723
-0.1969143 0.22973335 1.723
-0.19273335 0.22866668 1.715
-0.18946667 0.22866668 1.715
-0.18620001 0.22866668 1.715
-0.18378668 0.22973335 1.723
-0.17966667 0.22866668 1.715
-0.17547429 0.22746667 1.7060001
-0.17141715 0.2264 1.6980001
-0.16818286 0.2264 1.6980001
-0.16494858 0.2264 1.6980001
-0.16171429 0.2264 1.6980001
-0.15848 0.2264 1.6980001
-0.15524572 0.2264 1.6980001
-0.15201144 0.2264 1.6980001
-0.14877714 0.2264 1.6980001
-0.14622858 0.22746667 1.7060001
-0.14297906 0.22746667 1.7060001
-0.13972953 0.22746667 1.7060001
-0.13584 0.2264 1.6980001
-0.13260572 0.2264 1.6980001
-0.1287619 0.22533335 1.6900001
-0.12554286 0.22533335 1.6900001
-0.12232381 0.22533335 1.6900001
-0.11910477 0.22533335 1.6900001
-0.11643429 0.2264 1.6980001
-0.1132 0.2264 1.6980001
-0.10996572 0.2264 1.6980001
-0.10723429 0.22746667 1.7060001
-0.10398477 0.22746667 1.7060001
-0.10126667 0.22866668 1.715
-0.098000005 0.22866668 1.715
-0.094733335 0.22866668 1.715
-0.091466673 0.22866668 1.715
-0.088200003 0.22866668 1.715
-0.084487624 0.22746667 1.7060001
-0.081238098 0.22746667 1.7060001
-0.077988572 0.22746667 1.7060001
-0.074739054 0.22746667 1.7060001
-0.071154289 0.2264 1.6980001
-0.067919999 0.2264 1.6980001
-0.064685717 0.2264 1.6980001
-0.061451431 0.2264 1.6980001
-0.058217146 0.2264 1.6980001
-0.055241905 0.22746667 1.7060001
-0.051992383 0.22746667 1.7060001
-0.048742861 0.22746667 1.7060001
-0.045493335 0.22746667 1.7060001
-0.042243812 0.22746667 1.7060001
-0.0392 0.22866668 1.715
-0.035933334 0.22866668 1.715
-0.032666668 0.22866668 1.715
-0.029245716 0.22746667 1.7060001
-0.025874287 0.2264 1.6980001
-0.022640001 0.2264 1.6980001
-0.019405715 0.2264 1.6980001
-0.016095238 0.22533335 1.6900001
-0.012876191 0.22533335 1.6900001
-0.0096571436 0.22533335 1.6900001
-0.0064380956 0.22533335 1.6900001
-0.0032190478 0.22533335 1.6900001
0 0.22533335 1.6900001
0.0032190478 0.22533335 1.6900001
0.0064380956 0.22533335 1.6900001
0.0097028576 0.2264 1.6980001
0.012998096 0.22746667 1.7060001
0.016247619 0.22746667 1.7060001
0.019497143 0.22746667 1.7060001
0.022746667 0.22746667 1.7060001
0.025996191 0.22746667 1.7060001
0.029108573 0.2264 1.6980001
0.032342859 0.2264 1.6980001
0.035409525 0.22533335 1.6900001
0.03881143 0.2264 1.6980001
0.04184762 0.22533335 1.6900001
0.04506667 0.22533335 1.6900001
0.048285715 0.22533335 1.6900001
0.051504765 0.22533335 1.6900001
0.05472381 0.22533335 1.6900001
0.05794286 0.22533335 1.6900001
0.061161906 0.22533335 1.6900001
0.064380951 0.22533335 1.6900001
0.067600004 0.22533335 1.6900001
0.07081905 0.22533335 1.6900001
0.074038096 0.22533335 1.6900001
0.077257149 0.22533335 1.6900001
0.080476195 0.22533335 1.6900001
0.08369524 0.22533335 1.6900001
0.086914286 0.22533335 1.6900001
0.090133339 0.22533335 1.6900001
0.093352385 0.22533335 1.6900001
0.096057147 0.22413334 1.6810001
0.099790476 0.22533335 1.6900001
0.10246096 0.22413334 1.6810001
0.10622858 0.22533335 1.6900001
0.10944762 0.22533335 1.6900001
0.11266667 0.22533335 1.6900001
0.11588572 0.22533335 1.6900001
0.11910477 0.22533335 1.6900001
0.12167238 0.22413334 1.6810001
0.12487429 0.22413334 1.6810001
0.12746668 0.22306667 1.6730001
0.1312781 0.22413334 1.6810001
0.13384001 0.22306667 1.6730001
0.1390743 0.2264 1.6980001
0.14230858 0.2264 1.6980001
0.14622858 0.22746667 1.7060001
0.14947811 0.22746667 1.7060001
0.15272762 0.22746667 1.7060001
0.15597714 0.22746667 1.7060001
0.15922667 0.22746667 1.7060001
0.1624762 0.22746667 1.7060001
0.1666 0.22866668 1.715
0.16897525 0.22746667 1.7060001
0.17313334 0.22866668 1.715
0.17547429 0.22746667 1.7060001
0.17788573 0.2264 1.6980001
0.18112001 0.2264 1.6980001
0.18435429 0.2264 1.6980001
0.18758857 0.2264 1.6980001
0.19082287 0.2264 1.6980001
0.19405715 0.2264 1.6980001
0.19729143 0.2264 1.6980001
0.20052572 0.2264 1.6980001
0.20376001 0.2264 1.6980001
0.2069943 0.2264 1.6980001
0.21233334 0.22866668 1.715
0.21560001 0.22866668 1.715
0.21886668 0.22866668 1.715
0.22213334 0.22866668 1.715
0.22540002 0.22866668 1.715
0.22866668 0.22866668 1.715
0.23301524 0.22973335 1.723
0.2352 0.22866668 1.715
0.23846668 0.22866668 1.715
0.24286096 0.22973335 1.723
0.24614286 0.22973335 1.723
0.24942477 0.22973335 1.723
0.25270668 0.22973335 1.723
0.25732571 0.23093334 1.7320001
0.26062477 0.23093334 1.7320001
0.26529524 0.23213334 1.7410001
0.26861143 0.23213334 1.7410001
0.27333334 0.23333335 1.7500001
0.27666667 0.23333335 1.7500001
0.28 0.23333335 1.7500001
0.28333333 0.23333335 1.7500001
0.28666669 0.23333335 1.7500001
0.29149145 0.23453334 1.7590001
0.29484192 0.23453334 1.7590001
0.29971811 0.23573335 1.7680001
0.30308571 0.23573335 1.7680001
0.30801335 0.23693334 1.7770001
0.31139812 0.23693334 1.7770001
0.31478286 0.23693334 1.7770001
0.31977907 0.23813334 1.7860001
0.32318097 0.23813334 1.7860001
0.32658288 0.23813334 1.7860001
0.32998478 0.23813334 1.7860001
0.33506668 0.23933335 1.7950001
0.33848572 0.23933335 1.7950001
0.34190479 0.23933335 1.7950001
0.34705526 0.24053334 1.8040001
0.35049143 0.24053334 1.8040001
0.35392764 0.24053334 1.8040001
0.35736382 0.24053334 1.8040001
0.3628 0.24186668 1.8140001
0.3682743 0.2432 1.8240001
0.36971048 0.24186668 1.8140001
0.37316573 0.24186668 1.8140001
0.37662098 0.24186668 1.8140001
0.38217145 0.2432 1.8240001
0.38564572 0.2432 1.8240001
0.50964576 0.27026668 2.0270002
0.51350671 0.27026668 2.0270002
0.51430476 0.26866668 2.0150001
0.51814288 0.26866668 2.0150001
0.521981 0.26866668 2.0150001
0.52268761 0.26706669 2.003
0.52361143 0.2656 1.9920001
0.52740574 0.2656 1.9920001
0.53119999 0.2656 1.9920001
0.5349943 0.2656 1.9920001
0.53878862 0.2656 1.9920001
0.53931433 0.264 1.9800001
0.54308575 0.264 1.9800001
0.54381907 0.26253334 1.9690001
0.54756957 0.26253334 1.9690001
0.55132002 0.26253334 1.9690001
0.55196953 0.26106668 1.9580001
0.55569905 0.26106668 1.9580001
-0.63146859 0.25330096 1.8730001
-0.62454861 0.2519486 1.863
-0.61766666 0.2505962 1.853
-0.61082286 0.24924383 1.8430001
-0.60731238 0.24924383 1.8430001
-0.59102476 0.24396953 1.8040001
-0.58465719 0.24275239 1.7950001
-0.57832384 0.24153525 1.7860001
-0.57202476 0.2403181 1.7770001
-0.56576002 0.23910096 1.7680001
-0.56239241 0.23910096 1.7680001
-0.55617905 0.23788382 1.7590001
-0.55000001 0.23666668 1.7500001
-0.54104382 0.2342324 1.7320001
-0.53774476 0.2342324 1.7320001
-0.53444576 0.2342324 1.7320001
-0.53114671 0.2342324 1.7320001
-0.52510476 0.23301524 1.723
-0.52182287 0.23301524 1.723
-0.51613337 0.23193334 1.715
-0.51286668 0.23193334 1.715
-0.50692576 0.2307162 1.7060001
-0.50131428 0.2296343 1.6980001
-0.49573335 0.22855239 1.6900001
-0.49251431 0.22855239 1.6900001
-0.48929524 0.22855239 1.6900001
-0.48607621 0.22855239 1.6900001
-0.48028573 0.22733524 1.6810001
-0.4796381 0.22855239 1.6900001
-0.47641906 0.22855239 1.6900001
-0.47320002 0.22855239 1.6900001
-0.46998096 0.22855239 1.6900001
-0.46676192 0.22855239 1.6900001
-0.46354288 0.22855239 1.6900001
-0.45787239 0.22733524 1.6810001
-0.45467049 0.22733524 1.6810001
-0.45388573 0.22855239 1.6900001
-0.4506667 0.22855239 1.6900001
-0.44744763 0.22855239 1.6900001
-0.44422859 0.22855239 1.6900001
-0.44309714 0.2296343 1.6980001
-0.43779048 0.22855239 1.6900001
-0.43457144 0.22855239 1.6900001
-0.43135241 0.22855239 1.6900001
-0.42813334 0.22855239 1.6900001
-0.4249143 0.22855239 1.6900001
-0.41745335 0.22625335 1.6730001
-0.41426668 0.22625335 1.6730001
-0.41304573 0.22733524 1.6810001
-0.40984383 0.22733524 1.6810001
-0.40881905 0.22855239 1.6900001
-0.40560001 0.22855239 1.6900001
-0.40238097 0.22855239 1.6900001
-0.39916191 0.22855239 1.6900001
-0.39594287 0.22855239 1.6900001
-0.39272383 0.22855239 1.6900001
-0.38743049 0.22733524 1.6810001
-0.38628572 0.22855239 1.6900001
-0.38488001 0.2296343 1.6980001
-0.3742286 0.22517143 1.6650001
-0.37105715 0.22517143 1.6650001
-0.37142098 0.22733524 1.6810001
-0.3701905 0.22855239 1.6900001
-0.36697143 0.22855239 1.6900001
-0.36375239 0.22855239 1.6900001
-0.36053336 0.22855239 1.6900001
-0.35900572 0.2296343 1.6980001
-0.35577145 0.2296343 1.6980001
-0.35253716 0.2296343 1.6980001
-0.34930286 0.2296343 1.6980001
-0.34606859 0.2296343 1.6980001
-0.34283429 0.2296343 1.6980001
-0.34120002 0.2307162 1.7060001
-0.33636573 0.2296343 1.6980001
-0.33156192 0.22855239 1.6900001
-0.32834285 0.22855239 1.6900001
-0.32512382 0.22855239 1.6900001
-0.32190478 0.22855239 1.6900001
-0.31868574 0.22855239 1.6900001
-0.31546667 0.22855239 1.6900001
-0.31372574 0.2296343 1.6980001
-0.31049144 0.2296343 1.6980001
-0.30725715 0.2296343 1.6980001
-0.30402288 0.2296343 1.6980001
-0.30078858 0.2296343 1.6980001
-0.29755428 0.2296343 1.6980001
-0.29293334 0.22855239 1.6900001
-0.28817144 0.22733524 1.6810001
-0.28649524 0.22855239 1.6900001
-0.2832762 0.22855239 1.6900001
-0.28138286 0.2296343 1.6980001
-0.27814859 0.2296343 1.6980001
-0.27361906 0.22855239 1.6900001
-0.27168 0.2296343 1.6980001
-0.26971048 0.2307162 1.7060001
-0.26786667 0.23193334 1.715
-0.26460001 0.23193334 1.715
-0.26133335 0.23193334 1.715
-0.25806668 0.23193334 1.715
-0.25480002 0.23193334 1.715
-0.25021335 0.2307162 1.7060001
-0.24696381 0.2307162 1.7060001
-0.24371429 0.2307162 1.7060001
-0.24046478 0.2307162 1.7060001
-0.23610286 0.2296343 1.6980001
-0.23286858 0.2296343 1.6980001
-0.2307162 0.2307162 1.7060001
-0.2264 0.2296343 1.6980001
-0.22316572 0.2296343 1.6980001
-0.22096762 0.2307162 1.7060001
-0.21771811 0.2307162 1.7060001
-0.21446858 0.2307162 1.7060001
-0.21121906 0.2307162 1.7060001
-0.20906667 0.23193334 1.715
-0.20580001 0.23193334 1.715
-0.20253333 0.23193334 1.715
-0.19926667 0.23193334 1.715
-0.19600001 0.23193334 1.715
-0.19172192 0.2307162 1.7060001
-0.18847239 0.2307162 1.7060001
-0.18435429 0.2296343 1.6980001
-0.18112001 0.2296343 1.6980001
-0.17788573 0.2296343 1.6980001
-0.17465143 0.2296343 1.6980001
-0.17060953 0.22855239 1.6900001
-0.16739048 0.22855239 1.6900001
-0.16417143 0.22855239 1.6900001
-0.16095239 0.22855239 1.6900001
-0.15773334 0.22855239 1.6900001
-0.1545143 0.22855239 1.6900001
-0.15129524 0.22855239 1.6900001
-0.14807619 0.22855239 1.6900001
-0.14485715 0.22855239 1.6900001
-0.14230858 0.2296343 1.6980001
-0.13841905 0.22855239 1.6900001
-0.13520001 0.22855239 1.6900001
-0.1312781 0.22733524 1.6810001
-0.1280762 0.22733524 1.6810001
-0.12487429 0.22733524 1.6810001
-0.12167238 0.22733524 1.6810001
-0.11847048 0.22733524 1.6810001
-0.11588572 0.22855239 1.6900001
-0.11266667 0.22855239 1.6900001
-0.10944762 0.22855239 1.6900001
-0.10673143 0.2296343 1.6980001
-0.10349715 0.2296343 1.6980001
-0.10026286 0.2296343 1.6980001
-0.097485721 0.2307162 1.7060001
-0.093794286 0.2296343 1.6980001
-0.090560004 0.2296343 1.6980001
-0.087325715 0.2296343 1.6980001
-0.084091432 0.2296343 1.6980001
-0.080476195 0.22855239 1.6900001
-0.077257149 0.22855239 1.6900001
-0.074038096 0.22855239 1.6900001
-0.07081905 0.22855239 1.6900001
-0.067600004 0.22855239 1.6900001
-0.064038098 0.22733524 1.6810001
-0.061161906 0.22855239 1.6900001
-0.05794286 0.22855239 1.6900001
-0.05472381 0.22855239 1.6900001
-0.051748574 0.2296343 1.6980001
-0.048514288 0.2296343 1.6980001
-0.045280002 0.2296343 1.6980001
-0.042045716 0.2296343 1.6980001
-0.03881143 0.2296343 1.6980001
-0.035577144 0.2296343 1.6980001
-0.032342859 0.2296343 1.6980001
-0.02897143 0.22855239 1.6900001
-0.025752382 0.22855239 1.6900001
-0.022533335 0.22855239 1.6900001
-0.01921143 0.22733524 1.6810001
-0.016009524 0.22733524 1.6810001
-0.01280762 0.22733524 1.6810001
-0.0096057151 0.22733524 1.6810001
-0.0064038099 0.22733524 1.6810001
-0.0032019049 0.22733524 1.6810001
0 0.22733524 1.6810001
0.0032019049 0.22733524 1.6810001
0.0064038099 0.22733524 1.6810001
0.0096571436 0.22855239 1.6900001
0.01280762 0.22733524 1.6810001
0.016009524 0.22733524 1.6810001
0.019405715 0.2296343 1.6980001
0.022640001 0.2296343 1.6980001
0.02561524 0.22733524 1.6810001
0.028817143 0.22733524 1.6810001
0.032019049 0.22733524 1.6810001
0.035220955 0.22733524 1.6810001
0.03842286 0.22733524 1.6810001
0.04142667 0.22625335 1.6730001
0.044613335 0.22625335 1.6730001
0.047800001 0.22625335 1.6730001
0.051230479 0.22733524 1.6810001
0.054432385 0.22733524 1.6810001
0.057634287 0.22733524 1.6810001
0.060836192 0.22733524 1.6810001
0.064038098 0.22733524 1.6810001
0.067600004 0.22855239 1.6900001
0.070441909 0.22733524 1.6810001
0.073643811 0.22733524 1.6810001
0.07684572 0.22733524 1.6810001
0.080047622 0.22733524 1.6810001
0.083249524 0.22733524 1.6810001
0.086451434 0.22733524 1.6810001
0.089653336 0.22733524 1.6810001
0.092855245 0.22733524 1.6810001
0.096057147 0.22733524 1.6810001
0.099259049 0.22733524 1.6810001
0.10246096 0.22733524 1.6810001
0.10566286 0.22733524 1.6810001
0.10886477 0.22733524 1.6810001
0.11206667 0.22733524 1.6810001
0.11526857 0.22733524 1.6810001
0.11790667 0.22625335 1.6730001
0.12051429 0.22517143 1.6650001
0.12368572 0.22517143 1.6650001
0.12685715 0.22517143 1.6650001
0.13002858 0.22517143 1.6650001
0.1332 0.22517143 1.6650001
0.13702667 0.22625335 1.6730001
0.14021334 0.22625335 1.6730001
0.14485715 0.22855239 1.6900001
0.14807619 0.22855239 1.6900001
0.15201144 0.2296343 1.6980001
0.15524572 0.2296343 1.6980001
0.15848 0.2296343 1.6980001
0.16171429 0.2296343 1.6980001
0.16494858 0.2296343 1.6980001
0.16818286 0.2296343 1.6980001
0.17141715 0.2296343 1.6980001
0.17382857 0.22855239 1.6900001
0.17704763 0.22855239 1.6900001
0.18026668 0.22855239 1.6900001
0.18348572 0.22855239 1.6900001
0.18670477 0.22855239 1.6900001
0.18992382 0.22855239 1.6900001
0.19314286 0.22855239 1.6900001
0.19729143 0.2296343 1.6980001
0.19958095 0.22855239 1.6900001
0.20376001 0.2296343 1.6980001
0.2069943 0.2296343 1.6980001
0.21121906 0.2307162 1.7060001
0.21446858 0.2307162 1.7060001
0.21771811 0.2307162 1.7060001
0.22096762 0.2307162 1.7060001
0.22421715 0.2307162 1.7060001
0.22866668 0.23193334 1.715
0.23193334 0.23193334 1.715
0.2352 0.23193334 1.715
0.23846668 0.23193334 1.715
0.24173334 0.23193334 1.715
0.24614286 0.23301524 1.723
0.24942477 0.23301524 1.723
0.25270668 0.23301524 1.723
0.25598857 0.23301524 1.723
0.26062477 0.2342324 1.7320001
0.26392382 0.2342324 1.7320001
0.26861143 0.23544954 1.7410001
0.27192762 0.23544954 1.7410001
0.27524382 0.23544954 1.7410001
0.28 0.23666668 1.7500001
0.28333333 0.23666668 1.7500001
0.28814095 0.23788382 1.7590001
0.29149145 0.23788382 1.7590001
0.29635048 0.23910096 1.7680001
0.29971811 0.23910096 1.7680001
0.30308571 0.23910096 1.7680001
0.30801335 0.2403181 1.7770001
0.31297526 0.24153525 1.7860001
0.31637716 0.24153525 1.7860001
0.31977907 0.24153525 1.7860001
0.32318097 0.24153525 1.7860001
0.32822859 0.24275239 1.7950001
0.33164763 0.24275239 1.7950001
0.33506668 0.24275239 1.7950001
0.33848572 0.24275239 1.7950001
0.34190479 0.24275239 1.7950001
0.34705526 0.24396953 1.8040001
0.35049143 0.24396953 1.8040001
0.35392764 0.24396953 1.8040001
0.35736382 0.24396953 1.8040001
0.3628 0.24532191 1.8140001
0.37009144 0.24789144 1.8330001
0.37358287 0.24789144 1.8330001
0.50005335 0.27737334 2.0510001
0.50101143 0.27575049 2.039
0.50489527 0.27575049 2.039
0.50877905 0.27575049 2.039
0.50964576 0.27412763 2.0270002
0.51350671 0.27412763 2.0270002
0.51430476 0.27250478 2.0150001
0.51505715 0.27088192 2.003
0.51887238 0.27088192 2.003
0.52268761 0.27088192 2.003
0.52650285 0.27088192 2.003
0.53031814 0.27088192 2.003
0.53413337 0.27088192 2.003
0.5349943 0.26939431 1.9920001
0.53878862 0.26939431 1.9920001
0.54258287 0.26939431 1.9920001
0.54308575 0.26777145 1.9800001
0.54381907 0.26628381 1.9690001
0.54756957 0.26628381 1.9690001
0.55132002 0.26628381 1.9690001
0.55507052 0.26628381 1.9690001
0.55569905 0.2647962 1.9580001
-0.63146859 0.25686857 1.8730001
-0.62454861 0.25549716 1.863
-0.61766666 0.25412571 1.853
-0.61082286 0.2527543 1.8430001
-0.60731238 0.2527543 1.8430001
-0.59102476 0.24740572 1.8040001
-0.58465719 0.24617144 1.7950001
-0.57832384 0.24493715 1.7860001
-0.57202476 0.24370286 1.7770001
-0.56576002 0.24246858 1.7680001
-0.56239241 0.24246858 1.7680001
-0.55617905 0.24123429 1.7590001
-0.55000001 0.24000001 1.7500001
-0.54104382 0.23753144 1.7320001
-0.53774476 0.23753144 1.7320001
-0.53444576 0.23753144 1.7320001
-0.53114671 0.23753144 1.7320001
-0.52510476 0.23629715 1.723
-0.5194 0.2352 1.715
-0.51613337 0.2352 1.715
-0.51017523 0.23396572 1.7060001
-0.50454861 0.23286858 1.6980001
-0.49895239 0.23177144 1.6900001
-0.49573335 0.23177144 1.6900001
-0.49251431 0.23177144 1.6900001
-0.48668954 0.23053715 1.6810001
-0.48348764 0.23053715 1.6810001
-0.47800002 0.22944 1.6730001
-0.47481334 0.22944 1.6730001
-0.47162667 0.22944 1.6730001
-0.47068003 0.23053715 1.6810001
-0.46747813 0.23053715 1.6810001
-0.46206668 0.22944 1.6730001
-0.45888001 0.22944 1.6730001
-0.45787239 0.23053715 1.6810001
-0.45467049 0.23053715 1.6810001
-0.45146859 0.23053715 1.6810001
-0.44826669 0.23053715 1.6810001
-0.44506478 0.23053715 1.6810001
-0.44186288 0.23053715 1.6810001
-0.43866098 0.23053715 1.6810001
-0.43545908 0.23053715 1.6810001
-0.43225715 0.23053715 1.6810001
-0.42905524 0.23053715 1.6810001
-0.42382669 0.22944 1.6730001
-0.42064002 0.22944 1.6730001
-0.41545716 0.22834286 1.6650001
-0.41426668 0.22944 1.6730001
-0.41108 0.22944 1.6730001
-0.40984383 0.23053715 1.6810001
-0.40664193 0.23053715 1.6810001
-0.40344003 0.23053715 1.6810001
-0.4002381 0.23053715 1.6810001
-0.39916191 0.23177144 1.6900001
-0.39594287 0.23177144 1.6900001
-0.39063239 0.23053715 1.6810001
-0.38743049 0.23053715 1.6810001
-0.38057145 0.22834286 1.6650001
-0.37740001 0.22834286 1.6650001
-0.3724305 0.22724572 1.6570001
-0.36927429 0.22724572 1.6570001
-0.3661181 0.22724572 1.6570001
-0.36646667 0.22944 1.6730001
-0.36501715 0.23053715 1.6810001
-0.36181524 0.23053715 1.6810001
-0.35861334 0.23053715 1.6810001
-0.35541144 0.23053715 1.6810001
-0.35220954 0.23053715 1.6810001
-0.35087621 0.23177144 1.6900001
-0.34765714 0.23177144 1.6900001
-0.34260383 0.23053715 1.6810001
-0.33940193 0.23053715 1.6810001
-0.338 0.23177144 1.6900001
-0.33478096 0.23177144 1.6900001
-0.33156192 0.23177144 1.6900001
-0.32659429 0.23053715 1.6810001
-0.32339239 0.23053715 1.6810001
-0.32019049 0.23053715 1.6810001
-0.31868574 0.23177144 1.6900001
-0.31378669 0.23053715 1.6810001
-0.31224763 0.23177144 1.6900001
-0.30738288 0.23053715 1.6810001
-0.30580953 0.23177144 1.6900001
-0.30097905 0.23053715 1.6810001
-0.29636002 0.22944 1.6730001
-0.29457524 0.23053715 1.6810001
-0.29137334 0.23053715 1.6810001
-0.2868 0.22944 1.6730001
-0.28361335 0.22944 1.6730001
-0.28042668 0.22944 1.6730001
-0.27856573 0.23053715 1.6810001
-0.27536383 0.23053715 1.6810001
-0.27086666 0.22944 1.6730001
-0.26768002 0.22944 1.6730001
-0.2657581 0.23053715 1.6810001
-0.2625562 0.23053715 1.6810001
-0.25935429 0.23053715 1.6810001
-0.25615239 0.23053715 1.6810001
-0.25174668 0.22944 1.6730001
-0.24856001 0.22944 1.6730001
-0.24654667 0.23053715 1.6810001
-0.24218668 0.22944 1.6730001
-0.23900001 0.22944 1.6730001
-0.23581333 0.22944 1.6730001
-0.23373906 0.23053715 1.6810001
-0.22944 0.22944 1.6730001
-0.22733524 0.23053715 1.6810001
-0.22413334 0.23053715 1.6810001
-0.22093144 0.23053715 1.6810001
-0.21772954 0.23053715 1.6810001
-0.21452762 0.23053715 1.6810001
-0.21346286 0.23286858 1.6980001
-0.21022858 0.23286858 1.6980001
-0.2069943 0.23286858 1.6980001
-0.20472001 0.23396572 1.7060001
-0.20147048 0.23396572 1.7060001
-0.19729143 0.23286858 1.6980001
-0.19405715 0.23286858 1.6980001
-0.19082287 0.23286858 1.6980001
-0.18758857 0.23286858 1.6980001
-0.18348572 0.23177144 1.6900001
-0.18026668 0.23177144 1.6900001
-0.17704763 0.23177144 1.6900001
-0.17382857 0.23177144 1.6900001
-0.16970097 0.23053715 1.6810001
-0.16649905 0.23053715 1.6810001
-0.16329715 0.23053715 1.6810001
-0.16009524 0.23053715 1.6810001
-0.15689334 0.23053715 1.6810001
-0.15369144 0.23053715 1.6810001
-0.15048952 0.23053715 1.6810001
-0.14728762 0.23053715 1.6810001
-0.14408572 0.23053715 1.6810001
-0.14088382 0.23053715 1.6810001
-0.13768192 0.23053715 1.6810001
-0.13448 0.23053715 1.6810001
-0.13065334 0.22944 1.6730001
-0.1280762 0.23053715 1.6810001
-0.12487429 0.23053715 1.6810001
-0.12109334 0.22944 1.6730001
-0.11790667 0.22944 1.6730001
-0.11526857 0.23053715 1.6810001
-0.11266667 0.23177144 1.6900001
-0.10944762 0.23177144 1.6900001
-0.10622858 0.23177144 1.6900001
-0.10300953 0.23177144 1.6900001
-0.10026286 0.23286858 1.6980001
-0.096571431 0.23177144 1.6900001
-0.093352385 0.23177144 1.6900001
-0.090133339 0.23177144 1.6900001
-0.086914286 0.23177144 1.6900001
-0.083249524 0.23053715 1.6810001
-0.080047622 0.23053715 1.6810001
-0.07684572 0.23053715 1.6810001
-0.073643811 0.23053715 1.6810001
-0.07010667 0.22944 1.6730001
-0.06724 0.23053715 1.6810001
-0.064038098 0.23053715 1.6810001
-0.061161906 0.23177144 1.6900001
-0.057634287 0.23053715 1.6810001
-0.054432385 0.23053715 1.6810001
-0.051504765 0.23177144 1.6900001
-0.048285715 0.23177144 1.6900001
-0.04506667 0.23177144 1.6900001
-0.041624762 0.23053715 1.6810001
-0.038628574 0.23177144 1.6900001
-0.035409525 0.23177144 1.6900001
-0.032190476 0.23177144 1.6900001
-0.028817143 0.23053715 1.6810001
-0.025493335 0.22944 1.6730001
-0.022413334 0.23053715 1.6810001
-0.01912 0.22944 1.6730001
-0.015933335 0.22944 1.6730001
-0.012746667 0.22944 1.6730001
-0.0095600002 0.22944 1.6730001
-0.0063733337 0.22944 1.6730001
-0.0031714286 0.22834286 1.6650001
0 0.22944 1.6730001
0.0031714286 0.22834286 1.6650001
0.0063428571 0.22834286 1.6650001
0.0095142862 0.22834286 1.6650001
0.012685714 0.22834286 1.6650001
0.015857143 0.22834286 1.6650001
0.01921143 0.23053715 1.6810001
0.022533335 0.23177144 1.6900001
0.02561524 0.23053715 1.6810001
0.028817143 0.23053715 1.6810001
0.031714287 0.22834286 1.6650001
0.034885716 0.22834286 1.6650001
0.038240001 0.22944 1.6730001
0.04142667 0.22944 1.6730001
0.044400003 0.22834286 1.6650001
0.047800001 0.22944 1.6730001
0.05098667 0.22944 1.6730001
0.054173335 0.22944 1.6730001
0.057360001 0.22944 1.6730001
0.06054667 0.22944 1.6730001
0.063733339 0.22944 1.6730001
0.06724 0.23053715 1.6810001
0.070441909 0.23053715 1.6810001
0.073643811 0.23053715 1.6810001
0.07684572 0.23053715 1.6810001
0.079666667 0.22944 1.6730001
0.08285334 0.22944 1.6730001
0.086040005 0.22944 1.6730001
0.089226671 0.22944 1.6730001
0.092413336 0.22944 1.6730001
0.095600002 0.22944 1.6730001
0.098786667 0.22944 1.6730001
0.10197334 0.22944 1.6730001
0.10516001 0.22944 1.6730001
0.10834667 0.22944 1.6730001
0.111 0.22834286 1.6650001
0.11417143 0.22834286 1.6650001
0.11734286 0.22834286 1.6650001
0.11993524 0.22724572 1.6570001
0.12309143 0.22724572 1.6570001
0.12624763 0.22724572 1.6570001
0.12940381 0.22724572 1.6570001
0.13256 0.22724572 1.6570001
0.1357162 0.22724572 1.6570001
0.13954286 0.22834286 1.6650001
0.14271429 0.22834286 1.6650001
0.14588572 0.22834286 1.6650001
0.14905715 0.22834286 1.6650001
0.15296 0.22944 1.6730001
0.15689334 0.23053715 1.6810001
0.16009524 0.23053715 1.6810001
0.16329715 0.23053715 1.6810001
0.16649905 0.23053715 1.6810001
0.17060953 0.23177144 1.6900001
0.17290287 0.23053715 1.6810001
0.17704763 0.23177144 1.6900001
0.18026668 0.23177144 1.6900001
0.18250857 0.23053715 1.6810001
0.18571049 0.23053715 1.6810001
0.18992382 0.23177144 1.6900001
0.19314286 0.23177144 1.6900001
0.19636191 0.23177144 1.6900001
0.19958095 0.23177144 1.6900001
0.20280001 0.23177144 1.6900001
0.20601906 0.23177144 1.6900001
0.2092381 0.23177144 1.6900001
0.21245715 0.23177144 1.6900001
0.21669716 0.23286858 1.6980001
0.21993144 0.23286858 1.6980001
0.22316572 0.23286858 1.6980001
0.22746667 0.23396572 1.7060001
0.23193334 0.2352 1.715
0.2352 0.2352 1.715
0.23846668 0.2352 1.715
0.24286096 0.23629715 1.723
0.24614286 0.23629715 1.723
0.24942477 0.23629715 1.723
0.25270668 0.23629715 1.723
0.25732571 0.23753144 1.7320001
0.26062477 0.23753144 1.7320001
0.26392382 0.23753144 1.7320001
0.26861143 0.23876572 1.7410001
0.27192762 0.23876572 1.7410001
0.27666667 0.24000001 1.7500001
0.28 0.24000001 1.7500001
0.28333333 0.24000001 1.7500001
0.28814095 0.24123429 1.7590001
0.29149145 0.24123429 1.7590001
0.29484192 0.24123429 1.7590001
0.29971811 0.24246858 1.7680001
0.30308571 0.24246858 1.7680001
0.30801335 0.24370286 1.7770001
0.31297526 0.24493715 1.7860001
0.31637716 0.24493715 1.7860001
0.31977907 0.24493715 1.7860001
0.32480952 0.24617144 1.7950001
0.32822859 0.24617144 1.7950001
0.33164763 0.24617144 1.7950001
0.33506668 0.24617144 1.7950001
0.33848572 0.24617144 1.7950001
0.50005335 0.28128001 2.0510001
0.50101143 0.2796343 2.039
0.50489527 0.2796343 2.039
0.50578481 0.27798858 2.0270002
0.50964576 0.27798858 2.0270002
0.51046669 0.27634287 2.0150001
0.51430476 0.27634287 2.0150001
0.51505715 0.27469715 2.003
0.51887238 0.27469715 2.003
0.51981717 0.27318859 1.9920001
0.52650285 0.27469715 2.003
0.53031814 0.27469715 2.003
0.53413337 0.27469715 2.003
0.53794861 0.27469715 2.003
0.53878862 0.27318859 1.9920001
0.54557908 0.27469715 2.003
0.54939431 0.27469715 2.003
0.54685718 0.27154288 1.9800001
0.54756957 0.27003428 1.9690001
0.55132002 0.27003428 1.9690001
0.55507052 0.27003428 1.9690001
-0.58758861 0.25084192 1.8040001
-0.58123809 0.24959049 1.7950001
-0.57492191 0.24833906 1.7860001
-0.56863999 0.24708763 1.7770001
-0.56239241 0.2458362 1.7680001
-0.55333334 0.24333334 1.7500001
-0.54717147 0.24208191 1.7410001
-0.54104382 0.24083048 1.7320001
-0.53774476 0.24083048 1.7320001
-0.53444576 0.24083048 1.7320001
-0.53114671 0.24083048 1.7320001
-0.52510476 0.23957905 1.723
-0.5194 0.23846668 1.715
-0.51613337 0.23846668 1.715
-0.51017523 0.23721525 1.7060001
-0.50454861 0.23610286 1.6980001
-0.49895239 0.23499048 1.6900001
-0.49573335 0.23499048 1.6900001
-0.49251431 0.23499048 1.6900001
-0.48668954 0.23373906 1.6810001
-0.48348764 0.23373906 1.6810001
-0.47800002 0.23262668 1.6730001
-0.47481334 0.23262668 1.6730001
-0.46937144 0.23151429 1.6650001
-0.46620002 0.23151429 1.6650001
-0.46302858 0.23151429 1.6650001
-0.45985717 0.23151429 1.6650001
-0.45668572 0.23151429 1.6650001
-0.45569336 0.23262668 1.6730001
-0.45250669 0.23262668 1.6730001
-0.44932002 0.23262668 1.6730001
-0.44400001 0.23151429 1.6650001
-0.44294667 0.23262668 1.6730001
-0.43765715 0.23151429 1.6650001
-0.43239811 0.23040192 1.6570001
-0.43131429 0.23151429 1.6650001
-0.42814288 0.23151429 1.6650001
-0.42497143 0.23151429 1.6650001
-0.42180002 0.23151429 1.6650001
-0.41862857 0.23151429 1.6650001
-0.41346097 0.23040192 1.6570001
-0.41228572 0.23151429 1.6650001
-0.4091143 0.23151429 1.6650001
-0.40789336 0.23262668 1.6730001
-0.40277144 0.23151429 1.6650001
-0.40152001 0.23262668 1.6730001
-0.39833334 0.23262668 1.6730001
-0.39514667 0.23262668 1.6730001
-0.39008573 0.23151429 1.6650001
-0.38691431 0.23151429 1.6650001
-0.38374287 0.23151429 1.6650001
-0.37874287 0.23040192 1.6570001
-0.37558669 0.23040192 1.6570001
-0.3724305 0.23040192 1.6570001
-0.36927429 0.23040192 1.6570001
-0.3661181 0.23040192 1.6570001
-0.36471429 0.23151429 1.6650001
-0.36154288 0.23151429 1.6650001
-0.36009336 0.23262668 1.6730001
-0.35690668 0.23262668 1.6730001
-0.35372001 0.23262668 1.6730001
-0.35053334 0.23262668 1.6730001
-0.34734669 0.23262668 1.6730001
-0.34580573 0.23373906 1.6810001
-0.34097335 0.23262668 1.6730001
-0.33617145 0.23151429 1.6650001
-0.333 0.23151429 1.6650001
-0.32982859 0.23151429 1.6650001
-0.32822669 0.23262668 1.6730001
-0.32504001 0.23262668 1.6730001
-0.32185334 0.23262668 1.6730001
-0.31866667 0.23262668 1.6730001
-0.31548002 0.23262668 1.6730001
-0.31080002 0.23151429 1.6650001
-0.30910668 0.23262668 1.6730001
-0.30445716 0.23151429 1.6650001
-0.30418095 0.23373906 1.6810001
-0.29954669 0.23262668 1.6730001
-0.29494286 0.23151429 1.6650001
-0.29177144 0.23151429 1.6650001
-0.2886 0.23151429 1.6650001
-0.28542858 0.23151429 1.6650001
-0.28225714 0.23151429 1.6650001
-0.27640381 0.22928953 1.649
-0.27458858 0.23040192 1.6570001
-0.2714324 0.23040192 1.6570001
-0.26827621 0.23040192 1.6570001
-0.26512 0.23040192 1.6570001
-0.2632286 0.23151429 1.6650001
-0.26005715 0.23151429 1.6650001
-0.25688574 0.23151429 1.6650001
-0.25371429 0.23151429 1.6650001
-0.24933906 0.23040192 1.6570001
-0.24737144 0.23151429 1.6650001
-0.24420001 0.23151429 1.6650001
-0.24102858 0.23151429 1.6650001
-0.23671429 0.23040192 1.6570001
-0.23468572 0.23151429 1.6650001
-0.23151429 0.23151429 1.6650001
-0.22834286 0.23151429 1.6650001
-0.22517143 0.23151429 1.6650001
-0.222 0.23151429 1.6650001
-0.21882857 0.23151429 1.6650001
-0.21565714 0.23151429 1.6650001
-0.21248572 0.23151429 1.6650001
-0.21032001 0.23262668 1.6730001
-0.20713334 0.23262668 1.6730001
-0.20492192 0.23373906 1.6810001
-0.20280001 0.23499048 1.6900001
-0.19958095 0.23499048 1.6900001
-0.19636191 0.23499048 1.6900001
-0.19314286 0.23499048 1.6900001
-0.18992382 0.23499048 1.6900001
-0.18571049 0.23373906 1.6810001
-0.18250857 0.23373906 1.6810001
-0.17930667 0.23373906 1.6810001
-0.17610477 0.23373906 1.6810001
-0.17290287 0.23373906 1.6810001
-0.16970097 0.23373906 1.6810001
-0.16570668 0.23262668 1.6730001
-0.16329715 0.23373906 1.6810001
-0.15933333 0.23262668 1.6730001
-0.15540001 0.23151429 1.6650001
-0.15296 0.23262668 1.6730001
-0.14977334 0.23262668 1.6730001
-0.14658667 0.23262668 1.6730001
-0.1434 0.23262668 1.6730001
-0.14021334 0.23262668 1.6730001
-0.13637143 0.23151429 1.6650001
-0.13384001 0.23262668 1.6730001
-0.13002858 0.23151429 1.6650001
-0.12685715 0.23151429 1.6650001
-0.12368572 0.23151429 1.6650001
-0.12051429 0.23151429 1.6650001
-0.11734286 0.23151429 1.6650001
-0.11472 0.23262668 1.6730001
-0.11206667 0.23373906 1.6810001
-0.10886477 0.23373906 1.6810001
-0.10566286 0.23373906 1.6810001
-0.10246096 0.23373906 1.6810001
-0.099790476 0.23499048 1.6900001
-0.096057147 0.23373906 1.6810001
-0.092855245 0.23373906 1.6810001
-0.089226671 0.23262668 1.6730001
-0.086040005 0.23262668 1.6730001
-0.08285334 0.23262668 1.6730001
-0.079666667 0.23262668 1.6730001
-0.076114289 0.23151429 1.6650001
-0.07294286 0.23151429 1.6650001
-0.069771431 0.23151429 1.6650001
-0.066920005 0.23262668 1.6730001
-0.063428573 0.23151429 1.6650001
-0.06054667 0.23262668 1.6730001
-0.057360001 0.23262668 1.6730001
-0.054173335 0.23262668 1.6730001
-0.05098667 0.23262668 1.6730001
-0.048028573 0.23373906 1.6810001
-0.044613335 0.23262668 1.6730001
-0.04142667 0.23262668 1.6730001
-0.038240001 0.23262668 1.6730001
-0.035053335 0.23262668 1.6730001
-0.03186667 0.23262668 1.6730001
-0.028542858 0.23151429 1.6650001
-0.025371429 0.23151429 1.6650001
-0.022306668 0.23262668 1.6730001
-0.019028572 0.23151429 1.6650001
-0.015857143 0.23151429 1.6650001
-0.012685714 0.23151429 1.6650001
-0.0094685722 0.23040192 1.6570001
-0.006312381 0.23040192 1.6570001
-0.0031561905 0.23040192 1.6570001
0 0.22928953 1.649
0.0031409524 0.22928953 1.649
0.0062819049 0.22928953 1.649
0.0094228573 0.22928953 1.649
0.01256381 0.22928953 1.649
0.015704762 0.22928953 1.649
0.018845715 0.22928953 1.649
0.022093333 0.23040192 1.6570001
0.025249524 0.23040192 1.6570001
0.028405715 0.23040192 1.6570001
0.031561907 0.23040192 1.6570001
0.034718096 0.23040192 1.6570001
0.037874289 0.23040192 1.6570001
0.041228574 0.23151429 1.6650001
0.044186667 0.23040192 1.6570001
0.047342859 0.23040192 1.6570001
0.050742857 0.23151429 1.6650001
0.053914286 0.23151429 1.6650001
0.057085715 0.23151429 1.6650001
0.059967622 0.23040192 1.6570001
0.063733339 0.23262668 1.6730001
0.066920005 0.23262668 1.6730001
0.069771431 0.23151429 1.6650001
0.073293336 0.23262668 1.6730001
0.075748578 0.23040192 1.6570001
0.079285719 0.23151429 1.6650001
0.082457148 0.23151429 1.6650001
0.085628577 0.23151429 1.6650001
0.088373333 0.23040192 1.6570001
0.091529526 0.23040192 1.6570001
0.094685718 0.23040192 1.6570001
0.098314293 0.23151429 1.6650001
0.10148571 0.23151429 1.6650001
0.10465714 0.23151429 1.6650001
0.10782857 0.23151429 1.6650001
0.11046667 0.23040192 1.6570001
0.11362286 0.23040192 1.6570001
0.11621524 0.22928953 1.649
0.11935619 0.22928953 1.649
0.12249715 0.22928953 1.649
0.1256381 0.22928953 1.649
0.12877905 0.22928953 1.649
0.13192001 0.22928953 1.649
0.1357162 0.23040192 1.6570001
0.13887239 0.23040192 1.6570001
0.14202857 0.23040192 1.6570001
0.14518477 0.23040192 1.6570001
0.14834096 0.23040192 1.6570001
0.15149716 0.23040192 1.6570001
0.15465334 0.23040192 1.6570001
0.15857144 0.23151429 1.6650001
0.16174287 0.23151429 1.6650001
0.1649143 0.23151429 1.6650001
0.16808572 0.23151429 1.6650001
0.17208001 0.23262668 1.6730001
0.17526667 0.23262668 1.6730001
0.17930667 0.23373906 1.6810001
0.18250857 0.23373906 1.6810001
0.18571049 0.23373906 1.6810001
0.18891239 0.23373906 1.6810001
0.19314286 0.23499048 1.6900001
0.19636191 0.23499048 1.6900001
0.19958095 0.23499048 1.6900001
0.20280001 0.23499048 1.6900001
0.20601906 0.23499048 1.6900001
0.2092381 0.23499048 1.6900001
0.21245715 0.23499048 1.6900001
0.21669716 0.23610286 1.6980001
0.21993144 0.23610286 1.6980001
0.22316572 0.23610286 1.6980001
0.22746667 0.23721525 1.7060001
0.23193334 0.23846668 1.715
0.2352 0.23846668 1.715
0.23846668 0.23846668 1.715
0.24286096 0.23957905 1.723
0.24614286 0.23957905 1.723
0.24942477 0.23957905 1.723
0.25270668 0.23957905 1.723
0.25732571 0.24083048 1.7320001
0.26062477 0.24083048 1.7320001
0.26392382 0.24083048 1.7320001
0.26861143 0.24208191 1.7410001
0.27192762 0.24208191 1.7410001
0.27666667 0.24333334 1.7500001
0.28 0.24333334 1.7500001
0.28479049 0.24458477 1.7590001
0.28814095 0.24458477 1.7590001
0.29149145 0.24458477 1.7590001
0.29484192 0.24458477 1.7590001
0.29971811 0.2458362 1.7680001
0.30308571 0.2458362 1.7680001
0.50489527 0.28351811 2.039
0.50578481 0.28184953 2.0270002
0.50662857 0.28018096 2.0150001
0.50742668 0.27851239 2.003
0.51124191 0.27851239 2.003
0.51222861 0.27698287 1.9920001
0.51602286 0.27698287 1.9920001
0.51981717 0.27698287 1.9920001
0.52361143 0.27698287 1.9920001
0.52740574 0.27698287 1.9920001
0.53413337 0.27851239 2.003
0.53794861 0.27851239 2.003
0.53878862 0.27698287 1.9920001
0.54557908 0.27851239 2.003
0.54939431 0.27851239 2.003
0.54685718 0.2753143 1.9800001
0.55702478 0.27851239 2.003
0.55776 0.27698287 1.9920001
0.56155431 0.27698287 1.9920001
-0.58758861 0.25427809 1.8040001
-0.58123809 0.25300953 1.7950001
-0.56912762 0.24920382 1.7680001
-0.56576002 0.24920382 1.7680001
-0.56239241 0.24920382 1.7680001
-0.55333334 0.24666667 1.7500001
-0.54434288 0.24412954 1.7320001
-0.54104382 0.24412954 1.7320001
-0.53774476 0.24412954 1.7320001
-0.53444576 0.24412954 1.7320001
-0.52838671 0.24286096 1.723
-0.52510476 0.24286096 1.723
-0.5194 0.24173334 1.715
-0.51342475 0.24046478 1.7060001
-0.50778288 0.23933715 1.6980001
-0.50454861 0.23933715 1.6980001
-0.49895239 0.23820953 1.6900001
-0.49573335 0.23820953 1.6900001
-0.49251431 0.23820953 1.6900001
-0.48668954 0.23694097 1.6810001
-0.48348764 0.23694097 1.6810001
-0.4757143 0.23468572 1.6650001
-0.47254288 0.23468572 1.6650001
-0.46937144 0.23468572 1.6650001
-0.46620002 0.23468572 1.6650001
-0.46080384 0.2335581 1.6570001
-0.45764762 0.2335581 1.6570001
-0.45449144 0.2335581 1.6570001
-0.45133525 0.2335581 1.6570001
-0.44817907 0.2335581 1.6570001
-0.44502288 0.2335581 1.6570001
-0.43973336 0.23243049 1.649
-0.43447429 0.23130287 1.641
-0.42530286 0.22806096 1.618
-0.42222098 0.22806096 1.618
-0.42716953 0.23243049 1.649
-0.42608574 0.2335581 1.6570001
-0.42292953 0.2335581 1.6570001
-0.41977334 0.2335581 1.6570001
-0.41661716 0.2335581 1.6570001
-0.41346097 0.2335581 1.6570001
-0.41228572 0.23468572 1.6650001
-0.4091143 0.23468572 1.6650001
-0.40594286 0.23468572 1.6650001
-0.4008362 0.2335581 1.6570001
-0.39768001 0.2335581 1.6570001
-0.39642859 0.23468572 1.6650001
-0.39325717 0.23468572 1.6650001
-0.38821143 0.2335581 1.6570001
-0.38505524 0.2335581 1.6570001
-0.38374287 0.23468572 1.6650001
-0.37874287 0.2335581 1.6570001
-0.37558669 0.2335581 1.6570001
-0.3724305 0.2335581 1.6570001
-0.36927429 0.2335581 1.6570001
-0.3661181 0.2335581 1.6570001
-0.36296192 0.2335581 1.6570001
-0.35980573 0.2335581 1.6570001
-0.35664955 0.2335581 1.6570001
-0.35349333 0.2335581 1.6570001
-0.35202858 0.23468572 1.6650001
-0.34718096 0.2335581 1.6570001
-0.34402478 0.2335581 1.6570001
-0.34086859 0.2335581 1.6570001
-0.33771241 0.2335581 1.6570001
-0.33132574 0.23130287 1.641
-0.32980001 0.23243049 1.649
-0.32824382 0.2335581 1.6570001
-0.32508764 0.2335581 1.6570001
-0.32193145 0.2335581 1.6570001
-0.31723621 0.23243049 1.649
-0.31561905 0.2335581 1.6570001
-0.31246287 0.2335581 1.6570001
-0.30781335 0.23243049 1.649
-0.30190095 0.23031619 1.6340001
-0.29878858 0.23031619 1.6340001
-0.2956762 0.23031619 1.6340001
-0.29381716 0.23130287 1.641
-0.28945145 0.23031619 1.6340001
-0.28633904 0.23031619 1.6340001
-0.28322667 0.23031619 1.6340001
-0.28131428 0.23130287 1.641
-0.27818859 0.23130287 1.641
-0.27506286 0.23130287 1.641
-0.27193716 0.23130287 1.641
-0.26881143 0.23130287 1.641
-0.26698098 0.23243049 1.649
-0.26384002 0.23243049 1.649
-0.26069906 0.23243049 1.649
-0.25880763 0.2335581 1.6570001
-0.25441715 0.23243049 1.649
-0.2512762 0.23243049 1.649
-0.24813525 0.23243049 1.649
-0.2449943 0.23243049 1.649
-0.24185334 0.23243049 1.649
-0.23871239 0.23243049 1.649
-0.23557144 0.23243049 1.649
-0.23243049 0.23243049 1.649
-0.23040192 0.2335581 1.6570001
-0.22724572 0.2335581 1.6570001
-0.22408953 0.2335581 1.6570001
-0.21986668 0.23243049 1.649
-0.21672572 0.23243049 1.649
-0.21462096 0.2335581 1.6570001
-0.21044382 0.23243049 1.649
-0.20629714 0.23130287 1.641
-0.20317143 0.23130287 1.641
-0.20199619 0.2335581 1.6570001
-0.19980001 0.23468572 1.6650001
-0.19757333 0.23581333 1.6730001
-0.1953162 0.23694097 1.6810001
-0.19211429 0.23694097 1.6810001
-0.18801335 0.23581333 1.6730001
-0.18482667 0.23581333 1.6730001
-0.18077144 0.23468572 1.6650001
-0.17504001 0.23130287 1.641
-0.17191429 0.23130287 1.641
-0.16806857 0.23031619 1.6340001
-0.1649562 0.23031619 1.6340001
-0.16253714 0.23130287 1.641
-0.15873143 0.23031619 1.6340001
-0.15704763 0.23243049 1.649
-0.15390667 0.23243049 1.649
-0.15149716 0.2335581 1.6570001
-0.14905715 0.23468572 1.6650001
-0.14588572 0.23468572 1.6650001
-0.14271429 0.23468572 1.6650001
-0.13954286 0.23468572 1.6650001
-0.13637143 0.23468572 1.6650001
-0.1332 0.23468572 1.6650001
-0.13002858 0.23468572 1.6650001
-0.12685715 0.23468572 1.6650001
-0.12309143 0.2335581 1.6570001
-0.11993524 0.2335581 1.6570001
-0.11621524 0.23243049 1.649
-0.11362286 0.2335581 1.6570001
-0.10993334 0.23243049 1.649
-0.10782857 0.23468572 1.6650001
-0.10465714 0.23468572 1.6650001
-0.10148571 0.23468572 1.6650001
-0.098786667 0.23581333 1.6730001
-0.095142864 0.23468572 1.6650001
-0.091529526 0.2335581 1.6570001
-0.088800006 0.23468572 1.6650001
-0.085217148 0.2335581 1.6570001
-0.082060955 0.2335581 1.6570001
-0.078904763 0.2335581 1.6570001
-0.075382859 0.23243049 1.649
-0.07224191 0.23243049 1.649
-0.069100954 0.23243049 1.649
-0.065960005 0.23243049 1.649
-0.063123815 0.2335581 1.6570001
-0.059967622 0.2335581 1.6570001
-0.05681143 0.2335581 1.6570001
-0.053396191 0.23243049 1.649
-0.050255239 0.23243049 1.649
-0.047114287 0.23243049 1.649
-0.043760002 0.23130287 1.641
-0.040832382 0.23243049 1.649
-0.037508573 0.23130287 1.641
-0.034550477 0.23243049 1.649
-0.031409524 0.23243049 1.649
-0.028268572 0.23243049 1.649
-0.02512762 0.23243049 1.649
-0.022093333 0.2335581 1.6570001
-0.018937144 0.2335581 1.6570001
-0.015704762 0.23243049 1.649
-0.01256381 0.23243049 1.649
-0.0094228573 0.23243049 1.649
-0.0062819049 0.23243049 1.649
-0.0031409524 0.23243049 1.649
0 0.23130287 1.641
0.0031257144 0.23130287 1.641
0.0062514287 0.23130287 1.641
0.0093771433 0.23130287 1.641
0.012502857 0.23130287 1.641
0.015628573 0.23130287 1.641
0.018754287 0.23130287 1.641
0.021880001 0.23130287 1.641
0.025005715 0.23130287 1.641
0.028268572 0.23243049 1.649
0.031409524 0.23243049 1.649
0.034550477 0.23243049 1.649
0.037691429 0.23243049 1.649
0.041030478 0.2335581 1.6570001
0.043973334 0.23243049 1.649
0.047114287 0.23243049 1.649
0.050255239 0.23243049 1.649
0.053396191 0.23243049 1.649
0.056537144 0.23243049 1.649
0.059388574 0.23130287 1.641
0.06194286 0.22918858 1.626
0.06504 0.22918858 1.626
0.068137147 0.22918858 1.626
0.071234286 0.22918858 1.626
0.074697144 0.23031619 1.6340001
0.077809528 0.23031619 1.6340001
0.081664763 0.23243049 1.649
0.08480572 0.23243049 1.649
0.087946668 0.23243049 1.649
0.091087624 0.23243049 1.649
0.094228573 0.23243049 1.649
0.096483812 0.23031619 1.6340001
0.099596195 0.23031619 1.6340001
0.10270858 0.23031619 1.6340001
0.10582095 0.23031619 1.6340001
0.10893334 0.23031619 1.6340001
0.11204572 0.23031619 1.6340001
0.1151581 0.23031619 1.6340001
0.11827048 0.23031619 1.6340001
0.12138286 0.23031619 1.6340001
0.12449525 0.23031619 1.6340001
0.12760763 0.23031619 1.6340001
0.13128 0.23130287 1.641
0.13440572 0.23130287 1.641
0.13820191 0.23243049 1.649
0.14202857 0.2335581 1.6570001
0.14518477 0.2335581 1.6570001
0.14834096 0.2335581 1.6570001
0.15149716 0.2335581 1.6570001
0.15465334 0.2335581 1.6570001
0.15780953 0.2335581 1.6570001
0.16096573 0.2335581 1.6570001
0.16412191 0.2335581 1.6570001
0.16808572 0.23468572 1.6650001
0.17125715 0.23468572 1.6650001
0.17526667 0.23581333 1.6730001
0.17930667 0.23694097 1.6810001
0.18250857 0.23694097 1.6810001
0.18571049 0.23694097 1.6810001
0.18891239 0.23694097 1.6810001
0.19211429 0.23694097 1.6810001
0.19636191 0.23820953 1.6900001
0.19958095 0.23820953 1.6900001
0.20280001 0.23820953 1.6900001
0.20601906 0.23820953 1.6900001
0.2092381 0.23820953 1.6900001
0.21245715 0.23820953 1.6900001
0.21669716 0.23933715 1.6980001
0.21993144 0.23933715 1.6980001
0.22316572 0.23933715 1.6980001
0.22746667 0.24046478 1.7060001
0.23193334 0.24173334 1.715
0.2352 0.24173334 1.715
0.23846668 0.24173334 1.715
0.24286096 0.24286096 1.723
0.24614286 0.24286096 1.723
0.24942477 0.24286096 1.723
0.25270668 0.24286096 1.723
0.25598857 0.24286096 1.723
0.26062477 0.24412954 1.7320001
0.26392382 0.24412954 1.7320001
0.26861143 0.2453981 1.7410001
0.27192762 0.2453981 1.7410001
0.27666667 0.24666667 1.7500001
0.50662857 0.28401905 2.0150001
0.50742668 0.28232762 2.003
0.51124191 0.28232762 2.003
0.51505715 0.28232762 2.003
0.51887238 0.28232762 2.003
0.51981717 0.28077716 1.9920001
0.52361143 0.28077716 1.9920001
0.52740574 0.28077716 1.9920001
0.53413337 0.28232762 2.003
0.53794861 0.28232762 2.003
0.54176384 0.28232762 2.003
0.54557908 0.28232762 2.003
0.54939431 0.28232762 2.003
0.55017143 0.28077716 1.9920001
0.55702478 0.28232762 2.003
0.55776 0.28077716 1.9920001
0.56155431 0.28077716 1.9920001
-0.56912762 0.25257143 1.7680001
-0.56288004 0.25128573 1.7590001
