# .PCD v0.7 - Point Cloud Data file format
VERSION 0.7
FIELDS x y z
SIZE 4 4 4
TYPE F F F
COUNT 1 1 1
WIDTH 1572
HEIGHT 1
VIEWPOINT 0 0 0 1 0 0 0
POINTS 1572
DATA ascii
0.32265717 0.24409716 1.473
0.32413715 0.24310286 1.4670001
0.32559431 0.24210858 1.4610001
0.32837716 0.24210858 1.4610001
0.33116001 0.24210858 1.4610001
0.33394286 0.24210858 1.4610001
0.33534288 0.24111429 1.455
0.33811429 0.24111429 1.455
0.34088573 0.24111429 1.455
0.3450743 0.24210858 1.4610001
0.34785715 0.24210858 1.4610001
0.35064 0.24210858 1.4610001
0.35342288 0.24210858 1.4610001
0.35620573 0.24210858 1.4610001
0.36046287 0.24310286 1.4670001
0.36325717 0.24310286 1.4670001
0.36754858 0.24409716 1.473
0.37362286 0.24625143 1.4860001
0.37645334 0.24625143 1.4860001
0.38081524 0.24724573 1.4920001
0.38545716 0.24840572 1.4990001
0.39012572 0.24956572 1.506
0.39299431 0.24956572 1.506
0.39744002 0.25056002 1.5120001
0.40217334 0.25172001 1.5190001
0.4066667 0.25271431 1.5250001
0.41145143 0.2538743 1.5320001
0.41626287 0.2550343 1.539
0.42110097 0.25619429 1.5460001
0.42596573 0.25735429 1.5530001
0.43085715 0.25851429 1.5600001
0.43577525 0.25967428 1.567
0.44072002 0.26083431 1.5740001
0.44371811 0.26083431 1.5740001
0.44671622 0.26083431 1.5740001
0.59570289 0.33010286 1.9920001
0.59949714 0.33010286 1.9920001
0.60329145 0.33010286 1.9920001
0.60708576 0.33010286 1.9920001
0.61088002 0.33010286 1.9920001
0.61097145 0.3281143 1.9800001
0.61474288 0.3281143 1.9800001
0.6185143 0.3281143 1.9800001
0.62228572 0.3281143 1.9800001
0.62605715 0.3281143 1.9800001
0.62982857 0.3281143 1.9800001
0.6336 0.3281143 1.9800001
0.64123434 0.33010286 1.9920001
0.64502859 0.33010286 1.9920001
0.6488229 0.33010286 1.9920001
0.65261716 0.33010286 1.9920001
0.65641147 0.33010286 1.9920001
0.6562286 0.3281143 1.9800001
0.66000003 0.3281143 1.9800001
0.66377145 0.3281143 1.9800001
-0.55443811 0.3209905 1.9150001
-0.55079049 0.3209905 1.9150001
-0.54714286 0.3209905 1.9150001
-0.54037333 0.31914669 1.904
-0.53674668 0.31914669 1.904
-0.53312004 0.31914669 1.904
-0.52949333 0.31914669 1.904
-0.5289048 0.3209905 1.9150001
-0.52525717 0.3209905 1.9150001
-0.52433336 0.32266667 1.9250001
-0.52066666 0.32266667 1.9250001
-0.51700002 0.32266667 1.9250001
-0.51333338 0.32266667 1.9250001
-0.50966668 0.32266667 1.9250001
-0.50600004 0.32266667 1.9250001
-0.50233334 0.32266667 1.9250001
-0.49866667 0.32266667 1.9250001
-0.495 0.32266667 1.9250001
-0.058556192 0.27120763 1.618
-0.055234287 0.27003428 1.6110001
-0.052165717 0.27003428 1.6110001
-0.049097143 0.27003428 1.6110001
-0.046028573 0.27003428 1.6110001
-0.042746667 0.26869336 1.603
-0.039693333 0.26869336 1.603
-0.03664 0.26869336 1.603
-0.03358667 0.26869336 1.603
-0.030400001 0.26752001 1.5960001
-0.027360002 0.26752001 1.5960001
-0.024213335 0.26634666 1.5890001
-0.021186667 0.26634666 1.5890001
-0.01816 0.26634666 1.5890001
-0.015057144 0.26500574 1.5810001
-0.012045715 0.26500574 1.5810001
-0.0090342863 0.26500574 1.5810001
-0.0060228575 0.26500574 1.5810001
-0.0030114288 0.26500574 1.5810001
0 0.26383239 1.5740001
0.0029980952 0.26383239 1.5740001
0.0059695239 0.26265904 1.567
0.0089542856 0.26265904 1.567
0.011885715 0.26148573 1.5600001
0.014857143 0.26148573 1.5600001
0.017748572 0.26031238 1.5530001
0.020706667 0.26031238 1.5530001
0.023558097 0.25913906 1.5460001
0.026502859 0.25913906 1.5460001
0.029447621 0.25913906 1.5460001
0.032392383 0.25913906 1.5460001
0.035177145 0.25796571 1.539
0.038108572 0.25796571 1.539
0.041040003 0.25796571 1.539
0.043971431 0.25796571 1.539
0.046689525 0.2567924 1.5320001
0.04960762 0.2567924 1.5320001
0.052525718 0.2567924 1.5320001
0.055443812 0.2567924 1.5320001
0.058361907 0.2567924 1.5320001
0.061280001 0.2567924 1.5320001
0.064198099 0.2567924 1.5320001
0.067116193 0.2567924 1.5320001
0.070034288 0.2567924 1.5320001
0.072952382 0.2567924 1.5320001
0.075870477 0.2567924 1.5320001
0.078788571 0.2567924 1.5320001
0.081333339 0.25561905 1.5250001
0.084238097 0.25561905 1.5250001
0.087142862 0.25561905 1.5250001
0.089693338 0.25461334 1.5190001
0.092586674 0.25461334 1.5190001
0.095040001 0.25344002 1.5120001
0.097920001 0.25344002 1.5120001
0.1008 0.25344002 1.5120001
0.10368001 0.25344002 1.5120001
0.10656001 0.25344002 1.5120001
0.10900572 0.25243428 1.506
0.11187429 0.25243428 1.506
0.11474286 0.25243428 1.506
0.11761143 0.25243428 1.506
0.12048 0.25243428 1.506
0.12277524 0.25126097 1.4990001
0.12563048 0.25126097 1.4990001
0.12848572 0.25126097 1.4990001
0.13072762 0.25008762 1.4920001
0.13356952 0.25008762 1.4920001
0.13641143 0.25008762 1.4920001
0.13869333 0.24908191 1.4860001
0.14152381 0.24908191 1.4860001
0.14435428 0.24908191 1.4860001
0.14718477 0.24908191 1.4860001
0.15001525 0.24908191 1.4860001
0.15284573 0.24908191 1.4860001
0.1556762 0.24908191 1.4860001
0.15850668 0.24908191 1.4860001
0.16133715 0.24908191 1.4860001
0.16416763 0.24908191 1.4860001
0.1669981 0.24908191 1.4860001
0.16982858 0.24908191 1.4860001
0.17196192 0.2480762 1.48
0.17478096 0.2480762 1.48
0.17760001 0.2480762 1.48
0.18041906 0.2480762 1.48
0.1832381 0.2480762 1.48
0.18605715 0.2480762 1.48
0.18798286 0.24690287 1.473
0.19078858 0.24690287 1.473
0.19280572 0.24589716 1.4670001
0.1956 0.24589716 1.4670001
0.1983943 0.24589716 1.4670001
0.20118858 0.24589716 1.4670001
0.20398286 0.24589716 1.4670001
0.20677716 0.24589716 1.4670001
0.20957144 0.24589716 1.4670001
0.21323429 0.24690287 1.473
0.21604002 0.24690287 1.473
0.21884573 0.24690287 1.473
0.22165143 0.24690287 1.473
0.22445714 0.24690287 1.473
0.22633715 0.24589716 1.4670001
0.22913143 0.24589716 1.4670001
0.23192573 0.24589716 1.4670001
0.23472001 0.24589716 1.4670001
0.23751429 0.24589716 1.4670001
0.24030858 0.24589716 1.4670001
0.24210858 0.24489143 1.4610001
0.24489143 0.24489143 1.4610001
0.2476743 0.24489143 1.4610001
0.25045714 0.24489143 1.4610001
0.25324002 0.24489143 1.4610001
0.25497144 0.24388573 1.455
0.25774285 0.24388573 1.455
0.26051429 0.24388573 1.455
0.26328573 0.24388573 1.455
0.26715431 0.24489143 1.4610001
0.26993716 0.24489143 1.4610001
0.27272001 0.24489143 1.4610001
0.27550286 0.24489143 1.4610001
0.27828571 0.24489143 1.4610001
0.28106859 0.24489143 1.4610001
0.28501716 0.24589716 1.4670001
0.28781143 0.24589716 1.4670001
0.28941715 0.24489143 1.4610001
0.2922 0.24489143 1.4610001
0.29498288 0.24489143 1.4610001
0.29776573 0.24489143 1.4610001
0.30054858 0.24489143 1.4610001
0.30208573 0.24388573 1.455
0.30485716 0.24388573 1.455
0.30762857 0.24388573 1.455
0.31040001 0.24388573 1.455
0.31188002 0.24288 1.4490001
0.31464002 0.24288 1.4490001
0.31740001 0.24288 1.4490001
0.3188343 0.24187429 1.4430001
0.32158288 0.24187429 1.4430001
0.32433143 0.24187429 1.4430001
0.32844001 0.24288 1.4490001
0.3312 0.24288 1.4490001
0.33257717 0.24187429 1.4430001
0.33532572 0.24187429 1.4430001
0.3380743 0.24187429 1.4430001
0.34224001 0.24288 1.4490001
0.345 0.24288 1.4490001
0.34776002 0.24288 1.4490001
0.35052001 0.24288 1.4490001
0.35474288 0.24388573 1.455
0.35898858 0.24489143 1.4610001
0.36325717 0.24589716 1.4670001
0.36605144 0.24589716 1.4670001
0.3721143 0.2480762 1.48
0.37645334 0.24908191 1.4860001
0.38081524 0.25008762 1.4920001
0.38545716 0.25126097 1.4990001
0.39012572 0.25243428 1.506
0.39299431 0.25243428 1.506
0.39744002 0.25344002 1.5120001
0.40217334 0.25461334 1.5190001
0.4066667 0.25561905 1.5250001
0.41145143 0.2567924 1.5320001
0.41626287 0.25796571 1.539
0.42110097 0.25913906 1.5460001
0.42404574 0.25913906 1.5460001
0.42699048 0.25913906 1.5460001
0.43577525 0.26265904 1.567
0.44072002 0.26383239 1.5740001
0.44371811 0.26383239 1.5740001
0.59190857 0.33389714 1.9920001
0.59211433 0.33188573 1.9800001
0.59949714 0.33389714 1.9920001
0.60329145 0.33389714 1.9920001
0.60708576 0.33389714 1.9920001
0.61088002 0.33389714 1.9920001
0.61097145 0.33188573 1.9800001
0.61474288 0.33188573 1.9800001
0.6185143 0.33188573 1.9800001
0.62228572 0.33188573 1.9800001
0.62605715 0.33188573 1.9800001
0.63364571 0.33389714 1.9920001
0.63744003 0.33389714 1.9920001
0.63737148 0.33188573 1.9800001
0.6411429 0.33188573 1.9800001
0.64491433 0.33188573 1.9800001
0.65261716 0.33389714 1.9920001
0.65245718 0.33188573 1.9800001
0.6562286 0.33188573 1.9800001
0.66000003 0.33188573 1.9800001
0.66779429 0.33389714 1.9920001
-0.55079049 0.3246381 1.9150001
-0.54714286 0.3246381 1.9150001
-0.54349524 0.3246381 1.9150001
-0.53984761 0.3246381 1.9150001
-0.53312004 0.32277334 1.904
-0.52949333 0.32277334 1.904
-0.5289048 0.3246381 1.9150001
-0.52525717 0.3246381 1.9150001
-0.52433336 0.32633334 1.9250001
-0.52066666 0.32633334 1.9250001
-0.51700002 0.32633334 1.9250001
-0.51333338 0.32633334 1.9250001
-0.50966668 0.32633334 1.9250001
-0.50600004 0.32633334 1.9250001
-0.50520384 0.32819811 1.9360001
-0.50151622 0.32819811 1.9360001
-0.030400001 0.27056 1.5960001
-0.027360002 0.27056 1.5960001
-0.024213335 0.26937336 1.5890001
-0.021186667 0.26937336 1.5890001
-0.01816 0.26937336 1.5890001
-0.015133334 0.26937336 1.5890001
-0.012106667 0.26937336 1.5890001
-0.0090342863 0.26801714 1.5810001
-0.0060228575 0.26801714 1.5810001
-0.0030114288 0.26801714 1.5810001
0 0.26683047 1.5740001
0.0029980952 0.26683047 1.5740001
0.0059695239 0.26564381 1.567
0.0089542856 0.26564381 1.567
0.017748572 0.2632705 1.5530001
0.0208 0.26445717 1.5600001
0.023664763 0.2632705 1.5530001
0.026502859 0.26208383 1.5460001
0.029314287 0.26089716 1.539
0.032245714 0.26089716 1.539
0.035177145 0.26089716 1.539
0.038108572 0.26089716 1.539
0.040853336 0.25971049 1.5320001
0.043771431 0.25971049 1.5320001
0.046689525 0.25971049 1.5320001
0.04960762 0.25971049 1.5320001
0.052525718 0.25971049 1.5320001
0.055443812 0.25971049 1.5320001
0.058361907 0.25971049 1.5320001
0.061280001 0.25971049 1.5320001
0.064198099 0.25971049 1.5320001
0.067116193 0.25971049 1.5320001
0.070034288 0.25971049 1.5320001
0.072952382 0.25971049 1.5320001
0.075870477 0.25971049 1.5320001
0.078788571 0.25971049 1.5320001
0.081333339 0.25852382 1.5250001
0.084238097 0.25852382 1.5250001
0.086800002 0.25750667 1.5190001
0.089693338 0.25750667 1.5190001
0.092586674 0.25750667 1.5190001
0.095040001 0.25632 1.5120001
0.097920001 0.25632 1.5120001
0.1008 0.25632 1.5120001
0.10368001 0.25632 1.5120001
0.10656001 0.25632 1.5120001
0.10900572 0.25530288 1.506
0.11187429 0.25530288 1.506
0.11474286 0.25530288 1.506
0.11761143 0.25530288 1.506
0.12048 0.25530288 1.506
0.12277524 0.25411621 1.4990001
0.12563048 0.25411621 1.4990001
0.12848572 0.25411621 1.4990001
0.13072762 0.25292954 1.4920001
0.13303238 0.25191239 1.4860001
0.13586286 0.25191239 1.4860001
0.13869333 0.25191239 1.4860001
0.14152381 0.25191239 1.4860001
0.14435428 0.25191239 1.4860001
0.14718477 0.25191239 1.4860001
0.15001525 0.25191239 1.4860001
0.15284573 0.25191239 1.4860001
0.1556762 0.25191239 1.4860001
0.15850668 0.25191239 1.4860001
0.16068572 0.25089526 1.48
0.16350476 0.25089526 1.48
0.16632381 0.25089526 1.48
0.16914286 0.25089526 1.48
0.17196192 0.25089526 1.48
0.17478096 0.25089526 1.48
0.17760001 0.25089526 1.48
0.18041906 0.25089526 1.48
0.1832381 0.25089526 1.48
0.18517715 0.24970858 1.473
0.18798286 0.24970858 1.473
0.19001144 0.24869144 1.4670001
0.19201715 0.2476743 1.4610001
0.1948 0.2476743 1.4610001
0.19758287 0.2476743 1.4610001
0.20036572 0.2476743 1.4610001
0.20314857 0.2476743 1.4610001
0.20593144 0.2476743 1.4610001
0.20871429 0.2476743 1.4610001
0.21149716 0.2476743 1.4610001
0.21428001 0.2476743 1.4610001
0.21706286 0.2476743 1.4610001
0.22074857 0.24869144 1.4670001
0.22262858 0.2476743 1.4610001
0.22448573 0.24665715 1.455
0.22725715 0.24665715 1.455
0.23002858 0.24665715 1.455
0.23376001 0.2476743 1.4610001
0.23557144 0.24665715 1.455
0.23932572 0.2476743 1.4610001
0.24111429 0.24665715 1.455
0.24388573 0.24665715 1.455
0.24665715 0.24665715 1.455
0.24942859 0.24665715 1.455
0.25116 0.24564001 1.4490001
0.25392002 0.24564001 1.4490001
0.25561714 0.24462287 1.4430001
0.25944 0.24564001 1.4490001
0.2622 0.24564001 1.4490001
0.26496002 0.24564001 1.4490001
0.26882857 0.24665715 1.455
0.27160001 0.24665715 1.455
0.27437145 0.24665715 1.455
0.27714285 0.24665715 1.455
0.27991429 0.24665715 1.455
0.28385144 0.2476743 1.4610001
0.2866343 0.2476743 1.4610001
0.28822857 0.24665715 1.455
0.29100001 0.24665715 1.455
0.29377145 0.24665715 1.455
0.29532 0.24564001 1.4490001
0.29808 0.24564001 1.4490001
0.29959428 0.24462287 1.4430001
0.30234286 0.24462287 1.4430001
0.30509144 0.24462287 1.4430001
0.30784002 0.24462287 1.4430001
0.31058857 0.24462287 1.4430001
0.31203431 0.24360572 1.437
0.31477144 0.24360572 1.437
0.31750858 0.24360572 1.437
0.32024571 0.24360572 1.437
0.32298288 0.24360572 1.437
0.32572001 0.24360572 1.437
0.32845715 0.24360572 1.437
0.33119431 0.24360572 1.437
0.33393145 0.24360572 1.437
0.33666858 0.24360572 1.437
0.34082288 0.24462287 1.4430001
0.34357145 0.24462287 1.4430001
0.34632 0.24462287 1.4430001
0.34906858 0.24462287 1.4430001
0.35328001 0.24564001 1.4490001
0.35751429 0.24665715 1.455
0.36177143 0.2476743 1.4610001
0.36455429 0.2476743 1.4610001
0.37035429 0.24970858 1.473
0.37316 0.24970858 1.473
0.37928382 0.25191239 1.4860001
0.38545716 0.25411621 1.4990001
0.3883124 0.25411621 1.4990001
0.39299431 0.25530288 1.506
0.39744002 0.25632 1.5120001
0.40217334 0.25750667 1.5190001
0.4066667 0.25852382 1.5250001
0.41145143 0.25971049 1.5320001
0.41626287 0.26089716 1.539
0.41919431 0.26089716 1.539
0.42212573 0.26089716 1.539
0.42699048 0.26208383 1.5460001
0.59190857 0.33769143 1.9920001
0.59570289 0.33769143 1.9920001
0.59949714 0.33769143 1.9920001
0.60329145 0.33769143 1.9920001
0.60708576 0.33769143 1.9920001
0.61088002 0.33769143 1.9920001
0.61467433 0.33769143 1.9920001
0.61846858 0.33769143 1.9920001
0.6185143 0.33565715 1.9800001
0.62228572 0.33565715 1.9800001
0.62985146 0.33769143 1.9920001
0.62982857 0.33565715 1.9800001
0.6336 0.33565715 1.9800001
0.63737148 0.33565715 1.9800001
0.6411429 0.33565715 1.9800001
0.6488229 0.33769143 1.9920001
0.65261716 0.33769143 1.9920001
0.65641147 0.33769143 1.9920001
0.66020572 0.33769143 1.9920001
0.66400003 0.33769143 1.9920001
0.67148191 0.33955622 2.003
0.67529714 0.33955622 2.003
-0.55366671 0.33000001 1.9250001
-0.55000001 0.33000001 1.9250001
-0.54349524 0.32828572 1.9150001
-0.53984761 0.32828572 1.9150001
-0.53620005 0.32828572 1.9150001
-0.53255242 0.32828572 1.9150001
-0.5289048 0.32828572 1.9150001
-0.52525717 0.32828572 1.9150001
-0.52433336 0.33000001 1.9250001
-0.52066666 0.33000001 1.9250001
-0.51700002 0.33000001 1.9250001
-0.51333338 0.33000001 1.9250001
-0.50966668 0.33000001 1.9250001
-0.50600004 0.33000001 1.9250001
-0.50233334 0.33000001 1.9250001
-0.50151622 0.33188573 1.9360001
-0.018240001 0.27360001 1.5960001
-0.0152 0.27360001 1.5960001
0.017748572 0.26622859 1.5530001
0.0208 0.26742858 1.5600001
0.023664763 0.26622859 1.5530001
0.026742859 0.26742858 1.5600001
0.029447621 0.2650286 1.5460001
0.032392383 0.2650286 1.5460001
0.035177145 0.26382858 1.539
0.037935238 0.26262859 1.5320001
0.040853336 0.26262859 1.5320001
0.043771431 0.26262859 1.5320001
0.046689525 0.26262859 1.5320001
0.04960762 0.26262859 1.5320001
0.052525718 0.26262859 1.5320001
0.055443812 0.26262859 1.5320001
0.058361907 0.26262859 1.5320001
0.061280001 0.26262859 1.5320001
0.064198099 0.26262859 1.5320001
0.067116193 0.26262859 1.5320001
0.070034288 0.26262859 1.5320001
0.072952382 0.26262859 1.5320001
0.075870477 0.26262859 1.5320001
0.078788571 0.26262859 1.5320001
0.081333339 0.26142859 1.5250001
0.083906673 0.2604 1.5190001
0.086800002 0.2604 1.5190001
0.089693338 0.2604 1.5190001
0.092586674 0.2604 1.5190001
0.095040001 0.25920001 1.5120001
0.097920001 0.25920001 1.5120001
0.1008 0.25920001 1.5120001
0.10368001 0.25920001 1.5120001
0.10656001 0.25920001 1.5120001
0.10944001 0.25920001 1.5120001
0.11187429 0.25817144 1.506
0.11474286 0.25817144 1.506
0.11761143 0.25817144 1.506
0.12048 0.25817144 1.506
0.12277524 0.25697145 1.4990001
0.12563048 0.25697145 1.4990001
0.12788571 0.25577143 1.4920001
0.13072762 0.25577143 1.4920001
0.13356952 0.25577143 1.4920001
0.13586286 0.25474286 1.4860001
0.13869333 0.25474286 1.4860001
0.14152381 0.25474286 1.4860001
0.14435428 0.25474286 1.4860001
0.14718477 0.25474286 1.4860001
0.15001525 0.25474286 1.4860001
0.15284573 0.25474286 1.4860001
0.1556762 0.25474286 1.4860001
0.15850668 0.25474286 1.4860001
0.16068572 0.25371429 1.48
0.16350476 0.25371429 1.48
0.16632381 0.25371429 1.48
0.16914286 0.25371429 1.48
0.17196192 0.25371429 1.48
0.17478096 0.25371429 1.48
0.17676 0.2525143 1.473
0.17956573 0.2525143 1.473
0.18237144 0.2525143 1.473
0.18517715 0.2525143 1.473
0.18721715 0.25148574 1.4670001
0.19001144 0.25148574 1.4670001
0.19201715 0.25045714 1.4610001
0.1948 0.25045714 1.4610001
0.19758287 0.25045714 1.4610001
0.20036572 0.25045714 1.4610001
0.20314857 0.25045714 1.4610001
0.20593144 0.25045714 1.4610001
0.20871429 0.25045714 1.4610001
0.21149716 0.25045714 1.4610001
0.21428001 0.25045714 1.4610001
0.21706286 0.25045714 1.4610001
0.21984573 0.25045714 1.4610001
0.22171429 0.24942859 1.455
0.22448573 0.24942859 1.455
0.22725715 0.24942859 1.455
0.22908001 0.2484 1.4490001
0.23280001 0.24942859 1.455
0.23460001 0.2484 1.4490001
0.23834287 0.24942859 1.455
0.24111429 0.24942859 1.455
0.24388573 0.24942859 1.455
0.24564001 0.2484 1.4490001
0.2484 0.2484 1.4490001
0.25012001 0.24737144 1.4430001
0.25286859 0.24737144 1.4430001
0.2545543 0.24634287 1.437
0.25729144 0.24634287 1.437
0.26002857 0.24634287 1.437
0.26276574 0.24634287 1.437
0.26661143 0.24737144 1.4430001
0.26936001 0.24737144 1.4430001
0.27210858 0.24737144 1.4430001
0.27600002 0.2484 1.4490001
0.27876002 0.2484 1.4490001
0.28152001 0.2484 1.4490001
0.28428 0.2484 1.4490001
0.28704002 0.2484 1.4490001
0.2886 0.24737144 1.4430001
0.29134858 0.24737144 1.4430001
0.29409716 0.24737144 1.4430001
0.29684573 0.24737144 1.4430001
0.29834858 0.24634287 1.437
0.30108571 0.24634287 1.437
0.30382288 0.24634287 1.437
0.30656001 0.24634287 1.437
0.30929714 0.24634287 1.437
0.31073144 0.2453143 1.4310001
0.31345716 0.2453143 1.4310001
0.31618288 0.2453143 1.4310001
0.31890857 0.2453143 1.4310001
0.32163429 0.2453143 1.4310001
0.32436001 0.2453143 1.4310001
0.32845715 0.24634287 1.437
0.32981145 0.2453143 1.4310001
0.33253714 0.2453143 1.4310001
0.33666858 0.24634287 1.437
0.33940572 0.24634287 1.437
0.34071431 0.2453143 1.4310001
0.34488001 0.24634287 1.437
0.34761715 0.24634287 1.437
0.35181716 0.24737144 1.4430001
0.35604 0.2484 1.4490001
0.36028573 0.24942859 1.455
0.36305717 0.24942859 1.455
0.36733717 0.25045714 1.4610001
0.37164003 0.25148574 1.4670001
0.37775239 0.25371429 1.48
0.38365716 0.25577143 1.4920001
0.3883124 0.25697145 1.4990001
0.39456001 0.25920001 1.5120001
0.39928001 0.2604 1.5190001
0.40376192 0.26142859 1.5250001
0.4066667 0.26142859 1.5250001
0.41145143 0.26262859 1.5320001
0.41436955 0.26262859 1.5320001
0.41919431 0.26382858 1.539
0.42212573 0.26382858 1.539
0.59190857 0.34148574 1.9920001
0.59570289 0.34148574 1.9920001
0.59949714 0.34148574 1.9920001
0.60662287 0.34337145 2.003
0.60708576 0.34148574 1.9920001
0.61425334 0.34337145 2.003
0.61467433 0.34148574 1.9920001
0.61846858 0.34148574 1.9920001
0.6185143 0.33942857 1.9800001
0.62228572 0.33942857 1.9800001
0.62605715 0.33942857 1.9800001
0.62982857 0.33942857 1.9800001
0.6336 0.33942857 1.9800001
0.63737148 0.33942857 1.9800001
0.6411429 0.33942857 1.9800001
0.6488229 0.34148574 1.9920001
0.65261716 0.34148574 1.9920001
0.65641147 0.34148574 1.9920001
0.66020572 0.34148574 1.9920001
0.66766667 0.34337145 2.003
0.67148191 0.34337145 2.003
0.67529714 0.34337145 2.003
-0.55366671 0.33366668 1.9250001
-0.55000001 0.33366668 1.9250001
-0.54349524 0.33193335 1.9150001
-0.53984761 0.33193335 1.9150001
-0.53620005 0.33193335 1.9150001
-0.53255242 0.33193335 1.9150001
-0.5289048 0.33193335 1.9150001
-0.528 0.33366668 1.9250001
-0.52433336 0.33366668 1.9250001
-0.52066666 0.33366668 1.9250001
-0.51700002 0.33366668 1.9250001
-0.51333338 0.33366668 1.9250001
-0.50966668 0.33366668 1.9250001
-0.50600004 0.33366668 1.9250001
-0.50233334 0.33366668 1.9250001
0.0208 0.27040002 1.5600001
0.023771429 0.27040002 1.5600001
0.026742859 0.27040002 1.5600001
0.035017144 0.26554668 1.5320001
0.037935238 0.26554668 1.5320001
0.040853336 0.26554668 1.5320001
0.043771431 0.26554668 1.5320001
0.046689525 0.26554668 1.5320001
0.04960762 0.26554668 1.5320001
0.052525718 0.26554668 1.5320001
0.055443812 0.26554668 1.5320001
0.058361907 0.26554668 1.5320001
0.061280001 0.26554668 1.5320001
0.064198099 0.26554668 1.5320001
0.067116193 0.26554668 1.5320001
0.070034288 0.26554668 1.5320001
0.072952382 0.26554668 1.5320001
0.075870477 0.26554668 1.5320001
0.078788571 0.26554668 1.5320001
0.081013337 0.26329336 1.5190001
0.083906673 0.26329336 1.5190001
0.086400002 0.26208001 1.5120001
0.089693338 0.26329336 1.5190001
0.092160001 0.26208001 1.5120001
0.095040001 0.26208001 1.5120001
0.097920001 0.26208001 1.5120001
0.1008 0.26208001 1.5120001
0.10368001 0.26208001 1.5120001
0.10656001 0.26208001 1.5120001
0.10944001 0.26208001 1.5120001
0.11187429 0.26104 1.506
0.11474286 0.26104 1.506
0.11761143 0.26104 1.506
0.12048 0.26104 1.506
0.12334858 0.26104 1.506
0.12563048 0.25982669 1.4990001
0.12848572 0.25982669 1.4990001
0.13072762 0.25861335 1.4920001
0.13356952 0.25861335 1.4920001
0.13586286 0.25757334 1.4860001
0.13869333 0.25757334 1.4860001
0.14152381 0.25757334 1.4860001
0.14435428 0.25757334 1.4860001
0.14718477 0.25757334 1.4860001
0.15001525 0.25757334 1.4860001
0.15284573 0.25757334 1.4860001
0.1556762 0.25757334 1.4860001
0.15786667 0.25653335 1.48
0.16068572 0.25653335 1.48
0.16350476 0.25653335 1.48
0.16632381 0.25653335 1.48
0.16914286 0.25653335 1.48
0.17196192 0.25653335 1.48
0.17395429 0.25532001 1.473
0.17676 0.25532001 1.473
0.17956573 0.25532001 1.473
0.18162858 0.25428 1.4670001
0.18442287 0.25428 1.4670001
0.18645144 0.25324002 1.4610001
0.18923429 0.25324002 1.4610001
0.19201715 0.25324002 1.4610001
0.1948 0.25324002 1.4610001
0.19758287 0.25324002 1.4610001
0.20036572 0.25324002 1.4610001
0.20314857 0.25324002 1.4610001
0.20593144 0.25324002 1.4610001
0.20785715 0.25220001 1.455
0.21062858 0.25220001 1.455
0.21340001 0.25220001 1.455
0.21617144 0.25220001 1.455
0.21894287 0.25220001 1.455
0.22171429 0.25220001 1.455
0.22356001 0.25116 1.4490001
0.22632001 0.25116 1.4490001
0.22908001 0.25116 1.4490001
0.23184001 0.25116 1.4490001
0.23362859 0.25012001 1.4430001
0.23736002 0.25116 1.4490001
0.24012001 0.25116 1.4490001
0.24288 0.25116 1.4490001
0.24564001 0.25116 1.4490001
0.24737144 0.25012001 1.4430001
0.24908 0.24908 1.437
0.25181717 0.24908 1.437
0.2545543 0.24908 1.437
0.25729144 0.24908 1.437
0.25894287 0.24804001 1.4310001
0.26276574 0.24908 1.437
0.26439428 0.24804001 1.4310001
0.26712 0.24804001 1.4310001
0.26984572 0.24804001 1.4310001
0.2737143 0.24908 1.437
0.27645144 0.24908 1.437
0.27802286 0.24804001 1.4310001
0.28192574 0.24908 1.437
0.28466287 0.24908 1.437
0.28740001 0.24908 1.437
0.28892574 0.24804001 1.4310001
0.29165143 0.24804001 1.4310001
0.29437715 0.24804001 1.4310001
0.29710287 0.24804001 1.4310001
0.29857144 0.24700001 1.4250001
0.30128571 0.24700001 1.4250001
0.30272001 0.24596001 1.419
0.30542287 0.24596001 1.419
0.30682287 0.24492002 1.4130001
0.30951428 0.24492002 1.4130001
0.31220573 0.24492002 1.4130001
0.31489715 0.24492002 1.4130001
0.3175886 0.24492002 1.4130001
0.32164001 0.24596001 1.419
0.32434288 0.24596001 1.419
0.32704574 0.24596001 1.419
0.33114287 0.24700001 1.4250001
0.33385715 0.24700001 1.4250001
0.33657146 0.24700001 1.4250001
0.33928573 0.24700001 1.4250001
0.34344003 0.24804001 1.4310001
0.34761715 0.24908 1.437
0.35035428 0.24908 1.437
0.35604 0.25116 1.4490001
0.36028573 0.25220001 1.455
0.36305717 0.25220001 1.455
0.36733717 0.25324002 1.4610001
0.37012002 0.25324002 1.4610001
0.37443429 0.25428 1.4670001
0.38211429 0.25757334 1.4860001
0.38649905 0.25861335 1.4920001
0.39299431 0.26104 1.506
0.39928001 0.26329336 1.5190001
0.40561524 0.26554668 1.5320001
0.40853333 0.26554668 1.5320001
0.41145143 0.26554668 1.5320001
0.41436955 0.26554668 1.5320001
0.59899241 0.34718668 2.003
0.60280764 0.34718668 2.003
0.60662287 0.34718668 2.003
0.61043811 0.34718668 2.003
0.61425334 0.34718668 2.003
0.61467433 0.34528002 1.9920001
0.61846858 0.34528002 1.9920001
0.6222629 0.34528002 1.9920001
0.62228572 0.3432 1.9800001
0.62605715 0.3432 1.9800001
0.62982857 0.3432 1.9800001
0.6336 0.3432 1.9800001
0.63737148 0.3432 1.9800001
0.64502859 0.34528002 1.9920001
0.6488229 0.34528002 1.9920001
0.65261716 0.34528002 1.9920001
0.66003621 0.34718668 2.003
0.66385144 0.34718668 2.003
0.66766667 0.34718668 2.003
0.67148191 0.34718668 2.003
0.67529714 0.34718668 2.003
0.67911243 0.34718668 2.003
-0.54633337 0.33733335 1.9250001
-0.54266667 0.33733335 1.9250001
-0.53620005 0.33558097 1.9150001
-0.53255242 0.33558097 1.9150001
-0.5316667 0.33733335 1.9250001
-0.528 0.33733335 1.9250001
-0.52433336 0.33733335 1.9250001
-0.52066666 0.33733335 1.9250001
-0.51700002 0.33733335 1.9250001
-0.51333338 0.33733335 1.9250001
-0.50966668 0.33733335 1.9250001
-0.50600004 0.33733335 1.9250001
0.046689525 0.26846477 1.5320001
0.049380954 0.26723811 1.5250001
0.052285716 0.26723811 1.5250001
0.055190478 0.26723811 1.5250001
0.058095239 0.26723811 1.5250001
0.061280001 0.26846477 1.5320001
0.064198099 0.26846477 1.5320001
0.067116193 0.26846477 1.5320001
0.070034288 0.26846477 1.5320001
0.072952382 0.26846477 1.5320001
0.075870477 0.26846477 1.5320001
0.078788571 0.26846477 1.5320001
0.081333339 0.26723811 1.5250001
0.083906673 0.26618668 1.5190001
0.086400002 0.26496002 1.5120001
0.089693338 0.26618668 1.5190001
0.092586674 0.26618668 1.5190001
0.095040001 0.26496002 1.5120001
0.097920001 0.26496002 1.5120001
0.1008 0.26496002 1.5120001
0.10368001 0.26496002 1.5120001
0.10656001 0.26496002 1.5120001
0.10944001 0.26496002 1.5120001
0.11187429 0.26390859 1.506
0.11474286 0.26390859 1.506
0.11761143 0.26390859 1.506
0.12048 0.26390859 1.506
0.12277524 0.2626819 1.4990001
0.12563048 0.2626819 1.4990001
0.12848572 0.2626819 1.4990001
0.13072762 0.26145524 1.4920001
0.13356952 0.26145524 1.4920001
0.13586286 0.26040381 1.4860001
0.13869333 0.26040381 1.4860001
0.14152381 0.26040381 1.4860001
0.14435428 0.26040381 1.4860001
0.14718477 0.26040381 1.4860001
0.15001525 0.26040381 1.4860001
0.15284573 0.26040381 1.4860001
0.15504763 0.25935239 1.48
0.15786667 0.25935239 1.48
0.16068572 0.25935239 1.48
0.16350476 0.25935239 1.48
0.16632381 0.25935239 1.48
0.16914286 0.25935239 1.48
0.17114858 0.25812572 1.473
0.17395429 0.25812572 1.473
0.17676 0.25812572 1.473
0.17883429 0.2570743 1.4670001
0.18162858 0.2570743 1.4670001
0.18442287 0.2570743 1.4670001
0.18645144 0.25602287 1.4610001
0.18923429 0.25602287 1.4610001
0.19201715 0.25602287 1.4610001
0.1948 0.25602287 1.4610001
0.19677144 0.25497144 1.455
0.19954287 0.25497144 1.455
0.20231429 0.25497144 1.455
0.20508572 0.25497144 1.455
0.20785715 0.25497144 1.455
0.21062858 0.25497144 1.455
0.21340001 0.25497144 1.455
0.21617144 0.25497144 1.455
0.21894287 0.25497144 1.455
0.22080001 0.25392002 1.4490001
0.2226343 0.25286859 1.4430001
0.22538286 0.25286859 1.4430001
0.22813144 0.25286859 1.4430001
0.23088001 0.25286859 1.4430001
0.23265715 0.25181717 1.437
0.23637715 0.25286859 1.4430001
0.23912573 0.25286859 1.4430001
0.24187429 0.25286859 1.4430001
0.24360572 0.25181717 1.437
0.24634287 0.25181717 1.437
0.24804001 0.25076571 1.4310001
0.25076571 0.25076571 1.4310001
0.25349143 0.25076571 1.4310001
0.25621715 0.25076571 1.4310001
0.25785714 0.2497143 1.4250001
0.26057145 0.2497143 1.4250001
0.26328573 0.2497143 1.4250001
0.266 0.2497143 1.4250001
0.26758286 0.24866286 1.419
0.27028573 0.24866286 1.419
0.27183428 0.24761143 1.4130001
0.27452573 0.24761143 1.4130001
0.27721715 0.24761143 1.4130001
0.27990857 0.24761143 1.4130001
0.28260002 0.24761143 1.4130001
0.28529143 0.24761143 1.4130001
0.28798288 0.24761143 1.4130001
0.2906743 0.24761143 1.4130001
0.29461145 0.24866286 1.419
0.29605716 0.24761143 1.4130001
0.29874858 0.24761143 1.4130001
0.30144 0.24761143 1.4130001
0.30284002 0.24656001 1.4070001
0.30552 0.24656001 1.4070001
0.3082 0.24656001 1.4070001
0.30977526 0.24568382 1.4020001
0.31244573 0.24568382 1.4020001
0.3151162 0.24568382 1.4020001
0.31892002 0.24656001 1.4070001
0.32297143 0.24761143 1.4130001
0.32566288 0.24761143 1.4130001
0.32974857 0.24866286 1.419
0.33245143 0.24866286 1.419
0.33657146 0.2497143 1.4250001
0.33928573 0.2497143 1.4250001
0.34200001 0.2497143 1.4250001
0.34616572 0.25076571 1.4310001
0.35035428 0.25181717 1.437
0.35456574 0.25286859 1.4430001
0.35880002 0.25392002 1.4490001
0.36305717 0.25497144 1.455
0.36733717 0.25602287 1.4610001
0.36860001 0.25497144 1.455
0.37290287 0.25602287 1.4610001
0.38057145 0.25935239 1.48
0.38649905 0.26145524 1.4920001
0.38934097 0.26145524 1.4920001
0.39928001 0.26618668 1.5190001
0.40561524 0.26846477 1.5320001
0.40853333 0.26846477 1.5320001
0.41145143 0.26846477 1.5320001
0.59899241 0.35100192 2.003
0.60280764 0.35100192 2.003
0.60662287 0.35100192 2.003
0.61043811 0.35100192 2.003
0.61088002 0.3490743 1.9920001
0.61467433 0.3490743 1.9920001
0.61846858 0.3490743 1.9920001
0.6222629 0.3490743 1.9920001
0.62228572 0.34697145 1.9800001
0.62605715 0.34697145 1.9800001
0.62982857 0.34697145 1.9800001
0.6336 0.34697145 1.9800001
0.63737148 0.34697145 1.9800001
0.6411429 0.34697145 1.9800001
0.6488229 0.3490743 1.9920001
0.65622097 0.35100192 2.003
0.66003621 0.35100192 2.003
0.66782862 0.35310477 2.0150001
0.66766667 0.35100192 2.003
0.67148191 0.35100192 2.003
0.67529714 0.35100192 2.003
0.67911243 0.35100192 2.003
-0.55942857 0.34684572 1.9580001
-0.55569905 0.34684572 1.9580001
-0.54576766 0.34294859 1.9360001
-0.53900003 0.34100002 1.9250001
-0.53533334 0.34100002 1.9250001
-0.5316667 0.34100002 1.9250001
-0.528 0.34100002 1.9250001
-0.52433336 0.34100002 1.9250001
-0.52066666 0.34100002 1.9250001
-0.51700002 0.34100002 1.9250001
-0.51333338 0.34100002 1.9250001
-0.50966668 0.34100002 1.9250001
0.052285716 0.27014285 1.5250001
0.055190478 0.27014285 1.5250001
0.058095239 0.27014285 1.5250001
0.061000001 0.27014285 1.5250001
0.064198099 0.27138287 1.5320001
0.067116193 0.27138287 1.5320001
0.070034288 0.27138287 1.5320001
0.072952382 0.27138287 1.5320001
0.075870477 0.27138287 1.5320001
0.078788571 0.27138287 1.5320001
0.081013337 0.26908001 1.5190001
0.083906673 0.26908001 1.5190001
0.086400002 0.26784 1.5120001
0.089693338 0.26908001 1.5190001
0.092586674 0.26908001 1.5190001
0.095480002 0.26908001 1.5190001
0.097920001 0.26784 1.5120001
0.1008 0.26784 1.5120001
0.10368001 0.26784 1.5120001
0.10656001 0.26784 1.5120001
0.10944001 0.26784 1.5120001
0.11187429 0.26677716 1.506
0.11474286 0.26677716 1.506
0.11761143 0.26677716 1.506
0.12048 0.26677716 1.506
0.12277524 0.26553714 1.4990001
0.12563048 0.26553714 1.4990001
0.12788571 0.26429716 1.4920001
0.13072762 0.26429716 1.4920001
0.13356952 0.26429716 1.4920001
0.13586286 0.26323429 1.4860001
0.13925333 0.26429716 1.4920001
0.14152381 0.26323429 1.4860001
0.14493714 0.26429716 1.4920001
0.14718477 0.26323429 1.4860001
0.15001525 0.26323429 1.4860001
0.15284573 0.26323429 1.4860001
0.15504763 0.26217145 1.48
0.15786667 0.26217145 1.48
0.16068572 0.26217145 1.48
0.16350476 0.26217145 1.48
0.16632381 0.26217145 1.48
0.16914286 0.26217145 1.48
0.17114858 0.26093143 1.473
0.17395429 0.26093143 1.473
0.17676 0.26093143 1.473
0.17883429 0.25986859 1.4670001
0.18162858 0.25986859 1.4670001
0.18442287 0.25986859 1.4670001
0.18645144 0.25880572 1.4610001
0.18923429 0.25880572 1.4610001
0.19201715 0.25880572 1.4610001
0.19400001 0.25774285 1.455
0.19677144 0.25774285 1.455
0.19954287 0.25774285 1.455
0.20231429 0.25774285 1.455
0.20508572 0.25774285 1.455
0.20785715 0.25774285 1.455
0.21062858 0.25774285 1.455
0.21340001 0.25774285 1.455
0.21617144 0.25774285 1.455
0.21894287 0.25774285 1.455
0.22080001 0.25668001 1.4490001
0.2226343 0.25561714 1.4430001
0.22538286 0.25561714 1.4430001
0.22718287 0.2545543 1.437
0.22992001 0.2545543 1.437
0.23265715 0.2545543 1.437
0.2353943 0.2545543 1.437
0.23813143 0.2545543 1.437
0.24086858 0.2545543 1.437
0.24360572 0.2545543 1.437
0.2453143 0.25349143 1.4310001
0.24804001 0.25349143 1.4310001
0.2497143 0.25242859 1.4250001
0.25242859 0.25242859 1.4250001
0.25514287 0.25242859 1.4250001
0.25785714 0.25242859 1.4250001
0.25947431 0.25136572 1.419
0.26217714 0.25136572 1.419
0.26488 0.25136572 1.419
0.26645145 0.25030288 1.4130001
0.26914287 0.25030288 1.4130001
0.27183428 0.25030288 1.4130001
0.27452573 0.25030288 1.4130001
0.27721715 0.25030288 1.4130001
0.27872002 0.24924001 1.4070001
0.28140002 0.24924001 1.4070001
0.28408 0.24924001 1.4070001
0.28676 0.24924001 1.4070001
0.28944001 0.24924001 1.4070001
0.29212001 0.24924001 1.4070001
0.29480001 0.24924001 1.4070001
0.29748002 0.24924001 1.4070001
0.29909334 0.2483543 1.4020001
0.30284002 0.24924001 1.4070001
0.3044343 0.2483543 1.4020001
0.30710477 0.2483543 1.4020001
0.30977526 0.2483543 1.4020001
0.31110859 0.24729143 1.396
0.31376764 0.24729143 1.396
0.31778666 0.2483543 1.4020001
0.32045716 0.2483543 1.4020001
0.32428002 0.24924001 1.4070001
0.3283543 0.25030288 1.4130001
0.33104572 0.25030288 1.4130001
0.33515429 0.25136572 1.419
0.33785716 0.25136572 1.419
0.34056002 0.25136572 1.419
0.34616572 0.25349143 1.4310001
0.35035428 0.2545543 1.437
0.35456574 0.25561714 1.4430001
0.35880002 0.25668001 1.4490001
0.36305717 0.25774285 1.455
0.36582857 0.25774285 1.455
0.36860001 0.25774285 1.455
0.37137145 0.25774285 1.455
0.37414289 0.25774285 1.455
0.38649905 0.26429716 1.4920001
0.38934097 0.26429716 1.4920001
0.59899241 0.35481715 2.003
0.60280764 0.35481715 2.003
0.60662287 0.35481715 2.003
0.61043811 0.35481715 2.003
0.61425334 0.35481715 2.003
0.61467433 0.35286859 1.9920001
0.61846858 0.35286859 1.9920001
0.6222629 0.35286859 1.9920001
0.62228572 0.35074288 1.9800001
0.62605715 0.35074288 1.9800001
0.62982857 0.35074288 1.9800001
0.63008004 0.34879431 1.9690001
0.63737148 0.35074288 1.9800001
0.6411429 0.35074288 1.9800001
0.6488229 0.35286859 1.9920001
0.65261716 0.35286859 1.9920001
0.66003621 0.35481715 2.003
0.66385144 0.35481715 2.003
0.66766667 0.35481715 2.003
0.67148191 0.35481715 2.003
0.67529714 0.35481715 2.003
0.67538285 0.35286859 1.9920001
0.67917717 0.35286859 1.9920001
-0.56315809 0.35057524 1.9580001
-0.55942857 0.35057524 1.9580001
-0.55569905 0.35057524 1.9580001
-0.54266667 0.34466669 1.9250001
-0.53620005 0.3428762 1.9150001
-0.53255242 0.3428762 1.9150001
-0.5289048 0.3428762 1.9150001
-0.528 0.34466669 1.9250001
-0.52433336 0.34466669 1.9250001
-0.52066666 0.34466669 1.9250001
-0.51700002 0.34466669 1.9250001
-0.51333338 0.34466669 1.9250001
-0.50966668 0.34466669 1.9250001
0.067116193 0.27430096 1.5320001
0.070034288 0.27430096 1.5320001
0.083906673 0.27197334 1.5190001
0.086800002 0.27197334 1.5190001
0.09004762 0.27304763 1.5250001
0.092586674 0.27197334 1.5190001
0.095480002 0.27197334 1.5190001
0.097920001 0.27072001 1.5120001
0.1008 0.27072001 1.5120001
0.10368001 0.27072001 1.5120001
0.10656001 0.27072001 1.5120001
0.10944001 0.27072001 1.5120001
0.11187429 0.26964572 1.506
0.11474286 0.26964572 1.506
0.11761143 0.26964572 1.506
0.12048 0.26964572 1.506
0.12277524 0.26839238 1.4990001
0.12504381 0.26713905 1.4920001
0.12788571 0.26713905 1.4920001
0.13072762 0.26713905 1.4920001
0.13356952 0.26713905 1.4920001
0.13641143 0.26713905 1.4920001
0.13925333 0.26713905 1.4920001
0.14209524 0.26713905 1.4920001
0.14493714 0.26713905 1.4920001
0.14718477 0.26606476 1.4860001
0.15001525 0.26606476 1.4860001
0.15284573 0.26606476 1.4860001
0.15504763 0.26499048 1.48
0.15786667 0.26499048 1.48
0.16068572 0.26499048 1.48
0.16350476 0.26499048 1.48
0.16553715 0.26373714 1.473
0.16914286 0.26499048 1.48
0.17114858 0.26373714 1.473
0.17395429 0.26373714 1.473
0.17604001 0.26266286 1.4670001
0.17883429 0.26266286 1.4670001
0.18162858 0.26266286 1.4670001
0.18366858 0.26158857 1.4610001
0.18645144 0.26158857 1.4610001
0.18923429 0.26158857 1.4610001
0.19201715 0.26158857 1.4610001
0.19400001 0.26051429 1.455
0.19677144 0.26051429 1.455
0.19954287 0.26051429 1.455
0.20231429 0.26051429 1.455
0.20508572 0.26051429 1.455
0.20785715 0.26051429 1.455
0.21062858 0.26051429 1.455
0.21340001 0.26051429 1.455
0.21617144 0.26051429 1.455
0.21894287 0.26051429 1.455
0.22080001 0.25944 1.4490001
0.2226343 0.25836572 1.4430001
0.22538286 0.25836572 1.4430001
0.22718287 0.25729144 1.437
0.22992001 0.25729144 1.437
0.23265715 0.25729144 1.437
0.2353943 0.25729144 1.437
0.23813143 0.25729144 1.437
0.24086858 0.25729144 1.437
0.24360572 0.25729144 1.437
0.2453143 0.25621715 1.4310001
0.24804001 0.25621715 1.4310001
0.2497143 0.25514287 1.4250001
0.25242859 0.25514287 1.4250001
0.25514287 0.25514287 1.4250001
0.25677145 0.25406858 1.419
0.25947431 0.25406858 1.419
0.26217714 0.25406858 1.419
0.26376 0.2529943 1.4130001
0.26645145 0.2529943 1.4130001
0.26914287 0.2529943 1.4130001
0.27183428 0.2529943 1.4130001
0.27452573 0.2529943 1.4130001
0.27604002 0.25192001 1.4070001
0.27872002 0.25192001 1.4070001
0.28140002 0.25192001 1.4070001
0.28408 0.25192001 1.4070001
0.28574097 0.25102478 1.4020001
0.28841144 0.25102478 1.4020001
0.29108191 0.25102478 1.4020001
0.2937524 0.25102478 1.4020001
0.29642287 0.25102478 1.4020001
0.29781336 0.24995048 1.396
0.30176383 0.25102478 1.4020001
0.30313143 0.24995048 1.396
0.30579048 0.24995048 1.396
0.30844954 0.24995048 1.396
0.31110859 0.24995048 1.396
0.31376764 0.24995048 1.396
0.31642666 0.24995048 1.396
0.32045716 0.25102478 1.4020001
0.32312763 0.25102478 1.4020001
0.32696 0.25192001 1.4070001
0.33104572 0.2529943 1.4130001
0.33373716 0.2529943 1.4130001
0.33785716 0.25406858 1.419
0.34056002 0.25406858 1.419
0.34471428 0.25514287 1.4250001
0.35035428 0.25729144 1.437
0.35456574 0.25836572 1.4430001
0.35880002 0.25944 1.4490001
0.36156002 0.25944 1.4490001
0.36582857 0.26051429 1.455
0.36860001 0.26051429 1.455
0.37137145 0.26051429 1.455
0.37414289 0.26051429 1.455
0.59899241 0.35863239 2.003
0.60280764 0.35863239 2.003
0.61025715 0.36078095 2.0150001
0.61043811 0.35863239 2.003
0.61425334 0.35863239 2.003
0.61467433 0.35666287 1.9920001
0.61846858 0.35666287 1.9920001
0.6222629 0.35666287 1.9920001
0.62228572 0.3545143 1.9800001
0.62605715 0.3545143 1.9800001
0.62982857 0.3545143 1.9800001
0.6336 0.3545143 1.9800001
0.63737148 0.3545143 1.9800001
0.6411429 0.3545143 1.9800001
0.65240574 0.35863239 2.003
0.65622097 0.35863239 2.003
0.66003621 0.35863239 2.003
0.66782862 0.36078095 2.0150001
0.66766667 0.35863239 2.003
0.6755048 0.36078095 2.0150001
0.67529714 0.35863239 2.003
0.67538285 0.35666287 1.9920001
0.67917717 0.35666287 1.9920001
-0.56315809 0.35430476 1.9580001
-0.55628574 0.35231429 1.9470001
-0.55257714 0.35231429 1.9470001
-0.54576766 0.35032383 1.9360001
-0.53900003 0.34833336 1.9250001
-0.53533334 0.34833336 1.9250001
-0.5316667 0.34833336 1.9250001
-0.528 0.34833336 1.9250001
-0.52732956 0.35032383 1.9360001
-0.52066666 0.34833336 1.9250001
-0.51700002 0.34833336 1.9250001
-0.51333338 0.34833336 1.9250001
-0.50966668 0.34833336 1.9250001
0.097920001 0.27360001 1.5120001
0.1008 0.27360001 1.5120001
0.10368001 0.27360001 1.5120001
0.10656001 0.27360001 1.5120001
0.10944001 0.27360001 1.5120001
0.11187429 0.27251428 1.506
0.11474286 0.27251428 1.506
0.11761143 0.27251428 1.506
0.12048 0.27251428 1.506
0.12277524 0.27124763 1.4990001
0.12563048 0.27124763 1.4990001
0.12848572 0.27124763 1.4990001
0.13072762 0.26998097 1.4920001
0.13356952 0.26998097 1.4920001
0.13641143 0.26998097 1.4920001
0.13925333 0.26998097 1.4920001
0.14209524 0.26998097 1.4920001
0.14493714 0.26998097 1.4920001
0.14718477 0.26889524 1.4860001
0.15001525 0.26889524 1.4860001
0.15284573 0.26889524 1.4860001
0.15504763 0.26780954 1.48
0.15786667 0.26780954 1.48
0.15992571 0.26654288 1.473
0.16273144 0.26654288 1.473
0.16553715 0.26654288 1.473
0.16834286 0.26654288 1.473
0.17114858 0.26654288 1.473
0.17324573 0.26545715 1.4670001
0.17604001 0.26545715 1.4670001
0.17883429 0.26545715 1.4670001
0.18162858 0.26545715 1.4670001
0.18366858 0.26437142 1.4610001
0.18645144 0.26437142 1.4610001
0.18923429 0.26437142 1.4610001
0.19201715 0.26437142 1.4610001
0.19400001 0.26328573 1.455
0.19677144 0.26328573 1.455
0.19954287 0.26328573 1.455
0.20231429 0.26328573 1.455
0.20508572 0.26328573 1.455
0.20785715 0.26328573 1.455
0.21062858 0.26328573 1.455
0.21340001 0.26328573 1.455
0.21617144 0.26328573 1.455
0.21894287 0.26328573 1.455
0.21988572 0.2611143 1.4430001
0.2226343 0.2611143 1.4430001
0.22538286 0.2611143 1.4430001
0.22718287 0.26002857 1.437
0.22992001 0.26002857 1.437
0.23265715 0.26002857 1.437
0.2353943 0.26002857 1.437
0.23813143 0.26002857 1.437
0.24086858 0.26002857 1.437
0.24360572 0.26002857 1.437
0.2453143 0.25894287 1.4310001
0.24804001 0.25894287 1.4310001
0.2497143 0.25785714 1.4250001
0.25242859 0.25785714 1.4250001
0.25406858 0.25677145 1.419
0.25677145 0.25677145 1.419
0.25837716 0.25568572 1.4130001
0.26106858 0.25568572 1.4130001
0.26376 0.25568572 1.4130001
0.26645145 0.25568572 1.4130001
0.26914287 0.25568572 1.4130001
0.27183428 0.25568572 1.4130001
0.27452573 0.25568572 1.4130001
0.27604002 0.25460002 1.4070001
0.27872002 0.25460002 1.4070001
0.28140002 0.25460002 1.4070001
0.28307047 0.25369525 1.4020001
0.28574097 0.25369525 1.4020001
0.28717715 0.25260952 1.396
0.29108191 0.25369525 1.4020001
0.29249525 0.25260952 1.396
0.2951543 0.25260952 1.396
0.29781336 0.25260952 1.396
0.30047238 0.25260952 1.396
0.30182859 0.25152382 1.3900001
0.30579048 0.25260952 1.396
0.30712381 0.25152382 1.3900001
0.30977145 0.25152382 1.3900001
0.31241906 0.25152382 1.3900001
0.31506667 0.25152382 1.3900001
0.31908572 0.25260952 1.396
0.32312763 0.25369525 1.4020001
0.32696 0.25460002 1.4070001
0.32964 0.25460002 1.4070001
0.33373716 0.25568572 1.4130001
0.33785716 0.25677145 1.419
0.34056002 0.25677145 1.419
0.34616572 0.25894287 1.4310001
0.35035428 0.26002857 1.437
0.35456574 0.2611143 1.4430001
0.35880002 0.2622 1.4490001
0.36305717 0.26328573 1.455
0.36582857 0.26328573 1.455
0.36860001 0.26328573 1.455
0.37137145 0.26328573 1.455
0.37414289 0.26328573 1.455
0.60641909 0.36461905 2.0150001
0.61025715 0.36461905 2.0150001
0.61043811 0.36244762 2.003
0.61425334 0.36244762 2.003
0.61467433 0.36045715 1.9920001
0.62188381 0.36244762 2.003
0.6222629 0.36045715 1.9920001
0.62605715 0.36045715 1.9920001
0.62605715 0.35828573 1.9800001
0.62982857 0.35828573 1.9800001
0.6336 0.35828573 1.9800001
0.63737148 0.35828573 1.9800001
0.64502859 0.36045715 1.9920001
0.65240574 0.36244762 2.003
0.65622097 0.36244762 2.003
0.6639905 0.36461905 2.0150001
0.66385144 0.36244762 2.003
0.66766667 0.36244762 2.003
0.67148191 0.36244762 2.003
0.67529714 0.36244762 2.003
0.67538285 0.36045715 1.9920001
0.67917717 0.36045715 1.9920001
-0.55999428 0.35602286 1.9470001
-0.55628574 0.35602286 1.9470001
-0.55257714 0.35602286 1.9470001
-0.54576766 0.35401145 1.9360001
-0.53900003 0.352 1.9250001
-0.53533334 0.352 1.9250001
-0.5316667 0.352 1.9250001
-0.528 0.352 1.9250001
-0.52433336 0.352 1.9250001
-0.52066666 0.352 1.9250001
-0.51995432 0.35401145 1.9360001
-0.5162667 0.35401145 1.9360001
0.10900572 0.27538288 1.506
0.11187429 0.27538288 1.506
0.11474286 0.27538288 1.506
0.11761143 0.27538288 1.506
0.12048 0.27538288 1.506
0.12277524 0.27410287 1.4990001
0.12563048 0.27410287 1.4990001
0.12848572 0.27410287 1.4990001
0.13020191 0.27172571 1.4860001
0.13303238 0.27172571 1.4860001
0.13586286 0.27172571 1.4860001
0.13869333 0.27172571 1.4860001
0.14209524 0.27282286 1.4920001
0.14435428 0.27172571 1.4860001
0.14718477 0.27172571 1.4860001
0.14940953 0.27062857 1.48
0.15150857 0.26934859 1.473
0.15431429 0.26934859 1.473
0.15712 0.26934859 1.473
0.15992571 0.26934859 1.473
0.16273144 0.26934859 1.473
0.16553715 0.26934859 1.473
0.16834286 0.26934859 1.473
0.17045143 0.26825145 1.4670001
0.17324573 0.26825145 1.4670001
0.17532 0.26715431 1.4610001
0.17810287 0.26715431 1.4610001
0.18088572 0.26715431 1.4610001
0.18366858 0.26715431 1.4610001
0.18645144 0.26715431 1.4610001
0.18923429 0.26715431 1.4610001
0.19122858 0.26605716 1.455
0.19400001 0.26605716 1.455
0.19677144 0.26605716 1.455
0.19954287 0.26605716 1.455
0.20231429 0.26605716 1.455
0.20508572 0.26605716 1.455
0.20785715 0.26605716 1.455
0.21062858 0.26605716 1.455
0.21340001 0.26605716 1.455
0.21617144 0.26605716 1.455
0.21804 0.26496002 1.4490001
0.21988572 0.26386288 1.4430001
0.2226343 0.26386288 1.4430001
0.22538286 0.26386288 1.4430001
0.22718287 0.26276574 1.437
0.22992001 0.26276574 1.437
0.23265715 0.26276574 1.437
0.2353943 0.26276574 1.437
0.23813143 0.26276574 1.437
0.24086858 0.26276574 1.437
0.24360572 0.26276574 1.437
0.2453143 0.26166859 1.4310001
0.24804001 0.26166859 1.4310001
0.2497143 0.26057145 1.4250001
0.25242859 0.26057145 1.4250001
0.25514287 0.26057145 1.4250001
0.25677145 0.25947431 1.419
0.25947431 0.25947431 1.419
0.26106858 0.25837716 1.4130001
0.26376 0.25837716 1.4130001
0.26645145 0.25837716 1.4130001
0.26914287 0.25837716 1.4130001
0.27183428 0.25837716 1.4130001
0.27336001 0.25728002 1.4070001
0.27604002 0.25728002 1.4070001
0.27872002 0.25728002 1.4070001
0.28140002 0.25728002 1.4070001
0.28307047 0.25636572 1.4020001
0.28574097 0.25636572 1.4020001
0.28717715 0.25526857 1.396
0.2898362 0.25526857 1.396
0.29249525 0.25526857 1.396
0.2951543 0.25526857 1.396
0.29781336 0.25526857 1.396
0.30047238 0.25526857 1.396
0.30182859 0.25417143 1.3900001
0.3044762 0.25417143 1.3900001
0.30712381 0.25417143 1.3900001
0.30977145 0.25417143 1.3900001
0.31241906 0.25417143 1.3900001
0.31506667 0.25417143 1.3900001
0.3177143 0.25417143 1.3900001
0.32174477 0.25526857 1.396
0.32579809 0.25636572 1.4020001
0.32964 0.25728002 1.4070001
0.33373716 0.25837716 1.4130001
0.33785716 0.25947431 1.419
0.34056002 0.25947431 1.419
0.34616572 0.26166859 1.4310001
0.35035428 0.26276574 1.437
0.35456574 0.26386288 1.4430001
0.35880002 0.26496002 1.4490001
0.36305717 0.26605716 1.455
0.36582857 0.26605716 1.455
0.36860001 0.26605716 1.455
0.37137145 0.26605716 1.455
0.60641909 0.36845717 2.0150001
0.61389142 0.37065145 2.0270002
0.61043811 0.36626288 2.003
0.61425334 0.36626288 2.003
0.61806858 0.36626288 2.003
0.62188381 0.36626288 2.003
0.6222629 0.36425143 1.9920001
0.62228572 0.36205715 1.9800001
0.62605715 0.36205715 1.9800001
0.62982857 0.36205715 1.9800001
0.6336 0.36205715 1.9800001
0.63737148 0.36205715 1.9800001
0.64502859 0.36425143 1.9920001
0.65240574 0.36626288 2.003
0.65261716 0.36425143 1.9920001
0.66003621 0.36626288 2.003
0.66385144 0.36626288 2.003
0.66766667 0.36626288 2.003
0.67148191 0.36626288 2.003
0.6715886 0.36425143 1.9920001
0.67538285 0.36425143 1.9920001
0.67917717 0.36425143 1.9920001
-0.55999428 0.35973144 1.9470001
-0.55000001 0.35566667 1.9250001
-0.54633337 0.35566667 1.9250001
-0.54266667 0.35566667 1.9250001
-0.53900003 0.35566667 1.9250001
-0.53533334 0.35566667 1.9250001
-0.5316667 0.35566667 1.9250001
-0.528 0.35566667 1.9250001
-0.52433336 0.35566667 1.9250001
-0.52066666 0.35566667 1.9250001
-0.51700002 0.35566667 1.9250001
-0.51333338 0.35566667 1.9250001
0.12737143 0.27455619 1.4860001
0.13020191 0.27455619 1.4860001
0.13303238 0.27455619 1.4860001
0.13531429 0.27344763 1.48
0.13813333 0.27344763 1.48
0.14095239 0.27344763 1.48
0.14435428 0.27455619 1.4860001
0.14718477 0.27455619 1.4860001
0.14940953 0.27344763 1.48
0.15150857 0.2721543 1.473
0.16350476 0.27344763 1.48
0.16553715 0.2721543 1.473
0.16834286 0.2721543 1.473
0.17114858 0.2721543 1.473
0.17324573 0.27104571 1.4670001
0.17604001 0.27104571 1.4670001
0.17883429 0.27104571 1.4670001
0.18162858 0.27104571 1.4670001
0.18442287 0.27104571 1.4670001
0.18645144 0.26993716 1.4610001
0.18923429 0.26993716 1.4610001
0.19122858 0.26882857 1.455
0.19400001 0.26882857 1.455
0.19677144 0.26882857 1.455
0.19954287 0.26882857 1.455
0.20231429 0.26882857 1.455
0.20508572 0.26882857 1.455
0.207 0.26772001 1.4490001
