# .PCD v0.7 - Point Cloud Data file format
VERSION 0.7
FIELDS x y z
SIZE 4 4 4
TYPE F F F
COUNT 1 1 1
WIDTH 1556
HEIGHT 1
VIEWPOINT 0 0 0 1 0 0 0
POINTS 1556
DATA ascii
0.12045715 0.2409143 1.5810001
0.12237524 0.23878096 1.567
0.1248 0.23771429 1.5600001
0.12777144 0.23771429 1.5600001
0.1319162 0.23984763 1.5740001
0.13551429 0.2409143 1.5810001
0.13791239 0.23984763 1.5740001
0.14153714 0.2409143 1.5810001
0.14454858 0.2409143 1.5810001
0.14756 0.2409143 1.5810001
0.15057144 0.2409143 1.5810001
0.15290286 0.23984763 1.5740001
0.15520762 0.23878096 1.567
0.15819238 0.23878096 1.567
0.16117714 0.23878096 1.567
0.16342857 0.23771429 1.5600001
0.16714667 0.23878096 1.567
0.16937144 0.23771429 1.5600001
0.17311619 0.23878096 1.567
0.17610095 0.23878096 1.567
0.17988572 0.23984763 1.5740001
0.18207048 0.23878096 1.567
0.18505524 0.23878096 1.567
0.18804 0.23878096 1.567
0.19102477 0.23878096 1.567
0.19400953 0.23878096 1.567
0.19699429 0.23878096 1.567
0.19908573 0.23771429 1.5600001
0.20296381 0.23878096 1.567
0.20502858 0.23771429 1.5600001
0.20893334 0.23878096 1.567
0.2119181 0.23878096 1.567
0.21490286 0.23878096 1.567
0.21788763 0.23878096 1.567
0.22087239 0.23878096 1.567
0.22385715 0.23878096 1.567
0.22684191 0.23878096 1.567
0.22982667 0.23878096 1.567
0.23281144 0.23878096 1.567
0.2357962 0.23878096 1.567
0.23878096 0.23878096 1.567
0.24176572 0.23878096 1.567
0.24475048 0.23878096 1.567
0.24773525 0.23878096 1.567
0.24960001 0.23771429 1.5600001
0.25257143 0.23771429 1.5600001
0.25554287 0.23771429 1.5600001
0.25735429 0.23664762 1.5530001
0.26031238 0.23664762 1.5530001
0.2632705 0.23664762 1.5530001
0.26622859 0.23664762 1.5530001
0.26918668 0.23664762 1.5530001
0.27214476 0.23664762 1.5530001
0.27510285 0.23664762 1.5530001
0.27806097 0.23664762 1.5530001
0.28101906 0.23664762 1.5530001
0.28397715 0.23664762 1.5530001
0.28693524 0.23664762 1.5530001
0.28989333 0.23664762 1.5530001
0.29285145 0.23664762 1.5530001
0.29580954 0.23664762 1.5530001
0.29876763 0.23664762 1.5530001
0.30036572 0.23558097 1.5460001
0.30331048 0.23558097 1.5460001
0.30625525 0.23558097 1.5460001
0.30920002 0.23558097 1.5460001
0.31214479 0.23558097 1.5460001
0.31508952 0.23558097 1.5460001
0.31803429 0.23558097 1.5460001
0.32097906 0.23558097 1.5460001
0.32392383 0.23558097 1.5460001
0.32686859 0.23558097 1.5460001
0.32981333 0.23558097 1.5460001
0.3327581 0.23558097 1.5460001
0.33570287 0.23558097 1.5460001
0.33864763 0.23558097 1.5460001
0.3415924 0.23558097 1.5460001
0.34609714 0.23664762 1.5530001
0.34905526 0.23664762 1.5530001
0.35360003 0.23771429 1.5600001
0.35657144 0.23771429 1.5600001
0.35954288 0.23771429 1.5600001
0.36414096 0.23878096 1.567
0.36712572 0.23878096 1.567
0.37011048 0.23878096 1.567
0.37309524 0.23878096 1.567
0.37608001 0.23878096 1.567
0.38075811 0.23984763 1.5740001
0.38375619 0.23984763 1.5740001
0.3867543 0.23984763 1.5740001
0.38975239 0.23984763 1.5740001
0.3927505 0.23984763 1.5740001
0.39574859 0.23984763 1.5740001
0.39874667 0.23984763 1.5740001
0.40174478 0.23984763 1.5740001
0.40474287 0.23984763 1.5740001
0.4095543 0.2409143 1.5810001
0.41256574 0.2409143 1.5810001
0.41557714 0.2409143 1.5810001
0.41858858 0.2409143 1.5810001
0.42160001 0.2409143 1.5810001
0.42676002 0.24213335 1.5890001
0.42978668 0.24213335 1.5890001
0.43281335 0.24213335 1.5890001
0.43776003 0.2432 1.5960001
0.44080001 0.2432 1.5960001
0.44384003 0.2432 1.5960001
0.44884002 0.24426667 1.603
0.45189336 0.24426667 1.603
0.4549467 0.24426667 1.603
0.458 0.24426667 1.603
0.46536765 0.24655239 1.618
0.46642289 0.24548572 1.6110001
0.47153145 0.24655239 1.618
0.47461334 0.24655239 1.618
0.48005715 0.24777144 1.626
0.4831543 0.24777144 1.626
0.48625144 0.24777144 1.626
0.48934859 0.24777144 1.626
0.49244574 0.24777144 1.626
0.49554288 0.24777144 1.626
0.49864003 0.24777144 1.626
0.50173718 0.24777144 1.626
0.50949144 0.25005716 1.641
0.51261717 0.25005716 1.641
0.5157429 0.25005716 1.641
0.52139813 0.2512762 1.649
0.52453905 0.2512762 1.649
0.52768004 0.2512762 1.649
0.53082097 0.2512762 1.649
0.53396195 0.2512762 1.649
0.53710288 0.2512762 1.649
0.5402438 0.2512762 1.649
0.54338479 0.2512762 1.649
0.58000004 0.26666668 1.7500001
0.58333337 0.26666668 1.7500001
0.5866667 0.26666668 1.7500001
0.59000003 0.26666668 1.7500001
0.59333336 0.26666668 1.7500001
0.59666669 0.26666668 1.7500001
0.58491433 0.2599619 1.7060001
0.58816385 0.2599619 1.7060001
0.59453338 0.26133335 1.715
0.59780002 0.26133335 1.715
0.60106671 0.26133335 1.715
0.60433334 0.26133335 1.715
0.60760003 0.26133335 1.715
0.61086667 0.26133335 1.715
0.61413336 0.26133335 1.715
0.61740005 0.26133335 1.715
0.62066668 0.26133335 1.715
0.62393337 0.26133335 1.715
-0.47792384 0.35192573 2.2810001
-0.47357908 0.35192573 2.2810001
-0.46614859 0.34961143 2.266
-0.4618324 0.34961143 2.266
-0.45468953 0.34745145 2.2520001
-0.45040002 0.34745145 2.2520001
-0.44611049 0.34745145 2.2520001
-0.44182098 0.34745145 2.2520001
-0.43753144 0.34745145 2.2520001
-0.4303562 0.34513715 2.237
-0.42609525 0.34513715 2.237
-0.42183429 0.34513715 2.237
-0.41757336 0.34513715 2.237
-0.41072574 0.34297717 2.223
-0.40649146 0.34297717 2.223
-0.18706858 0.2658343 1.723
-0.18293335 0.26460001 1.715
-0.17966667 0.26460001 1.715
-0.17465143 0.26197717 1.6980001
-0.17060953 0.26074287 1.6900001
-0.16570668 0.25812 1.6730001
-0.16174287 0.25688574 1.6650001
-0.15857144 0.25688574 1.6650001
-0.15465334 0.25565144 1.6570001
-0.15149716 0.25565144 1.6570001
-0.14762476 0.25441715 1.649
-0.14378287 0.25318286 1.641
-0.14005715 0.25210285 1.6340001
-0.13694477 0.25210285 1.6340001
-0.13317715 0.25086859 1.626
-0.13008 0.25086859 1.626
-0.12635811 0.2496343 1.618
-0.12274286 0.24855429 1.6110001
-0.11908001 0.24732001 1.603
-0.11552001 0.24624 1.5960001
-0.11142286 0.24392572 1.5810001
-0.10841143 0.24392572 1.5810001
-0.10493334 0.24284573 1.5740001
-0.10193525 0.24284573 1.5740001
-0.098937146 0.24284573 1.5740001
-0.095512383 0.24176572 1.567
-0.09252762 0.24176572 1.567
-0.089542858 0.24176572 1.567
-0.086558096 0.24176572 1.567
-0.083573334 0.24176572 1.567
-0.080588572 0.24176572 1.567
-0.07760381 0.24176572 1.567
-0.074619047 0.24176572 1.567
-0.071634285 0.24176572 1.567
-0.068649523 0.24176572 1.567
-0.065664761 0.24176572 1.567
-0.062680006 0.24176572 1.567
-0.05969524 0.24176572 1.567
-0.056457143 0.24068572 1.5600001
-0.053485718 0.24068572 1.5600001
-0.050514288 0.24068572 1.5600001
-0.047329526 0.23960572 1.5530001
-0.04437143 0.23960572 1.5530001
-0.041413333 0.23960572 1.5530001
-0.038281906 0.23852572 1.5460001
-0.035497144 0.23960572 1.5530001
-0.032685716 0.24068572 1.5600001
-0.029714286 0.24068572 1.5600001
-0.026742859 0.24068572 1.5600001
-0.023771429 0.24068572 1.5600001
-0.0208 0.24068572 1.5600001
-0.017828573 0.24068572 1.5600001
-0.014857143 0.24068572 1.5600001
-0.011885715 0.24068572 1.5600001
-0.0089142863 0.24068572 1.5600001
-0.0059428574 0.24068572 1.5600001
-0.0029714287 0.24068572 1.5600001
0 0.23960572 1.5530001
0.0029580954 0.23960572 1.5530001
0.0059428574 0.24068572 1.5600001
0.0089142863 0.24068572 1.5600001
0.011885715 0.24068572 1.5600001
0.014790476 0.23960572 1.5530001
0.017828573 0.24068572 1.5600001
0.020893333 0.24176572 1.567
0.023771429 0.24068572 1.5600001
0.026742859 0.24068572 1.5600001
0.029714286 0.24068572 1.5600001
0.032685716 0.24068572 1.5600001
0.035657145 0.24068572 1.5600001
0.038628574 0.24068572 1.5600001
0.041413333 0.23960572 1.5530001
0.04437143 0.23960572 1.5530001
0.047329526 0.23960572 1.5530001
0.050287619 0.23960572 1.5530001
0.053245716 0.23960572 1.5530001
0.057217143 0.24392572 1.5810001
0.059428573 0.24068572 1.5600001
0.062120002 0.23960572 1.5530001
0.064784765 0.23852572 1.5460001
0.067729525 0.23852572 1.5460001
0.070674285 0.23852572 1.5460001
0.073952384 0.23960572 1.5530001
0.076563813 0.23852572 1.5460001
0.079868577 0.23960572 1.5530001
0.082826667 0.23960572 1.5530001
0.086171433 0.24068572 1.5600001
0.08874286 0.23960572 1.5530001
0.091700956 0.23960572 1.5530001
0.094232388 0.23852572 1.5460001
0.097177148 0.23852572 1.5460001
0.10012191 0.23852572 1.5460001
0.10306667 0.23852572 1.5460001
0.10553143 0.23744573 1.539
0.10846286 0.23744573 1.539
0.11240762 0.23960572 1.5530001
0.11588572 0.24068572 1.5600001
0.11779048 0.23852572 1.5460001
0.12073524 0.23852572 1.5460001
0.12312 0.23744573 1.539
0.12605143 0.23744573 1.539
0.12898286 0.23744573 1.539
0.13131429 0.23636572 1.5320001
0.13423239 0.23636572 1.5320001
0.13777715 0.23744573 1.539
0.14262858 0.24068572 1.5600001
0.14560001 0.24068572 1.5600001
0.14923809 0.24176572 1.567
0.15154286 0.24068572 1.5600001
0.15382096 0.23960572 1.5530001
0.15677905 0.23960572 1.5530001
0.15973715 0.23960572 1.5530001
0.16269524 0.23960572 1.5530001
0.16565333 0.23960572 1.5530001
0.16861144 0.23960572 1.5530001
0.17234287 0.24068572 1.5600001
0.17452763 0.23960572 1.5530001
0.17828572 0.24068572 1.5600001
0.18125714 0.24068572 1.5600001
0.18422858 0.24068572 1.5600001
0.18636 0.23960572 1.5530001
0.19017144 0.24068572 1.5600001
0.19227619 0.23960572 1.5530001
0.1943543 0.23852572 1.5460001
0.19729905 0.23852572 1.5460001
0.20024382 0.23852572 1.5460001
0.20318858 0.23852572 1.5460001
0.20613334 0.23852572 1.5460001
0.21002477 0.23960572 1.5530001
0.21298286 0.23960572 1.5530001
0.21594097 0.23960572 1.5530001
0.21889906 0.23960572 1.5530001
0.22285715 0.24068572 1.5600001
0.22582857 0.24068572 1.5600001
0.22880001 0.24068572 1.5600001
0.23073144 0.23960572 1.5530001
0.23474286 0.24068572 1.5600001
0.23771429 0.24068572 1.5600001
0.24068572 0.24068572 1.5600001
0.24256381 0.23960572 1.5530001
0.24552192 0.23960572 1.5530001
0.24848001 0.23960572 1.5530001
0.25030476 0.23852572 1.5460001
0.25324953 0.23852572 1.5460001
0.2538743 0.23636572 1.5320001
0.2567924 0.23636572 1.5320001
0.26089716 0.23744573 1.539
0.26382858 0.23744573 1.539
0.26676002 0.23744573 1.539
0.26969144 0.23744573 1.539
0.27262285 0.23744573 1.539
0.27430096 0.23636572 1.5320001
0.27848572 0.23744573 1.539
0.28141716 0.23744573 1.539
0.28434858 0.23744573 1.539
0.28728002 0.23744573 1.539
0.29021144 0.23744573 1.539
0.29314286 0.23744573 1.539
0.2960743 0.23744573 1.539
0.29900572 0.23744573 1.539
0.30193716 0.23744573 1.539
0.30486858 0.23744573 1.539
0.30780002 0.23744573 1.539
0.31073144 0.23744573 1.539
0.31366286 0.23744573 1.539
0.31803429 0.23852572 1.5460001
0.32097906 0.23852572 1.5460001
0.32245716 0.23744573 1.539
0.32538858 0.23744573 1.539
0.32832003 0.23744573 1.539
0.3327581 0.23852572 1.5460001
0.33570287 0.23852572 1.5460001
0.33864763 0.23852572 1.5460001
0.3415924 0.23852572 1.5460001
0.34453717 0.23852572 1.5460001
0.34905526 0.23960572 1.5530001
0.35360003 0.24068572 1.5600001
0.35657144 0.24068572 1.5600001
0.35954288 0.24068572 1.5600001
0.36414096 0.24176572 1.567
0.36712572 0.24176572 1.567
0.37011048 0.24176572 1.567
0.37309524 0.24176572 1.567
0.37608001 0.24176572 1.567
0.37906477 0.24176572 1.567
0.38204953 0.24176572 1.567
0.38503429 0.24176572 1.567
0.38975239 0.24284573 1.5740001
0.3927505 0.24284573 1.5740001
0.39574859 0.24284573 1.5740001
0.39874667 0.24284573 1.5740001
0.40174478 0.24284573 1.5740001
0.40474287 0.24284573 1.5740001
0.4095543 0.24392572 1.5810001
0.41256574 0.24392572 1.5810001
0.41557714 0.24392572 1.5810001
0.41858858 0.24392572 1.5810001
0.42160001 0.24392572 1.5810001
0.42676002 0.24516001 1.5890001
0.42978668 0.24516001 1.5890001
0.43281335 0.24516001 1.5890001
0.43776003 0.24624 1.5960001
0.44080001 0.24624 1.5960001
0.44384003 0.24624 1.5960001
0.44688001 0.24624 1.5960001
0.45189336 0.24732001 1.603
0.45296001 0.24624 1.5960001
0.458 0.24732001 1.603
0.46335429 0.24855429 1.6110001
0.46844953 0.2496343 1.618
0.46949145 0.24855429 1.6110001
0.47461334 0.2496343 1.618
0.48241907 0.25210285 1.6340001
0.48553145 0.25210285 1.6340001
0.48864383 0.25210285 1.6340001
0.4917562 0.25210285 1.6340001
0.49486858 0.25210285 1.6340001
0.49554288 0.25086859 1.626
0.49864003 0.25086859 1.626
0.50173718 0.25086859 1.626
0.50949144 0.25318286 1.641
0.51261717 0.25318286 1.641
0.5157429 0.25318286 1.641
0.52139813 0.25441715 1.649
0.52453905 0.25441715 1.649
0.52768004 0.25441715 1.649
0.53082097 0.25441715 1.649
0.53396195 0.25441715 1.649
0.53710288 0.25441715 1.649
0.5402438 0.25441715 1.649
0.54338479 0.25441715 1.649
0.58000004 0.27000001 1.7500001
0.58333337 0.27000001 1.7500001
0.5866667 0.27000001 1.7500001
0.59000003 0.27000001 1.7500001
0.59333336 0.27000001 1.7500001
0.59666669 0.27000001 1.7500001
0.59691429 0.26861143 1.7410001
0.60023052 0.26861143 1.7410001
0.60354668 0.26861143 1.7410001
0.6068629 0.26861143 1.7410001
0.60387051 0.2658343 1.723
0.6071524 0.2658343 1.723
0.61043429 0.2658343 1.723
0.61086667 0.26460001 1.715
0.61413336 0.26460001 1.715
0.61740005 0.26460001 1.715
0.62066668 0.26460001 1.715
0.62393337 0.26460001 1.715
-0.47792384 0.35627049 2.2810001
-0.47046477 0.35392764 2.266
-0.46614859 0.35392764 2.266
-0.45897907 0.35174096 2.2520001
-0.45468953 0.35174096 2.2520001
-0.45040002 0.35174096 2.2520001
-0.44611049 0.35174096 2.2520001
-0.44182098 0.35174096 2.2520001
-0.43461716 0.34939811 2.237
-0.4303562 0.34939811 2.237
-0.42609525 0.34939811 2.237
-0.42183429 0.34939811 2.237
-0.41757336 0.34939811 2.237
-0.41331241 0.34939811 2.237
-0.40905145 0.34939811 2.237
-0.17060953 0.26396191 1.6900001
-0.16570668 0.26130667 1.6730001
-0.16252001 0.26130667 1.6730001
-0.15857144 0.26005715 1.6650001
-0.15540001 0.26005715 1.6650001
-0.15149716 0.25880763 1.6570001
-0.14834096 0.25880763 1.6570001
-0.14316952 0.25521526 1.6340001
-0.14005715 0.25521526 1.6340001
-0.13627429 0.25396574 1.626
-0.13317715 0.25396574 1.626
-0.13008 0.25396574 1.626
-0.12698287 0.25396574 1.626
-0.1232762 0.25271621 1.618
-0.11908001 0.25037333 1.603
-0.11552001 0.24928001 1.5960001
-0.11142286 0.24693716 1.5810001
-0.10841143 0.24693716 1.5810001
-0.10493334 0.24584381 1.5740001
-0.10193525 0.24584381 1.5740001
-0.098497145 0.24475048 1.567
-0.095512383 0.24475048 1.567
-0.092114292 0.24365716 1.5600001
-0.089142859 0.24365716 1.5600001
-0.086171433 0.24365716 1.5600001
-0.082826667 0.24256381 1.5530001
-0.080228575 0.24365716 1.5600001
-0.077257149 0.24365716 1.5600001
-0.074285716 0.24365716 1.5600001
-0.07131429 0.24365716 1.5600001
-0.068342857 0.24365716 1.5600001
-0.065371431 0.24365716 1.5600001
-0.062400002 0.24365716 1.5600001
-0.059428573 0.24365716 1.5600001
-0.056203812 0.24256381 1.5530001
-0.053245716 0.24256381 1.5530001
-0.050287619 0.24256381 1.5530001
-0.047116194 0.24147049 1.5460001
-0.043971431 0.24037716 1.539
-0.041040003 0.24037716 1.539
-0.038108572 0.24037716 1.539
-0.035177145 0.24037716 1.539
-0.032392383 0.24147049 1.5460001
-0.029447621 0.24147049 1.5460001
-0.026502859 0.24147049 1.5460001
-0.023558097 0.24147049 1.5460001
-0.020706667 0.24256381 1.5530001
-0.017748572 0.24256381 1.5530001
-0.014857143 0.24365716 1.5600001
-0.011832382 0.24256381 1.5530001
-0.008874286 0.24256381 1.5530001
-0.0059161908 0.24256381 1.5530001
-0.0029447621 0.24147049 1.5460001
0 0.24037716 1.539
0.0029314286 0.24037716 1.539
0.0059161908 0.24256381 1.5530001
0.008874286 0.24256381 1.5530001
0.011832382 0.24256381 1.5530001
0.01472381 0.24147049 1.5460001
0.017748572 0.24256381 1.5530001
0.0208 0.24365716 1.5600001
0.023664763 0.24256381 1.5530001
0.026502859 0.24147049 1.5460001
0.029314287 0.24037716 1.539
0.032392383 0.24147049 1.5460001
0.035337143 0.24147049 1.5460001
0.038108572 0.24037716 1.539
0.041040003 0.24037716 1.539
0.043971431 0.24037716 1.539
0.046902858 0.24037716 1.539
0.049834289 0.24037716 1.539
0.052765716 0.24037716 1.539
0.055697143 0.24037716 1.539
0.058628574 0.24037716 1.539
0.061560001 0.24037716 1.539
0.064491428 0.24037716 1.539
0.067422859 0.24037716 1.539
0.07035429 0.24037716 1.539
0.073619053 0.24147049 1.5460001
0.076217145 0.24037716 1.539
0.079508573 0.24147049 1.5460001
0.082453333 0.24147049 1.5460001
0.085784763 0.24256381 1.5530001
0.087942861 0.24037716 1.539
0.090874292 0.24037716 1.539
0.093805715 0.24037716 1.539
0.096297145 0.23928382 1.5320001
0.099215239 0.23928382 1.5320001
0.10213333 0.23928382 1.5320001
0.10505144 0.23928382 1.5320001
0.10796953 0.23928382 1.5320001
0.11139429 0.24037716 1.539
0.11432572 0.24037716 1.539
0.11725715 0.24037716 1.539
0.11964191 0.23928382 1.5320001
0.12256 0.23928382 1.5320001
0.1254781 0.23928382 1.5320001
0.12780952 0.23819049 1.5250001
0.1307143 0.23819049 1.5250001
0.13361906 0.23819049 1.5250001
0.13652381 0.23819049 1.5250001
0.13888 0.23725334 1.5190001
0.14177334 0.23725334 1.5190001
0.14466667 0.23725334 1.5190001
0.15018286 0.24147049 1.5460001
0.15243429 0.24037716 1.539
0.15536572 0.24037716 1.539
0.15757714 0.23928382 1.5320001
0.16049525 0.23928382 1.5320001
0.16341335 0.23928382 1.5320001
0.16633144 0.23928382 1.5320001
0.17002286 0.24037716 1.539
0.17295429 0.24037716 1.539
0.17508572 0.23928382 1.5320001
0.17649335 0.23725334 1.5190001
0.17938668 0.23725334 1.5190001
0.18300001 0.23819049 1.5250001
0.18590477 0.23819049 1.5250001
0.1896762 0.23928382 1.5320001
0.19259429 0.23928382 1.5320001
0.19551238 0.23928382 1.5320001
0.19843048 0.23928382 1.5320001
0.20134857 0.23928382 1.5320001
0.20426667 0.23928382 1.5320001
0.20813143 0.24037716 1.539
0.21106286 0.24037716 1.539
0.21399429 0.24037716 1.539
0.21593906 0.23928382 1.5320001
0.21785715 0.23819049 1.5250001
0.21989334 0.23725334 1.5190001
0.22278668 0.23725334 1.5190001
0.22657144 0.23819049 1.5250001
0.2294762 0.23819049 1.5250001
0.23146668 0.23725334 1.5190001
0.23528573 0.23819049 1.5250001
0.23725334 0.23725334 1.5190001
0.23904 0.23616001 1.5120001
0.24304001 0.23725334 1.5190001
0.24690478 0.23819049 1.5250001
0.24980953 0.23819049 1.5250001
0.25271431 0.23819049 1.5250001
0.25561905 0.23819049 1.5250001
0.25971049 0.23928382 1.5320001
0.26262859 0.23928382 1.5320001
0.26554668 0.23928382 1.5320001
0.26846477 0.23928382 1.5320001
0.27138287 0.23928382 1.5320001
0.27304763 0.23819049 1.5250001
0.27721906 0.23928382 1.5320001
0.28013715 0.23928382 1.5320001
0.28176191 0.23819049 1.5250001
0.28466669 0.23819049 1.5250001
0.28889143 0.23928382 1.5320001
0.29180953 0.23928382 1.5320001
0.29472762 0.23928382 1.5320001
0.29764572 0.23928382 1.5320001
0.30056381 0.23928382 1.5320001
0.30486858 0.24037716 1.539
0.30780002 0.24037716 1.539
0.31073144 0.24037716 1.539
0.31366286 0.24037716 1.539
0.3165943 0.24037716 1.539
0.31952572 0.24037716 1.539
0.32245716 0.24037716 1.539
0.32538858 0.24037716 1.539
0.32832003 0.24037716 1.539
0.33125144 0.24037716 1.539
0.33418286 0.24037716 1.539
0.33864763 0.24147049 1.5460001
0.3415924 0.24147049 1.5460001
0.34453717 0.24147049 1.5460001
0.34905526 0.24256381 1.5530001
0.35360003 0.24365716 1.5600001
0.35657144 0.24365716 1.5600001
0.35954288 0.24365716 1.5600001
0.36251429 0.24365716 1.5600001
0.36548573 0.24365716 1.5600001
0.36845717 0.24365716 1.5600001
0.37309524 0.24475048 1.567
0.37608001 0.24475048 1.567
0.37906477 0.24475048 1.567
0.38204953 0.24475048 1.567
0.38503429 0.24475048 1.567
0.38975239 0.24584381 1.5740001
0.3927505 0.24584381 1.5740001
0.39574859 0.24584381 1.5740001
0.39874667 0.24584381 1.5740001
0.40174478 0.24584381 1.5740001
0.40474287 0.24584381 1.5740001
0.40774098 0.24584381 1.5740001
0.41256574 0.24693716 1.5810001
0.41557714 0.24693716 1.5810001
0.41858858 0.24693716 1.5810001
0.42373335 0.24818668 1.5890001
0.42676002 0.24818668 1.5890001
0.42978668 0.24818668 1.5890001
0.43281335 0.24818668 1.5890001
0.43584001 0.24818668 1.5890001
0.44080001 0.24928001 1.5960001
0.44384003 0.24928001 1.5960001
0.44688001 0.24928001 1.5960001
0.44992003 0.24928001 1.5960001
0.45296001 0.24928001 1.5960001
0.45600003 0.24928001 1.5960001
0.46536765 0.25271621 1.618
0.47076574 0.25396574 1.626
0.46949145 0.25162286 1.6110001
0.47461334 0.25271621 1.618
0.48241907 0.25521526 1.6340001
0.48553145 0.25521526 1.6340001
0.48864383 0.25521526 1.6340001
0.4917562 0.25521526 1.6340001
0.49486858 0.25521526 1.6340001
0.49554288 0.25396574 1.626
0.49864003 0.25396574 1.626
0.52139813 0.25755811 1.649
0.52453905 0.25755811 1.649
0.52768004 0.25755811 1.649
0.52824575 0.25630859 1.641
0.53137147 0.25630859 1.641
0.53710288 0.25755811 1.649
0.57666671 0.27333334 1.7500001
0.57701719 0.27192762 1.7410001
0.58333337 0.27333334 1.7500001
0.5866667 0.27333334 1.7500001
0.59000003 0.27333334 1.7500001
0.59333336 0.27333334 1.7500001
0.59666669 0.27333334 1.7500001
0.60000002 0.27333334 1.7500001
0.60333335 0.27333334 1.7500001
0.60666668 0.27333334 1.7500001
0.6068629 0.27192762 1.7410001
0.61017907 0.27192762 1.7410001
0.61032385 0.27052191 1.7320001
0.61043429 0.26911619 1.723
0.61371619 0.26911619 1.723
0.61699814 0.26911619 1.723
0.62028003 0.26911619 1.723
0.62356192 0.26911619 1.723
0.62684381 0.26911619 1.723
-0.47792384 0.36061525 2.2810001
-0.46755812 0.35603049 2.2520001
-0.46326858 0.35603049 2.2520001
-0.45897907 0.35603049 2.2520001
-0.45166096 0.35365906 2.237
-0.4474 0.35365906 2.237
-0.44611049 0.35603049 2.2520001
-0.44182098 0.35603049 2.2520001
-0.43461716 0.35365906 2.237
-0.4303562 0.35365906 2.237
-0.42609525 0.35365906 2.237
-0.42183429 0.35365906 2.237
-0.41496003 0.35144573 2.223
-0.41072574 0.35144573 2.223
-0.40649146 0.35144573 2.223
-0.16252001 0.26449335 1.6730001
-0.15857144 0.2632286 1.6650001
-0.15540001 0.2632286 1.6650001
-0.15149716 0.26196381 1.6570001
-0.14834096 0.26196381 1.6570001
-0.14316952 0.25832763 1.6340001
-0.14005715 0.25832763 1.6340001
-0.13694477 0.25832763 1.6340001
-0.13317715 0.25706285 1.626
-0.13008 0.25706285 1.626
-0.12698287 0.25706285 1.626
-0.1232762 0.2557981 1.618
-0.11967429 0.25469145 1.6110001
-0.11602667 0.25342667 1.603
-0.11142286 0.24994858 1.5810001
-0.10793144 0.24884191 1.5740001
-0.10493334 0.24884191 1.5740001
-0.10148191 0.24773525 1.567
-0.098497145 0.24773525 1.567
-0.095085718 0.24662858 1.5600001
-0.092114292 0.24662858 1.5600001
-0.08874286 0.24552192 1.5530001
-0.0853981 0.24441525 1.5460001
-0.082453333 0.24441525 1.5460001
-0.079508573 0.24441525 1.5460001
-0.076563813 0.24441525 1.5460001
-0.073619053 0.24441525 1.5460001
-0.070674285 0.24441525 1.5460001
-0.067729525 0.24441525 1.5460001
-0.064784765 0.24441525 1.5460001
-0.061840001 0.24441525 1.5460001
-0.058895241 0.24441525 1.5460001
-0.055950478 0.24441525 1.5460001
-0.052765716 0.24330857 1.539
-0.049834289 0.24330857 1.539
-0.046689525 0.24220191 1.5320001
-0.043571431 0.24109524 1.5250001
-0.040853336 0.24220191 1.5320001
-0.037761904 0.24109524 1.5250001
-0.035017144 0.24220191 1.5320001
-0.03209905 0.24220191 1.5320001
-0.029180953 0.24220191 1.5320001
-0.026382858 0.24330857 1.539
-0.023344763 0.24220191 1.5320001
-0.020426668 0.24220191 1.5320001
-0.017588573 0.24330857 1.539
-0.014657144 0.24330857 1.539
-0.011672381 0.24220191 1.5320001
-0.008754286 0.24220191 1.5320001
-0.0058361907 0.24220191 1.5320001
-0.0029180953 0.24220191 1.5320001
0 0.24109524 1.5250001
0.0029180953 0.24220191 1.5320001
0.0058095241 0.24109524 1.5250001
0.0087142857 0.24109524 1.5250001
0.011619048 0.24109524 1.5250001
0.014657144 0.24330857 1.539
0.017748572 0.24552192 1.5530001
0.020706667 0.24552192 1.5530001
0.02304 0.23904 1.5120001
0.026142858 0.24109524 1.5250001
0.02904762 0.24109524 1.5250001
0.031952381 0.24109524 1.5250001
0.035017144 0.24220191 1.5320001
0.037613336 0.24014668 1.5190001
0.040506668 0.24014668 1.5190001
0.043571431 0.24109524 1.5250001
0.046476193 0.24109524 1.5250001
0.049380954 0.24109524 1.5250001
0.052080002 0.24014668 1.5190001
0.054973334 0.24014668 1.5190001
0.058095239 0.24109524 1.5250001
0.061280001 0.24220191 1.5320001
0.064198099 0.24220191 1.5320001
0.067116193 0.24220191 1.5320001
0.070034288 0.24220191 1.5320001
0.072952382 0.24220191 1.5320001
0.076217145 0.24330857 1.539
0.079148576 0.24330857 1.539
0.081706673 0.24220191 1.5320001
0.08501143 0.24330857 1.539
0.087542862 0.24220191 1.5320001
0.090460956 0.24220191 1.5320001
0.092952386 0.24109524 1.5250001
0.095857143 0.24109524 1.5250001
0.098761909 0.24109524 1.5250001
0.10166667 0.24109524 1.5250001
0.10457143 0.24109524 1.5250001
0.1074762 0.24109524 1.5250001
0.11038096 0.24109524 1.5250001
0.11328572 0.24109524 1.5250001
0.11672381 0.24220191 1.5320001
0.11909524 0.24109524 1.5250001
0.122 0.24109524 1.5250001
0.12490477 0.24109524 1.5250001
0.12730667 0.24014668 1.5190001
0.1302 0.24014668 1.5190001
0.13309334 0.24014668 1.5190001
0.13598667 0.24014668 1.5190001
0.13824001 0.23904 1.5120001
0.14112 0.23904 1.5120001
0.14400001 0.23904 1.5120001
0.14756 0.24014668 1.5190001
0.15045334 0.24014668 1.5190001
0.15395239 0.24109524 1.5250001
0.15624 0.24014668 1.5190001
0.15913334 0.24014668 1.5190001
0.16202667 0.24014668 1.5190001
0.16557144 0.24109524 1.5250001
0.16924953 0.24220191 1.5320001
0.17138095 0.24109524 1.5250001
0.1721143 0.23809144 1.506
0.17498286 0.23809144 1.506
0.17785144 0.23809144 1.506
0.18072 0.23809144 1.506
0.18358858 0.23809144 1.506
0.18645716 0.23809144 1.506
0.19008 0.23904 1.5120001
0.19296001 0.23904 1.5120001
0.19674668 0.24014668 1.5190001
0.19964001 0.24014668 1.5190001
0.20253333 0.24014668 1.5190001
0.20542668 0.24014668 1.5190001
0.20832001 0.24014668 1.5190001
0.21121334 0.24014668 1.5190001
0.21410668 0.24014668 1.5190001
0.21600001 0.23904 1.5120001
0.21888001 0.23904 1.5120001
0.22176 0.23904 1.5120001
0.22464001 0.23904 1.5120001
0.22752 0.23904 1.5120001
0.23040001 0.23904 1.5120001
0.23328 0.23904 1.5120001
0.23616001 0.23904 1.5120001
0.23904 0.23904 1.5120001
0.24192001 0.23904 1.5120001
0.24480002 0.23904 1.5120001
0.24882668 0.24014668 1.5190001
0.25172001 0.24014668 1.5190001
0.25461334 0.24014668 1.5190001
0.25852382 0.24109524 1.5250001
0.26142859 0.24109524 1.5250001
0.26433334 0.24109524 1.5250001
0.26723811 0.24109524 1.5250001
0.27014285 0.24109524 1.5250001
0.27197334 0.24014668 1.5190001
0.27486667 0.24014668 1.5190001
0.27776 0.24014668 1.5190001
0.28065336 0.24014668 1.5190001
0.28354669 0.24014668 1.5190001
0.28757143 0.24109524 1.5250001
0.2904762 0.24109524 1.5250001
0.29472762 0.24220191 1.5320001
0.29764572 0.24220191 1.5320001
0.30056381 0.24220191 1.5320001
0.30486858 0.24330857 1.539
0.30780002 0.24330857 1.539
0.31073144 0.24330857 1.539
0.31366286 0.24330857 1.539
0.3165943 0.24330857 1.539
0.31952572 0.24330857 1.539
0.32245716 0.24330857 1.539
0.32538858 0.24330857 1.539
0.32981333 0.24441525 1.5460001
0.3327581 0.24441525 1.5460001
0.33570287 0.24441525 1.5460001
0.33864763 0.24441525 1.5460001
0.3415924 0.24441525 1.5460001
0.34609714 0.24552192 1.5530001
0.34905526 0.24552192 1.5530001
0.35360003 0.24662858 1.5600001
0.35657144 0.24662858 1.5600001
0.35954288 0.24662858 1.5600001
0.36251429 0.24662858 1.5600001
0.36548573 0.24662858 1.5600001
0.36845717 0.24662858 1.5600001
0.37309524 0.24773525 1.567
0.37608001 0.24773525 1.567
0.37906477 0.24773525 1.567
0.38204953 0.24773525 1.567
0.38503429 0.24773525 1.567
0.38975239 0.24884191 1.5740001
0.3927505 0.24884191 1.5740001
0.39574859 0.24884191 1.5740001
0.40052003 0.24994858 1.5810001
0.40353143 0.24994858 1.5810001
0.40654287 0.24994858 1.5810001
0.4095543 0.24994858 1.5810001
0.41256574 0.24994858 1.5810001
0.41557714 0.24994858 1.5810001
0.42070669 0.25121334 1.5890001
0.42373335 0.25121334 1.5890001
0.42676002 0.25121334 1.5890001
0.42978668 0.25121334 1.5890001
0.43281335 0.25121334 1.5890001
0.43584001 0.25121334 1.5890001
0.44080001 0.25232002 1.5960001
0.44384003 0.25232002 1.5960001
0.44688001 0.25232002 1.5960001
0.44992003 0.25232002 1.5960001
0.45296001 0.25232002 1.5960001
0.45600003 0.25232002 1.5960001
0.46536765 0.2557981 1.618
0.47076574 0.25706285 1.626
0.47619429 0.25832763 1.6340001
0.4793067 0.25832763 1.6340001
0.48241907 0.25832763 1.6340001
0.48761144 0.25943428 1.641
0.49073717 0.25943428 1.641
0.49386287 0.25943428 1.641
0.52824575 0.25943428 1.641
0.53137147 0.25943428 1.641
0.57666671 0.27666667 1.7500001
0.57701719 0.27524382 1.7410001
0.58033335 0.27524382 1.7410001
0.5866667 0.27666667 1.7500001
0.59000003 0.27666667 1.7500001
0.59333336 0.27666667 1.7500001
0.59666669 0.27666667 1.7500001
0.60000002 0.27666667 1.7500001
0.60333335 0.27666667 1.7500001
0.60666668 0.27666667 1.7500001
0.61000001 0.27666667 1.7500001
0.61017907 0.27524382 1.7410001
0.61032385 0.27382097 1.7320001
0.61043429 0.27239811 1.723
0.61371619 0.27239811 1.723
0.61699814 0.27239811 1.723
0.62028003 0.27239811 1.723
0.62356192 0.27239811 1.723
0.62684381 0.27239811 1.723
-0.46755812 0.36032 2.2520001
-0.46326858 0.36032 2.2520001
-0.45592192 0.35792002 2.237
-0.45166096 0.35792002 2.237
-0.45040002 0.36032 2.2520001
-0.44611049 0.36032 2.2520001
-0.44182098 0.36032 2.2520001
-0.43753144 0.36032 2.2520001
-0.4303562 0.35792002 2.237
-0.4289524 0.36032 2.2520001
-0.42466286 0.36032 2.2520001
-0.41496003 0.35568002 2.223
-0.41072574 0.35568002 2.223
-0.40649146 0.35568002 2.223
-0.14316952 0.26144001 1.6340001
-0.14005715 0.26144001 1.6340001
-0.13694477 0.26144001 1.6340001
-0.13317715 0.26016 1.626
-0.13008 0.26016 1.626
-0.12698287 0.26016 1.626
-0.1232762 0.25888002 1.618
-0.11967429 0.25776002 1.6110001
-0.11602667 0.25648001 1.603
-0.11142286 0.25296 1.5810001
-0.10793144 0.25184 1.5740001
-0.10493334 0.25184 1.5740001
-0.10148191 0.25072002 1.567
-0.098497145 0.25072002 1.567
-0.095085718 0.24960001 1.5600001
-0.091700956 0.24848001 1.5530001
-0.08874286 0.24848001 1.5530001
-0.0853981 0.24736001 1.5460001
-0.082080007 0.24624 1.539
-0.079148576 0.24624 1.539
-0.076217145 0.24624 1.539
-0.073285714 0.24624 1.539
-0.07035429 0.24624 1.539
-0.067422859 0.24624 1.539
-0.064491428 0.24624 1.539
-0.061560001 0.24624 1.539
-0.058628574 0.24624 1.539
-0.055190478 0.244 1.5250001
-0.052285716 0.244 1.5250001
-0.049380954 0.244 1.5250001
-0.046476193 0.244 1.5250001
-0.043400001 0.24304001 1.5190001
-0.040506668 0.24304001 1.5190001
-0.037613336 0.24304001 1.5190001
-0.034857143 0.244 1.5250001
-0.031952381 0.244 1.5250001
-0.02904762 0.244 1.5250001
-0.026142858 0.244 1.5250001
-0.02304 0.24192001 1.5120001
-0.020253334 0.24304001 1.5190001
-0.01736 0.24304001 1.5190001
-0.014400001 0.24192001 1.5120001
-0.01152 0.24192001 1.5120001
-0.00868 0.24304001 1.5190001
-0.0057600001 0.24192001 1.5120001
-0.0028933336 0.24304001 1.5190001
0 0.24304001 1.5190001
0.00288 0.24192001 1.5120001
0.0057600001 0.24192001 1.5120001
0.0086400006 0.24192001 1.5120001
0.01152 0.24192001 1.5120001
0.014400001 0.24192001 1.5120001
0.017280001 0.24192001 1.5120001
0.020160001 0.24192001 1.5120001
0.022948572 0.24096 1.506
0.025920002 0.24192001 1.5120001
0.028800001 0.24192001 1.5120001
0.031680003 0.24192001 1.5120001
0.03472 0.24304001 1.5190001
0.037440002 0.24192001 1.5120001
0.040320002 0.24192001 1.5120001
0.043200001 0.24192001 1.5120001
0.046080001 0.24192001 1.5120001
0.04896 0.24192001 1.5120001
0.051840004 0.24192001 1.5120001
0.054720003 0.24192001 1.5120001
0.057600003 0.24192001 1.5120001
0.060760003 0.24304001 1.5190001
0.063904762 0.244 1.5250001
0.066546671 0.24304001 1.5190001
0.06944 0.24304001 1.5190001
0.072333336 0.24304001 1.5190001
0.075523809 0.244 1.5250001
0.078428574 0.244 1.5250001
0.081013337 0.24304001 1.5190001
0.083520003 0.24192001 1.5120001
0.086400002 0.24192001 1.5120001
0.089693338 0.24304001 1.5190001
0.092586674 0.24304001 1.5190001
0.095480002 0.24304001 1.5190001
0.098373339 0.24304001 1.5190001
0.10126667 0.24304001 1.5190001
0.10457143 0.244 1.5250001
0.10705334 0.24304001 1.5190001
0.10994667 0.24304001 1.5190001
0.11284 0.24304001 1.5190001
0.11573334 0.24304001 1.5190001
0.11862667 0.24304001 1.5190001
0.12152001 0.24304001 1.5190001
0.12384 0.24192001 1.5120001
0.12672001 0.24192001 1.5120001
0.1296 0.24192001 1.5120001
0.13248001 0.24192001 1.5120001
0.13536 0.24192001 1.5120001
0.13705143 0.23984002 1.4990001
0.13990667 0.23984002 1.4990001
0.14276192 0.23984002 1.4990001
0.14561714 0.23984002 1.4990001
0.14847238 0.23984002 1.4990001
0.15132762 0.23984002 1.4990001
0.15418287 0.23984002 1.4990001
0.15703811 0.23984002 1.4990001
0.15989333 0.23984002 1.4990001
0.16274858 0.23984002 1.4990001
0.16560382 0.23984002 1.4990001
0.16924572 0.24096 1.506
0.1713143 0.23984002 1.4990001
0.17416953 0.23984002 1.4990001
0.17702477 0.23984002 1.4990001
0.17988001 0.23984002 1.4990001
0.18273525 0.23984002 1.4990001
0.18559048 0.23984002 1.4990001
0.18932572 0.24096 1.506
0.1921943 0.24096 1.506
0.19584 0.24192001 1.5120001
0.19872001 0.24192001 1.5120001
0.2016 0.24192001 1.5120001
0.20448001 0.24192001 1.5120001
0.20736001 0.24192001 1.5120001
0.20940572 0.24096 1.506
0.2122743 0.24096 1.506
0.21514286 0.24096 1.506
0.2169981 0.23984002 1.4990001
0.21882668 0.23872001 1.4920001
0.22270858 0.23984002 1.4990001
0.22661716 0.24096 1.506
0.22948572 0.24096 1.506
0.2323543 0.24096 1.506
0.23616001 0.24192001 1.5120001
0.23809144 0.24096 1.506
0.24192001 0.24192001 1.5120001
0.24480002 0.24192001 1.5120001
0.24768001 0.24192001 1.5120001
0.25056002 0.24192001 1.5120001
0.25344002 0.24192001 1.5120001
0.25750667 0.24304001 1.5190001
0.2604 0.24304001 1.5190001
0.26329336 0.24304001 1.5190001
0.26618668 0.24304001 1.5190001
0.26908001 0.24304001 1.5190001
0.27197334 0.24304001 1.5190001
0.27360001 0.24192001 1.5120001
0.27776 0.24304001 1.5190001
0.27936 0.24192001 1.5120001
0.28354669 0.24304001 1.5190001
0.28757143 0.244 1.5250001
0.28933334 0.24304001 1.5190001
0.29472762 0.24512 1.5320001
0.29764572 0.24512 1.5320001
0.30056381 0.24512 1.5320001
0.30348191 0.24512 1.5320001
0.3064 0.24512 1.5320001
0.31073144 0.24624 1.539
0.31366286 0.24624 1.539
0.3165943 0.24624 1.539
0.31952572 0.24624 1.539
0.32245716 0.24624 1.539
0.32538858 0.24624 1.539
0.32832003 0.24624 1.539
0.3327581 0.24736001 1.5460001
0.33570287 0.24736001 1.5460001
0.33864763 0.24736001 1.5460001
0.3415924 0.24736001 1.5460001
0.34609714 0.24848001 1.5530001
0.34905526 0.24848001 1.5530001
0.35360003 0.24960001 1.5600001
0.35657144 0.24960001 1.5600001
0.35954288 0.24960001 1.5600001
0.36251429 0.24960001 1.5600001
0.36548573 0.24960001 1.5600001
0.36845717 0.24960001 1.5600001
0.37142858 0.24960001 1.5600001
0.37608001 0.25072002 1.567
0.37906477 0.25072002 1.567
0.38204953 0.25072002 1.567
0.38503429 0.25072002 1.567
0.38801906 0.25072002 1.567
0.3927505 0.25184 1.5740001
0.39574859 0.25184 1.5740001
0.39874667 0.25184 1.5740001
0.40353143 0.25296 1.5810001
0.40654287 0.25296 1.5810001
0.4095543 0.25296 1.5810001
0.41256574 0.25296 1.5810001
0.41557714 0.25296 1.5810001
0.42070669 0.25424001 1.5890001
0.42373335 0.25424001 1.5890001
0.42676002 0.25424001 1.5890001
0.42978668 0.25424001 1.5890001
0.43281335 0.25424001 1.5890001
0.43584001 0.25424001 1.5890001
0.43886667 0.25424001 1.5890001
0.44189334 0.25424001 1.5890001
0.44688001 0.25536001 1.5960001
0.44992003 0.25536001 1.5960001
0.45296001 0.25536001 1.5960001
0.45600003 0.25536001 1.5960001
0.46536765 0.25888002 1.618
0.47308192 0.26144001 1.6340001
0.47619429 0.26144001 1.6340001
0.4793067 0.26144001 1.6340001
0.48241907 0.26144001 1.6340001
0.48761144 0.26256001 1.641
0.57628191 0.28144002 1.7590001
0.57666671 0.28 1.7500001
0.58000004 0.28 1.7500001
0.58333337 0.28 1.7500001
0.5866667 0.28 1.7500001
0.59000003 0.28 1.7500001
0.59333336 0.28 1.7500001
0.59666669 0.28 1.7500001
0.60000002 0.28 1.7500001
0.60333335 0.28 1.7500001
0.60666668 0.28 1.7500001
0.61000001 0.28 1.7500001
0.61017907 0.27856001 1.7410001
0.61032385 0.27712002 1.7320001
0.6136229 0.27712002 1.7320001
0.61371619 0.27568001 1.723
0.61699814 0.27568001 1.723
0.62028003 0.27568001 1.723
0.62356192 0.27568001 1.723
0.62684381 0.27568001 1.723
0.62720001 0.2744 1.715
0.6304667 0.2744 1.715
-0.46018288 0.36218098 2.237
-0.45592192 0.36218098 2.237
-0.45166096 0.36218098 2.237
-0.4474 0.36218098 2.237
-0.44313908 0.36218098 2.237
-0.44182098 0.36460954 2.2520001
-0.43461716 0.36218098 2.237
-0.42766288 0.3599143 2.223
-0.4234286 0.3599143 2.223
-0.42183429 0.36218098 2.237
-0.41757336 0.36218098 2.237
-0.41072574 0.3599143 2.223
-0.40649146 0.3599143 2.223
-0.14316952 0.26455238 1.6340001
-0.14005715 0.26455238 1.6340001
-0.13694477 0.26455238 1.6340001
-0.13317715 0.26325715 1.626
-0.13072 0.26455238 1.6340001
-0.12698287 0.26325715 1.626
-0.12274286 0.26082858 1.6110001
-0.11908001 0.25953335 1.603
-0.11602667 0.25953335 1.603
-0.11142286 0.25597143 1.5810001
-0.10793144 0.25483811 1.5740001
-0.10493334 0.25483811 1.5740001
-0.10148191 0.25370476 1.567
-0.098497145 0.25370476 1.567
-0.095085718 0.25257143 1.5600001
-0.091700956 0.25143811 1.5530001
-0.08874286 0.25143811 1.5530001
-0.0853981 0.25030476 1.5460001
-0.082080007 0.24917144 1.539
-0.079148576 0.24917144 1.539
-0.076217145 0.24917144 1.539
-0.072952382 0.2480381 1.5320001
-0.069714285 0.24690478 1.5250001
-0.066809528 0.24690478 1.5250001
-0.063904762 0.24690478 1.5250001
-0.061000001 0.24690478 1.5250001
-0.058095239 0.24690478 1.5250001
-0.054973334 0.24593334 1.5190001
-0.052080002 0.24593334 1.5190001
-0.04896 0.24480002 1.5120001
-0.046293337 0.24593334 1.5190001
-0.043200001 0.24480002 1.5120001
-0.040320002 0.24480002 1.5120001
-0.037440002 0.24480002 1.5120001
-0.03472 0.24593334 1.5190001
-0.031680003 0.24480002 1.5120001
-0.028933335 0.24593334 1.5190001
-0.025817145 0.24382858 1.506
-0.02304 0.24480002 1.5120001
-0.020160001 0.24480002 1.5120001
-0.017280001 0.24480002 1.5120001
-0.014342858 0.24382858 1.506
-0.01152 0.24480002 1.5120001
-0.0086400006 0.24480002 1.5120001
-0.0057600001 0.24480002 1.5120001
-0.0028685716 0.24382858 1.506
0 0.24382858 1.506
0.0028685716 0.24382858 1.506
0.0057104765 0.24269524 1.4990001
0.0085657146 0.24269524 1.4990001
0.011420953 0.24269524 1.4990001
0.014276191 0.24269524 1.4990001
0.017131429 0.24269524 1.4990001
0.019986667 0.24269524 1.4990001
0.022841906 0.24269524 1.4990001
0.025697144 0.24269524 1.4990001
0.028685715 0.24382858 1.506
0.031554285 0.24382858 1.506
0.03442286 0.24382858 1.506
0.03729143 0.24382858 1.506
0.04016 0.24382858 1.506
0.043200001 0.24480002 1.5120001
0.045897145 0.24382858 1.506
0.048765715 0.24382858 1.506
0.051394287 0.24269524 1.4990001
0.054249525 0.24269524 1.4990001
0.05737143 0.24382858 1.506
0.06024 0.24382858 1.506
0.063360006 0.24480002 1.5120001
0.066240005 0.24480002 1.5120001
0.069120005 0.24480002 1.5120001
0.072000004 0.24480002 1.5120001
0.075226672 0.24593334 1.5190001
0.077760004 0.24480002 1.5120001
0.080320001 0.24382858 1.506
0.083188571 0.24382858 1.506
0.086057149 0.24382858 1.506
0.089280002 0.24480002 1.5120001
0.092160001 0.24480002 1.5120001
0.09466286 0.24382858 1.506
0.09753143 0.24382858 1.506
0.1004 0.24382858 1.506
0.10326858 0.24382858 1.506
0.10613715 0.24382858 1.506
0.10849905 0.24269524 1.4990001
0.11083429 0.24156192 1.4920001
0.1136762 0.24156192 1.4920001
0.11706477 0.24269524 1.4990001
0.11992001 0.24269524 1.4990001
0.12277524 0.24269524 1.4990001
0.12504381 0.24156192 1.4920001
0.12788571 0.24156192 1.4920001
0.13072762 0.24156192 1.4920001
0.13303238 0.24059048 1.4860001
0.13586286 0.24059048 1.4860001
0.13869333 0.24059048 1.4860001
0.14152381 0.24059048 1.4860001
0.14435428 0.24059048 1.4860001
0.14777905 0.24156192 1.4920001
0.15062095 0.24156192 1.4920001
0.15346286 0.24156192 1.4920001
0.15630476 0.24156192 1.4920001
0.15914667 0.24156192 1.4920001
0.16198857 0.24156192 1.4920001
0.16483048 0.24156192 1.4920001
0.16767238 0.24156192 1.4920001
0.17051429 0.24156192 1.4920001
0.17335619 0.24156192 1.4920001
0.1761981 0.24156192 1.4920001
0.17904 0.24156192 1.4920001
0.1818819 0.24156192 1.4920001
0.18472381 0.24156192 1.4920001
0.18756571 0.24156192 1.4920001
0.19040762 0.24156192 1.4920001
0.1941562 0.24269524 1.4990001
0.19701144 0.24269524 1.4990001
0.19986667 0.24269524 1.4990001
0.20272191 0.24269524 1.4990001
0.20557715 0.24269524 1.4990001
0.20843239 0.24269524 1.4990001
0.21030097 0.24156192 1.4920001
0.21314287 0.24156192 1.4920001
0.21598478 0.24156192 1.4920001
0.21794668 0.24059048 1.4860001
0.22166859 0.24156192 1.4920001
0.22451049 0.24156192 1.4920001
0.22841905 0.24269524 1.4990001
0.23127429 0.24269524 1.4990001
0.23522286 0.24382858 1.506
0.23809144 0.24382858 1.506
0.24096 0.24382858 1.506
0.24382858 0.24382858 1.506
0.24669716 0.24382858 1.506
0.24956572 0.24382858 1.506
0.25344002 0.24480002 1.5120001
0.25632 0.24480002 1.5120001
0.25920001 0.24480002 1.5120001
0.26208001 0.24480002 1.5120001
0.26496002 0.24480002 1.5120001
0.26784 0.24480002 1.5120001
0.27072001 0.24480002 1.5120001
0.27360001 0.24480002 1.5120001
0.27648002 0.24480002 1.5120001
0.27936 0.24480002 1.5120001
0.28354669 0.24593334 1.5190001
0.28757143 0.24690478 1.5250001
0.2904762 0.24690478 1.5250001
0.29472762 0.2480381 1.5320001
0.29764572 0.2480381 1.5320001
0.30056381 0.2480381 1.5320001
0.30348191 0.2480381 1.5320001
0.3064 0.2480381 1.5320001
0.31073144 0.24917144 1.539
0.31366286 0.24917144 1.539
0.3165943 0.24917144 1.539
0.31952572 0.24917144 1.539
0.32245716 0.24917144 1.539
0.32538858 0.24917144 1.539
0.32832003 0.24917144 1.539
0.3327581 0.25030476 1.5460001
0.33570287 0.25030476 1.5460001
0.33864763 0.25030476 1.5460001
0.34313905 0.25143811 1.5530001
0.34609714 0.25143811 1.5530001
0.35062858 0.25257143 1.5600001
0.35360003 0.25257143 1.5600001
0.35657144 0.25257143 1.5600001
0.35954288 0.25257143 1.5600001
0.36251429 0.25257143 1.5600001
0.36548573 0.25257143 1.5600001
0.37011048 0.25370476 1.567
0.37142858 0.25257143 1.5600001
0.37608001 0.25370476 1.567
0.37906477 0.25370476 1.567
0.38204953 0.25370476 1.567
0.38503429 0.25370476 1.567
0.38801906 0.25370476 1.567
0.3927505 0.25483811 1.5740001
0.39574859 0.25483811 1.5740001
0.40052003 0.25597143 1.5810001
0.40353143 0.25597143 1.5810001
0.40474287 0.25483811 1.5740001
0.40774098 0.25483811 1.5740001
0.41256574 0.25597143 1.5810001
0.41768003 0.25726667 1.5890001
0.42070669 0.25726667 1.5890001
0.42373335 0.25726667 1.5890001
0.42676002 0.25726667 1.5890001
0.42762288 0.25597143 1.5810001
0.43281335 0.25726667 1.5890001
0.43584001 0.25726667 1.5890001
0.43886667 0.25726667 1.5890001
0.44189334 0.25726667 1.5890001
0.44992003 0.25840002 1.5960001
0.45296001 0.25840002 1.5960001
0.57628191 0.28479049 1.7590001
0.57666671 0.28333333 1.7500001
0.58000004 0.28333333 1.7500001
0.58333337 0.28333333 1.7500001
0.5866667 0.28333333 1.7500001
0.59000003 0.28333333 1.7500001
0.59333336 0.28333333 1.7500001
0.59666669 0.28333333 1.7500001
0.60000002 0.28333333 1.7500001
0.60333335 0.28333333 1.7500001
0.60666668 0.28333333 1.7500001
0.61000001 0.28333333 1.7500001
0.61017907 0.28187621 1.7410001
0.61032385 0.28041905 1.7320001
0.6136229 0.28041905 1.7320001
0.6169219 0.28041905 1.7320001
0.61699814 0.27896193 1.723
0.62028003 0.27896193 1.723
0.62066668 0.27766669 1.715
0.62393337 0.27766669 1.715
0.62720001 0.27766669 1.715
0.6304667 0.27766669 1.715
-0.46018288 0.36644191 2.237
-0.45592192 0.36644191 2.237
-0.45166096 0.36644191 2.237
-0.4474 0.36644191 2.237
-0.44313908 0.36644191 2.237
-0.44182098 0.36889905 2.2520001
-0.43461716 0.36644191 2.237
-0.42766288 0.36414859 2.223
-0.4234286 0.36414859 2.223
-0.42183429 0.36644191 2.237
-0.41757336 0.36644191 2.237
-0.13317715 0.26635429 1.626
-0.13072 0.26766476 1.6340001
-0.12698287 0.26635429 1.626
-0.12274286 0.26389715 1.6110001
-0.11908001 0.26258668 1.603
-0.11602667 0.26258668 1.603
-0.11142286 0.25898287 1.5810001
-0.10793144 0.25783619 1.5740001
-0.10493334 0.25783619 1.5740001
-0.10148191 0.25668952 1.567
-0.098497145 0.25668952 1.567
-0.095085718 0.25554287 1.5600001
-0.091700956 0.2543962 1.5530001
-0.08834286 0.25324953 1.5460001
-0.0853981 0.25324953 1.5460001
-0.082080007 0.25210285 1.539
-0.079148576 0.25210285 1.539
-0.075870477 0.25095621 1.5320001
-0.072619051 0.24980953 1.5250001
-0.069714285 0.24980953 1.5250001
-0.066546671 0.24882668 1.5190001
-0.063653335 0.24882668 1.5190001
-0.060760003 0.24882668 1.5190001
-0.05786667 0.24882668 1.5190001
-0.054720003 0.24768001 1.5120001
-0.051634289 0.24669716 1.506
-0.048765715 0.24669716 1.506
-0.045897145 0.24669716 1.506
-0.043028574 0.24669716 1.506
-0.04016 0.24669716 1.506
-0.03729143 0.24669716 1.506
-0.03442286 0.24669716 1.506
-0.031554285 0.24669716 1.506
-0.028685715 0.24669716 1.506
-0.025697144 0.24555048 1.4990001
-0.022948572 0.24669716 1.506
-0.02008 0.24669716 1.506
-0.01721143 0.24669716 1.506
-0.014342858 0.24669716 1.506
-0.011474286 0.24669716 1.506
-0.0086057149 0.24669716 1.506
-0.0057104765 0.24555048 1.4990001
-0.0028552383 0.24555048 1.4990001
0 0.24555048 1.4990001
0.0028419048 0.24440382 1.4920001
0.0056609525 0.24342096 1.4860001
0.0084914286 0.24342096 1.4860001
0.011321905 0.24342096 1.4860001
0.014152382 0.24342096 1.4860001
0.016982857 0.24342096 1.4860001
0.019813335 0.24342096 1.4860001
0.02264381 0.24342096 1.4860001
0.025474288 0.24342096 1.4860001
0.028419049 0.24440382 1.4920001
0.031407621 0.24555048 1.4990001
0.034102857 0.24440382 1.4920001
0.036944762 0.24440382 1.4920001
0.039973333 0.24555048 1.4990001
0.042828575 0.24555048 1.4990001
0.045683812 0.24555048 1.4990001
0.048312381 0.24440382 1.4920001
0.051154289 0.24440382 1.4920001
0.053779051 0.24342096 1.4860001
0.056609526 0.24342096 1.4860001
0.058680002 0.24030858 1.4670001
0.06147429 0.24030858 1.4670001
0.064268574 0.24030858 1.4670001
0.067062862 0.24030858 1.4670001
0.070761904 0.24342096 1.4860001
0.073889524 0.24440382 1.4920001
0.076731429 0.24440382 1.4920001
0.079573333 0.24440382 1.4920001
0.082415238 0.24440382 1.4920001
0.085257143 0.24440382 1.4920001
0.088099048 0.24440382 1.4920001
0.090940952 0.24440382 1.4920001
0.094222859 0.24555048 1.4990001
0.096624762 0.24440382 1.4920001
0.099466674 0.24440382 1.4920001
0.10189715 0.24342096 1.4860001
0.10472763 0.24342096 1.4860001
0.1075581 0.24342096 1.4860001
0.11038858 0.24342096 1.4860001
0.11276191 0.24243811 1.48
0.11604953 0.24342096 1.4860001
0.11888 0.24342096 1.4860001
0.12171048 0.24342096 1.4860001
0.12454095 0.24342096 1.4860001
0.12685715 0.24243811 1.48
0.12967619 0.24243811 1.48
0.13249524 0.24243811 1.48
0.13531429 0.24243811 1.48
0.13813333 0.24243811 1.48
0.14095239 0.24243811 1.48
0.14377144 0.24243811 1.48
0.14718477 0.24342096 1.4860001
0.15001525 0.24342096 1.4860001
0.15284573 0.24342096 1.4860001
0.1556762 0.24342096 1.4860001
0.15850668 0.24342096 1.4860001
0.16133715 0.24342096 1.4860001
0.16416763 0.24342096 1.4860001
0.1669981 0.24342096 1.4860001
0.16982858 0.24342096 1.4860001
0.17265905 0.24342096 1.4860001
0.17548953 0.24342096 1.4860001
0.17832001 0.24342096 1.4860001
0.18115048 0.24342096 1.4860001
0.18398096 0.24342096 1.4860001
0.18681143 0.24342096 1.4860001
0.18964191 0.24342096 1.4860001
0.19247238 0.24342096 1.4860001
0.19530286 0.24342096 1.4860001
0.19813333 0.24342096 1.4860001
0.20177525 0.24440382 1.4920001
0.20461716 0.24440382 1.4920001
0.20745906 0.24440382 1.4920001
0.21030097 0.24440382 1.4920001
0.21314287 0.24440382 1.4920001
0.2151162 0.24342096 1.4860001
0.21794668 0.24342096 1.4860001
0.22077715 0.24342096 1.4860001
0.22451049 0.24440382 1.4920001
0.2273524 0.24440382 1.4920001
0.23127429 0.24555048 1.4990001
0.23412953 0.24555048 1.4990001
0.23809144 0.24669716 1.506
0.24096 0.24669716 1.506
0.24382858 0.24669716 1.506
0.24669716 0.24669716 1.506
0.24956572 0.24669716 1.506
0.25243428 0.24669716 1.506
0.25530288 0.24669716 1.506
0.25920001 0.24768001 1.5120001
0.26208001 0.24768001 1.5120001
0.26496002 0.24768001 1.5120001
0.26784 0.24768001 1.5120001
0.27072001 0.24768001 1.5120001
0.27360001 0.24768001 1.5120001
0.27648002 0.24768001 1.5120001
0.27936 0.24768001 1.5120001
0.28354669 0.24882668 1.5190001
0.28757143 0.24980953 1.5250001
0.2904762 0.24980953 1.5250001
0.29472762 0.25095621 1.5320001
0.29764572 0.25095621 1.5320001
0.30056381 0.25095621 1.5320001
0.30348191 0.25095621 1.5320001
0.3064 0.25095621 1.5320001
0.31073144 0.25210285 1.539
0.31366286 0.25210285 1.539
0.3165943 0.25210285 1.539
0.31952572 0.25210285 1.539
0.32245716 0.25210285 1.539
0.32538858 0.25210285 1.539
0.32981333 0.25324953 1.5460001
0.3327581 0.25324953 1.5460001
0.33570287 0.25324953 1.5460001
0.33864763 0.25324953 1.5460001
