# .PCD v0.7 - Point Cloud Data file format
VERSION 0.7
FIELDS x y z
SIZE 4 4 4
TYPE F F F
COUNT 1 1 1
WIDTH 1512
HEIGHT 1
VIEWPOINT 0 0 0 1 0 0 0
POINTS 1512
DATA ascii
-0.041255239 0.4613086 1.9690001
-0.037504762 0.4613086 1.9690001
-0.03394286 0.46388572 1.9800001
-0.03017143 0.46388572 1.9800001
-0.026560001 0.46669716 1.9920001
-0.022765715 0.46669716 1.9920001
-0.01897143 0.46669716 1.9920001
-0.015177144 0.46669716 1.9920001
-0.011445715 0.46927431 2.003
-0.0076304763 0.46927431 2.003
-0.0038152381 0.46927431 2.003
0 0.47208574 2.0150001
0.0038380953 0.47208574 2.0150001
0.0077219051 0.47489715 2.0270002
0.011582858 0.47489715 2.0270002
0.015535239 0.47770858 2.039
0.019419048 0.47770858 2.039
0.023302859 0.47770858 2.039
0.027346667 0.48052001 2.0510001
0.031253334 0.48052001 2.0510001
0.035160001 0.48052001 2.0510001
0.039295241 0.48333144 2.0630002
0.043224763 0.48333144 2.0630002
0.047451429 0.48637715 2.0760002
0.051405717 0.48637715 2.0760002
0.055360001 0.48637715 2.0760002
0.059657145 0.48918858 2.0880001
0.063634291 0.48918858 2.0880001
0.067611434 0.48918858 2.0880001
0.071588576 0.48918858 2.0880001
0.075565718 0.48918858 2.0880001
0.0800381 0.49223429 2.1010001
0.084040001 0.49223429 2.1010001
0.088041909 0.49223429 2.1010001
0.092613339 0.49528003 2.1140001
0.096640006 0.49528003 2.1140001
0.10066667 0.49528003 2.1140001
0.10533715 0.49832574 2.1270001
0.11005715 0.50137144 2.1400001
0.11413334 0.50137144 2.1400001
0.11892762 0.50441718 2.1530001
0.12302858 0.50441718 2.1530001
0.12712952 0.50441718 2.1530001
0.13123049 0.50441718 2.1530001
0.13533144 0.50441718 2.1530001
0.13943239 0.50441718 2.1530001
0.14446667 0.50769717 2.1670001
0.14859429 0.50769717 2.1670001
0.15272191 0.50769717 2.1670001
0.15684953 0.50769717 2.1670001
0.16201715 0.51097715 2.181
0.16716191 0.51402289 2.194
0.17134096 0.51402289 2.194
0.17552 0.51402289 2.194
0.18084572 0.51730287 2.2080002
0.18505144 0.51730287 2.2080002
0.18925714 0.51730287 2.2080002
0.19477715 0.52081716 2.223
0.19766858 0.51730287 2.2080002
0.20324573 0.52081716 2.223
0.20748001 0.52081716 2.223
0.2117143 0.52081716 2.223
0.21730858 0.52409714 2.237
0.22305524 0.52761143 2.2520001
0.22734477 0.52761143 2.2520001
0.23307429 0.53089142 2.266
0.23739049 0.53089142 2.266
0.24170667 0.53089142 2.266
0.24765144 0.53440571 2.2810001
0.25033906 0.53089142 2.266
0.25634095 0.53440571 2.2810001
0.26068571 0.53440571 2.2810001
0.26503047 0.53440571 2.2810001
0.26937523 0.53440571 2.2810001
0.27372 0.53440571 2.2810001
0.28001526 0.5381543 2.2970002
0.28624764 0.54166859 2.312
0.29253715 0.54518288 2.3270001
0.29696953 0.54518288 2.3270001
0.30140191 0.54518288 2.3270001
0.30793715 0.54893142 2.3430002
0.31240001 0.54893142 2.3430002
0.31686288 0.54893142 2.3430002
0.32352 0.55268002 2.3590002
0.33037716 0.55666286 2.3760002
0.33490288 0.55666286 2.3760002
0.34171429 0.56041145 2.3920002
0.3462705 0.56041145 2.3920002
0.35332 0.5643943 2.4090002
0.35790858 0.5643943 2.4090002
0.36249715 0.5643943 2.4090002
0.36708573 0.5643943 2.4090002
0.3716743 0.5643943 2.4090002
0.37891811 0.56837714 2.4260001
0.38353905 0.56837714 2.4260001
0.38816002 0.56837714 2.4260001
0.39278096 0.56837714 2.4260001
0.40018669 0.57236004 2.4430001
-0.45245716 0.50544763 2.1400001
-0.44565716 0.50237715 2.1270001
-0.43890667 0.49930668 2.1140001
-0.43488002 0.49930668 2.1140001
-0.42820382 0.49623621 2.1010001
-0.41915429 0.49033144 2.0760002
-0.41020003 0.48442668 2.0510001
-0.40629336 0.48442668 2.0510001
-0.4023867 0.48442668 2.0510001
-0.39848003 0.48442668 2.0510001
-0.39226478 0.48159239 2.039
-0.38838097 0.48159239 2.039
-0.38223431 0.47875813 2.0270002
-0.37837335 0.47875813 2.0270002
-0.37229526 0.47592384 2.0150001
-0.36845717 0.47592384 2.0150001
-0.36461905 0.47592384 2.0150001
-0.36078095 0.47592384 2.0150001
-0.35481715 0.47308955 2.003
-0.35100192 0.47308955 2.003
-0.34718668 0.47308955 2.003
-0.34337145 0.47308955 2.003
-0.33769143 0.47049144 1.9920001
-0.33389714 0.47049144 1.9920001
-0.33010286 0.47049144 1.9920001
-0.32630858 0.47049144 1.9920001
-0.32057145 0.46765715 1.9800001
-0.3168 0.46765715 1.9800001
-0.31302857 0.46765715 1.9800001
-0.30925715 0.46765715 1.9800001
-0.30733716 0.47049144 1.9920001
-0.3017143 0.46765715 1.9800001
-0.29794288 0.46765715 1.9800001
-0.29417145 0.46765715 1.9800001
-0.2904 0.46765715 1.9800001
-0.28344381 0.46246096 1.9580001
-0.27814287 0.45986289 1.9470001
-0.27133334 0.45466667 1.9250001
-0.26627621 0.45230478 1.9150001
-0.26262859 0.45230478 1.9150001
-0.25898096 0.45230478 1.9150001
-0.25533333 0.45230478 1.9150001
-0.25168571 0.45230478 1.9150001
-0.24661334 0.44970667 1.904
-0.24298668 0.44970667 1.904
-0.23936 0.44970667 1.904
-0.23449525 0.44734478 1.8940001
-0.22954668 0.44474667 1.8830001
-0.22596 0.44474667 1.8830001
-0.22119239 0.44238478 1.8730001
-0.21762477 0.44238478 1.8730001
-0.21405715 0.44238478 1.8730001
-0.20936573 0.44002289 1.863
-0.20581715 0.44002289 1.863
-0.20226859 0.44002289 1.863
-0.19765334 0.43766096 1.853
-0.19412382 0.43766096 1.853
-0.18956572 0.43529907 1.8430001
-0.18605524 0.43529907 1.8430001
-0.18155429 0.43293715 1.8330001
-0.17806287 0.43293715 1.8330001
-0.17457144 0.43293715 1.8330001
-0.17108001 0.43293715 1.8330001
-0.16758858 0.43293715 1.8330001
-0.16409715 0.43293715 1.8330001
-0.16060571 0.43293715 1.8330001
-0.1571143 0.43293715 1.8330001
-0.15362287 0.43293715 1.8330001
-0.15095048 0.43529907 1.8430001
-0.14744 0.43529907 1.8430001
-0.14549144 0.44002289 1.863
-0.14194286 0.44002289 1.863
-0.13913715 0.44238478 1.8730001
-0.13556953 0.44238478 1.8730001
-0.13200191 0.44238478 1.8730001
-0.12912001 0.44474667 1.8830001
-0.12553334 0.44474667 1.8830001
-0.12265905 0.44734478 1.8940001
-0.11905143 0.44734478 1.8940001
-0.11605334 0.44970667 1.904
-0.11242667 0.44970667 1.904
-0.1088 0.44970667 1.904
-0.10517333 0.44970667 1.904
-0.10154667 0.44970667 1.904
-0.098485716 0.45230478 1.9150001
-0.094838098 0.45230478 1.9150001
-0.09119048 0.45230478 1.9150001
-0.087542862 0.45230478 1.9150001
-0.084333338 0.45466667 1.9250001
-0.080666669 0.45466667 1.9250001
-0.077440001 0.45726478 1.9360001
-0.073752381 0.45726478 1.9360001
-0.07046286 0.45986289 1.9470001
-0.066754289 0.45986289 1.9470001
-0.063045718 0.45986289 1.9470001
-0.059337147 0.45986289 1.9470001
-0.05594286 0.46246096 1.9580001
-0.052213334 0.46246096 1.9580001
-0.048483811 0.46246096 1.9580001
-0.045005716 0.46505907 1.9690001
-0.041255239 0.46505907 1.9690001
-0.037504762 0.46505907 1.9690001
-0.033754285 0.46505907 1.9690001
-0.03017143 0.46765715 1.9800001
-0.026400002 0.46765715 1.9800001
-0.022765715 0.47049144 1.9920001
-0.018857144 0.46765715 1.9800001
-0.015085715 0.46765715 1.9800001
-0.011445715 0.47308955 2.003
-0.0076304763 0.47308955 2.003
-0.0038380953 0.47592384 2.0150001
0 0.47592384 2.0150001
0.0038609526 0.47875813 2.0270002
0.0077676196 0.48159239 2.039
0.011651429 0.48159239 2.039
0.015535239 0.48159239 2.039
0.019533334 0.48442668 2.0510001
0.023440002 0.48442668 2.0510001
0.027346667 0.48442668 2.0510001
0.031253334 0.48442668 2.0510001
0.035160001 0.48442668 2.0510001
0.039295241 0.48726097 2.0630002
0.043224763 0.48726097 2.0630002
0.047154289 0.48726097 2.0630002
0.051083811 0.48726097 2.0630002
0.055360001 0.49033144 2.0760002
0.059314288 0.49033144 2.0760002
0.063634291 0.49316573 2.0880001
0.067611434 0.49316573 2.0880001
0.072034292 0.49623621 2.1010001
0.076036192 0.49623621 2.1010001
0.0800381 0.49623621 2.1010001
0.084040001 0.49623621 2.1010001
0.088041909 0.49623621 2.1010001
0.092613339 0.49930668 2.1140001
0.096640006 0.49930668 2.1140001
0.10066667 0.49930668 2.1140001
0.10533715 0.50237715 2.1270001
0.10938857 0.50237715 2.1270001
0.11344001 0.50237715 2.1270001
0.11892762 0.5085181 2.1530001
0.12302858 0.5085181 2.1530001
0.12712952 0.5085181 2.1530001
0.13123049 0.5085181 2.1530001
0.13533144 0.5085181 2.1530001
0.13943239 0.5085181 2.1530001
0.14446667 0.51182479 2.1670001
0.14859429 0.51182479 2.1670001
0.15370858 0.51513147 2.181
0.15786286 0.51513147 2.181
0.16201715 0.51513147 2.181
0.16716191 0.51820195 2.194
0.17134096 0.51820195 2.194
0.17552 0.51820195 2.194
0.18084572 0.52150857 2.2080002
0.18505144 0.52150857 2.2080002
0.18925714 0.52150857 2.2080002
0.19477715 0.52505147 2.223
0.19901143 0.52505147 2.223
0.20324573 0.52505147 2.223
0.20748001 0.52505147 2.223
0.2117143 0.52505147 2.223
0.21730858 0.5283581 2.237
0.22305524 0.53190094 2.2520001
0.22734477 0.53190094 2.2520001
0.23307429 0.53520763 2.266
0.23739049 0.53520763 2.266
0.24170667 0.53520763 2.266
0.24765144 0.53875047 2.2810001
0.25199619 0.53875047 2.2810001
0.25634095 0.53875047 2.2810001
0.26068571 0.53875047 2.2810001
0.26503047 0.53875047 2.2810001
0.27126476 0.54252952 2.2970002
0.27564001 0.54252952 2.2970002
0.28001526 0.54252952 2.2970002
0.28624764 0.54607242 2.312
0.29253715 0.54961526 2.3270001
0.29696953 0.54961526 2.3270001
0.30347431 0.55339432 2.3430002
0.30793715 0.55339432 2.3430002
0.31240001 0.55339432 2.3430002
0.31902668 0.55717337 2.3590002
0.32585144 0.56118858 2.3760002
0.33037716 0.56118858 2.3760002
0.33490288 0.56118858 2.3760002
0.34171429 0.56496763 2.3920002
0.3462705 0.56496763 2.3920002
0.35332 0.5689829 2.4090002
0.35790858 0.5689829 2.4090002
0.36249715 0.5689829 2.4090002
0.36708573 0.5689829 2.4090002
0.3716743 0.5689829 2.4090002
0.37891811 0.57299811 2.4260001
0.38353905 0.57299811 2.4260001
0.38816002 0.57299811 2.4260001
0.39278096 0.57299811 2.4260001
-0.45110479 0.51261908 2.1530001
-0.44430476 0.50952381 2.1400001
-0.43488002 0.50333333 2.1140001
-0.42820382 0.50023812 2.1010001
-0.42157716 0.49714288 2.0880001
-0.41020003 0.48833334 2.0510001
-0.40629336 0.48833334 2.0510001
-0.4023867 0.48833334 2.0510001
-0.39848003 0.48833334 2.0510001
-0.39226478 0.4854762 2.039
-0.38838097 0.4854762 2.039
-0.38223431 0.48261908 2.0270002
-0.37837335 0.48261908 2.0270002
-0.37229526 0.47976193 2.0150001
-0.36845717 0.47976193 2.0150001
-0.36461905 0.47976193 2.0150001
-0.36078095 0.47976193 2.0150001
-0.35481715 0.47690478 2.003
-0.35100192 0.47690478 2.003
-0.34718668 0.47690478 2.003
-0.34337145 0.47690478 2.003
-0.33769143 0.47428572 1.9920001
-0.33574095 0.47690478 2.003
-0.33010286 0.47428572 1.9920001
-0.32630858 0.47428572 1.9920001
-0.3225143 0.47428572 1.9920001
-0.31872001 0.47428572 1.9920001
-0.31302857 0.4714286 1.9800001
-0.30925715 0.4714286 1.9800001
-0.30733716 0.47428572 1.9920001
-0.3017143 0.4714286 1.9800001
-0.29794288 0.4714286 1.9800001
-0.29253715 0.46880955 1.9690001
-0.28878668 0.46880955 1.9690001
-0.28344381 0.46619049 1.9580001
-0.27971429 0.46619049 1.9580001
-0.27133334 0.45833334 1.9250001
-0.26766667 0.45833334 1.9250001
-0.26262859 0.45595241 1.9150001
-0.26033333 0.45833334 1.9250001
-0.25533333 0.45595241 1.9150001
-0.25168571 0.45595241 1.9150001
-0.2480381 0.45595241 1.9150001
-0.24298668 0.45333335 1.904
-0.23936 0.45333335 1.904
-0.23313335 0.44833335 1.8830001
-0.22954668 0.44833335 1.8830001
-0.22596 0.44833335 1.8830001
-0.22119239 0.44595239 1.8730001
-0.21762477 0.44595239 1.8730001
-0.21405715 0.44595239 1.8730001
-0.20936573 0.44357145 1.863
-0.20581715 0.44357145 1.863
-0.20226859 0.44357145 1.863
-0.19765334 0.44119048 1.853
-0.19412382 0.44119048 1.853
-0.18956572 0.43880954 1.8430001
-0.18605524 0.43880954 1.8430001
-0.18155429 0.43642858 1.8330001
-0.17806287 0.43642858 1.8330001
-0.17457144 0.43642858 1.8330001
-0.17108001 0.43642858 1.8330001
-0.16758858 0.43642858 1.8330001
-0.16409715 0.43642858 1.8330001
-0.16060571 0.43642858 1.8330001
-0.1571143 0.43642858 1.8330001
-0.15362287 0.43642858 1.8330001
-0.15095048 0.43880954 1.8430001
-0.14744 0.43880954 1.8430001
-0.14549144 0.44357145 1.863
-0.14194286 0.44357145 1.863
-0.13913715 0.44595239 1.8730001
-0.13556953 0.44595239 1.8730001
-0.13200191 0.44595239 1.8730001
-0.12843429 0.44595239 1.8730001
-0.12553334 0.44833335 1.8830001
-0.12265905 0.45095241 1.8940001
-0.11905143 0.45095241 1.8940001
-0.11605334 0.45333335 1.904
-0.11242667 0.45333335 1.904
-0.1088 0.45333335 1.904
-0.10517333 0.45333335 1.904
-0.10213333 0.45595241 1.9150001
-0.098485716 0.45595241 1.9150001
-0.094838098 0.45595241 1.9150001
-0.09119048 0.45595241 1.9150001
-0.087542862 0.45595241 1.9150001
-0.083895244 0.45595241 1.9150001
-0.080666669 0.45833334 1.9250001
-0.077 0.45833334 1.9250001
-0.073752381 0.4609524 1.9360001
-0.070064768 0.4609524 1.9360001
-0.066754289 0.46357146 1.9470001
-0.063045718 0.46357146 1.9470001
-0.059337147 0.46357146 1.9470001
-0.055628572 0.46357146 1.9470001
-0.052213334 0.46619049 1.9580001
-0.048483811 0.46619049 1.9580001
-0.045005716 0.46880955 1.9690001
-0.041255239 0.46880955 1.9690001
-0.037504762 0.46880955 1.9690001
-0.03394286 0.4714286 1.9800001
-0.03017143 0.4714286 1.9800001
-0.026560001 0.47428572 1.9920001
-0.022765715 0.47428572 1.9920001
-0.01897143 0.47428572 1.9920001
-0.015177144 0.47428572 1.9920001
-0.011445715 0.47690478 2.003
-0.0076304763 0.47690478 2.003
-0.0038380953 0.47976193 2.0150001
0 0.47976193 2.0150001
0.0038609526 0.48261908 2.0270002
0.0077676196 0.4854762 2.039
0.011651429 0.4854762 2.039
0.015626667 0.48833334 2.0510001
0.019533334 0.48833334 2.0510001
0.023440002 0.48833334 2.0510001
0.027346667 0.48833334 2.0510001
0.031253334 0.48833334 2.0510001
0.035160001 0.48833334 2.0510001
0.039295241 0.49119049 2.0630002
0.043224763 0.49119049 2.0630002
0.047154289 0.49119049 2.0630002
0.051083811 0.49119049 2.0630002
0.055360001 0.49428573 2.0760002
0.059314288 0.49428573 2.0760002
0.063634291 0.49714288 2.0880001
0.067611434 0.49714288 2.0880001
0.072034292 0.50023812 2.1010001
0.076036192 0.50023812 2.1010001
0.0800381 0.50023812 2.1010001
0.084040001 0.50023812 2.1010001
0.088586673 0.50333333 2.1140001
0.092613339 0.50333333 2.1140001
0.096640006 0.50333333 2.1140001
0.10066667 0.50333333 2.1140001
0.10533715 0.5064286 2.1270001
0.10938857 0.5064286 2.1270001
0.11413334 0.50952381 2.1400001
0.11892762 0.51261908 2.1530001
0.12302858 0.51261908 2.1530001
0.12712952 0.51261908 2.1530001
0.13123049 0.51261908 2.1530001
0.13533144 0.51261908 2.1530001
0.14033905 0.51595241 2.1670001
0.14446667 0.51595241 2.1670001
0.14859429 0.51595241 2.1670001
0.15370858 0.51928574 2.181
0.15786286 0.51928574 2.181
0.16201715 0.51928574 2.181
0.16716191 0.52238095 2.194
0.17134096 0.52238095 2.194
0.17664 0.52571428 2.2080002
0.18084572 0.52571428 2.2080002
0.18505144 0.52571428 2.2080002
0.18925714 0.52571428 2.2080002
0.19477715 0.52928573 2.223
0.19901143 0.52928573 2.223
0.20324573 0.52928573 2.223
0.20748001 0.52928573 2.223
0.2117143 0.52928573 2.223
0.21730858 0.53261906 2.237
0.22305524 0.53619051 2.2520001
0.22734477 0.53619051 2.2520001
0.23307429 0.53952384 2.266
0.23739049 0.53952384 2.266
0.24330668 0.54309523 2.2810001
0.24765144 0.54309523 2.2810001
0.25199619 0.54309523 2.2810001
0.25634095 0.54309523 2.2810001
0.26068571 0.54309523 2.2810001
0.26503047 0.54309523 2.2810001
0.27126476 0.5469048 2.2970002
0.27564001 0.5469048 2.2970002
0.28001526 0.5469048 2.2970002
0.28624764 0.55047619 2.312
0.29253715 0.55404764 2.3270001
0.29696953 0.55404764 2.3270001
0.30347431 0.55785716 2.3430002
0.30793715 0.55785716 2.3430002
0.31240001 0.55785716 2.3430002
0.31902668 0.56166667 2.3590002
0.32352 0.56166667 2.3590002
0.33037716 0.5657143 2.3760002
0.33490288 0.5657143 2.3760002
0.34171429 0.56952381 2.3920002
0.3462705 0.56952381 2.3920002
0.35082668 0.56952381 2.3920002
0.35790858 0.57357144 2.4090002
0.36249715 0.57357144 2.4090002
0.36708573 0.57357144 2.4090002
0.3716743 0.57357144 2.4090002
-0.45110479 0.51672 2.1530001
-0.44430476 0.51359999 2.1400001
-0.43220574 0.50424004 2.1010001
-0.42555431 0.50112003 2.0880001
-0.41915429 0.49824002 2.0760002
-0.41020003 0.49224001 2.0510001
-0.40629336 0.49224001 2.0510001
-0.4023867 0.49224001 2.0510001
-0.39848003 0.49224001 2.0510001
-0.39226478 0.48936 2.039
-0.38838097 0.48936 2.039
-0.38223431 0.48648003 2.0270002
-0.37837335 0.48648003 2.0270002
-0.3745124 0.48648003 2.0270002
-0.36845717 0.48360002 2.0150001
-0.36461905 0.48360002 2.0150001
-0.36078095 0.48360002 2.0150001
-0.35481715 0.48072001 2.003
-0.35100192 0.48072001 2.003
-0.34718668 0.48072001 2.003
-0.34148574 0.47808 1.9920001
-0.33955622 0.48072001 2.003
-0.33574095 0.48072001 2.003
-0.33010286 0.47808 1.9920001
-0.32630858 0.47808 1.9920001
-0.3225143 0.47808 1.9920001
-0.31872001 0.47808 1.9920001
-0.31302857 0.47520003 1.9800001
-0.30925715 0.47520003 1.9800001
-0.30548573 0.47520003 1.9800001
-0.3017143 0.47520003 1.9800001
-0.29794288 0.47520003 1.9800001
-0.29253715 0.47256002 1.9690001
-0.28878668 0.47256002 1.9690001
-0.28344381 0.46992001 1.9580001
-0.27971429 0.46992001 1.9580001
-0.2744343 0.46728003 1.9470001
-0.26919621 0.46464002 1.9360001
-0.264 0.46200001 1.9250001
-0.26182097 0.46464002 1.9360001
-0.25666669 0.46200001 1.9250001
-0.25168571 0.45960003 1.9150001
-0.2480381 0.45960003 1.9150001
-0.24439049 0.45960003 1.9150001
-0.23936 0.45696002 1.904
-0.23313335 0.45192 1.8830001
-0.22954668 0.45192 1.8830001
-0.22596 0.45192 1.8830001
-0.22119239 0.44952002 1.8730001
-0.21762477 0.44952002 1.8730001
-0.21405715 0.44952002 1.8730001
-0.20936573 0.44712001 1.863
-0.20581715 0.44712001 1.863
-0.20226859 0.44712001 1.863
-0.19872001 0.44712001 1.863
-0.19517143 0.44712001 1.863
-0.19059429 0.44472003 1.853
-0.18605524 0.44232002 1.8430001
-0.18254477 0.44232002 1.8430001
-0.17806287 0.43992001 1.8330001
-0.17457144 0.43992001 1.8330001
-0.17108001 0.43992001 1.8330001
-0.16758858 0.43992001 1.8330001
-0.16409715 0.43992001 1.8330001
-0.16060571 0.43992001 1.8330001
-0.1571143 0.43992001 1.8330001
-0.15362287 0.43992001 1.8330001
-0.15095048 0.44232002 1.8430001
-0.14744 0.44232002 1.8430001
-0.14471048 0.44472003 1.853
-0.14194286 0.44712001 1.863
-0.13913715 0.44952002 1.8730001
-0.13556953 0.44952002 1.8730001
-0.13200191 0.44952002 1.8730001
-0.12912001 0.45192 1.8830001
-0.12626667 0.45456001 1.8940001
-0.12265905 0.45456001 1.8940001
-0.11968 0.45696002 1.904
-0.11605334 0.45696002 1.904
-0.11242667 0.45696002 1.904
-0.1088 0.45696002 1.904
-0.10517333 0.45696002 1.904
-0.10213333 0.45960003 1.9150001
-0.098485716 0.45960003 1.9150001
-0.094838098 0.45960003 1.9150001
-0.09119048 0.45960003 1.9150001
-0.087542862 0.45960003 1.9150001
-0.084333338 0.46200001 1.9250001
-0.080666669 0.46200001 1.9250001
-0.077440001 0.46464002 1.9360001
-0.073752381 0.46464002 1.9360001
-0.070064768 0.46464002 1.9360001
-0.066754289 0.46728003 1.9470001
-0.063045718 0.46728003 1.9470001
-0.059337147 0.46728003 1.9470001
-0.055628572 0.46728003 1.9470001
-0.052213334 0.46992001 1.9580001
-0.048483811 0.46992001 1.9580001
-0.044754289 0.46992001 1.9580001
-0.041255239 0.47256002 1.9690001
-0.037504762 0.47256002 1.9690001
-0.03394286 0.47520003 1.9800001
-0.030354287 0.47808 1.9920001
-0.026560001 0.47808 1.9920001
-0.022765715 0.47808 1.9920001
-0.01897143 0.47808 1.9920001
-0.015177144 0.47808 1.9920001
-0.011445715 0.48072001 2.003
-0.0076304763 0.48072001 2.003
-0.0038380953 0.48360002 2.0150001
0 0.48360002 2.0150001
0.0038609526 0.48648003 2.0270002
0.0077676196 0.48936 2.039
0.011720001 0.49224001 2.0510001
0.015626667 0.49224001 2.0510001
0.019533334 0.49224001 2.0510001
0.023440002 0.49224001 2.0510001
0.027346667 0.49224001 2.0510001
0.031253334 0.49224001 2.0510001
0.035365716 0.49512002 2.0630002
0.039295241 0.49512002 2.0630002
0.043224763 0.49512002 2.0630002
0.047154289 0.49512002 2.0630002
0.051405717 0.49824002 2.0760002
0.055360001 0.49824002 2.0760002
0.059314288 0.49824002 2.0760002
0.063634291 0.50112003 2.0880001
0.067611434 0.50112003 2.0880001
0.072034292 0.50424004 2.1010001
0.076036192 0.50424004 2.1010001
0.0800381 0.50424004 2.1010001
0.084040001 0.50424004 2.1010001
0.088586673 0.50736004 2.1140001
0.092613339 0.50736004 2.1140001
0.096640006 0.50736004 2.1140001
0.10066667 0.50736004 2.1140001
0.10533715 0.51048005 2.1270001
0.10938857 0.51048005 2.1270001
0.11344001 0.51048005 2.1270001
0.11820953 0.51359999 2.1400001
0.12302858 0.51672 2.1530001
0.12712952 0.51672 2.1530001
0.13123049 0.51672 2.1530001
0.13533144 0.51672 2.1530001
0.14033905 0.52008003 2.1670001
0.14446667 0.52008003 2.1670001
0.14859429 0.52008003 2.1670001
0.15370858 0.52344 2.181
0.15786286 0.52344 2.181
0.16201715 0.52344 2.181
0.16716191 0.52656001 2.194
0.17134096 0.52656001 2.194
0.17552 0.52656001 2.194
0.18084572 0.52992004 2.2080002
0.18505144 0.52992004 2.2080002
0.19054286 0.53352004 2.223
0.19477715 0.53352004 2.223
0.19901143 0.53352004 2.223
0.20324573 0.53352004 2.223
0.20748001 0.53352004 2.223
0.2117143 0.53352004 2.223
0.21730858 0.53688002 2.237
0.22156954 0.53688002 2.237
0.22734477 0.54048002 2.2520001
0.23307429 0.54383999 2.266
0.23739049 0.54383999 2.266
0.24330668 0.54743999 2.2810001
0.24765144 0.54743999 2.2810001
0.25199619 0.54743999 2.2810001
0.25634095 0.54743999 2.2810001
0.26068571 0.54743999 2.2810001
0.26503047 0.54743999 2.2810001
0.27126476 0.55128002 2.2970002
0.27564001 0.55128002 2.2970002
0.28001526 0.55128002 2.2970002
0.28624764 0.55488002 2.312
0.29253715 0.55848002 2.3270001
0.29696953 0.55848002 2.3270001
0.30347431 0.56231999 2.3430002
0.30793715 0.56231999 2.3430002
0.31453335 0.56616002 2.3590002
0.31902668 0.56616002 2.3590002
0.32352 0.56616002 2.3590002
0.33037716 0.57024002 2.3760002
0.33490288 0.57024002 2.3760002
0.34171429 0.57408005 2.3920002
0.3462705 0.57408005 2.3920002
0.35082668 0.57408005 2.3920002
0.35790858 0.57816005 2.4090002
0.36249715 0.57816005 2.4090002
0.36708573 0.57816005 2.4090002
0.3716743 0.57816005 2.4090002
-0.46387431 0.53073907 2.194
-0.45969525 0.53073907 2.194
-0.44991049 0.52420765 2.1670001
-0.43220574 0.50824195 2.1010001
-0.42555431 0.50509715 2.0880001
-0.41915429 0.50219429 2.0760002
-0.41260001 0.49904954 2.0630002
-0.40867049 0.49904954 2.0630002
-0.4023867 0.49614668 2.0510001
-0.39848003 0.49614668 2.0510001
-0.39226478 0.49324381 2.039
-0.39066669 0.49614668 2.0510001
-0.38449717 0.49324381 2.039
-0.38285336 0.49614668 2.0510001
-0.37672955 0.49324381 2.039
-0.37065145 0.49034098 2.0270002
-0.36461905 0.48743811 2.0150001
-0.36078095 0.48743811 2.0150001
-0.35481715 0.48453525 2.003
-0.35100192 0.48453525 2.003
-0.34718668 0.48453525 2.003
-0.34337145 0.48453525 2.003
-0.33955622 0.48453525 2.003
-0.33389714 0.48187432 1.9920001
-0.33010286 0.48187432 1.9920001
-0.32630858 0.48187432 1.9920001
-0.3225143 0.48187432 1.9920001
-0.3168 0.47897145 1.9800001
-0.31302857 0.47897145 1.9800001
-0.30753905 0.47631049 1.9690001
-0.30548573 0.47897145 1.9800001
-0.3017143 0.47897145 1.9800001
-0.29794288 0.47897145 1.9800001
-0.29253715 0.47631049 1.9690001
-0.28878668 0.47631049 1.9690001
-0.28344381 0.47364953 1.9580001
-0.27814287 0.4709886 1.9470001
-0.2744343 0.4709886 1.9470001
-0.26919621 0.46832764 1.9360001
-0.264 0.46566668 1.9250001
-0.26182097 0.46832764 1.9360001
-0.25666669 0.46566668 1.9250001
-0.25168571 0.46324763 1.9150001
-0.2480381 0.46324763 1.9150001
-0.24439049 0.46324763 1.9150001
-0.23936 0.4605867 1.904
-0.23449525 0.45816764 1.8940001
-0.22832763 0.45308763 1.8730001
-0.22476001 0.45308763 1.8730001
-0.22119239 0.45308763 1.8730001
-0.21762477 0.45308763 1.8730001
-0.21405715 0.45308763 1.8730001
-0.21048953 0.45308763 1.8730001
-0.20581715 0.45066857 1.863
-0.20226859 0.45066857 1.863
-0.19872001 0.45066857 1.863
-0.19517143 0.45066857 1.863
-0.19059429 0.44824955 1.853
-0.18605524 0.44583049 1.8430001
-0.18254477 0.44583049 1.8430001
-0.17903429 0.44583049 1.8430001
-0.17457144 0.44341144 1.8330001
-0.17108001 0.44341144 1.8330001
-0.16758858 0.44341144 1.8330001
-0.16409715 0.44341144 1.8330001
-0.16060571 0.44341144 1.8330001
-0.1571143 0.44341144 1.8330001
-0.15362287 0.44341144 1.8330001
-0.15095048 0.44583049 1.8430001
-0.14744 0.44583049 1.8430001
-0.14392953 0.44583049 1.8430001
-0.14194286 0.45066857 1.863
-0.1383943 0.45066857 1.863
-0.13484572 0.45066857 1.863
-0.13200191 0.45308763 1.8730001
-0.12843429 0.45308763 1.8730001
-0.12553334 0.45550668 1.8830001
-0.12265905 0.45816764 1.8940001
-0.11968 0.4605867 1.904
-0.11605334 0.4605867 1.904
-0.11242667 0.4605867 1.904
-0.10942858 0.46324763 1.9150001
-0.10578096 0.46324763 1.9150001
-0.10213333 0.46324763 1.9150001
-0.098485716 0.46324763 1.9150001
-0.094838098 0.46324763 1.9150001
-0.09119048 0.46324763 1.9150001
-0.087542862 0.46324763 1.9150001
-0.084333338 0.46566668 1.9250001
-0.080666669 0.46566668 1.9250001
-0.077 0.46566668 1.9250001
-0.073752381 0.46832764 1.9360001
-0.070064768 0.46832764 1.9360001
-0.066754289 0.4709886 1.9470001
-0.063045718 0.4709886 1.9470001
-0.059337147 0.4709886 1.9470001
-0.05594286 0.47364953 1.9580001
-0.052213334 0.47364953 1.9580001
-0.048483811 0.47364953 1.9580001
-0.044754289 0.47364953 1.9580001
-0.041255239 0.47631049 1.9690001
-0.037504762 0.47631049 1.9690001
-0.03394286 0.47897145 1.9800001
-0.030354287 0.48187432 1.9920001
-0.026560001 0.48187432 1.9920001
-0.022765715 0.48187432 1.9920001
-0.01897143 0.48187432 1.9920001
-0.015177144 0.48187432 1.9920001
-0.011445715 0.48453525 2.003
-0.0076304763 0.48453525 2.003
-0.0038380953 0.48743811 2.0150001
0 0.48743811 2.0150001
0.0038609526 0.49034098 2.0270002
0.0077676196 0.49324381 2.039
0.011720001 0.49614668 2.0510001
0.015626667 0.49614668 2.0510001
0.019533334 0.49614668 2.0510001
0.023440002 0.49614668 2.0510001
0.027346667 0.49614668 2.0510001
0.031253334 0.49614668 2.0510001
0.035365716 0.49904954 2.0630002
0.039295241 0.49904954 2.0630002
0.043224763 0.49904954 2.0630002
0.047154289 0.49904954 2.0630002
0.051405717 0.50219429 2.0760002
0.055360001 0.50219429 2.0760002
0.059314288 0.50219429 2.0760002
0.063634291 0.50509715 2.0880001
0.068032384 0.50824195 2.1010001
0.072034292 0.50824195 2.1010001
0.076036192 0.50824195 2.1010001
0.0800381 0.50824195 2.1010001
0.084040001 0.50824195 2.1010001
0.088586673 0.51138669 2.1140001
0.092613339 0.51138669 2.1140001
0.096640006 0.51138669 2.1140001
0.10066667 0.51138669 2.1140001
0.10533715 0.51453143 2.1270001
0.10938857 0.51453143 2.1270001
0.11344001 0.51453143 2.1270001
0.11820953 0.51767623 2.1400001
0.12302858 0.52082098 2.1530001
0.12712952 0.52082098 2.1530001
0.13123049 0.52082098 2.1530001
0.13533144 0.52082098 2.1530001
0.14033905 0.52420765 2.1670001
0.14446667 0.52420765 2.1670001
0.14859429 0.52420765 2.1670001
0.15272191 0.52420765 2.1670001
0.15786286 0.52759433 2.181
0.16201715 0.52759433 2.181
0.16617143 0.52759433 2.181
0.17134096 0.53073907 2.194
0.17552 0.53073907 2.194
0.18084572 0.53412575 2.2080002
0.18505144 0.53412575 2.2080002
0.19054286 0.5377543 2.223
0.19477715 0.5377543 2.223
0.19901143 0.5377543 2.223
0.20324573 0.5377543 2.223
0.20748001 0.5377543 2.223
0.2117143 0.5377543 2.223
0.21730858 0.54114097 2.237
0.22156954 0.54114097 2.237
0.22734477 0.54476953 2.2520001
0.23163429 0.54476953 2.2520001
0.23739049 0.5481562 2.266
0.24170667 0.5481562 2.266
0.24602287 0.5481562 2.266
0.25199619 0.55178475 2.2810001
0.25634095 0.55178475 2.2810001
0.26068571 0.55178475 2.2810001
0.26503047 0.55178475 2.2810001
0.27126476 0.55565524 2.2970002
0.27564001 0.55565524 2.2970002
0.28184381 0.55928385 2.312
0.28810477 0.5629124 2.3270001
0.29253715 0.5629124 2.3270001
0.29901144 0.56678289 2.3430002
0.30347431 0.56678289 2.3430002
0.30793715 0.56678289 2.3430002
0.31453335 0.57065338 2.3590002
0.31902668 0.57065338 2.3590002
0.32352 0.57065338 2.3590002
0.33037716 0.57476574 2.3760002
0.33490288 0.57476574 2.3760002
0.34171429 0.57863623 2.3920002
0.3462705 0.57863623 2.3920002
0.35082668 0.57863623 2.3920002
0.35538286 0.57863623 2.3920002
-0.43101716 0.50614858 2.0760002
-0.42706287 0.50614858 2.0760002
-0.42310858 0.50614858 2.0760002
-0.41652954 0.50297904 2.0630002
-0.41020003 0.50005335 2.0510001
-0.40629336 0.50005335 2.0510001
-0.4023867 0.50005335 2.0510001
-0.39848003 0.50005335 2.0510001
-0.39457336 0.50005335 2.0510001
-0.39066669 0.50005335 2.0510001
-0.38449717 0.49712765 2.039
-0.38061336 0.49712765 2.039
-0.37672955 0.49712765 2.039
-0.37065145 0.49420193 2.0270002
-0.3667905 0.49420193 2.0270002
-0.36078095 0.4912762 2.0150001
-0.35694286 0.4912762 2.0150001
-0.35310477 0.4912762 2.0150001
-0.34718668 0.48835048 2.003
-0.34337145 0.48835048 2.003
-0.33769143 0.4856686 1.9920001
-0.33389714 0.4856686 1.9920001
-0.33010286 0.4856686 1.9920001
-0.32630858 0.4856686 1.9920001
-0.3225143 0.4856686 1.9920001
-0.31872001 0.4856686 1.9920001
-0.31302857 0.48274288 1.9800001
-0.30925715 0.48274288 1.9800001
-0.30548573 0.48274288 1.9800001
-0.3000381 0.48006096 1.9690001
-0.29628763 0.48006096 1.9690001
-0.29090285 0.47737905 1.9580001
-0.28717333 0.47737905 1.9580001
-0.28344381 0.47737905 1.9580001
-0.27814287 0.47469717 1.9470001
-0.2744343 0.47469717 1.9470001
-0.26919621 0.47201526 1.9360001
-0.26550859 0.47201526 1.9360001
-0.26182097 0.47201526 1.9360001
-0.25666669 0.46933335 1.9250001
-0.25168571 0.46689525 1.9150001
-0.2480381 0.46689525 1.9150001
-0.24439049 0.46689525 1.9150001
-0.23936 0.46421334 1.904
-0.23449525 0.46177524 1.8940001
-0.22954668 0.45909336 1.8830001
-0.22596 0.45909336 1.8830001
-0.22119239 0.45665526 1.8730001
-0.21762477 0.45665526 1.8730001
-0.21405715 0.45665526 1.8730001
-0.21048953 0.45665526 1.8730001
-0.20692191 0.45665526 1.8730001
-0.2033543 0.45665526 1.8730001
-0.19978668 0.45665526 1.8730001
-0.19517143 0.45421717 1.863
-0.19059429 0.45177907 1.853
-0.18706477 0.45177907 1.853
-0.18254477 0.44934097 1.8430001
-0.17903429 0.44934097 1.8430001
-0.17552382 0.44934097 1.8430001
-0.17108001 0.44690287 1.8330001
-0.16758858 0.44690287 1.8330001
-0.16409715 0.44690287 1.8330001
-0.16060571 0.44690287 1.8330001
-0.1571143 0.44690287 1.8330001
-0.15362287 0.44690287 1.8330001
-0.15095048 0.44934097 1.8430001
-0.14744 0.44934097 1.8430001
-0.14471048 0.45177907 1.853
-0.14194286 0.45421717 1.863
-0.1383943 0.45421717 1.863
-0.13556953 0.45665526 1.8730001
-0.13200191 0.45665526 1.8730001
-0.12843429 0.45665526 1.8730001
-0.12553334 0.45909336 1.8830001
-0.12265905 0.46177524 1.8940001
-0.11905143 0.46177524 1.8940001
-0.11605334 0.46421334 1.904
-0.11242667 0.46421334 1.904
-0.10942858 0.46689525 1.9150001
-0.10578096 0.46689525 1.9150001
-0.10213333 0.46689525 1.9150001
-0.098485716 0.46689525 1.9150001
-0.094838098 0.46689525 1.9150001
-0.09119048 0.46689525 1.9150001
-0.087542862 0.46689525 1.9150001
-0.083895244 0.46689525 1.9150001
-0.080247626 0.46689525 1.9150001
-0.077 0.46933335 1.9250001
-0.073333338 0.46933335 1.9250001
-0.070064768 0.47201526 1.9360001
-0.066754289 0.47469717 1.9470001
-0.063045718 0.47469717 1.9470001
-0.059337147 0.47469717 1.9470001
-0.055628572 0.47469717 1.9470001
-0.052213334 0.47737905 1.9580001
-0.048483811 0.47737905 1.9580001
-0.044754289 0.47737905 1.9580001
-0.041255239 0.48006096 1.9690001
-0.037504762 0.48006096 1.9690001
-0.03394286 0.48274288 1.9800001
-0.03017143 0.48274288 1.9800001
-0.026400002 0.48274288 1.9800001
-0.022765715 0.4856686 1.9920001
-0.01897143 0.4856686 1.9920001
-0.015260953 0.48835048 2.003
-0.011445715 0.48835048 2.003
-0.0076761907 0.4912762 2.0150001
-0.0038380953 0.4912762 2.0150001
0 0.49420193 2.0270002
0.0038609526 0.49420193 2.0270002
0.0077676196 0.49712765 2.039
0.011720001 0.50005335 2.0510001
0.015626667 0.50005335 2.0510001
0.019533334 0.50005335 2.0510001
0.023440002 0.50005335 2.0510001
0.027346667 0.50005335 2.0510001
0.03143619 0.50297904 2.0630002
0.035365716 0.50297904 2.0630002
0.039295241 0.50297904 2.0630002
0.043224763 0.50297904 2.0630002
0.047154289 0.50297904 2.0630002
0.051405717 0.50614858 2.0760002
0.055360001 0.50614858 2.0760002
0.059657145 0.50907433 2.0880001
0.063634291 0.50907433 2.0880001
0.068032384 0.51224381 2.1010001
0.072034292 0.51224381 2.1010001
0.076036192 0.51224381 2.1010001
0.080533333 0.51541334 2.1140001
0.084040001 0.51224381 2.1010001
0.088586673 0.51541334 2.1140001
0.092613339 0.51541334 2.1140001
0.096640006 0.51541334 2.1140001
0.10066667 0.51541334 2.1140001
0.10533715 0.51858288 2.1270001
0.10938857 0.51858288 2.1270001
0.11344001 0.51858288 2.1270001
0.11820953 0.52175242 2.1400001
0.12302858 0.52492195 2.1530001
0.12712952 0.52492195 2.1530001
0.13123049 0.52492195 2.1530001
0.13533144 0.52492195 2.1530001
0.14033905 0.52833527 2.1670001
0.14446667 0.52833527 2.1670001
0.14859429 0.52833527 2.1670001
0.15370858 0.53174859 2.181
0.15786286 0.53174859 2.181
0.16298287 0.53491813 2.194
0.16716191 0.53491813 2.194
0.17134096 0.53491813 2.194
0.17664 0.53833145 2.2080002
0.18084572 0.53833145 2.2080002
0.18505144 0.53833145 2.2080002
0.19054286 0.54198861 2.223
0.19477715 0.54198861 2.223
0.19901143 0.54198861 2.223
0.20324573 0.54198861 2.223
0.20748001 0.54198861 2.223
0.21304762 0.54540193 2.237
0.21876572 0.54905909 2.2520001
0.22305524 0.54905909 2.2520001
0.22734477 0.54905909 2.2520001
0.23307429 0.55247241 2.266
0.23739049 0.55247241 2.266
0.24170667 0.55247241 2.266
0.24602287 0.55247241 2.266
0.25199619 0.55612952 2.2810001
0.25634095 0.55612952 2.2810001
0.26068571 0.55612952 2.2810001
0.26688954 0.56003052 2.2970002
0.27126476 0.56003052 2.2970002
0.27744001 0.56368762 2.312
0.28184381 0.56368762 2.312
0.28810477 0.56734478 2.3270001
0.29253715 0.56734478 2.3270001
0.29901144 0.57124573 2.3430002
0.30347431 0.57124573 2.3430002
0.31004 0.57514668 2.3590002
0.31453335 0.57514668 2.3590002
0.32132572 0.57929146 2.3760002
0.32585144 0.57929146 2.3760002
0.33037716 0.57929146 2.3760002
-0.43101716 0.51010287 2.0760002
-0.42438859 0.5069086 2.0630002
-0.42045906 0.5069086 2.0630002
-0.41652954 0.5069086 2.0630002
-0.41020003 0.50396001 2.0510001
-0.40629336 0.50396001 2.0510001
-0.4023867 0.50396001 2.0510001
-0.39848003 0.50396001 2.0510001
-0.39457336 0.50396001 2.0510001
-0.38838097 0.50101143 2.039
-0.38449717 0.50101143 2.039
-0.38061336 0.50101143 2.039
-0.37672955 0.50101143 2.039
-0.37284574 0.50101143 2.039
-0.36896193 0.50101143 2.039
-0.36292952 0.49806288 2.0270002
-0.35694286 0.4951143 2.0150001
-0.35310477 0.4951143 2.0150001
-0.34718668 0.49216574 2.003
-0.34337145 0.49216574 2.003
-0.33769143 0.48946288 1.9920001
-0.33389714 0.48946288 1.9920001
-0.33010286 0.48946288 1.9920001
-0.32630858 0.48946288 1.9920001
-0.3225143 0.48946288 1.9920001
-0.31872001 0.48946288 1.9920001
-0.31302857 0.4865143 1.9800001
-0.30925715 0.4865143 1.9800001
-0.30548573 0.4865143 1.9800001
-0.3000381 0.48381144 1.9690001
-0.29628763 0.48381144 1.9690001
-0.29090285 0.48110858 1.9580001
-0.28717333 0.48110858 1.9580001
-0.28344381 0.48110858 1.9580001
-0.27814287 0.47840574 1.9470001
-0.2744343 0.47840574 1.9470001
-0.26919621 0.47570288 1.9360001
-0.26550859 0.47570288 1.9360001
-0.26182097 0.47570288 1.9360001
-0.25533333 0.47054288 1.9150001
-0.25168571 0.47054288 1.9150001
-0.2480381 0.47054288 1.9150001
-0.24298668 0.46784002 1.904
-0.23810287 0.46538287 1.8940001
-0.23449525 0.46538287 1.8940001
-0.22954668 0.46268001 1.8830001
-0.22596 0.46268001 1.8830001
-0.22119239 0.46022287 1.8730001
-0.21878667 0.46268001 1.8830001
-0.21405715 0.46022287 1.8730001
-0.21048953 0.46022287 1.8730001
-0.20692191 0.46022287 1.8730001
-0.2033543 0.46022287 1.8730001
-0.19978668 0.46022287 1.8730001
-0.19517143 0.45776573 1.863
-0.19162287 0.45776573 1.863
-0.18706477 0.45530859 1.853
-0.18353525 0.45530859 1.853
-0.17903429 0.45285144 1.8430001
-0.17552382 0.45285144 1.8430001
-0.17108001 0.4503943 1.8330001
-0.16758858 0.4503943 1.8330001
-0.16409715 0.4503943 1.8330001
-0.16060571 0.4503943 1.8330001
-0.1571143 0.4503943 1.8330001
-0.15362287 0.4503943 1.8330001
-0.15013143 0.4503943 1.8330001
-0.14744 0.45285144 1.8430001
-0.14471048 0.45530859 1.853
-0.14194286 0.45776573 1.863
-0.1383943 0.45776573 1.863
-0.13484572 0.45776573 1.863
-0.13129714 0.45776573 1.863
-0.12843429 0.46022287 1.8730001
-0.12486667 0.46022287 1.8730001
-0.12194667 0.46268001 1.8830001
-0.11905143 0.46538287 1.8940001
-0.11544381 0.46538287 1.8940001
-0.11242667 0.46784002 1.904
-0.10942858 0.47054288 1.9150001
-0.10578096 0.47054288 1.9150001
-0.10213333 0.47054288 1.9150001
-0.098485716 0.47054288 1.9150001
-0.094838098 0.47054288 1.9150001
-0.09119048 0.47054288 1.9150001
-0.087542862 0.47054288 1.9150001
-0.084333338 0.47300002 1.9250001
-0.080666669 0.47300002 1.9250001
-0.077 0.47300002 1.9250001
-0.073333338 0.47300002 1.9250001
-0.070064768 0.47570288 1.9360001
-0.066754289 0.47840574 1.9470001
-0.063045718 0.47840574 1.9470001
-0.059337147 0.47840574 1.9470001
-0.05594286 0.48110858 1.9580001
-0.052213334 0.48110858 1.9580001
-0.048483811 0.48110858 1.9580001
-0.044754289 0.48110858 1.9580001
-0.041255239 0.48381144 1.9690001
-0.037504762 0.48381144 1.9690001
-0.034148574 0.48946288 1.9920001
-0.030354287 0.48946288 1.9920001
-0.026400002 0.4865143 1.9800001
-0.022765715 0.48946288 1.9920001
-0.01897143 0.48946288 1.9920001
-0.015260953 0.49216574 2.003
-0.011445715 0.49216574 2.003
-0.0076304763 0.49216574 2.003
-0.0038380953 0.4951143 2.0150001
0 0.4951143 2.0150001
0.0038609526 0.49806288 2.0270002
0.0077676196 0.50101143 2.039
0.011651429 0.50101143 2.039
0.015626667 0.50396001 2.0510001
0.019533334 0.50396001 2.0510001
0.023440002 0.50396001 2.0510001
0.027346667 0.50396001 2.0510001
0.03143619 0.5069086 2.0630002
0.035365716 0.5069086 2.0630002
0.039295241 0.5069086 2.0630002
0.043224763 0.5069086 2.0630002
0.047154289 0.5069086 2.0630002
0.051083811 0.5069086 2.0630002
0.055360001 0.51010287 2.0760002
0.059314288 0.51010287 2.0760002
0.063634291 0.51305145 2.0880001
0.068032384 0.51624572 2.1010001
0.072034292 0.51624572 2.1010001
0.076036192 0.51624572 2.1010001
0.080533333 0.51944 2.1140001
0.084559999 0.51944 2.1140001
0.088586673 0.51944 2.1140001
0.092613339 0.51944 2.1140001
0.096640006 0.51944 2.1140001
0.10066667 0.51944 2.1140001
0.10533715 0.52263433 2.1270001
0.10938857 0.52263433 2.1270001
0.11344001 0.52263433 2.1270001
0.11820953 0.5258286 2.1400001
0.12302858 0.52902287 2.1530001
0.12712952 0.52902287 2.1530001
0.13123049 0.52902287 2.1530001
0.13533144 0.52902287 2.1530001
0.13943239 0.52902287 2.1530001
0.14446667 0.53246289 2.1670001
0.14859429 0.53246289 2.1670001
0.15272191 0.53246289 2.1670001
0.15786286 0.53590286 2.181
0.16298287 0.53909719 2.194
0.16716191 0.53909719 2.194
0.17134096 0.53909719 2.194
0.17664 0.54253715 2.2080002
0.18084572 0.54253715 2.2080002
0.18630858 0.54622287 2.223
0.19054286 0.54622287 2.223
0.19477715 0.54622287 2.223
0.19901143 0.54622287 2.223
0.20324573 0.54622287 2.223
0.20748001 0.54622287 2.223
0.21304762 0.54966289 2.237
0.21730858 0.54966289 2.237
0.22156954 0.54966289 2.237
0.22734477 0.5533486 2.2520001
0.23163429 0.5533486 2.2520001
0.23739049 0.55678856 2.266
0.24170667 0.55678856 2.266
0.24602287 0.55678856 2.266
0.25199619 0.56047428 2.2810001
0.25634095 0.56047428 2.2810001
0.26068571 0.56047428 2.2810001
0.26688954 0.56440574 2.2970002
0.27126476 0.56440574 2.2970002
0.27744001 0.56809145 2.312
0.28184381 0.56809145 2.312
0.28810477 0.57177716 2.3270001
0.29253715 0.57177716 2.3270001
0.29901144 0.57570857 2.3430002
0.30347431 0.57570857 2.3430002
0.31004 0.57964003 2.3590002
-0.43101716 0.51405716 2.0760002
-0.42706287 0.51405716 2.0760002
-0.42045906 0.51083809 2.0630002
-0.41652954 0.51083809 2.0630002
-0.41020003 0.50786668 2.0510001
-0.40629336 0.50786668 2.0510001
-0.4023867 0.50786668 2.0510001
-0.39848003 0.50786668 2.0510001
-0.39457336 0.50786668 2.0510001
-0.38838097 0.50489527 2.039
-0.38449717 0.50489527 2.039
-0.38061336 0.50489527 2.039
-0.37672955 0.50489527 2.039
-0.37284574 0.50489527 2.039
-0.36896193 0.50489527 2.039
-0.36292952 0.5019238 2.0270002
-0.35694286 0.49895239 2.0150001
-0.35310477 0.49895239 2.0150001
-0.34718668 0.49598098 2.003
-0.34337145 0.49598098 2.003
-0.33769143 0.49325716 1.9920001
-0.33389714 0.49325716 1.9920001
-0.33010286 0.49325716 1.9920001
-0.32630858 0.49325716 1.9920001
-0.3225143 0.49325716 1.9920001
-0.3168 0.49028572 1.9800001
-0.31302857 0.49028572 1.9800001
-0.30753905 0.48756191 1.9690001
-0.30378857 0.48756191 1.9690001
-0.3000381 0.48756191 1.9690001
-0.29628763 0.48756191 1.9690001
-0.29090285 0.4848381 1.9580001
-0.28717333 0.4848381 1.9580001
-0.28185144 0.48211432 1.9470001
-0.27814287 0.48211432 1.9470001
-0.2744343 0.48211432 1.9470001
-0.27072573 0.48211432 1.9470001
-0.26550859 0.4793905 1.9360001
-0.26182097 0.4793905 1.9360001
-0.25666669 0.47666669 1.9250001
-0.25168571 0.4741905 1.9150001
-0.2480381 0.4741905 1.9150001
-0.24298668 0.47146669 1.904
-0.23810287 0.4689905 1.8940001
-0.23449525 0.4689905 1.8940001
-0.22832763 0.46379051 1.8730001
-0.22596 0.46626669 1.8830001
-0.22119239 0.46379051 1.8730001
-0.21878667 0.46626669 1.8830001
-0.21520001 0.46626669 1.8830001
-0.21161334 0.46626669 1.8830001
-0.20692191 0.46379051 1.8730001
-0.2033543 0.46379051 1.8730001
-0.19978668 0.46379051 1.8730001
-0.19621906 0.46379051 1.8730001
-0.19162287 0.46131429 1.863
-0.18706477 0.45883811 1.853
-0.18353525 0.45883811 1.853
-0.17903429 0.45636192 1.8430001
-0.17552382 0.45636192 1.8430001
-0.17108001 0.45388573 1.8330001
-0.16758858 0.45388573 1.8330001
-0.16409715 0.45388573 1.8330001
-0.16060571 0.45388573 1.8330001
-0.1571143 0.45388573 1.8330001
-0.15362287 0.45388573 1.8330001
-0.15095048 0.45636192 1.8430001
-0.14744 0.45636192 1.8430001
-0.14471048 0.45883811 1.853
-0.14194286 0.46131429 1.863
-0.1383943 0.46131429 1.863
-0.13484572 0.46131429 1.863
-0.13129714 0.46131429 1.863
-0.12843429 0.46379051 1.8730001
-0.12486667 0.46379051 1.8730001
-0.12129905 0.46379051 1.8730001
-0.11905143 0.4689905 1.8940001
-0.11544381 0.4689905 1.8940001
-0.11242667 0.47146669 1.904
-0.10942858 0.4741905 1.9150001
-0.10578096 0.4741905 1.9150001
-0.10213333 0.4741905 1.9150001
-0.098485716 0.4741905 1.9150001
-0.094838098 0.4741905 1.9150001
-0.09119048 0.4741905 1.9150001
-0.087542862 0.4741905 1.9150001
-0.084333338 0.47666669 1.9250001
-0.080666669 0.47666669 1.9250001
-0.077 0.47666669 1.9250001
-0.073333338 0.47666669 1.9250001
-0.070064768 0.4793905 1.9360001
-0.066377148 0.4793905 1.9360001
-0.063045718 0.48211432 1.9470001
-0.059337147 0.48211432 1.9470001
-0.055628572 0.48211432 1.9470001
-0.052213334 0.4848381 1.9580001
-0.048483811 0.4848381 1.9580001
-0.044754289 0.4848381 1.9580001
-0.041255239 0.48756191 1.9690001
-0.037504762 0.48756191 1.9690001
-0.034148574 0.49325716 1.9920001
-0.03017143 0.49028572 1.9800001
-0.026400002 0.49028572 1.9800001
-0.022765715 0.49325716 1.9920001
-0.01897143 0.49325716 1.9920001
-0.015260953 0.49598098 2.003
-0.011445715 0.49598098 2.003
-0.0076304763 0.49598098 2.003
-0.0038380953 0.49895239 2.0150001
0 0.49895239 2.0150001
0.0038609526 0.5019238 2.0270002
0.0077219051 0.5019238 2.0270002
0.011651429 0.50489527 2.039
0.015626667 0.50786668 2.0510001
0.019533334 0.50786668 2.0510001
0.023440002 0.50786668 2.0510001
0.027346667 0.50786668 2.0510001
0.03143619 0.51083809 2.0630002
0.035365716 0.51083809 2.0630002
0.039295241 0.51083809 2.0630002
0.043224763 0.51083809 2.0630002
0.047154289 0.51083809 2.0630002
0.051083811 0.51083809 2.0630002
0.055360001 0.51405716 2.0760002
0.059314288 0.51405716 2.0760002
0.063634291 0.51702857 2.0880001
0.068032384 0.52024764 2.1010001
0.072034292 0.52024764 2.1010001
0.076036192 0.52024764 2.1010001
0.080533333 0.52346671 2.1140001
0.084559999 0.52346671 2.1140001
0.088586673 0.52346671 2.1140001
0.092613339 0.52346671 2.1140001
0.096640006 0.52346671 2.1140001
0.10066667 0.52346671 2.1140001
0.10469334 0.52346671 2.1140001
0.10938857 0.52668571 2.1270001
0.11344001 0.52668571 2.1270001
0.11820953 0.52990478 2.1400001
0.12302858 0.53312385 2.1530001
0.12712952 0.53312385 2.1530001
0.13123049 0.53312385 2.1530001
0.13533144 0.53312385 2.1530001
0.13943239 0.53312385 2.1530001
0.14353333 0.53312385 2.1530001
0.14859429 0.53659052 2.1670001
0.15272191 0.53659052 2.1670001
0.15786286 0.54005718 2.181
0.16298287 0.54327619 2.194
0.16716191 0.54327619 2.194
0.17134096 0.54327619 2.194
0.17664 0.54674286 2.2080002
0.18084572 0.54674286 2.2080002
0.18505144 0.54674286 2.2080002
0.19054286 0.55045718 2.223
0.19477715 0.55045718 2.223
0.19901143 0.55045718 2.223
0.20324573 0.55045718 2.223
0.20748001 0.55045718 2.223
0.2117143 0.55045718 2.223
0.21730858 0.55392385 2.237
0.22156954 0.55392385 2.237
0.22583048 0.55392385 2.237
0.23163429 0.55763811 2.2520001
0.23739049 0.56110477 2.266
0.24170667 0.56110477 2.266
0.24602287 0.56110477 2.266
0.25199619 0.5648191 2.2810001
0.25634095 0.5648191 2.2810001
0.26068571 0.5648191 2.2810001
0.26688954 0.56878096 2.2970002
0.27126476 0.56878096 2.2970002
0.27744001 0.57249528 2.312
0.28184381 0.57249528 2.312
0.28810477 0.57620955 2.3270001
0.29253715 0.57620955 2.3270001
0.29901144 0.58017147 2.3430002
0.30347431 0.58017147 2.3430002
-0.42831811 0.51476765 2.0630002
-0.42438859 0.51476765 2.0630002
-0.42045906 0.51476765 2.0630002
-0.41652954 0.51476765 2.0630002
-0.41020003 0.51177335 2.0510001
-0.40629336 0.51177335 2.0510001
-0.4023867 0.51177335 2.0510001
-0.39848003 0.51177335 2.0510001
-0.39457336 0.51177335 2.0510001
-0.39066669 0.51177335 2.0510001
-0.38449717 0.50877905 2.039
-0.38061336 0.50877905 2.039
-0.37672955 0.50877905 2.039
-0.37284574 0.50877905 2.039
-0.36896193 0.50877905 2.039
-0.36292952 0.50578481 2.0270002
-0.35694286 0.50279051 2.0150001
-0.35310477 0.50279051 2.0150001
-0.34718668 0.49979621 2.003
-0.34337145 0.49979621 2.003
-0.33769143 0.49705145 1.9920001
-0.33389714 0.49705145 1.9920001
-0.33010286 0.49705145 1.9920001
-0.32630858 0.49705145 1.9920001
-0.3225143 0.49705145 1.9920001
-0.3168 0.49405715 1.9800001
-0.31128955 0.49131238 1.9690001
-0.30753905 0.49131238 1.9690001
-0.30378857 0.49131238 1.9690001
-0.3000381 0.49131238 1.9690001
-0.29463241 0.48856765 1.9580001
-0.29090285 0.48856765 1.9580001
-0.28717333 0.48856765 1.9580001
-0.28185144 0.48582289 1.9470001
-0.27814287 0.48582289 1.9470001
-0.2744343 0.48582289 1.9470001
-0.27072573 0.48582289 1.9470001
-0.26550859 0.48307812 1.9360001
-0.26182097 0.48307812 1.9360001
-0.25666669 0.48033336 1.9250001
-0.25168571 0.4778381 1.9150001
-0.2480381 0.4778381 1.9150001
-0.24439049 0.4778381 1.9150001
-0.23936 0.47509336 1.904
-0.23573335 0.47509336 1.904
-0.23210667 0.47509336 1.904
-0.22728001 0.47259811 1.8940001
-0.22367239 0.47259811 1.8940001
-0.22006477 0.47259811 1.8940001
-0.21645714 0.47259811 1.8940001
-0.21161334 0.46985334 1.8830001
-0.20802668 0.46985334 1.8830001
-0.2033543 0.46735811 1.8730001
-0.19978668 0.46735811 1.8730001
-0.19621906 0.46735811 1.8730001
-0.19162287 0.46486288 1.863
-0.18706477 0.46236762 1.853
-0.18353525 0.46236762 1.853
-0.17903429 0.45987239 1.8430001
-0.17552382 0.45987239 1.8430001
-0.17108001 0.45737717 1.8330001
-0.16850287 0.45987239 1.8430001
-0.16409715 0.45737717 1.8330001
-0.16060571 0.45737717 1.8330001
-0.1571143 0.45737717 1.8330001
-0.15362287 0.45737717 1.8330001
-0.15095048 0.45987239 1.8430001
-0.14744 0.45987239 1.8430001
-0.14471048 0.46236762 1.853
-0.14194286 0.46486288 1.863
-0.1383943 0.46486288 1.863
-0.13484572 0.46486288 1.863
-0.13129714 0.46486288 1.863
-0.12843429 0.46735811 1.8730001
-0.12486667 0.46735811 1.8730001
-0.12194667 0.46985334 1.8830001
-0.11905143 0.47259811 1.8940001
-0.11605334 0.47509336 1.904
-0.11242667 0.47509336 1.904
-0.10942858 0.4778381 1.9150001
-0.10578096 0.4778381 1.9150001
-0.10213333 0.4778381 1.9150001
-0.098485716 0.4778381 1.9150001
-0.094838098 0.4778381 1.9150001
-0.09119048 0.4778381 1.9150001
-0.087542862 0.4778381 1.9150001
-0.083895244 0.4778381 1.9150001
-0.080666669 0.48033336 1.9250001
-0.077 0.48033336 1.9250001
-0.073333338 0.48033336 1.9250001
-0.069666669 0.48033336 1.9250001
-0.066377148 0.48307812 1.9360001
-0.062689528 0.48307812 1.9360001
-0.059337147 0.48582289 1.9470001
-0.055628572 0.48582289 1.9470001
-0.05192 0.48582289 1.9470001
-0.048483811 0.48856765 1.9580001
-0.044754289 0.48856765 1.9580001
-0.041255239 0.49131238 1.9690001
-0.037504762 0.49131238 1.9690001
-0.034148574 0.49705145 1.9920001
-0.030354287 0.49705145 1.9920001
-0.026400002 0.49405715 1.9800001
