# .PCD v0.7 - Point Cloud Data file format
VERSION 0.7
FIELDS x y z
SIZE 4 4 4
TYPE F F F
COUNT 1 1 1
WIDTH 1414
HEIGHT 1
VIEWPOINT 0 0 0 1 0 0 0
POINTS 1414
DATA ascii
0.18616191 -0.023693334 1.7770001
0.18858667 -0.023573333 1.7680001
0.1919543 -0.023573333 1.7680001
0.19432762 -0.023453334 1.7590001
0.1976781 -0.023453334 1.7590001
0.20102859 -0.023453334 1.7590001
0.20437905 -0.023453334 1.7590001
0.20666668 -0.023333333 1.7500001
0.21000001 -0.023333333 1.7500001
0.2122362 -0.023213334 1.7410001
0.21555239 -0.023213334 1.7410001
0.21773715 -0.023093333 1.7320001
0.2210362 -0.023093333 1.7320001
0.22433525 -0.023093333 1.7320001
0.2276343 -0.023093333 1.7320001
0.22973335 -0.022973334 1.723
0.23301524 -0.022973334 1.723
0.23629715 -0.022973334 1.723
0.23846668 -0.022866668 1.715
0.24046478 -0.022746667 1.7060001
0.24257144 -0.022640001 1.6980001
0.24580573 -0.022640001 1.6980001
0.24904001 -0.022640001 1.6980001
0.25108573 -0.022533335 1.6900001
0.25430477 -0.022533335 1.6900001
0.2575238 -0.022533335 1.6900001
0.25935429 -0.022413334 1.6810001
0.2625562 -0.022413334 1.6810001
0.26449335 -0.022306668 1.6730001
0.26768002 -0.022306668 1.6730001
0.26957145 -0.022200001 1.6650001
0.27274287 -0.022200001 1.6650001
0.27591428 -0.022200001 1.6650001
0.27908573 -0.022200001 1.6650001
0.28225714 -0.022200001 1.6650001
0.28542858 -0.022200001 1.6650001
0.2886 -0.022200001 1.6650001
0.29177144 -0.022200001 1.6650001
0.29636002 -0.022306668 1.6730001
0.29954669 -0.022306668 1.6730001
0.30273333 -0.022306668 1.6730001
0.30738288 -0.022413334 1.6810001
0.31058478 -0.022413334 1.6810001
0.31378669 -0.022413334 1.6810001
0.31868574 -0.022533335 1.6900001
0.32190478 -0.022533335 1.6900001
0.32512382 -0.022533335 1.6900001
0.32989717 -0.022640001 1.6980001
0.33313143 -0.022640001 1.6980001
0.33636573 -0.022640001 1.6980001
0.34120002 -0.022746667 1.7060001
0.34444955 -0.022746667 1.7060001
0.34953335 -0.022866668 1.715
0.35444573 -0.022973334 1.723
0.35772765 -0.022973334 1.723
0.36100954 -0.022973334 1.723
0.36429143 -0.022973334 1.723
0.36949334 -0.023093333 1.7320001
0.37279239 -0.023093333 1.7320001
0.37609145 -0.023093333 1.7320001
0.37939048 -0.023093333 1.7320001
0.38268954 -0.023093333 1.7320001
0.38598859 -0.023093333 1.7320001
0.39131048 -0.023213334 1.7410001
0.39462668 -0.023213334 1.7410001
0.39794287 -0.023213334 1.7410001
0.40125906 -0.023213334 1.7410001
0.4066667 -0.023333333 1.7500001
0.41000003 -0.023333333 1.7500001
0.41545907 -0.023453334 1.7590001
0.41880953 -0.023453334 1.7590001
0.42216003 -0.023453334 1.7590001
0.42768764 -0.023573333 1.7680001
0.43105525 -0.023573333 1.7680001
0.43442288 -0.023573333 1.7680001
0.43779048 -0.023573333 1.7680001
0.44340384 -0.023693334 1.7770001
0.44678858 -0.023693334 1.7770001
0.45245335 -0.023813333 1.7860001
0.45585525 -0.023813333 1.7860001
0.45925716 -0.023813333 1.7860001
0.46265906 -0.023813333 1.7860001
0.46606097 -0.023813333 1.7860001
0.47182858 -0.023933334 1.7950001
0.47524765 -0.023933334 1.7950001
0.47866669 -0.023933334 1.7950001
0.48208573 -0.023933334 1.7950001
0.48793906 -0.024053333 1.8040001
0.49137527 -0.024053333 1.8040001
0.4975543 -0.024186667 1.8140001
0.50100952 -0.024186667 1.8140001
0.50446481 -0.024186667 1.8140001
0.51072001 -0.024320001 1.8240001
0.51419431 -0.024320001 1.8240001
0.5202229 -0.024440002 1.8330001
0.5237143 -0.024440002 1.8330001
0.52720571 -0.024440002 1.8330001
0.53069717 -0.024440002 1.8330001
0.53418857 -0.024440002 1.8330001
0.54061335 -0.024573334 1.8430001
0.54412383 -0.024573334 1.8430001
0.5476343 -0.024573334 1.8430001
0.55114478 -0.024573334 1.8430001
0.55465525 -0.024573334 1.8430001
0.55816573 -0.024573334 1.8430001
0.55862862 -0.024440002 1.8330001
0.56212002 -0.024440002 1.8330001
-0.26701716 -0.027154287 2.3760002
-0.26249143 -0.027154287 2.3760002
-0.25796571 -0.027154287 2.3760002
-0.25162667 -0.02696 2.3590002
-0.24713334 -0.02696 2.3590002
-0.24264 -0.02696 2.3590002
-0.23653144 -0.026777145 2.3430002
-0.23048382 -0.026594287 2.3270001
-0.2245943 -0.026422858 2.312
-0.22019048 -0.026422858 2.312
-0.21578668 -0.026422858 2.312
-0.21138287 -0.026422858 2.312
-0.20697905 -0.026422858 2.312
-0.20257525 -0.026422858 2.312
-0.19945715 -0.026594287 2.3270001
-0.19376762 -0.026422858 2.312
-0.18813525 -0.02625143 2.2970002
-0.18376 -0.02625143 2.2970002
-0.17813525 -0.026068572 2.2810001
-0.17264763 -0.025897143 2.266
-0.16833143 -0.025897143 2.266
-0.16300191 -0.025737144 2.2520001
-0.15871239 -0.025737144 2.2520001
-0.15243429 -0.025405716 2.223
-0.1472 -0.025234286 2.2080002
-0.14299428 -0.025234286 2.2080002
-0.13878858 -0.025234286 2.2080002
-0.13372953 -0.025074286 2.194
-0.12955049 -0.025074286 2.194
-0.12537143 -0.025074286 2.194
-0.12119239 -0.025074286 2.194
-0.11632001 -0.024925714 2.181
-0.11144572 -0.024765715 2.1670001
-0.10662477 -0.024605716 2.1530001
-0.10252381 -0.024605716 2.1530001
-0.098422863 -0.024605716 2.1530001
-0.094321907 -0.024605716 2.1530001
-0.089676194 -0.024457144 2.1400001
-0.085600004 -0.024457144 2.1400001
-0.081523813 -0.024457144 2.1400001
-0.076977149 -0.024308572 2.1270001
-0.072480001 -0.024160001 2.1140001
-0.068453334 -0.024160001 2.1140001
-0.064426668 -0.024160001 2.1140001
-0.060400002 -0.024160001 2.1140001
-0.056026667 -0.024011429 2.1010001
-0.052024763 -0.024011429 2.1010001
-0.048022859 -0.024011429 2.1010001
-0.044020955 -0.024011429 2.1010001
-0.03977143 -0.023862857 2.0880001
-0.035794288 -0.023862857 2.0880001
-0.031817146 -0.023862857 2.0880001
-0.027840002 -0.023862857 2.0880001
-0.023725715 -0.023725715 2.0760002
-0.019647621 -0.023577144 2.0630002
-0.015718095 -0.023577144 2.0630002
-0.011788572 -0.023577144 2.0630002
-0.0078590475 -0.023577144 2.0630002
-0.0039295238 -0.023577144 2.0630002
0 -0.023440002 2.0510001
0.0039066668 -0.023440002 2.0510001
0.0076761907 -0.023028573 2.0150001
0.011514287 -0.023028573 2.0150001
0.015352381 -0.023028573 2.0150001
0.019190477 -0.023028573 2.0150001
0.02289143 -0.02289143 2.003
0.026706668 -0.02289143 2.003
0.030521905 -0.02289143 2.003
0.034337144 -0.02289143 2.003
0.038152382 -0.02289143 2.003
0.041967619 -0.02289143 2.003
0.045531429 -0.022765715 1.9920001
0.049028572 -0.022628572 1.9800001
0.05250667 -0.022502858 1.9690001
0.056257144 -0.022502858 1.9690001
0.059672382 -0.022377145 1.9580001
0.063045718 -0.022251429 1.9470001
0.066754289 -0.022251429 1.9470001
0.07046286 -0.022251429 1.9470001
0.073752381 -0.022125715 1.9360001
0.077 -0.022 1.9250001
0.080666669 -0.022 1.9250001
0.084333338 -0.022 1.9250001
0.087542862 -0.021885715 1.9150001
0.09119048 -0.021885715 1.9150001
0.094293334 -0.02176 1.904
0.097405717 -0.021645715 1.8940001
0.10101334 -0.021645715 1.8940001
0.10401334 -0.02152 1.8830001
0.10702857 -0.021405715 1.8730001
0.11059619 -0.021405715 1.8730001
0.11416382 -0.021405715 1.8730001
0.11773143 -0.021405715 1.8730001
0.12129905 -0.021405715 1.8730001
0.12486667 -0.021405715 1.8730001
0.12843429 -0.021405715 1.8730001
0.13129714 -0.021291429 1.863
0.13484572 -0.021291429 1.863
0.13765143 -0.021177143 1.853
0.14041905 -0.021062858 1.8430001
0.14392953 -0.021062858 1.8430001
0.14664 -0.020948572 1.8330001
0.14939429 -0.020845715 1.8240001
0.15286858 -0.020845715 1.8240001
0.15634286 -0.020845715 1.8240001
0.15806477 -0.020617144 1.8040001
0.16150096 -0.020617144 1.8040001
0.16493715 -0.020617144 1.8040001
0.16753334 -0.020514287 1.7950001
0.17095239 -0.020514287 1.7950001
0.17437144 -0.020514287 1.7950001
0.17689906 -0.02041143 1.7860001
0.18030097 -0.02041143 1.7860001
0.18370287 -0.02041143 1.7860001
0.18616191 -0.020308573 1.7770001
0.18858667 -0.020205716 1.7680001
0.1919543 -0.020205716 1.7680001
0.19532192 -0.020205716 1.7680001
0.19868954 -0.020205716 1.7680001
0.20102859 -0.020102859 1.7590001
0.20437905 -0.020102859 1.7590001
0.20772953 -0.020102859 1.7590001
0.21000001 -0.020000001 1.7500001
0.2122362 -0.019897144 1.7410001
0.21555239 -0.019897144 1.7410001
0.21886858 -0.019897144 1.7410001
0.2210362 -0.019794287 1.7320001
0.22433525 -0.019794287 1.7320001
0.22645144 -0.01969143 1.723
0.22973335 -0.01969143 1.723
0.23301524 -0.01969143 1.723
0.23629715 -0.01969143 1.723
0.23846668 -0.0196 1.715
0.24046478 -0.019497143 1.7060001
0.24371429 -0.019497143 1.7060001
0.24580573 -0.019405715 1.6980001
0.24904001 -0.019405715 1.6980001
0.25108573 -0.019314287 1.6900001
0.25430477 -0.019314287 1.6900001
0.2575238 -0.019314287 1.6900001
0.25935429 -0.01921143 1.6810001
0.2625562 -0.01921143 1.6810001
0.26449335 -0.01912 1.6730001
0.26768002 -0.01912 1.6730001
0.26957145 -0.019028572 1.6650001
0.27274287 -0.019028572 1.6650001
0.27591428 -0.019028572 1.6650001
0.27908573 -0.019028572 1.6650001
0.28225714 -0.019028572 1.6650001
0.28542858 -0.019028572 1.6650001
0.2886 -0.019028572 1.6650001
0.29177144 -0.019028572 1.6650001
0.29636002 -0.01912 1.6730001
0.29954669 -0.01912 1.6730001
0.30418095 -0.01921143 1.6810001
0.30738288 -0.01921143 1.6810001
0.31224763 -0.019314287 1.6900001
0.31546667 -0.019314287 1.6900001
0.31868574 -0.019314287 1.6900001
0.32190478 -0.019314287 1.6900001
0.32512382 -0.019314287 1.6900001
0.32989717 -0.019405715 1.6980001
0.33313143 -0.019405715 1.6980001
0.33636573 -0.019405715 1.6980001
0.34120002 -0.019497143 1.7060001
0.34444955 -0.019497143 1.7060001
0.34953335 -0.0196 1.715
0.35444573 -0.01969143 1.723
0.35772765 -0.01969143 1.723
0.36100954 -0.01969143 1.723
0.36429143 -0.01969143 1.723
0.36949334 -0.019794287 1.7320001
0.37279239 -0.019794287 1.7320001
0.37609145 -0.019794287 1.7320001
0.37939048 -0.019794287 1.7320001
0.38268954 -0.019794287 1.7320001
0.38799429 -0.019897144 1.7410001
0.39131048 -0.019897144 1.7410001
0.39462668 -0.019897144 1.7410001
0.40000001 -0.020000001 1.7500001
0.40333334 -0.020000001 1.7500001
0.4066667 -0.020000001 1.7500001
0.41000003 -0.020000001 1.7500001
0.41545907 -0.020102859 1.7590001
0.41880953 -0.020102859 1.7590001
0.42216003 -0.020102859 1.7590001
0.42768764 -0.020205716 1.7680001
0.43105525 -0.020205716 1.7680001
0.43442288 -0.020205716 1.7680001
0.43779048 -0.020205716 1.7680001
0.44340384 -0.020308573 1.7770001
0.44678858 -0.020308573 1.7770001
0.45245335 -0.02041143 1.7860001
0.45585525 -0.02041143 1.7860001
0.45925716 -0.02041143 1.7860001
0.46265906 -0.02041143 1.7860001
0.46840954 -0.020514287 1.7950001
0.47182858 -0.020514287 1.7950001
0.47524765 -0.020514287 1.7950001
0.47866669 -0.020514287 1.7950001
0.48450288 -0.020617144 1.8040001
0.48793906 -0.020617144 1.8040001
0.49137527 -0.020617144 1.8040001
0.4975543 -0.020731429 1.8140001
0.50100952 -0.020731429 1.8140001
0.50446481 -0.020731429 1.8140001
0.51072001 -0.020845715 1.8240001
0.51419431 -0.020845715 1.8240001
0.5202229 -0.020948572 1.8330001
0.5237143 -0.020948572 1.8330001
0.52720571 -0.020948572 1.8330001
0.53069717 -0.020948572 1.8330001
0.53710288 -0.021062858 1.8430001
0.54061335 -0.021062858 1.8430001
0.54412383 -0.021062858 1.8430001
0.5476343 -0.021062858 1.8430001
0.55114478 -0.021062858 1.8430001
0.55465525 -0.021062858 1.8430001
0.55816573 -0.021062858 1.8430001
0.55862862 -0.020948572 1.8330001
0.56212002 -0.020948572 1.8330001
-0.26701716 -0.022628572 2.3760002
-0.26249143 -0.022628572 2.3760002
-0.25796571 -0.022628572 2.3760002
-0.25162667 -0.022466667 2.3590002
-0.24713334 -0.022466667 2.3590002
-0.24264 -0.022466667 2.3590002
-0.23653144 -0.022314286 2.3430002
-0.23048382 -0.022161905 2.3270001
-0.22605143 -0.022161905 2.3270001
-0.22019048 -0.022019049 2.312
-0.21578668 -0.022019049 2.312
-0.21275429 -0.022161905 2.3270001
-0.20697905 -0.022019049 2.312
-0.20257525 -0.022019049 2.312
-0.19817144 -0.022019049 2.312
-0.19251049 -0.021876192 2.2970002
-0.18813525 -0.021876192 2.2970002
-0.18248001 -0.021723811 2.2810001
-0.17696382 -0.021580953 2.266
-0.17158096 -0.021447619 2.2520001
-0.16729143 -0.021447619 2.2520001
-0.1619162 -0.021304762 2.237
-0.15666857 -0.02117143 2.223
-0.15243429 -0.02117143 2.223
-0.1472 -0.021028573 2.2080002
-0.14208762 -0.020895239 2.194
-0.13790858 -0.020895239 2.194
-0.13372953 -0.020895239 2.194
-0.12955049 -0.020895239 2.194
-0.12537143 -0.020895239 2.194
-0.12119239 -0.020895239 2.194
-0.11632001 -0.020771429 2.181
-0.11144572 -0.020638095 2.1670001
-0.10662477 -0.020504763 2.1530001
-0.10252381 -0.020504763 2.1530001
-0.098422863 -0.020504763 2.1530001
-0.094321907 -0.020504763 2.1530001
-0.089676194 -0.020380953 2.1400001
-0.085600004 -0.020380953 2.1400001
-0.081523813 -0.020380953 2.1400001
-0.076977149 -0.020257143 2.1270001
-0.072480001 -0.020133333 2.1140001
-0.068453334 -0.020133333 2.1140001
-0.064426668 -0.020133333 2.1140001
-0.060028575 -0.020009525 2.1010001
-0.056026667 -0.020009525 2.1010001
-0.052024763 -0.020009525 2.1010001
-0.048022859 -0.020009525 2.1010001
-0.043748572 -0.019885715 2.0880001
-0.03977143 -0.019885715 2.0880001
-0.035794288 -0.019885715 2.0880001
-0.031817146 -0.019885715 2.0880001
-0.027840002 -0.019885715 2.0880001
-0.023725715 -0.019771429 2.0760002
-0.019647621 -0.019647621 2.0630002
-0.015718095 -0.019647621 2.0630002
-0.011788572 -0.019647621 2.0630002
-0.0078133335 -0.019533334 2.0510001
-0.0039066668 -0.019533334 2.0510001
0 -0.019533334 2.0510001
0.0038838098 -0.019419048 2.039
0.0076761907 -0.019190477 2.0150001
0.011514287 -0.019190477 2.0150001
0.015352381 -0.019190477 2.0150001
0.019076191 -0.019076191 2.003
0.02289143 -0.019076191 2.003
0.026706668 -0.019076191 2.003
0.030521905 -0.019076191 2.003
0.034337144 -0.019076191 2.003
0.038152382 -0.019076191 2.003
0.041967619 -0.019076191 2.003
0.04578286 -0.019076191 2.003
0.049325716 -0.01897143 1.9920001
0.05250667 -0.018752381 1.9690001
0.056257144 -0.018752381 1.9690001
0.059672382 -0.01864762 1.9580001
0.063045718 -0.018542858 1.9470001
0.066754289 -0.018542858 1.9470001
0.07046286 -0.018542858 1.9470001
0.073752381 -0.018438095 1.9360001
0.077 -0.018333334 1.9250001
0.080666669 -0.018333334 1.9250001
0.084333338 -0.018333334 1.9250001
0.087542862 -0.018238096 1.9150001
0.09119048 -0.018238096 1.9150001
0.094293334 -0.018133335 1.904
0.097405717 -0.018038096 1.8940001
0.10101334 -0.018038096 1.8940001
0.10401334 -0.017933333 1.8830001
0.1076 -0.017933333 1.8830001
0.11059619 -0.017838096 1.8730001
0.11416382 -0.017838096 1.8730001
0.11773143 -0.017838096 1.8730001
0.12129905 -0.017838096 1.8730001
0.12486667 -0.017838096 1.8730001
0.12843429 -0.017838096 1.8730001
0.13129714 -0.017742857 1.863
0.13484572 -0.017742857 1.863
0.13765143 -0.01764762 1.853
0.14041905 -0.017552381 1.8430001
0.14314857 -0.017457144 1.8330001
0.14664 -0.017457144 1.8330001
0.14939429 -0.017371429 1.8240001
0.15286858 -0.017371429 1.8240001
0.15548572 -0.01727619 1.8140001
0.15806477 -0.017180953 1.8040001
0.16150096 -0.017180953 1.8040001
0.1641143 -0.017095238 1.7950001
0.16753334 -0.017095238 1.7950001
0.17095239 -0.017095238 1.7950001
0.17437144 -0.017095238 1.7950001
0.17689906 -0.017009525 1.7860001
0.18030097 -0.017009525 1.7860001
0.18277715 -0.016923809 1.7770001
0.18616191 -0.016923809 1.7770001
0.18858667 -0.016838096 1.7680001
0.1919543 -0.016838096 1.7680001
0.19532192 -0.016838096 1.7680001
0.19868954 -0.016838096 1.7680001
0.20102859 -0.016752381 1.7590001
0.20437905 -0.016752381 1.7590001
0.20666668 -0.016666668 1.7500001
0.21000001 -0.016666668 1.7500001
0.21333334 -0.016666668 1.7500001
0.21555239 -0.016580952 1.7410001
0.21886858 -0.016580952 1.7410001
0.2210362 -0.016495239 1.7320001
0.22433525 -0.016495239 1.7320001
0.2276343 -0.016495239 1.7320001
0.22973335 -0.016409524 1.723
0.23301524 -0.016409524 1.723
0.23629715 -0.016409524 1.723
0.23846668 -0.016333334 1.715
0.24046478 -0.016247619 1.7060001
0.24371429 -0.016247619 1.7060001
0.24580573 -0.016171429 1.6980001
0.24904001 -0.016171429 1.6980001
0.25108573 -0.016095238 1.6900001
0.25430477 -0.016095238 1.6900001
0.2575238 -0.016095238 1.6900001
0.26074287 -0.016095238 1.6900001
0.2625562 -0.016009524 1.6810001
0.2657581 -0.016009524 1.6810001
0.26768002 -0.015933335 1.6730001
0.26957145 -0.015857143 1.6650001
0.27274287 -0.015857143 1.6650001
0.27591428 -0.015857143 1.6650001
0.27908573 -0.015857143 1.6650001
0.28225714 -0.015857143 1.6650001
0.28542858 -0.015857143 1.6650001
0.2886 -0.015857143 1.6650001
0.29177144 -0.015857143 1.6650001
0.29636002 -0.015933335 1.6730001
0.29954669 -0.015933335 1.6730001
0.30418095 -0.016009524 1.6810001
0.30738288 -0.016009524 1.6810001
0.31058478 -0.016009524 1.6810001
0.31546667 -0.016095238 1.6900001
0.31868574 -0.016095238 1.6900001
0.32190478 -0.016095238 1.6900001
0.32512382 -0.016095238 1.6900001
0.32989717 -0.016171429 1.6980001
0.33313143 -0.016171429 1.6980001
0.33636573 -0.016171429 1.6980001
0.34120002 -0.016247619 1.7060001
0.34626669 -0.016333334 1.715
0.34953335 -0.016333334 1.715
0.35444573 -0.016409524 1.723
0.35772765 -0.016409524 1.723
0.36100954 -0.016409524 1.723
0.36429143 -0.016409524 1.723
0.36949334 -0.016495239 1.7320001
0.37279239 -0.016495239 1.7320001
0.37609145 -0.016495239 1.7320001
0.37939048 -0.016495239 1.7320001
0.3846781 -0.016580952 1.7410001
0.38799429 -0.016580952 1.7410001
0.39131048 -0.016580952 1.7410001
0.39462668 -0.016580952 1.7410001
0.40000001 -0.016666668 1.7500001
0.40333334 -0.016666668 1.7500001
0.4066667 -0.016666668 1.7500001
0.4121086 -0.016752381 1.7590001
0.41545907 -0.016752381 1.7590001
0.41880953 -0.016752381 1.7590001
0.42216003 -0.016752381 1.7590001
0.42768764 -0.016838096 1.7680001
0.43105525 -0.016838096 1.7680001
0.43442288 -0.016838096 1.7680001
0.43779048 -0.016838096 1.7680001
0.44340384 -0.016923809 1.7770001
0.44678858 -0.016923809 1.7770001
0.45245335 -0.017009525 1.7860001
0.45585525 -0.017009525 1.7860001
0.45925716 -0.017009525 1.7860001
0.46265906 -0.017009525 1.7860001
0.46840954 -0.017095238 1.7950001
0.47182858 -0.017095238 1.7950001
0.47524765 -0.017095238 1.7950001
0.47866669 -0.017095238 1.7950001
0.48208573 -0.017095238 1.7950001
0.48793906 -0.017180953 1.8040001
0.49137527 -0.017180953 1.8040001
0.4975543 -0.01727619 1.8140001
0.50100952 -0.01727619 1.8140001
0.50446481 -0.01727619 1.8140001
0.51072001 -0.017371429 1.8240001
0.51419431 -0.017371429 1.8240001
0.5202229 -0.017457144 1.8330001
0.5237143 -0.017457144 1.8330001
0.52720571 -0.017457144 1.8330001
0.53069717 -0.017457144 1.8330001
0.53418857 -0.017457144 1.8330001
0.53768003 -0.017457144 1.8330001
0.54412383 -0.017552381 1.8430001
0.5476343 -0.017552381 1.8430001
0.55114478 -0.017552381 1.8430001
0.55465525 -0.017552381 1.8430001
0.55816573 -0.017552381 1.8430001
0.55862862 -0.017457144 1.8330001
0.56212002 -0.017457144 1.8330001
-0.2696 -0.017973334 2.3590002
-0.26701716 -0.018102858 2.3760002
-0.26249143 -0.018102858 2.3760002
-0.25796571 -0.018102858 2.3760002
-0.25162667 -0.017973334 2.3590002
-0.24713334 -0.017973334 2.3590002
-0.24264 -0.017973334 2.3590002
-0.23653144 -0.017851429 2.3430002
-0.23048382 -0.017729525 2.3270001
-0.22605143 -0.017729525 2.3270001
-0.22019048 -0.017615238 2.312
-0.21578668 -0.017615238 2.312
-0.21275429 -0.017729525 2.3270001
-0.20697905 -0.017615238 2.312
-0.20257525 -0.017615238 2.312
-0.19817144 -0.017615238 2.312
-0.19251049 -0.017500954 2.2970002
-0.18813525 -0.017500954 2.2970002
-0.18248001 -0.017379047 2.2810001
-0.17696382 -0.017264763 2.266
-0.17158096 -0.017158097 2.2520001
-0.16729143 -0.017158097 2.2520001
-0.1619162 -0.01704381 2.237
-0.15666857 -0.016937144 2.223
-0.15243429 -0.016937144 2.223
-0.1472 -0.016822858 2.2080002
-0.14299428 -0.016822858 2.2080002
-0.13878858 -0.016822858 2.2080002
-0.13458286 -0.016822858 2.2080002
-0.13037714 -0.016822858 2.2080002
-0.12617144 -0.016822858 2.2080002
-0.12119239 -0.016716192 2.194
-0.11632001 -0.016617144 2.181
-0.11144572 -0.016510477 2.1670001
-0.10662477 -0.016403811 2.1530001
-0.10252381 -0.016403811 2.1530001
-0.098422863 -0.016403811 2.1530001
-0.094321907 -0.016403811 2.1530001
-0.090220958 -0.016403811 2.1530001
-0.085600004 -0.016304763 2.1400001
-0.081523813 -0.016304763 2.1400001
-0.076977149 -0.016205715 2.1270001
-0.072480001 -0.016106667 2.1140001
-0.068453334 -0.016106667 2.1140001
-0.064426668 -0.016106667 2.1140001
-0.060028575 -0.016007619 2.1010001
-0.056026667 -0.016007619 2.1010001
-0.052024763 -0.016007619 2.1010001
-0.048022859 -0.016007619 2.1010001
-0.043748572 -0.015908573 2.0880001
-0.03977143 -0.015908573 2.0880001
-0.035588574 -0.015817143 2.0760002
-0.031634286 -0.015817143 2.0760002
-0.02768 -0.015817143 2.0760002
-0.023577144 -0.015718095 2.0630002
-0.019647621 -0.015718095 2.0630002
-0.015718095 -0.015718095 2.0630002
-0.011788572 -0.015718095 2.0630002
-0.0078133335 -0.015626667 2.0510001
-0.0039066668 -0.015626667 2.0510001
0 -0.015626667 2.0510001
0.0038838098 -0.015535239 2.039
0.0076761907 -0.015352381 2.0150001
0.011514287 -0.015352381 2.0150001
0.015352381 -0.015352381 2.0150001
0.019076191 -0.015260953 2.003
0.02289143 -0.015260953 2.003
0.026706668 -0.015260953 2.003
0.030521905 -0.015260953 2.003
0.034337144 -0.015260953 2.003
0.038152382 -0.015260953 2.003
0.041967619 -0.015260953 2.003
0.04578286 -0.015260953 2.003
0.049325716 -0.015177144 1.9920001
0.052800003 -0.015085715 1.9800001
0.056257144 -0.015001905 1.9690001
0.059672382 -0.014918095 1.9580001
0.063401908 -0.014918095 1.9580001
0.066754289 -0.014834287 1.9470001
0.070064768 -0.014750477 1.9360001
0.073333338 -0.014666667 1.9250001
0.077 -0.014666667 1.9250001
0.080666669 -0.014666667 1.9250001
0.084333338 -0.014666667 1.9250001
0.087542862 -0.014590477 1.9150001
0.09119048 -0.014590477 1.9150001
0.094293334 -0.014506667 1.904
0.097920001 -0.014506667 1.904
0.10101334 -0.014430476 1.8940001
0.10401334 -0.014346668 1.8830001
0.1076 -0.014346668 1.8830001
0.11118667 -0.014346668 1.8830001
0.11416382 -0.014270477 1.8730001
0.11773143 -0.014270477 1.8730001
0.12129905 -0.014270477 1.8730001
0.12486667 -0.014270477 1.8730001
0.12843429 -0.014270477 1.8730001
0.13129714 -0.014194286 1.863
0.13484572 -0.014194286 1.863
0.13765143 -0.014118096 1.853
0.14041905 -0.014041905 1.8430001
0.14392953 -0.014041905 1.8430001
0.14664 -0.013965715 1.8330001
0.14939429 -0.013897143 1.8240001
0.15286858 -0.013897143 1.8240001
0.15548572 -0.013820953 1.8140001
0.15806477 -0.013744762 1.8040001
0.16150096 -0.013744762 1.8040001
0.16493715 -0.013744762 1.8040001
0.16837335 -0.013744762 1.8040001
0.17095239 -0.013676191 1.7950001
0.17437144 -0.013676191 1.7950001
0.17689906 -0.013607619 1.7860001
0.18030097 -0.013607619 1.7860001
0.18370287 -0.013607619 1.7860001
0.18616191 -0.013539048 1.7770001
0.18954667 -0.013539048 1.7770001
0.1919543 -0.013470476 1.7680001
0.19532192 -0.013470476 1.7680001
0.19868954 -0.013470476 1.7680001
0.20102859 -0.013401905 1.7590001
0.20437905 -0.013401905 1.7590001
0.20666668 -0.013333334 1.7500001
0.21000001 -0.013333334 1.7500001
0.21333334 -0.013333334 1.7500001
0.21555239 -0.013264762 1.7410001
0.21886858 -0.013264762 1.7410001
0.2210362 -0.013196191 1.7320001
0.22316954 -0.013127619 1.723
0.22645144 -0.013127619 1.723
0.22973335 -0.013127619 1.723
0.23301524 -0.013127619 1.723
0.23629715 -0.013127619 1.723
0.23846668 -0.013066667 1.715
0.24173334 -0.013066667 1.715
0.24371429 -0.012998096 1.7060001
0.24696381 -0.012998096 1.7060001
0.24904001 -0.012937143 1.6980001
0.25108573 -0.012876191 1.6900001
0.25430477 -0.012876191 1.6900001
0.2575238 -0.012876191 1.6900001
0.25935429 -0.01280762 1.6810001
0.2625562 -0.01280762 1.6810001
0.26449335 -0.012746667 1.6730001
0.26768002 -0.012746667 1.6730001
0.26957145 -0.012685714 1.6650001
0.27274287 -0.012685714 1.6650001
0.27591428 -0.012685714 1.6650001
0.27908573 -0.012685714 1.6650001
0.28225714 -0.012685714 1.6650001
0.28542858 -0.012685714 1.6650001
0.2886 -0.012685714 1.6650001
0.29317334 -0.012746667 1.6730001
0.29636002 -0.012746667 1.6730001
0.30097905 -0.01280762 1.6810001
0.30418095 -0.01280762 1.6810001
0.30738288 -0.01280762 1.6810001
0.31224763 -0.012876191 1.6900001
0.31546667 -0.012876191 1.6900001
0.31868574 -0.012876191 1.6900001
0.32190478 -0.012876191 1.6900001
0.32512382 -0.012876191 1.6900001
0.32989717 -0.012937143 1.6980001
0.33313143 -0.012937143 1.6980001
0.33636573 -0.012937143 1.6980001
0.34120002 -0.012998096 1.7060001
0.34626669 -0.013066667 1.715
0.34953335 -0.013066667 1.715
0.35444573 -0.013127619 1.723
0.35772765 -0.013127619 1.723
0.36100954 -0.013127619 1.723
0.36429143 -0.013127619 1.723
0.36949334 -0.013196191 1.7320001
0.37279239 -0.013196191 1.7320001
0.37609145 -0.013196191 1.7320001
0.37939048 -0.013196191 1.7320001
0.3846781 -0.013264762 1.7410001
0.38799429 -0.013264762 1.7410001
0.39131048 -0.013264762 1.7410001
0.39462668 -0.013264762 1.7410001
0.40000001 -0.013333334 1.7500001
0.40333334 -0.013333334 1.7500001
0.4066667 -0.013333334 1.7500001
0.4121086 -0.013401905 1.7590001
0.41545907 -0.013401905 1.7590001
0.41880953 -0.013401905 1.7590001
0.42432001 -0.013470476 1.7680001
0.42768764 -0.013470476 1.7680001
0.43105525 -0.013470476 1.7680001
0.43442288 -0.013470476 1.7680001
0.43779048 -0.013470476 1.7680001
0.44340384 -0.013539048 1.7770001
0.44678858 -0.013539048 1.7770001
0.45245335 -0.013607619 1.7860001
0.45585525 -0.013607619 1.7860001
0.46157146 -0.013676191 1.7950001
0.4649905 -0.013676191 1.7950001
0.46840954 -0.013676191 1.7950001
0.47182858 -0.013676191 1.7950001
0.47524765 -0.013676191 1.7950001
0.47866669 -0.013676191 1.7950001
0.48450288 -0.013744762 1.8040001
0.48793906 -0.013744762 1.8040001
0.49137527 -0.013744762 1.8040001
0.4975543 -0.013820953 1.8140001
0.50100952 -0.013820953 1.8140001
0.50446481 -0.013820953 1.8140001
0.51072001 -0.013897143 1.8240001
0.51419431 -0.013897143 1.8240001
0.5202229 -0.013965715 1.8330001
0.5237143 -0.013965715 1.8330001
0.52720571 -0.013965715 1.8330001
0.53069717 -0.013965715 1.8330001
0.53418857 -0.013965715 1.8330001
0.53768003 -0.013965715 1.8330001
0.54117143 -0.013965715 1.8330001
0.5476343 -0.014041905 1.8430001
0.55114478 -0.014041905 1.8430001
0.55465525 -0.014041905 1.8430001
0.55816573 -0.014041905 1.8430001
0.55862862 -0.013965715 1.8330001
0.56212002 -0.013965715 1.8330001
-0.2696 -0.01348 2.3590002
-0.26701716 -0.013577144 2.3760002
-0.26249143 -0.013577144 2.3760002
-0.25796571 -0.013577144 2.3760002
-0.25162667 -0.01348 2.3590002
-0.24713334 -0.01348 2.3590002
-0.24264 -0.01348 2.3590002
-0.23653144 -0.013388572 2.3430002
-0.23048382 -0.013297143 2.3270001
-0.22605143 -0.013297143 2.3270001
-0.22161905 -0.013297143 2.3270001
-0.21718667 -0.013297143 2.3270001
-0.21275429 -0.013297143 2.3270001
-0.20832191 -0.013297143 2.3270001
-0.20257525 -0.013211429 2.312
-0.19817144 -0.013211429 2.312
-0.19251049 -0.013125715 2.2970002
-0.18682477 -0.013034286 2.2810001
-0.18248001 -0.013034286 2.2810001
-0.17813525 -0.013034286 2.2810001
-0.17264763 -0.012948572 2.266
-0.16729143 -0.012868572 2.2520001
-0.16300191 -0.012868572 2.2520001
-0.15765524 -0.012782858 2.237
-0.15243429 -0.012702858 2.223
-0.14820001 -0.012702858 2.223
-0.14299428 -0.012617143 2.2080002
-0.13878858 -0.012617143 2.2080002
-0.13458286 -0.012617143 2.2080002
-0.13037714 -0.012617143 2.2080002
-0.12537143 -0.012537143 2.194
-0.12119239 -0.012537143 2.194
-0.11632001 -0.012462857 2.181
-0.11144572 -0.012382858 2.1670001
-0.10662477 -0.012302858 2.1530001
-0.10252381 -0.012302858 2.1530001
-0.098422863 -0.012302858 2.1530001
-0.094321907 -0.012302858 2.1530001
-0.089676194 -0.012228572 2.1400001
-0.085600004 -0.012228572 2.1400001
-0.081523813 -0.012228572 2.1400001
-0.076977149 -0.012154286 2.1270001
-0.072480001 -0.012080001 2.1140001
-0.068453334 -0.012080001 2.1140001
-0.064426668 -0.012080001 2.1140001
-0.060028575 -0.012005715 2.1010001
-0.056026667 -0.012005715 2.1010001
-0.052024763 -0.012005715 2.1010001
-0.048022859 -0.012005715 2.1010001
-0.043748572 -0.011931429 2.0880001
-0.03977143 -0.011931429 2.0880001
-0.035794288 -0.011931429 2.0880001
-0.031817146 -0.011931429 2.0880001
-0.02768 -0.011862857 2.0760002
-0.023577144 -0.011788572 2.0630002
-0.019647621 -0.011788572 2.0630002
-0.015718095 -0.011788572 2.0630002
-0.011788572 -0.011788572 2.0630002
-0.0078133335 -0.011720001 2.0510001
-0.0039066668 -0.011720001 2.0510001
0 -0.011720001 2.0510001
0.0038838098 -0.011651429 2.039
0.0076761907 -0.011514287 2.0150001
0.011514287 -0.011514287 2.0150001
0.015352381 -0.011514287 2.0150001
0.019190477 -0.011514287 2.0150001
0.02289143 -0.011445715 2.003
0.026706668 -0.011445715 2.003
0.030521905 -0.011445715 2.003
0.034337144 -0.011445715 2.003
0.038152382 -0.011445715 2.003
0.041967619 -0.011445715 2.003
0.04578286 -0.011445715 2.003
0.049325716 -0.011382857 1.9920001
0.052800003 -0.011314286 1.9800001
0.056257144 -0.011251429 1.9690001
0.059672382 -0.011188572 1.9580001
0.063401908 -0.011188572 1.9580001
0.066754289 -0.011125715 1.9470001
0.07046286 -0.011125715 1.9470001
0.073333338 -0.011 1.9250001
0.077 -0.011 1.9250001
0.080666669 -0.011 1.9250001
0.083895244 -0.010942858 1.9150001
0.087542862 -0.010942858 1.9150001
0.09119048 -0.010942858 1.9150001
0.094293334 -0.01088 1.904
0.097920001 -0.01088 1.904
0.10101334 -0.010822858 1.8940001
0.10401334 -0.01076 1.8830001
0.1076 -0.01076 1.8830001
0.11118667 -0.01076 1.8830001
0.11477334 -0.01076 1.8830001
0.11773143 -0.010702858 1.8730001
0.12129905 -0.010702858 1.8730001
0.12486667 -0.010702858 1.8730001
0.12843429 -0.010702858 1.8730001
0.13129714 -0.010645715 1.863
0.13412191 -0.010588571 1.853
0.13690858 -0.010531429 1.8430001
0.13965715 -0.010474286 1.8330001
0.14314857 -0.010474286 1.8330001
0.14664 -0.010474286 1.8330001
0.15013143 -0.010474286 1.8330001
0.15362287 -0.010474286 1.8330001
0.15634286 -0.010422857 1.8240001
0.15806477 -0.010308572 1.8040001
0.16150096 -0.010308572 1.8040001
0.16493715 -0.010308572 1.8040001
0.16837335 -0.010308572 1.8040001
0.17095239 -0.010257144 1.7950001
0.17437144 -0.010257144 1.7950001
0.17689906 -0.010205715 1.7860001
0.18030097 -0.010205715 1.7860001
0.18277715 -0.010154286 1.7770001
0.18616191 -0.010154286 1.7770001
0.18858667 -0.010102858 1.7680001
0.1919543 -0.010102858 1.7680001
0.19532192 -0.010102858 1.7680001
0.19868954 -0.010102858 1.7680001
0.20205715 -0.010102858 1.7680001
0.20437905 -0.010051429 1.7590001
0.20772953 -0.010051429 1.7590001
0.21000001 -0.010000001 1.7500001
0.21333334 -0.010000001 1.7500001
0.21555239 -0.0099485721 1.7410001
0.21773715 -0.0098971436 1.7320001
0.2210362 -0.0098971436 1.7320001
0.22316954 -0.009845715 1.723
0.22645144 -0.009845715 1.723
0.22973335 -0.009845715 1.723
0.23301524 -0.009845715 1.723
0.23629715 -0.009845715 1.723
0.23846668 -0.0098000001 1.715
0.24173334 -0.0098000001 1.715
0.24371429 -0.0097485716 1.7060001
0.24696381 -0.0097485716 1.7060001
0.24904001 -0.0097028576 1.6980001
0.25108573 -0.0096571436 1.6900001
0.25430477 -0.0096571436 1.6900001
0.2575238 -0.0096571436 1.6900001
0.25935429 -0.0096057151 1.6810001
0.26130667 -0.0095600002 1.6730001
0.26449335 -0.0095600002 1.6730001
0.26768002 -0.0095600002 1.6730001
0.26957145 -0.0095142862 1.6650001
0.27274287 -0.0095142862 1.6650001
0.27591428 -0.0095142862 1.6650001
0.27908573 -0.0095142862 1.6650001
0.28225714 -0.0095142862 1.6650001
0.28542858 -0.0095142862 1.6650001
0.28998667 -0.0095600002 1.6730001
0.29317334 -0.0095600002 1.6730001
0.29636002 -0.0095600002 1.6730001
0.30097905 -0.0096057151 1.6810001
0.30418095 -0.0096057151 1.6810001
0.30738288 -0.0096057151 1.6810001
0.31224763 -0.0096571436 1.6900001
0.31546667 -0.0096571436 1.6900001
0.31868574 -0.0096571436 1.6900001
0.32190478 -0.0096571436 1.6900001
0.32512382 -0.0096571436 1.6900001
0.32989717 -0.0097028576 1.6980001
0.33313143 -0.0097028576 1.6980001
0.3379505 -0.0097485716 1.7060001
0.34120002 -0.0097485716 1.7060001
0.34626669 -0.0098000001 1.715
0.34953335 -0.0098000001 1.715
0.35444573 -0.009845715 1.723
0.35772765 -0.009845715 1.723
0.36100954 -0.009845715 1.723
0.36429143 -0.009845715 1.723
0.36949334 -0.0098971436 1.7320001
0.37279239 -0.0098971436 1.7320001
0.37609145 -0.0098971436 1.7320001
0.37939048 -0.0098971436 1.7320001
0.38268954 -0.0098971436 1.7320001
0.38598859 -0.0098971436 1.7320001
0.39131048 -0.0099485721 1.7410001
0.39666668 -0.010000001 1.7500001
0.40000001 -0.010000001 1.7500001
0.40333334 -0.010000001 1.7500001
0.4087581 -0.010051429 1.7590001
0.4121086 -0.010051429 1.7590001
0.41545907 -0.010051429 1.7590001
0.41880953 -0.010051429 1.7590001
0.42432001 -0.010102858 1.7680001
0.42768764 -0.010102858 1.7680001
0.43105525 -0.010102858 1.7680001
0.43442288 -0.010102858 1.7680001
0.43779048 -0.010102858 1.7680001
0.44340384 -0.010154286 1.7770001
0.44678858 -0.010154286 1.7770001
0.45245335 -0.010205715 1.7860001
0.45585525 -0.010205715 1.7860001
0.46157146 -0.010257144 1.7950001
0.4649905 -0.010257144 1.7950001
0.46840954 -0.010257144 1.7950001
0.47182858 -0.010257144 1.7950001
0.47524765 -0.010257144 1.7950001
0.48106667 -0.010308572 1.8040001
0.48450288 -0.010308572 1.8040001
0.48793906 -0.010308572 1.8040001
0.49137527 -0.010308572 1.8040001
0.49481145 -0.010308572 1.8040001
0.49824762 -0.010308572 1.8040001
0.50168383 -0.010308572 1.8040001
0.50792003 -0.010365714 1.8140001
0.51419431 -0.010422857 1.8240001
0.5176686 -0.010422857 1.8240001
0.5237143 -0.010474286 1.8330001
0.52720571 -0.010474286 1.8330001
0.53069717 -0.010474286 1.8330001
0.53418857 -0.010474286 1.8330001
0.53768003 -0.010474286 1.8330001
0.54412383 -0.010531429 1.8430001
0.5476343 -0.010531429 1.8430001
0.55114478 -0.010531429 1.8430001
0.55465525 -0.010531429 1.8430001
0.55816573 -0.010531429 1.8430001
0.55862862 -0.010474286 1.8330001
0.56212002 -0.010474286 1.8330001
-0.26701716 -0.0090514291 2.3760002
-0.26249143 -0.0090514291 2.3760002
-0.25796571 -0.0090514291 2.3760002
-0.25162667 -0.0089866668 2.3590002
-0.24713334 -0.0089866668 2.3590002
-0.24264 -0.0089866668 2.3590002
-0.23653144 -0.0089257145 2.3430002
-0.23048382 -0.0088647623 2.3270001
-0.22605143 -0.0088647623 2.3270001
-0.22161905 -0.0088647623 2.3270001
-0.21718667 -0.0088647623 2.3270001
-0.21275429 -0.0088647623 2.3270001
-0.20697905 -0.0088076191 2.312
-0.20257525 -0.0088076191 2.312
-0.19817144 -0.0088076191 2.312
-0.19251049 -0.0087504769 2.2970002
-0.18813525 -0.0087504769 2.2970002
-0.18248001 -0.0086895237 2.2810001
-0.17813525 -0.0086895237 2.2810001
-0.17264763 -0.0086323814 2.266
-0.16729143 -0.0085790483 2.2520001
-0.16300191 -0.0085790483 2.2520001
-0.15871239 -0.0085790483 2.2520001
-0.1533943 -0.0085219052 2.237
-0.14820001 -0.0084685721 2.223
-0.14396572 -0.0084685721 2.223
-0.13878858 -0.0084114289 2.2080002
-0.13458286 -0.0084114289 2.2080002
-0.13037714 -0.0084114289 2.2080002
-0.12617144 -0.0084114289 2.2080002
-0.12119239 -0.0083580958 2.194
-0.11632001 -0.0083085718 2.181
-0.11144572 -0.0082552386 2.1670001
-0.10662477 -0.0082019055 2.1530001
-0.10252381 -0.0082019055 2.1530001
-0.098422863 -0.0082019055 2.1530001
-0.094321907 -0.0082019055 2.1530001
-0.090220958 -0.0082019055 2.1530001
-0.085600004 -0.0081523815 2.1400001
-0.081523813 -0.0081523815 2.1400001
-0.077447623 -0.0081523815 2.1400001
-0.072480001 -0.0080533335 2.1140001
-0.068453334 -0.0080533335 2.1140001
-0.064426668 -0.0080533335 2.1140001
-0.060028575 -0.0080038095 2.1010001
-0.056026667 -0.0080038095 2.1010001
-0.052024763 -0.0080038095 2.1010001
-0.048022859 -0.0080038095 2.1010001
-0.043748572 -0.0079542864 2.0880001
-0.03977143 -0.0079542864 2.0880001
-0.035794288 -0.0079542864 2.0880001
-0.031634286 -0.0079085715 2.0760002
-0.02768 -0.0079085715 2.0760002
-0.023725715 -0.0079085715 2.0760002
-0.019647621 -0.0078590475 2.0630002
-0.015718095 -0.0078590475 2.0630002
-0.011788572 -0.0078590475 2.0630002
-0.0078590475 -0.0078590475 2.0630002
-0.0039295238 -0.0078590475 2.0630002
0 -0.0078590475 2.0630002
0.0038838098 -0.0077676196 2.039
0.0077219051 -0.0077219051 2.0270002
0.011514287 -0.0076761907 2.0150001
0.015352381 -0.0076761907 2.0150001
0.019190477 -0.0076761907 2.0150001
0.023028573 -0.0076761907 2.0150001
0.026706668 -0.0076304763 2.003
0.030521905 -0.0076304763 2.003
0.034337144 -0.0076304763 2.003
0.038152382 -0.0076304763 2.003
0.041967619 -0.0076304763 2.003
0.04578286 -0.0076304763 2.003
0.049325716 -0.0075885719 1.9920001
0.052800003 -0.0075428574 1.9800001
0.056571431 -0.0075428574 1.9800001
0.060007621 -0.0075009526 1.9690001
0.063401908 -0.0074590477 1.9580001
0.066754289 -0.0074171433 1.9470001
0.070064768 -0.0073752385 1.9360001
0.073333338 -0.0073333336 1.9250001
0.077 -0.0073333336 1.9250001
0.080666669 -0.0073333336 1.9250001
0.083895244 -0.0072952383 1.9150001
0.087542862 -0.0072952383 1.9150001
0.09119048 -0.0072952383 1.9150001
0.094293334 -0.0072533335 1.904
0.097920001 -0.0072533335 1.904
0.10101334 -0.0072152382 1.8940001
0.10401334 -0.0071733338 1.8830001
0.1076 -0.0071733338 1.8830001
0.11118667 -0.0071733338 1.8830001
0.11416382 -0.0071352385 1.8730001
0.11773143 -0.0071352385 1.8730001
0.12129905 -0.0071352385 1.8730001
0.12486667 -0.0071352385 1.8730001
0.12843429 -0.0071352385 1.8730001
0.13129714 -0.0070971432 1.863
0.13484572 -0.0070971432 1.863
0.13690858 -0.0070209526 1.8430001
0.13965715 -0.0069828574 1.8330001
0.14314857 -0.0069828574 1.8330001
0.14664 -0.0069828574 1.8330001
0.15013143 -0.0069828574 1.8330001
0.15362287 -0.0069828574 1.8330001
0.15548572 -0.0069104764 1.8140001
0.15806477 -0.0068723811 1.8040001
0.16150096 -0.0068723811 1.8040001
0.16493715 -0.0068723811 1.8040001
0.16837335 -0.0068723811 1.8040001
0.17180952 -0.0068723811 1.8040001
0.17437144 -0.0068380954 1.7950001
0.17689906 -0.0068038097 1.7860001
0.18030097 -0.0068038097 1.7860001
0.18370287 -0.0068038097 1.7860001
0.18616191 -0.006769524 1.7770001
0.18954667 -0.006769524 1.7770001
0.1919543 -0.0067352382 1.7680001
0.19532192 -0.0067352382 1.7680001
0.19868954 -0.0067352382 1.7680001
0.20102859 -0.0067009525 1.7590001
0.20437905 -0.0067009525 1.7590001
0.20666668 -0.0066666668 1.7500001
0.21000001 -0.0066666668 1.7500001
0.21333334 -0.0066666668 1.7500001
0.21555239 -0.0066323811 1.7410001
0.21886858 -0.0066323811 1.7410001
0.2210362 -0.0065980954 1.7320001
0.22316954 -0.0065638097 1.723
0.22645144 -0.0065638097 1.723
0.22973335 -0.0065638097 1.723
0.23301524 -0.0065638097 1.723
0.23629715 -0.0065638097 1.723
0.23957905 -0.0065638097 1.723
0.24173334 -0.0065333336 1.715
0.245 -0.0065333336 1.715
0.24696381 -0.0064990479 1.7060001
0.24904001 -0.0064685717 1.6980001
0.25108573 -0.0064380956 1.6900001
0.25430477 -0.0064380956 1.6900001
0.2575238 -0.0064380956 1.6900001
0.25935429 -0.0064038099 1.6810001
0.26130667 -0.0063733337 1.6730001
0.26449335 -0.0063733337 1.6730001
0.26640001 -0.0063428571 1.6650001
0.26957145 -0.0063428571 1.6650001
0.27274287 -0.0063428571 1.6650001
0.27591428 -0.0063428571 1.6650001
0.27908573 -0.0063428571 1.6650001
0.28225714 -0.0063428571 1.6650001
0.28542858 -0.0063428571 1.6650001
0.2886 -0.0063428571 1.6650001
0.29177144 -0.0063428571 1.6650001
0.29494286 -0.0063428571 1.6650001
0.29954669 -0.0063733337 1.6730001
0.30418095 -0.0064038099 1.6810001
0.30738288 -0.0064038099 1.6810001
0.31058478 -0.0064038099 1.6810001
0.31546667 -0.0064380956 1.6900001
0.31868574 -0.0064380956 1.6900001
0.32190478 -0.0064380956 1.6900001
0.32512382 -0.0064380956 1.6900001
0.32989717 -0.0064685717 1.6980001
0.33313143 -0.0064685717 1.6980001
0.3379505 -0.0064990479 1.7060001
0.34120002 -0.0064990479 1.7060001
0.34626669 -0.0065333336 1.715
0.34953335 -0.0065333336 1.715
0.35444573 -0.0065638097 1.723
0.35772765 -0.0065638097 1.723
0.36100954 -0.0065638097 1.723
0.36429143 -0.0065638097 1.723
0.36949334 -0.0065980954 1.7320001
0.37279239 -0.0065980954 1.7320001
0.37609145 -0.0065980954 1.7320001
0.37939048 -0.0065980954 1.7320001
0.38268954 -0.0065980954 1.7320001
0.38598859 -0.0065980954 1.7320001
0.39131048 -0.0066323811 1.7410001
0.39462668 -0.0066323811 1.7410001
0.40000001 -0.0066666668 1.7500001
0.40540764 -0.0067009525 1.7590001
0.4087581 -0.0067009525 1.7590001
0.4121086 -0.0067009525 1.7590001
0.41758478 -0.0067352382 1.7680001
0.42095241 -0.0067352382 1.7680001
0.42432001 -0.0067352382 1.7680001
0.42768764 -0.0067352382 1.7680001
0.43105525 -0.0067352382 1.7680001
0.43442288 -0.0067352382 1.7680001
0.43779048 -0.0067352382 1.7680001
0.44340384 -0.006769524 1.7770001
0.44678858 -0.006769524 1.7770001
0.45245335 -0.0068038097 1.7860001
0.45585525 -0.0068038097 1.7860001
0.46157146 -0.0068380954 1.7950001
0.4649905 -0.0068380954 1.7950001
0.46840954 -0.0068380954 1.7950001
0.47182858 -0.0068380954 1.7950001
0.47524765 -0.0068380954 1.7950001
0.48106667 -0.0068723811 1.8040001
0.48450288 -0.0068723811 1.8040001
0.48793906 -0.0068723811 1.8040001
0.49137527 -0.0068723811 1.8040001
0.49481145 -0.0068723811 1.8040001
0.49824762 -0.0068723811 1.8040001
0.50446481 -0.0069104764 1.8140001
0.51072001 -0.0069485717 1.8240001
0.51419431 -0.0069485717 1.8240001
0.5202229 -0.0069828574 1.8330001
0.5237143 -0.0069828574 1.8330001
0.52720571 -0.0069828574 1.8330001
0.53069717 -0.0069828574 1.8330001
0.53710288 -0.0070209526 1.8430001
0.53768003 -0.0069828574 1.8330001
0.54412383 -0.0070209526 1.8430001
0.5476343 -0.0070209526 1.8430001
0.55114478 -0.0070209526 1.8430001
0.55465525 -0.0070209526 1.8430001
0.55816573 -0.0070209526 1.8430001
0.5616762 -0.0070209526 1.8430001
0.56518668 -0.0070209526 1.8430001
0.56869715 -0.0070209526 1.8430001
-0.26701716 -0.0045257146 2.3760002
-0.26249143 -0.0045257146 2.3760002
-0.25796571 -0.0045257146 2.3760002
-0.25344002 -0.0045257146 2.3760002
-0.24713334 -0.0044933334 2.3590002
-0.24264 -0.0044933334 2.3590002
-0.23653144 -0.0044628573 2.3430002
-0.23206858 -0.0044628573 2.3430002
-0.22605143 -0.0044323811 2.3270001
-0.22161905 -0.0044323811 2.3270001
-0.21718667 -0.0044323811 2.3270001
-0.21138287 -0.0044038096 2.312
-0.20697905 -0.0044038096 2.312
-0.20257525 -0.0044038096 2.312
-0.19817144 -0.0044038096 2.312
-0.19251049 -0.0043752384 2.2970002
-0.18682477 -0.0043447618 2.2810001
-0.18248001 -0.0043447618 2.2810001
-0.17813525 -0.0043447618 2.2810001
-0.17264763 -0.0043161907 2.266
-0.16729143 -0.0042895242 2.2520001
-0.16300191 -0.0042895242 2.2520001
-0.15871239 -0.0042895242 2.2520001
-0.15442286 -0.0042895242 2.2520001
-0.14913334 -0.0042609526 2.237
-0.14396572 -0.004234286 2.223
-0.13973144 -0.004234286 2.223
-0.13458286 -0.0042057144 2.2080002
-0.13037714 -0.0042057144 2.2080002
-0.12617144 -0.0042057144 2.2080002
-0.12119239 -0.0041790479 2.194
-0.11701334 -0.0041790479 2.194
-0.11144572 -0.0041276193 2.1670001
-0.10662477 -0.0041009528 2.1530001
-0.10252381 -0.0041009528 2.1530001
-0.098422863 -0.0041009528 2.1530001
-0.094321907 -0.0041009528 2.1530001
-0.090220958 -0.0041009528 2.1530001
-0.085600004 -0.0040761908 2.1400001
-0.081523813 -0.0040761908 2.1400001
-0.077447623 -0.0040761908 2.1400001
-0.072925717 -0.0040514288 2.1270001
-0.068453334 -0.0040266667 2.1140001
-0.064426668 -0.0040266667 2.1140001
-0.060028575 -0.0040019047 2.1010001
-0.055680003 -0.0039771432 2.0880001
-0.052024763 -0.0040019047 2.1010001
-0.047725715 -0.0039771432 2.0880001
-0.043748572 -0.0039771432 2.0880001
-0.03977143 -0.0039771432 2.0880001
-0.035794288 -0.0039771432 2.0880001
-0.031634286 -0.0039542858 2.0760002
-0.02768 -0.0039542858 2.0760002
-0.023725715 -0.0039542858 2.0760002
-0.019647621 -0.0039295238 2.0630002
-0.015718095 -0.0039295238 2.0630002
-0.011862857 -0.0039542858 2.0760002
-0.0078590475 -0.0039295238 2.0630002
-0.0039295238 -0.0039295238 2.0630002
0 -0.0039295238 2.0630002
0.0038838098 -0.0038838098 2.039
0.0077219051 -0.0038609526 2.0270002
0.011514287 -0.0038380953 2.0150001
0.015352381 -0.0038380953 2.0150001
0.019190477 -0.0038380953 2.0150001
0.023028573 -0.0038380953 2.0150001
0.026866667 -0.0038380953 2.0150001
0.030521905 -0.0038152381 2.003
0.034337144 -0.0038152381 2.003
0.038152382 -0.0038152381 2.003
0.041967619 -0.0038152381 2.003
0.04578286 -0.0038152381 2.003
0.049028572 -0.0037714287 1.9800001
0.05250667 -0.0037504763 1.9690001
0.056257144 -0.0037504763 1.9690001
0.059672382 -0.0037295239 1.9580001
0.063401908 -0.0037295239 1.9580001
0.066754289 -0.0037085717 1.9470001
0.070064768 -0.0036876192 1.9360001
0.073333338 -0.0036666668 1.9250001
0.077 -0.0036666668 1.9250001
0.080666669 -0.0036666668 1.9250001
0.083895244 -0.0036476192 1.9150001
0.087542862 -0.0036476192 1.9150001
0.09119048 -0.0036476192 1.9150001
0.094293334 -0.0036266667 1.904
0.097920001 -0.0036266667 1.904
0.10101334 -0.0036076191 1.8940001
0.10401334 -0.0035866669 1.8830001
0.1076 -0.0035866669 1.8830001
0.11059619 -0.0035676192 1.8730001
0.11416382 -0.0035676192 1.8730001
0.11773143 -0.0035676192 1.8730001
0.12129905 -0.0035676192 1.8730001
0.1242 -0.0035485716 1.863
0.12774858 -0.0035485716 1.863
0.13129714 -0.0035485716 1.863
0.13412191 -0.003529524 1.853
0.13690858 -0.0035104763 1.8430001
0.14041905 -0.0035104763 1.8430001
0.14314857 -0.0034914287 1.8330001
0.14664 -0.0034914287 1.8330001
0.15013143 -0.0034914287 1.8330001
0.15362287 -0.0034914287 1.8330001
0.15634286 -0.0034742858 1.8240001
0.15894096 -0.0034552382 1.8140001
0.16239619 -0.0034552382 1.8140001
0.16493715 -0.0034361905 1.8040001
0.16837335 -0.0034361905 1.8040001
0.17180952 -0.0034361905 1.8040001
0.17437144 -0.0034190477 1.7950001
0.17600763 -0.003384762 1.7770001
0.17848381 -0.0033676191 1.7680001
0.18185143 -0.0033676191 1.7680001
0.18616191 -0.003384762 1.7770001
0.18858667 -0.0033676191 1.7680001
0.1919543 -0.0033676191 1.7680001
0.19532192 -0.0033676191 1.7680001
0.19868954 -0.0033676191 1.7680001
0.20102859 -0.0033504763 1.7590001
0.20437905 -0.0033504763 1.7590001
0.20666668 -0.0033333334 1.7500001
0.21000001 -0.0033333334 1.7500001
0.21333334 -0.0033333334 1.7500001
0.21555239 -0.0033161906 1.7410001
0.21886858 -0.0033161906 1.7410001
0.2210362 -0.0032990477 1.7320001
0.22316954 -0.0032819049 1.723
0.22645144 -0.0032819049 1.723
0.22973335 -0.0032819049 1.723
0.23301524 -0.0032819049 1.723
0.23629715 -0.0032819049 1.723
0.23957905 -0.0032819049 1.723
0.24173334 -0.0032666668 1.715
0.245 -0.0032666668 1.715
0.24696381 -0.0032495239 1.7060001
0.25021335 -0.0032495239 1.7060001
0.2522743 -0.0032342859 1.6980001
0.25430477 -0.0032190478 1.6900001
0.2575238 -0.0032190478 1.6900001
0.25935429 -0.0032019049 1.6810001
0.26130667 -0.0031866669 1.6730001
0.26449335 -0.0031866669 1.6730001
0.26768002 -0.0031866669 1.6730001
0.26957145 -0.0031714286 1.6650001
0.27274287 -0.0031714286 1.6650001
0.27591428 -0.0031714286 1.6650001
0.27908573 -0.0031714286 1.6650001
0.28225714 -0.0031714286 1.6650001
0.28542858 -0.0031714286 1.6650001
0.2886 -0.0031714286 1.6650001
0.29177144 -0.0031714286 1.6650001
0.29636002 -0.0031866669 1.6730001
0.29954669 -0.0031866669 1.6730001
0.30418095 -0.0032019049 1.6810001
0.30738288 -0.0032019049 1.6810001
0.31058478 -0.0032019049 1.6810001
0.31546667 -0.0032190478 1.6900001
0.31868574 -0.0032190478 1.6900001
0.32190478 -0.0032190478 1.6900001
0.32512382 -0.0032190478 1.6900001
0.32989717 -0.0032342859 1.6980001
0.33313143 -0.0032342859 1.6980001
0.3379505 -0.0032495239 1.7060001
0.34120002 -0.0032495239 1.7060001
0.34626669 -0.0032666668 1.715
0.34953335 -0.0032666668 1.715
0.35444573 -0.0032819049 1.723
0.35772765 -0.0032819049 1.723
0.36100954 -0.0032819049 1.723
0.36429143 -0.0032819049 1.723
0.36949334 -0.0032990477 1.7320001
0.37279239 -0.0032990477 1.7320001
0.37609145 -0.0032990477 1.7320001
0.37939048 -0.0032990477 1.7320001
0.38268954 -0.0032990477 1.7320001
0.38598859 -0.0032990477 1.7320001
0.39131048 -0.0033161906 1.7410001
0.39462668 -0.0033161906 1.7410001
0.40000001 -0.0033333334 1.7500001
0.40540764 -0.0033504763 1.7590001
0.4087581 -0.0033504763 1.7590001
0.4121086 -0.0033504763 1.7590001
0.41758478 -0.0033676191 1.7680001
0.42095241 -0.0033676191 1.7680001
0.42432001 -0.0033676191 1.7680001
0.42768764 -0.0033676191 1.7680001
0.43105525 -0.0033676191 1.7680001
0.43442288 -0.0033676191 1.7680001
0.43779048 -0.0033676191 1.7680001
0.44115812 -0.0033676191 1.7680001
0.44678858 -0.003384762 1.7770001
0.45245335 -0.0034019048 1.7860001
0.45815238 -0.0034190477 1.7950001
0.46157146 -0.0034190477 1.7950001
0.4649905 -0.0034190477 1.7950001
0.46840954 -0.0034190477 1.7950001
0.47419432 -0.0034361905 1.8040001
0.4776305 -0.0034361905 1.8040001
