# .PCD v0.7 - Point Cloud Data file format
VERSION 0.7
FIELDS x y z
SIZE 4 4 4
TYPE F F F
COUNT 1 1 1
WIDTH 1519
HEIGHT 1
VIEWPOINT 0 0 0 1 0 0 0
POINTS 1519
DATA ascii
-0.016822858 0.26075429 2.2080002
-0.012617143 0.26075429 2.2080002
-0.0083580958 0.25910097 2.194
-0.0041790479 0.25910097 2.194
0 0.25910097 2.194
0.0041542859 0.25756574 2.181
0.0083085718 0.25756574 2.181
0.012462857 0.25756574 2.181
0.016617144 0.25756574 2.181
0.020771429 0.25756574 2.181
0.024765715 0.25591239 2.1670001
0.028893335 0.25591239 2.1670001
0.032807622 0.25425905 2.1530001
0.036908574 0.25425905 2.1530001
0.041009527 0.25425905 2.1530001
0.044838097 0.25272381 2.1400001
0.048914287 0.25272381 2.1400001
0.052668575 0.25118858 2.1270001
0.056720003 0.25118858 2.1270001
0.060400002 0.24965334 2.1140001
0.064426668 0.24965334 2.1140001
0.068453334 0.24965334 2.1140001
0.072034292 0.2481181 2.1010001
0.076036192 0.2481181 2.1010001
0.0800381 0.2481181 2.1010001
0.084040001 0.2481181 2.1010001
0.088041909 0.2481181 2.1010001
0.09204381 0.2481181 2.1010001
0.096045718 0.2481181 2.1010001
0.10004763 0.2481181 2.1010001
0.10340572 0.24658287 2.0880001
0.10738286 0.24658287 2.0880001
0.11072 0.24516572 2.0760002
0.11467429 0.24516572 2.0760002
0.11788572 0.24363048 2.0630002
0.12181524 0.24363048 2.0630002
0.12574476 0.24363048 2.0630002
0.12967429 0.24363048 2.0630002
0.13282667 0.24221334 2.0510001
0.13673334 0.24221334 2.0510001
0.14064001 0.24221334 2.0510001
0.14454667 0.24221334 2.0510001
0.14758477 0.24079619 2.039
0.15146858 0.24079619 2.039
0.15443811 0.23937906 2.0270002
0.15829906 0.23937906 2.0270002
0.1612 0.23796192 2.0150001
0.16503809 0.23796192 2.0150001
0.1688762 0.23796192 2.0150001
0.17168573 0.23654477 2.003
0.17655239 0.23796192 2.0150001
0.17931619 0.23654477 2.003
0.18313144 0.23654477 2.003
0.18694668 0.23654477 2.003
0.19076191 0.23654477 2.003
0.19457714 0.23654477 2.003
0.19839239 0.23654477 2.003
0.20109715 0.23524572 1.9920001
0.20489144 0.23524572 1.9920001
0.20742857 0.23382857 1.9800001
0.21120001 0.23382857 1.9800001
0.21497144 0.23382857 1.9800001
0.21752763 0.23252954 1.9690001
0.2212781 0.23252954 1.9690001
0.22377144 0.23123048 1.9580001
0.22750096 0.23123048 1.9580001
0.22993144 0.22993144 1.9470001
0.23364002 0.22993144 1.9470001
0.23734859 0.22993144 1.9470001
0.24105716 0.22993144 1.9470001
0.24338287 0.22863239 1.9360001
0.24707049 0.22863239 1.9360001
0.25075811 0.22863239 1.9360001
0.25444573 0.22863239 1.9360001
0.25813335 0.22863239 1.9360001
0.26182097 0.22863239 1.9360001
0.26550859 0.22863239 1.9360001
0.26919621 0.22863239 1.9360001
0.2744343 0.22993144 1.9470001
0.27814287 0.22993144 1.9470001
0.28344381 0.23123048 1.9580001
0.28717333 0.23123048 1.9580001
0.29253715 0.23252954 1.9690001
0.29628763 0.23252954 1.9690001
0.3000381 0.23252954 1.9690001
0.30378857 0.23252954 1.9690001
0.30925715 0.23382857 1.9800001
0.31302857 0.23382857 1.9800001
0.31872001 0.23524572 1.9920001
0.3225143 0.23524572 1.9920001
0.32630858 0.23524572 1.9920001
0.33192572 0.23654477 2.003
0.33574095 0.23654477 2.003
0.33955622 0.23654477 2.003
0.34542859 0.23796192 2.0150001
0.34926668 0.23796192 2.0150001
0.35310477 0.23796192 2.0150001
0.35906857 0.23937906 2.0270002
0.36507812 0.24079619 2.039
0.36896193 0.24079619 2.039
0.37284574 0.24079619 2.039
0.37894669 0.24221334 2.0510001
0.38285336 0.24221334 2.0510001
0.38676003 0.24221334 2.0510001
0.39066669 0.24221334 2.0510001
0.39688191 0.24363048 2.0630002
0.40081143 0.24363048 2.0630002
0.40474096 0.24363048 2.0630002
0.40867049 0.24363048 2.0630002
0.41520002 0.24516572 2.0760002
0.41915429 0.24516572 2.0760002
0.42555431 0.24658287 2.0880001
0.43220574 0.2481181 2.1010001
0.43620762 0.2481181 2.1010001
0.44020954 0.2481181 2.1010001
0.44696 0.24965334 2.1140001
0.45098668 0.24965334 2.1140001
0.45501336 0.24965334 2.1140001
0.45904002 0.24965334 2.1140001
0.4630667 0.24965334 2.1140001
0.46709335 0.24965334 2.1140001
0.47401717 0.25118858 2.1270001
0.47806859 0.25118858 2.1270001
0.48506668 0.25272381 2.1400001
0.48914286 0.25272381 2.1400001
0.49321908 0.25272381 2.1400001
0.5003162 0.25425905 2.1530001
0.50441718 0.25425905 2.1530001
0.5085181 0.25425905 2.1530001
0.51261908 0.25425905 2.1530001
0.51672 0.25425905 2.1530001
0.52082098 0.25425905 2.1530001
-0.37900573 0.30612001 2.5510001
-0.37414667 0.30612001 2.5510001
-0.36928764 0.30612001 2.5510001
-0.36442858 0.30612001 2.5510001
-0.35689145 0.30384001 2.5320001
-0.35206857 0.30384001 2.5320001
-0.34477717 0.30168 2.5140002
-0.33998859 0.30168 2.5140002
-0.33520001 0.30168 2.5140002
-0.33041143 0.30168 2.5140002
-0.32562286 0.30168 2.5140002
-0.32083431 0.30168 2.5140002
-0.31604573 0.30168 2.5140002
-0.31125715 0.30168 2.5140002
-0.30646858 0.30168 2.5140002
-0.29952002 0.29952002 2.4960001
-0.29476571 0.29952002 2.4960001
-0.29001144 0.29952002 2.4960001
-0.28525716 0.29952002 2.4960001
-0.28050286 0.29952002 2.4960001
-0.27376002 0.29736 2.4780002
-0.26708573 0.29520002 2.46
-0.2624 0.29520002 2.46
-0.2577143 0.29520002 2.46
-0.25128001 0.29316002 2.4430001
-0.24662668 0.29316002 2.4430001
-0.24197334 0.29316002 2.4430001
-0.23566858 0.29112002 2.4260001
-0.23104763 0.29112002 2.4260001
-0.22642668 0.29112002 2.4260001
-0.22025144 0.28908002 2.4090002
-0.21566287 0.28908002 2.4090002
-0.20958477 0.28704002 2.3920002
-0.20502858 0.28704002 2.3920002
-0.20047238 0.28704002 2.3920002
-0.19460572 0.28512001 2.3760002
-0.19008 0.28512001 2.3760002
-0.1855543 0.28512001 2.3760002
-0.18102857 0.28512001 2.3760002
-0.17650287 0.28512001 2.3760002
-0.17074667 0.28308001 2.3590002
-0.16625334 0.28308001 2.3590002
-0.16176 0.28308001 2.3590002
-0.15620001 0.28116 2.3430002
-0.15173715 0.28116 2.3430002
-0.14626858 0.27924001 2.3270001
-0.1418362 0.27924001 2.3270001
-0.13740382 0.27924001 2.3270001
-0.13297144 0.27924001 2.3270001
-0.12771048 0.27744001 2.312
-0.12330667 0.27744001 2.312
-0.11890286 0.27744001 2.312
-0.11449905 0.27744001 2.312
-0.11009524 0.27744001 2.312
-0.10500572 0.27564001 2.2970002
-0.099929526 0.27372 2.2810001
-0.095584765 0.27372 2.2810001
-0.091240004 0.27372 2.2810001
-0.086323813 0.27192 2.266
-0.082007624 0.27192 2.266
-0.077211432 0.27024001 2.2520001
-0.072921909 0.27024001 2.2520001
-0.068632387 0.27024001 2.2520001
-0.064342856 0.27024001 2.2520001
-0.059653334 0.26844001 2.237
-0.055045716 0.26676002 2.223
-0.050811432 0.26676002 2.223
-0.046577144 0.26676002 2.223
-0.042057145 0.26496002 2.2080002
-0.03785143 0.26496002 2.2080002
-0.033645716 0.26496002 2.2080002
-0.029440001 0.26496002 2.2080002
-0.025234286 0.26496002 2.2080002
-0.021028573 0.26496002 2.2080002
-0.016822858 0.26496002 2.2080002
-0.012617143 0.26496002 2.2080002
-0.0083580958 0.26328 2.194
-0.0041790479 0.26328 2.194
0 0.26328 2.194
0.0041542859 0.26172 2.181
0.0083085718 0.26172 2.181
0.012462857 0.26172 2.181
0.016510477 0.26004001 2.1670001
0.020638095 0.26004001 2.1670001
0.024765715 0.26004001 2.1670001
0.028893335 0.26004001 2.1670001
0.033020955 0.26004001 2.1670001
0.036908574 0.25836 2.1530001
0.041009527 0.25836 2.1530001
0.044838097 0.2568 2.1400001
0.048914287 0.2568 2.1400001
0.052668575 0.25524002 2.1270001
0.056373335 0.25368002 2.1140001
0.060400002 0.25368002 2.1140001
0.064426668 0.25368002 2.1140001
0.068453334 0.25368002 2.1140001
0.072034292 0.25212002 2.1010001
0.076036192 0.25212002 2.1010001
0.0800381 0.25212002 2.1010001
0.084040001 0.25212002 2.1010001
0.088041909 0.25212002 2.1010001
0.09204381 0.25212002 2.1010001
0.096045718 0.25212002 2.1010001
0.099428572 0.25056002 2.0880001
0.10340572 0.25056002 2.0880001
0.10676572 0.24912001 2.0760002
0.11072 0.24912001 2.0760002
0.11467429 0.24912001 2.0760002
0.11788572 0.24756001 2.0630002
0.12181524 0.24756001 2.0630002
0.12574476 0.24756001 2.0630002
0.12967429 0.24756001 2.0630002
0.13282667 0.24612001 2.0510001
0.13673334 0.24612001 2.0510001
0.14064001 0.24612001 2.0510001
0.14454667 0.24612001 2.0510001
0.14758477 0.24468 2.039
0.15146858 0.24468 2.039
0.15535238 0.24468 2.039
0.15829906 0.24324001 2.0270002
0.1612 0.24180001 2.0150001
0.16503809 0.24180001 2.0150001
0.1688762 0.24180001 2.0150001
0.17271429 0.24180001 2.0150001
0.17655239 0.24180001 2.0150001
0.18039048 0.24180001 2.0150001
0.18313144 0.24036001 2.003
0.18694668 0.24036001 2.003
0.19076191 0.24036001 2.003
0.19457714 0.24036001 2.003
0.19730286 0.23904 1.9920001
0.20109715 0.23904 1.9920001
0.20489144 0.23904 1.9920001
0.20868573 0.23904 1.9920001
0.21120001 0.23760001 1.9800001
0.21497144 0.23760001 1.9800001
0.21752763 0.23628001 1.9690001
0.2212781 0.23628001 1.9690001
0.22377144 0.23496 1.9580001
0.22750096 0.23496 1.9580001
0.22993144 0.23364002 1.9470001
0.23364002 0.23364002 1.9470001
0.23600763 0.23232001 1.9360001
0.23969525 0.23232001 1.9360001
0.24338287 0.23232001 1.9360001
0.24707049 0.23232001 1.9360001
0.24933334 0.23100001 1.9250001
0.25300002 0.23100001 1.9250001
0.25813335 0.23232001 1.9360001
0.26033333 0.23100001 1.9250001
0.264 0.23100001 1.9250001
0.26919621 0.23232001 1.9360001
0.27288383 0.23232001 1.9360001
0.27814287 0.23364002 1.9470001
0.28185144 0.23364002 1.9470001
0.28717333 0.23496 1.9580001
0.29253715 0.23628001 1.9690001
0.29628763 0.23628001 1.9690001
0.3000381 0.23628001 1.9690001
0.30378857 0.23628001 1.9690001
0.30925715 0.23760001 1.9800001
0.31302857 0.23760001 1.9800001
0.31872001 0.23904 1.9920001
0.3225143 0.23904 1.9920001
0.32811049 0.24036001 2.003
0.33192572 0.24036001 2.003
0.33574095 0.24036001 2.003
0.33955622 0.24036001 2.003
0.34542859 0.24180001 2.0150001
0.34926668 0.24180001 2.0150001
0.35310477 0.24180001 2.0150001
0.35906857 0.24324001 2.0270002
0.36507812 0.24468 2.039
0.36896193 0.24468 2.039
0.37284574 0.24468 2.039
0.37894669 0.24612001 2.0510001
0.38285336 0.24612001 2.0510001
0.38676003 0.24612001 2.0510001
0.39066669 0.24612001 2.0510001
0.39688191 0.24756001 2.0630002
0.40081143 0.24756001 2.0630002
0.40474096 0.24756001 2.0630002
0.41124573 0.24912001 2.0760002
0.41520002 0.24912001 2.0760002
0.41915429 0.24912001 2.0760002
0.42555431 0.25056002 2.0880001
0.43220574 0.25212002 2.1010001
0.43620762 0.25212002 2.1010001
0.44020954 0.25212002 2.1010001
0.44696 0.25368002 2.1140001
0.45098668 0.25368002 2.1140001
0.45501336 0.25368002 2.1140001
0.45904002 0.25368002 2.1140001
0.4630667 0.25368002 2.1140001
0.46709335 0.25368002 2.1140001
0.47401717 0.25524002 2.1270001
0.47806859 0.25524002 2.1270001
0.48506668 0.2568 2.1400001
0.48914286 0.2568 2.1400001
0.49321908 0.2568 2.1400001
0.5003162 0.25836 2.1530001
0.50441718 0.25836 2.1530001
0.5085181 0.25836 2.1530001
0.51261908 0.25836 2.1530001
0.51672 0.25836 2.1530001
0.52082098 0.25836 2.1530001
-0.37900573 0.31097907 2.5510001
-0.37414667 0.31097907 2.5510001
-0.36653715 0.30866286 2.5320001
-0.36442858 0.31097907 2.5510001
-0.35689145 0.30866286 2.5320001
-0.35206857 0.30866286 2.5320001
-0.34477717 0.30646858 2.5140002
-0.33998859 0.30646858 2.5140002
-0.33520001 0.30646858 2.5140002
-0.33041143 0.30646858 2.5140002
-0.32562286 0.30646858 2.5140002
-0.32083431 0.30646858 2.5140002
-0.31604573 0.30646858 2.5140002
-0.31125715 0.30646858 2.5140002
-0.30646858 0.30646858 2.5140002
-0.29952002 0.30427429 2.4960001
-0.29476571 0.30427429 2.4960001
-0.29001144 0.30427429 2.4960001
-0.28525716 0.30427429 2.4960001
-0.28050286 0.30427429 2.4960001
-0.27376002 0.30208001 2.4780002
-0.26708573 0.29988572 2.46
-0.2624 0.29988572 2.46
-0.2577143 0.29988572 2.46
-0.25128001 0.29781336 2.4430001
-0.24662668 0.29781336 2.4430001
-0.24197334 0.29781336 2.4430001
-0.23732001 0.29781336 2.4430001
-0.23104763 0.29574096 2.4260001
-0.22642668 0.29574096 2.4260001
-0.22025144 0.29366857 2.4090002
-0.21566287 0.29366857 2.4090002
-0.21107429 0.29366857 2.4090002
-0.20502858 0.2915962 2.3920002
-0.20047238 0.2915962 2.3920002
-0.19460572 0.28964573 2.3760002
-0.19008 0.28964573 2.3760002
-0.1855543 0.28964573 2.3760002
-0.18102857 0.28964573 2.3760002
-0.17650287 0.28964573 2.3760002
-0.17197715 0.28964573 2.3760002
-0.16625334 0.28757334 2.3590002
-0.16176 0.28757334 2.3590002
-0.15620001 0.28562286 2.3430002
-0.15173715 0.28562286 2.3430002
-0.14626858 0.28367239 2.3270001
-0.1418362 0.28367239 2.3270001
-0.13740382 0.28367239 2.3270001
-0.13211429 0.28184381 2.312
-0.12771048 0.28184381 2.312
-0.12330667 0.28184381 2.312
-0.11890286 0.28184381 2.312
-0.11449905 0.28184381 2.312
-0.11009524 0.28184381 2.312
-0.10500572 0.28001526 2.2970002
-0.099929526 0.27806476 2.2810001
-0.095584765 0.27806476 2.2810001
-0.091240004 0.27806476 2.2810001
-0.086323813 0.27623621 2.266
-0.082007624 0.27623621 2.266
-0.077211432 0.27452955 2.2520001
-0.072921909 0.27452955 2.2520001
-0.068632387 0.27452955 2.2520001
-0.064342856 0.27452955 2.2520001
-0.059653334 0.27270097 2.237
-0.055045716 0.27099431 2.223
-0.050811432 0.27099431 2.223
-0.046577144 0.27099431 2.223
-0.042057145 0.26916572 2.2080002
-0.03785143 0.26916572 2.2080002
-0.033645716 0.26916572 2.2080002
-0.029440001 0.26916572 2.2080002
-0.025234286 0.26916572 2.2080002
-0.021028573 0.26916572 2.2080002
-0.016822858 0.26916572 2.2080002
-0.012617143 0.26916572 2.2080002
-0.0083580958 0.26745906 2.194
-0.0041790479 0.26745906 2.194
0 0.26745906 2.194
0.0041790479 0.26745906 2.194
0.0083085718 0.2658743 2.181
0.012462857 0.2658743 2.181
0.016510477 0.26416764 2.1670001
0.020638095 0.26416764 2.1670001
0.024765715 0.26416764 2.1670001
0.028893335 0.26416764 2.1670001
0.033020955 0.26416764 2.1670001
0.037148573 0.26416764 2.1670001
0.041009527 0.26246098 2.1530001
0.045110479 0.26246098 2.1530001
0.048914287 0.26087621 2.1400001
0.052668575 0.25929144 2.1270001
0.056720003 0.25929144 2.1270001
0.060400002 0.25770667 2.1140001
0.064426668 0.25770667 2.1140001
0.068453334 0.25770667 2.1140001
0.072034292 0.2561219 2.1010001
0.076036192 0.2561219 2.1010001
0.0800381 0.2561219 2.1010001
0.084040001 0.2561219 2.1010001
0.088041909 0.2561219 2.1010001
0.09204381 0.2561219 2.1010001
0.096045718 0.2561219 2.1010001
0.10004763 0.2561219 2.1010001
0.10340572 0.25453717 2.0880001
0.10738286 0.25453717 2.0880001
0.11136001 0.25453717 2.0880001
0.11467429 0.25307429 2.0760002
0.11862858 0.25307429 2.0760002
0.12181524 0.25148952 2.0630002
0.12574476 0.25148952 2.0630002
0.12967429 0.25148952 2.0630002
0.13360381 0.25148952 2.0630002
0.13673334 0.25002667 2.0510001
0.14064001 0.25002667 2.0510001
0.14454667 0.25002667 2.0510001
0.14845334 0.25002667 2.0510001
0.15146858 0.24856383 2.039
0.15535238 0.24856383 2.039
0.15829906 0.24710096 2.0270002
0.1612 0.2456381 2.0150001
0.16503809 0.2456381 2.0150001
0.1688762 0.2456381 2.0150001
0.17271429 0.2456381 2.0150001
0.17655239 0.2456381 2.0150001
0.18039048 0.2456381 2.0150001
0.18422858 0.2456381 2.0150001
0.18694668 0.24417524 2.003
0.19076191 0.24417524 2.003
0.19457714 0.24417524 2.003
0.19730286 0.2428343 1.9920001
0.20109715 0.2428343 1.9920001
0.20489144 0.2428343 1.9920001
0.20742857 0.24137144 1.9800001
0.21120001 0.24137144 1.9800001
0.21497144 0.24137144 1.9800001
0.21752763 0.24003048 1.9690001
0.2212781 0.24003048 1.9690001
0.22502857 0.24003048 1.9690001
0.22750096 0.23868953 1.9580001
0.22993144 0.23734859 1.9470001
0.23364002 0.23734859 1.9470001
0.23600763 0.23600763 1.9360001
0.23969525 0.23600763 1.9360001
0.24338287 0.23600763 1.9360001
0.24707049 0.23600763 1.9360001
0.24933334 0.23466668 1.9250001
0.25300002 0.23466668 1.9250001
0.25813335 0.23600763 1.9360001
0.26033333 0.23466668 1.9250001
0.264 0.23466668 1.9250001
0.26919621 0.23600763 1.9360001
0.2744343 0.23734859 1.9470001
0.27814287 0.23734859 1.9470001
0.28344381 0.23868953 1.9580001
0.28717333 0.23868953 1.9580001
0.29253715 0.24003048 1.9690001
0.29628763 0.24003048 1.9690001
0.3000381 0.24003048 1.9690001
0.30378857 0.24003048 1.9690001
0.30925715 0.24137144 1.9800001
0.31302857 0.24137144 1.9800001
0.31872001 0.2428343 1.9920001
0.3225143 0.2428343 1.9920001
0.32811049 0.24417524 2.003
0.33192572 0.24417524 2.003
0.33574095 0.24417524 2.003
0.34159049 0.2456381 2.0150001
0.34542859 0.2456381 2.0150001
0.34926668 0.2456381 2.0150001
0.35310477 0.2456381 2.0150001
0.35906857 0.24710096 2.0270002
0.36292952 0.24710096 2.0270002
0.36896193 0.24856383 2.039
0.37284574 0.24856383 2.039
0.37894669 0.25002667 2.0510001
0.38285336 0.25002667 2.0510001
0.38676003 0.25002667 2.0510001
0.39066669 0.25002667 2.0510001
0.39688191 0.25148952 2.0630002
0.40081143 0.25148952 2.0630002
0.40474096 0.25148952 2.0630002
0.41124573 0.25307429 2.0760002
0.41520002 0.25307429 2.0760002
0.41915429 0.25307429 2.0760002
0.42555431 0.25453717 2.0880001
0.43220574 0.2561219 2.1010001
0.43620762 0.2561219 2.1010001
0.44020954 0.2561219 2.1010001
0.44696 0.25770667 2.1140001
0.45098668 0.25770667 2.1140001
0.45501336 0.25770667 2.1140001
0.45904002 0.25770667 2.1140001
0.4630667 0.25770667 2.1140001
0.46709335 0.25770667 2.1140001
0.47401717 0.25929144 2.1270001
0.4809905 0.26087621 2.1400001
0.48506668 0.26087621 2.1400001
0.48914286 0.26087621 2.1400001
0.49621525 0.26246098 2.1530001
0.5003162 0.26246098 2.1530001
0.50441718 0.26246098 2.1530001
0.5085181 0.26246098 2.1530001
0.51261908 0.26246098 2.1530001
0.51672 0.26246098 2.1530001
0.52082098 0.26246098 2.1530001
-0.37900573 0.3158381 2.5510001
-0.37414667 0.3158381 2.5510001
-0.36653715 0.31348571 2.5320001
-0.3617143 0.31348571 2.5320001
-0.35689145 0.31348571 2.5320001
-0.35206857 0.31348571 2.5320001
-0.34477717 0.31125715 2.5140002
-0.33998859 0.31125715 2.5140002
-0.33520001 0.31125715 2.5140002
-0.33041143 0.31125715 2.5140002
-0.32562286 0.31125715 2.5140002
-0.32083431 0.31125715 2.5140002
-0.31604573 0.31125715 2.5140002
-0.3090286 0.3090286 2.4960001
-0.30427429 0.3090286 2.4960001
-0.29952002 0.3090286 2.4960001
-0.29476571 0.3090286 2.4960001
-0.29001144 0.3090286 2.4960001
-0.28525716 0.3090286 2.4960001
-0.28050286 0.3090286 2.4960001
-0.27376002 0.30680001 2.4780002
-0.26708573 0.30457145 2.46
-0.2624 0.30457145 2.46
-0.2577143 0.30457145 2.46
-0.25128001 0.30246669 2.4430001
-0.24662668 0.30246669 2.4430001
-0.24197334 0.30246669 2.4430001
-0.23732001 0.30246669 2.4430001
-0.23266667 0.30246669 2.4430001
-0.22642668 0.3003619 2.4260001
-0.22180572 0.3003619 2.4260001
-0.21718477 0.3003619 2.4260001
-0.21107429 0.29825714 2.4090002
-0.20502858 0.29615238 2.3920002
-0.20047238 0.29615238 2.3920002
-0.19591619 0.29615238 2.3920002
-0.19008 0.29417145 2.3760002
-0.1855543 0.29417145 2.3760002
-0.18102857 0.29417145 2.3760002
-0.17650287 0.29417145 2.3760002
-0.17197715 0.29417145 2.3760002
-0.16625334 0.29206666 2.3590002
-0.16176 0.29206666 2.3590002
-0.15620001 0.29008573 2.3430002
-0.15173715 0.29008573 2.3430002
-0.14626858 0.28810477 2.3270001
-0.1418362 0.28810477 2.3270001
-0.13740382 0.28810477 2.3270001
-0.13211429 0.28624764 2.312
-0.12771048 0.28624764 2.312
-0.12330667 0.28624764 2.312
-0.11890286 0.28624764 2.312
-0.11449905 0.28624764 2.312
-0.11009524 0.28624764 2.312
-0.10500572 0.28439048 2.2970002
-0.10063048 0.28439048 2.2970002
-0.095584765 0.28240955 2.2810001
-0.091240004 0.28240955 2.2810001
-0.086323813 0.28055239 2.266
-0.082007624 0.28055239 2.266
-0.077211432 0.27881905 2.2520001
-0.072921909 0.27881905 2.2520001
-0.068632387 0.27881905 2.2520001
-0.064342856 0.27881905 2.2520001
-0.059653334 0.27696192 2.237
-0.055392385 0.27696192 2.237
-0.050811432 0.27522859 2.223
-0.046577144 0.27522859 2.223
-0.042057145 0.27337143 2.2080002
-0.03785143 0.27337143 2.2080002
-0.033645716 0.27337143 2.2080002
-0.029440001 0.27337143 2.2080002
-0.025234286 0.27337143 2.2080002
-0.021028573 0.27337143 2.2080002
-0.016822858 0.27337143 2.2080002
-0.012617143 0.27337143 2.2080002
-0.0083580958 0.2716381 2.194
-0.0041790479 0.2716381 2.194
0 0.2716381 2.194
0.0041542859 0.27002859 2.181
0.0083085718 0.27002859 2.181
0.012462857 0.27002859 2.181
0.016617144 0.27002859 2.181
0.020638095 0.26829526 2.1670001
0.024765715 0.26829526 2.1670001
0.028893335 0.26829526 2.1670001
0.033020955 0.26829526 2.1670001
0.037148573 0.26829526 2.1670001
0.041009527 0.26656193 2.1530001
0.045110479 0.26656193 2.1530001
0.048914287 0.26495239 2.1400001
0.052668575 0.26334286 2.1270001
0.056373335 0.26173335 2.1140001
0.060400002 0.26173335 2.1140001
0.064426668 0.26173335 2.1140001
0.068453334 0.26173335 2.1140001
0.072034292 0.26012382 2.1010001
0.076506667 0.26173335 2.1140001
0.0800381 0.26012382 2.1010001
0.084040001 0.26012382 2.1010001
0.088041909 0.26012382 2.1010001
0.09204381 0.26012382 2.1010001
0.096045718 0.26012382 2.1010001
0.10004763 0.26012382 2.1010001
0.10340572 0.25851429 2.0880001
0.10738286 0.25851429 2.0880001
0.11072 0.25702858 2.0760002
0.11467429 0.25702858 2.0760002
0.11862858 0.25702858 2.0760002
0.12181524 0.25541905 2.0630002
0.12574476 0.25541905 2.0630002
0.12967429 0.25541905 2.0630002
0.13360381 0.25541905 2.0630002
0.13673334 0.25393334 2.0510001
0.14064001 0.25393334 2.0510001
0.14454667 0.25393334 2.0510001
0.14845334 0.25393334 2.0510001
0.15146858 0.25244763 2.039
0.15535238 0.25244763 2.039
0.15923619 0.25244763 2.039
0.16216001 0.2509619 2.0270002
0.16503809 0.24947619 2.0150001
0.1688762 0.24947619 2.0150001
0.17271429 0.24947619 2.0150001
0.17655239 0.24947619 2.0150001
0.18039048 0.24947619 2.0150001
0.18313144 0.24799049 2.003
0.18694668 0.24799049 2.003
0.19076191 0.24799049 2.003
0.19457714 0.24799049 2.003
0.19730286 0.24662858 1.9920001
0.20109715 0.24662858 1.9920001
0.20489144 0.24662858 1.9920001
0.20742857 0.24514286 1.9800001
0.21120001 0.24514286 1.9800001
0.21497144 0.24514286 1.9800001
0.21752763 0.24378096 1.9690001
0.2212781 0.24378096 1.9690001
0.22502857 0.24378096 1.9690001
0.22750096 0.24241905 1.9580001
0.22993144 0.24105716 1.9470001
0.23364002 0.24105716 1.9470001
0.23734859 0.24105716 1.9470001
0.23969525 0.23969525 1.9360001
0.24338287 0.23969525 1.9360001
0.24707049 0.23969525 1.9360001
0.24933334 0.23833334 1.9250001
0.25300002 0.23833334 1.9250001
0.25813335 0.23969525 1.9360001
0.26033333 0.23833334 1.9250001
0.264 0.23833334 1.9250001
0.26919621 0.23969525 1.9360001
0.27288383 0.23969525 1.9360001
0.27814287 0.24105716 1.9470001
0.28344381 0.24241905 1.9580001
0.28717333 0.24241905 1.9580001
0.29253715 0.24378096 1.9690001
0.29628763 0.24378096 1.9690001
0.3000381 0.24378096 1.9690001
0.30378857 0.24378096 1.9690001
0.30925715 0.24514286 1.9800001
0.31302857 0.24514286 1.9800001
0.31872001 0.24662858 1.9920001
0.3225143 0.24662858 1.9920001
0.32630858 0.24662858 1.9920001
0.33192572 0.24799049 2.003
0.33574095 0.24799049 2.003
0.33955622 0.24799049 2.003
0.34542859 0.24947619 2.0150001
0.34926668 0.24947619 2.0150001
0.35310477 0.24947619 2.0150001
0.35906857 0.2509619 2.0270002
0.36292952 0.2509619 2.0270002
0.3667905 0.2509619 2.0270002
0.37284574 0.25244763 2.039
0.37894669 0.25393334 2.0510001
0.38285336 0.25393334 2.0510001
0.38676003 0.25393334 2.0510001
0.39295238 0.25541905 2.0630002
0.39688191 0.25541905 2.0630002
0.40081143 0.25541905 2.0630002
0.40474096 0.25541905 2.0630002
0.40867049 0.25541905 2.0630002
0.41520002 0.25702858 2.0760002
0.41915429 0.25702858 2.0760002
0.42555431 0.25851429 2.0880001
0.43220574 0.26012382 2.1010001
0.43620762 0.26012382 2.1010001
0.44020954 0.26012382 2.1010001
0.44421145 0.26012382 2.1010001
0.45098668 0.26173335 2.1140001
0.45501336 0.26173335 2.1140001
0.45904002 0.26173335 2.1140001
0.4630667 0.26173335 2.1140001
0.46709335 0.26173335 2.1140001
0.47401717 0.26334286 2.1270001
0.47806859 0.26334286 2.1270001
0.48506668 0.26495239 2.1400001
0.49211431 0.26656193 2.1530001
0.49621525 0.26656193 2.1530001
0.5003162 0.26656193 2.1530001
0.50441718 0.26656193 2.1530001
0.5085181 0.26656193 2.1530001
0.51261908 0.26656193 2.1530001
0.51672 0.26656193 2.1530001
0.52082098 0.26656193 2.1530001
-0.37618288 0.31830859 2.5320001
-0.37136 0.31830859 2.5320001
-0.36653715 0.31830859 2.5320001
-0.3617143 0.31830859 2.5320001
-0.35689145 0.31830859 2.5320001
-0.34956571 0.31604573 2.5140002
-0.34477717 0.31604573 2.5140002
-0.33998859 0.31604573 2.5140002
-0.33520001 0.31604573 2.5140002
-0.33041143 0.31604573 2.5140002
-0.32562286 0.31604573 2.5140002
-0.32083431 0.31604573 2.5140002
-0.31604573 0.31604573 2.5140002
-0.3090286 0.31378287 2.4960001
-0.30427429 0.31378287 2.4960001
-0.29952002 0.31378287 2.4960001
-0.29476571 0.31378287 2.4960001
-0.28792 0.31152001 2.4780002
-0.2832 0.31152001 2.4780002
-0.27848002 0.31152001 2.4780002
-0.27376002 0.31152001 2.4780002
-0.26708573 0.30925715 2.46
-0.2624 0.30925715 2.46
-0.2577143 0.30925715 2.46
-0.25128001 0.30712003 2.4430001
-0.24662668 0.30712003 2.4430001
-0.24197334 0.30712003 2.4430001
-0.23732001 0.30712003 2.4430001
-0.23266667 0.30712003 2.4430001
-0.22642668 0.30498287 2.4260001
-0.22180572 0.30498287 2.4260001
-0.21718477 0.30498287 2.4260001
-0.21107429 0.30284572 2.4090002
-0.20502858 0.30070859 2.3920002
-0.20047238 0.30070859 2.3920002
-0.19591619 0.30070859 2.3920002
-0.19008 0.29869714 2.3760002
-0.1855543 0.29869714 2.3760002
-0.18102857 0.29869714 2.3760002
-0.17650287 0.29869714 2.3760002
-0.17197715 0.29869714 2.3760002
-0.16625334 0.29656002 2.3590002
-0.16176 0.29656002 2.3590002
-0.15620001 0.29454857 2.3430002
-0.15173715 0.29454857 2.3430002
-0.14626858 0.29253715 2.3270001
-0.1418362 0.29253715 2.3270001
-0.13740382 0.29253715 2.3270001
-0.13211429 0.29065144 2.312
-0.12771048 0.29065144 2.312
-0.12330667 0.29065144 2.312
-0.11890286 0.29065144 2.312
-0.11449905 0.29065144 2.312
-0.11009524 0.29065144 2.312
-0.10500572 0.28876573 2.2970002
-0.10063048 0.28876573 2.2970002
-0.095584765 0.28675431 2.2810001
-0.091240004 0.28675431 2.2810001
-0.086323813 0.28486857 2.266
-0.082007624 0.28486857 2.266
-0.077211432 0.28310859 2.2520001
-0.072921909 0.28310859 2.2520001
-0.068632387 0.28310859 2.2520001
-0.064342856 0.28310859 2.2520001
-0.060053337 0.28310859 2.2520001
-0.055392385 0.28122288 2.237
-0.051131431 0.28122288 2.237
-0.046577144 0.27946287 2.223
-0.042057145 0.27757716 2.2080002
-0.03785143 0.27757716 2.2080002
-0.033645716 0.27757716 2.2080002
-0.029440001 0.27757716 2.2080002
-0.025234286 0.27757716 2.2080002
-0.021028573 0.27757716 2.2080002
-0.016822858 0.27757716 2.2080002
-0.012617143 0.27757716 2.2080002
-0.0084114289 0.27757716 2.2080002
-0.0041790479 0.27581716 2.194
0 0.27581716 2.194
0.0041542859 0.27418286 2.181
0.0082552386 0.27242288 2.1670001
0.012462857 0.27418286 2.181
0.016510477 0.27242288 2.1670001
0.020638095 0.27242288 2.1670001
0.024765715 0.27242288 2.1670001
0.028893335 0.27242288 2.1670001
0.033020955 0.27242288 2.1670001
0.037148573 0.27242288 2.1670001
0.041009527 0.27066287 2.1530001
0.045110479 0.27066287 2.1530001
0.048914287 0.26902857 2.1400001
0.052668575 0.2673943 2.1270001
0.056720003 0.2673943 2.1270001
0.060400002 0.26576 2.1140001
0.064426668 0.26576 2.1140001
0.068453334 0.26576 2.1140001
0.072480001 0.26576 2.1140001
0.076506667 0.26576 2.1140001
0.080533333 0.26576 2.1140001
0.084040001 0.26412573 2.1010001
0.088041909 0.26412573 2.1010001
0.09204381 0.26412573 2.1010001
0.095451429 0.26249143 2.0880001
0.099428572 0.26249143 2.0880001
0.10340572 0.26249143 2.0880001
0.10676572 0.26098287 2.0760002
0.11072 0.26098287 2.0760002
0.1139562 0.25934857 2.0630002
0.11788572 0.25934857 2.0630002
0.12181524 0.25934857 2.0630002
0.12574476 0.25934857 2.0630002
0.12967429 0.25934857 2.0630002
0.13360381 0.25934857 2.0630002
0.13673334 0.25784001 2.0510001
0.14064001 0.25784001 2.0510001
0.14454667 0.25784001 2.0510001
0.14845334 0.25784001 2.0510001
0.15236001 0.25784001 2.0510001
0.15535238 0.25633144 2.039
0.15829906 0.25482288 2.0270002
0.16216001 0.25482288 2.0270002
0.16503809 0.25331429 2.0150001
0.1688762 0.25331429 2.0150001
0.17271429 0.25331429 2.0150001
0.17655239 0.25331429 2.0150001
0.18039048 0.25331429 2.0150001
0.18313144 0.25180572 2.003
0.18694668 0.25180572 2.003
0.19076191 0.25180572 2.003
0.19457714 0.25180572 2.003
0.19730286 0.25042287 1.9920001
0.20109715 0.25042287 1.9920001
0.20489144 0.25042287 1.9920001
0.20742857 0.2489143 1.9800001
0.21120001 0.2489143 1.9800001
0.21497144 0.2489143 1.9800001
0.21752763 0.24753144 1.9690001
0.2212781 0.24753144 1.9690001
0.22502857 0.24753144 1.9690001
0.22750096 0.24614859 1.9580001
0.23123048 0.24614859 1.9580001
0.23364002 0.24476573 1.9470001
0.23734859 0.24476573 1.9470001
0.24105716 0.24476573 1.9470001
0.24338287 0.24338287 1.9360001
0.24707049 0.24338287 1.9360001
0.24933334 0.24200001 1.9250001
0.25300002 0.24200001 1.9250001
0.25666669 0.24200001 1.9250001
0.26033333 0.24200001 1.9250001
0.264 0.24200001 1.9250001
0.26766667 0.24200001 1.9250001
0.27288383 0.24338287 1.9360001
0.27814287 0.24476573 1.9470001
0.28185144 0.24476573 1.9470001
0.28717333 0.24614859 1.9580001
0.29090285 0.24614859 1.9580001
0.29463241 0.24614859 1.9580001
0.3000381 0.24753144 1.9690001
0.30378857 0.24753144 1.9690001
0.30753905 0.24753144 1.9690001
0.31302857 0.2489143 1.9800001
0.3168 0.2489143 1.9800001
0.3225143 0.25042287 1.9920001
0.32630858 0.25042287 1.9920001
0.33192572 0.25180572 2.003
0.33574095 0.25180572 2.003
0.33955622 0.25180572 2.003
0.34542859 0.25331429 2.0150001
0.34926668 0.25331429 2.0150001
0.35310477 0.25331429 2.0150001
0.35694286 0.25331429 2.0150001
0.36292952 0.25482288 2.0270002
0.3667905 0.25482288 2.0270002
0.37284574 0.25633144 2.039
0.37894669 0.25784001 2.0510001
0.38285336 0.25784001 2.0510001
0.38676003 0.25784001 2.0510001
0.39295238 0.25934857 2.0630002
0.39688191 0.25934857 2.0630002
0.40081143 0.25934857 2.0630002
0.40474096 0.25934857 2.0630002
0.41124573 0.26098287 2.0760002
0.41260001 0.25934857 2.0630002
0.41915429 0.26098287 2.0760002
0.42555431 0.26249143 2.0880001
0.42953146 0.26249143 2.0880001
0.43620762 0.26412573 2.1010001
0.44020954 0.26412573 2.1010001
0.44696 0.26576 2.1140001
0.45098668 0.26576 2.1140001
0.45501336 0.26576 2.1140001
0.45904002 0.26576 2.1140001
0.4630667 0.26576 2.1140001
0.46709335 0.26576 2.1140001
0.47112003 0.26576 2.1140001
0.47806859 0.2673943 2.1270001
0.48506668 0.26902857 2.1400001
0.48914286 0.26902857 2.1400001
0.49321908 0.26902857 2.1400001
0.5003162 0.27066287 2.1530001
0.50441718 0.27066287 2.1530001
0.5085181 0.27066287 2.1530001
0.51261908 0.27066287 2.1530001
0.51672 0.27066287 2.1530001
0.52082098 0.27066287 2.1530001
-0.37618288 0.32313144 2.5320001
-0.37136 0.32313144 2.5320001
-0.36653715 0.32313144 2.5320001
-0.3617143 0.32313144 2.5320001
-0.35689145 0.32313144 2.5320001
-0.34956571 0.32083431 2.5140002
-0.34477717 0.32083431 2.5140002
-0.33998859 0.32083431 2.5140002
-0.33520001 0.32083431 2.5140002
-0.33041143 0.32083431 2.5140002
-0.32562286 0.32083431 2.5140002
-0.32083431 0.32083431 2.5140002
-0.31604573 0.32083431 2.5140002
-0.3090286 0.31853715 2.4960001
-0.30427429 0.31853715 2.4960001
-0.29952002 0.31853715 2.4960001
-0.29476571 0.31853715 2.4960001
-0.28792 0.31624001 2.4780002
-0.2832 0.31624001 2.4780002
-0.27848002 0.31624001 2.4780002
-0.27177143 0.31394288 2.46
-0.26708573 0.31394288 2.46
-0.2624 0.31394288 2.46
-0.25593334 0.31177333 2.4430001
-0.25128001 0.31177333 2.4430001
-0.24662668 0.31177333 2.4430001
-0.24197334 0.31177333 2.4430001
-0.23732001 0.31177333 2.4430001
-0.23266667 0.31177333 2.4430001
-0.22801334 0.31177333 2.4430001
-0.22336 0.31177333 2.4430001
-0.21718477 0.30960381 2.4260001
-0.21107429 0.30743429 2.4090002
-0.20648572 0.30743429 2.4090002
-0.20047238 0.30526477 2.3920002
-0.19591619 0.30526477 2.3920002
-0.19136001 0.30526477 2.3920002
-0.1855543 0.30322286 2.3760002
-0.18102857 0.30322286 2.3760002
-0.17650287 0.30322286 2.3760002
-0.17197715 0.30322286 2.3760002
-0.16625334 0.30105335 2.3590002
-0.16066286 0.29901144 2.3430002
-0.15620001 0.29901144 2.3430002
-0.15070096 0.29696953 2.3270001
-0.14626858 0.29696953 2.3270001
-0.1418362 0.29696953 2.3270001
-0.13651811 0.29505524 2.312
-0.13211429 0.29505524 2.312
-0.12771048 0.29505524 2.312
-0.12330667 0.29505524 2.312
-0.11890286 0.29505524 2.312
-0.11375619 0.29314098 2.2970002
-0.11009524 0.29505524 2.312
-0.10500572 0.29314098 2.2970002
-0.10063048 0.29314098 2.2970002
-0.095584765 0.29109907 2.2810001
-0.091240004 0.29109907 2.2810001
-0.086323813 0.28918478 2.266
-0.082007624 0.28918478 2.266
-0.077691428 0.28918478 2.266
-0.072921909 0.2873981 2.2520001
-0.068632387 0.2873981 2.2520001
-0.064342856 0.2873981 2.2520001
-0.060053337 0.2873981 2.2520001
-0.055392385 0.28548381 2.237
-0.051131431 0.28548381 2.237
-0.046577144 0.28369716 2.223
-0.042057145 0.28178287 2.2080002
-0.03785143 0.28178287 2.2080002
-0.033645716 0.28178287 2.2080002
-0.029440001 0.28178287 2.2080002
-0.025234286 0.28178287 2.2080002
-0.021028573 0.28178287 2.2080002
-0.016822858 0.28178287 2.2080002
-0.012617143 0.28178287 2.2080002
-0.0084114289 0.28178287 2.2080002
-0.0041790479 0.27999619 2.194
0 0.27999619 2.194
0.0041790479 0.27999619 2.194
0.0083085718 0.27833715 2.181
0.012462857 0.27833715 2.181
0.016617144 0.27833715 2.181
0.020638095 0.27655047 2.1670001
0.024765715 0.27655047 2.1670001
0.028893335 0.27655047 2.1670001
0.032807622 0.27476382 2.1530001
0.036908574 0.27476382 2.1530001
0.041009527 0.27476382 2.1530001
0.045110479 0.27476382 2.1530001
0.048914287 0.27310476 2.1400001
0.052668575 0.27144572 2.1270001
0.056720003 0.27144572 2.1270001
0.060400002 0.26978669 2.1140001
0.064426668 0.26978669 2.1140001
0.068453334 0.26978669 2.1140001
0.072480001 0.26978669 2.1140001
0.076506667 0.26978669 2.1140001
0.080533333 0.26978669 2.1140001
0.084559999 0.26978669 2.1140001
0.088041909 0.26812762 2.1010001
0.09204381 0.26812762 2.1010001
0.096045718 0.26812762 2.1010001
0.099428572 0.26646858 2.0880001
0.10340572 0.26646858 2.0880001
0.10676572 0.26493716 2.0760002
0.11072 0.26493716 2.0760002
0.1139562 0.2632781 2.0630002
0.11788572 0.2632781 2.0630002
0.12181524 0.2632781 2.0630002
0.12574476 0.2632781 2.0630002
0.12967429 0.2632781 2.0630002
0.13360381 0.2632781 2.0630002
0.13673334 0.26174667 2.0510001
0.14064001 0.26174667 2.0510001
0.14454667 0.26174667 2.0510001
0.14845334 0.26174667 2.0510001
0.15236001 0.26174667 2.0510001
0.15535238 0.26021525 2.039
0.15923619 0.26021525 2.039
0.16216001 0.25868383 2.0270002
0.16503809 0.25715238 2.0150001
0.1688762 0.25715238 2.0150001
0.17271429 0.25715238 2.0150001
0.17655239 0.25715238 2.0150001
0.18039048 0.25715238 2.0150001
0.18313144 0.25562096 2.003
0.18694668 0.25562096 2.003
0.19076191 0.25562096 2.003
0.19457714 0.25562096 2.003
0.19730286 0.25421715 1.9920001
0.20109715 0.25421715 1.9920001
0.20489144 0.25421715 1.9920001
0.20868573 0.25421715 1.9920001
0.21120001 0.25268573 1.9800001
0.21497144 0.25268573 1.9800001
0.21752763 0.25128192 1.9690001
0.2212781 0.25128192 1.9690001
0.22502857 0.25128192 1.9690001
0.22750096 0.24987811 1.9580001
0.23123048 0.24987811 1.9580001
0.23364002 0.2484743 1.9470001
0.23734859 0.2484743 1.9470001
0.24105716 0.2484743 1.9470001
0.24338287 0.24707049 1.9360001
0.24707049 0.24707049 1.9360001
0.24933334 0.24566668 1.9250001
0.25300002 0.24566668 1.9250001
0.25666669 0.24566668 1.9250001
0.26033333 0.24566668 1.9250001
0.264 0.24566668 1.9250001
0.26766667 0.24566668 1.9250001
0.27288383 0.24707049 1.9360001
0.27814287 0.2484743 1.9470001
0.28185144 0.2484743 1.9470001
0.28717333 0.24987811 1.9580001
0.29090285 0.24987811 1.9580001
0.29463241 0.24987811 1.9580001
0.3000381 0.25128192 1.9690001
0.30378857 0.25128192 1.9690001
0.30753905 0.25128192 1.9690001
0.31302857 0.25268573 1.9800001
0.31872001 0.25421715 1.9920001
0.3225143 0.25421715 1.9920001
0.32630858 0.25421715 1.9920001
0.33192572 0.25562096 2.003
0.33574095 0.25562096 2.003
0.33955622 0.25562096 2.003
0.34542859 0.25715238 2.0150001
0.34926668 0.25715238 2.0150001
0.35310477 0.25715238 2.0150001
0.35694286 0.25715238 2.0150001
0.36078095 0.25715238 2.0150001
0.3667905 0.25868383 2.0270002
0.37284574 0.26021525 2.039
0.37672955 0.26021525 2.039
0.38285336 0.26174667 2.0510001
0.38676003 0.26174667 2.0510001
0.39066669 0.26174667 2.0510001
0.39688191 0.2632781 2.0630002
0.40081143 0.2632781 2.0630002
0.40474096 0.2632781 2.0630002
0.41124573 0.26493716 2.0760002
0.41520002 0.26493716 2.0760002
0.41915429 0.26493716 2.0760002
0.42555431 0.26646858 2.0880001
0.42953146 0.26646858 2.0880001
0.43350857 0.26646858 2.0880001
0.44020954 0.26812762 2.1010001
0.44696 0.26978669 2.1140001
0.45098668 0.26978669 2.1140001
0.45501336 0.26978669 2.1140001
0.45904002 0.26978669 2.1140001
0.4630667 0.26978669 2.1140001
0.46996573 0.27144572 2.1270001
0.47401717 0.27144572 2.1270001
0.47806859 0.27144572 2.1270001
0.48506668 0.27310476 2.1400001
0.48914286 0.27310476 2.1400001
0.49321908 0.27310476 2.1400001
0.5003162 0.27476382 2.1530001
0.50441718 0.27476382 2.1530001
0.5085181 0.27476382 2.1530001
0.51261908 0.27476382 2.1530001
0.51672 0.27476382 2.1530001
0.52082098 0.27476382 2.1530001
-0.37618288 0.32795429 2.5320001
-0.37136 0.32795429 2.5320001
-0.36653715 0.32795429 2.5320001
-0.3617143 0.32795429 2.5320001
-0.35689145 0.32795429 2.5320001
-0.34956571 0.32562286 2.5140002
-0.34477717 0.32562286 2.5140002
-0.33998859 0.32562286 2.5140002
-0.33520001 0.32562286 2.5140002
-0.33041143 0.32562286 2.5140002
-0.32562286 0.32562286 2.5140002
-0.32083431 0.32562286 2.5140002
-0.31604573 0.32562286 2.5140002
-0.3090286 0.32329145 2.4960001
-0.30427429 0.32329145 2.4960001
-0.29952002 0.32329145 2.4960001
-0.29476571 0.32329145 2.4960001
-0.28792 0.32096002 2.4780002
-0.2832 0.32096002 2.4780002
-0.27848002 0.32096002 2.4780002
-0.27177143 0.31862858 2.46
-0.26708573 0.31862858 2.46
-0.2624 0.31862858 2.46
-0.2577143 0.31862858 2.46
-0.25128001 0.31642666 2.4430001
-0.24662668 0.31642666 2.4430001
-0.24197334 0.31642666 2.4430001
-0.23732001 0.31642666 2.4430001
-0.23266667 0.31642666 2.4430001
-0.22801334 0.31642666 2.4430001
-0.22336 0.31642666 2.4430001
-0.21870667 0.31642666 2.4430001
-0.21256381 0.31422478 2.4260001
-0.20648572 0.31202286 2.4090002
-0.20047238 0.30982095 2.3920002
-0.19591619 0.30982095 2.3920002
-0.19136001 0.30982095 2.3920002
-0.1855543 0.30774859 2.3760002
-0.18102857 0.30774859 2.3760002
-0.17650287 0.30774859 2.3760002
-0.17197715 0.30774859 2.3760002
-0.16625334 0.30554667 2.3590002
-0.16176 0.30554667 2.3590002
-0.15620001 0.30347431 2.3430002
-0.15070096 0.30140191 2.3270001
-0.14626858 0.30140191 2.3270001
-0.1418362 0.30140191 2.3270001
-0.13740382 0.30140191 2.3270001
-0.13211429 0.29945907 2.312
-0.12771048 0.29945907 2.312
-0.12330667 0.29945907 2.312
-0.11890286 0.29945907 2.312
-0.11375619 0.2975162 2.2970002
-0.10938095 0.2975162 2.2970002
-0.10500572 0.2975162 2.2970002
-0.10063048 0.2975162 2.2970002
-0.095584765 0.29544383 2.2810001
-0.091240004 0.29544383 2.2810001
-0.086323813 0.29350096 2.266
-0.082007624 0.29350096 2.266
-0.077211432 0.29168764 2.2520001
-0.072921909 0.29168764 2.2520001
-0.068632387 0.29168764 2.2520001
-0.064342856 0.29168764 2.2520001
-0.060053337 0.29168764 2.2520001
-0.055392385 0.28974476 2.237
-0.051131431 0.28974476 2.237
-0.046870477 0.28974476 2.237
-0.04234286 0.28793144 2.223
-0.038108572 0.28793144 2.223
-0.033645716 0.28598857 2.2080002
-0.02964 0.28793144 2.223
-0.025405716 0.28793144 2.223
-0.021028573 0.28598857 2.2080002
-0.016822858 0.28598857 2.2080002
-0.012617143 0.28598857 2.2080002
-0.0084114289 0.28598857 2.2080002
-0.0041790479 0.28417525 2.194
0 0.28417525 2.194
0.0041790479 0.28417525 2.194
0.0083085718 0.28249145 2.181
0.012462857 0.28249145 2.181
0.016617144 0.28249145 2.181
0.020638095 0.28067809 2.1670001
0.024765715 0.28067809 2.1670001
0.028893335 0.28067809 2.1670001
0.032807622 0.27886477 2.1530001
0.036908574 0.27886477 2.1530001
0.041009527 0.27886477 2.1530001
0.045110479 0.27886477 2.1530001
0.048914287 0.27718097 2.1400001
0.052668575 0.27549714 2.1270001
0.056720003 0.27549714 2.1270001
0.060400002 0.27381334 2.1140001
0.064426668 0.27381334 2.1140001
0.068453334 0.27381334 2.1140001
0.072480001 0.27381334 2.1140001
0.076506667 0.27381334 2.1140001
0.080533333 0.27381334 2.1140001
0.084559999 0.27381334 2.1140001
0.088041909 0.27212954 2.1010001
0.09204381 0.27212954 2.1010001
0.095451429 0.27044573 2.0880001
0.099428572 0.27044573 2.0880001
0.10281143 0.26889142 2.0760002
0.10676572 0.26889142 2.0760002
0.11072 0.26889142 2.0760002
0.1139562 0.26720762 2.0630002
0.11788572 0.26720762 2.0630002
0.12181524 0.26720762 2.0630002
0.12574476 0.26720762 2.0630002
0.12967429 0.26720762 2.0630002
0.13360381 0.26720762 2.0630002
0.13673334 0.26565334 2.0510001
0.14064001 0.26565334 2.0510001
0.14454667 0.26565334 2.0510001
0.14845334 0.26565334 2.0510001
0.15236001 0.26565334 2.0510001
0.15535238 0.26409906 2.039
0.15923619 0.26409906 2.039
0.16216001 0.26254478 2.0270002
0.16503809 0.2609905 2.0150001
0.1688762 0.2609905 2.0150001
0.17271429 0.2609905 2.0150001
0.17655239 0.2609905 2.0150001
0.18039048 0.2609905 2.0150001
0.18313144 0.25943619 2.003
0.18694668 0.25943619 2.003
0.19076191 0.25943619 2.003
0.19457714 0.25943619 2.003
0.19730286 0.25801143 1.9920001
0.20109715 0.25801143 1.9920001
0.20489144 0.25801143 1.9920001
0.20742857 0.25645715 1.9800001
0.21120001 0.25645715 1.9800001
0.21377715 0.25503239 1.9690001
0.21752763 0.25503239 1.9690001
0.2212781 0.25503239 1.9690001
0.22502857 0.25503239 1.9690001
0.22750096 0.25360763 1.9580001
0.23123048 0.25360763 1.9580001
0.23364002 0.25218287 1.9470001
0.23734859 0.25218287 1.9470001
0.23969525 0.25075811 1.9360001
0.24338287 0.25075811 1.9360001
0.24707049 0.25075811 1.9360001
0.24933334 0.24933334 1.9250001
0.25300002 0.24933334 1.9250001
0.25666669 0.24933334 1.9250001
0.26033333 0.24933334 1.9250001
0.264 0.24933334 1.9250001
0.26766667 0.24933334 1.9250001
0.27288383 0.25075811 1.9360001
0.27814287 0.25218287 1.9470001
0.28185144 0.25218287 1.9470001
0.28717333 0.25360763 1.9580001
0.29090285 0.25360763 1.9580001
0.29463241 0.25360763 1.9580001
0.3000381 0.25503239 1.9690001
0.30378857 0.25503239 1.9690001
0.30925715 0.25645715 1.9800001
0.31302857 0.25645715 1.9800001
0.31872001 0.25801143 1.9920001
0.3225143 0.25801143 1.9920001
0.32811049 0.25943619 2.003
0.33391431 0.2609905 2.0150001
0.3377524 0.2609905 2.0150001
0.34159049 0.2609905 2.0150001
0.34542859 0.2609905 2.0150001
0.34926668 0.2609905 2.0150001
0.35310477 0.2609905 2.0150001
0.35694286 0.2609905 2.0150001
0.36292952 0.26254478 2.0270002
0.3667905 0.26254478 2.0270002
0.37284574 0.26409906 2.039
0.37894669 0.26565334 2.0510001
0.38285336 0.26565334 2.0510001
0.38676003 0.26565334 2.0510001
0.39066669 0.26565334 2.0510001
0.39688191 0.26720762 2.0630002
0.40081143 0.26720762 2.0630002
0.40474096 0.26720762 2.0630002
0.40867049 0.26720762 2.0630002
0.41520002 0.26889142 2.0760002
0.41915429 0.26889142 2.0760002
0.42555431 0.27044573 2.0880001
0.42953146 0.27044573 2.0880001
0.43620762 0.27212954 2.1010001
0.44020954 0.27212954 2.1010001
0.44421145 0.27212954 2.1010001
0.45098668 0.27381334 2.1140001
0.45501336 0.27381334 2.1140001
0.45904002 0.27381334 2.1140001
0.4630667 0.27381334 2.1140001
0.46709335 0.27381334 2.1140001
0.47401717 0.27549714 2.1270001
0.47806859 0.27549714 2.1270001
0.48506668 0.27718097 2.1400001
0.48914286 0.27718097 2.1400001
0.49621525 0.27886477 2.1530001
0.5003162 0.27886477 2.1530001
0.50441718 0.27886477 2.1530001
0.5085181 0.27886477 2.1530001
0.51261908 0.27886477 2.1530001
0.51672 0.27886477 2.1530001
0.52082098 0.27886477 2.1530001
-0.37618288 0.33277714 2.5320001
-0.37136 0.33277714 2.5320001
-0.36653715 0.33277714 2.5320001
-0.3617143 0.33277714 2.5320001
-0.35689145 0.33277714 2.5320001
-0.34956571 0.33041143 2.5140002
-0.34477717 0.33041143 2.5140002
-0.33998859 0.33041143 2.5140002
-0.33520001 0.33041143 2.5140002
-0.33041143 0.33041143 2.5140002
-0.32562286 0.33041143 2.5140002
-0.32083431 0.33041143 2.5140002
-0.31604573 0.33041143 2.5140002
-0.31125715 0.33041143 2.5140002
-0.30427429 0.32804573 2.4960001
-0.29952002 0.32804573 2.4960001
-0.29476571 0.32804573 2.4960001
-0.28792 0.32568002 2.4780002
-0.2832 0.32568002 2.4780002
-0.27848002 0.32568002 2.4780002
-0.27177143 0.32331431 2.46
-0.26708573 0.32331431 2.46
-0.2624 0.32331431 2.46
-0.2577143 0.32331431 2.46
-0.25128001 0.32108 2.4430001
-0.24662668 0.32108 2.4430001
-0.24197334 0.32108 2.4430001
-0.23732001 0.32108 2.4430001
-0.23266667 0.32108 2.4430001
-0.22801334 0.32108 2.4430001
-0.22336 0.32108 2.4430001
-0.21870667 0.32108 2.4430001
-0.21256381 0.31884572 2.4260001
-0.20648572 0.31661144 2.4090002
-0.20047238 0.31437716 2.3920002
-0.19591619 0.31437716 2.3920002
-0.19136001 0.31437716 2.3920002
-0.1855543 0.31227431 2.3760002
-0.18102857 0.31227431 2.3760002
-0.17650287 0.31227431 2.3760002
-0.17074667 0.31004 2.3590002
-0.16625334 0.31004 2.3590002
-0.16066286 0.30793715 2.3430002
-0.15620001 0.30793715 2.3430002
-0.15070096 0.30583429 2.3270001
-0.14626858 0.30583429 2.3270001
-0.1418362 0.30583429 2.3270001
-0.13651811 0.30386287 2.312
-0.13211429 0.30386287 2.312
-0.12771048 0.30386287 2.312
-0.12330667 0.30386287 2.312
-0.11813144 0.30189145 2.2970002
-0.11375619 0.30189145 2.2970002
-0.10938095 0.30189145 2.2970002
-0.10500572 0.30189145 2.2970002
-0.10063048 0.30189145 2.2970002
-0.095584765 0.29978859 2.2810001
-0.090640001 0.29781714 2.266
-0.086323813 0.29781714 2.266
-0.082007624 0.29781714 2.266
-0.077211432 0.29597715 2.2520001
-0.072921909 0.29597715 2.2520001
-0.068632387 0.29597715 2.2520001
-0.064342856 0.29597715 2.2520001
-0.060053337 0.29597715 2.2520001
-0.055392385 0.29400572 2.237
-0.051131431 0.29400572 2.237
-0.046870477 0.29400572 2.237
-0.04234286 0.29216573 2.223
-0.038108572 0.29216573 2.223
-0.033645716 0.2901943 2.2080002
-0.02964 0.29216573 2.223
-0.025405716 0.29216573 2.223
-0.021028573 0.2901943 2.2080002
-0.016822858 0.2901943 2.2080002
-0.012617143 0.2901943 2.2080002
-0.0084114289 0.2901943 2.2080002
-0.0042057144 0.2901943 2.2080002
0 0.28835431 2.194
0.0041790479 0.28835431 2.194
0.0083085718 0.28664571 2.181
0.012462857 0.28664571 2.181
0.016617144 0.28664571 2.181
0.020638095 0.28480572 2.1670001
0.024765715 0.28480572 2.1670001
0.028893335 0.28480572 2.1670001
0.033020955 0.28480572 2.1670001
0.037148573 0.28480572 2.1670001
0.041009527 0.28296572 2.1530001
0.045110479 0.28296572 2.1530001
0.048914287 0.28125715 2.1400001
0.052668575 0.27954859 2.1270001
0.056720003 0.27954859 2.1270001
0.060400002 0.27784002 2.1140001
0.064426668 0.27784002 2.1140001
0.068453334 0.27784002 2.1140001
0.072480001 0.27784002 2.1140001
0.076506667 0.27784002 2.1140001
0.080533333 0.27784002 2.1140001
0.084559999 0.27784002 2.1140001
0.088041909 0.27613145 2.1010001
0.09204381 0.27613145 2.1010001
0.095451429 0.27442285 2.0880001
0.099428572 0.27442285 2.0880001
0.10281143 0.27284572 2.0760002
0.10676572 0.27284572 2.0760002
0.11002667 0.27113715 2.0630002
0.1139562 0.27113715 2.0630002
0.11788572 0.27113715 2.0630002
0.12181524 0.27113715 2.0630002
0.12574476 0.27113715 2.0630002
0.12967429 0.27113715 2.0630002
0.13360381 0.27113715 2.0630002
0.13673334 0.26956001 2.0510001
0.14064001 0.26956001 2.0510001
0.14454667 0.26956001 2.0510001
0.14845334 0.26956001 2.0510001
0.15236001 0.26956001 2.0510001
0.15535238 0.26798287 2.039
0.15923619 0.26798287 2.039
0.16216001 0.26640573 2.0270002
0.16503809 0.26482859 2.0150001
0.1688762 0.26482859 2.0150001
0.17271429 0.26482859 2.0150001
0.17655239 0.26482859 2.0150001
0.18039048 0.26482859 2.0150001
0.18313144 0.26325142 2.003
0.18694668 0.26325142 2.003
0.19076191 0.26325142 2.003
0.19457714 0.26325142 2.003
0.19730286 0.26180571 1.9920001
0.20109715 0.26180571 1.9920001
0.20489144 0.26180571 1.9920001
0.20742857 0.26022857 1.9800001
0.21120001 0.26022857 1.9800001
0.21377715 0.25878286 1.9690001
0.21752763 0.25878286 1.9690001
0.2212781 0.25878286 1.9690001
0.22502857 0.25878286 1.9690001
0.22750096 0.25733715 1.9580001
0.23123048 0.25733715 1.9580001
0.23364002 0.25589144 1.9470001
0.23734859 0.25589144 1.9470001
0.23969525 0.25444573 1.9360001
0.24338287 0.25444573 1.9360001
0.24566668 0.25300002 1.9250001
0.24933334 0.25300002 1.9250001
0.25300002 0.25300002 1.9250001
0.25666669 0.25300002 1.9250001
0.25898096 0.25168571 1.9150001
0.264 0.25300002 1.9250001
