# .PCD v0.7 - Point Cloud Data file format
VERSION 0.7
FIELDS x y z
SIZE 4 4 4
TYPE F F F
COUNT 1 1 1
WIDTH 1470
HEIGHT 1
VIEWPOINT 0 0 0 1 0 0 0
POINTS 1470
DATA ascii
0.34073335 0.05738667 1.8830001
0.34432 0.05738667 1.8830001
0.34790668 0.05738667 1.8830001
0.35149336 0.05738667 1.8830001
0.35508001 0.05738667 1.8830001
0.35676193 0.057081908 1.8730001
0.36032954 0.057081908 1.8730001
0.36389714 0.057081908 1.8730001
0.36746478 0.057081908 1.8730001
0.37103239 0.057081908 1.8730001
0.37460002 0.057081908 1.8730001
0.37816763 0.057081908 1.8730001
0.38173527 0.057081908 1.8730001
0.38530287 0.057081908 1.8730001
0.38887048 0.057081908 1.8730001
0.39243811 0.057081908 1.8730001
0.39600572 0.057081908 1.8730001
0.39957336 0.057081908 1.8730001
0.40314096 0.057081908 1.8730001
0.40453717 0.056777146 1.863
0.40808573 0.056777146 1.863
0.4116343 0.056777146 1.863
0.4129543 0.056472383 1.853
0.41648382 0.056472383 1.853
0.42001334 0.056472383 1.853
0.42125717 0.056167621 1.8430001
0.42476764 0.056167621 1.8430001
0.42827812 0.056167621 1.8430001
0.43178859 0.056167621 1.8430001
0.43529907 0.056167621 1.8430001
0.43880954 0.056167621 1.8430001
0.44232002 0.056167621 1.8430001
0.44583049 0.056167621 1.8430001
0.44690287 0.055862859 1.8330001
0.45285144 0.056167621 1.8430001
0.45388573 0.055862859 1.8330001
0.45737717 0.055862859 1.8330001
0.4608686 0.055862859 1.8330001
0.46436003 0.055862859 1.8330001
0.4655543 0.055588573 1.8240001
0.46902859 0.055588573 1.8240001
0.47250289 0.055588573 1.8240001
0.47336763 0.055283811 1.8140001
0.47945145 0.055588573 1.8240001
0.4802781 0.055283811 1.8140001
0.48640001 0.055588573 1.8240001
0.49229145 0.055862859 1.8330001
0.49578288 0.055862859 1.8330001
0.50472194 0.056472383 1.853
0.51949716 0.057721905 1.8940001
0.5289048 0.058361907 1.9150001
0.53533334 0.058666669 1.9250001
0.54208004 0.059001908 1.9360001
0.5488686 0.059337147 1.9470001
0.55569905 0.059672382 1.9580001
0.56257147 0.060007621 1.9690001
0.56632191 0.060007621 1.9690001
0.57007241 0.060007621 1.9690001
-0.34858096 0.069716193 2.1530001
-0.34448001 0.069716193 2.1530001
-0.34037906 0.069716193 2.1530001
-0.33627811 0.069716193 2.1530001
-0.33217716 0.069716193 2.1530001
-0.32807621 0.069716193 2.1530001
-0.32397524 0.069716193 2.1530001
-0.31987429 0.069716193 2.1530001
-0.31577334 0.069716193 2.1530001
-0.31167239 0.069716193 2.1530001
-0.30757144 0.069716193 2.1530001
-0.30347049 0.069716193 2.1530001
-0.29936954 0.069716193 2.1530001
-0.2952686 0.069716193 2.1530001
-0.29116762 0.069716193 2.1530001
-0.28533334 0.069295242 2.1400001
-0.28125715 0.069295242 2.1400001
-0.27718097 0.069295242 2.1400001
-0.27310476 0.069295242 2.1400001
-0.26902857 0.069295242 2.1400001
-0.26495239 0.069295242 2.1400001
-0.26087621 0.069295242 2.1400001
-0.2568 0.069295242 2.1400001
-0.25272381 0.069295242 2.1400001
-0.24864763 0.069295242 2.1400001
-0.24457143 0.069295242 2.1400001
-0.2390343 0.068874285 2.1270001
-0.23498286 0.068874285 2.1270001
-0.23093143 0.068874285 2.1270001
-0.22688001 0.068874285 2.1270001
-0.22282858 0.068874285 2.1270001
-0.21744001 0.068453334 2.1140001
-0.21341334 0.068453334 2.1140001
-0.20938668 0.068453334 2.1140001
-0.20536001 0.068453334 2.1140001
-0.20133334 0.068453334 2.1140001
-0.19609334 0.068032384 2.1010001
-0.19209144 0.068032384 2.1010001
-0.18808953 0.068032384 2.1010001
-0.18408762 0.068032384 2.1010001
-0.18008572 0.068032384 2.1010001
-0.17608382 0.068032384 2.1010001
-0.17208192 0.068032384 2.1010001
-0.16808 0.068032384 2.1010001
-0.1640781 0.068032384 2.1010001
-0.15908572 0.067611434 2.0880001
-0.15510857 0.067611434 2.0880001
-0.15113144 0.067611434 2.0880001
-0.14715429 0.067611434 2.0880001
-0.14317715 0.067611434 2.0880001
-0.1392 0.067611434 2.0880001
-0.13522287 0.067611434 2.0880001
-0.13124572 0.067611434 2.0880001
-0.12726858 0.067611434 2.0880001
-0.12329143 0.067611434 2.0880001
-0.11931429 0.067611434 2.0880001
-0.11467429 0.067222856 2.0760002
-0.11072 0.067222856 2.0760002
-0.10676572 0.067222856 2.0760002
-0.10216762 0.066801906 2.0630002
-0.098238096 0.066801906 2.0630002
-0.094308577 0.066801906 2.0630002
-0.089853339 0.066413336 2.0510001
-0.085946672 0.066413336 2.0510001
-0.082040004 0.066413336 2.0510001
-0.078133337 0.066413336 2.0510001
-0.07422667 0.066413336 2.0510001
-0.070320003 0.066413336 2.0510001
-0.066413336 0.066413336 2.0510001
-0.062506668 0.066413336 2.0510001
-0.058600001 0.066413336 2.0510001
-0.054373335 0.066024765 2.039
-0.050489526 0.066024765 2.039
-0.046605717 0.066024765 2.039
-0.042721905 0.066024765 2.039
-0.038838096 0.066024765 2.039
-0.034954287 0.066024765 2.039
-0.031253334 0.066413336 2.0510001
-0.027346667 0.066413336 2.0510001
-0.023440002 0.066413336 2.0510001
-0.019533334 0.066413336 2.0510001
-0.015626667 0.066413336 2.0510001
-0.011651429 0.066024765 2.039
-0.0077676196 0.066024765 2.039
-0.0038838098 0.066024765 2.039
0 0.066024765 2.039
0.0038609526 0.065636195 2.0270002
0.0077219051 0.065636195 2.0270002
0.011514287 0.065247625 2.0150001
0.015352381 0.065247625 2.0150001
0.019190477 0.065247625 2.0150001
0.02289143 0.064859048 2.003
0.026866667 0.065247625 2.0150001
0.030704763 0.065247625 2.0150001
0.034337144 0.064859048 2.003
0.038380954 0.065247625 2.0150001
0.041967619 0.064859048 2.003
0.046057146 0.065247625 2.0150001
0.049598098 0.064859048 2.003
0.053413335 0.064859048 2.003
0.057228573 0.064859048 2.003
0.060708575 0.064502858 1.9920001
0.064502858 0.064502858 1.9920001
0.068297148 0.064502858 1.9920001
0.07209143 0.064502858 1.9920001
0.075885721 0.064502858 1.9920001
0.079680003 0.064502858 1.9920001
0.083474286 0.064502858 1.9920001
0.087268576 0.064502858 1.9920001
0.091062859 0.064502858 1.9920001
0.094857149 0.064502858 1.9920001
0.098651432 0.064502858 1.9920001
0.10182858 0.064114287 1.9800001
0.10560001 0.064114287 1.9800001
0.11003429 0.064502858 1.9920001
0.11314286 0.064114287 1.9800001
0.11762286 0.064502858 1.9920001
0.12141715 0.064502858 1.9920001
0.12445715 0.064114287 1.9800001
0.12822857 0.064114287 1.9800001
0.13126667 0.063758098 1.9690001
0.13501714 0.063758098 1.9690001
0.13876763 0.063758098 1.9690001
0.1425181 0.063758098 1.9690001
0.14545143 0.063401908 1.9580001
0.14918096 0.063401908 1.9580001
0.15291049 0.063401908 1.9580001
0.15664001 0.063401908 1.9580001
0.16036953 0.063401908 1.9580001
0.16409905 0.063401908 1.9580001
0.16782857 0.063401908 1.9580001
0.1715581 0.063401908 1.9580001
0.17528762 0.063401908 1.9580001
0.17901716 0.063401908 1.9580001
0.18274668 0.063401908 1.9580001
0.18542857 0.063045718 1.9470001
0.18913715 0.063045718 1.9470001
0.19284572 0.063045718 1.9470001
0.19655429 0.063045718 1.9470001
0.20026286 0.063045718 1.9470001
0.20397143 0.063045718 1.9470001
0.20768 0.063045718 1.9470001
0.21019429 0.062689528 1.9360001
0.21388191 0.062689528 1.9360001
0.21756953 0.062689528 1.9360001
0.22125715 0.062689528 1.9360001
0.22494477 0.062689528 1.9360001
0.22863239 0.062689528 1.9360001
0.23100001 0.062333334 1.9250001
0.23466668 0.062333334 1.9250001
0.23833334 0.062333334 1.9250001
0.24200001 0.062333334 1.9250001
0.24566668 0.062333334 1.9250001
0.24933334 0.062333334 1.9250001
0.25168571 0.062009525 1.9150001
0.25533333 0.062009525 1.9150001
0.25898096 0.062009525 1.9150001
0.26262859 0.062009525 1.9150001
0.26627621 0.062009525 1.9150001
0.26992381 0.062009525 1.9150001
0.27357143 0.062009525 1.9150001
0.27721906 0.062009525 1.9150001
0.28086668 0.062009525 1.9150001
0.28451431 0.062009525 1.9150001
0.28650668 0.061653335 1.904
0.29013336 0.061653335 1.904
0.29376 0.061653335 1.904
0.29582477 0.061329525 1.8940001
0.2994324 0.061329525 1.8940001
0.30128002 0.060973335 1.8830001
0.30486667 0.060973335 1.8830001
0.30845335 0.060973335 1.8830001
0.31204 0.060973335 1.8830001
0.31562668 0.060973335 1.8830001
0.31921333 0.060973335 1.8830001
0.32280001 0.060973335 1.8830001
0.32638669 0.060973335 1.8830001
0.32997334 0.060973335 1.8830001
0.33356002 0.060973335 1.8830001
0.33714667 0.060973335 1.8830001
0.34073335 0.060973335 1.8830001
0.34432 0.060973335 1.8830001
0.34790668 0.060973335 1.8830001
0.35149336 0.060973335 1.8830001
0.35508001 0.060973335 1.8830001
0.35676193 0.060649525 1.8730001
0.36032954 0.060649525 1.8730001
0.36389714 0.060649525 1.8730001
0.36746478 0.060649525 1.8730001
0.37103239 0.060649525 1.8730001
0.37460002 0.060649525 1.8730001
0.37816763 0.060649525 1.8730001
0.38173527 0.060649525 1.8730001
0.38530287 0.060649525 1.8730001
0.38887048 0.060649525 1.8730001
0.39243811 0.060649525 1.8730001
0.39600572 0.060649525 1.8730001
0.39957336 0.060649525 1.8730001
0.40314096 0.060649525 1.8730001
0.40453717 0.060325716 1.863
0.40808573 0.060325716 1.863
0.4116343 0.060325716 1.863
0.4129543 0.060001906 1.853
0.41648382 0.060001906 1.853
0.42001334 0.060001906 1.853
0.42125717 0.059678096 1.8430001
0.42476764 0.059678096 1.8430001
0.42827812 0.059678096 1.8430001
0.43178859 0.059678096 1.8430001
0.43529907 0.059678096 1.8430001
0.43880954 0.059678096 1.8430001
0.44232002 0.059678096 1.8430001
0.44583049 0.059678096 1.8430001
0.44690287 0.059354287 1.8330001
0.45285144 0.059678096 1.8430001
0.45636192 0.059678096 1.8430001
0.45737717 0.059354287 1.8330001
0.4608686 0.059354287 1.8330001
0.46436003 0.059354287 1.8330001
0.46785146 0.059354287 1.8330001
0.46902859 0.059062861 1.8240001
0.47250289 0.059062861 1.8240001
0.47336763 0.058739051 1.8140001
0.47682288 0.058739051 1.8140001
0.4802781 0.058739051 1.8140001
0.48640001 0.059062861 1.8240001
0.49229145 0.059354287 1.8330001
0.49578288 0.059354287 1.8330001
0.50744575 0.060325716 1.863
0.52525717 0.062009525 1.9150001
0.5316667 0.062333334 1.9250001
0.53533334 0.062333334 1.9250001
0.54208004 0.062689528 1.9360001
0.5488686 0.063045718 1.9470001
0.55569905 0.063401908 1.9580001
0.56257147 0.063758098 1.9690001
0.56632191 0.063758098 1.9690001
0.57007241 0.063758098 1.9690001
-0.34858096 0.073817149 2.1530001
-0.34448001 0.073817149 2.1530001
-0.34037906 0.073817149 2.1530001
-0.33627811 0.073817149 2.1530001
-0.33217716 0.073817149 2.1530001
-0.32807621 0.073817149 2.1530001
-0.32397524 0.073817149 2.1530001
-0.31987429 0.073817149 2.1530001
-0.31577334 0.073817149 2.1530001
-0.31167239 0.073817149 2.1530001
-0.30757144 0.073817149 2.1530001
-0.30347049 0.073817149 2.1530001
-0.29936954 0.073817149 2.1530001
-0.2952686 0.073817149 2.1530001
-0.29116762 0.073817149 2.1530001
-0.28533334 0.073371433 2.1400001
-0.28125715 0.073371433 2.1400001
-0.27718097 0.073371433 2.1400001
-0.27310476 0.073371433 2.1400001
-0.26902857 0.073371433 2.1400001
-0.26495239 0.073371433 2.1400001
-0.26087621 0.073371433 2.1400001
-0.2568 0.073371433 2.1400001
-0.25272381 0.073371433 2.1400001
-0.24864763 0.073371433 2.1400001
-0.24457143 0.073371433 2.1400001
-0.24049525 0.073371433 2.1400001
-0.23641905 0.073371433 2.1400001
-0.23093143 0.072925717 2.1270001
-0.22826667 0.073371433 2.1400001
-0.22419049 0.073371433 2.1400001
-0.21877715 0.072925717 2.1270001
-0.21341334 0.072480001 2.1140001
-0.20938668 0.072480001 2.1140001
-0.20536001 0.072480001 2.1140001
-0.20133334 0.072480001 2.1140001
-0.19609334 0.072034292 2.1010001
-0.19209144 0.072034292 2.1010001
-0.18808953 0.072034292 2.1010001
-0.18408762 0.072034292 2.1010001
-0.18008572 0.072034292 2.1010001
-0.17608382 0.072034292 2.1010001
-0.17208192 0.072034292 2.1010001
-0.16808 0.072034292 2.1010001
-0.16306287 0.071588576 2.0880001
-0.15908572 0.071588576 2.0880001
-0.15510857 0.071588576 2.0880001
-0.15113144 0.071588576 2.0880001
-0.14715429 0.071588576 2.0880001
-0.14317715 0.071588576 2.0880001
-0.1392 0.071588576 2.0880001
-0.13522287 0.071588576 2.0880001
-0.13124572 0.071588576 2.0880001
-0.12726858 0.071588576 2.0880001
-0.12329143 0.071588576 2.0880001
-0.11862858 0.071177147 2.0760002
-0.11467429 0.071177147 2.0760002
-0.11072 0.071177147 2.0760002
-0.10609715 0.070731431 2.0630002
-0.10216762 0.070731431 2.0630002
-0.098238096 0.070731431 2.0630002
-0.094308577 0.070731431 2.0630002
-0.090379052 0.070731431 2.0630002
-0.085946672 0.070320003 2.0510001
-0.082520001 0.070731431 2.0630002
-0.078133337 0.070320003 2.0510001
-0.07422667 0.070320003 2.0510001
-0.070320003 0.070320003 2.0510001
-0.066413336 0.070320003 2.0510001
-0.062506668 0.070320003 2.0510001
-0.058600001 0.070320003 2.0510001
-0.054373335 0.069908574 2.039
-0.050489526 0.069908574 2.039
-0.046605717 0.069908574 2.039
-0.042721905 0.069908574 2.039
-0.038838096 0.069908574 2.039
-0.034954287 0.069908574 2.039
-0.031253334 0.070320003 2.0510001
-0.027346667 0.070320003 2.0510001
-0.023440002 0.070320003 2.0510001
-0.019533334 0.070320003 2.0510001
-0.015626667 0.070320003 2.0510001
-0.011651429 0.069908574 2.039
-0.0077676196 0.069908574 2.039
-0.0038838098 0.069908574 2.039
0 0.069908574 2.039
0.0038609526 0.069497146 2.0270002
0.0077219051 0.069497146 2.0270002
0.011514287 0.069085717 2.0150001
0.015352381 0.069085717 2.0150001
0.019190477 0.069085717 2.0150001
0.02289143 0.068674289 2.003
0.026866667 0.069085717 2.0150001
0.030704763 0.069085717 2.0150001
0.034542859 0.069085717 2.0150001
0.038380954 0.069085717 2.0150001
0.04221905 0.069085717 2.0150001
0.046057146 0.069085717 2.0150001
0.049598098 0.068674289 2.003
0.053413335 0.068674289 2.003
0.056914289 0.068297148 1.9920001
0.060708575 0.068297148 1.9920001
0.064502858 0.068297148 1.9920001
0.068297148 0.068297148 1.9920001
0.07209143 0.068297148 1.9920001
0.075885721 0.068297148 1.9920001
0.079680003 0.068297148 1.9920001
0.083474286 0.068297148 1.9920001
0.087268576 0.068297148 1.9920001
0.090514287 0.067885719 1.9800001
0.094285719 0.067885719 1.9800001
0.098057143 0.067885719 1.9800001
0.10182858 0.067885719 1.9800001
0.10560001 0.067885719 1.9800001
0.11003429 0.068297148 1.9920001
0.11314286 0.067885719 1.9800001
0.11691429 0.067885719 1.9800001
0.12141715 0.068297148 1.9920001
0.12445715 0.067885719 1.9800001
0.12822857 0.067885719 1.9800001
0.13126667 0.067508571 1.9690001
0.13501714 0.067508571 1.9690001
0.13876763 0.067508571 1.9690001
0.1425181 0.067508571 1.9690001
0.14545143 0.06713143 1.9580001
0.15001905 0.067508571 1.9690001
0.15376952 0.067508571 1.9690001
0.15664001 0.06713143 1.9580001
0.16036953 0.06713143 1.9580001
0.16409905 0.06713143 1.9580001
0.16782857 0.06713143 1.9580001
0.1715581 0.06713143 1.9580001
0.17528762 0.06713143 1.9580001
0.17801143 0.066754289 1.9470001
0.18172 0.066754289 1.9470001
0.18542857 0.066754289 1.9470001
0.18913715 0.066754289 1.9470001
0.19284572 0.066754289 1.9470001
0.19655429 0.066754289 1.9470001
0.19913143 0.066377148 1.9360001
0.20397143 0.066754289 1.9470001
0.20650667 0.066377148 1.9360001
0.21019429 0.066377148 1.9360001
0.21388191 0.066377148 1.9360001
0.21756953 0.066377148 1.9360001
0.22125715 0.066377148 1.9360001
0.22494477 0.066377148 1.9360001
0.22863239 0.066377148 1.9360001
0.23100001 0.066 1.9250001
0.23466668 0.066 1.9250001
0.23833334 0.066 1.9250001
0.24200001 0.066 1.9250001
0.24566668 0.066 1.9250001
0.24933334 0.066 1.9250001
0.25300002 0.066 1.9250001
0.25533333 0.065657146 1.9150001
0.26033333 0.066 1.9250001
0.26262859 0.065657146 1.9150001
0.26627621 0.065657146 1.9150001
0.26992381 0.065657146 1.9150001
0.27357143 0.065657146 1.9150001
0.27721906 0.065657146 1.9150001
0.28086668 0.065657146 1.9150001
0.28451431 0.065657146 1.9150001
0.28650668 0.065280005 1.904
0.29013336 0.065280005 1.904
0.29221717 0.064937145 1.8940001
0.29582477 0.064937145 1.8940001
0.2994324 0.064937145 1.8940001
0.30304 0.064937145 1.8940001
0.30664763 0.064937145 1.8940001
0.30845335 0.064560004 1.8830001
0.31204 0.064560004 1.8830001
0.31562668 0.064560004 1.8830001
0.31921333 0.064560004 1.8830001
0.32280001 0.064560004 1.8830001
0.32638669 0.064560004 1.8830001
0.32997334 0.064560004 1.8830001
0.33356002 0.064560004 1.8830001
0.33714667 0.064560004 1.8830001
0.34073335 0.064560004 1.8830001
0.34432 0.064560004 1.8830001
0.34790668 0.064560004 1.8830001
0.35149336 0.064560004 1.8830001
0.35508001 0.064560004 1.8830001
0.35676193 0.064217143 1.8730001
0.36032954 0.064217143 1.8730001
0.36389714 0.064217143 1.8730001
0.36746478 0.064217143 1.8730001
0.37103239 0.064217143 1.8730001
0.37460002 0.064217143 1.8730001
0.37816763 0.064217143 1.8730001
0.38173527 0.064217143 1.8730001
0.38530287 0.064217143 1.8730001
0.38887048 0.064217143 1.8730001
0.39243811 0.064217143 1.8730001
0.39600572 0.064217143 1.8730001
0.39957336 0.064217143 1.8730001
0.40314096 0.064217143 1.8730001
0.40453717 0.063874289 1.863
0.40808573 0.063874289 1.863
0.4116343 0.063874289 1.863
0.41518286 0.063874289 1.863
0.41648382 0.063531429 1.853
0.42001334 0.063531429 1.853
0.42125717 0.063188575 1.8430001
0.42476764 0.063188575 1.8430001
0.42827812 0.063188575 1.8430001
0.43178859 0.063188575 1.8430001
0.43529907 0.063188575 1.8430001
0.43880954 0.063188575 1.8430001
0.44232002 0.063188575 1.8430001
0.44583049 0.063188575 1.8430001
0.44934097 0.063188575 1.8430001
0.45285144 0.063188575 1.8430001
0.45636192 0.063188575 1.8430001
0.45737717 0.062845714 1.8330001
0.4608686 0.062845714 1.8330001
0.46436003 0.062845714 1.8330001
0.46785146 0.062845714 1.8330001
0.46902859 0.062537149 1.8240001
0.46991241 0.062194288 1.8140001
0.47336763 0.062194288 1.8140001
0.47682288 0.062194288 1.8140001
0.4802781 0.062194288 1.8140001
0.48640001 0.062537149 1.8240001
0.4898743 0.062537149 1.8240001
0.49578288 0.062845714 1.8330001
0.50472194 0.063531429 1.853
0.528 0.066 1.9250001
0.5316667 0.066 1.9250001
0.53839242 0.066377148 1.9360001
0.54208004 0.066377148 1.9360001
0.5488686 0.066754289 1.9470001
0.55569905 0.06713143 1.9580001
0.56257147 0.067508571 1.9690001
0.56632191 0.067508571 1.9690001
0.57007241 0.067508571 1.9690001
-0.34858096 0.077918097 2.1530001
-0.34448001 0.077918097 2.1530001
-0.34037906 0.077918097 2.1530001
-0.33627811 0.077918097 2.1530001
-0.33217716 0.077918097 2.1530001
-0.32807621 0.077918097 2.1530001
-0.32397524 0.077918097 2.1530001
-0.31987429 0.077918097 2.1530001
-0.31577334 0.077918097 2.1530001
-0.31167239 0.077918097 2.1530001
-0.30757144 0.077918097 2.1530001
-0.30347049 0.077918097 2.1530001
-0.29936954 0.077918097 2.1530001
-0.2952686 0.077918097 2.1530001
-0.29116762 0.077918097 2.1530001
-0.28706667 0.077918097 2.1530001
-0.28125715 0.077447623 2.1400001
-0.27718097 0.077447623 2.1400001
-0.27310476 0.077447623 2.1400001
-0.26902857 0.077447623 2.1400001
-0.26495239 0.077447623 2.1400001
-0.26087621 0.077447623 2.1400001
-0.2568 0.077447623 2.1400001
-0.25272381 0.077447623 2.1400001
-0.24864763 0.077447623 2.1400001
-0.24457143 0.077447623 2.1400001
-0.2390343 0.076977149 2.1270001
-0.23498286 0.076977149 2.1270001
-0.23093143 0.076977149 2.1270001
-0.22826667 0.077447623 2.1400001
-0.22419049 0.077447623 2.1400001
-0.21877715 0.076977149 2.1270001
-0.21341334 0.076506667 2.1140001
-0.20938668 0.076506667 2.1140001
-0.20536001 0.076506667 2.1140001
-0.20133334 0.076506667 2.1140001
-0.19609334 0.076036192 2.1010001
-0.19209144 0.076036192 2.1010001
-0.18808953 0.076036192 2.1010001
-0.18408762 0.076036192 2.1010001
-0.18008572 0.076036192 2.1010001
-0.17608382 0.076036192 2.1010001
-0.17208192 0.076036192 2.1010001
-0.16808 0.076036192 2.1010001
-0.1640781 0.076036192 2.1010001
-0.15908572 0.075565718 2.0880001
-0.15510857 0.075565718 2.0880001
-0.15113144 0.075565718 2.0880001
-0.14715429 0.075565718 2.0880001
-0.14317715 0.075565718 2.0880001
-0.1392 0.075565718 2.0880001
-0.13522287 0.075565718 2.0880001
-0.13124572 0.075565718 2.0880001
-0.12726858 0.075565718 2.0880001
-0.12329143 0.075565718 2.0880001
-0.11931429 0.075565718 2.0880001
-0.11467429 0.075131431 2.0760002
-0.11072 0.075131431 2.0760002
-0.10676572 0.075131431 2.0760002
-0.10216762 0.074660957 2.0630002
-0.098238096 0.074660957 2.0630002
-0.094308577 0.074660957 2.0630002
-0.090379052 0.074660957 2.0630002
-0.085946672 0.07422667 2.0510001
-0.082040004 0.07422667 2.0510001
-0.078133337 0.07422667 2.0510001
-0.07422667 0.07422667 2.0510001
-0.070320003 0.07422667 2.0510001
-0.066413336 0.07422667 2.0510001
-0.062506668 0.07422667 2.0510001
-0.058600001 0.07422667 2.0510001
-0.054373335 0.073792383 2.039
-0.050489526 0.073792383 2.039
-0.046605717 0.073792383 2.039
-0.042721905 0.073792383 2.039
-0.038838096 0.073792383 2.039
-0.034954287 0.073792383 2.039
-0.031253334 0.07422667 2.0510001
-0.027346667 0.07422667 2.0510001
-0.023440002 0.07422667 2.0510001
-0.019533334 0.07422667 2.0510001
-0.015626667 0.07422667 2.0510001
-0.011651429 0.073792383 2.039
-0.0077676196 0.073792383 2.039
-0.0038838098 0.073792383 2.039
0 0.073792383 2.039
0.0038609526 0.073358096 2.0270002
0.0077219051 0.073358096 2.0270002
0.011514287 0.072923809 2.0150001
0.015352381 0.072923809 2.0150001
0.019190477 0.072923809 2.0150001
0.023028573 0.072923809 2.0150001
0.026866667 0.072923809 2.0150001
0.030704763 0.072923809 2.0150001
0.034542859 0.072923809 2.0150001
0.038380954 0.072923809 2.0150001
0.04221905 0.072923809 2.0150001
0.04578286 0.07248953 2.003
0.049598098 0.07248953 2.003
0.053413335 0.07248953 2.003
0.056914289 0.07209143 1.9920001
0.060708575 0.07209143 1.9920001
0.064502858 0.07209143 1.9920001
0.068297148 0.07209143 1.9920001
0.07209143 0.07209143 1.9920001
0.075885721 0.07209143 1.9920001
0.079680003 0.07209143 1.9920001
0.083474286 0.07209143 1.9920001
0.087268576 0.07209143 1.9920001
0.091062859 0.07209143 1.9920001
0.094857149 0.07209143 1.9920001
0.098057143 0.071657144 1.9800001
0.10182858 0.071657144 1.9800001
0.10560001 0.071657144 1.9800001
0.11003429 0.07209143 1.9920001
0.11314286 0.071657144 1.9800001
0.11691429 0.071657144 1.9800001
0.12068572 0.071657144 1.9800001
0.12445715 0.071657144 1.9800001
0.12822857 0.071657144 1.9800001
0.13126667 0.071259052 1.9690001
0.13501714 0.071259052 1.9690001
0.13876763 0.071259052 1.9690001
0.1425181 0.071259052 1.9690001
0.14545143 0.070860952 1.9580001
0.14918096 0.070860952 1.9580001
0.15291049 0.070860952 1.9580001
0.15664001 0.070860952 1.9580001
0.16036953 0.070860952 1.9580001
0.16409905 0.070860952 1.9580001
0.16782857 0.070860952 1.9580001
0.1715581 0.070860952 1.9580001
0.17528762 0.070860952 1.9580001
0.17801143 0.07046286 1.9470001
0.18172 0.07046286 1.9470001
0.18542857 0.07046286 1.9470001
0.18913715 0.07046286 1.9470001
0.1917562 0.070064768 1.9360001
0.19544382 0.070064768 1.9360001
0.19913143 0.070064768 1.9360001
0.20281905 0.070064768 1.9360001
0.20650667 0.070064768 1.9360001
0.21019429 0.070064768 1.9360001
0.21388191 0.070064768 1.9360001
0.21756953 0.070064768 1.9360001
0.22000001 0.069666669 1.9250001
0.22366667 0.069666669 1.9250001
0.22733334 0.069666669 1.9250001
0.23100001 0.069666669 1.9250001
0.23466668 0.069666669 1.9250001
0.23833334 0.069666669 1.9250001
0.24200001 0.069666669 1.9250001
0.24566668 0.069666669 1.9250001
0.24933334 0.069666669 1.9250001
0.25300002 0.069666669 1.9250001
0.25666669 0.069666669 1.9250001
0.26033333 0.069666669 1.9250001
0.26262859 0.069304764 1.9150001
0.26766667 0.069666669 1.9250001
0.26992381 0.069304764 1.9150001
0.27357143 0.069304764 1.9150001
0.27721906 0.069304764 1.9150001
0.28086668 0.069304764 1.9150001
0.28451431 0.069304764 1.9150001
0.2881619 0.069304764 1.9150001
0.29013336 0.068906672 1.904
0.29376 0.068906672 1.904
0.29738668 0.068906672 1.904
0.2994324 0.068544768 1.8940001
0.30304 0.068544768 1.8940001
0.30664763 0.068544768 1.8940001
0.31025526 0.068544768 1.8940001
0.31386286 0.068544768 1.8940001
0.31562668 0.068146668 1.8830001
0.31921333 0.068146668 1.8830001
0.32280001 0.068146668 1.8830001
0.32638669 0.068146668 1.8830001
0.32997334 0.068146668 1.8830001
0.33356002 0.068146668 1.8830001
0.33714667 0.068146668 1.8830001
0.34073335 0.068146668 1.8830001
0.34432 0.068146668 1.8830001
0.34790668 0.068146668 1.8830001
0.35149336 0.068146668 1.8830001
0.35508001 0.068146668 1.8830001
0.35676193 0.067784764 1.8730001
0.36032954 0.067784764 1.8730001
0.36389714 0.067784764 1.8730001
0.36746478 0.067784764 1.8730001
0.37103239 0.067784764 1.8730001
0.37460002 0.067784764 1.8730001
0.37614858 0.067422859 1.863
0.38173527 0.067784764 1.8730001
0.38530287 0.067784764 1.8730001
0.38887048 0.067784764 1.8730001
0.39243811 0.067784764 1.8730001
0.39600572 0.067784764 1.8730001
0.39744002 0.067422859 1.863
0.40098858 0.067422859 1.863
0.40453717 0.067422859 1.863
0.40808573 0.067422859 1.863
0.4116343 0.067422859 1.863
0.41518286 0.067422859 1.863
0.41648382 0.067060955 1.853
0.42001334 0.067060955 1.853
0.42354289 0.067060955 1.853
0.42707241 0.067060955 1.853
0.43060192 0.067060955 1.853
0.43178859 0.06669905 1.8430001
0.43529907 0.06669905 1.8430001
0.43880954 0.06669905 1.8430001
0.44232002 0.06669905 1.8430001
0.44583049 0.06669905 1.8430001
0.44934097 0.06669905 1.8430001
0.45285144 0.06669905 1.8430001
0.45636192 0.06669905 1.8430001
0.45737717 0.066337146 1.8330001
0.4608686 0.066337146 1.8330001
0.46436003 0.066337146 1.8330001
0.46785146 0.066337146 1.8330001
0.47134286 0.066337146 1.8330001
0.47250289 0.066011429 1.8240001
0.47336763 0.065649524 1.8140001
0.47682288 0.065649524 1.8140001
0.4802781 0.065649524 1.8140001
0.48640001 0.066011429 1.8240001
0.4898743 0.066011429 1.8240001
0.49578288 0.066337146 1.8330001
0.50744575 0.067422859 1.863
0.528 0.069666669 1.9250001
0.5316667 0.069666669 1.9250001
0.53839242 0.070064768 1.9360001
0.54516 0.07046286 1.9470001
0.5488686 0.07046286 1.9470001
0.55882096 0.071259052 1.9690001
0.5657143 0.071657144 1.9800001
0.56948572 0.071657144 1.9800001
0.57007241 0.071259052 1.9690001
-0.34672001 0.082552381 2.1670001
-0.34037906 0.082019053 2.1530001
-0.33627811 0.082019053 2.1530001
-0.33217716 0.082019053 2.1530001
-0.32807621 0.082019053 2.1530001
-0.32397524 0.082019053 2.1530001
-0.31987429 0.082019053 2.1530001
-0.31577334 0.082019053 2.1530001
-0.31167239 0.082019053 2.1530001
-0.30757144 0.082019053 2.1530001
-0.30347049 0.082019053 2.1530001
-0.29936954 0.082019053 2.1530001
-0.2952686 0.082019053 2.1530001
-0.29116762 0.082019053 2.1530001
-0.28706667 0.082019053 2.1530001
-0.28125715 0.081523813 2.1400001
-0.27718097 0.081523813 2.1400001
-0.27310476 0.081523813 2.1400001
-0.26902857 0.081523813 2.1400001
-0.26495239 0.081523813 2.1400001
-0.26087621 0.081523813 2.1400001
-0.2568 0.081523813 2.1400001
-0.25272381 0.081523813 2.1400001
-0.24864763 0.081523813 2.1400001
-0.24308573 0.081028573 2.1270001
-0.2390343 0.081028573 2.1270001
-0.23498286 0.081028573 2.1270001
-0.23093143 0.081028573 2.1270001
-0.22826667 0.081523813 2.1400001
-0.22419049 0.081523813 2.1400001
-0.21877715 0.081028573 2.1270001
-0.21472572 0.081028573 2.1270001
-0.2106743 0.081028573 2.1270001
-0.20662287 0.081028573 2.1270001
-0.20133334 0.080533333 2.1140001
-0.19609334 0.0800381 2.1010001
-0.19209144 0.0800381 2.1010001
-0.18808953 0.0800381 2.1010001
-0.18408762 0.0800381 2.1010001
-0.18008572 0.0800381 2.1010001
-0.17608382 0.0800381 2.1010001
-0.17208192 0.0800381 2.1010001
-0.16808 0.0800381 2.1010001
-0.1640781 0.0800381 2.1010001
-0.15908572 0.07954286 2.0880001
-0.15510857 0.07954286 2.0880001
-0.15113144 0.07954286 2.0880001
-0.14715429 0.07954286 2.0880001
-0.14317715 0.07954286 2.0880001
-0.1392 0.07954286 2.0880001
-0.13522287 0.07954286 2.0880001
-0.13124572 0.07954286 2.0880001
-0.12726858 0.07954286 2.0880001
-0.12329143 0.07954286 2.0880001
-0.11931429 0.07954286 2.0880001
-0.11467429 0.079085715 2.0760002
-0.11072 0.079085715 2.0760002
-0.10676572 0.079085715 2.0760002
-0.10281143 0.079085715 2.0760002
-0.098238096 0.078590482 2.0630002
-0.094308577 0.078590482 2.0630002
-0.090379052 0.078590482 2.0630002
-0.086449526 0.078590482 2.0630002
-0.082520001 0.078590482 2.0630002
-0.078133337 0.078133337 2.0510001
-0.07422667 0.078133337 2.0510001
-0.070320003 0.078133337 2.0510001
-0.066413336 0.078133337 2.0510001
-0.062506668 0.078133337 2.0510001
-0.058600001 0.078133337 2.0510001
-0.054373335 0.077676192 2.039
-0.050489526 0.077676192 2.039
-0.046605717 0.077676192 2.039
-0.042721905 0.077676192 2.039
-0.038838096 0.077676192 2.039
-0.034954287 0.077676192 2.039
-0.031253334 0.078133337 2.0510001
-0.027346667 0.078133337 2.0510001
-0.023440002 0.078133337 2.0510001
-0.019533334 0.078133337 2.0510001
-0.015626667 0.078133337 2.0510001
-0.011651429 0.077676192 2.039
-0.0077676196 0.077676192 2.039
-0.0038838098 0.077676192 2.039
0 0.077676192 2.039
0.0038838098 0.077676192 2.039
0.0077219051 0.077219054 2.0270002
0.011514287 0.076761909 2.0150001
0.015352381 0.076761909 2.0150001
0.019190477 0.076761909 2.0150001
0.023028573 0.076761909 2.0150001
0.026866667 0.076761909 2.0150001
0.030704763 0.076761909 2.0150001
0.034542859 0.076761909 2.0150001
0.038380954 0.076761909 2.0150001
0.04221905 0.076761909 2.0150001
0.046057146 0.076761909 2.0150001
0.049598098 0.076304764 2.003
0.053413335 0.076304764 2.003
0.056914289 0.075885721 1.9920001
0.060708575 0.075885721 1.9920001
0.064502858 0.075885721 1.9920001
0.068297148 0.075885721 1.9920001
0.07209143 0.075885721 1.9920001
0.075885721 0.075885721 1.9920001
0.079680003 0.075885721 1.9920001
0.083474286 0.075885721 1.9920001
0.087268576 0.075885721 1.9920001
0.091062859 0.075885721 1.9920001
0.094285719 0.075428575 1.9800001
0.098057143 0.075428575 1.9800001
0.10182858 0.075428575 1.9800001
0.10560001 0.075428575 1.9800001
0.10937143 0.075428575 1.9800001
0.11314286 0.075428575 1.9800001
0.11691429 0.075428575 1.9800001
0.12068572 0.075428575 1.9800001
0.12445715 0.075428575 1.9800001
0.1275162 0.075009525 1.9690001
0.13126667 0.075009525 1.9690001
0.13501714 0.075009525 1.9690001
0.13876763 0.075009525 1.9690001
0.1425181 0.075009525 1.9690001
0.14545143 0.074590482 1.9580001
0.14918096 0.074590482 1.9580001
0.15291049 0.074590482 1.9580001
0.15664001 0.074590482 1.9580001
0.16036953 0.074590482 1.9580001
0.16409905 0.074590482 1.9580001
0.16782857 0.074590482 1.9580001
0.1715581 0.074590482 1.9580001
0.17528762 0.074590482 1.9580001
0.17901716 0.074590482 1.9580001
0.18172 0.074171431 1.9470001
0.18542857 0.074171431 1.9470001
0.18913715 0.074171431 1.9470001
0.1917562 0.073752381 1.9360001
0.19655429 0.074171431 1.9470001
0.19913143 0.073752381 1.9360001
0.20281905 0.073752381 1.9360001
0.20533334 0.073333338 1.9250001
0.21019429 0.073752381 1.9360001
0.21266668 0.073333338 1.9250001
0.21633334 0.073333338 1.9250001
0.22000001 0.073333338 1.9250001
0.22366667 0.073333338 1.9250001
0.22733334 0.073333338 1.9250001
0.23100001 0.073333338 1.9250001
0.23466668 0.073333338 1.9250001
0.23833334 0.073333338 1.9250001
0.24200001 0.073333338 1.9250001
0.24566668 0.073333338 1.9250001
0.24933334 0.073333338 1.9250001
0.25300002 0.073333338 1.9250001
0.25666669 0.073333338 1.9250001
0.26033333 0.073333338 1.9250001
0.26262859 0.072952382 1.9150001
0.26766667 0.073333338 1.9250001
0.26992381 0.072952382 1.9150001
0.27357143 0.072952382 1.9150001
0.27721906 0.072952382 1.9150001
0.28086668 0.072952382 1.9150001
0.28451431 0.072952382 1.9150001
0.2881619 0.072952382 1.9150001
0.29013336 0.072533339 1.904
0.29376 0.072533339 1.904
0.29738668 0.072533339 1.904
0.30101335 0.072533339 1.904
0.30304 0.072152384 1.8940001
0.30664763 0.072152384 1.8940001
0.31025526 0.072152384 1.8940001
0.31386286 0.072152384 1.8940001
0.31747049 0.072152384 1.8940001
0.31921333 0.071733333 1.8830001
0.32280001 0.071733333 1.8830001
0.32638669 0.071733333 1.8830001
0.32997334 0.071733333 1.8830001
0.33356002 0.071733333 1.8830001
0.33714667 0.071733333 1.8830001
0.34073335 0.071733333 1.8830001
0.34432 0.071733333 1.8830001
0.34790668 0.071733333 1.8830001
0.35149336 0.071733333 1.8830001
0.3531943 0.071352385 1.8730001
0.35676193 0.071352385 1.8730001
0.36032954 0.071352385 1.8730001
0.36389714 0.071352385 1.8730001
0.36746478 0.071352385 1.8730001
0.37103239 0.071352385 1.8730001
0.37460002 0.071352385 1.8730001
0.37816763 0.071352385 1.8730001
0.38173527 0.071352385 1.8730001
0.38530287 0.071352385 1.8730001
0.38887048 0.071352385 1.8730001
0.39243811 0.071352385 1.8730001
0.39600572 0.071352385 1.8730001
0.39957336 0.071352385 1.8730001
0.40314096 0.071352385 1.8730001
0.40453717 0.070971429 1.863
0.40808573 0.070971429 1.863
0.4116343 0.070971429 1.863
0.41518286 0.070971429 1.863
0.41648382 0.070590481 1.853
0.42001334 0.070590481 1.853
0.42354289 0.070590481 1.853
0.42707241 0.070590481 1.853
0.43060192 0.070590481 1.853
0.43413144 0.070590481 1.853
0.43529907 0.070209526 1.8430001
0.43880954 0.070209526 1.8430001
0.44232002 0.070209526 1.8430001
0.44583049 0.070209526 1.8430001
0.44934097 0.070209526 1.8430001
0.45285144 0.070209526 1.8430001
0.45636192 0.070209526 1.8430001
0.45737717 0.069828577 1.8330001
0.4608686 0.069828577 1.8330001
0.46436003 0.069828577 1.8330001
0.46785146 0.069828577 1.8330001
0.47134286 0.069828577 1.8330001
0.47250289 0.069485717 1.8240001
0.47336763 0.069104761 1.8140001
0.47682288 0.069104761 1.8140001
0.4802781 0.069104761 1.8140001
0.48373336 0.069104761 1.8140001
0.4898743 0.069485717 1.8240001
0.49578288 0.069828577 1.8330001
0.50199813 0.070209526 1.8430001
0.52525717 0.072952382 1.9150001
0.5289048 0.072952382 1.9150001
0.53839242 0.073752381 1.9360001
0.54516 0.074171431 1.9470001
0.55196953 0.074590482 1.9580001
0.55882096 0.075009525 1.9690001
0.56257147 0.075009525 1.9690001
0.56632191 0.075009525 1.9690001
-0.35084763 0.086680003 2.1670001
-0.34672001 0.086680003 2.1670001
-0.34037906 0.086120002 2.1530001
-0.33627811 0.086120002 2.1530001
-0.33217716 0.086120002 2.1530001
-0.32807621 0.086120002 2.1530001
-0.32397524 0.086120002 2.1530001
-0.31987429 0.086120002 2.1530001
-0.31577334 0.086120002 2.1530001
-0.31167239 0.086120002 2.1530001
-0.30757144 0.086120002 2.1530001
-0.30347049 0.086120002 2.1530001
-0.29936954 0.086120002 2.1530001
-0.2952686 0.086120002 2.1530001
-0.29116762 0.086120002 2.1530001
-0.28706667 0.086120002 2.1530001
-0.28125715 0.085600004 2.1400001
-0.27718097 0.085600004 2.1400001
-0.27310476 0.085600004 2.1400001
-0.26902857 0.085600004 2.1400001
-0.26495239 0.085600004 2.1400001
-0.26087621 0.085600004 2.1400001
-0.25524002 0.085080005 2.1270001
-0.25118858 0.085080005 2.1270001
-0.24713716 0.085080005 2.1270001
-0.24308573 0.085080005 2.1270001
-0.2390343 0.085080005 2.1270001
-0.23498286 0.085080005 2.1270001
-0.23093143 0.085080005 2.1270001
-0.22826667 0.085600004 2.1400001
-0.22419049 0.085600004 2.1400001
-0.21877715 0.085080005 2.1270001
-0.21472572 0.085080005 2.1270001
-0.2106743 0.085080005 2.1270001
-0.20662287 0.085080005 2.1270001
-0.20133334 0.084559999 2.1140001
-0.19609334 0.084040001 2.1010001
-0.19209144 0.084040001 2.1010001
-0.18808953 0.084040001 2.1010001
-0.18408762 0.084040001 2.1010001
-0.18008572 0.084040001 2.1010001
-0.17608382 0.084040001 2.1010001
-0.17208192 0.084040001 2.1010001
-0.16808 0.084040001 2.1010001
-0.1640781 0.084040001 2.1010001
-0.1600762 0.084040001 2.1010001
-0.15510857 0.083520003 2.0880001
-0.15113144 0.083520003 2.0880001
-0.14715429 0.083520003 2.0880001
-0.14317715 0.083520003 2.0880001
-0.1392 0.083520003 2.0880001
-0.13522287 0.083520003 2.0880001
-0.13124572 0.083520003 2.0880001
-0.12726858 0.083520003 2.0880001
-0.12329143 0.083520003 2.0880001
-0.11931429 0.083520003 2.0880001
-0.11467429 0.083040006 2.0760002
-0.11072 0.083040006 2.0760002
-0.10676572 0.083040006 2.0760002
-0.10216762 0.082520001 2.0630002
-0.098238096 0.082520001 2.0630002
-0.094308577 0.082520001 2.0630002
-0.090379052 0.082520001 2.0630002
-0.085946672 0.082040004 2.0510001
-0.082520001 0.082520001 2.0630002
-0.078133337 0.082040004 2.0510001
-0.07422667 0.082040004 2.0510001
-0.070320003 0.082040004 2.0510001
-0.066413336 0.082040004 2.0510001
-0.062506668 0.082040004 2.0510001
-0.058257144 0.081560001 2.039
-0.054373335 0.081560001 2.039
-0.050489526 0.081560001 2.039
-0.046605717 0.081560001 2.039
-0.042721905 0.081560001 2.039
-0.038838096 0.081560001 2.039
-0.034954287 0.081560001 2.039
-0.031253334 0.082040004 2.0510001
-0.027346667 0.082040004 2.0510001
-0.023440002 0.082040004 2.0510001
-0.019533334 0.082040004 2.0510001
-0.015535239 0.081560001 2.039
-0.011651429 0.081560001 2.039
-0.0077676196 0.081560001 2.039
-0.0038838098 0.081560001 2.039
0 0.081560001 2.039
0.0038838098 0.081560001 2.039
0.0077219051 0.081080005 2.0270002
0.011514287 0.080600001 2.0150001
0.015352381 0.080600001 2.0150001
0.019190477 0.080600001 2.0150001
0.023028573 0.080600001 2.0150001
0.026866667 0.080600001 2.0150001
0.030704763 0.080600001 2.0150001
0.034542859 0.080600001 2.0150001
0.038380954 0.080600001 2.0150001
0.04221905 0.080600001 2.0150001
0.046057146 0.080600001 2.0150001
0.049598098 0.080120005 2.003
0.053413335 0.080120005 2.003
0.057228573 0.080120005 2.003
0.06104381 0.080120005 2.003
0.064859048 0.080120005 2.003
0.068674289 0.080120005 2.003
0.07248953 0.080120005 2.003
0.076304764 0.080120005 2.003
0.080120005 0.080120005 2.003
0.083474286 0.079680003 1.9920001
0.087268576 0.079680003 1.9920001
0.091062859 0.079680003 1.9920001
0.094857149 0.079680003 1.9920001
0.098057143 0.0792 1.9800001
0.10182858 0.0792 1.9800001
0.10560001 0.0792 1.9800001
0.10937143 0.0792 1.9800001
0.11251429 0.078760006 1.9690001
0.11691429 0.0792 1.9800001
0.12068572 0.0792 1.9800001
0.12445715 0.0792 1.9800001
0.1275162 0.078760006 1.9690001
0.13126667 0.078760006 1.9690001
0.13501714 0.078760006 1.9690001
0.13876763 0.078760006 1.9690001
0.1425181 0.078760006 1.9690001
0.14545143 0.078320004 1.9580001
0.14918096 0.078320004 1.9580001
0.15291049 0.078320004 1.9580001
0.15664001 0.078320004 1.9580001
0.16036953 0.078320004 1.9580001
0.16409905 0.078320004 1.9580001
0.16782857 0.078320004 1.9580001
0.1715581 0.078320004 1.9580001
0.17528762 0.078320004 1.9580001
0.17901716 0.078320004 1.9580001
0.18172 0.077880003 1.9470001
0.18542857 0.077880003 1.9470001
0.18913715 0.077880003 1.9470001
0.1917562 0.077440001 1.9360001
0.19544382 0.077440001 1.9360001
0.19800001 0.077 1.9250001
0.20281905 0.077440001 1.9360001
0.20533334 0.077 1.9250001
0.20900001 0.077 1.9250001
0.21266668 0.077 1.9250001
0.21633334 0.077 1.9250001
0.22000001 0.077 1.9250001
0.22494477 0.077440001 1.9360001
0.22733334 0.077 1.9250001
0.23100001 0.077 1.9250001
0.23466668 0.077 1.9250001
0.23833334 0.077 1.9250001
0.24200001 0.077 1.9250001
0.24566668 0.077 1.9250001
0.24933334 0.077 1.9250001
0.25300002 0.077 1.9250001
0.25666669 0.077 1.9250001
0.26033333 0.077 1.9250001
0.264 0.077 1.9250001
0.26766667 0.077 1.9250001
0.26992381 0.0766 1.9150001
0.27357143 0.0766 1.9150001
0.27721906 0.0766 1.9150001
0.28086668 0.0766 1.9150001
0.28451431 0.0766 1.9150001
0.2881619 0.0766 1.9150001
0.29013336 0.076160006 1.904
0.29376 0.076160006 1.904
0.29738668 0.076160006 1.904
0.30101335 0.076160006 1.904
0.30304 0.075759999 1.8940001
0.30664763 0.075759999 1.8940001
0.31025526 0.075759999 1.8940001
0.31386286 0.075759999 1.8940001
0.31747049 0.075759999 1.8940001
0.31921333 0.075320005 1.8830001
0.32280001 0.075320005 1.8830001
0.32638669 0.075320005 1.8830001
0.32997334 0.075320005 1.8830001
0.33356002 0.075320005 1.8830001
0.33714667 0.075320005 1.8830001
0.34073335 0.075320005 1.8830001
0.34432 0.075320005 1.8830001
0.34605905 0.074920006 1.8730001
0.34962669 0.074920006 1.8730001
0.3531943 0.074920006 1.8730001
0.35676193 0.074920006 1.8730001
0.36032954 0.074920006 1.8730001
0.36389714 0.074920006 1.8730001
0.36746478 0.074920006 1.8730001
0.37103239 0.074920006 1.8730001
0.37460002 0.074920006 1.8730001
0.37816763 0.074920006 1.8730001
0.38173527 0.074920006 1.8730001
0.38530287 0.074920006 1.8730001
0.38887048 0.074920006 1.8730001
0.39243811 0.074920006 1.8730001
0.39600572 0.074920006 1.8730001
0.39957336 0.074920006 1.8730001
0.40098858 0.074519999 1.863
0.40453717 0.074519999 1.863
0.40808573 0.074519999 1.863
0.4116343 0.074519999 1.863
0.41518286 0.074519999 1.863
0.41648382 0.07412 1.853
0.42001334 0.07412 1.853
0.42354289 0.07412 1.853
0.42707241 0.07412 1.853
0.43060192 0.07412 1.853
0.43178859 0.073720001 1.8430001
0.43529907 0.073720001 1.8430001
0.43880954 0.073720001 1.8430001
0.44232002 0.073720001 1.8430001
0.44583049 0.073720001 1.8430001
0.44934097 0.073720001 1.8430001
0.45285144 0.073720001 1.8430001
0.45636192 0.073720001 1.8430001
0.45737717 0.073320001 1.8330001
0.4608686 0.073320001 1.8330001
0.46436003 0.073320001 1.8330001
0.46785146 0.073320001 1.8330001
0.47134286 0.073320001 1.8330001
0.47250289 0.072960004 1.8240001
0.47336763 0.072560005 1.8140001
0.47682288 0.072560005 1.8140001
0.4802781 0.072560005 1.8140001
0.48373336 0.072560005 1.8140001
0.4898743 0.072960004 1.8240001
0.4933486 0.072960004 1.8240001
0.50199813 0.073720001 1.8430001
0.50825143 0.07412 1.853
0.52006668 0.075320005 1.8830001
0.54145145 0.077880003 1.9470001
0.54516 0.077880003 1.9470001
0.5488686 0.077880003 1.9470001
0.55882096 0.078760006 1.9690001
0.56257147 0.078760006 1.9690001
0.56632191 0.078760006 1.9690001
-0.35084763 0.090807624 2.1670001
-0.34672001 0.090807624 2.1670001
-0.34037906 0.090220958 2.1530001
-0.33627811 0.090220958 2.1530001
-0.33217716 0.090220958 2.1530001
-0.32807621 0.090220958 2.1530001
-0.32397524 0.090220958 2.1530001
-0.31987429 0.090220958 2.1530001
-0.31386667 0.089676194 2.1400001
-0.30979049 0.089676194 2.1400001
-0.30757144 0.090220958 2.1530001
-0.3016381 0.089676194 2.1400001
-0.29936954 0.090220958 2.1530001
-0.2952686 0.090220958 2.1530001
-0.29116762 0.090220958 2.1530001
-0.28706667 0.090220958 2.1530001
-0.28125715 0.089676194 2.1400001
-0.27718097 0.089676194 2.1400001
-0.27310476 0.089676194 2.1400001
-0.26902857 0.089676194 2.1400001
-0.26495239 0.089676194 2.1400001
-0.25929144 0.08913143 2.1270001
-0.25524002 0.08913143 2.1270001
-0.25118858 0.08913143 2.1270001
-0.24713716 0.08913143 2.1270001
-0.24308573 0.08913143 2.1270001
-0.2390343 0.08913143 2.1270001
-0.23498286 0.08913143 2.1270001
-0.23234287 0.089676194 2.1400001
-0.22826667 0.089676194 2.1400001
-0.22419049 0.089676194 2.1400001
-0.21877715 0.08913143 2.1270001
-0.21472572 0.08913143 2.1270001
-0.2106743 0.08913143 2.1270001
-0.20662287 0.08913143 2.1270001
-0.20133334 0.088586673 2.1140001
-0.19730668 0.088586673 2.1140001
-0.19209144 0.088041909 2.1010001
-0.18808953 0.088041909 2.1010001
-0.18408762 0.088041909 2.1010001
-0.18008572 0.088041909 2.1010001
-0.17608382 0.088041909 2.1010001
-0.17208192 0.088041909 2.1010001
-0.16808 0.088041909 2.1010001
-0.1640781 0.088041909 2.1010001
-0.1600762 0.088041909 2.1010001
-0.15510857 0.087497145 2.0880001
-0.15113144 0.087497145 2.0880001
-0.14715429 0.087497145 2.0880001
-0.14317715 0.087497145 2.0880001
-0.1392 0.087497145 2.0880001
-0.13522287 0.087497145 2.0880001
-0.13124572 0.087497145 2.0880001
-0.12726858 0.087497145 2.0880001
-0.12329143 0.087497145 2.0880001
-0.11931429 0.087497145 2.0880001
-0.11533715 0.087497145 2.0880001
-0.11072 0.08699429 2.0760002
-0.10676572 0.08699429 2.0760002
-0.10281143 0.08699429 2.0760002
-0.098238096 0.086449526 2.0630002
-0.094308577 0.086449526 2.0630002
-0.090379052 0.086449526 2.0630002
-0.086449526 0.086449526 2.0630002
-0.082520001 0.086449526 2.0630002
-0.078133337 0.085946672 2.0510001
-0.07422667 0.085946672 2.0510001
-0.070320003 0.085946672 2.0510001
-0.066413336 0.085946672 2.0510001
-0.062506668 0.085946672 2.0510001
-0.058257144 0.08544381 2.039
-0.054373335 0.08544381 2.039
-0.050489526 0.08544381 2.039
-0.046605717 0.08544381 2.039
-0.042721905 0.08544381 2.039
-0.038838096 0.08544381 2.039
-0.034954287 0.08544381 2.039
-0.031070478 0.08544381 2.039
-0.027346667 0.085946672 2.0510001
-0.023302859 0.08544381 2.039
-0.019419048 0.08544381 2.039
-0.015535239 0.08544381 2.039
-0.011651429 0.08544381 2.039
-0.0077676196 0.08544381 2.039
-0.0038838098 0.08544381 2.039
0 0.08544381 2.039
0.0038838098 0.08544381 2.039
0.0077219051 0.084940955 2.0270002
0.011514287 0.0844381 2.0150001
0.015352381 0.0844381 2.0150001
0.019190477 0.0844381 2.0150001
0.023028573 0.0844381 2.0150001
0.026866667 0.0844381 2.0150001
0.030704763 0.0844381 2.0150001
0.034542859 0.0844381 2.0150001
0.038380954 0.0844381 2.0150001
0.04221905 0.0844381 2.0150001
0.046057146 0.0844381 2.0150001
0.049598098 0.083935238 2.003
0.053413335 0.083935238 2.003
0.057228573 0.083935238 2.003
0.06104381 0.083935238 2.003
0.064859048 0.083935238 2.003
0.068674289 0.083935238 2.003
0.07248953 0.083935238 2.003
0.076304764 0.083935238 2.003
0.080120005 0.083935238 2.003
0.083474286 0.083474286 1.9920001
0.08775048 0.083935238 2.003
0.091062859 0.083474286 1.9920001
0.094285719 0.082971431 1.9800001
0.098057143 0.082971431 1.9800001
0.10182858 0.082971431 1.9800001
0.10501334 0.082510479 1.9690001
0.10937143 0.082971431 1.9800001
0.11251429 0.082510479 1.9690001
0.11626477 0.082510479 1.9690001
0.12001524 0.082510479 1.9690001
0.12376572 0.082510479 1.9690001
0.1275162 0.082510479 1.9690001
0.13126667 0.082510479 1.9690001
0.13501714 0.082510479 1.9690001
0.13876763 0.082510479 1.9690001
0.1425181 0.082510479 1.9690001
0.14626858 0.082510479 1.9690001
0.14918096 0.082049526 1.9580001
0.15291049 0.082049526 1.9580001
0.15752001 0.082510479 1.9690001
0.16036953 0.082049526 1.9580001
0.16409905 0.082049526 1.9580001
0.16782857 0.082049526 1.9580001
0.1715581 0.082049526 1.9580001
0.17528762 0.082049526 1.9580001
0.17901716 0.082049526 1.9580001
0.18172 0.081588574 1.9470001
0.18542857 0.081588574 1.9470001
0.18913715 0.081588574 1.9470001
0.1917562 0.081127621 1.9360001
0.19544382 0.081127621 1.9360001
0.19800001 0.080666669 1.9250001
0.20281905 0.081127621 1.9360001
0.20533334 0.080666669 1.9250001
0.20900001 0.080666669 1.9250001
0.21266668 0.080666669 1.9250001
0.21633334 0.080666669 1.9250001
0.22000001 0.080666669 1.9250001
0.22494477 0.081127621 1.9360001
0.22863239 0.081127621 1.9360001
0.23232001 0.081127621 1.9360001
0.23600763 0.081127621 1.9360001
0.23969525 0.081127621 1.9360001
0.24338287 0.081127621 1.9360001
0.24707049 0.081127621 1.9360001
0.24933334 0.080666669 1.9250001
0.25300002 0.080666669 1.9250001
0.25666669 0.080666669 1.9250001
0.26033333 0.080666669 1.9250001
0.26262859 0.080247626 1.9150001
0.26766667 0.080666669 1.9250001
0.26992381 0.080247626 1.9150001
0.27357143 0.080247626 1.9150001
0.27721906 0.080247626 1.9150001
0.28086668 0.080247626 1.9150001
0.28451431 0.080247626 1.9150001
0.2881619 0.080247626 1.9150001
0.29180953 0.080247626 1.9150001
0.29545715 0.080247626 1.9150001
0.29738668 0.079786673 1.904
0.30101335 0.079786673 1.904
0.30464002 0.079786673 1.904
0.30826667 0.079786673 1.904
0.31189334 0.079786673 1.904
0.31386286 0.079367623 1.8940001
0.31747049 0.079367623 1.8940001
0.31921333 0.07890667 1.8830001
0.32468572 0.079367623 1.8940001
0.32638669 0.07890667 1.8830001
0.32997334 0.07890667 1.8830001
0.33356002 0.07890667 1.8830001
0.33714667 0.07890667 1.8830001
0.34073335 0.07890667 1.8830001
0.34432 0.07890667 1.8830001
0.34790668 0.07890667 1.8830001
0.34962669 0.07848762 1.8730001
0.3531943 0.07848762 1.8730001
0.35676193 0.07848762 1.8730001
0.36032954 0.07848762 1.8730001
0.36389714 0.07848762 1.8730001
0.36550286 0.078068577 1.863
0.36905146 0.078068577 1.863
0.37460002 0.07848762 1.8730001
0.37614858 0.078068577 1.863
0.38173527 0.07848762 1.8730001
0.38530287 0.07848762 1.8730001
0.38887048 0.07848762 1.8730001
0.39243811 0.07848762 1.8730001
0.39600572 0.07848762 1.8730001
0.39957336 0.07848762 1.8730001
0.40098858 0.078068577 1.863
0.40453717 0.078068577 1.863
0.40808573 0.078068577 1.863
0.4116343 0.078068577 1.863
0.41518286 0.078068577 1.863
0.41873145 0.078068577 1.863
0.42228001 0.078068577 1.863
0.42582858 0.078068577 1.863
0.42937717 0.078068577 1.863
0.43292573 0.078068577 1.863
0.43413144 0.077649526 1.853
0.43766096 0.077649526 1.853
0.43880954 0.077230476 1.8430001
0.44232002 0.077230476 1.8430001
0.44583049 0.077230476 1.8430001
0.44934097 0.077230476 1.8430001
0.45285144 0.077230476 1.8430001
0.45636192 0.077230476 1.8430001
0.45737717 0.076811433 1.8330001
0.4608686 0.076811433 1.8330001
0.46436003 0.076811433 1.8330001
0.46785146 0.076811433 1.8330001
0.47134286 0.076811433 1.8330001
0.47250289 0.076434292 1.8240001
0.47336763 0.076015241 1.8140001
0.47682288 0.076015241 1.8140001
0.4802781 0.076015241 1.8140001
