# .PCD v0.7 - Point Cloud Data file format
VERSION 0.7
FIELDS x y z
SIZE 4 4 4
TYPE F F F
COUNT 1 1 1
WIDTH 1485
HEIGHT 1
VIEWPOINT 0 0 0 1 0 0 0
POINTS 1485
DATA ascii
0.31872001 0.064502858 1.9920001
0.3225143 0.064502858 1.9920001
0.32630858 0.064502858 1.9920001
0.33010286 0.064502858 1.9920001
0.33389714 0.064502858 1.9920001
0.33769143 0.064502858 1.9920001
0.33942857 0.064114287 1.9800001
0.3432 0.064114287 1.9800001
0.34697145 0.064114287 1.9800001
0.34879431 0.063758098 1.9690001
0.35254478 0.063758098 1.9690001
0.35629526 0.063758098 1.9690001
0.36004573 0.063758098 1.9690001
0.36582857 0.064114287 1.9800001
0.36754668 0.063758098 1.9690001
0.37129715 0.063758098 1.9690001
0.37504762 0.063758098 1.9690001
0.3787981 0.063758098 1.9690001
0.38254857 0.063758098 1.9690001
0.38845715 0.064114287 1.9800001
0.39222857 0.064114287 1.9800001
0.39840001 0.064502858 1.9920001
0.40441525 0.064859048 2.003
0.41312191 0.065636195 2.0270002
0.41945145 0.066024765 2.039
0.42582667 0.066413336 2.0510001
0.43224764 0.066801906 2.0630002
0.43617716 0.066801906 2.0630002
0.44288 0.067222856 2.0760002
0.44941717 0.067611434 2.0880001
0.45621717 0.068032384 2.1010001
0.4630667 0.068453334 2.1140001
0.46996573 0.068874285 2.1270001
0.47691432 0.069295242 2.1400001
0.48391241 0.069716193 2.1530001
0.49118668 0.070169523 2.1670001
0.49851429 0.070622861 2.181
0.50266862 0.070622861 2.181
0.50984383 0.071043812 2.194
0.51730287 0.071497142 2.2080002
0.52150857 0.071497142 2.2080002
0.52571428 0.071497142 2.2080002
0.52992004 0.071497142 2.2080002
0.53073907 0.071043812 2.194
0.53491813 0.071043812 2.194
-0.42089143 0.08146286 2.3760002
-0.41636574 0.08146286 2.3760002
-0.41184002 0.08146286 2.3760002
-0.4073143 0.08146286 2.3760002
-0.40278858 0.08146286 2.3760002
-0.39826286 0.08146286 2.3760002
-0.39373717 0.08146286 2.3760002
-0.38921145 0.08146286 2.3760002
-0.38468572 0.08146286 2.3760002
-0.38016 0.08146286 2.3760002
-0.37563431 0.08146286 2.3760002
-0.37110859 0.08146286 2.3760002
-0.36658287 0.08146286 2.3760002
-0.36205715 0.08146286 2.3760002
-0.35753143 0.08146286 2.3760002
-0.35300574 0.08146286 2.3760002
-0.34848002 0.08146286 2.3760002
-0.34395429 0.08146286 2.3760002
-0.33942857 0.08146286 2.3760002
-0.33250669 0.080880001 2.3590002
-0.33037716 0.08146286 2.3760002
-0.32352 0.080880001 2.3590002
-0.31902668 0.080880001 2.3590002
-0.31240001 0.08033143 2.3430002
-0.30793715 0.08033143 2.3430002
-0.30347431 0.08033143 2.3430002
-0.29696953 0.079782858 2.3270001
-0.29253715 0.079782858 2.3270001
-0.28810477 0.079782858 2.3270001
-0.28367239 0.079782858 2.3270001
-0.27924001 0.079782858 2.3270001
-0.27480763 0.079782858 2.3270001
-0.27037525 0.079782858 2.3270001
-0.26594287 0.079782858 2.3270001
-0.25982478 0.079268575 2.312
-0.25542095 0.079268575 2.312
-0.25264573 0.079782858 2.3270001
-0.24661334 0.079268575 2.312
-0.24220954 0.079268575 2.312
-0.23780572 0.079268575 2.312
-0.23340191 0.079268575 2.312
-0.22899811 0.079268575 2.312
-0.2245943 0.079268575 2.312
-0.21876191 0.078754291 2.2970002
-0.21438667 0.078754291 2.2970002
-0.20854858 0.07820572 2.2810001
-0.20420381 0.07820572 2.2810001
-0.19985905 0.07820572 2.2810001
-0.19422857 0.077691428 2.266
-0.18991239 0.077691428 2.266
-0.18682477 0.07820572 2.2810001
-0.18248001 0.07820572 2.2810001
-0.17813525 0.07820572 2.2810001
-0.17264763 0.077691428 2.266
-0.16833143 0.077691428 2.266
-0.16401525 0.077691428 2.266
-0.15969905 0.077691428 2.266
-0.15538286 0.077691428 2.266
-0.15106668 0.077691428 2.266
-0.14675048 0.077691428 2.266
-0.14243428 0.077691428 2.266
-0.1381181 0.077691428 2.266
-0.13297524 0.077211432 2.2520001
-0.12868571 0.077211432 2.2520001
-0.1243962 0.077211432 2.2520001
-0.12010667 0.077211432 2.2520001
-0.11581714 0.077211432 2.2520001
-0.11078477 0.076697148 2.237
-0.10652381 0.076697148 2.237
-0.10162286 0.076217145 2.223
-0.097388573 0.076217145 2.223
-0.093154289 0.076217145 2.223
-0.088920005 0.076217145 2.223
-0.084114291 0.075702861 2.2080002
-0.079908572 0.075702861 2.2080002
-0.075702861 0.075702861 2.2080002
-0.071497142 0.075702861 2.2080002
-0.067291431 0.075702861 2.2080002
-0.06308572 0.075702861 2.2080002
-0.058880001 0.075702861 2.2080002
-0.054327622 0.075222857 2.194
-0.050148573 0.075222857 2.194
-0.045969527 0.075222857 2.194
-0.041790478 0.075222857 2.194
-0.037611429 0.075222857 2.194
-0.033645716 0.075702861 2.2080002
-0.029440001 0.075702861 2.2080002
-0.025074286 0.075222857 2.194
-0.020895239 0.075222857 2.194
-0.016716192 0.075222857 2.194
-0.012537143 0.075222857 2.194
-0.0083085718 0.074777149 2.181
-0.0041542859 0.074777149 2.181
0 0.074777149 2.181
0.0041276193 0.074297145 2.1670001
0.0082552386 0.074297145 2.1670001
0.012382858 0.074297145 2.1670001
0.016510477 0.074297145 2.1670001
0.020638095 0.074297145 2.1670001
0.024765715 0.074297145 2.1670001
0.028706668 0.073817149 2.1530001
0.032807622 0.073817149 2.1530001
0.036908574 0.073817149 2.1530001
0.041009527 0.073817149 2.1530001
0.045110479 0.073817149 2.1530001
0.049211431 0.073817149 2.1530001
0.053312384 0.073817149 2.1530001
0.057413336 0.073817149 2.1530001
0.061142858 0.073371433 2.1400001
0.065219052 0.073371433 2.1400001
0.069295242 0.073371433 2.1400001
0.073371433 0.073371433 2.1400001
0.077447623 0.073371433 2.1400001
0.081523813 0.073371433 2.1400001
0.085080005 0.072925717 2.1270001
0.08913143 0.072925717 2.1270001
0.092613339 0.072480001 2.1140001
0.096640006 0.072480001 2.1140001
0.10066667 0.072480001 2.1140001
0.10469334 0.072480001 2.1140001
0.10872 0.072480001 2.1140001
0.11274667 0.072480001 2.1140001
0.11677334 0.072480001 2.1140001
0.12005715 0.072034292 2.1010001
0.12405905 0.072034292 2.1010001
0.12806095 0.072034292 2.1010001
0.13206287 0.072034292 2.1010001
0.13606477 0.072034292 2.1010001
0.14006667 0.072034292 2.1010001
0.14406858 0.072034292 2.1010001
0.14715429 0.071588576 2.0880001
0.15113144 0.071588576 2.0880001
0.15510857 0.071588576 2.0880001
0.15908572 0.071588576 2.0880001
0.16306287 0.071588576 2.0880001
0.16608001 0.071177147 2.0760002
0.17003429 0.071177147 2.0760002
0.17398858 0.071177147 2.0760002
0.17794286 0.071177147 2.0760002
0.1807581 0.070731431 2.0630002
0.18468763 0.070731431 2.0630002
0.18861715 0.070731431 2.0630002
0.19254668 0.070731431 2.0630002
0.19533335 0.070320003 2.0510001
0.19924001 0.070320003 2.0510001
0.20314668 0.070320003 2.0510001
0.20705333 0.070320003 2.0510001
0.21096 0.070320003 2.0510001
0.21486667 0.070320003 2.0510001
0.21877334 0.070320003 2.0510001
0.22268 0.070320003 2.0510001
0.22658667 0.070320003 2.0510001
0.23049334 0.070320003 2.0510001
0.2344 0.070320003 2.0510001
0.23691238 0.069908574 2.039
0.24079619 0.069908574 2.039
0.24468 0.069908574 2.039
0.24856383 0.069908574 2.039
0.25244763 0.069908574 2.039
0.25633144 0.069908574 2.039
0.26021525 0.069908574 2.039
0.26409906 0.069908574 2.039
0.26798287 0.069908574 2.039
0.27026668 0.069497146 2.0270002
0.27412763 0.069497146 2.0270002
0.27798858 0.069497146 2.0270002
0.28184953 0.069497146 2.0270002
0.28401905 0.069085717 2.0150001
0.28957143 0.069497146 2.0270002
0.29169524 0.069085717 2.0150001
0.29553336 0.069085717 2.0150001
0.29937145 0.069085717 2.0150001
0.30140382 0.068674289 2.003
0.30521905 0.068674289 2.003
0.30903429 0.068674289 2.003
0.31284952 0.068674289 2.003
0.31492573 0.068297148 1.9920001
0.31872001 0.068297148 1.9920001
0.3225143 0.068297148 1.9920001
0.32811049 0.068674289 2.003
0.33010286 0.068297148 1.9920001
0.33389714 0.068297148 1.9920001
0.33769143 0.068297148 1.9920001
0.33942857 0.067885719 1.9800001
0.3432 0.067885719 1.9800001
0.34504381 0.067508571 1.9690001
0.34879431 0.067508571 1.9690001
0.35254478 0.067508571 1.9690001
0.35629526 0.067508571 1.9690001
0.36004573 0.067508571 1.9690001
0.3637962 0.067508571 1.9690001
0.36754668 0.067508571 1.9690001
0.37129715 0.067508571 1.9690001
0.37504762 0.067508571 1.9690001
0.3787981 0.067508571 1.9690001
0.38254857 0.067508571 1.9690001
0.38629907 0.067508571 1.9690001
0.39222857 0.067885719 1.9800001
0.39600003 0.067885719 1.9800001
0.40441525 0.068674289 2.003
0.41067621 0.069085717 2.0150001
0.41945145 0.069908574 2.039
0.42582667 0.070320003 2.0510001
0.43224764 0.070731431 2.0630002
0.43617716 0.070731431 2.0630002
0.44288 0.071177147 2.0760002
0.4468343 0.071177147 2.0760002
0.45621717 0.072034292 2.1010001
0.46021906 0.072034292 2.1010001
0.46996573 0.072925717 2.1270001
0.47691432 0.073371433 2.1400001
0.48391241 0.073817149 2.1530001
0.49118668 0.074297145 2.1670001
0.49851429 0.074777149 2.181
0.50266862 0.074777149 2.181
0.50984383 0.075222857 2.194
0.51730287 0.075702861 2.2080002
0.52150857 0.075702861 2.2080002
0.52571428 0.075702861 2.2080002
0.52992004 0.075702861 2.2080002
0.53412575 0.075702861 2.2080002
0.53833145 0.075702861 2.2080002
0.54253715 0.075702861 2.2080002
-0.42089143 0.085988574 2.3760002
-0.41636574 0.085988574 2.3760002
-0.41184002 0.085988574 2.3760002
-0.41005716 0.086567625 2.3920002
-0.40278858 0.085988574 2.3760002
-0.39826286 0.085988574 2.3760002
-0.39373717 0.085988574 2.3760002
-0.38921145 0.085988574 2.3760002
-0.38468572 0.085988574 2.3760002
-0.38016 0.085988574 2.3760002
-0.37563431 0.085988574 2.3760002
-0.37110859 0.085988574 2.3760002
-0.36658287 0.085988574 2.3760002
-0.36205715 0.085988574 2.3760002
-0.35753143 0.085988574 2.3760002
-0.35300574 0.085988574 2.3760002
-0.34848002 0.085988574 2.3760002
-0.34395429 0.085988574 2.3760002
-0.33942857 0.085988574 2.3760002
-0.33490288 0.085988574 2.3760002
-0.33037716 0.085988574 2.3760002
-0.32585144 0.085988574 2.3760002
-0.31902668 0.085373335 2.3590002
-0.31453335 0.085373335 2.3590002
-0.30793715 0.08479429 2.3430002
-0.30347431 0.08479429 2.3430002
-0.29901144 0.08479429 2.3430002
-0.29253715 0.084215239 2.3270001
-0.28810477 0.084215239 2.3270001
-0.28367239 0.084215239 2.3270001
-0.27924001 0.084215239 2.3270001
-0.27480763 0.084215239 2.3270001
-0.27037525 0.084215239 2.3270001
-0.26594287 0.084215239 2.3270001
-0.26151049 0.084215239 2.3270001
-0.25542095 0.083672382 2.312
-0.25264573 0.084215239 2.3270001
-0.24661334 0.083672382 2.312
-0.24220954 0.083672382 2.312
-0.23780572 0.083672382 2.312
-0.23340191 0.083672382 2.312
-0.22899811 0.083672382 2.312
-0.2245943 0.083672382 2.312
-0.21876191 0.083129525 2.2970002
-0.21438667 0.083129525 2.2970002
-0.20854858 0.082550481 2.2810001
-0.20420381 0.082550481 2.2810001
-0.19985905 0.082550481 2.2810001
-0.19422857 0.082007624 2.266
-0.18991239 0.082007624 2.266
-0.18682477 0.082550481 2.2810001
-0.18248001 0.082550481 2.2810001
-0.17813525 0.082550481 2.2810001
-0.17264763 0.082007624 2.266
-0.16833143 0.082007624 2.266
-0.16401525 0.082007624 2.266
-0.15969905 0.082007624 2.266
-0.15538286 0.082007624 2.266
-0.15106668 0.082007624 2.266
-0.14675048 0.082007624 2.266
-0.14243428 0.082007624 2.266
-0.1381181 0.082007624 2.266
-0.13380191 0.082007624 2.266
-0.12868571 0.081500955 2.2520001
-0.1243962 0.081500955 2.2520001
-0.12010667 0.081500955 2.2520001
-0.11581714 0.081500955 2.2520001
-0.11152762 0.081500955 2.2520001
-0.10652381 0.080958098 2.237
-0.10162286 0.080451429 2.223
-0.097388573 0.080451429 2.223
-0.093154289 0.080451429 2.223
-0.088920005 0.080451429 2.223
-0.084114291 0.079908572 2.2080002
-0.079908572 0.079908572 2.2080002
-0.075702861 0.079908572 2.2080002
-0.071497142 0.079908572 2.2080002
-0.067291431 0.079908572 2.2080002
-0.06308572 0.079908572 2.2080002
-0.058880001 0.079908572 2.2080002
-0.054327622 0.07940191 2.194
-0.050148573 0.07940191 2.194
-0.045969527 0.07940191 2.194
-0.041790478 0.07940191 2.194
-0.037611429 0.07940191 2.194
-0.033645716 0.079908572 2.2080002
-0.029440001 0.079908572 2.2080002
-0.025074286 0.07940191 2.194
-0.020895239 0.07940191 2.194
-0.016716192 0.07940191 2.194
-0.012537143 0.07940191 2.194
-0.0083085718 0.078931428 2.181
-0.0041542859 0.078931428 2.181
0 0.078931428 2.181
0.0041276193 0.078424767 2.1670001
0.0082552386 0.078424767 2.1670001
0.012382858 0.078424767 2.1670001
0.016510477 0.078424767 2.1670001
0.020638095 0.078424767 2.1670001
0.024765715 0.078424767 2.1670001
0.028706668 0.077918097 2.1530001
0.032807622 0.077918097 2.1530001
0.036908574 0.077918097 2.1530001
0.041009527 0.077918097 2.1530001
0.045110479 0.077918097 2.1530001
0.049211431 0.077918097 2.1530001
0.053312384 0.077918097 2.1530001
0.057413336 0.077918097 2.1530001
0.061142858 0.077447623 2.1400001
0.065219052 0.077447623 2.1400001
0.069295242 0.077447623 2.1400001
0.073371433 0.077447623 2.1400001
0.077447623 0.077447623 2.1400001
0.081523813 0.077447623 2.1400001
0.085600004 0.077447623 2.1400001
0.08913143 0.076977149 2.1270001
0.093182862 0.076977149 2.1270001
0.096640006 0.076506667 2.1140001
0.10066667 0.076506667 2.1140001
0.10469334 0.076506667 2.1140001
0.10872 0.076506667 2.1140001
0.11274667 0.076506667 2.1140001
0.11677334 0.076506667 2.1140001
0.12005715 0.076036192 2.1010001
0.12405905 0.076036192 2.1010001
0.12806095 0.076036192 2.1010001
0.13206287 0.076036192 2.1010001
0.13522287 0.075565718 2.0880001
0.1392 0.075565718 2.0880001
0.14317715 0.075565718 2.0880001
0.14715429 0.075565718 2.0880001
0.15113144 0.075565718 2.0880001
0.15510857 0.075565718 2.0880001
0.15908572 0.075565718 2.0880001
0.16306287 0.075565718 2.0880001
0.16608001 0.075131431 2.0760002
0.17003429 0.075131431 2.0760002
0.17398858 0.075131431 2.0760002
0.17794286 0.075131431 2.0760002
0.18189715 0.075131431 2.0760002
0.18468763 0.074660957 2.0630002
0.18861715 0.074660957 2.0630002
0.19254668 0.074660957 2.0630002
0.19533335 0.07422667 2.0510001
0.19924001 0.07422667 2.0510001
0.20314668 0.07422667 2.0510001
0.20705333 0.07422667 2.0510001
0.21219429 0.074660957 2.0630002
0.21486667 0.07422667 2.0510001
0.21877334 0.07422667 2.0510001
0.22268 0.07422667 2.0510001
0.22658667 0.07422667 2.0510001
0.23049334 0.07422667 2.0510001
0.2344 0.07422667 2.0510001
0.23691238 0.073792383 2.039
0.24079619 0.073792383 2.039
0.24468 0.073792383 2.039
0.24856383 0.073792383 2.039
0.25244763 0.073792383 2.039
0.25633144 0.073792383 2.039
0.26021525 0.073792383 2.039
0.26409906 0.073792383 2.039
0.26798287 0.073792383 2.039
0.27026668 0.073358096 2.0270002
0.27412763 0.073358096 2.0270002
0.27798858 0.073358096 2.0270002
0.28184953 0.073358096 2.0270002
0.28401905 0.072923809 2.0150001
0.28785715 0.072923809 2.0150001
0.29169524 0.072923809 2.0150001
0.29553336 0.072923809 2.0150001
0.29937145 0.072923809 2.0150001
0.30140382 0.07248953 2.003
0.30521905 0.07248953 2.003
0.30903429 0.07248953 2.003
0.31284952 0.07248953 2.003
0.31492573 0.07209143 1.9920001
0.31872001 0.07209143 1.9920001
0.3225143 0.07209143 1.9920001
0.32811049 0.07248953 2.003
0.33010286 0.07209143 1.9920001
0.33389714 0.07209143 1.9920001
0.33769143 0.07209143 1.9920001
0.33942857 0.071657144 1.9800001
0.3432 0.071657144 1.9800001
0.34697145 0.071657144 1.9800001
0.34879431 0.071259052 1.9690001
0.3545143 0.071657144 1.9800001
0.35828573 0.071657144 1.9800001
0.36004573 0.071259052 1.9690001
0.36582857 0.071657144 1.9800001
0.36754668 0.071259052 1.9690001
0.37129715 0.071259052 1.9690001
0.37504762 0.071259052 1.9690001
0.3787981 0.071259052 1.9690001
0.38254857 0.071259052 1.9690001
0.38629907 0.071259052 1.9690001
0.39222857 0.071657144 1.9800001
0.39600003 0.071657144 1.9800001
0.40219429 0.07209143 1.9920001
0.41067621 0.072923809 2.0150001
0.41945145 0.073792383 2.039
0.42582667 0.07422667 2.0510001
0.43224764 0.074660957 2.0630002
0.43617716 0.074660957 2.0630002
0.44288 0.075131431 2.0760002
0.4468343 0.075131431 2.0760002
0.45339429 0.075565718 2.0880001
0.46021906 0.076036192 2.1010001
0.46996573 0.076977149 2.1270001
0.47691432 0.077447623 2.1400001
0.48391241 0.077918097 2.1530001
0.49118668 0.078424767 2.1670001
0.49851429 0.078931428 2.181
0.50566477 0.07940191 2.194
0.50984383 0.07940191 2.194
0.51730287 0.079908572 2.2080002
0.52150857 0.079908572 2.2080002
0.52571428 0.079908572 2.2080002
0.53352004 0.080451429 2.223
0.54114097 0.080958098 2.237
0.54198861 0.080451429 2.223
0.54622287 0.080451429 2.223
-0.42089143 0.090514287 2.3760002
-0.41916955 0.091123812 2.3920002
-0.41461334 0.091123812 2.3920002
-0.41005716 0.091123812 2.3920002
-0.40550098 0.091123812 2.3920002
-0.39826286 0.090514287 2.3760002
-0.39373717 0.090514287 2.3760002
-0.38921145 0.090514287 2.3760002
-0.38468572 0.090514287 2.3760002
-0.38016 0.090514287 2.3760002
-0.37563431 0.090514287 2.3760002
-0.37110859 0.090514287 2.3760002
-0.36658287 0.090514287 2.3760002
-0.36205715 0.090514287 2.3760002
-0.35753143 0.090514287 2.3760002
-0.35300574 0.090514287 2.3760002
-0.34848002 0.090514287 2.3760002
-0.34395429 0.090514287 2.3760002
-0.33942857 0.090514287 2.3760002
-0.33490288 0.090514287 2.3760002
-0.33037716 0.090514287 2.3760002
-0.32585144 0.090514287 2.3760002
-0.31902668 0.089866668 2.3590002
-0.31453335 0.089866668 2.3590002
-0.30793715 0.089257143 2.3430002
-0.30347431 0.089257143 2.3430002
-0.29901144 0.089257143 2.3430002
-0.29253715 0.088647619 2.3270001
-0.28810477 0.088647619 2.3270001
-0.28367239 0.088647619 2.3270001
-0.27924001 0.088647619 2.3270001
-0.27480763 0.088647619 2.3270001
-0.27037525 0.088647619 2.3270001
-0.26594287 0.088647619 2.3270001
-0.26151049 0.088647619 2.3270001
-0.25707811 0.088647619 2.3270001
-0.25264573 0.088647619 2.3270001
-0.24821334 0.088647619 2.3270001
-0.24220954 0.088076197 2.312
-0.23780572 0.088076197 2.312
-0.23340191 0.088076197 2.312
-0.22899811 0.088076197 2.312
-0.2245943 0.088076197 2.312
-0.22019048 0.088076197 2.312
-0.21438667 0.087504767 2.2970002
-0.20854858 0.086895242 2.2810001
-0.20420381 0.086895242 2.2810001
-0.19985905 0.086895242 2.2810001
-0.19551429 0.086895242 2.2810001
-0.19116953 0.086895242 2.2810001
-0.18682477 0.086895242 2.2810001
-0.18248001 0.086895242 2.2810001
-0.17813525 0.086895242 2.2810001
-0.17264763 0.086323813 2.266
-0.16833143 0.086323813 2.266
-0.16401525 0.086323813 2.266
-0.15969905 0.086323813 2.266
-0.15538286 0.086323813 2.266
-0.15106668 0.086323813 2.266
-0.14675048 0.086323813 2.266
-0.14243428 0.086323813 2.266
-0.1381181 0.086323813 2.266
-0.13380191 0.086323813 2.266
-0.12868571 0.085790478 2.2520001
-0.1243962 0.085790478 2.2520001
-0.12010667 0.085790478 2.2520001
-0.11581714 0.085790478 2.2520001
-0.11152762 0.085790478 2.2520001
-0.10652381 0.085219048 2.237
-0.10226286 0.085219048 2.237
-0.097388573 0.084685721 2.223
-0.093154289 0.084685721 2.223
-0.088920005 0.084685721 2.223
-0.084114291 0.084114291 2.2080002
-0.079908572 0.084114291 2.2080002
-0.075702861 0.084114291 2.2080002
-0.071497142 0.084114291 2.2080002
-0.067291431 0.084114291 2.2080002
-0.06308572 0.084114291 2.2080002
-0.058880001 0.084114291 2.2080002
-0.054327622 0.083580956 2.194
-0.050148573 0.083580956 2.194
-0.045969527 0.083580956 2.194
-0.041790478 0.083580956 2.194
-0.037611429 0.083580956 2.194
-0.033645716 0.084114291 2.2080002
-0.029440001 0.084114291 2.2080002
-0.025074286 0.083580956 2.194
-0.020895239 0.083580956 2.194
-0.016716192 0.083580956 2.194
-0.012537143 0.083580956 2.194
-0.0083580958 0.083580956 2.194
-0.0041542859 0.083085716 2.181
0 0.083085716 2.181
0.0041542859 0.083085716 2.181
0.0082552386 0.082552381 2.1670001
0.012382858 0.082552381 2.1670001
0.016510477 0.082552381 2.1670001
0.020638095 0.082552381 2.1670001
0.024605716 0.082019053 2.1530001
0.028706668 0.082019053 2.1530001
0.032807622 0.082019053 2.1530001
0.036908574 0.082019053 2.1530001
0.041009527 0.082019053 2.1530001
0.045110479 0.082019053 2.1530001
0.049211431 0.082019053 2.1530001
0.053312384 0.082019053 2.1530001
0.057413336 0.082019053 2.1530001
0.061142858 0.081523813 2.1400001
0.065219052 0.081523813 2.1400001
0.069295242 0.081523813 2.1400001
0.073371433 0.081523813 2.1400001
0.077447623 0.081523813 2.1400001
0.081523813 0.081523813 2.1400001
0.085080005 0.081028573 2.1270001
0.08913143 0.081028573 2.1270001
0.093182862 0.081028573 2.1270001
0.096640006 0.080533333 2.1140001
0.10066667 0.080533333 2.1140001
0.10469334 0.080533333 2.1140001
0.10805143 0.0800381 2.1010001
0.11205333 0.0800381 2.1010001
0.11605524 0.0800381 2.1010001
0.12005715 0.0800381 2.1010001
0.12405905 0.0800381 2.1010001
0.12806095 0.0800381 2.1010001
0.13206287 0.0800381 2.1010001
0.13522287 0.07954286 2.0880001
0.1392 0.07954286 2.0880001
0.14317715 0.07954286 2.0880001
0.14715429 0.07954286 2.0880001
0.15113144 0.07954286 2.0880001
0.15421715 0.079085715 2.0760002
0.15817143 0.079085715 2.0760002
0.16306287 0.07954286 2.0880001
0.16608001 0.079085715 2.0760002
0.17003429 0.079085715 2.0760002
0.17398858 0.079085715 2.0760002
0.17794286 0.079085715 2.0760002
0.18189715 0.079085715 2.0760002
0.18468763 0.078590482 2.0630002
0.18861715 0.078590482 2.0630002
0.19254668 0.078590482 2.0630002
0.19533335 0.078133337 2.0510001
0.19924001 0.078133337 2.0510001
0.20314668 0.078133337 2.0510001
0.20705333 0.078133337 2.0510001
0.21096 0.078133337 2.0510001
0.21486667 0.078133337 2.0510001
0.21877334 0.078133337 2.0510001
0.22268 0.078133337 2.0510001
0.22658667 0.078133337 2.0510001
0.23049334 0.078133337 2.0510001
0.23302858 0.077676192 2.039
0.23691238 0.077676192 2.039
0.24079619 0.077676192 2.039
0.24468 0.077676192 2.039
0.24856383 0.077676192 2.039
0.25244763 0.077676192 2.039
0.25633144 0.077676192 2.039
0.26021525 0.077676192 2.039
0.26409906 0.077676192 2.039
0.26798287 0.077676192 2.039
0.27026668 0.077219054 2.0270002
0.27412763 0.077219054 2.0270002
0.27798858 0.077219054 2.0270002
0.28018096 0.076761909 2.0150001
0.28401905 0.076761909 2.0150001
0.28785715 0.076761909 2.0150001
0.29169524 0.076761909 2.0150001
0.29553336 0.076761909 2.0150001
0.29937145 0.076761909 2.0150001
0.30320954 0.076761909 2.0150001
0.30521905 0.076304764 2.003
0.30903429 0.076304764 2.003
0.31284952 0.076304764 2.003
0.31666479 0.076304764 2.003
0.32048002 0.076304764 2.003
0.32429525 0.076304764 2.003
0.32811049 0.076304764 2.003
0.33010286 0.075885721 1.9920001
0.33389714 0.075885721 1.9920001
0.33769143 0.075885721 1.9920001
0.33942857 0.075428575 1.9800001
0.3432 0.075428575 1.9800001
0.34697145 0.075428575 1.9800001
0.34879431 0.075009525 1.9690001
0.35254478 0.075009525 1.9690001
0.35828573 0.075428575 1.9800001
0.36004573 0.075009525 1.9690001
0.3637962 0.075009525 1.9690001
0.36754668 0.075009525 1.9690001
0.37129715 0.075009525 1.9690001
0.37504762 0.075009525 1.9690001
0.3787981 0.075009525 1.9690001
0.38254857 0.075009525 1.9690001
0.38629907 0.075009525 1.9690001
0.39222857 0.075428575 1.9800001
0.39840001 0.075885721 1.9920001
0.40441525 0.076304764 2.003
0.41067621 0.076761909 2.0150001
0.41945145 0.077676192 2.039
0.42333525 0.077676192 2.039
0.43224764 0.078590482 2.0630002
0.43617716 0.078590482 2.0630002
0.44288 0.079085715 2.0760002
0.4468343 0.079085715 2.0760002
0.45621717 0.0800381 2.1010001
0.4630667 0.080533333 2.1140001
0.46996573 0.081028573 2.1270001
0.47691432 0.081523813 2.1400001
0.48391241 0.082019053 2.1530001
0.49118668 0.082552381 2.1670001
0.49851429 0.083085716 2.181
0.50566477 0.083580956 2.194
0.51309717 0.084114291 2.2080002
0.51730287 0.084114291 2.2080002
0.52505147 0.084685721 2.223
0.52928573 0.084685721 2.223
0.53688002 0.085219048 2.237
0.54476953 0.085790478 2.2520001
0.54540193 0.085219048 2.237
0.54966289 0.085219048 2.237
-0.41916955 0.095680006 2.3920002
-0.41461334 0.095680006 2.3920002
-0.41005716 0.095680006 2.3920002
-0.40550098 0.095680006 2.3920002
-0.39826286 0.095040001 2.3760002
-0.39373717 0.095040001 2.3760002
-0.38921145 0.095040001 2.3760002
-0.38468572 0.095040001 2.3760002
-0.38016 0.095040001 2.3760002
-0.37563431 0.095040001 2.3760002
-0.37110859 0.095040001 2.3760002
-0.36658287 0.095040001 2.3760002
-0.36205715 0.095040001 2.3760002
-0.35753143 0.095040001 2.3760002
-0.35300574 0.095040001 2.3760002
-0.34848002 0.095040001 2.3760002
-0.34395429 0.095040001 2.3760002
-0.33942857 0.095040001 2.3760002
-0.33490288 0.095040001 2.3760002
-0.33037716 0.095040001 2.3760002
-0.32585144 0.095040001 2.3760002
-0.31902668 0.094360001 2.3590002
-0.31453335 0.094360001 2.3590002
-0.30793715 0.093720004 2.3430002
-0.30347431 0.093720004 2.3430002
-0.29696953 0.093080007 2.3270001
-0.29253715 0.093080007 2.3270001
-0.28810477 0.093080007 2.3270001
-0.28367239 0.093080007 2.3270001
-0.27924001 0.093080007 2.3270001
-0.27480763 0.093080007 2.3270001
-0.27037525 0.093080007 2.3270001
-0.26594287 0.093080007 2.3270001
-0.26151049 0.093080007 2.3270001
-0.25707811 0.093080007 2.3270001
-0.25264573 0.093080007 2.3270001
-0.24821334 0.093080007 2.3270001
-0.24220954 0.092480004 2.312
-0.23780572 0.092480004 2.312
-0.23340191 0.092480004 2.312
-0.22899811 0.092480004 2.312
-0.2245943 0.092480004 2.312
-0.22019048 0.092480004 2.312
-0.21438667 0.091880001 2.2970002
-0.21001144 0.091880001 2.2970002
-0.2056362 0.091880001 2.2970002
-0.19985905 0.091240004 2.2810001
-0.19551429 0.091240004 2.2810001
-0.19116953 0.091240004 2.2810001
-0.18682477 0.091240004 2.2810001
-0.18248001 0.091240004 2.2810001
-0.17813525 0.091240004 2.2810001
-0.17379048 0.091240004 2.2810001
-0.16944572 0.091240004 2.2810001
-0.16401525 0.090640001 2.266
-0.15969905 0.090640001 2.266
-0.15538286 0.090640001 2.266
-0.15106668 0.090640001 2.266
-0.14675048 0.090640001 2.266
-0.14243428 0.090640001 2.266
-0.1381181 0.090640001 2.266
-0.13380191 0.090640001 2.266
-0.12868571 0.09008 2.2520001
-0.1243962 0.09008 2.2520001
-0.12010667 0.09008 2.2520001
-0.11581714 0.09008 2.2520001
-0.11152762 0.09008 2.2520001
-0.10652381 0.089480005 2.237
-0.10226286 0.089480005 2.237
-0.097388573 0.088920005 2.223
-0.093154289 0.088920005 2.223
-0.088920005 0.088920005 2.223
-0.084685721 0.088920005 2.223
-0.079908572 0.088320002 2.2080002
-0.075702861 0.088320002 2.2080002
-0.071497142 0.088320002 2.2080002
-0.067291431 0.088320002 2.2080002
-0.06308572 0.088320002 2.2080002
-0.058880001 0.088320002 2.2080002
-0.054327622 0.087760001 2.194
-0.050148573 0.087760001 2.194
-0.045969527 0.087760001 2.194
-0.041790478 0.087760001 2.194
-0.037611429 0.087760001 2.194
-0.033645716 0.088320002 2.2080002
-0.029440001 0.088320002 2.2080002
-0.025074286 0.087760001 2.194
-0.020895239 0.087760001 2.194
-0.016716192 0.087760001 2.194
-0.012537143 0.087760001 2.194
-0.0083580958 0.087760001 2.194
-0.0041790479 0.087760001 2.194
0 0.087240003 2.181
0.0041542859 0.087240003 2.181
0.0083085718 0.087240003 2.181
0.012382858 0.086680003 2.1670001
0.016510477 0.086680003 2.1670001
0.020638095 0.086680003 2.1670001
0.024765715 0.086680003 2.1670001
0.028893335 0.086680003 2.1670001
0.032807622 0.086120002 2.1530001
0.036908574 0.086120002 2.1530001
0.041009527 0.086120002 2.1530001
0.045110479 0.086120002 2.1530001
0.049211431 0.086120002 2.1530001
0.053312384 0.086120002 2.1530001
0.057066668 0.085600004 2.1400001
0.061142858 0.085600004 2.1400001
0.065219052 0.085600004 2.1400001
0.069295242 0.085600004 2.1400001
0.073371433 0.085600004 2.1400001
0.077447623 0.085600004 2.1400001
0.081523813 0.085600004 2.1400001
0.085080005 0.085080005 2.1270001
0.08913143 0.085080005 2.1270001
0.093182862 0.085080005 2.1270001
0.096640006 0.084559999 2.1140001
0.10066667 0.084559999 2.1140001
0.10469334 0.084559999 2.1140001
0.10872 0.084559999 2.1140001
0.11205333 0.084040001 2.1010001
0.11605524 0.084040001 2.1010001
0.12005715 0.084040001 2.1010001
0.12405905 0.084040001 2.1010001
0.12806095 0.084040001 2.1010001
0.13206287 0.084040001 2.1010001
0.13606477 0.084040001 2.1010001
0.14006667 0.084040001 2.1010001
0.14317715 0.083520003 2.0880001
0.14715429 0.083520003 2.0880001
0.15113144 0.083520003 2.0880001
0.15510857 0.083520003 2.0880001
0.15908572 0.083520003 2.0880001
0.16306287 0.083520003 2.0880001
0.16608001 0.083040006 2.0760002
0.17101716 0.083520003 2.0880001
0.17398858 0.083040006 2.0760002
0.17794286 0.083040006 2.0760002
0.18189715 0.083040006 2.0760002
0.18585144 0.083040006 2.0760002
0.18861715 0.082520001 2.0630002
0.19254668 0.082520001 2.0630002
0.19647619 0.082520001 2.0630002
0.19924001 0.082040004 2.0510001
0.20314668 0.082040004 2.0510001
0.20705333 0.082040004 2.0510001
0.21096 0.082040004 2.0510001
0.21486667 0.082040004 2.0510001
0.21877334 0.082040004 2.0510001
0.22268 0.082040004 2.0510001
0.22658667 0.082040004 2.0510001
0.23049334 0.082040004 2.0510001
0.2344 0.082040004 2.0510001
0.23691238 0.081560001 2.039
0.24221334 0.082040004 2.0510001
0.24612001 0.082040004 2.0510001
0.25002667 0.082040004 2.0510001
0.25244763 0.081560001 2.039
0.25633144 0.081560001 2.039
0.26021525 0.081560001 2.039
0.26409906 0.081560001 2.039
0.26798287 0.081560001 2.039
0.27026668 0.081080005 2.0270002
0.27412763 0.081080005 2.0270002
0.27798858 0.081080005 2.0270002
0.28018096 0.080600001 2.0150001
0.28401905 0.080600001 2.0150001
0.28785715 0.080600001 2.0150001
0.29169524 0.080600001 2.0150001
0.29553336 0.080600001 2.0150001
0.29937145 0.080600001 2.0150001
0.30320954 0.080600001 2.0150001
0.30704764 0.080600001 2.0150001
0.30903429 0.080120005 2.003
0.31284952 0.080120005 2.003
0.31666479 0.080120005 2.003
0.32048002 0.080120005 2.003
0.32429525 0.080120005 2.003
0.32811049 0.080120005 2.003
0.33192572 0.080120005 2.003
0.33389714 0.079680003 1.9920001
0.33769143 0.079680003 1.9920001
0.34148574 0.079680003 1.9920001
0.3432 0.0792 1.9800001
0.34697145 0.0792 1.9800001
0.35074288 0.0792 1.9800001
0.35254478 0.078760006 1.9690001
0.35828573 0.0792 1.9800001
0.36004573 0.078760006 1.9690001
0.3637962 0.078760006 1.9690001
0.36754668 0.078760006 1.9690001
0.37129715 0.078760006 1.9690001
0.37504762 0.078760006 1.9690001
0.3787981 0.078760006 1.9690001
0.38254857 0.078760006 1.9690001
0.38629907 0.078760006 1.9690001
0.39222857 0.0792 1.9800001
0.39840001 0.079680003 1.9920001
0.40441525 0.080120005 2.003
0.41067621 0.080600001 2.0150001
0.41945145 0.081560001 2.039
0.42333525 0.081560001 2.039
0.43224764 0.082520001 2.0630002
0.43617716 0.082520001 2.0630002
0.44288 0.083040006 2.0760002
0.44941717 0.083520003 2.0880001
0.45621717 0.084040001 2.1010001
0.4630667 0.084559999 2.1140001
0.46996573 0.085080005 2.1270001
0.47691432 0.085600004 2.1400001
0.48391241 0.086120002 2.1530001
0.49118668 0.086680003 2.1670001
0.4953143 0.086680003 2.1670001
0.50566477 0.087760001 2.194
0.51309717 0.088320002 2.2080002
0.51730287 0.088320002 2.2080002
0.52505147 0.088920005 2.223
0.52928573 0.088920005 2.223
0.53688002 0.089480005 2.237
0.5481562 0.090640001 2.266
0.54905909 0.09008 2.2520001
0.5533486 0.09008 2.2520001
-0.41916955 0.10023619 2.3920002
-0.41461334 0.10023619 2.3920002
-0.41005716 0.10023619 2.3920002
-0.40550098 0.10023619 2.3920002
-0.39826286 0.099565715 2.3760002
-0.39373717 0.099565715 2.3760002
-0.38921145 0.099565715 2.3760002
-0.38468572 0.099565715 2.3760002
-0.38016 0.099565715 2.3760002
-0.37563431 0.099565715 2.3760002
-0.37110859 0.099565715 2.3760002
-0.36658287 0.099565715 2.3760002
-0.36205715 0.099565715 2.3760002
-0.35753143 0.099565715 2.3760002
-0.35300574 0.099565715 2.3760002
-0.34848002 0.099565715 2.3760002
-0.34395429 0.099565715 2.3760002
-0.33942857 0.099565715 2.3760002
-0.33490288 0.099565715 2.3760002
-0.33037716 0.099565715 2.3760002
-0.32585144 0.099565715 2.3760002
-0.31902668 0.098853335 2.3590002
-0.31240001 0.098182857 2.3430002
-0.30793715 0.098182857 2.3430002
-0.30347431 0.098182857 2.3430002
-0.29696953 0.097512387 2.3270001
-0.29253715 0.097512387 2.3270001
-0.28810477 0.097512387 2.3270001
-0.28367239 0.097512387 2.3270001
-0.27924001 0.097512387 2.3270001
-0.27480763 0.097512387 2.3270001
-0.27037525 0.097512387 2.3270001
-0.26594287 0.097512387 2.3270001
-0.26151049 0.097512387 2.3270001
-0.25707811 0.097512387 2.3270001
-0.25264573 0.097512387 2.3270001
-0.24821334 0.097512387 2.3270001
-0.24378096 0.097512387 2.3270001
-0.23780572 0.096883811 2.312
-0.23340191 0.096883811 2.312
-0.22899811 0.096883811 2.312
-0.2245943 0.096883811 2.312
-0.22019048 0.096883811 2.312
-0.21578668 0.096883811 2.312
-0.21001144 0.096255243 2.2970002
-0.2056362 0.096255243 2.2970002
-0.20126095 0.096255243 2.2970002
-0.19551429 0.095584765 2.2810001
-0.19116953 0.095584765 2.2810001
-0.18682477 0.095584765 2.2810001
-0.18248001 0.095584765 2.2810001
-0.17813525 0.095584765 2.2810001
-0.17264763 0.094956197 2.266
-0.16833143 0.094956197 2.266
-0.16401525 0.094956197 2.266
-0.15969905 0.094956197 2.266
-0.15538286 0.094956197 2.266
-0.15106668 0.094956197 2.266
-0.14675048 0.094956197 2.266
-0.14243428 0.094956197 2.266
-0.1381181 0.094956197 2.266
-0.13380191 0.094956197 2.266
-0.12868571 0.094369531 2.2520001
-0.1243962 0.094369531 2.2520001
-0.12010667 0.094369531 2.2520001
-0.11581714 0.094369531 2.2520001
-0.11152762 0.094369531 2.2520001
-0.10652381 0.093740955 2.237
-0.10226286 0.093740955 2.237
-0.098001905 0.093740955 2.237
-0.093154289 0.093154289 2.223
-0.088920005 0.093154289 2.223
-0.084685721 0.093154289 2.223
-0.080451429 0.093154289 2.223
-0.075702861 0.092525721 2.2080002
-0.071497142 0.092525721 2.2080002
-0.067291431 0.092525721 2.2080002
-0.06308572 0.092525721 2.2080002
-0.058880001 0.092525721 2.2080002
-0.054327622 0.091939054 2.194
-0.050148573 0.091939054 2.194
-0.045969527 0.091939054 2.194
-0.041790478 0.091939054 2.194
-0.037611429 0.091939054 2.194
-0.033432383 0.091939054 2.194
-0.029440001 0.092525721 2.2080002
-0.025074286 0.091939054 2.194
-0.020895239 0.091939054 2.194
-0.016716192 0.091939054 2.194
-0.012537143 0.091939054 2.194
-0.0083580958 0.091939054 2.194
-0.0041790479 0.091939054 2.194
0 0.09139429 2.181
0.0041542859 0.09139429 2.181
0.0083085718 0.09139429 2.181
0.012382858 0.090807624 2.1670001
0.016510477 0.090807624 2.1670001
0.020638095 0.090807624 2.1670001
0.024765715 0.090807624 2.1670001
0.028893335 0.090807624 2.1670001
0.033020955 0.090807624 2.1670001
0.037148573 0.090807624 2.1670001
0.041009527 0.090220958 2.1530001
0.045110479 0.090220958 2.1530001
0.049211431 0.090220958 2.1530001
0.053312384 0.090220958 2.1530001
0.057066668 0.089676194 2.1400001
0.061142858 0.089676194 2.1400001
0.065219052 0.089676194 2.1400001
0.069295242 0.089676194 2.1400001
0.073371433 0.089676194 2.1400001
0.077447623 0.089676194 2.1400001
0.081523813 0.089676194 2.1400001
0.085600004 0.089676194 2.1400001
0.08913143 0.08913143 2.1270001
0.093182862 0.08913143 2.1270001
0.096640006 0.088586673 2.1140001
0.10066667 0.088586673 2.1140001
0.10469334 0.088586673 2.1140001
0.10805143 0.088041909 2.1010001
0.11205333 0.088041909 2.1010001
0.11605524 0.088041909 2.1010001
0.12005715 0.088041909 2.1010001
0.12405905 0.088041909 2.1010001
0.12806095 0.088041909 2.1010001
0.13206287 0.088041909 2.1010001
0.13606477 0.088041909 2.1010001
0.14006667 0.088041909 2.1010001
0.14406858 0.088041909 2.1010001
0.14807048 0.088041909 2.1010001
0.15113144 0.087497145 2.0880001
0.15510857 0.087497145 2.0880001
0.15908572 0.087497145 2.0880001
0.16306287 0.087497145 2.0880001
0.16608001 0.08699429 2.0760002
0.17101716 0.087497145 2.0880001
0.17398858 0.08699429 2.0760002
0.17794286 0.08699429 2.0760002
0.18189715 0.08699429 2.0760002
0.18585144 0.08699429 2.0760002
0.18980572 0.08699429 2.0760002
0.19254668 0.086449526 2.0630002
0.19647619 0.086449526 2.0630002
0.20040572 0.086449526 2.0630002
0.20433524 0.086449526 2.0630002
0.20705333 0.085946672 2.0510001
0.21096 0.085946672 2.0510001
0.21486667 0.085946672 2.0510001
0.21877334 0.085946672 2.0510001
0.22268 0.085946672 2.0510001
0.22658667 0.085946672 2.0510001
0.23049334 0.085946672 2.0510001
0.2344 0.085946672 2.0510001
0.23830667 0.085946672 2.0510001
0.24221334 0.085946672 2.0510001
0.24612001 0.085946672 2.0510001
0.25002667 0.085946672 2.0510001
0.25244763 0.08544381 2.039
0.25633144 0.08544381 2.039
0.26021525 0.08544381 2.039
0.26409906 0.08544381 2.039
0.26640573 0.084940955 2.0270002
0.27026668 0.084940955 2.0270002
0.27412763 0.084940955 2.0270002
0.27634287 0.0844381 2.0150001
0.28018096 0.0844381 2.0150001
0.28401905 0.0844381 2.0150001
0.28957143 0.084940955 2.0270002
0.29169524 0.0844381 2.0150001
0.29553336 0.0844381 2.0150001
0.29937145 0.0844381 2.0150001
0.30320954 0.0844381 2.0150001
0.30704764 0.0844381 2.0150001
0.31088573 0.0844381 2.0150001
0.31284952 0.083935238 2.003
0.31666479 0.083935238 2.003
0.32048002 0.083935238 2.003
0.32429525 0.083935238 2.003
0.32811049 0.083935238 2.003
0.33192572 0.083935238 2.003
0.33389714 0.083474286 1.9920001
0.33769143 0.083474286 1.9920001
0.34148574 0.083474286 1.9920001
0.34528002 0.083474286 1.9920001
0.34697145 0.082971431 1.9800001
0.35074288 0.082971431 1.9800001
0.35254478 0.082510479 1.9690001
0.35828573 0.082971431 1.9800001
0.36004573 0.082510479 1.9690001
0.3637962 0.082510479 1.9690001
0.36754668 0.082510479 1.9690001
0.37129715 0.082510479 1.9690001
0.37504762 0.082510479 1.9690001
0.3787981 0.082510479 1.9690001
0.38254857 0.082510479 1.9690001
0.38845715 0.082971431 1.9800001
0.39222857 0.082971431 1.9800001
0.39840001 0.083474286 1.9920001
0.40441525 0.083935238 2.003
0.41067621 0.0844381 2.0150001
0.41698286 0.084940955 2.0270002
0.42333525 0.08544381 2.039
0.42973334 0.085946672 2.0510001
0.43617716 0.086449526 2.0630002
0.44288 0.08699429 2.0760002
0.44941717 0.087497145 2.0880001
0.45904002 0.088586673 2.1140001
0.4630667 0.088586673 2.1140001
0.4728381 0.089676194 2.1400001
0.47691432 0.089676194 2.1400001
0.48391241 0.090220958 2.1530001
0.49118668 0.090807624 2.1670001
0.49851429 0.09139429 2.181
0.50566477 0.091939054 2.194
0.51309717 0.092525721 2.2080002
0.52081716 0.093154289 2.223
0.52505147 0.093154289 2.223
0.53261906 0.093740955 2.237
0.53688002 0.093740955 2.237
0.54114097 0.093740955 2.237
0.54905909 0.094369531 2.2520001
0.5533486 0.094369531 2.2520001
-0.41916955 0.10479239 2.3920002
-0.41461334 0.10479239 2.3920002
-0.41005716 0.10479239 2.3920002
-0.40278858 0.10409144 2.3760002
-0.39826286 0.10409144 2.3760002
-0.39373717 0.10409144 2.3760002
-0.38921145 0.10409144 2.3760002
-0.38468572 0.10409144 2.3760002
-0.38016 0.10409144 2.3760002
-0.37563431 0.10409144 2.3760002
-0.37110859 0.10409144 2.3760002
-0.36658287 0.10409144 2.3760002
-0.36205715 0.10409144 2.3760002
-0.35753143 0.10409144 2.3760002
-0.35300574 0.10409144 2.3760002
-0.34848002 0.10409144 2.3760002
-0.34395429 0.10409144 2.3760002
-0.33942857 0.10409144 2.3760002
-0.33490288 0.10409144 2.3760002
-0.33037716 0.10409144 2.3760002
-0.32585144 0.10409144 2.3760002
-0.31902668 0.10334667 2.3590002
-0.31453335 0.10334667 2.3590002
-0.30793715 0.10264572 2.3430002
-0.30347431 0.10264572 2.3430002
-0.29696953 0.10194477 2.3270001
-0.29253715 0.10194477 2.3270001
-0.28810477 0.10194477 2.3270001
-0.28367239 0.10194477 2.3270001
-0.27924001 0.10194477 2.3270001
-0.27480763 0.10194477 2.3270001
-0.27037525 0.10194477 2.3270001
-0.26594287 0.10194477 2.3270001
-0.26151049 0.10194477 2.3270001
-0.25707811 0.10194477 2.3270001
-0.25264573 0.10194477 2.3270001
-0.24821334 0.10194477 2.3270001
-0.24378096 0.10194477 2.3270001
-0.23780572 0.10128763 2.312
-0.23340191 0.10128763 2.312
-0.22899811 0.10128763 2.312
-0.2245943 0.10128763 2.312
-0.22019048 0.10128763 2.312
-0.21578668 0.10128763 2.312
-0.21001144 0.10063048 2.2970002
-0.2056362 0.10063048 2.2970002
-0.20126095 0.10063048 2.2970002
-0.19688572 0.10063048 2.2970002
-0.19116953 0.099929526 2.2810001
-0.18682477 0.099929526 2.2810001
-0.18248001 0.099929526 2.2810001
-0.17813525 0.099929526 2.2810001
-0.17379048 0.099929526 2.2810001
-0.16944572 0.099929526 2.2810001
-0.16510096 0.099929526 2.2810001
-0.1607562 0.099929526 2.2810001
-0.15538286 0.099272385 2.266
-0.15106668 0.099272385 2.266
-0.14675048 0.099272385 2.266
-0.14243428 0.099272385 2.266
-0.1381181 0.099272385 2.266
-0.13380191 0.099272385 2.266
-0.12868571 0.098659053 2.2520001
-0.1243962 0.098659053 2.2520001
-0.12010667 0.098659053 2.2520001
-0.11581714 0.098659053 2.2520001
-0.11152762 0.098659053 2.2520001
-0.10652381 0.098001905 2.237
-0.10226286 0.098001905 2.237
-0.098001905 0.098001905 2.237
-0.093154289 0.097388573 2.223
-0.088920005 0.097388573 2.223
-0.084685721 0.097388573 2.223
-0.080451429 0.097388573 2.223
-0.075702861 0.096731432 2.2080002
-0.071497142 0.096731432 2.2080002
-0.067291431 0.096731432 2.2080002
-0.06308572 0.096731432 2.2080002
-0.058880001 0.096731432 2.2080002
-0.054327622 0.0961181 2.194
-0.050148573 0.0961181 2.194
-0.045969527 0.0961181 2.194
-0.041790478 0.0961181 2.194
-0.037611429 0.0961181 2.194
-0.033645716 0.096731432 2.2080002
-0.029440001 0.096731432 2.2080002
-0.025074286 0.0961181 2.194
-0.020895239 0.0961181 2.194
-0.016716192 0.0961181 2.194
-0.012537143 0.0961181 2.194
-0.0083580958 0.0961181 2.194
-0.0041790479 0.0961181 2.194
0 0.0961181 2.194
0.0041542859 0.095548578 2.181
0.0083085718 0.095548578 2.181
0.012462857 0.095548578 2.181
0.016510477 0.094935238 2.1670001
0.020638095 0.094935238 2.1670001
0.024765715 0.094935238 2.1670001
0.028893335 0.094935238 2.1670001
0.033020955 0.094935238 2.1670001
0.037148573 0.094935238 2.1670001
0.041009527 0.094321907 2.1530001
0.045110479 0.094321907 2.1530001
0.049211431 0.094321907 2.1530001
0.053312384 0.094321907 2.1530001
0.057413336 0.094321907 2.1530001
0.061514288 0.094321907 2.1530001
0.065219052 0.093752384 2.1400001
0.069295242 0.093752384 2.1400001
0.073371433 0.093752384 2.1400001
0.077447623 0.093752384 2.1400001
0.081523813 0.093752384 2.1400001
0.085600004 0.093752384 2.1400001
0.08913143 0.093182862 2.1270001
0.093182862 0.093182862 2.1270001
0.096640006 0.092613339 2.1140001
0.10066667 0.092613339 2.1140001
0.10469334 0.092613339 2.1140001
0.10872 0.092613339 2.1140001
0.11274667 0.092613339 2.1140001
0.11677334 0.092613339 2.1140001
0.12005715 0.09204381 2.1010001
0.12405905 0.09204381 2.1010001
0.12806095 0.09204381 2.1010001
0.13206287 0.09204381 2.1010001
0.13606477 0.09204381 2.1010001
0.14006667 0.09204381 2.1010001
0.14406858 0.09204381 2.1010001
0.14807048 0.09204381 2.1010001
0.15113144 0.091474287 2.0880001
0.15510857 0.091474287 2.0880001
0.15908572 0.091474287 2.0880001
0.16306287 0.091474287 2.0880001
0.16608001 0.090948574 2.0760002
0.17003429 0.090948574 2.0760002
0.17398858 0.090948574 2.0760002
0.17794286 0.090948574 2.0760002
0.18189715 0.090948574 2.0760002
0.18585144 0.090948574 2.0760002
0.18980572 0.090948574 2.0760002
0.19376001 0.090948574 2.0760002
0.19647619 0.090379052 2.0630002
0.20040572 0.090379052 2.0630002
0.20433524 0.090379052 2.0630002
0.20705333 0.089853339 2.0510001
0.21096 0.089853339 2.0510001
0.21486667 0.089853339 2.0510001
0.21877334 0.089853339 2.0510001
0.22268 0.089853339 2.0510001
0.22658667 0.089853339 2.0510001
0.23049334 0.089853339 2.0510001
0.2344 0.089853339 2.0510001
0.23830667 0.089853339 2.0510001
0.24221334 0.089853339 2.0510001
0.24612001 0.089853339 2.0510001
0.25002667 0.089853339 2.0510001
0.25393334 0.089853339 2.0510001
0.25784001 0.089853339 2.0510001
0.26021525 0.089327626 2.039
0.26409906 0.089327626 2.039
0.26798287 0.089327626 2.039
0.27026668 0.088801906 2.0270002
0.27412763 0.088801906 2.0270002
0.27798858 0.088801906 2.0270002
0.28184953 0.088801906 2.0270002
0.28401905 0.088276193 2.0150001
0.28957143 0.088801906 2.0270002
0.29169524 0.088276193 2.0150001
0.29553336 0.088276193 2.0150001
0.29937145 0.088276193 2.0150001
0.30320954 0.088276193 2.0150001
0.30704764 0.088276193 2.0150001
0.31088573 0.088276193 2.0150001
0.31472382 0.088276193 2.0150001
0.31666479 0.08775048 2.003
0.32048002 0.08775048 2.003
0.32429525 0.08775048 2.003
0.32811049 0.08775048 2.003
0.33192572 0.08775048 2.003
0.33389714 0.087268576 1.9920001
0.33769143 0.087268576 1.9920001
0.34148574 0.087268576 1.9920001
0.34528002 0.087268576 1.9920001
0.34697145 0.086742863 1.9800001
0.35074288 0.086742863 1.9800001
0.35254478 0.086260952 1.9690001
0.35629526 0.086260952 1.9690001
0.36004573 0.086260952 1.9690001
0.3637962 0.086260952 1.9690001
0.36754668 0.086260952 1.9690001
0.37129715 0.086260952 1.9690001
0.37504762 0.086260952 1.9690001
0.3787981 0.086260952 1.9690001
0.38254857 0.086260952 1.9690001
0.38845715 0.086742863 1.9800001
0.39460573 0.087268576 1.9920001
0.39840001 0.087268576 1.9920001
0.40441525 0.08775048 2.003
0.41067621 0.088276193 2.0150001
0.41945145 0.089327626 2.039
0.42333525 0.089327626 2.039
0.42973334 0.089853339 2.0510001
0.43892574 0.090948574 2.0760002
0.44288 0.090948574 2.0760002
0.45221525 0.09204381 2.1010001
0.45621717 0.09204381 2.1010001
0.46591431 0.093182862 2.1270001
0.4728381 0.093752384 2.1400001
0.47691432 0.093752384 2.1400001
0.48391241 0.094321907 2.1530001
0.49118668 0.094935238 2.1670001
0.49851429 0.095548578 2.181
0.50566477 0.0961181 2.194
0.51309717 0.096731432 2.2080002
0.51730287 0.096731432 2.2080002
0.5283581 0.098001905 2.237
0.53261906 0.098001905 2.237
0.54048002 0.098659053 2.2520001
0.5481562 0.099272385 2.266
0.55247241 0.099272385 2.266
0.55678856 0.099272385 2.266
0.56110477 0.099272385 2.266
-0.42214859 0.11012572 2.4090002
-0.41461334 0.10934857 2.3920002
-0.41005716 0.10934857 2.3920002
-0.40550098 0.10934857 2.3920002
-0.39826286 0.10861715 2.3760002
-0.39373717 0.10861715 2.3760002
-0.38921145 0.10861715 2.3760002
-0.38468572 0.10861715 2.3760002
-0.38016 0.10861715 2.3760002
-0.37563431 0.10861715 2.3760002
-0.37110859 0.10861715 2.3760002
-0.36658287 0.10861715 2.3760002
-0.36205715 0.10861715 2.3760002
-0.35753143 0.10861715 2.3760002
-0.35300574 0.10861715 2.3760002
-0.34848002 0.10861715 2.3760002
-0.34395429 0.10861715 2.3760002
-0.33942857 0.10861715 2.3760002
-0.33490288 0.10861715 2.3760002
-0.33037716 0.10861715 2.3760002
-0.32585144 0.10861715 2.3760002
-0.31902668 0.10784 2.3590002
-0.31240001 0.10710858 2.3430002
-0.30793715 0.10710858 2.3430002
-0.30347431 0.10710858 2.3430002
-0.29696953 0.10637715 2.3270001
-0.29253715 0.10637715 2.3270001
-0.28810477 0.10637715 2.3270001
-0.28367239 0.10637715 2.3270001
-0.27924001 0.10637715 2.3270001
-0.27480763 0.10637715 2.3270001
-0.27037525 0.10637715 2.3270001
-0.26594287 0.10637715 2.3270001
-0.26151049 0.10637715 2.3270001
-0.25707811 0.10637715 2.3270001
-0.25264573 0.10637715 2.3270001
-0.24821334 0.10637715 2.3270001
-0.24378096 0.10637715 2.3270001
-0.23934858 0.10637715 2.3270001
-0.23340191 0.10569143 2.312
-0.22899811 0.10569143 2.312
-0.2245943 0.10569143 2.312
-0.22019048 0.10569143 2.312
-0.21578668 0.10569143 2.312
-0.21001144 0.10500572 2.2970002
-0.2056362 0.10500572 2.2970002
-0.20126095 0.10500572 2.2970002
-0.19688572 0.10500572 2.2970002
-0.19116953 0.10427429 2.2810001
-0.18682477 0.10427429 2.2810001
-0.18248001 0.10427429 2.2810001
-0.17813525 0.10427429 2.2810001
-0.17379048 0.10427429 2.2810001
-0.16944572 0.10427429 2.2810001
-0.16510096 0.10427429 2.2810001
-0.15969905 0.10358857 2.266
-0.15538286 0.10358857 2.266
-0.15106668 0.10358857 2.266
-0.14675048 0.10358857 2.266
-0.14243428 0.10358857 2.266
-0.1381181 0.10358857 2.266
-0.13297524 0.10294858 2.2520001
-0.12868571 0.10294858 2.2520001
-0.1243962 0.10294858 2.2520001
-0.12010667 0.10294858 2.2520001
-0.11581714 0.10294858 2.2520001
-0.11152762 0.10294858 2.2520001
-0.10652381 0.10226286 2.237
-0.10226286 0.10226286 2.237
-0.098001905 0.10226286 2.237
-0.093740955 0.10226286 2.237
-0.089480005 0.10226286 2.237
-0.084685721 0.10162286 2.223
-0.080451429 0.10162286 2.223
-0.076217145 0.10162286 2.223
-0.071497142 0.10093714 2.2080002
-0.067291431 0.10093714 2.2080002
-0.06308572 0.10093714 2.2080002
-0.058880001 0.10093714 2.2080002
-0.054674286 0.10093714 2.2080002
-0.050148573 0.10029715 2.194
-0.045969527 0.10029715 2.194
-0.041790478 0.10029715 2.194
-0.037611429 0.10029715 2.194
-0.033645716 0.10093714 2.2080002
-0.029253334 0.10029715 2.194
-0.025074286 0.10029715 2.194
-0.020895239 0.10029715 2.194
-0.016716192 0.10029715 2.194
-0.012537143 0.10029715 2.194
-0.0083580958 0.10029715 2.194
-0.0041790479 0.10029715 2.194
0 0.10029715 2.194
0.0041542859 0.099702857 2.181
0.0083085718 0.099702857 2.181
0.012462857 0.099702857 2.181
0.016510477 0.09906286 2.1670001
0.020638095 0.09906286 2.1670001
0.024765715 0.09906286 2.1670001
0.028893335 0.09906286 2.1670001
0.033020955 0.09906286 2.1670001
0.037148573 0.09906286 2.1670001
0.041009527 0.098422863 2.1530001
0.045110479 0.098422863 2.1530001
