# .PCD v0.7 - Point Cloud Data file format
VERSION 0.7
FIELDS x y z
SIZE 4 4 4
TYPE F F F
COUNT 1 1 1
WIDTH 1515
HEIGHT 1
VIEWPOINT 0 0 0 1 0 0 0
POINTS 1515
DATA ascii
0.14285524 0.34748572 2.0270002
0.14758477 0.34954286 2.039
0.15236001 0.35160002 2.0510001
0.15718096 0.35365716 2.0630002
0.16111048 0.35365716 2.0630002
0.16608001 0.35588571 2.0760002
0.17003429 0.35588571 2.0760002
0.17499429 0.35794288 2.0880001
0.18008572 0.36017144 2.1010001
0.18522668 0.36240003 2.1140001
0.19041716 0.36462858 2.1270001
0.19565715 0.36685717 2.1400001
0.20094667 0.36908573 2.1530001
0.20638096 0.37148574 2.1670001
0.21186858 0.37388572 2.181
0.21602286 0.37388572 2.181
0.22148953 0.37611431 2.194
0.22865143 0.38108572 2.223
0.23435239 0.38348573 2.237
0.24021335 0.38605717 2.2520001
0.24450287 0.38605717 2.2520001
0.25033906 0.38845715 2.266
0.25634095 0.39102858 2.2810001
0.26251429 0.39377144 2.2970002
0.26688954 0.39377144 2.2970002
0.27303621 0.39634287 2.312
0.27924001 0.39891431 2.3270001
0.28562286 0.40165716 2.3430002
0.29008573 0.40165716 2.3430002
0.29656002 0.40440002 2.3590002
0.30105335 0.40440002 2.3590002
0.30774859 0.4073143 2.3760002
0.31437716 0.41005716 2.3920002
0.32346669 0.41588572 2.4260001
0.33268574 0.42171431 2.46
0.34230858 0.42788574 2.4960001
0.35206857 0.43405715 2.5320001
0.35956955 0.4373143 2.5510001
0.36714286 0.44057146 2.5700002
0.3720381 0.44057146 2.5700002
0.37972 0.44382858 2.5890002
0.38465145 0.44382858 2.5890002
0.3925924 0.44725716 2.6090002
0.39756191 0.44725716 2.6090002
0.40253145 0.44725716 2.6090002
0.40750095 0.44725716 2.6090002
0.41247049 0.44725716 2.6090002
0.41744003 0.44725716 2.6090002
-0.28717333 0.33938667 1.9580001
-0.28344381 0.33938667 1.9580001
-0.27971429 0.33938667 1.9580001
-0.2744343 0.33748001 1.9470001
-0.27072573 0.33748001 1.9470001
-0.26701716 0.33748001 1.9470001
-0.26330858 0.33748001 1.9470001
-0.25960001 0.33748001 1.9470001
-0.25589144 0.33748001 1.9470001
-0.25218287 0.33748001 1.9470001
-0.2484743 0.33748001 1.9470001
-0.24476573 0.33748001 1.9470001
-0.24105716 0.33748001 1.9470001
-0.23600763 0.33557335 1.9360001
-0.23232001 0.33557335 1.9360001
-0.22863239 0.33557335 1.9360001
-0.22494477 0.33557335 1.9360001
-0.22125715 0.33557335 1.9360001
-0.21756953 0.33557335 1.9360001
-0.21266668 0.33366668 1.9250001
-0.20900001 0.33366668 1.9250001
-0.20533334 0.33366668 1.9250001
-0.20061906 0.33193335 1.9150001
-0.19697143 0.33193335 1.9150001
-0.19332382 0.33193335 1.9150001
-0.1896762 0.33193335 1.9150001
-0.18602858 0.33193335 1.9150001
-0.18238096 0.33193335 1.9150001
-0.17873333 0.33193335 1.9150001
-0.17508572 0.33193335 1.9150001
-0.1714381 0.33193335 1.9150001
-0.16779049 0.33193335 1.9150001
-0.16414286 0.33193335 1.9150001
-0.15957335 0.33002669 1.904
-0.15594667 0.33002669 1.904
-0.15232001 0.33002669 1.904
-0.14869334 0.33002669 1.904
-0.14506668 0.33002669 1.904
-0.14144 0.33002669 1.904
-0.13708954 0.32829335 1.8940001
-0.1334819 0.32829335 1.8940001
-0.12987429 0.32829335 1.8940001
-0.12626667 0.32829335 1.8940001
-0.12265905 0.32829335 1.8940001
-0.11905143 0.32829335 1.8940001
-0.11477334 0.32638669 1.8830001
-0.11118667 0.32638669 1.8830001
-0.1076 0.32638669 1.8830001
-0.10401334 0.32638669 1.8830001
-0.10042667 0.32638669 1.8830001
-0.096840002 0.32638669 1.8830001
-0.092758097 0.32465336 1.8730001
-0.089190483 0.32465336 1.8730001
-0.085622862 0.32465336 1.8730001
-0.082055241 0.32465336 1.8730001
-0.07848762 0.32465336 1.8730001
-0.074920006 0.32465336 1.8730001
-0.071352385 0.32465336 1.8730001
-0.067784764 0.32465336 1.8730001
-0.063874289 0.32292002 1.863
-0.060325716 0.32292002 1.863
-0.056777146 0.32292002 1.863
-0.053228572 0.32292002 1.863
-0.049680002 0.32292002 1.863
-0.046131432 0.32292002 1.863
-0.042582858 0.32292002 1.863
-0.039034288 0.32292002 1.863
-0.035295241 0.32118669 1.853
-0.032108571 0.32465336 1.8730001
-0.028388573 0.32292002 1.863
-0.024840001 0.32292002 1.863
-0.021177143 0.32118669 1.853
-0.01764762 0.32118669 1.853
-0.014041905 0.31945336 1.8430001
-0.010531429 0.31945336 1.8430001
-0.0070209526 0.31945336 1.8430001
-0.0035104763 0.31945336 1.8430001
0 0.31945336 1.8430001
0.0034914287 0.31772003 1.8330001
0.0069828574 0.31772003 1.8330001
0.010474286 0.31772003 1.8330001
0.013965715 0.31772003 1.8330001
0.017457144 0.31772003 1.8330001
0.020845715 0.31616002 1.8240001
0.024320001 0.31616002 1.8240001
0.027794287 0.31616002 1.8240001
0.031097144 0.31442669 1.8140001
0.03455238 0.31442669 1.8140001
0.038007621 0.31442669 1.8140001
0.041462857 0.31442669 1.8140001
0.045165718 0.31616002 1.8240001
0.048640002 0.31616002 1.8240001
0.051828574 0.31442669 1.8140001
0.055588573 0.31616002 1.8240001
0.059354287 0.31772003 1.8330001
0.062845714 0.31772003 1.8330001
0.06669905 0.31945336 1.8430001
0.070590481 0.32118669 1.853
0.074519999 0.32292002 1.863
0.07848762 0.32465336 1.8730001
0.082493335 0.32638669 1.8830001
0.086582862 0.32829335 1.8940001
0.090666667 0.33002669 1.904
0.094838098 0.33193335 1.9150001
0.099565715 0.33557335 1.9360001
0.10384 0.33748001 1.9470001
0.1081562 0.33938667 1.9580001
0.11188572 0.33938667 1.9580001
0.11691429 0.3432 1.9800001
0.12068572 0.3432 1.9800001
0.12521143 0.34528002 1.9920001
0.1297181 0.34718668 2.003
0.13433334 0.34926668 2.0150001
0.13817143 0.34926668 2.0150001
0.14285524 0.35134667 2.0270002
0.14758477 0.35342667 2.039
0.15236001 0.35550669 2.0510001
0.15718096 0.35758668 2.0630002
0.16111048 0.35758668 2.0630002
0.16608001 0.35984001 2.0760002
0.17101716 0.36192 2.0880001
0.17608382 0.36417335 2.1010001
0.18008572 0.36417335 2.1010001
0.18522668 0.36642668 2.1140001
0.19041716 0.36868 2.1270001
0.19565715 0.37093335 2.1400001
0.20094667 0.37318668 2.1530001
0.20638096 0.37561336 2.1670001
0.21050858 0.37561336 2.1670001
0.21602286 0.37804002 2.181
0.22017714 0.37804002 2.181
0.22865143 0.38532001 2.223
0.23435239 0.38774669 2.237
0.24021335 0.39034668 2.2520001
0.24602287 0.39277336 2.266
0.25199619 0.39537334 2.2810001
0.25634095 0.39537334 2.2810001
0.26251429 0.39814669 2.2970002
0.26863238 0.40074667 2.312
0.27303621 0.40074667 2.312
0.27924001 0.40334669 2.3270001
0.28562286 0.40612 2.3430002
0.29008573 0.40612 2.3430002
0.29656002 0.40889335 2.3590002
0.30322286 0.41184002 2.3760002
0.30982095 0.41461334 2.3920002
0.31661144 0.41756001 2.4090002
0.32346669 0.42050669 2.4260001
0.33268574 0.42640001 2.46
0.33984002 0.42952001 2.4780002
0.34956571 0.43576002 2.5140002
0.35689145 0.43888003 2.5320001
0.36442858 0.44217336 2.5510001
0.36928764 0.44217336 2.5510001
0.37972 0.44876 2.5890002
0.38465145 0.44876 2.5890002
0.3925924 0.45222667 2.6090002
0.39451429 0.44876 2.5890002
0.39944574 0.44876 2.5890002
0.40750095 0.45222667 2.6090002
0.41247049 0.45222667 2.6090002
-0.28878668 0.34504381 1.9690001
-0.28503621 0.34504381 1.9690001
-0.27971429 0.34311619 1.9580001
-0.2744343 0.34118858 1.9470001
-0.27072573 0.34118858 1.9470001
-0.26701716 0.34118858 1.9470001
-0.26330858 0.34118858 1.9470001
-0.25960001 0.34118858 1.9470001
-0.25589144 0.34118858 1.9470001
-0.25218287 0.34118858 1.9470001
-0.24707049 0.33926097 1.9360001
-0.24476573 0.34118858 1.9470001
-0.24105716 0.34118858 1.9470001
-0.23600763 0.33926097 1.9360001
-0.23232001 0.33926097 1.9360001
-0.22863239 0.33926097 1.9360001
-0.22494477 0.33926097 1.9360001
-0.22000001 0.33733335 1.9250001
-0.21633334 0.33733335 1.9250001
-0.21266668 0.33733335 1.9250001
-0.20900001 0.33733335 1.9250001
-0.20426667 0.33558097 1.9150001
-0.20061906 0.33558097 1.9150001
-0.19697143 0.33558097 1.9150001
-0.19332382 0.33558097 1.9150001
-0.1896762 0.33558097 1.9150001
-0.18602858 0.33558097 1.9150001
-0.18238096 0.33558097 1.9150001
-0.17873333 0.33558097 1.9150001
-0.17508572 0.33558097 1.9150001
-0.17045334 0.33365333 1.904
-0.16779049 0.33558097 1.9150001
-0.16320001 0.33365333 1.904
-0.15957335 0.33365333 1.904
-0.15594667 0.33365333 1.904
-0.15232001 0.33365333 1.904
-0.14791238 0.33190095 1.8940001
-0.14430477 0.33190095 1.8940001
-0.14144 0.33365333 1.904
-0.13708954 0.33190095 1.8940001
-0.1334819 0.33190095 1.8940001
-0.12987429 0.33190095 1.8940001
-0.12626667 0.33190095 1.8940001
-0.12265905 0.33190095 1.8940001
-0.11905143 0.33190095 1.8940001
-0.11544381 0.33190095 1.8940001
-0.11183619 0.33190095 1.8940001
-0.10822857 0.33190095 1.8940001
-0.10401334 0.32997334 1.8830001
-0.10042667 0.32997334 1.8830001
-0.096325718 0.32822096 1.8730001
-0.092758097 0.32822096 1.8730001
-0.089190483 0.32822096 1.8730001
-0.085622862 0.32822096 1.8730001
-0.082055241 0.32822096 1.8730001
-0.07848762 0.32822096 1.8730001
-0.074519999 0.32646859 1.863
-0.070971429 0.32646859 1.863
-0.067422859 0.32646859 1.863
-0.063874289 0.32646859 1.863
-0.060325716 0.32646859 1.863
-0.056777146 0.32646859 1.863
-0.053228572 0.32646859 1.863
-0.049680002 0.32646859 1.863
-0.046131432 0.32646859 1.863
-0.042582858 0.32646859 1.863
-0.039034288 0.32646859 1.863
-0.035295241 0.32471621 1.853
-0.031937145 0.32646859 1.863
-0.028236192 0.32471621 1.853
-0.024706667 0.32471621 1.853
-0.021177143 0.32471621 1.853
-0.01764762 0.32471621 1.853
-0.014041905 0.32296383 1.8430001
-0.010531429 0.32296383 1.8430001
-0.0070209526 0.32296383 1.8430001
-0.0035104763 0.32296383 1.8430001
0 0.32296383 1.8430001
0.0034914287 0.32121143 1.8330001
0.0069828574 0.32121143 1.8330001
0.010474286 0.32121143 1.8330001
0.013965715 0.32121143 1.8330001
0.017371429 0.31963429 1.8240001
0.020845715 0.31963429 1.8240001
0.024186667 0.31788191 1.8140001
0.027794287 0.31963429 1.8240001
0.031097144 0.31788191 1.8140001
0.03455238 0.31788191 1.8140001
0.038007621 0.31788191 1.8140001
0.04169143 0.31963429 1.8240001
0.045165718 0.31963429 1.8240001
0.048640002 0.31963429 1.8240001
0.051828574 0.31788191 1.8140001
0.055588573 0.31963429 1.8240001
0.059354287 0.32121143 1.8330001
0.062845714 0.32121143 1.8330001
0.06669905 0.32296383 1.8430001
0.070209526 0.32296383 1.8430001
0.07412 0.32471621 1.853
0.07848762 0.32822096 1.8730001
0.082493335 0.32997334 1.8830001
0.086582862 0.33190095 1.8940001
0.090666667 0.33365333 1.904
0.094838098 0.33558097 1.9150001
0.099565715 0.33926097 1.9360001
0.10384 0.34118858 1.9470001
0.10754857 0.34118858 1.9470001
0.11188572 0.34311619 1.9580001
0.11691429 0.34697145 1.9800001
0.12068572 0.34697145 1.9800001
0.12521143 0.3490743 1.9920001
0.1297181 0.35100192 2.003
0.13433334 0.35310477 2.0150001
0.13817143 0.35310477 2.0150001
0.14285524 0.35520762 2.0270002
0.14758477 0.3573105 2.039
0.15236001 0.35941336 2.0510001
0.15718096 0.36151621 2.0630002
0.16111048 0.36151621 2.0630002
0.16608001 0.3637943 2.0760002
0.17101716 0.36589715 2.0880001
0.17608382 0.36817524 2.1010001
0.18008572 0.36817524 2.1010001
0.18636572 0.37273145 2.1270001
0.19041716 0.37273145 2.1270001
0.19565715 0.37500954 2.1400001
0.20094667 0.37728763 2.1530001
0.20638096 0.37974095 2.1670001
0.21050858 0.37974095 2.1670001
0.21602286 0.38219431 2.181
0.22017714 0.38219431 2.181
0.22865143 0.38955429 2.223
0.23592381 0.39463621 2.2520001
0.24021335 0.39463621 2.2520001
0.24602287 0.39708954 2.266
0.25199619 0.39971811 2.2810001
0.25634095 0.39971811 2.2810001
0.26251429 0.40252191 2.2970002
0.26688954 0.40252191 2.2970002
0.27303621 0.4051505 2.312
0.27924001 0.40777907 2.3270001
0.28367239 0.40777907 2.3270001
0.29008573 0.41058287 2.3430002
0.29656002 0.41338667 2.3590002
0.30322286 0.41636574 2.3760002
0.30982095 0.41916955 2.3920002
0.31661144 0.42214859 2.4090002
0.32346669 0.42512763 2.4260001
0.33268574 0.43108574 2.46
0.33984002 0.43424001 2.4780002
0.34956571 0.4405486 2.5140002
0.35689145 0.44370288 2.5320001
0.36442858 0.44703239 2.5510001
0.3720381 0.45036191 2.5700002
0.37693334 0.45036191 2.5700002
0.38465145 0.45369145 2.5890002
0.3925924 0.45719621 2.6090002
0.39756191 0.45719621 2.6090002
0.39944574 0.45369145 2.5890002
0.40437716 0.45369145 2.5890002
-0.28878668 0.34879431 1.9690001
-0.28503621 0.34879431 1.9690001
-0.27971429 0.34684572 1.9580001
-0.2744343 0.34489715 1.9470001
-0.27072573 0.34489715 1.9470001
-0.26701716 0.34489715 1.9470001
-0.26330858 0.34489715 1.9470001
-0.25960001 0.34489715 1.9470001
-0.25589144 0.34489715 1.9470001
-0.25218287 0.34489715 1.9470001
-0.24707049 0.34294859 1.9360001
-0.24338287 0.34294859 1.9360001
-0.23969525 0.34294859 1.9360001
-0.23600763 0.34294859 1.9360001
-0.23232001 0.34294859 1.9360001
-0.22733334 0.34100002 1.9250001
-0.22366667 0.34100002 1.9250001
-0.22000001 0.34100002 1.9250001
-0.21633334 0.34100002 1.9250001
-0.21266668 0.34100002 1.9250001
-0.20900001 0.34100002 1.9250001
-0.20426667 0.33922857 1.9150001
-0.20061906 0.33922857 1.9150001
-0.19697143 0.33922857 1.9150001
-0.19332382 0.33922857 1.9150001
-0.1896762 0.33922857 1.9150001
-0.18602858 0.33922857 1.9150001
-0.18133333 0.33728001 1.904
-0.17770667 0.33728001 1.904
-0.17408 0.33728001 1.904
-0.17045334 0.33728001 1.904
-0.16682667 0.33728001 1.904
-0.16320001 0.33728001 1.904
-0.15957335 0.33728001 1.904
-0.15594667 0.33728001 1.904
-0.15232001 0.33728001 1.904
-0.14869334 0.33728001 1.904
-0.14506668 0.33728001 1.904
-0.14144 0.33728001 1.904
-0.13781334 0.33728001 1.904
-0.1334819 0.33550858 1.8940001
-0.12987429 0.33550858 1.8940001
-0.12626667 0.33550858 1.8940001
-0.12265905 0.33550858 1.8940001
-0.11905143 0.33550858 1.8940001
-0.11544381 0.33550858 1.8940001
-0.11118667 0.33356002 1.8830001
-0.1076 0.33356002 1.8830001
-0.10401334 0.33356002 1.8830001
-0.10042667 0.33356002 1.8830001
-0.096840002 0.33356002 1.8830001
-0.092758097 0.33178857 1.8730001
-0.089190483 0.33178857 1.8730001
-0.085622862 0.33178857 1.8730001
-0.082055241 0.33178857 1.8730001
-0.07848762 0.33178857 1.8730001
-0.074519999 0.33001715 1.863
-0.070971429 0.33001715 1.863
-0.067422859 0.33001715 1.863
-0.063874289 0.33001715 1.863
-0.060325716 0.33001715 1.863
-0.056777146 0.33001715 1.863
-0.053228572 0.33001715 1.863
-0.049680002 0.33001715 1.863
-0.046131432 0.33001715 1.863
-0.042582858 0.33001715 1.863
-0.039034288 0.33001715 1.863
-0.035295241 0.32824573 1.853
-0.031937145 0.33001715 1.863
-0.028236192 0.32824573 1.853
-0.024706667 0.32824573 1.853
-0.021177143 0.32824573 1.853
-0.017552381 0.32647431 1.8430001
-0.014041905 0.32647431 1.8430001
-0.010531429 0.32647431 1.8430001
-0.0070209526 0.32647431 1.8430001
-0.0035104763 0.32647431 1.8430001
0 0.32647431 1.8430001
0.0034914287 0.32470286 1.8330001
0.0069828574 0.32470286 1.8330001
0.010474286 0.32470286 1.8330001
0.013965715 0.32470286 1.8330001
0.017371429 0.32310858 1.8240001
0.020845715 0.32310858 1.8240001
0.024320001 0.32310858 1.8240001
0.027794287 0.32310858 1.8240001
0.031268574 0.32310858 1.8240001
0.03455238 0.32133716 1.8140001
0.038007621 0.32133716 1.8140001
0.04169143 0.32310858 1.8240001
0.045165718 0.32310858 1.8240001
0.048640002 0.32310858 1.8240001
0.052114289 0.32310858 1.8240001
0.055588573 0.32310858 1.8240001
0.059354287 0.32470286 1.8330001
0.062845714 0.32470286 1.8330001
0.06669905 0.32647431 1.8430001
0.070590481 0.32824573 1.853
0.074519999 0.33001715 1.863
0.07848762 0.33178857 1.8730001
0.082493335 0.33356002 1.8830001
0.086582862 0.33550858 1.8940001
0.090666667 0.33728001 1.904
0.094838098 0.33922857 1.9150001
0.099000007 0.34100002 1.9250001
0.10325333 0.34294859 1.9360001
0.10754857 0.34489715 1.9470001
0.11188572 0.34684572 1.9580001
0.11691429 0.35074288 1.9800001
0.12068572 0.35074288 1.9800001
0.12521143 0.35286859 1.9920001
0.1297181 0.35481715 2.003
0.13433334 0.35694286 2.0150001
0.13817143 0.35694286 2.0150001
0.14285524 0.35906857 2.0270002
0.14758477 0.36119431 2.039
0.15236001 0.36332002 2.0510001
0.15718096 0.36544573 2.0630002
0.16111048 0.36544573 2.0630002
0.16608001 0.36774859 2.0760002
0.17101716 0.3698743 2.0880001
0.17608382 0.37217715 2.1010001
0.18008572 0.37217715 2.1010001
0.18522668 0.37448001 2.1140001
0.19041716 0.37678286 2.1270001
0.19565715 0.37908572 2.1400001
0.20094667 0.38138857 2.1530001
0.20638096 0.38386858 2.1670001
0.21186858 0.38634858 2.181
0.21602286 0.38634858 2.181
0.22148953 0.38865143 2.194
0.22865143 0.39378858 2.223
0.23435239 0.39626858 2.237
0.24021335 0.39892572 2.2520001
0.24450287 0.39892572 2.2520001
0.25033906 0.40140572 2.266
0.25634095 0.40406287 2.2810001
0.26251429 0.40689716 2.2970002
0.26863238 0.4095543 2.312
0.27303621 0.4095543 2.312
0.27924001 0.41221145 2.3270001
0.28562286 0.41504574 2.3430002
0.29008573 0.41504574 2.3430002
0.29656002 0.41788003 2.3590002
0.30526477 0.42372572 2.3920002
0.30982095 0.42372572 2.3920002
0.31661144 0.42673716 2.4090002
0.32346669 0.42974859 2.4260001
0.33268574 0.43577144 2.46
0.33737144 0.43577144 2.46
0.34456003 0.43896002 2.4780002
0.35956955 0.45189145 2.5510001
0.36442858 0.45189145 2.5510001
0.3720381 0.45525715 2.5700002
0.37972 0.45862287 2.5890002
0.38465145 0.45862287 2.5890002
0.38958287 0.45862287 2.5890002
0.39756191 0.46216574 2.6090002
0.40253145 0.46216574 2.6090002
0.40750095 0.46216574 2.6090002
-0.28878668 0.35254478 1.9690001
-0.28503621 0.35254478 1.9690001
-0.27971429 0.35057524 1.9580001
-0.2744343 0.34860572 1.9470001
-0.27072573 0.34860572 1.9470001
-0.26701716 0.34860572 1.9470001
-0.26330858 0.34860572 1.9470001
-0.25960001 0.34860572 1.9470001
-0.25589144 0.34860572 1.9470001
-0.25218287 0.34860572 1.9470001
-0.24707049 0.34663621 1.9360001
-0.24338287 0.34663621 1.9360001
-0.23969525 0.34663621 1.9360001
-0.23466668 0.34466669 1.9250001
-0.23100001 0.34466669 1.9250001
-0.22733334 0.34466669 1.9250001
-0.22366667 0.34466669 1.9250001
-0.21885715 0.3428762 1.9150001
-0.21520953 0.3428762 1.9150001
-0.21156192 0.3428762 1.9150001
-0.20791429 0.3428762 1.9150001
-0.20426667 0.3428762 1.9150001
-0.20061906 0.3428762 1.9150001
-0.19697143 0.3428762 1.9150001
-0.19332382 0.3428762 1.9150001
-0.1896762 0.3428762 1.9150001
-0.18602858 0.3428762 1.9150001
-0.18133333 0.34090668 1.904
-0.17770667 0.34090668 1.904
-0.17408 0.34090668 1.904
-0.17045334 0.34090668 1.904
-0.16682667 0.34090668 1.904
-0.16320001 0.34090668 1.904
-0.15957335 0.34090668 1.904
-0.15594667 0.34090668 1.904
-0.15232001 0.34090668 1.904
-0.14869334 0.34090668 1.904
-0.14506668 0.34090668 1.904
-0.14144 0.34090668 1.904
-0.13781334 0.34090668 1.904
-0.1334819 0.33911622 1.8940001
-0.12987429 0.33911622 1.8940001
-0.12626667 0.33911622 1.8940001
-0.12265905 0.33911622 1.8940001
-0.11905143 0.33911622 1.8940001
-0.11544381 0.33911622 1.8940001
-0.11118667 0.33714667 1.8830001
-0.1076 0.33714667 1.8830001
-0.10401334 0.33714667 1.8830001
-0.10042667 0.33714667 1.8830001
-0.096840002 0.33714667 1.8830001
-0.092758097 0.33535621 1.8730001
-0.089666672 0.33714667 1.8830001
-0.085622862 0.33535621 1.8730001
-0.082055241 0.33535621 1.8730001
-0.07848762 0.33535621 1.8730001
-0.074519999 0.33356571 1.863
-0.070971429 0.33356571 1.863
-0.067422859 0.33356571 1.863
-0.063874289 0.33356571 1.863
-0.060325716 0.33356571 1.863
-0.056777146 0.33356571 1.863
-0.053228572 0.33356571 1.863
-0.049680002 0.33356571 1.863
-0.046131432 0.33356571 1.863
-0.042582858 0.33356571 1.863
-0.039034288 0.33356571 1.863
-0.035295241 0.33177525 1.853
-0.031937145 0.33356571 1.863
-0.028236192 0.33177525 1.853
-0.024706667 0.33177525 1.853
-0.021177143 0.33177525 1.853
-0.01764762 0.33177525 1.853
-0.014118096 0.33177525 1.853
-0.010531429 0.32998478 1.8430001
-0.0070209526 0.32998478 1.8430001
-0.0035104763 0.32998478 1.8430001
0 0.32998478 1.8430001
0.0034914287 0.32819429 1.8330001
0.0069828574 0.32819429 1.8330001
0.010474286 0.32819429 1.8330001
0.013965715 0.32819429 1.8330001
0.017371429 0.32658288 1.8240001
0.020845715 0.32658288 1.8240001
0.024320001 0.32658288 1.8240001
0.027794287 0.32658288 1.8240001
0.031268574 0.32658288 1.8240001
0.034742858 0.32658288 1.8240001
0.038217146 0.32658288 1.8240001
0.04169143 0.32658288 1.8240001
0.045165718 0.32658288 1.8240001
0.048640002 0.32658288 1.8240001
0.052114289 0.32658288 1.8240001
0.055862859 0.32819429 1.8330001
0.059354287 0.32819429 1.8330001
0.063188575 0.32998478 1.8430001
0.06669905 0.32998478 1.8430001
0.070590481 0.33177525 1.853
0.074519999 0.33356571 1.863
0.07848762 0.33535621 1.8730001
0.082493335 0.33714667 1.8830001
0.086582862 0.33911622 1.8940001
0.090666667 0.34090668 1.904
0.094838098 0.3428762 1.9150001
0.099000007 0.34466669 1.9250001
0.10325333 0.34663621 1.9360001
0.10754857 0.34860572 1.9470001
0.11188572 0.35057524 1.9580001
0.11626477 0.35254478 1.9690001
0.12068572 0.3545143 1.9800001
0.12521143 0.35666287 1.9920001
0.1297181 0.35863239 2.003
0.13433334 0.36078095 2.0150001
0.13817143 0.36078095 2.0150001
0.14285524 0.36292952 2.0270002
0.14671619 0.36292952 2.0270002
0.15236001 0.36722669 2.0510001
0.15718096 0.36937526 2.0630002
0.16212572 0.37170288 2.0760002
0.16704001 0.37385145 2.0880001
0.17101716 0.37385145 2.0880001
0.17608382 0.37617907 2.1010001
0.18120001 0.37850669 2.1140001
0.18522668 0.37850669 2.1140001
0.19041716 0.38083431 2.1270001
0.19565715 0.38316193 2.1400001
0.20094667 0.38548952 2.1530001
0.20638096 0.3879962 2.1670001
0.21186858 0.39050287 2.181
0.21731049 0.39283049 2.194
0.22148953 0.39283049 2.194
0.23009144 0.40052953 2.237
0.23592381 0.40321526 2.2520001
0.24021335 0.40321526 2.2520001
0.24450287 0.40321526 2.2520001
0.25033906 0.40572193 2.266
0.25634095 0.40840763 2.2810001
0.26068571 0.40840763 2.2810001
0.26688954 0.41127241 2.2970002
0.27303621 0.4139581 2.312
0.27924001 0.41664383 2.3270001
0.28562286 0.41950858 2.3430002
0.29206666 0.42237335 2.3590002
0.29656002 0.42237335 2.3590002
0.30526477 0.42828193 2.3920002
0.31202286 0.43132573 2.4090002
0.31884572 0.43436953 2.4260001
0.32346669 0.43436953 2.4260001
0.33038667 0.43741333 2.4430001
0.33504 0.43741333 2.4430001
0.34456003 0.44368002 2.4780002
0.35689145 0.45334858 2.5320001
0.36442858 0.45675048 2.5510001
0.3720381 0.46015239 2.5700002
0.37693334 0.46015239 2.5700002
0.38465145 0.46355429 2.5890002
0.38958287 0.46355429 2.5890002
0.39756191 0.46713525 2.6090002
0.40253145 0.46713525 2.6090002
0.40750095 0.46713525 2.6090002
-0.28878668 0.35629526 1.9690001
-0.28503621 0.35629526 1.9690001
-0.27971429 0.35430476 1.9580001
-0.2744343 0.35231429 1.9470001
-0.27072573 0.35231429 1.9470001
-0.26701716 0.35231429 1.9470001
-0.26330858 0.35231429 1.9470001
-0.25960001 0.35231429 1.9470001
-0.25589144 0.35231429 1.9470001
-0.25218287 0.35231429 1.9470001
-0.2484743 0.35231429 1.9470001
-0.24338287 0.35032383 1.9360001
-0.23969525 0.35032383 1.9360001
-0.23466668 0.34833336 1.9250001
-0.22980002 0.34652382 1.9150001
-0.22733334 0.34833336 1.9250001
-0.22250476 0.34652382 1.9150001
-0.21885715 0.34652382 1.9150001
-0.21520953 0.34652382 1.9150001
-0.21156192 0.34652382 1.9150001
-0.20791429 0.34652382 1.9150001
-0.20426667 0.34652382 1.9150001
-0.20061906 0.34652382 1.9150001
-0.19697143 0.34652382 1.9150001
-0.19332382 0.34652382 1.9150001
-0.1896762 0.34652382 1.9150001
-0.18602858 0.34652382 1.9150001
-0.18133333 0.34453335 1.904
-0.17770667 0.34453335 1.904
-0.17408 0.34453335 1.904
-0.17045334 0.34453335 1.904
-0.16682667 0.34453335 1.904
-0.16320001 0.34453335 1.904
-0.15957335 0.34453335 1.904
-0.15594667 0.34453335 1.904
-0.15232001 0.34453335 1.904
-0.14869334 0.34453335 1.904
-0.14506668 0.34453335 1.904
-0.14144 0.34453335 1.904
-0.13708954 0.34272382 1.8940001
-0.1334819 0.34272382 1.8940001
-0.12987429 0.34272382 1.8940001
-0.12626667 0.34272382 1.8940001
-0.12265905 0.34272382 1.8940001
-0.11905143 0.34272382 1.8940001
-0.11544381 0.34272382 1.8940001
-0.11118667 0.34073335 1.8830001
-0.1076 0.34073335 1.8830001
-0.10401334 0.34073335 1.8830001
-0.10042667 0.34073335 1.8830001
-0.096840002 0.34073335 1.8830001
-0.092758097 0.33892381 1.8730001
-0.089666672 0.34073335 1.8830001
-0.085622862 0.33892381 1.8730001
-0.082055241 0.33892381 1.8730001
-0.07848762 0.33892381 1.8730001
-0.074519999 0.3371143 1.863
-0.070971429 0.3371143 1.863
-0.067422859 0.3371143 1.863
-0.063874289 0.3371143 1.863
-0.060325716 0.3371143 1.863
-0.056777146 0.3371143 1.863
-0.053228572 0.3371143 1.863
-0.049680002 0.3371143 1.863
-0.046131432 0.3371143 1.863
-0.042354286 0.33530477 1.853
-0.038824763 0.33530477 1.853
-0.035295241 0.33530477 1.853
-0.031937145 0.3371143 1.863
-0.028236192 0.33530477 1.853
-0.024706667 0.33530477 1.853
-0.021177143 0.33530477 1.853
-0.01764762 0.33530477 1.853
-0.014041905 0.33349526 1.8430001
-0.010531429 0.33349526 1.8430001
-0.0070209526 0.33349526 1.8430001
-0.0035104763 0.33349526 1.8430001
0 0.33349526 1.8430001
0.0035104763 0.33349526 1.8430001
0.0069828574 0.33168572 1.8330001
0.010474286 0.33168572 1.8330001
0.013965715 0.33168572 1.8330001
0.017371429 0.33005714 1.8240001
0.020845715 0.33005714 1.8240001
0.024320001 0.33005714 1.8240001
0.027794287 0.33005714 1.8240001
0.031268574 0.33005714 1.8240001
0.034742858 0.33005714 1.8240001
0.038217146 0.33005714 1.8240001
0.04169143 0.33005714 1.8240001
0.045165718 0.33005714 1.8240001
0.048640002 0.33005714 1.8240001
0.051828574 0.32824764 1.8140001
0.055588573 0.33005714 1.8240001
0.059354287 0.33168572 1.8330001
0.063188575 0.33349526 1.8430001
0.06669905 0.33349526 1.8430001
0.070590481 0.33530477 1.853
0.074519999 0.3371143 1.863
0.07848762 0.33892381 1.8730001
0.082975239 0.34272382 1.8940001
0.08704 0.34453335 1.904
0.09119048 0.34652382 1.9150001
0.095333338 0.34833336 1.9250001
0.099000007 0.34833336 1.9250001
0.10325333 0.35032383 1.9360001
0.10754857 0.35231429 1.9470001
0.11188572 0.35430476 1.9580001
0.11626477 0.35629526 1.9690001
0.12068572 0.35828573 1.9800001
0.12521143 0.36045715 1.9920001
0.1297181 0.36244762 2.003
0.13433334 0.36461905 2.0150001
0.13817143 0.36461905 2.0150001
0.14285524 0.3667905 2.0270002
0.14671619 0.3667905 2.0270002
0.15236001 0.37113336 2.0510001
0.15718096 0.37330478 2.0630002
0.16212572 0.37565717 2.0760002
0.16704001 0.3778286 2.0880001
0.17208192 0.38018095 2.1010001
0.17608382 0.38018095 2.1010001
0.18120001 0.38253334 2.1140001
0.18522668 0.38253334 2.1140001
0.19041716 0.38488573 2.1270001
0.19565715 0.38723812 2.1400001
0.20094667 0.3895905 2.1530001
0.20638096 0.39212382 2.1670001
0.21050858 0.39212382 2.1670001
0.21602286 0.39465716 2.181
0.22148953 0.39700955 2.194
0.23009144 0.40479049 2.237
0.23435239 0.40479049 2.237
0.24021335 0.40750477 2.2520001
0.24450287 0.40750477 2.2520001
0.25033906 0.41003811 2.266
0.25465524 0.41003811 2.266
0.26068571 0.41275239 2.2810001
0.26688954 0.41564763 2.2970002
0.27303621 0.41836193 2.312
0.27924001 0.42107621 2.3270001
0.28367239 0.42107621 2.3270001
0.29008573 0.42397144 2.3430002
0.29656002 0.42686668 2.3590002
0.30526477 0.43283811 2.3920002
0.30982095 0.43283811 2.3920002
0.32108 0.44206667 2.4430001
0.32573333 0.44206667 2.4430001
0.33268574 0.44514287 2.46
0.33984002 0.44840002 2.4780002
0.34706286 0.45165715 2.4960001
0.35956955 0.46160954 2.5510001
0.36714286 0.46504763 2.5700002
0.37478858 0.46848574 2.5890002
0.37972 0.46848574 2.5890002
0.38762286 0.47210479 2.6090002
0.3925924 0.47210479 2.6090002
0.39756191 0.47210479 2.6090002
0.40253145 0.47210479 2.6090002
0.40750095 0.47210479 2.6090002
-0.28878668 0.36004573 1.9690001
-0.28344381 0.35803431 1.9580001
-0.27814287 0.35602286 1.9470001
-0.2744343 0.35602286 1.9470001
-0.27072573 0.35602286 1.9470001
-0.26550859 0.35401145 1.9360001
-0.26330858 0.35602286 1.9470001
-0.25960001 0.35602286 1.9470001
-0.25444573 0.35401145 1.9360001
-0.25218287 0.35602286 1.9470001
-0.2484743 0.35602286 1.9470001
-0.24338287 0.35401145 1.9360001
-0.23969525 0.35401145 1.9360001
-0.23344763 0.35017145 1.9150001
-0.22980002 0.35017145 1.9150001
-0.22733334 0.352 1.9250001
-0.22250476 0.35017145 1.9150001
-0.21885715 0.35017145 1.9150001
-0.21520953 0.35017145 1.9150001
-0.21156192 0.35017145 1.9150001
-0.20791429 0.35017145 1.9150001
-0.20426667 0.35017145 1.9150001
-0.20061906 0.35017145 1.9150001
-0.19697143 0.35017145 1.9150001
-0.19332382 0.35017145 1.9150001
-0.1896762 0.35017145 1.9150001
-0.18602858 0.35017145 1.9150001
-0.18238096 0.35017145 1.9150001
-0.17770667 0.34816 1.904
-0.17408 0.34816 1.904
-0.17045334 0.34816 1.904
-0.16682667 0.34816 1.904
-0.16320001 0.34816 1.904
-0.15957335 0.34816 1.904
-0.15594667 0.34816 1.904
-0.15232001 0.34816 1.904
-0.14869334 0.34816 1.904
-0.14506668 0.34816 1.904
-0.14069715 0.34633145 1.8940001
-0.13708954 0.34633145 1.8940001
-0.1334819 0.34633145 1.8940001
-0.12987429 0.34633145 1.8940001
-0.12626667 0.34633145 1.8940001
-0.12265905 0.34633145 1.8940001
-0.11905143 0.34633145 1.8940001
-0.11544381 0.34633145 1.8940001
-0.11118667 0.34432 1.8830001
-0.1076 0.34432 1.8830001
-0.10401334 0.34432 1.8830001
-0.10042667 0.34432 1.8830001
-0.096840002 0.34432 1.8830001
-0.092758097 0.34249145 1.8730001
-0.089666672 0.34432 1.8830001
-0.08608 0.34432 1.8830001
-0.082055241 0.34249145 1.8730001
-0.07848762 0.34249145 1.8730001
-0.074920006 0.34249145 1.8730001
-0.071352385 0.34249145 1.8730001
-0.067422859 0.34066287 1.863
-0.063874289 0.34066287 1.863
-0.060325716 0.34066287 1.863
-0.056777146 0.34066287 1.863
-0.053228572 0.34066287 1.863
-0.049680002 0.34066287 1.863
-0.046131432 0.34066287 1.863
-0.042582858 0.34066287 1.863
-0.039034288 0.34066287 1.863
-0.035295241 0.33883429 1.853
-0.031937145 0.34066287 1.863
-0.028236192 0.33883429 1.853
-0.024706667 0.33883429 1.853
-0.021177143 0.33883429 1.853
-0.01764762 0.33883429 1.853
-0.014041905 0.33700573 1.8430001
-0.010531429 0.33700573 1.8430001
-0.0070209526 0.33700573 1.8430001
-0.0035104763 0.33700573 1.8430001
0 0.33700573 1.8430001
0.0035104763 0.33700573 1.8430001
0.0069828574 0.33517715 1.8330001
0.010474286 0.33517715 1.8330001
0.013965715 0.33517715 1.8330001
0.017371429 0.33353144 1.8240001
0.020948572 0.33517715 1.8330001
0.024320001 0.33353144 1.8240001
0.027794287 0.33353144 1.8240001
0.031268574 0.33353144 1.8240001
0.034742858 0.33353144 1.8240001
0.038217146 0.33353144 1.8240001
0.041462857 0.33170286 1.8140001
0.044918098 0.33170286 1.8140001
0.048640002 0.33353144 1.8240001
0.051828574 0.33170286 1.8140001
0.055588573 0.33353144 1.8240001
0.059354287 0.33517715 1.8330001
0.063188575 0.33700573 1.8430001
0.06669905 0.33700573 1.8430001
0.070590481 0.33883429 1.853
0.074920006 0.34249145 1.8730001
0.07890667 0.34432 1.8830001
0.082975239 0.34633145 1.8940001
0.08704 0.34816 1.904
0.09119048 0.35017145 1.9150001
0.094838098 0.35017145 1.9150001
0.099000007 0.352 1.9250001
0.10325333 0.35401145 1.9360001
0.10754857 0.35602286 1.9470001
0.11188572 0.35803431 1.9580001
0.11626477 0.36004573 1.9690001
0.12068572 0.36205715 1.9800001
0.12521143 0.36425143 1.9920001
0.1297181 0.36626288 2.003
0.13433334 0.36845717 2.0150001
0.13817143 0.36845717 2.0150001
0.14285524 0.37065145 2.0270002
0.14758477 0.37284574 2.039
0.15236001 0.37504002 2.0510001
0.15718096 0.37723431 2.0630002
0.16212572 0.37961143 2.0760002
0.16704001 0.38180572 2.0880001
0.17208192 0.38418287 2.1010001
0.17608382 0.38418287 2.1010001
0.18120001 0.38656002 2.1140001
0.18522668 0.38656002 2.1140001
0.19041716 0.38893715 2.1270001
0.19565715 0.3913143 2.1400001
0.19973335 0.3913143 2.1400001
0.20504762 0.39369145 2.1530001
0.20914859 0.39369145 2.1530001
0.21731049 0.40118858 2.194
0.22148953 0.40118858 2.194
0.23009144 0.40905145 2.237
0.23592381 0.4117943 2.2520001
0.24021335 0.4117943 2.2520001
0.24450287 0.4117943 2.2520001
0.25033906 0.41435429 2.266
0.25465524 0.41435429 2.266
0.26068571 0.41709715 2.2810001
0.26688954 0.42002288 2.2970002
0.27303621 0.42276573 2.312
0.27924001 0.42550859 2.3270001
0.28562286 0.42843431 2.3430002
0.29206666 0.43136001 2.3590002
0.29656002 0.43136001 2.3590002
0.30526477 0.43739429 2.3920002
0.31202286 0.44050288 2.4090002
0.31884572 0.44361144 2.4260001
0.32346669 0.44361144 2.4260001
0.33268574 0.44982859 2.46
0.33984002 0.45312002 2.4780002
0.34706286 0.45641145 2.4960001
0.35956955 0.4664686 2.5510001
0.36714286 0.46994287 2.5700002
0.37478858 0.47341716 2.5890002
0.38265336 0.4770743 2.6090002
0.38762286 0.4770743 2.6090002
0.3925924 0.4770743 2.6090002
0.39756191 0.4770743 2.6090002
0.40253145 0.4770743 2.6090002
0.40750095 0.4770743 2.6090002
-0.28878668 0.3637962 1.9690001
-0.28344381 0.36176383 1.9580001
-0.27814287 0.35973144 1.9470001
-0.2744343 0.35973144 1.9470001
-0.27072573 0.35973144 1.9470001
-0.26550859 0.35769907 1.9360001
-0.26330858 0.35973144 1.9470001
-0.25813335 0.35769907 1.9360001
-0.25444573 0.35769907 1.9360001
-0.25075811 0.35769907 1.9360001
-0.24707049 0.35769907 1.9360001
-0.24338287 0.35769907 1.9360001
-0.23969525 0.35769907 1.9360001
-0.23466668 0.35566667 1.9250001
-0.22980002 0.35381907 1.9150001
-0.22733334 0.35566667 1.9250001
-0.22366667 0.35566667 1.9250001
-0.21885715 0.35381907 1.9150001
-0.21520953 0.35381907 1.9150001
-0.21156192 0.35381907 1.9150001
-0.20791429 0.35381907 1.9150001
-0.20426667 0.35381907 1.9150001
-0.20061906 0.35381907 1.9150001
-0.19697143 0.35381907 1.9150001
-0.19332382 0.35381907 1.9150001
-0.1896762 0.35381907 1.9150001
-0.18602858 0.35381907 1.9150001
-0.18238096 0.35381907 1.9150001
-0.17873333 0.35381907 1.9150001
-0.17408 0.35178667 1.904
-0.1714381 0.35381907 1.9150001
-0.16779049 0.35381907 1.9150001
-0.16320001 0.35178667 1.904
-0.15957335 0.35178667 1.904
-0.15594667 0.35178667 1.904
-0.15232001 0.35178667 1.904
-0.14869334 0.35178667 1.904
-0.14430477 0.34993905 1.8940001
-0.14069715 0.34993905 1.8940001
-0.13708954 0.34993905 1.8940001
-0.1334819 0.34993905 1.8940001
-0.12987429 0.34993905 1.8940001
-0.12626667 0.34993905 1.8940001
-0.12265905 0.34993905 1.8940001
-0.11905143 0.34993905 1.8940001
-0.11544381 0.34993905 1.8940001
-0.11183619 0.34993905 1.8940001
-0.10822857 0.34993905 1.8940001
-0.10401334 0.34790668 1.8830001
-0.10042667 0.34790668 1.8830001
-0.096840002 0.34790668 1.8830001
-0.092758097 0.34605905 1.8730001
-0.089666672 0.34790668 1.8830001
-0.08608 0.34790668 1.8830001
-0.082493335 0.34790668 1.8830001
-0.07848762 0.34605905 1.8730001
-0.074920006 0.34605905 1.8730001
-0.071352385 0.34605905 1.8730001
-0.067784764 0.34605905 1.8730001
-0.063874289 0.34421143 1.863
-0.060325716 0.34421143 1.863
-0.056777146 0.34421143 1.863
-0.053228572 0.34421143 1.863
-0.049680002 0.34421143 1.863
-0.046131432 0.34421143 1.863
-0.042582858 0.34421143 1.863
-0.039034288 0.34421143 1.863
-0.035295241 0.34236383 1.853
-0.031937145 0.34421143 1.863
-0.028236192 0.34236383 1.853
-0.024706667 0.34236383 1.853
-0.021177143 0.34236383 1.853
-0.01764762 0.34236383 1.853
-0.014041905 0.34051621 1.8430001
-0.010531429 0.34051621 1.8430001
-0.0070209526 0.34051621 1.8430001
-0.0035104763 0.34051621 1.8430001
0 0.34051621 1.8430001
0.0035104763 0.34051621 1.8430001
0.0069828574 0.33866858 1.8330001
0.010474286 0.33866858 1.8330001
0.013965715 0.33866858 1.8330001
0.017457144 0.33866858 1.8330001
0.020948572 0.33866858 1.8330001
0.024320001 0.33700573 1.8240001
0.027794287 0.33700573 1.8240001
0.031268574 0.33700573 1.8240001
0.034742858 0.33700573 1.8240001
0.038217146 0.33700573 1.8240001
0.04169143 0.33700573 1.8240001
0.044918098 0.33515811 1.8140001
0.048640002 0.33700573 1.8240001
0.051828574 0.33515811 1.8140001
0.055588573 0.33700573 1.8240001
0.059354287 0.33866858 1.8330001
0.063188575 0.34051621 1.8430001
0.067060955 0.34236383 1.853
0.070971429 0.34421143 1.863
0.074920006 0.34605905 1.8730001
0.07890667 0.34790668 1.8830001
0.082975239 0.34993905 1.8940001
0.08704 0.35178667 1.904
0.09119048 0.35381907 1.9150001
0.094838098 0.35381907 1.9150001
0.099000007 0.35566667 1.9250001
0.10325333 0.35769907 1.9360001
0.10754857 0.35973144 1.9470001
0.11188572 0.36176383 1.9580001
0.11561524 0.36176383 1.9580001
0.12068572 0.36582857 1.9800001
0.12521143 0.36804572 1.9920001
0.1297181 0.37007812 2.003
0.13353334 0.37007812 2.003
0.13817143 0.37229526 2.0150001
0.14285524 0.3745124 2.0270002
0.14758477 0.37672955 2.039
0.15146858 0.37672955 2.039
0.15718096 0.38116384 2.0630002
0.16212572 0.38356572 2.0760002
0.16704001 0.38578287 2.0880001
0.17208192 0.38818479 2.1010001
0.17608382 0.38818479 2.1010001
0.18120001 0.39058667 2.1140001
0.18522668 0.39058667 2.1140001
0.19041716 0.39298859 2.1270001
0.19446857 0.39298859 2.1270001
0.19973335 0.39539048 2.1400001
0.20380953 0.39539048 2.1400001
0.21050858 0.40037906 2.1670001
0.21869715 0.40795431 2.2080002
0.22441715 0.41072574 2.223
0.23009144 0.41331241 2.237
0.23592381 0.41608381 2.2520001
0.24021335 0.41608381 2.2520001
0.24450287 0.41608381 2.2520001
0.25033906 0.41867051 2.266
0.25465524 0.41867051 2.266
0.26068571 0.42144191 2.2810001
0.26688954 0.42439812 2.2970002
0.27303621 0.42716953 2.312
0.27924001 0.42994097 2.3270001
0.28562286 0.43289715 2.3430002
0.29206666 0.43585336 2.3590002
0.29656002 0.43585336 2.3590002
0.30322286 0.43899429 2.3760002
0.31202286 0.44509146 2.4090002
0.31884572 0.44823241 2.4260001
0.32573333 0.45137334 2.4430001
0.33268574 0.45451429 2.46
0.33984002 0.45784003 2.4780002
0.34706286 0.46116573 2.4960001
0.35689145 0.46781716 2.5320001
0.36442858 0.47132763 2.5510001
0.37478858 0.47834858 2.5890002
0.38265336 0.48204383 2.6090002
0.38762286 0.48204383 2.6090002
0.3925924 0.48204383 2.6090002
0.39756191 0.48204383 2.6090002
0.40253145 0.48204383 2.6090002
0.40750095 0.48204383 2.6090002
-0.28717333 0.36549336 1.9580001
-0.28344381 0.36549336 1.9580001
-0.27814287 0.36344001 1.9470001
-0.2744343 0.36344001 1.9470001
-0.27072573 0.36344001 1.9470001
-0.26550859 0.36138669 1.9360001
-0.26330858 0.36344001 1.9470001
-0.25813335 0.36138669 1.9360001
-0.25444573 0.36138669 1.9360001
-0.25075811 0.36138669 1.9360001
-0.24707049 0.36138669 1.9360001
-0.24338287 0.36138669 1.9360001
-0.23969525 0.36138669 1.9360001
-0.23466668 0.35933334 1.9250001
-0.23100001 0.35933334 1.9250001
-0.22733334 0.35933334 1.9250001
-0.22366667 0.35933334 1.9250001
-0.21885715 0.35746667 1.9150001
-0.21520953 0.35746667 1.9150001
-0.21156192 0.35746667 1.9150001
-0.20791429 0.35746667 1.9150001
-0.20426667 0.35746667 1.9150001
-0.20061906 0.35746667 1.9150001
-0.19697143 0.35746667 1.9150001
-0.19332382 0.35746667 1.9150001
-0.1896762 0.35746667 1.9150001
-0.18602858 0.35746667 1.9150001
-0.18238096 0.35746667 1.9150001
-0.17873333 0.35746667 1.9150001
-0.17508572 0.35746667 1.9150001
-0.1714381 0.35746667 1.9150001
-0.16779049 0.35746667 1.9150001
-0.16320001 0.35541335 1.904
-0.15957335 0.35541335 1.904
-0.15594667 0.35541335 1.904
-0.15232001 0.35541335 1.904
-0.14869334 0.35541335 1.904
-0.14506668 0.35541335 1.904
-0.14144 0.35541335 1.904
-0.13781334 0.35541335 1.904
-0.1334819 0.35354668 1.8940001
-0.12987429 0.35354668 1.8940001
-0.12626667 0.35354668 1.8940001
-0.12265905 0.35354668 1.8940001
-0.11905143 0.35354668 1.8940001
-0.11544381 0.35354668 1.8940001
-0.11118667 0.35149336 1.8830001
-0.1076 0.35149336 1.8830001
-0.10401334 0.35149336 1.8830001
-0.10042667 0.35149336 1.8830001
-0.096840002 0.35149336 1.8830001
-0.092758097 0.34962669 1.8730001
-0.089666672 0.35149336 1.8830001
-0.08608 0.35149336 1.8830001
-0.082055241 0.34962669 1.8730001
-0.07848762 0.34962669 1.8730001
-0.074920006 0.34962669 1.8730001
-0.071352385 0.34962669 1.8730001
-0.067422859 0.34776002 1.863
-0.063874289 0.34776002 1.863
-0.060325716 0.34776002 1.863
-0.056777146 0.34776002 1.863
-0.053228572 0.34776002 1.863
-0.049680002 0.34776002 1.863
-0.046131432 0.34776002 1.863
-0.042582858 0.34776002 1.863
-0.039034288 0.34776002 1.863
-0.035295241 0.34589335 1.853
-0.031937145 0.34776002 1.863
-0.028388573 0.34776002 1.863
-0.024706667 0.34589335 1.853
-0.021177143 0.34589335 1.853
-0.01764762 0.34589335 1.853
-0.014041905 0.34402668 1.8430001
-0.010531429 0.34402668 1.8430001
-0.0070590479 0.34589335 1.853
-0.0035104763 0.34402668 1.8430001
0 0.34402668 1.8430001
0.0035104763 0.34402668 1.8430001
0.0069828574 0.34216002 1.8330001
0.010474286 0.34216002 1.8330001
0.013965715 0.34216002 1.8330001
0.017457144 0.34216002 1.8330001
0.020948572 0.34216002 1.8330001
0.024440002 0.34216002 1.8330001
0.027794287 0.34048 1.8240001
0.031268574 0.34048 1.8240001
0.034742858 0.34048 1.8240001
0.038217146 0.34048 1.8240001
0.04169143 0.34048 1.8240001
0.044918098 0.33861333 1.8140001
0.048640002 0.34048 1.8240001
0.051828574 0.33861333 1.8140001
0.055588573 0.34048 1.8240001
0.059354287 0.34216002 1.8330001
0.062845714 0.34216002 1.8330001
0.06669905 0.34402668 1.8430001
0.070971429 0.34776002 1.863
0.074519999 0.34776002 1.863
0.07890667 0.35149336 1.8830001
0.082975239 0.35354668 1.8940001
0.08704 0.35541335 1.904
0.090666667 0.35541335 1.904
0.094838098 0.35746667 1.9150001
0.099000007 0.35933334 1.9250001
0.10325333 0.36138669 1.9360001
0.10754857 0.36344001 1.9470001
0.11188572 0.36549336 1.9580001
0.11691429 0.36960003 1.9800001
0.12141715 0.37184 1.9920001
0.12521143 0.37184 1.9920001
0.1297181 0.37389335 2.003
0.13433334 0.37613335 2.0150001
0.13899429 0.37837335 2.0270002
0.14285524 0.37837335 2.0270002
0.14758477 0.38061336 2.039
0.15236001 0.38285336 2.0510001
0.15718096 0.38509336 2.0630002
0.16212572 0.38752002 2.0760002
0.16704001 0.38976002 2.0880001
0.17208192 0.39218667 2.1010001
0.17717335 0.39461336 2.1140001
0.18120001 0.39461336 2.1140001
0.18522668 0.39461336 2.1140001
0.19041716 0.39704001 2.1270001
0.19446857 0.39704001 2.1270001
0.19852 0.39704001 2.1270001
0.20504762 0.40189335 2.1530001
0.21186858 0.40712002 2.181
0.21869715 0.41216001 2.2080002
0.22441715 0.41496003 2.223
0.23009144 0.41757336 2.237
0.23592381 0.42037335 2.2520001
0.24021335 0.42037335 2.2520001
0.24450287 0.42037335 2.2520001
0.25033906 0.42298669 2.266
0.25465524 0.42298669 2.266
0.26068571 0.42578667 2.2810001
0.26688954 0.42877334 2.2970002
0.27303621 0.43157336 2.312
0.27924001 0.43437335 2.3270001
0.28562286 0.43736002 2.3430002
0.29206666 0.44034669 2.3590002
0.29656002 0.44034669 2.3590002
0.30322286 0.44352001 2.3760002
0.30982095 0.44650668 2.3920002
0.31661144 0.44968003 2.4090002
0.32573333 0.45602667 2.4430001
0.33268574 0.45920002 2.46
0.33737144 0.45920002 2.46
0.34456003 0.46256003 2.4780002
0.35956955 0.47618669 2.5510001
0.36442858 0.47618669 2.5510001
0.37478858 0.48328 2.5890002
0.38265336 0.48701334 2.6090002
0.38762286 0.48701334 2.6090002
0.3925924 0.48701334 2.6090002
0.39756191 0.48701334 2.6090002
0.39944574 0.48328 2.5890002
0.40437716 0.48328 2.5890002
-0.28717333 0.36922288 1.9580001
-0.28344381 0.36922288 1.9580001
-0.27814287 0.36714858 1.9470001
-0.2744343 0.36714858 1.9470001
-0.26919621 0.36507431 1.9360001
-0.26550859 0.36507431 1.9360001
-0.26330858 0.36714858 1.9470001
-0.25813335 0.36507431 1.9360001
-0.25444573 0.36507431 1.9360001
-0.25075811 0.36507431 1.9360001
-0.2484743 0.36714858 1.9470001
-0.24338287 0.36507431 1.9360001
-0.23969525 0.36507431 1.9360001
-0.23466668 0.36300001 1.9250001
-0.23100001 0.36300001 1.9250001
-0.22733334 0.36300001 1.9250001
-0.22366667 0.36300001 1.9250001
-0.22000001 0.36300001 1.9250001
-0.21633334 0.36300001 1.9250001
-0.21156192 0.36111429 1.9150001
-0.20791429 0.36111429 1.9150001
-0.20426667 0.36111429 1.9150001
-0.20166667 0.36300001 1.9250001
-0.19800001 0.36300001 1.9250001
-0.19332382 0.36111429 1.9150001
-0.19066668 0.36300001 1.9250001
-0.18700001 0.36300001 1.9250001
-0.18238096 0.36111429 1.9150001
-0.17873333 0.36111429 1.9150001
-0.17508572 0.36111429 1.9150001
-0.1714381 0.36111429 1.9150001
-0.16779049 0.36111429 1.9150001
-0.16414286 0.36111429 1.9150001
-0.16049525 0.36111429 1.9150001
-0.15594667 0.35904002 1.904
-0.15232001 0.35904002 1.904
-0.14869334 0.35904002 1.904
-0.14506668 0.35904002 1.904
-0.14144 0.35904002 1.904
-0.13708954 0.35715431 1.8940001
-0.1334819 0.35715431 1.8940001
-0.12987429 0.35715431 1.8940001
-0.12626667 0.35715431 1.8940001
-0.12265905 0.35715431 1.8940001
-0.11905143 0.35715431 1.8940001
-0.11544381 0.35715431 1.8940001
-0.11118667 0.35508001 1.8830001
-0.1076 0.35508001 1.8830001
-0.10401334 0.35508001 1.8830001
-0.10042667 0.35508001 1.8830001
-0.096840002 0.35508001 1.8830001
-0.093253337 0.35508001 1.8830001
-0.089666672 0.35508001 1.8830001
-0.08608 0.35508001 1.8830001
-0.082055241 0.3531943 1.8730001
-0.07848762 0.3531943 1.8730001
-0.074920006 0.3531943 1.8730001
-0.071352385 0.3531943 1.8730001
-0.067422859 0.35130858 1.863
-0.063874289 0.35130858 1.863
-0.060325716 0.35130858 1.863
-0.056777146 0.35130858 1.863
-0.053228572 0.35130858 1.863
-0.049680002 0.35130858 1.863
-0.046131432 0.35130858 1.863
-0.042582858 0.35130858 1.863
-0.039034288 0.35130858 1.863
-0.035295241 0.34942287 1.853
-0.031937145 0.35130858 1.863
-0.028236192 0.34942287 1.853
-0.024706667 0.34942287 1.853
-0.021177143 0.34942287 1.853
-0.01764762 0.34942287 1.853
-0.014118096 0.34942287 1.853
-0.010531429 0.34753716 1.8430001
-0.0070590479 0.34942287 1.853
-0.003529524 0.34942287 1.853
0 0.34753716 1.8430001
0.0035104763 0.34753716 1.8430001
0.0070209526 0.34753716 1.8430001
0.010531429 0.34753716 1.8430001
0.013965715 0.34565145 1.8330001
0.017457144 0.34565145 1.8330001
0.020948572 0.34565145 1.8330001
0.024440002 0.34565145 1.8330001
0.027931429 0.34565145 1.8330001
0.031422857 0.34565145 1.8330001
0.034914289 0.34565145 1.8330001
0.038405716 0.34565145 1.8330001
0.04169143 0.34395429 1.8240001
0.045165718 0.34395429 1.8240001
0.048640002 0.34395429 1.8240001
0.052114289 0.34395429 1.8240001
0.055588573 0.34395429 1.8240001
0.059354287 0.34565145 1.8330001
0.063188575 0.34753716 1.8430001
0.067060955 0.34942287 1.853
0.070971429 0.35130858 1.863
0.075320005 0.35508001 1.8830001
0.07890667 0.35508001 1.8830001
0.082975239 0.35715431 1.8940001
0.08704 0.35904002 1.904
0.09119048 0.36111429 1.9150001
0.095333338 0.36300001 1.9250001
0.099565715 0.36507431 1.9360001
0.10384 0.36714858 1.9470001
0.1081562 0.36922288 1.9580001
0.11188572 0.36922288 1.9580001
0.11626477 0.37129715 1.9690001
0.12141715 0.37563431 1.9920001
0.12521143 0.37563431 1.9920001
0.1297181 0.37770858 2.003
0.13433334 0.37997144 2.0150001
0.13899429 0.38223431 2.0270002
0.14370096 0.38449717 2.039
0.14845334 0.38676003 2.0510001
0.15325144 0.38902286 2.0630002
0.15817143 0.39147431 2.0760002
0.16212572 0.39147431 2.0760002
0.16704001 0.39373717 2.0880001
0.17208192 0.39618859 2.1010001
0.17717335 0.39864001 2.1140001
0.18120001 0.39864001 2.1140001
0.18522668 0.39864001 2.1140001
0.19041716 0.40109146 2.1270001
0.19446857 0.40109146 2.1270001
0.19852 0.40109146 2.1270001
0.20504762 0.4059943 2.1530001
0.21186858 0.41127431 2.181
0.21731049 0.41372573 2.194
0.22441715 0.41919431 2.223
0.23009144 0.42183429 2.237
0.23592381 0.42466286 2.2520001
0.24021335 0.42466286 2.2520001
0.24450287 0.42466286 2.2520001
0.25033906 0.42730287 2.266
0.25465524 0.42730287 2.266
0.26068571 0.43013144 2.2810001
0.26503047 0.43013144 2.2810001
0.27303621 0.43597716 2.312
0.28116 0.44182289 2.3430002
0.28562286 0.44182289 2.3430002
0.29206666 0.44484001 2.3590002
0.29869714 0.44804573 2.3760002
0.30322286 0.44804573 2.3760002
0.30982095 0.45106289 2.3920002
0.31661144 0.45426857 2.4090002
0.32573333 0.46068001 2.4430001
0.33038667 0.46068001 2.4430001
0.33737144 0.46388572 2.46
0.34456003 0.46728003 2.4780002
0.35956955 0.48104572 2.5510001
0.36442858 0.48104572 2.5510001
0.3720381 0.48462859 2.5700002
0.37972 0.48821145 2.5890002
0.38465145 0.48821145 2.5890002
0.3925924 0.49198288 2.6090002
0.39451429 0.48821145 2.5890002
0.39944574 0.48821145 2.5890002
-0.28717333 0.3729524 1.9580001
-0.28344381 0.3729524 1.9580001
-0.27814287 0.37085715 1.9470001
-0.27288383 0.36876193 1.9360001
-0.26919621 0.36876193 1.9360001
-0.26550859 0.36876193 1.9360001
-0.26182097 0.36876193 1.9360001
-0.25813335 0.36876193 1.9360001
-0.25444573 0.36876193 1.9360001
-0.25075811 0.36876193 1.9360001
-0.2484743 0.37085715 1.9470001
-0.24338287 0.36876193 1.9360001
-0.24105716 0.37085715 1.9470001
-0.23600763 0.36876193 1.9360001
-0.23232001 0.36876193 1.9360001
-0.22863239 0.36876193 1.9360001
-0.22366667 0.36666667 1.9250001
-0.22000001 0.36666667 1.9250001
-0.21633334 0.36666667 1.9250001
-0.21266668 0.36666667 1.9250001
-0.20900001 0.36666667 1.9250001
-0.20533334 0.36666667 1.9250001
-0.20166667 0.36666667 1.9250001
-0.19800001 0.36666667 1.9250001
-0.19433334 0.36666667 1.9250001
-0.19066668 0.36666667 1.9250001
-0.18700001 0.36666667 1.9250001
