# .PCD v0.7 - Point Cloud Data file format
VERSION 0.7
FIELDS x y z
SIZE 4 4 4
TYPE F F F
COUNT 1 1 1
WIDTH 1499
HEIGHT 1
VIEWPOINT 0 0 0 1 0 0 0
POINTS 1499
DATA ascii
-0.35178667 0.069100954 1.649
-0.34695429 0.068765715 1.641
-0.34550476 0.069100954 1.649
-0.34236383 0.069100954 1.649
-0.33922288 0.069100954 1.649
-0.33608192 0.069100954 1.649
-0.33132574 0.068765715 1.641
-0.32980001 0.069100954 1.649
-0.32665905 0.069100954 1.649
-0.3235181 0.069100954 1.649
-0.32037714 0.069100954 1.649
-0.31877524 0.069436193 1.6570001
-0.31409526 0.069100954 1.649
-0.3109543 0.069100954 1.649
-0.30781335 0.069100954 1.649
-0.30467239 0.069100954 1.649
-0.30006859 0.068765715 1.641
-0.29694286 0.068765715 1.641
-0.29381716 0.068765715 1.641
-0.29069144 0.068765715 1.641
-0.28633904 0.068472385 1.6340001
-0.28322667 0.068472385 1.6340001
-0.28131428 0.068765715 1.641
-0.27818859 0.068765715 1.641
-0.27506286 0.068765715 1.641
-0.27193716 0.068765715 1.641
-0.26881143 0.068765715 1.641
-0.26698098 0.069100954 1.649
-0.26384002 0.069100954 1.649
-0.26069906 0.069100954 1.649
-0.25755811 0.069100954 1.649
-0.25441715 0.069100954 1.649
-0.25005716 0.068765715 1.641
-0.24693143 0.068765715 1.641
-0.24276572 0.068472385 1.6340001
-0.23965335 0.068472385 1.6340001
-0.23538287 0.068137147 1.626
-0.23228572 0.068137147 1.626
-0.22918858 0.068137147 1.626
-0.22720382 0.068472385 1.6340001
-0.22409144 0.068472385 1.6340001
-0.22097905 0.068472385 1.6340001
-0.21786667 0.068472385 1.6340001
-0.2147543 0.068472385 1.6340001
-0.21164191 0.068472385 1.6340001
-0.20852953 0.068472385 1.6340001
-0.20441143 0.068137147 1.626
-0.2013143 0.068137147 1.626
-0.19821715 0.068137147 1.626
-0.19416001 0.067801908 1.618
-0.19202286 0.068137147 1.626
-0.18892573 0.068137147 1.626
-0.18582858 0.068137147 1.626
-0.18273143 0.068137147 1.626
-0.17963429 0.068137147 1.626
-0.17653716 0.068137147 1.626
-0.17429334 0.068472385 1.6340001
-0.17118096 0.068472385 1.6340001
-0.16806857 0.068472385 1.6340001
-0.1649562 0.068472385 1.6340001
-0.16105144 0.068137147 1.626
-0.15795429 0.068137147 1.626
-0.15485714 0.068137147 1.626
-0.15176001 0.068137147 1.626
-0.14866287 0.068137147 1.626
-0.14556572 0.068137147 1.626
-0.14246857 0.068137147 1.626
-0.13937144 0.068137147 1.626
-0.13627429 0.068137147 1.626
-0.13252191 0.067801908 1.618
-0.12824 0.067173339 1.603
-0.12518667 0.067173339 1.603
-0.12213334 0.067173339 1.603
-0.11908001 0.067173339 1.603
-0.11602667 0.067173339 1.603
-0.11353715 0.067508571 1.6110001
-0.11046857 0.067508571 1.6110001
-0.10740001 0.067508571 1.6110001
-0.10433143 0.067508571 1.6110001
-0.10126286 0.067508571 1.6110001
-0.098194286 0.067508571 1.6110001
-0.09512572 0.067508571 1.6110001
-0.092057146 0.067508571 1.6110001
-0.088988572 0.067508571 1.6110001
-0.085920006 0.067508571 1.6110001
-0.082440004 0.067173339 1.603
-0.079386666 0.067173339 1.603
-0.076333337 0.067173339 1.603
-0.073279999 0.067173339 1.603
-0.069920003 0.066880003 1.5960001
-0.066880003 0.066880003 1.5960001
-0.063840002 0.066880003 1.5960001
-0.060800001 0.066880003 1.5960001
-0.057760004 0.066880003 1.5960001
-0.054720003 0.066880003 1.5960001
-0.051680002 0.066880003 1.5960001
-0.048640002 0.066880003 1.5960001
-0.045600001 0.066880003 1.5960001
-0.04256 0.066880003 1.5960001
-0.039520003 0.066880003 1.5960001
-0.036480002 0.066880003 1.5960001
-0.033440001 0.066880003 1.5960001
-0.030400001 0.066880003 1.5960001
-0.027102858 0.066251434 1.5810001
-0.02409143 0.066251434 1.5810001
-0.02108 0.066251434 1.5810001
-0.018068573 0.066251434 1.5810001
-0.015057144 0.066251434 1.5810001
-0.012045715 0.066251434 1.5810001
-0.0089942859 0.065958098 1.5740001
-0.0059961905 0.065958098 1.5740001
-0.0029980952 0.065958098 1.5740001
0 0.065958098 1.5740001
0.0029980952 0.065958098 1.5740001
0.0059961905 0.065958098 1.5740001
0.0089942859 0.065958098 1.5740001
0.011992381 0.065958098 1.5740001
0.01492381 0.065664761 1.567
0.017908571 0.065664761 1.567
0.020893333 0.065664761 1.567
0.023878096 0.065664761 1.567
0.026862858 0.065664761 1.567
0.02984762 0.065664761 1.567
0.03283238 0.065664761 1.567
0.035817143 0.065664761 1.567
0.038801905 0.065664761 1.567
0.041786667 0.065664761 1.567
0.044771429 0.065664761 1.567
0.047756191 0.065664761 1.567
0.050514288 0.065371431 1.5600001
0.053485718 0.065371431 1.5600001
0.056457143 0.065371431 1.5600001
0.059428573 0.065371431 1.5600001
0.062400002 0.065371431 1.5600001
0.065371431 0.065371431 1.5600001
0.068342857 0.065371431 1.5600001
0.07131429 0.065371431 1.5600001
0.074285716 0.065371431 1.5600001
0.077257149 0.065371431 1.5600001
0.080228575 0.065371431 1.5600001
0.0832 0.065371431 1.5600001
0.086171433 0.065371431 1.5600001
0.089142859 0.065371431 1.5600001
0.092114292 0.065371431 1.5600001
0.094659053 0.065078095 1.5530001
0.098057143 0.065371431 1.5600001
0.10102858 0.065371431 1.5600001
0.104 0.065371431 1.5600001
0.10697144 0.065371431 1.5600001
0.10994286 0.065371431 1.5600001
0.11342096 0.065664761 1.567
0.11640572 0.065664761 1.567
0.13648 0.071489528 1.7060001
0.13972953 0.071489528 1.7060001
0.14440382 0.072201908 1.723
0.14768572 0.072201908 1.723
0.15894096 0.076015241 1.8140001
0.16239619 0.076015241 1.8140001
0.16676572 0.076434292 1.8240001
0.17024 0.076434292 1.8240001
0.1737143 0.076434292 1.8240001
0.19457714 0.083935238 2.003
0.19839239 0.083935238 2.003
0.20463048 0.084940955 2.0270002
0.21096 0.085946672 2.0510001
0.21486667 0.085946672 2.0510001
0.22549334 0.088586673 2.1140001
0.22952001 0.088586673 2.1140001
0.23498286 0.08913143 2.1270001
0.2390343 0.08913143 2.1270001
-0.36570859 0.071891434 1.641
-0.36258286 0.071891434 1.641
-0.35945717 0.071891434 1.641
-0.35633144 0.071891434 1.641
-0.35320574 0.071891434 1.641
-0.35178667 0.07224191 1.649
-0.34864572 0.07224191 1.649
-0.34550476 0.07224191 1.649
-0.34236383 0.07224191 1.649
-0.33757716 0.071891434 1.641
-0.33445144 0.071891434 1.641
-0.33132574 0.071891434 1.641
-0.32820001 0.071891434 1.641
-0.32665905 0.07224191 1.649
-0.3235181 0.07224191 1.649
-0.32037714 0.07224191 1.649
-0.31723621 0.07224191 1.649
-0.31409526 0.07224191 1.649
-0.30944574 0.071891434 1.641
-0.30632001 0.071891434 1.641
-0.30319428 0.071891434 1.641
-0.30006859 0.071891434 1.641
-0.29694286 0.071891434 1.641
-0.29381716 0.071891434 1.641
-0.29069144 0.071891434 1.641
-0.28756574 0.071891434 1.641
-0.28444001 0.071891434 1.641
-0.28131428 0.071891434 1.641
-0.27818859 0.071891434 1.641
-0.27506286 0.071891434 1.641
-0.27193716 0.071891434 1.641
-0.26766476 0.071584761 1.6340001
-0.26568574 0.071891434 1.641
-0.26256001 0.071891434 1.641
-0.25943428 0.071891434 1.641
-0.25630859 0.071891434 1.641
-0.25318286 0.071891434 1.641
-0.25005716 0.071891434 1.641
-0.2458781 0.071584761 1.6340001
-0.24276572 0.071584761 1.6340001
-0.23848 0.071234286 1.626
-0.23538287 0.071234286 1.626
-0.23228572 0.071234286 1.626
-0.22918858 0.071234286 1.626
-0.22609143 0.071234286 1.626
-0.2229943 0.071234286 1.626
-0.21989715 0.071234286 1.626
-0.21786667 0.071584761 1.6340001
-0.2147543 0.071584761 1.6340001
-0.21060573 0.071234286 1.626
-0.20750858 0.071234286 1.626
-0.20441143 0.071234286 1.626
-0.2013143 0.071234286 1.626
-0.19724192 0.070883811 1.618
-0.19416001 0.070883811 1.618
-0.1910781 0.070883811 1.618
-0.18799619 0.070883811 1.618
-0.18582858 0.071234286 1.626
-0.18273143 0.071234286 1.626
-0.17963429 0.071234286 1.626
-0.17653716 0.071234286 1.626
-0.17344001 0.071234286 1.626
-0.17034286 0.071234286 1.626
-0.16724572 0.071234286 1.626
-0.16414858 0.071234286 1.626
-0.16105144 0.071234286 1.626
-0.15795429 0.071234286 1.626
-0.15485714 0.071234286 1.626
-0.15176001 0.071234286 1.626
-0.14866287 0.071234286 1.626
-0.14484952 0.070883811 1.618
-0.14246857 0.071234286 1.626
-0.13937144 0.071234286 1.626
-0.13501714 0.070577145 1.6110001
-0.13129334 0.070226669 1.603
-0.12824 0.070226669 1.603
-0.12518667 0.070226669 1.603
-0.12213334 0.070226669 1.603
-0.11908001 0.070226669 1.603
-0.11602667 0.070226669 1.603
-0.11297334 0.070226669 1.603
-0.11046857 0.070577145 1.6110001
-0.10686667 0.070226669 1.603
-0.10381334 0.070226669 1.603
-0.10076001 0.070226669 1.603
-0.097706668 0.070226669 1.603
-0.09512572 0.070577145 1.6110001
-0.091600001 0.070226669 1.603
-0.088546671 0.070226669 1.603
-0.085493334 0.070226669 1.603
-0.082440004 0.070226669 1.603
-0.079386666 0.070226669 1.603
-0.076333337 0.070226669 1.603
-0.072960004 0.069920003 1.5960001
-0.069920003 0.069920003 1.5960001
-0.066880003 0.069920003 1.5960001
-0.063840002 0.069920003 1.5960001
-0.060800001 0.069920003 1.5960001
-0.057760004 0.069920003 1.5960001
-0.054720003 0.069920003 1.5960001
-0.051680002 0.069920003 1.5960001
-0.048640002 0.069920003 1.5960001
-0.045600001 0.069920003 1.5960001
-0.04256 0.069920003 1.5960001
-0.039346669 0.069613338 1.5890001
-0.036320001 0.069613338 1.5890001
-0.033293333 0.069613338 1.5890001
-0.030266669 0.069613338 1.5890001
-0.027102858 0.069262862 1.5810001
-0.02409143 0.069262862 1.5810001
-0.020986667 0.068956196 1.5740001
-0.017988572 0.068956196 1.5740001
-0.015057144 0.069262862 1.5810001
-0.011992381 0.068956196 1.5740001
-0.0089942859 0.068956196 1.5740001
-0.0059961905 0.068956196 1.5740001
-0.0029980952 0.068956196 1.5740001
0 0.068956196 1.5740001
0.0029980952 0.068956196 1.5740001
0.0059961905 0.068956196 1.5740001
0.0089542856 0.068649523 1.567
0.011939048 0.068649523 1.567
0.01492381 0.068649523 1.567
0.017908571 0.068649523 1.567
0.020893333 0.068649523 1.567
0.023878096 0.068649523 1.567
0.026862858 0.068649523 1.567
0.02984762 0.068649523 1.567
0.03283238 0.068649523 1.567
0.035817143 0.068649523 1.567
0.038801905 0.068649523 1.567
0.041786667 0.068649523 1.567
0.044771429 0.068649523 1.567
0.047542859 0.068342857 1.5600001
0.050514288 0.068342857 1.5600001
0.053485718 0.068342857 1.5600001
0.056457143 0.068342857 1.5600001
0.059428573 0.068342857 1.5600001
0.062400002 0.068342857 1.5600001
0.065371431 0.068342857 1.5600001
0.068342857 0.068342857 1.5600001
0.07131429 0.068342857 1.5600001
0.074285716 0.068342857 1.5600001
0.077257149 0.068342857 1.5600001
0.080228575 0.068342857 1.5600001
0.0832 0.068342857 1.5600001
0.086171433 0.068342857 1.5600001
0.089142859 0.068342857 1.5600001
0.091700956 0.068036191 1.5530001
0.094659053 0.068036191 1.5530001
0.097617149 0.068036191 1.5530001
0.10057524 0.068036191 1.5530001
0.10353334 0.068036191 1.5530001
0.10697144 0.068342857 1.5600001
0.10994286 0.068342857 1.5600001
0.11342096 0.068649523 1.567
0.11640572 0.068649523 1.567
0.11939048 0.068649523 1.567
0.13323048 0.074739054 1.7060001
0.13648 0.074739054 1.7060001
0.13972953 0.074739054 1.7060001
0.1451581 0.075878099 1.7320001
0.14845715 0.075878099 1.7320001
0.15648763 0.078243814 1.7860001
0.16409715 0.080302857 1.8330001
0.16758858 0.080302857 1.8330001
0.17108001 0.080302857 1.8330001
0.17457144 0.080302857 1.8330001
0.19457714 0.08775048 2.003
0.19839239 0.08775048 2.003
0.20463048 0.088801906 2.0270002
0.20972572 0.089327626 2.039
0.21486667 0.089853339 2.0510001
0.22410667 0.09204381 2.1010001
0.22810858 0.09204381 2.1010001
0.23354667 0.092613339 2.1140001
0.23757334 0.092613339 2.1140001
-0.36883429 0.075017147 1.641
-0.36570859 0.075017147 1.641
-0.36258286 0.075017147 1.641
-0.35945717 0.075017147 1.641
-0.35633144 0.075017147 1.641
-0.35320574 0.075017147 1.641
-0.35178667 0.075382859 1.649
-0.34695429 0.075017147 1.641
-0.34550476 0.075382859 1.649
-0.34070286 0.075017147 1.641
-0.33757716 0.075017147 1.641
-0.33445144 0.075017147 1.641
-0.33132574 0.075017147 1.641
-0.32820001 0.075017147 1.641
-0.32507429 0.075017147 1.641
-0.32194859 0.075017147 1.641
-0.31882286 0.075017147 1.641
-0.31569716 0.075017147 1.641
-0.31257144 0.075017147 1.641
-0.30944574 0.075017147 1.641
-0.30632001 0.075017147 1.641
-0.30319428 0.075017147 1.641
-0.30006859 0.075017147 1.641
-0.29694286 0.075017147 1.641
-0.29381716 0.075017147 1.641
-0.29069144 0.075017147 1.641
-0.28756574 0.075017147 1.641
-0.28444001 0.075017147 1.641
-0.28131428 0.075017147 1.641
-0.27818859 0.075017147 1.641
-0.27506286 0.075017147 1.641
-0.27193716 0.075017147 1.641
-0.26766476 0.074697144 1.6340001
-0.26455238 0.074697144 1.6340001
-0.26144001 0.074697144 1.6340001
-0.25943428 0.075017147 1.641
-0.25521526 0.074697144 1.6340001
-0.25318286 0.075017147 1.641
-0.24899049 0.074697144 1.6340001
-0.2458781 0.074697144 1.6340001
-0.24276572 0.074697144 1.6340001
-0.23848 0.074331433 1.626
-0.23538287 0.074331433 1.626
-0.23228572 0.074331433 1.626
-0.22918858 0.074331433 1.626
-0.22609143 0.074331433 1.626
-0.2229943 0.074331433 1.626
-0.22097905 0.074697144 1.6340001
-0.21786667 0.074697144 1.6340001
-0.2147543 0.074697144 1.6340001
-0.21164191 0.074697144 1.6340001
-0.20750858 0.074331433 1.626
-0.20441143 0.074331433 1.626
-0.2013143 0.074331433 1.626
-0.19724192 0.073965713 1.618
-0.19416001 0.073965713 1.618
-0.1910781 0.073965713 1.618
-0.18799619 0.073965713 1.618
-0.18491429 0.073965713 1.618
-0.18183239 0.073965713 1.618
-0.17875049 0.073965713 1.618
-0.17566858 0.073965713 1.618
-0.17258668 0.073965713 1.618
-0.16950476 0.073965713 1.618
-0.16724572 0.074331433 1.626
-0.16414858 0.074331433 1.626
-0.16025905 0.073965713 1.618
-0.15795429 0.074331433 1.626
-0.15409525 0.073965713 1.618
-0.15176001 0.074331433 1.626
-0.14793143 0.073965713 1.618
-0.14484952 0.073965713 1.618
-0.14176762 0.073965713 1.618
-0.13868572 0.073965713 1.618
-0.13501714 0.073645718 1.6110001
-0.13129334 0.073279999 1.603
-0.12824 0.073279999 1.603
-0.12518667 0.073279999 1.603
-0.12213334 0.073279999 1.603
-0.11908001 0.073279999 1.603
-0.11602667 0.073279999 1.603
-0.11297334 0.073279999 1.603
-0.10992 0.073279999 1.603
-0.10686667 0.073279999 1.603
-0.10381334 0.073279999 1.603
-0.10076001 0.073279999 1.603
-0.097706668 0.073279999 1.603
-0.094653338 0.073279999 1.603
-0.091600001 0.073279999 1.603
-0.088546671 0.073279999 1.603
-0.085493334 0.073279999 1.603
-0.082440004 0.073279999 1.603
-0.079386666 0.073279999 1.603
-0.076000005 0.072960004 1.5960001
-0.072960004 0.072960004 1.5960001
-0.069920003 0.072960004 1.5960001
-0.066880003 0.072960004 1.5960001
-0.063560002 0.072640002 1.5890001
-0.060533337 0.072640002 1.5890001
-0.057506669 0.072640002 1.5890001
-0.054720003 0.072960004 1.5960001
-0.051680002 0.072960004 1.5960001
-0.048640002 0.072960004 1.5960001
-0.045600001 0.072960004 1.5960001
-0.042373333 0.072640002 1.5890001
-0.039346669 0.072640002 1.5890001
-0.036320001 0.072640002 1.5890001
-0.033293333 0.072640002 1.5890001
-0.030114288 0.07227429 1.5810001
-0.026982859 0.071954288 1.5740001
-0.023984762 0.071954288 1.5740001
-0.020986667 0.071954288 1.5740001
-0.017988572 0.071954288 1.5740001
-0.014990477 0.071954288 1.5740001
-0.011992381 0.071954288 1.5740001
-0.0089542856 0.071634285 1.567
-0.0059695239 0.071634285 1.567
-0.002984762 0.071634285 1.567
0 0.071634285 1.567
0.002984762 0.071634285 1.567
0.0059695239 0.071634285 1.567
0.0089542856 0.071634285 1.567
0.011939048 0.071634285 1.567
0.01492381 0.071634285 1.567
0.017908571 0.071634285 1.567
0.020893333 0.071634285 1.567
0.023878096 0.071634285 1.567
0.026862858 0.071634285 1.567
0.02984762 0.071634285 1.567
0.03283238 0.071634285 1.567
0.035817143 0.071634285 1.567
0.038628574 0.07131429 1.5600001
0.041786667 0.071634285 1.567
0.044571429 0.07131429 1.5600001
0.047542859 0.07131429 1.5600001
0.050514288 0.07131429 1.5600001
0.053485718 0.07131429 1.5600001
0.056457143 0.07131429 1.5600001
0.059428573 0.07131429 1.5600001
0.062400002 0.07131429 1.5600001
0.065371431 0.07131429 1.5600001
0.068342857 0.07131429 1.5600001
0.07131429 0.07131429 1.5600001
0.074285716 0.07131429 1.5600001
0.077257149 0.07131429 1.5600001
0.080228575 0.07131429 1.5600001
0.0832 0.07131429 1.5600001
0.086171433 0.07131429 1.5600001
0.08874286 0.070994288 1.5530001
0.091700956 0.070994288 1.5530001
0.094659053 0.070994288 1.5530001
0.097617149 0.070994288 1.5530001
0.10012191 0.070674285 1.5460001
0.10306667 0.070674285 1.5460001
0.10649143 0.070994288 1.5530001
0.10944953 0.070994288 1.5530001
0.11291429 0.07131429 1.5600001
0.11588572 0.07131429 1.5600001
0.11885715 0.07131429 1.5600001
0.13393334 0.078400001 1.715
0.1372 0.078400001 1.715
0.14112191 0.07876572 1.723
0.14666668 0.080000006 1.7500001
0.15077144 0.080411434 1.7590001
0.15648763 0.08164572 1.7860001
0.16329144 0.08338286 1.8240001
0.16758858 0.083794288 1.8330001
0.17201334 0.084251434 1.8430001
0.17552382 0.084251434 1.8430001
0.1980743 0.093211435 2.039
0.2019581 0.093211435 2.039
0.20705333 0.093760006 2.0510001
0.21096 0.093760006 2.0510001
0.21486667 0.093760006 2.0510001
0.22272001 0.095451429 2.0880001
0.22669715 0.095451429 2.0880001
0.23211049 0.096045718 2.1010001
0.23611239 0.096045718 2.1010001
-0.37063238 0.078523815 1.649
-0.36570859 0.078142859 1.641
-0.36258286 0.078142859 1.641
-0.35945717 0.078142859 1.641
-0.35633144 0.078142859 1.641
-0.35320574 0.078142859 1.641
-0.35178667 0.078523815 1.649
-0.34864572 0.078523815 1.649
-0.34550476 0.078523815 1.649
-0.34236383 0.078523815 1.649
-0.33757716 0.078142859 1.641
-0.33445144 0.078142859 1.641
-0.33132574 0.078142859 1.641
-0.32820001 0.078142859 1.641
-0.32507429 0.078142859 1.641
-0.32194859 0.078142859 1.641
-0.31882286 0.078142859 1.641
-0.31569716 0.078142859 1.641
-0.31257144 0.078142859 1.641
-0.30944574 0.078142859 1.641
-0.30632001 0.078142859 1.641
-0.30319428 0.078142859 1.641
-0.30006859 0.078142859 1.641
-0.29694286 0.078142859 1.641
-0.29381716 0.078142859 1.641
-0.29069144 0.078142859 1.641
-0.28756574 0.078142859 1.641
-0.28444001 0.078142859 1.641
-0.28131428 0.078142859 1.641
-0.27818859 0.078142859 1.641
-0.27388954 0.077809528 1.6340001
-0.27077717 0.077809528 1.6340001
-0.26766476 0.077809528 1.6340001
-0.26455238 0.077809528 1.6340001
-0.26144001 0.077809528 1.6340001
-0.25832763 0.077809528 1.6340001
-0.25521526 0.077809528 1.6340001
-0.25210285 0.077809528 1.6340001
-0.24899049 0.077809528 1.6340001
-0.2458781 0.077809528 1.6340001
-0.24276572 0.077809528 1.6340001
-0.23848 0.077428572 1.626
-0.23538287 0.077428572 1.626
-0.23228572 0.077428572 1.626
-0.22918858 0.077428572 1.626
-0.22609143 0.077428572 1.626
-0.2229943 0.077428572 1.626
-0.22097905 0.077809528 1.6340001
-0.21786667 0.077809528 1.6340001
-0.2147543 0.077809528 1.6340001
-0.21164191 0.077809528 1.6340001
-0.20750858 0.077428572 1.626
-0.20441143 0.077428572 1.626
-0.2013143 0.077428572 1.626
-0.19724192 0.077047624 1.618
-0.19416001 0.077047624 1.618
-0.1910781 0.077047624 1.618
-0.18799619 0.077047624 1.618
-0.18491429 0.077047624 1.618
-0.18183239 0.077047624 1.618
-0.17875049 0.077047624 1.618
-0.17566858 0.077047624 1.618
-0.17258668 0.077047624 1.618
-0.16950476 0.077047624 1.618
-0.16642286 0.077047624 1.618
-0.16334096 0.077047624 1.618
-0.16025905 0.077047624 1.618
-0.15717715 0.077047624 1.618
-0.15409525 0.077047624 1.618
-0.15101334 0.077047624 1.618
-0.14793143 0.077047624 1.618
-0.14484952 0.077047624 1.618
-0.14176762 0.077047624 1.618
-0.13868572 0.077047624 1.618
-0.13501714 0.076714292 1.6110001
-0.13129334 0.076333337 1.603
-0.12824 0.076333337 1.603
-0.12518667 0.076333337 1.603
-0.12213334 0.076333337 1.603
-0.11908001 0.076333337 1.603
-0.11602667 0.076333337 1.603
-0.11353715 0.076714292 1.6110001
-0.10992 0.076333337 1.603
-0.10686667 0.076333337 1.603
-0.10381334 0.076333337 1.603
-0.10076001 0.076333337 1.603
-0.097706668 0.076333337 1.603
-0.094653338 0.076333337 1.603
-0.091600001 0.076333337 1.603
-0.088546671 0.076333337 1.603
-0.085493334 0.076333337 1.603
-0.082440004 0.076333337 1.603
-0.079386666 0.076333337 1.603
-0.076000005 0.076000005 1.5960001
-0.072960004 0.076000005 1.5960001
-0.069920003 0.076000005 1.5960001
-0.066880003 0.076000005 1.5960001
-0.063560002 0.075666666 1.5890001
-0.060533337 0.075666666 1.5890001
-0.057506669 0.075666666 1.5890001
-0.054720003 0.076000005 1.5960001
-0.051680002 0.076000005 1.5960001
-0.048640002 0.076000005 1.5960001
-0.045600001 0.076000005 1.5960001
-0.042373333 0.075666666 1.5890001
-0.039346669 0.075666666 1.5890001
-0.036137145 0.075285718 1.5810001
-0.033125717 0.075285718 1.5810001
-0.030114288 0.075285718 1.5810001
-0.026982859 0.074952386 1.5740001
-0.023984762 0.074952386 1.5740001
-0.020986667 0.074952386 1.5740001
-0.017988572 0.074952386 1.5740001
-0.014990477 0.074952386 1.5740001
-0.011939048 0.074619047 1.567
-0.0089542856 0.074619047 1.567
-0.0059695239 0.074619047 1.567
-0.002984762 0.074619047 1.567
0 0.074285716 1.5600001
0.002984762 0.074619047 1.567
0.0059695239 0.074619047 1.567
0.0089542856 0.074619047 1.567
0.011939048 0.074619047 1.567
0.01492381 0.074619047 1.567
0.017908571 0.074619047 1.567
0.020893333 0.074619047 1.567
0.023878096 0.074619047 1.567
0.026862858 0.074619047 1.567
0.02984762 0.074619047 1.567
0.03283238 0.074619047 1.567
0.035817143 0.074619047 1.567
0.038801905 0.074619047 1.567
0.041786667 0.074619047 1.567
0.044771429 0.074619047 1.567
0.047542859 0.074285716 1.5600001
0.050514288 0.074285716 1.5600001
0.053485718 0.074285716 1.5600001
0.056203812 0.073952384 1.5530001
0.059428573 0.074285716 1.5600001
0.062400002 0.074285716 1.5600001
0.065371431 0.074285716 1.5600001
0.068342857 0.074285716 1.5600001
0.07131429 0.074285716 1.5600001
0.074285716 0.074285716 1.5600001
0.077257149 0.074285716 1.5600001
0.080228575 0.074285716 1.5600001
0.0832 0.074285716 1.5600001
0.086171433 0.074285716 1.5600001
0.08874286 0.073952384 1.5530001
0.091700956 0.073952384 1.5530001
0.094659053 0.073952384 1.5530001
0.097617149 0.073952384 1.5530001
0.10012191 0.073619053 1.5460001
0.10353334 0.073952384 1.5530001
0.10649143 0.073952384 1.5530001
0.10944953 0.073952384 1.5530001
0.11240762 0.073952384 1.5530001
0.12554286 0.080476195 1.6900001
0.1287619 0.080476195 1.6900001
0.13323048 0.081238098 1.7060001
0.13648 0.081238098 1.7060001
0.14046668 0.081666671 1.715
0.14373334 0.081666671 1.715
0.15077144 0.083761908 1.7590001
0.15412191 0.083761908 1.7590001
0.16499239 0.087761909 1.8430001
0.16850287 0.087761909 1.8430001
0.17388001 0.088714287 1.863
0.18133333 0.090666667 1.904
0.18496001 0.090666667 1.904
0.2019581 0.097095244 2.039
0.20705333 0.097666673 2.0510001
0.20972572 0.097095244 2.039
0.21486667 0.097666673 2.0510001
0.22272001 0.099428572 2.0880001
0.22669715 0.099428572 2.0880001
0.2306743 0.099428572 2.0880001
0.23611239 0.10004763 2.1010001
-0.37063238 0.081664763 1.649
-0.36570859 0.081268571 1.641
-0.36258286 0.081268571 1.641
-0.35945717 0.081268571 1.641
-0.35633144 0.081268571 1.641
-0.35320574 0.081268571 1.641
-0.35008001 0.081268571 1.641
-0.34695429 0.081268571 1.641
-0.34550476 0.081664763 1.649
-0.34236383 0.081664763 1.649
-0.33757716 0.081268571 1.641
-0.33445144 0.081268571 1.641
-0.33132574 0.081268571 1.641
-0.32820001 0.081268571 1.641
-0.32507429 0.081268571 1.641
-0.32194859 0.081268571 1.641
-0.31882286 0.081268571 1.641
-0.31435049 0.080921911 1.6340001
-0.31123811 0.080921911 1.6340001
-0.30812573 0.080921911 1.6340001
-0.30632001 0.081268571 1.641
-0.30319428 0.081268571 1.641
-0.30006859 0.081268571 1.641
-0.2956762 0.080921911 1.6340001
-0.29381716 0.081268571 1.641
-0.29069144 0.081268571 1.641
-0.28756574 0.081268571 1.641
-0.28444001 0.081268571 1.641
-0.28131428 0.081268571 1.641
-0.27818859 0.081268571 1.641
-0.27388954 0.080921911 1.6340001
-0.27193716 0.081268571 1.641
-0.26766476 0.080921911 1.6340001
-0.26455238 0.080921911 1.6340001
-0.26144001 0.080921911 1.6340001
-0.25832763 0.080921911 1.6340001
-0.25521526 0.080921911 1.6340001
-0.25210285 0.080921911 1.6340001
-0.24899049 0.080921911 1.6340001
-0.2446743 0.080525719 1.626
-0.24276572 0.080921911 1.6340001
-0.23848 0.080525719 1.626
-0.23538287 0.080525719 1.626
-0.23228572 0.080525719 1.626
-0.22918858 0.080525719 1.626
-0.22609143 0.080525719 1.626
-0.2229943 0.080525719 1.626
-0.22097905 0.080921911 1.6340001
-0.21786667 0.080921911 1.6340001
-0.2147543 0.080921911 1.6340001
-0.21164191 0.080921911 1.6340001
-0.20852953 0.080921911 1.6340001
-0.20441143 0.080525719 1.626
-0.2013143 0.080525719 1.626
-0.19724192 0.080129527 1.618
-0.19416001 0.080129527 1.618
-0.1910781 0.080129527 1.618
-0.18799619 0.080129527 1.618
-0.18491429 0.080129527 1.618
-0.18183239 0.080129527 1.618
-0.17875049 0.080129527 1.618
-0.17653716 0.080525719 1.626
-0.17344001 0.080525719 1.626
-0.17034286 0.080525719 1.626
-0.16724572 0.080525719 1.626
-0.16334096 0.080129527 1.618
-0.16025905 0.080129527 1.618
-0.15717715 0.080129527 1.618
-0.15409525 0.080129527 1.618
-0.15101334 0.080129527 1.618
-0.14793143 0.080129527 1.618
-0.14484952 0.080129527 1.618
-0.14176762 0.080129527 1.618
-0.13868572 0.080129527 1.618
-0.13560382 0.080129527 1.618
-0.14112191 0.085329525 1.723
-0.13784 0.085329525 1.723
-0.1345581 0.085329525 1.723
-0.12274286 0.079782858 1.6110001
-0.11967429 0.079782858 1.6110001
-0.11660572 0.079782858 1.6110001
-0.11353715 0.079782858 1.6110001
-0.11046857 0.079782858 1.6110001
-0.10740001 0.079782858 1.6110001
-0.10381334 0.079386666 1.603
-0.10076001 0.079386666 1.603
-0.097706668 0.079386666 1.603
-0.094653338 0.079386666 1.603
-0.091600001 0.079386666 1.603
-0.088546671 0.079386666 1.603
-0.085493334 0.079386666 1.603
-0.082440004 0.079386666 1.603
-0.079386666 0.079386666 1.603
-0.076000005 0.079040006 1.5960001
-0.072960004 0.079040006 1.5960001
-0.069613338 0.078693338 1.5890001
-0.072201908 0.085329525 1.723
-0.069280006 0.085775241 1.7320001
-0.065980956 0.085775241 1.7320001
-0.057506669 0.078693338 1.5890001
-0.054480001 0.078693338 1.5890001
-0.051453337 0.078693338 1.5890001
-0.048640002 0.079040006 1.5960001
-0.045400001 0.078693338 1.5890001
-0.042373333 0.078693338 1.5890001
-0.039148573 0.078297146 1.5810001
-0.036137145 0.078297146 1.5810001
-0.033125717 0.078297146 1.5810001
-0.030114288 0.078297146 1.5810001
-0.026982859 0.077950478 1.5740001
-0.023984762 0.077950478 1.5740001
-0.020893333 0.07760381 1.567
-0.017988572 0.077950478 1.5740001
-0.014990477 0.077950478 1.5740001
-0.011939048 0.07760381 1.567
-0.0089542856 0.07760381 1.567
-0.0059695239 0.07760381 1.567
-0.0029714287 0.077257149 1.5600001
0 0.077257149 1.5600001
0.0029714287 0.077257149 1.5600001
0.0059695239 0.07760381 1.567
0.0089142863 0.077257149 1.5600001
0.011885715 0.077257149 1.5600001
0.014857143 0.077257149 1.5600001
0.017828573 0.077257149 1.5600001
0.020893333 0.07760381 1.567
0.023878096 0.07760381 1.567
0.026742859 0.077257149 1.5600001
0.02984762 0.07760381 1.567
0.03283238 0.07760381 1.567
0.035817143 0.07760381 1.567
0.038801905 0.07760381 1.567
0.041786667 0.07760381 1.567
0.044771429 0.07760381 1.567
0.047756191 0.07760381 1.567
0.050514288 0.077257149 1.5600001
0.053485718 0.077257149 1.5600001
0.056457143 0.077257149 1.5600001
0.059428573 0.077257149 1.5600001
0.062400002 0.077257149 1.5600001
0.065371431 0.077257149 1.5600001
0.068342857 0.077257149 1.5600001
0.07131429 0.077257149 1.5600001
0.074285716 0.077257149 1.5600001
0.077257149 0.077257149 1.5600001
0.080228575 0.077257149 1.5600001
0.0832 0.077257149 1.5600001
0.086171433 0.077257149 1.5600001
0.089142859 0.077257149 1.5600001
0.092114292 0.077257149 1.5600001
0.094659053 0.076910481 1.5530001
0.097617149 0.076910481 1.5530001
0.10782857 0.082457148 1.6650001
0.111 0.082457148 1.6650001
0.11417143 0.082457148 1.6650001
0.11677905 0.082060955 1.6570001
0.11993524 0.082060955 1.6570001
0.12487429 0.083249524 1.6810001
0.1287619 0.08369524 1.6900001
0.13323048 0.084487624 1.7060001
0.13648 0.084487624 1.7060001
0.13972953 0.084487624 1.7060001
0.14297906 0.084487624 1.7060001
0.15000001 0.086666673 1.7500001
0.15333334 0.086666673 1.7500001
0.16499239 0.091272384 1.8430001
0.16850287 0.091272384 1.8430001
0.17873333 0.094838098 1.9150001
0.18238096 0.094838098 1.9150001
0.18602858 0.094838098 1.9150001
0.19839239 0.099196196 2.003
0.20109715 0.098651432 1.9920001
0.21096 0.10157334 2.0510001
0.21612382 0.10216762 2.0630002
0.22272001 0.10340572 2.0880001
0.22669715 0.10340572 2.0880001
0.2306743 0.10340572 2.0880001
-0.36570859 0.084394291 1.641
-0.36258286 0.084394291 1.641
-0.35945717 0.084394291 1.641
-0.35633144 0.084394291 1.641
-0.35320574 0.084394291 1.641
-0.35008001 0.084394291 1.641
-0.34695429 0.084394291 1.641
-0.34550476 0.08480572 1.649
-0.34070286 0.084394291 1.641
-0.33757716 0.084394291 1.641
-0.33445144 0.084394291 1.641
-0.33132574 0.084394291 1.641
-0.32820001 0.084394291 1.641
-0.32507429 0.084394291 1.641
-0.32057524 0.084034286 1.6340001
-0.31882286 0.084394291 1.641
-0.31435049 0.084034286 1.6340001
-0.30971429 0.083622858 1.626
-0.30661714 0.083622858 1.626
-0.30501336 0.084034286 1.6340001
-0.30190095 0.084034286 1.6340001
-0.29878858 0.084034286 1.6340001
-0.31829524 0.090462863 1.7590001
-0.31494477 0.090462863 1.7590001
-0.31318858 0.090925716 1.7680001
-0.28633904 0.084034286 1.6340001
-0.28444001 0.084394291 1.641
-0.28131428 0.084394291 1.641
-0.27818859 0.084394291 1.641
-0.27388954 0.084034286 1.6340001
-0.27193716 0.084394291 1.641
-0.26766476 0.084034286 1.6340001
-0.26568574 0.084394291 1.641
-0.26256001 0.084394291 1.641
-0.25943428 0.084394291 1.641
-0.27052191 0.089074291 1.7320001
-0.26861143 0.089537144 1.7410001
-0.26392382 0.089074291 1.7320001
-0.26062477 0.089074291 1.7320001
-0.24157715 0.083622858 1.626
-0.23848 0.083622858 1.626
-0.23538287 0.083622858 1.626
-0.23228572 0.083622858 1.626
-0.22918858 0.083622858 1.626
-0.22609143 0.083622858 1.626
-0.2229943 0.083622858 1.626
-0.21989715 0.083622858 1.626
-0.23333335 0.090000004 1.7500001
-0.2276343 0.089074291 1.7320001
-0.22433525 0.089074291 1.7320001
-0.2210362 0.089074291 1.7320001
-0.21773715 0.089074291 1.7320001
-0.2144381 0.089074291 1.7320001
-0.21004191 0.088611431 1.723
-0.20676 0.088611431 1.723
-0.2034781 0.088611431 1.723
-0.20124191 0.089074291 1.7320001
-0.19794287 0.089074291 1.7320001
-0.19565524 0.089537144 1.7410001
-0.19233905 0.089537144 1.7410001
-0.19000001 0.090000004 1.7500001
-0.18666667 0.090000004 1.7500001
-0.18333334 0.090000004 1.7500001
-0.18000001 0.090000004 1.7500001
-0.17575811 0.089537144 1.7410001
-0.17244191 0.089537144 1.7410001
-0.16912572 0.089537144 1.7410001
-0.16495238 0.089074291 1.7320001
-0.16165334 0.089074291 1.7320001
-0.15753144 0.088611431 1.723
-0.15424953 0.088611431 1.723
-0.15096763 0.088611431 1.723
-0.14768572 0.088611431 1.723
-0.14440382 0.088611431 1.723
-0.14112191 0.088611431 1.723
-0.13784 0.088611431 1.723
-0.13526095 0.089074291 1.7320001
-0.13196191 0.089074291 1.7320001
-0.12866285 0.089074291 1.7320001
-0.12536381 0.089074291 1.7320001
-0.12206477 0.089074291 1.7320001
-0.11876572 0.089074291 1.7320001
-0.11546667 0.089074291 1.7320001
-0.11216763 0.089074291 1.7320001
-0.10886858 0.089074291 1.7320001
-0.10502096 0.088611431 1.723
-0.10227048 0.089074291 1.7320001
-0.09845715 0.088611431 1.723
-0.095672384 0.089074291 1.7320001
-0.091893338 0.088611431 1.723
-0.088611431 0.088611431 1.723
-0.085329525 0.088611431 1.723
-0.082047619 0.088611431 1.723
-0.07876572 0.088611431 1.723
-0.075133339 0.088200003 1.715
-0.071866669 0.088200003 1.715
-0.068599999 0.088200003 1.715
-0.065638095 0.088611431 1.723
-0.062356193 0.088611431 1.723
-0.059074286 0.088611431 1.723
-0.055792384 0.088611431 1.723
-0.052510478 0.088611431 1.723
-0.049228575 0.088611431 1.723
-0.042373333 0.081720002 1.5890001
-0.039346669 0.081720002 1.5890001
-0.03938286 0.088611431 1.723
-0.035933334 0.088200003 1.715
-0.032990478 0.089074291 1.7320001
-0.0294 0.088200003 1.715
-0.026133334 0.088200003 1.715
-0.022746667 0.087737143 1.7060001
-0.019497143 0.087737143 1.7060001
-0.016333334 0.088200003 1.715
-0.013127619 0.088611431 1.723
-0.0098000001 0.088200003 1.715
-0.0064990479 0.087737143 1.7060001
-0.0032495239 0.087737143 1.7060001
0 0.079868577 1.5530001
0.0032342859 0.087325715 1.6980001
0.0064380956 0.086914286 1.6900001
0.0096571436 0.086914286 1.6900001
0.01280762 0.086451434 1.6810001
0.016009524 0.086451434 1.6810001
0.019314287 0.086914286 1.6900001
0.020893333 0.080588572 1.567
0.023878096 0.080588572 1.567
0.026742859 0.080228575 1.5600001
0.02984762 0.080588572 1.567
0.03283238 0.080588572 1.567
0.035817143 0.080588572 1.567
0.038628574 0.080228575 1.5600001
0.0416 0.080228575 1.5600001
0.048285715 0.086914286 1.6900001
0.051504765 0.086914286 1.6900001
0.05472381 0.086914286 1.6900001
0.05794286 0.086914286 1.6900001
0.061161906 0.086914286 1.6900001
0.064380951 0.086914286 1.6900001
0.06724 0.086451434 1.6810001
0.07081905 0.086914286 1.6900001
0.074038096 0.086914286 1.6900001
0.07684572 0.086451434 1.6810001
0.080047622 0.086451434 1.6810001
0.083249524 0.086451434 1.6810001
0.086451434 0.086451434 1.6810001
0.089653336 0.086451434 1.6810001
0.092855245 0.086451434 1.6810001
0.096057147 0.086451434 1.6810001
0.099259049 0.086451434 1.6810001
0.10246096 0.086451434 1.6810001
0.10465714 0.085628577 1.6650001
0.10782857 0.085628577 1.6650001
0.111 0.085628577 1.6650001
0.11417143 0.085628577 1.6650001
0.11734286 0.085628577 1.6650001
0.12051429 0.085628577 1.6650001
0.12368572 0.085628577 1.6650001
0.12746668 0.086040005 1.6730001
0.1312781 0.086451434 1.6810001
0.13520001 0.086914286 1.6900001
0.1390743 0.087325715 1.6980001
0.14230858 0.087325715 1.6980001
0.15077144 0.090462863 1.7590001
0.15412191 0.090462863 1.7590001
0.17873333 0.098485716 1.9150001
0.18238096 0.098485716 1.9150001
0.18602858 0.098485716 1.9150001
0.2019581 0.10486286 2.039
0.20584191 0.10486286 2.039
0.21219429 0.10609715 2.0630002
0.21612382 0.10609715 2.0630002
0.22272001 0.10738286 2.0880001
0.22669715 0.10738286 2.0880001
-0.36258286 0.087520003 1.641
-0.35945717 0.087520003 1.641
-0.35633144 0.087520003 1.641
-0.35320574 0.087520003 1.641
-0.35008001 0.087520003 1.641
-0.34695429 0.087520003 1.641
-0.34550476 0.087946668 1.649
-0.34070286 0.087520003 1.641
-0.33757716 0.087520003 1.641
-0.33445144 0.087520003 1.641
-0.33132574 0.087520003 1.641
-0.32820001 0.087520003 1.641
-0.32507429 0.087520003 1.641
-0.32057524 0.08714667 1.6340001
-0.31882286 0.087520003 1.641
-0.3383981 0.093813337 1.7590001
-0.33504763 0.093813337 1.7590001
-0.33169717 0.093813337 1.7590001
-0.32834667 0.093813337 1.7590001
-0.3249962 0.093813337 1.7590001
-0.32164574 0.093813337 1.7590001
-0.31829524 0.093813337 1.7590001
-0.31494477 0.093813337 1.7590001
-0.31159431 0.093813337 1.7590001
-0.30824381 0.093813337 1.7590001
-0.30333334 0.093333334 1.7500001
-0.30000001 0.093333334 1.7500001
-0.29666668 0.093333334 1.7500001
-0.29333335 0.093333334 1.7500001
-0.29000002 0.093333334 1.7500001
-0.28666669 0.093333334 1.7500001
-0.28041905 0.092373334 1.7320001
-0.27712002 0.092373334 1.7320001
-0.27382097 0.092373334 1.7320001
-0.27052191 0.092373334 1.7320001
-0.26861143 0.092853338 1.7410001
-0.26392382 0.092373334 1.7320001
-0.26062477 0.092373334 1.7320001
-0.25866288 0.092853338 1.7410001
-0.25534669 0.092853338 1.7410001
-0.25203049 0.092853338 1.7410001
-0.25 0.093333334 1.7500001
-0.24793525 0.093813337 1.7590001
-0.24458477 0.093813337 1.7590001
-0.24123429 0.093813337 1.7590001
-0.23788382 0.093813337 1.7590001
-0.23333335 0.093333334 1.7500001
-0.22881715 0.092853338 1.7410001
-0.22433525 0.092373334 1.7320001
-0.2210362 0.092373334 1.7320001
-0.21773715 0.092373334 1.7320001
-0.2144381 0.092373334 1.7320001
-0.21113905 0.092373334 1.7320001
-0.20676 0.091893338 1.723
-0.2034781 0.091893338 1.723
-0.20124191 0.092373334 1.7320001
-0.19794287 0.092373334 1.7320001
-0.19565524 0.092853338 1.7410001
-0.19233905 0.092853338 1.7410001
-0.19000001 0.093333334 1.7500001
-0.18666667 0.093333334 1.7500001
-0.18427619 0.093813337 1.7590001
-0.18000001 0.093333334 1.7500001
-0.17575811 0.092853338 1.7410001
-0.17244191 0.092853338 1.7410001
-0.16912572 0.092853338 1.7410001
-0.16495238 0.092373334 1.7320001
-0.16165334 0.092373334 1.7320001
-0.15753144 0.091893338 1.723
-0.15424953 0.091893338 1.723
-0.15096763 0.091893338 1.723
-0.14768572 0.091893338 1.723
-0.14440382 0.091893338 1.723
-0.14112191 0.091893338 1.723
-0.13784 0.091893338 1.723
-0.13526095 0.092373334 1.7320001
-0.13196191 0.092373334 1.7320001
-0.12866285 0.092373334 1.7320001
-0.12536381 0.092373334 1.7320001
-0.12206477 0.092373334 1.7320001
-0.11876572 0.092373334 1.7320001
-0.11546667 0.092373334 1.7320001
-0.11158477 0.091893338 1.723
-0.10830286 0.091893338 1.723
-0.10502096 0.091893338 1.723
-0.10173905 0.091893338 1.723
-0.09845715 0.091893338 1.723
-0.095175244 0.091893338 1.723
-0.091893338 0.091893338 1.723
-0.088611431 0.091893338 1.723
-0.085329525 0.091893338 1.723
-0.082047619 0.091893338 1.723
-0.078400001 0.091466673 1.715
-0.075133339 0.091466673 1.715
-0.071866669 0.091466673 1.715
-0.068599999 0.091466673 1.715
-0.065333337 0.091466673 1.715
-0.062066671 0.091466673 1.715
-0.059074286 0.091893338 1.723
-0.055792384 0.091893338 1.723
-0.052510478 0.091893338 1.723
-0.049228575 0.091893338 1.723
-0.045946669 0.091893338 1.723
-0.042664763 0.091893338 1.723
-0.03938286 0.091893338 1.723
-0.035933334 0.091466673 1.715
-0.032819048 0.091893338 1.723
-0.029245716 0.090986669 1.7060001
-0.025996191 0.090986669 1.7060001
-0.022640001 0.090560004 1.6980001
-0.019405715 0.090560004 1.6980001
-0.016171429 0.090560004 1.6980001
-0.012998096 0.090986669 1.7060001
-0.0097028576 0.090560004 1.6980001
-0.0064685717 0.090560004 1.6980001
-0.0032342859 0.090560004 1.6980001
0 0.090560004 1.6980001
0.0032190478 0.090133339 1.6900001
0.0064380956 0.090133339 1.6900001
0.0096571436 0.090133339 1.6900001
0.01280762 0.089653336 1.6810001
0.016009524 0.089653336 1.6810001
0.019314287 0.090133339 1.6900001
0.022533335 0.090133339 1.6900001
0.02561524 0.089653336 1.6810001
0.028817143 0.089653336 1.6810001
0.032190476 0.090133339 1.6900001
0.035409525 0.090133339 1.6900001
0.038628574 0.090133339 1.6900001
0.041624762 0.089653336 1.6810001
0.044826668 0.089653336 1.6810001
0.048028573 0.089653336 1.6810001
0.051230479 0.089653336 1.6810001
0.054432385 0.089653336 1.6810001
0.057634287 0.089653336 1.6810001
0.060836192 0.089653336 1.6810001
0.064038098 0.089653336 1.6810001
0.066920005 0.089226671 1.6730001
0.070441909 0.089653336 1.6810001
0.073643811 0.089653336 1.6810001
0.076480001 0.089226671 1.6730001
0.079666667 0.089226671 1.6730001
0.08285334 0.089226671 1.6730001
0.086040005 0.089226671 1.6730001
0.089226671 0.089226671 1.6730001
0.092413336 0.089226671 1.6730001
0.095600002 0.089226671 1.6730001
0.098786667 0.089226671 1.6730001
0.10197334 0.089226671 1.6730001
0.10516001 0.089226671 1.6730001
0.10782857 0.088800006 1.6650001
0.111 0.088800006 1.6650001
0.11417143 0.088800006 1.6650001
0.11734286 0.088800006 1.6650001
0.11993524 0.088373333 1.6570001
0.12368572 0.088800006 1.6650001
0.12746668 0.089226671 1.6730001
0.13065334 0.089226671 1.6730001
0.13448 0.089653336 1.6810001
0.13841905 0.090133339 1.6900001
0.14666668 0.093333334 1.7500001
0.15077144 0.093813337 1.7590001
0.15412191 0.093813337 1.7590001
0.2019581 0.10874667 2.039
0.20584191 0.10874667 2.039
0.21096 0.10938667 2.0510001
0.21486667 0.10938667 2.0510001
0.22005334 0.11002667 2.0630002
0.22669715 0.11136001 2.0880001
-0.35633144 0.090645716 1.641
-0.35320574 0.090645716 1.641
-0.34349716 0.097660959 1.7680001
-0.3383981 0.097163811 1.7590001
-0.33504763 0.097163811 1.7590001
-0.33169717 0.097163811 1.7590001
-0.32834667 0.097163811 1.7590001
-0.3249962 0.097163811 1.7590001
-0.32164574 0.097163811 1.7590001
-0.31829524 0.097163811 1.7590001
-0.31494477 0.097163811 1.7590001
-0.31159431 0.097163811 1.7590001
-0.30824381 0.097163811 1.7590001
-0.30333334 0.096666671 1.7500001
-0.30000001 0.096666671 1.7500001
-0.29666668 0.096666671 1.7500001
-0.29333335 0.096666671 1.7500001
-0.29000002 0.096666671 1.7500001
-0.28961524 0.097660959 1.7680001
-0.28333333 0.096666671 1.7500001
-0.28 0.096666671 1.7500001
-0.27666667 0.096666671 1.7500001
-0.27333334 0.096666671 1.7500001
-0.26861143 0.096169524 1.7410001
-0.26666668 0.096666671 1.7500001
-0.26197904 0.096169524 1.7410001
-0.25866288 0.096169524 1.7410001
-0.25534669 0.096169524 1.7410001
-0.25203049 0.096169524 1.7410001
-0.25 0.096666671 1.7500001
-0.24666667 0.096666671 1.7500001
-0.24333334 0.096666671 1.7500001
-0.24000001 0.096666671 1.7500001
-0.23666668 0.096666671 1.7500001
-0.23333335 0.096666671 1.7500001
-0.22881715 0.096169524 1.7410001
-0.22433525 0.095672384 1.7320001
-0.2210362 0.095672384 1.7320001
-0.21773715 0.095672384 1.7320001
-0.2144381 0.095672384 1.7320001
-0.21113905 0.095672384 1.7320001
-0.20676 0.095175244 1.723
-0.2034781 0.095175244 1.723
-0.20124191 0.095672384 1.7320001
-0.19794287 0.095672384 1.7320001
-0.19464381 0.095672384 1.7320001
-0.19233905 0.096169524 1.7410001
-0.19000001 0.096666671 1.7500001
-0.18666667 0.096666671 1.7500001
-0.18333334 0.096666671 1.7500001
-0.17907429 0.096169524 1.7410001
-0.17575811 0.096169524 1.7410001
-0.17244191 0.096169524 1.7410001
-0.16912572 0.096169524 1.7410001
-0.16495238 0.095672384 1.7320001
-0.16165334 0.095672384 1.7320001
-0.15753144 0.095175244 1.723
-0.15424953 0.095175244 1.723
-0.15096763 0.095175244 1.723
-0.14768572 0.095175244 1.723
-0.14440382 0.095175244 1.723
-0.14112191 0.095175244 1.723
-0.13784 0.095175244 1.723
-0.13526095 0.095672384 1.7320001
-0.13196191 0.095672384 1.7320001
-0.12866285 0.095672384 1.7320001
-0.12536381 0.095672384 1.7320001
-0.12206477 0.095672384 1.7320001
-0.11876572 0.095672384 1.7320001
-0.11486667 0.095175244 1.723
-0.11158477 0.095175244 1.723
-0.10830286 0.095175244 1.723
-0.10502096 0.095175244 1.723
-0.10173905 0.095175244 1.723
-0.09845715 0.095175244 1.723
-0.094733335 0.094733335 1.715
-0.091893338 0.095175244 1.723
-0.088200003 0.094733335 1.715
-0.085329525 0.095175244 1.723
-0.081666671 0.094733335 1.715
-0.078400001 0.094733335 1.715
-0.075133339 0.094733335 1.715
-0.071866669 0.094733335 1.715
-0.068599999 0.094733335 1.715
-0.065333337 0.094733335 1.715
-0.062066671 0.094733335 1.715
-0.058800001 0.094733335 1.715
-0.055533335 0.094733335 1.715
-0.052266669 0.094733335 1.715
-0.049000002 0.094733335 1.715
-0.045733336 0.094733335 1.715
-0.042466667 0.094733335 1.715
-0.0392 0.094733335 1.715
-0.035933334 0.094733335 1.715
-0.032666668 0.094733335 1.715
-0.029245716 0.094236195 1.7060001
-0.025874287 0.093794286 1.6980001
-0.022640001 0.093794286 1.6980001
-0.019405715 0.093794286 1.6980001
-0.016171429 0.093794286 1.6980001
-0.012937143 0.093794286 1.6980001
-0.0096571436 0.093352385 1.6900001
-0.0064685717 0.093794286 1.6980001
-0.0032190478 0.093352385 1.6900001
0 0.093352385 1.6900001
0.0032190478 0.093352385 1.6900001
0.0064380956 0.093352385 1.6900001
0.0096571436 0.093352385 1.6900001
0.012876191 0.093352385 1.6900001
0.016095238 0.093352385 1.6900001
0.019314287 0.093352385 1.6900001
0.022533335 0.093352385 1.6900001
0.02561524 0.092855245 1.6810001
0.028817143 0.092855245 1.6810001
0.032019049 0.092855245 1.6810001
0.035409525 0.093352385 1.6900001
0.03842286 0.092855245 1.6810001
0.041624762 0.092855245 1.6810001
0.044826668 0.092855245 1.6810001
0.048028573 0.092855245 1.6810001
0.051230479 0.092855245 1.6810001
0.054432385 0.092855245 1.6810001
0.057634287 0.092855245 1.6810001
0.060836192 0.092855245 1.6810001
0.064038098 0.092855245 1.6810001
0.06724 0.092855245 1.6810001
0.070441909 0.092855245 1.6810001
0.073643811 0.092855245 1.6810001
0.076480001 0.092413336 1.6730001
0.079666667 0.092413336 1.6730001
0.08285334 0.092413336 1.6730001
0.086040005 0.092413336 1.6730001
0.089226671 0.092413336 1.6730001
0.092413336 0.092413336 1.6730001
0.095600002 0.092413336 1.6730001
0.098786667 0.092413336 1.6730001
0.10197334 0.092413336 1.6730001
0.10516001 0.092413336 1.6730001
0.10782857 0.091971435 1.6650001
0.111 0.091971435 1.6650001
0.11417143 0.091971435 1.6650001
0.11734286 0.091971435 1.6650001
0.11993524 0.091529526 1.6570001
0.12309143 0.091529526 1.6570001
0.12685715 0.091971435 1.6650001
0.13002858 0.091971435 1.6650001
0.13384001 0.092413336 1.6730001
0.13702667 0.092413336 1.6730001
0.14088382 0.092855245 1.6810001
0.14408572 0.092855245 1.6810001
0.15412191 0.097163811 1.7590001
0.20076953 0.11196762 2.0270002
0.20463048 0.11196762 2.0270002
0.21219429 0.1139562 2.0630002
0.21612382 0.1139562 2.0630002
0.22005334 0.1139562 2.0630002
-0.3417486 0.10051429 1.7590001
-0.3383981 0.10051429 1.7590001
-0.33676192 0.10102858 1.7680001
-0.33169717 0.10051429 1.7590001
-0.32834667 0.10051429 1.7590001
-0.3249962 0.10051429 1.7590001
-0.32164574 0.10051429 1.7590001
-0.31829524 0.10051429 1.7590001
-0.31494477 0.10051429 1.7590001
-0.31159431 0.10051429 1.7590001
-0.30666667 0.1 1.7500001
-0.30333334 0.1 1.7500001
-0.30000001 0.1 1.7500001
-0.29666668 0.1 1.7500001
-0.29333335 0.1 1.7500001
-0.29000002 0.1 1.7500001
-0.28961524 0.10102858 1.7680001
-0.28333333 0.1 1.7500001
-0.28 0.1 1.7500001
-0.27666667 0.1 1.7500001
-0.27333334 0.1 1.7500001
-0.27000001 0.1 1.7500001
-0.26666668 0.1 1.7500001
-0.26197904 0.099485718 1.7410001
-0.25866288 0.099485718 1.7410001
-0.25534669 0.099485718 1.7410001
-0.25203049 0.099485718 1.7410001
-0.25 0.1 1.7500001
-0.24666667 0.1 1.7500001
-0.24333334 0.1 1.7500001
-0.24000001 0.1 1.7500001
-0.23666668 0.1 1.7500001
-0.23213334 0.099485718 1.7410001
-0.22881715 0.099485718 1.7410001
-0.22433525 0.098971434 1.7320001
-0.2210362 0.098971434 1.7320001
-0.21773715 0.098971434 1.7320001
-0.2144381 0.098971434 1.7320001
-0.21113905 0.098971434 1.7320001
-0.20784001 0.098971434 1.7320001
-0.20454095 0.098971434 1.7320001
-0.20124191 0.098971434 1.7320001
-0.19794287 0.098971434 1.7320001
-0.19464381 0.098971434 1.7320001
-0.19233905 0.099485718 1.7410001
-0.18902287 0.099485718 1.7410001
-0.18570668 0.099485718 1.7410001
-0.18239048 0.099485718 1.7410001
-0.17907429 0.099485718 1.7410001
-0.17575811 0.099485718 1.7410001
-0.17244191 0.099485718 1.7410001
-0.16912572 0.099485718 1.7410001
-0.16580953 0.099485718 1.7410001
-0.16165334 0.098971434 1.7320001
-0.1583543 0.098971434 1.7320001
-0.15505524 0.098971434 1.7320001
-0.15096763 0.09845715 1.723
-0.14845715 0.098971434 1.7320001
-0.14440382 0.09845715 1.723
-0.14112191 0.09845715 1.723
-0.13856001 0.098971434 1.7320001
-0.13526095 0.098971434 1.7320001
-0.13196191 0.098971434 1.7320001
-0.12866285 0.098971434 1.7320001
-0.12536381 0.098971434 1.7320001
-0.12206477 0.098971434 1.7320001
-0.11876572 0.098971434 1.7320001
-0.11546667 0.098971434 1.7320001
-0.11158477 0.09845715 1.723
-0.10830286 0.09845715 1.723
-0.10502096 0.09845715 1.723
-0.10173905 0.09845715 1.723
-0.09845715 0.09845715 1.723
-0.095175244 0.09845715 1.723
-0.091893338 0.09845715 1.723
-0.088611431 0.09845715 1.723
-0.085329525 0.09845715 1.723
-0.081666671 0.098000005 1.715
-0.078400001 0.098000005 1.715
-0.075133339 0.098000005 1.715
-0.071866669 0.098000005 1.715
-0.068599999 0.098000005 1.715
-0.065333337 0.098000005 1.715
-0.062066671 0.098000005 1.715
-0.058800001 0.098000005 1.715
-0.055241905 0.097485721 1.7060001
-0.052266669 0.098000005 1.715
-0.049000002 0.098000005 1.715
-0.045733336 0.098000005 1.715
-0.042466667 0.098000005 1.715
-0.038994286 0.097485721 1.7060001
-0.035933334 0.098000005 1.715
-0.032666668 0.098000005 1.715
-0.029108573 0.097028576 1.6980001
-0.025874287 0.097028576 1.6980001
-0.022640001 0.097028576 1.6980001
-0.019314287 0.096571431 1.6900001
-0.016095238 0.096571431 1.6900001
-0.012876191 0.096571431 1.6900001
-0.0096571436 0.096571431 1.6900001
-0.0064380956 0.096571431 1.6900001
-0.0032190478 0.096571431 1.6900001
0 0.096571431 1.6900001
0.0032190478 0.096571431 1.6900001
0.0064380956 0.096571431 1.6900001
0.0096571436 0.096571431 1.6900001
0.012876191 0.096571431 1.6900001
0.016095238 0.096571431 1.6900001
0.019314287 0.096571431 1.6900001
0.022413334 0.096057147 1.6810001
0.02561524 0.096057147 1.6810001
0.028817143 0.096057147 1.6810001
0.032019049 0.096057147 1.6810001
0.035220955 0.096057147 1.6810001
0.03842286 0.096057147 1.6810001
0.041624762 0.096057147 1.6810001
0.044826668 0.096057147 1.6810001
0.048028573 0.096057147 1.6810001
0.05098667 0.095600002 1.6730001
0.054432385 0.096057147 1.6810001
0.057634287 0.096057147 1.6810001
