# .PCD v0.7 - Point Cloud Data file format
VERSION 0.7
FIELDS x y z
SIZE 4 4 4
TYPE F F F
COUNT 1 1 1
WIDTH 1511
HEIGHT 1
VIEWPOINT 0 0 0 1 0 0 0
POINTS 1511
DATA ascii
-0.02897143 0.2575238 1.6900001
-0.025752382 0.2575238 1.6900001
-0.022640001 0.25874287 1.6980001
-0.019405715 0.25874287 1.6980001
-0.016247619 0.2599619 1.7060001
-0.012998096 0.2599619 1.7060001
-0.0097485716 0.2599619 1.7060001
-0.0065333336 0.26133335 1.715
-0.0032666668 0.26133335 1.715
0 0.26133335 1.715
0.0032819049 0.26255238 1.723
0.0065638097 0.26255238 1.723
0.009845715 0.26255238 1.723
0.013127619 0.26255238 1.723
0.016409524 0.26255238 1.723
0.019794287 0.26392382 1.7320001
0.023213334 0.26529524 1.7410001
0.026529524 0.26529524 1.7410001
0.030000001 0.26666668 1.7500001
0.033333335 0.26666668 1.7500001
0.036666669 0.26666668 1.7500001
0.040000003 0.26666668 1.7500001
0.043333337 0.26666668 1.7500001
0.046906669 0.26803809 1.7590001
0.050257146 0.26803809 1.7590001
0.05360762 0.26803809 1.7590001
0.057249527 0.26940954 1.7680001
0.060925715 0.27078095 1.7770001
0.064636193 0.27215239 1.7860001
0.068038099 0.27215239 1.7860001
0.071440004 0.27215239 1.7860001
0.074841909 0.27215239 1.7860001
0.078243814 0.27215239 1.7860001
0.082057148 0.27352381 1.7950001
0.085047625 0.27215239 1.7860001
0.08844953 0.27215239 1.7860001
0.092314288 0.27352381 1.7950001
0.095733337 0.27352381 1.7950001
0.099649526 0.27489525 1.8040001
0.10365715 0.27641904 1.8140001
0.10711239 0.27641904 1.8140001
0.11056762 0.27641904 1.8140001
0.11402286 0.27641904 1.8140001
0.11812572 0.27794287 1.8240001
0.1216 0.27794287 1.8240001
0.1250743 0.27794287 1.8240001
0.12854858 0.27794287 1.8240001
0.13267429 0.27931431 1.8330001
0.13616572 0.27931431 1.8330001
0.13965715 0.27931431 1.8330001
0.14392953 0.2808381 1.8430001
0.14744 0.2808381 1.8430001
0.15176953 0.28236192 1.853
0.15529905 0.28236192 1.853
0.15968572 0.28388572 1.863
0.16323429 0.28388572 1.863
0.16678286 0.28388572 1.863
0.17033143 0.28388572 1.863
0.17388001 0.28388572 1.863
0.17742857 0.28388572 1.863
0.18097715 0.28388572 1.863
0.18551619 0.28540954 1.8730001
0.18908381 0.28540954 1.8730001
0.19368 0.28693333 1.8830001
0.19841905 0.28860953 1.8940001
0.20202668 0.28860953 1.8940001
0.2056343 0.28860953 1.8940001
0.21034667 0.29013336 1.904
0.21397334 0.29013336 1.904
0.2176 0.29013336 1.904
0.22122668 0.29013336 1.904
0.22485334 0.29013336 1.904
0.22848001 0.29013336 1.904
0.23344763 0.29180953 1.9150001
0.23709525 0.29180953 1.9150001
0.24200001 0.29333335 1.9250001
0.24566668 0.29333335 1.9250001
0.25075811 0.29500952 1.9360001
0.25300002 0.29333335 1.9250001
0.25813335 0.29500952 1.9360001
0.26182097 0.29500952 1.9360001
0.26701716 0.29668573 1.9470001
0.27072573 0.29668573 1.9470001
0.2744343 0.29668573 1.9470001
0.27814287 0.29668573 1.9470001
0.28185144 0.29668573 1.9470001
0.28556001 0.29668573 1.9470001
0.28926858 0.29668573 1.9470001
0.29297715 0.29668573 1.9470001
0.29836193 0.29836193 1.9580001
0.30209145 0.29836193 1.9580001
0.30753905 0.3000381 1.9690001
0.31128955 0.3000381 1.9690001
0.31504002 0.3000381 1.9690001
0.32057145 0.3017143 1.9800001
0.32434288 0.3017143 1.9800001
0.3281143 0.3017143 1.9800001
0.33188573 0.3017143 1.9800001
0.33565715 0.3017143 1.9800001
0.33942857 0.3017143 1.9800001
-0.40441525 0.30903429 2.003
-0.40060002 0.30903429 2.003
-0.39678478 0.30903429 2.003
-0.39081144 0.30733716 1.9920001
-0.38468572 0.30548573 1.9800001
-0.3809143 0.30548573 1.9800001
-0.37504762 0.30378857 1.9690001
-0.37129715 0.30378857 1.9690001
-0.36549336 0.30209145 1.9580001
-0.36176383 0.30209145 1.9580001
-0.35602286 0.3003943 1.9470001
-0.35032383 0.29869714 1.9360001
-0.34663621 0.29869714 1.9360001
-0.34294859 0.29869714 1.9360001
-0.33926097 0.29869714 1.9360001
-0.33366668 0.29700002 1.9250001
-0.32828572 0.29545715 1.9150001
-0.32277334 0.29376 1.904
-0.31914669 0.29376 1.904
-0.31386286 0.29221717 1.8940001
-0.31025526 0.29221717 1.8940001
-0.30324763 0.28897715 1.8730001
-0.29968002 0.28897715 1.8730001
-0.29453143 0.28743431 1.863
-0.29098287 0.28743431 1.863
-0.28589144 0.28589144 1.853
-0.2808381 0.28434858 1.8430001
-0.27732763 0.28434858 1.8430001
-0.27381715 0.28434858 1.8430001
-0.26884001 0.28280571 1.8330001
-0.26534858 0.28280571 1.8330001
-0.26057145 0.28141716 1.8240001
-0.25709715 0.28141716 1.8240001
-0.2522324 0.27987429 1.8140001
-0.24740572 0.27833143 1.8040001
-0.24275239 0.27694288 1.7950001
-0.23933335 0.27694288 1.7950001
-0.23591429 0.27694288 1.7950001
-0.23132953 0.2755543 1.7860001
-0.22792763 0.2755543 1.7860001
-0.22339429 0.27416572 1.7770001
-0.22000954 0.27416572 1.7770001
-0.21662477 0.27416572 1.7770001
-0.21216001 0.27277714 1.7680001
-0.20879239 0.27277714 1.7680001
-0.20542477 0.27277714 1.7680001
-0.20102859 0.27138859 1.7590001
-0.1976781 0.27138859 1.7590001
-0.19333334 0.27000001 1.7500001
-0.19000001 0.27000001 1.7500001
-0.18570668 0.26861143 1.7410001
-0.18239048 0.26861143 1.7410001
-0.17907429 0.26861143 1.7410001
-0.17484953 0.26722288 1.7320001
-0.17065905 0.2658343 1.723
-0.16737714 0.2658343 1.723
-0.16409524 0.2658343 1.723
-0.16006668 0.26460001 1.715
-0.15597714 0.26321143 1.7060001
-0.15272762 0.26321143 1.7060001
-0.14877714 0.26197717 1.6980001
-0.14554286 0.26197717 1.6980001
-0.14230858 0.26197717 1.6980001
-0.13841905 0.26074287 1.6900001
-0.13520001 0.26074287 1.6900001
-0.1312781 0.25935429 1.6810001
-0.12746668 0.25812 1.6730001
-0.12428001 0.25812 1.6730001
-0.12051429 0.25688574 1.6650001
-0.11734286 0.25688574 1.6650001
-0.11362286 0.25565144 1.6570001
-0.10993334 0.25441715 1.649
-0.10679238 0.25441715 1.649
-0.10365143 0.25441715 1.649
-0.10051048 0.25441715 1.649
-0.097841911 0.25565144 1.6570001
-0.094685718 0.25565144 1.6570001
-0.091529526 0.25565144 1.6570001
-0.088373333 0.25565144 1.6570001
-0.085217148 0.25565144 1.6570001
-0.082060955 0.25565144 1.6570001
-0.078904763 0.25565144 1.6570001
-0.075748578 0.25565144 1.6570001
-0.07294286 0.25688574 1.6650001
-0.069771431 0.25688574 1.6650001
-0.066600002 0.25688574 1.6650001
-0.063733339 0.25812 1.6730001
-0.06054667 0.25812 1.6730001
-0.057360001 0.25812 1.6730001
-0.054432385 0.25935429 1.6810001
-0.051230479 0.25935429 1.6810001
-0.048028573 0.25935429 1.6810001
-0.04506667 0.26074287 1.6900001
-0.04184762 0.26074287 1.6900001
-0.038628574 0.26074287 1.6900001
-0.035577144 0.26197717 1.6980001
-0.032342859 0.26197717 1.6980001
-0.02897143 0.26074287 1.6900001
-0.025874287 0.26197717 1.6980001
-0.022640001 0.26197717 1.6980001
-0.019497143 0.26321143 1.7060001
-0.016247619 0.26321143 1.7060001
-0.012998096 0.26321143 1.7060001
-0.0097485716 0.26321143 1.7060001
-0.0065333336 0.26460001 1.715
-0.0032666668 0.26460001 1.715
0 0.26460001 1.715
0.0032819049 0.2658343 1.723
0.0065638097 0.2658343 1.723
0.009845715 0.2658343 1.723
0.013127619 0.2658343 1.723
0.016495239 0.26722288 1.7320001
0.019794287 0.26722288 1.7320001
0.023333333 0.27000001 1.7500001
0.026666667 0.27000001 1.7500001
0.030000001 0.27000001 1.7500001
0.033333335 0.27000001 1.7500001
0.036666669 0.27000001 1.7500001
0.040000003 0.27000001 1.7500001
0.043556191 0.27138859 1.7590001
0.046906669 0.27138859 1.7590001
0.050257146 0.27138859 1.7590001
0.053881906 0.27277714 1.7680001
0.057249527 0.27277714 1.7680001
0.060925715 0.27416572 1.7770001
0.064636193 0.2755543 1.7860001
0.068038099 0.2755543 1.7860001
0.071440004 0.2755543 1.7860001
0.07521905 0.27694288 1.7950001
0.078638099 0.27694288 1.7950001
0.082057148 0.27694288 1.7950001
0.085476197 0.27694288 1.7950001
0.088895239 0.27694288 1.7950001
0.092314288 0.27694288 1.7950001
0.095733337 0.27694288 1.7950001
0.099649526 0.27833143 1.8040001
0.10365715 0.27987429 1.8140001
0.10711239 0.27987429 1.8140001
0.11056762 0.27987429 1.8140001
0.11402286 0.27987429 1.8140001
0.11812572 0.28141716 1.8240001
0.1216 0.28141716 1.8240001
0.1250743 0.28141716 1.8240001
0.12854858 0.28141716 1.8240001
0.13267429 0.28280571 1.8330001
0.13616572 0.28280571 1.8330001
0.14041905 0.28434858 1.8430001
0.14392953 0.28434858 1.8430001
0.14744 0.28434858 1.8430001
0.15176953 0.28589144 1.853
0.15529905 0.28589144 1.853
0.15968572 0.28743431 1.863
0.16323429 0.28743431 1.863
0.16678286 0.28743431 1.863
0.17033143 0.28743431 1.863
0.17388001 0.28743431 1.863
0.17742857 0.28743431 1.863
0.18097715 0.28743431 1.863
0.18551619 0.28897715 1.8730001
0.18908381 0.28897715 1.8730001
0.19265144 0.28897715 1.8730001
0.19726667 0.29052001 1.8830001
0.20202668 0.29221717 1.8940001
0.2056343 0.29221717 1.8940001
0.20924191 0.29221717 1.8940001
0.21397334 0.29376 1.904
0.2176 0.29376 1.904
0.22122668 0.29376 1.904
0.22485334 0.29376 1.904
0.22848001 0.29376 1.904
0.23344763 0.29545715 1.9150001
0.23709525 0.29545715 1.9150001
0.24074286 0.29545715 1.9150001
0.24707049 0.29869714 1.9360001
0.25075811 0.29869714 1.9360001
0.25444573 0.29869714 1.9360001
0.25813335 0.29869714 1.9360001
0.26182097 0.29869714 1.9360001
0.26550859 0.29869714 1.9360001
0.27072573 0.3003943 1.9470001
0.2744343 0.3003943 1.9470001
0.27814287 0.3003943 1.9470001
0.28185144 0.3003943 1.9470001
0.28556001 0.3003943 1.9470001
0.28926858 0.3003943 1.9470001
0.29463241 0.30209145 1.9580001
0.29836193 0.30209145 1.9580001
0.30378857 0.30378857 1.9690001
0.30753905 0.30378857 1.9690001
0.31128955 0.30378857 1.9690001
0.31504002 0.30378857 1.9690001
0.32057145 0.30548573 1.9800001
0.32434288 0.30548573 1.9800001
0.3281143 0.30548573 1.9800001
0.33188573 0.30548573 1.9800001
0.33565715 0.30548573 1.9800001
-0.40683812 0.31472382 2.0150001
-0.40300003 0.31472382 2.0150001
-0.39678478 0.31284952 2.003
-0.39296955 0.31284952 2.003
-0.38701716 0.31113145 1.9920001
-0.3809143 0.30925715 1.9800001
-0.37504762 0.30753905 1.9690001
-0.37129715 0.30753905 1.9690001
-0.36549336 0.30582097 1.9580001
-0.36176383 0.30582097 1.9580001
-0.35602286 0.30410287 1.9470001
-0.35032383 0.30238476 1.9360001
-0.34860572 0.30410287 1.9470001
-0.34294859 0.30238476 1.9360001
-0.33926097 0.30238476 1.9360001
-0.33366668 0.30066669 1.9250001
-0.32828572 0.29910478 1.9150001
-0.3246381 0.29910478 1.9150001
-0.31914669 0.29738668 1.904
-0.31552002 0.29738668 1.904
-0.31025526 0.29582477 1.8940001
-0.30486667 0.29410669 1.8830001
-0.29968002 0.29254478 1.8730001
-0.29611239 0.29254478 1.8730001
-0.29254478 0.29254478 1.8730001
-0.28589144 0.28942096 1.853
-0.28236192 0.28942096 1.853
-0.27732763 0.28785905 1.8430001
-0.27381715 0.28785905 1.8430001
-0.26884001 0.28629714 1.8330001
-0.26534858 0.28629714 1.8330001
-0.26057145 0.28489143 1.8240001
-0.25709715 0.28489143 1.8240001
-0.2522324 0.28332955 1.8140001
-0.24740572 0.28176764 1.8040001
-0.24275239 0.28036192 1.7950001
-0.23933335 0.28036192 1.7950001
-0.23591429 0.28036192 1.7950001
-0.23249525 0.28036192 1.7950001
-0.22792763 0.2789562 1.7860001
-0.22452572 0.2789562 1.7860001
-0.22112381 0.2789562 1.7860001
-0.21662477 0.27755049 1.7770001
-0.21324001 0.27755049 1.7770001
-0.20879239 0.27614477 1.7680001
-0.20542477 0.27614477 1.7680001
-0.20102859 0.27473906 1.7590001
-0.1976781 0.27473906 1.7590001
-0.19432762 0.27473906 1.7590001
-0.19000001 0.27333334 1.7500001
-0.18570668 0.27192762 1.7410001
-0.18239048 0.27192762 1.7410001
-0.17907429 0.27192762 1.7410001
-0.17484953 0.27052191 1.7320001
-0.17065905 0.26911619 1.723
-0.16737714 0.26911619 1.723
-0.16409524 0.26911619 1.723
-0.16006668 0.26786667 1.715
-0.1568 0.26786667 1.715
-0.15272762 0.26646096 1.7060001
-0.14877714 0.26521143 1.6980001
-0.14554286 0.26521143 1.6980001
-0.14230858 0.26521143 1.6980001
-0.13841905 0.26396191 1.6900001
-0.13520001 0.26396191 1.6900001
-0.13198096 0.26396191 1.6900001
-0.1280762 0.2625562 1.6810001
-0.12428001 0.26130667 1.6730001
-0.12051429 0.26005715 1.6650001
-0.11677905 0.25880763 1.6570001
-0.11362286 0.25880763 1.6570001
-0.10993334 0.25755811 1.649
-0.10679238 0.25755811 1.649
-0.10365143 0.25755811 1.649
-0.10051048 0.25755811 1.649
-0.097841911 0.25880763 1.6570001
-0.094685718 0.25880763 1.6570001
-0.091529526 0.25880763 1.6570001
-0.088373333 0.25880763 1.6570001
-0.085217148 0.25880763 1.6570001
-0.082060955 0.25880763 1.6570001
-0.079285719 0.26005715 1.6650001
-0.076114289 0.26005715 1.6650001
-0.07294286 0.26005715 1.6650001
-0.069771431 0.26005715 1.6650001
-0.066600002 0.26005715 1.6650001
-0.063733339 0.26130667 1.6730001
-0.06054667 0.26130667 1.6730001
-0.057360001 0.26130667 1.6730001
-0.054432385 0.2625562 1.6810001
-0.051230479 0.2625562 1.6810001
-0.048028573 0.2625562 1.6810001
-0.04506667 0.26396191 1.6900001
-0.04184762 0.26396191 1.6900001
-0.03881143 0.26521143 1.6980001
-0.035577144 0.26521143 1.6980001
-0.032342859 0.26521143 1.6980001
-0.029108573 0.26521143 1.6980001
-0.025874287 0.26521143 1.6980001
-0.022640001 0.26521143 1.6980001
-0.019405715 0.26521143 1.6980001
-0.016247619 0.26646096 1.7060001
-0.012998096 0.26646096 1.7060001
-0.0098000001 0.26786667 1.715
-0.0065333336 0.26786667 1.715
-0.0032666668 0.26786667 1.715
0 0.26786667 1.715
0.0032819049 0.26911619 1.723
0.0065638097 0.26911619 1.723
0.009845715 0.26911619 1.723
0.013127619 0.26911619 1.723
0.016495239 0.27052191 1.7320001
0.019794287 0.27052191 1.7320001
0.023213334 0.27192762 1.7410001
0.026666667 0.27333334 1.7500001
0.030000001 0.27333334 1.7500001
0.033333335 0.27333334 1.7500001
0.036855239 0.27473906 1.7590001
0.040205717 0.27473906 1.7590001
0.043556191 0.27473906 1.7590001
0.046906669 0.27473906 1.7590001
0.050514288 0.27614477 1.7680001
0.053881906 0.27614477 1.7680001
0.057249527 0.27614477 1.7680001
0.060925715 0.27755049 1.7770001
0.064310476 0.27755049 1.7770001
0.068038099 0.2789562 1.7860001
0.071440004 0.2789562 1.7860001
0.074841909 0.2789562 1.7860001
0.078638099 0.28036192 1.7950001
0.082057148 0.28036192 1.7950001
0.085476197 0.28036192 1.7950001
0.088895239 0.28036192 1.7950001
0.092314288 0.28036192 1.7950001
0.096213333 0.28176764 1.8040001
0.099649526 0.28176764 1.8040001
0.10365715 0.28332955 1.8140001
0.10711239 0.28332955 1.8140001
0.11056762 0.28332955 1.8140001
0.11402286 0.28332955 1.8140001
0.11812572 0.28489143 1.8240001
0.1216 0.28489143 1.8240001
0.1250743 0.28489143 1.8240001
0.12918286 0.28629714 1.8330001
0.13267429 0.28629714 1.8330001
0.13616572 0.28629714 1.8330001
0.14041905 0.28785905 1.8430001
0.14392953 0.28785905 1.8430001
0.14744 0.28785905 1.8430001
0.15176953 0.28942096 1.853
0.15529905 0.28942096 1.853
0.15968572 0.29098287 1.863
0.16323429 0.29098287 1.863
0.16678286 0.29098287 1.863
0.17033143 0.29098287 1.863
0.17388001 0.29098287 1.863
0.17742857 0.29098287 1.863
0.18097715 0.29098287 1.863
0.18452573 0.29098287 1.863
0.18908381 0.29254478 1.8730001
0.19265144 0.29254478 1.8730001
0.19726667 0.29410669 1.8830001
0.20085335 0.29410669 1.8830001
0.2056343 0.29582477 1.8940001
0.20924191 0.29582477 1.8940001
0.21284953 0.29582477 1.8940001
0.2176 0.29738668 1.904
0.22122668 0.29738668 1.904
0.22485334 0.29738668 1.904
0.22848001 0.29738668 1.904
0.23344763 0.29910478 1.9150001
0.23709525 0.29910478 1.9150001
0.24074286 0.29910478 1.9150001
0.24707049 0.30238476 1.9360001
0.25218287 0.30410287 1.9470001
0.25444573 0.30238476 1.9360001
0.25813335 0.30238476 1.9360001
0.26182097 0.30238476 1.9360001
0.26701716 0.30410287 1.9470001
0.27072573 0.30410287 1.9470001
0.2744343 0.30410287 1.9470001
0.27814287 0.30410287 1.9470001
0.28185144 0.30410287 1.9470001
0.28556001 0.30410287 1.9470001
0.28926858 0.30410287 1.9470001
0.29297715 0.30410287 1.9470001
0.29836193 0.30582097 1.9580001
0.30378857 0.30753905 1.9690001
0.30753905 0.30753905 1.9690001
0.31128955 0.30753905 1.9690001
0.31504002 0.30753905 1.9690001
0.3187905 0.30753905 1.9690001
0.32434288 0.30925715 1.9800001
0.3281143 0.30925715 1.9800001
0.33188573 0.30925715 1.9800001
0.33565715 0.30925715 1.9800001
-0.40926096 0.32045907 2.0270002
-0.40300003 0.31856191 2.0150001
-0.39916191 0.31856191 2.0150001
-0.39296955 0.31666479 2.003
-0.38468572 0.31302857 1.9800001
-0.3809143 0.31302857 1.9800001
-0.37504762 0.31128955 1.9690001
-0.36922288 0.30955049 1.9580001
-0.36549336 0.30955049 1.9580001
-0.35973144 0.30781144 1.9470001
-0.35602286 0.30781144 1.9470001
-0.35032383 0.30607238 1.9360001
-0.34860572 0.30781144 1.9470001
-0.34294859 0.30607238 1.9360001
-0.33926097 0.30607238 1.9360001
-0.33366668 0.30433336 1.9250001
-0.32828572 0.30275241 1.9150001
-0.3246381 0.30275241 1.9150001
-0.31914669 0.30101335 1.904
-0.31386286 0.2994324 1.8940001
-0.31025526 0.2994324 1.8940001
-0.30486667 0.29769334 1.8830001
-0.29968002 0.29611239 1.8730001
-0.29611239 0.29611239 1.8730001
-0.29254478 0.29611239 1.8730001
-0.28589144 0.29295048 1.853
-0.28236192 0.29295048 1.853
-0.27732763 0.29136953 1.8430001
-0.27381715 0.29136953 1.8430001
-0.26884001 0.28978857 1.8330001
-0.26534858 0.28978857 1.8330001
-0.26057145 0.28836572 1.8240001
-0.25709715 0.28836572 1.8240001
-0.2522324 0.28678477 1.8140001
-0.24740572 0.28520381 1.8040001
-0.24275239 0.28378096 1.7950001
-0.23933335 0.28378096 1.7950001
-0.23591429 0.28378096 1.7950001
-0.23249525 0.28378096 1.7950001
-0.22792763 0.28235811 1.7860001
-0.22452572 0.28235811 1.7860001
-0.22112381 0.28235811 1.7860001
-0.21662477 0.28093526 1.7770001
-0.21216001 0.27951241 1.7680001
-0.20879239 0.27951241 1.7680001
-0.20542477 0.27951241 1.7680001
-0.20102859 0.27808952 1.7590001
-0.1976781 0.27808952 1.7590001
-0.19432762 0.27808952 1.7590001
-0.19000001 0.27666667 1.7500001
-0.18570668 0.27524382 1.7410001
-0.18239048 0.27524382 1.7410001
-0.17907429 0.27524382 1.7410001
-0.17484953 0.27382097 1.7320001
-0.17065905 0.27239811 1.723
-0.16737714 0.27239811 1.723
-0.16409524 0.27239811 1.723
-0.16006668 0.27113333 1.715
-0.1568 0.27113333 1.715
-0.15353334 0.27113333 1.715
-0.14877714 0.26844573 1.6980001
-0.14554286 0.26844573 1.6980001
-0.14230858 0.26844573 1.6980001
-0.1390743 0.26844573 1.6980001
-0.13520001 0.26718095 1.6900001
-0.13198096 0.26718095 1.6900001
-0.1287619 0.26718095 1.6900001
-0.12487429 0.2657581 1.6810001
-0.12051429 0.2632286 1.6650001
-0.11677905 0.26196381 1.6570001
-0.11362286 0.26196381 1.6570001
-0.11046667 0.26196381 1.6570001
-0.10679238 0.26069906 1.649
-0.10365143 0.26069906 1.649
-0.10051048 0.26069906 1.649
-0.097369529 0.26069906 1.649
-0.094685718 0.26196381 1.6570001
-0.091529526 0.26196381 1.6570001
-0.088373333 0.26196381 1.6570001
-0.085217148 0.26196381 1.6570001
-0.082060955 0.26196381 1.6570001
-0.078904763 0.26196381 1.6570001
-0.075748578 0.26196381 1.6570001
-0.072592385 0.26196381 1.6570001
-0.069771431 0.2632286 1.6650001
-0.066600002 0.2632286 1.6650001
-0.063733339 0.26449335 1.6730001
-0.06054667 0.26449335 1.6730001
-0.057634287 0.2657581 1.6810001
-0.054432385 0.2657581 1.6810001
-0.051230479 0.2657581 1.6810001
-0.048285715 0.26718095 1.6900001
-0.04506667 0.26718095 1.6900001
-0.04184762 0.26718095 1.6900001
-0.038628574 0.26718095 1.6900001
-0.035409525 0.26718095 1.6900001
-0.032495238 0.26971048 1.7060001
-0.029108573 0.26844573 1.6980001
-0.025874287 0.26844573 1.6980001
-0.022640001 0.26844573 1.6980001
-0.019405715 0.26844573 1.6980001
-0.016247619 0.26971048 1.7060001
-0.012998096 0.26971048 1.7060001
-0.0098000001 0.27113333 1.715
-0.0065333336 0.27113333 1.715
-0.0032666668 0.27113333 1.715
0 0.27113333 1.715
0.0032819049 0.27239811 1.723
0.0065638097 0.27239811 1.723
0.009845715 0.27239811 1.723
0.013127619 0.27239811 1.723
0.016495239 0.27382097 1.7320001
0.019794287 0.27382097 1.7320001
0.023213334 0.27524382 1.7410001
0.026529524 0.27524382 1.7410001
0.030000001 0.27666667 1.7500001
0.033333335 0.27666667 1.7500001
0.036666669 0.27666667 1.7500001
0.040205717 0.27808952 1.7590001
0.043556191 0.27808952 1.7590001
0.046906669 0.27808952 1.7590001
0.050257146 0.27808952 1.7590001
0.053881906 0.27951241 1.7680001
0.057249527 0.27951241 1.7680001
0.060925715 0.28093526 1.7770001
0.064310476 0.28093526 1.7770001
0.068038099 0.28235811 1.7860001
0.071440004 0.28235811 1.7860001
0.07521905 0.28378096 1.7950001
0.078638099 0.28378096 1.7950001
0.082057148 0.28378096 1.7950001
0.085476197 0.28378096 1.7950001
0.088895239 0.28378096 1.7950001
0.092314288 0.28378096 1.7950001
0.096213333 0.28520381 1.8040001
0.099649526 0.28520381 1.8040001
0.10365715 0.28678477 1.8140001
0.10711239 0.28678477 1.8140001
0.11056762 0.28678477 1.8140001
0.11402286 0.28678477 1.8140001
0.11812572 0.28836572 1.8240001
0.1216 0.28836572 1.8240001
0.12569143 0.28978857 1.8330001
0.12918286 0.28978857 1.8330001
0.13267429 0.28978857 1.8330001
0.13616572 0.28978857 1.8330001
0.14041905 0.29136953 1.8430001
0.14392953 0.29136953 1.8430001
0.14744 0.29136953 1.8430001
0.15176953 0.29295048 1.853
0.15529905 0.29295048 1.853
0.15968572 0.29453143 1.863
0.16323429 0.29453143 1.863
0.16678286 0.29453143 1.863
0.17033143 0.29453143 1.863
0.17388001 0.29453143 1.863
0.17742857 0.29453143 1.863
0.18097715 0.29453143 1.863
0.18452573 0.29453143 1.863
0.18908381 0.29611239 1.8730001
0.19265144 0.29611239 1.8730001
0.19726667 0.29769334 1.8830001
0.20085335 0.29769334 1.8830001
0.2056343 0.2994324 1.8940001
0.20924191 0.2994324 1.8940001
0.21397334 0.30101335 1.904
0.2176 0.30101335 1.904
0.22122668 0.30101335 1.904
0.22485334 0.30101335 1.904
0.22848001 0.30101335 1.904
0.23210667 0.30101335 1.904
0.23709525 0.30275241 1.9150001
0.24074286 0.30275241 1.9150001
0.24566668 0.30433336 1.9250001
0.24933334 0.30433336 1.9250001
0.25444573 0.30607238 1.9360001
0.25813335 0.30607238 1.9360001
0.26182097 0.30607238 1.9360001
0.26550859 0.30607238 1.9360001
0.26919621 0.30607238 1.9360001
0.27288383 0.30607238 1.9360001
0.27814287 0.30781144 1.9470001
0.28185144 0.30781144 1.9470001
0.28717333 0.30955049 1.9580001
0.28926858 0.30781144 1.9470001
0.29463241 0.30955049 1.9580001
0.29836193 0.30955049 1.9580001
0.30209145 0.30955049 1.9580001
0.30753905 0.31128955 1.9690001
0.31128955 0.31128955 1.9690001
0.31504002 0.31128955 1.9690001
0.3187905 0.31128955 1.9690001
0.32434288 0.31302857 1.9800001
0.3281143 0.31302857 1.9800001
0.33188573 0.31302857 1.9800001
0.33565715 0.31302857 1.9800001
-0.40926096 0.32432002 2.0270002
-0.40300003 0.3224 2.0150001
-0.39916191 0.3224 2.0150001
-0.39296955 0.32048002 2.003
-0.38468572 0.3168 1.9800001
-0.3809143 0.3168 1.9800001
-0.37504762 0.31504002 1.9690001
-0.36922288 0.31328002 1.9580001
-0.36549336 0.31328002 1.9580001
-0.35973144 0.31152001 1.9470001
-0.35602286 0.31152001 1.9470001
-0.35032383 0.30976 1.9360001
-0.34663621 0.30976 1.9360001
-0.34294859 0.30976 1.9360001
-0.33733335 0.308 1.9250001
-0.33366668 0.308 1.9250001
-0.32828572 0.3064 1.9150001
-0.32277334 0.30464002 1.904
-0.31914669 0.30464002 1.904
-0.31386286 0.30304 1.8940001
-0.31025526 0.30304 1.8940001
-0.30324763 0.29968002 1.8730001
-0.29968002 0.29968002 1.8730001
-0.29611239 0.29968002 1.8730001
-0.29254478 0.29968002 1.8730001
-0.28589144 0.29648 1.853
-0.28236192 0.29648 1.853
-0.27732763 0.29488 1.8430001
-0.27381715 0.29488 1.8430001
-0.26884001 0.29328001 1.8330001
-0.26534858 0.29328001 1.8330001
-0.26057145 0.29184002 1.8240001
-0.25709715 0.29184002 1.8240001
-0.2522324 0.29024002 1.8140001
-0.24740572 0.28864002 1.8040001
-0.24396953 0.28864002 1.8040001
-0.23933335 0.2872 1.7950001
-0.23591429 0.2872 1.7950001
-0.23249525 0.2872 1.7950001
-0.22792763 0.28576002 1.7860001
-0.22452572 0.28576002 1.7860001
-0.22112381 0.28576002 1.7860001
-0.21662477 0.28432 1.7770001
-0.21216001 0.28288001 1.7680001
-0.20879239 0.28288001 1.7680001
-0.20542477 0.28288001 1.7680001
-0.20102859 0.28144002 1.7590001
-0.1976781 0.28144002 1.7590001
-0.19432762 0.28144002 1.7590001
-0.19000001 0.28 1.7500001
-0.18570668 0.27856001 1.7410001
-0.18239048 0.27856001 1.7410001
-0.17907429 0.27856001 1.7410001
-0.17484953 0.27712002 1.7320001
-0.17065905 0.27568001 1.723
-0.16737714 0.27568001 1.723
-0.16409524 0.27568001 1.723
-0.16006668 0.2744 1.715
-0.1568 0.2744 1.715
-0.15272762 0.27296001 1.7060001
-0.14877714 0.27168 1.6980001
-0.14554286 0.27168 1.6980001
-0.1416381 0.27040002 1.6900001
-0.13841905 0.27040002 1.6900001
-0.13520001 0.27040002 1.6900001
-0.13198096 0.27040002 1.6900001
-0.1280762 0.26896 1.6810001
-0.12487429 0.26896 1.6810001
-0.12109334 0.26768002 1.6730001
-0.11734286 0.26640001 1.6650001
-0.11417143 0.26640001 1.6650001
-0.11046667 0.26512 1.6570001
-0.10679238 0.26384002 1.649
-0.10365143 0.26384002 1.649
-0.10051048 0.26384002 1.649
-0.097841911 0.26512 1.6570001
-0.094685718 0.26512 1.6570001
-0.091529526 0.26512 1.6570001
-0.088373333 0.26512 1.6570001
-0.085217148 0.26512 1.6570001
-0.082060955 0.26512 1.6570001
-0.078904763 0.26512 1.6570001
-0.075748578 0.26512 1.6570001
-0.072592385 0.26512 1.6570001
-0.069771431 0.26640001 1.6650001
-0.066600002 0.26640001 1.6650001
-0.063733339 0.26768002 1.6730001
-0.06054667 0.26768002 1.6730001
-0.057360001 0.26768002 1.6730001
-0.054432385 0.26896 1.6810001
-0.051230479 0.26896 1.6810001
-0.048285715 0.27040002 1.6900001
-0.04506667 0.27040002 1.6900001
-0.042045716 0.27168 1.6980001
-0.03881143 0.27168 1.6980001
-0.035577144 0.27168 1.6980001
-0.032495238 0.27296001 1.7060001
-0.029108573 0.27168 1.6980001
-0.025874287 0.27168 1.6980001
-0.022640001 0.27168 1.6980001
-0.019405715 0.27168 1.6980001
-0.016247619 0.27296001 1.7060001
-0.013066667 0.2744 1.715
-0.0098000001 0.2744 1.715
-0.0065333336 0.2744 1.715
-0.0032666668 0.2744 1.715
0 0.27568001 1.723
0.0032819049 0.27568001 1.723
0.0065638097 0.27568001 1.723
0.009845715 0.27568001 1.723
0.013196191 0.27712002 1.7320001
0.016495239 0.27712002 1.7320001
0.019794287 0.27712002 1.7320001
0.023213334 0.27856001 1.7410001
0.026529524 0.27856001 1.7410001
0.030000001 0.28 1.7500001
0.033333335 0.28 1.7500001
0.036666669 0.28 1.7500001
0.040000003 0.28 1.7500001
0.043556191 0.28144002 1.7590001
0.046906669 0.28144002 1.7590001
0.050257146 0.28144002 1.7590001
0.05360762 0.28144002 1.7590001
0.056958098 0.28144002 1.7590001
0.060617145 0.28288001 1.7680001
0.063984767 0.28288001 1.7680001
0.067695238 0.28432 1.7770001
0.071440004 0.28576002 1.7860001
0.074841909 0.28576002 1.7860001
0.078638099 0.2872 1.7950001
0.082057148 0.2872 1.7950001
0.085476197 0.2872 1.7950001
0.088895239 0.2872 1.7950001
0.092314288 0.2872 1.7950001
0.096213333 0.28864002 1.8040001
0.099649526 0.28864002 1.8040001
0.10365715 0.29024002 1.8140001
0.10711239 0.29024002 1.8140001
0.11056762 0.29024002 1.8140001
0.11402286 0.29024002 1.8140001
0.11812572 0.29184002 1.8240001
0.1216 0.29184002 1.8240001
0.1250743 0.29184002 1.8240001
0.12918286 0.29328001 1.8330001
0.13267429 0.29328001 1.8330001
0.13690858 0.29488 1.8430001
0.14041905 0.29488 1.8430001
0.14471048 0.29648 1.853
0.14744 0.29488 1.8430001
0.15176953 0.29648 1.853
0.15529905 0.29648 1.853
0.15882857 0.29648 1.853
0.16323429 0.29808 1.863
0.16678286 0.29808 1.863
0.17033143 0.29808 1.863
0.17388001 0.29808 1.863
0.17838097 0.29968002 1.8730001
0.18194857 0.29968002 1.8730001
0.18551619 0.29968002 1.8730001
0.18908381 0.29968002 1.8730001
0.19265144 0.29968002 1.8730001
0.19726667 0.30128002 1.8830001
0.20085335 0.30128002 1.8830001
0.20444001 0.30128002 1.8830001
0.20924191 0.30304 1.8940001
0.21284953 0.30304 1.8940001
0.21645714 0.30304 1.8940001
0.22122668 0.30464002 1.904
0.22485334 0.30464002 1.904
0.22848001 0.30464002 1.904
0.23344763 0.3064 1.9150001
0.23709525 0.3064 1.9150001
0.24074286 0.3064 1.9150001
0.24566668 0.308 1.9250001
0.25075811 0.30976 1.9360001
0.25300002 0.308 1.9250001
0.25813335 0.30976 1.9360001
0.26182097 0.30976 1.9360001
0.26550859 0.30976 1.9360001
0.26919621 0.30976 1.9360001
0.2744343 0.31152001 1.9470001
0.27814287 0.31152001 1.9470001
0.28344381 0.31328002 1.9580001
0.28717333 0.31328002 1.9580001
0.29090285 0.31328002 1.9580001
0.29463241 0.31328002 1.9580001
0.3000381 0.31504002 1.9690001
0.30378857 0.31504002 1.9690001
0.30753905 0.31504002 1.9690001
0.31128955 0.31504002 1.9690001
0.31504002 0.31504002 1.9690001
0.32057145 0.3168 1.9800001
0.32434288 0.3168 1.9800001
0.3281143 0.3168 1.9800001
0.33188573 0.3168 1.9800001
0.33565715 0.3168 1.9800001
-0.41410667 0.33206668 2.0510001
-0.40300003 0.3262381 2.0150001
-0.39678478 0.32429525 2.003
-0.39081144 0.3225143 1.9920001
-0.38468572 0.32057145 1.9800001
-0.3787981 0.3187905 1.9690001
-0.3729524 0.31700954 1.9580001
-0.36922288 0.31700954 1.9580001
-0.36344001 0.31522858 1.9470001
-0.35973144 0.31522858 1.9470001
-0.35401145 0.31344762 1.9360001
-0.35032383 0.31344762 1.9360001
-0.34663621 0.31344762 1.9360001
-0.34294859 0.31344762 1.9360001
-0.33733335 0.31166667 1.9250001
-0.33366668 0.31166667 1.9250001
-0.32828572 0.31004763 1.9150001
-0.32277334 0.30826667 1.904
-0.31914669 0.30826667 1.904
-0.31386286 0.30664763 1.8940001
-0.31025526 0.30664763 1.8940001
-0.30486667 0.30486667 1.8830001
-0.29968002 0.30324763 1.8730001
-0.29611239 0.30324763 1.8730001
-0.29254478 0.30324763 1.8730001
-0.28897715 0.30324763 1.8730001
-0.28236192 0.30000955 1.853
-0.27732763 0.29839048 1.8430001
-0.27381715 0.29839048 1.8430001
-0.26884001 0.29677144 1.8330001
-0.26534858 0.29677144 1.8330001
-0.26185715 0.29677144 1.8330001
-0.25709715 0.29531428 1.8240001
-0.2522324 0.29369524 1.8140001
-0.24877715 0.29369524 1.8140001
-0.24396953 0.2920762 1.8040001
-0.24053334 0.2920762 1.8040001
-0.23591429 0.29061905 1.7950001
-0.23249525 0.29061905 1.7950001
-0.22907619 0.29061905 1.7950001
-0.22452572 0.28916192 1.7860001
-0.22112381 0.28916192 1.7860001
-0.21662477 0.28770477 1.7770001
-0.21324001 0.28770477 1.7770001
-0.20879239 0.28624764 1.7680001
-0.20542477 0.28624764 1.7680001
-0.20205715 0.28624764 1.7680001
-0.1976781 0.28479049 1.7590001
-0.19432762 0.28479049 1.7590001
-0.19000001 0.28333333 1.7500001
-0.18570668 0.28187621 1.7410001
-0.18239048 0.28187621 1.7410001
-0.17814858 0.28041905 1.7320001
-0.17484953 0.28041905 1.7320001
-0.17065905 0.27896193 1.723
-0.16737714 0.27896193 1.723
-0.16409524 0.27896193 1.723
-0.16006668 0.27766669 1.715
-0.1568 0.27766669 1.715
-0.15201144 0.27491429 1.6980001
-0.14877714 0.27491429 1.6980001
-0.14485715 0.27361906 1.6900001
-0.1416381 0.27361906 1.6900001
-0.13841905 0.27361906 1.6900001
-0.13520001 0.27361906 1.6900001
-0.13198096 0.27361906 1.6900001
-0.1280762 0.2721619 1.6810001
-0.12487429 0.2721619 1.6810001
-0.12109334 0.27086666 1.6730001
-0.11734286 0.26957145 1.6650001
-0.11417143 0.26957145 1.6650001
-0.11046667 0.26827621 1.6570001
-0.10731048 0.26827621 1.6570001
-0.10365143 0.26698098 1.649
-0.10051048 0.26698098 1.649
-0.097369529 0.26698098 1.649
-0.094228573 0.26698098 1.649
-0.091529526 0.26827621 1.6570001
-0.088373333 0.26827621 1.6570001
-0.085217148 0.26827621 1.6570001
-0.082060955 0.26827621 1.6570001
-0.078904763 0.26827621 1.6570001
-0.075748578 0.26827621 1.6570001
-0.072592385 0.26827621 1.6570001
-0.069771431 0.26957145 1.6650001
-0.066600002 0.26957145 1.6650001
-0.063428573 0.26957145 1.6650001
-0.06054667 0.27086666 1.6730001
-0.057634287 0.2721619 1.6810001
-0.054432385 0.2721619 1.6810001
-0.051230479 0.2721619 1.6810001
-0.048285715 0.27361906 1.6900001
-0.04506667 0.27361906 1.6900001
-0.042045716 0.27491429 1.6980001
-0.03881143 0.27491429 1.6980001
-0.035577144 0.27491429 1.6980001
-0.032342859 0.27491429 1.6980001
-0.029108573 0.27491429 1.6980001
-0.025874287 0.27491429 1.6980001
-0.022640001 0.27491429 1.6980001
-0.019405715 0.27491429 1.6980001
-0.016247619 0.27620953 1.7060001
-0.012998096 0.27620953 1.7060001
-0.0098000001 0.27766669 1.715
-0.0065333336 0.27766669 1.715
-0.0032666668 0.27766669 1.715
0 0.27766669 1.715
0.0032819049 0.27896193 1.723
0.0065638097 0.27896193 1.723
0.009845715 0.27896193 1.723
0.013196191 0.28041905 1.7320001
0.016495239 0.28041905 1.7320001
0.019794287 0.28041905 1.7320001
0.023213334 0.28187621 1.7410001
0.026529524 0.28187621 1.7410001
0.030000001 0.28333333 1.7500001
0.033333335 0.28333333 1.7500001
0.036666669 0.28333333 1.7500001
0.040205717 0.28479049 1.7590001
0.043556191 0.28479049 1.7590001
0.046906669 0.28479049 1.7590001
0.050257146 0.28479049 1.7590001
0.053881906 0.28624764 1.7680001
0.057249527 0.28624764 1.7680001
0.060617145 0.28624764 1.7680001
0.064310476 0.28770477 1.7770001
0.067695238 0.28770477 1.7770001
0.071440004 0.28916192 1.7860001
0.074841909 0.28916192 1.7860001
0.078638099 0.29061905 1.7950001
0.082057148 0.29061905 1.7950001
0.085476197 0.29061905 1.7950001
0.088895239 0.29061905 1.7950001
0.092777148 0.2920762 1.8040001
0.096213333 0.2920762 1.8040001
0.099649526 0.2920762 1.8040001
0.10365715 0.29369524 1.8140001
0.10770286 0.29531428 1.8240001
0.11117715 0.29531428 1.8240001
0.11465143 0.29531428 1.8240001
0.11812572 0.29531428 1.8240001
0.1216 0.29531428 1.8240001
0.1250743 0.29531428 1.8240001
0.12918286 0.29677144 1.8330001
0.13267429 0.29677144 1.8330001
0.13616572 0.29677144 1.8330001
0.14041905 0.29839048 1.8430001
0.14471048 0.30000955 1.853
0.14744 0.29839048 1.8430001
0.15095048 0.29839048 1.8430001
0.15529905 0.30000955 1.853
0.15882857 0.30000955 1.853
0.16235811 0.30000955 1.853
0.16678286 0.30162859 1.863
0.17033143 0.30162859 1.863
0.17481335 0.30324763 1.8730001
0.17838097 0.30324763 1.8730001
0.18194857 0.30324763 1.8730001
0.18551619 0.30324763 1.8730001
0.18908381 0.30324763 1.8730001
0.19368 0.30486667 1.8830001
0.19726667 0.30486667 1.8830001
0.20085335 0.30486667 1.8830001
0.2056343 0.30664763 1.8940001
0.20924191 0.30664763 1.8940001
0.21397334 0.30826667 1.904
0.2176 0.30826667 1.904
0.22122668 0.30826667 1.904
0.22485334 0.30826667 1.904
0.22848001 0.30826667 1.904
0.23344763 0.31004763 1.9150001
0.23709525 0.31004763 1.9150001
0.24200001 0.31166667 1.9250001
0.24566668 0.31166667 1.9250001
0.25075811 0.31344762 1.9360001
0.25444573 0.31344762 1.9360001
0.25813335 0.31344762 1.9360001
0.26182097 0.31344762 1.9360001
0.26550859 0.31344762 1.9360001
0.26919621 0.31344762 1.9360001
0.2744343 0.31522858 1.9470001
0.27814287 0.31522858 1.9470001
0.28344381 0.31700954 1.9580001
0.28717333 0.31700954 1.9580001
0.29090285 0.31700954 1.9580001
0.29628763 0.3187905 1.9690001
0.3000381 0.3187905 1.9690001
0.30378857 0.3187905 1.9690001
0.30753905 0.3187905 1.9690001
0.31302857 0.32057145 1.9800001
0.3168 0.32057145 1.9800001
0.32057145 0.32057145 1.9800001
0.32630858 0.3225143 1.9920001
0.33010286 0.3225143 1.9920001
0.33188573 0.32057145 1.9800001
0.33565715 0.32057145 1.9800001
-0.41410667 0.33597335 2.0510001
-0.40300003 0.33007619 2.0150001
-0.39678478 0.32811049 2.003
-0.39081144 0.32630858 1.9920001
-0.38468572 0.32434288 1.9800001
-0.3787981 0.32254097 1.9690001
-0.37504762 0.32254097 1.9690001
-0.36922288 0.32073906 1.9580001
-0.36344001 0.31893715 1.9470001
-0.35973144 0.31893715 1.9470001
-0.35401145 0.31713524 1.9360001
-0.35032383 0.31713524 1.9360001
-0.34663621 0.31713524 1.9360001
-0.34100002 0.31533334 1.9250001
-0.33733335 0.31533334 1.9250001
-0.33366668 0.31533334 1.9250001
-0.32828572 0.31369525 1.9150001
-0.3246381 0.31369525 1.9150001
-0.31914669 0.31189334 1.904
-0.31386286 0.31025526 1.8940001
-0.31025526 0.31025526 1.8940001
-0.30486667 0.30845335 1.8830001
-0.30128002 0.30845335 1.8830001
-0.29611239 0.30681524 1.8730001
-0.29254478 0.30681524 1.8730001
-0.28897715 0.30681524 1.8730001
-0.28236192 0.30353907 1.853
-0.27732763 0.30190095 1.8430001
-0.27381715 0.30190095 1.8430001
-0.27030668 0.30190095 1.8430001
-0.26534858 0.30026287 1.8330001
-0.26185715 0.30026287 1.8330001
-0.25709715 0.29878858 1.8240001
-0.25362286 0.29878858 1.8240001
-0.24877715 0.29715049 1.8140001
-0.24396953 0.29551238 1.8040001
-0.24053334 0.29551238 1.8040001
-0.23591429 0.29403812 1.7950001
-0.23249525 0.29403812 1.7950001
-0.22907619 0.29403812 1.7950001
-0.22452572 0.29256383 1.7860001
-0.22112381 0.29256383 1.7860001
-0.21662477 0.29108953 1.7770001
-0.21324001 0.29108953 1.7770001
-0.20985524 0.29108953 1.7770001
-0.20542477 0.28961524 1.7680001
-0.20205715 0.28961524 1.7680001
-0.1976781 0.28814095 1.7590001
-0.19432762 0.28814095 1.7590001
-0.19000001 0.28666669 1.7500001
-0.18666667 0.28666669 1.7500001
-0.18239048 0.2851924 1.7410001
-0.17814858 0.28371811 1.7320001
-0.17484953 0.28371811 1.7320001
-0.17065905 0.28224382 1.723
-0.16737714 0.28224382 1.723
-0.16333334 0.28093335 1.715
-0.16006668 0.28093335 1.715
-0.15597714 0.27945906 1.7060001
-0.15272762 0.27945906 1.7060001
-0.14877714 0.27814859 1.6980001
-0.14554286 0.27814859 1.6980001
-0.14230858 0.27814859 1.6980001
-0.1390743 0.27814859 1.6980001
-0.13520001 0.27683809 1.6900001
-0.13198096 0.27683809 1.6900001
-0.1280762 0.27536383 1.6810001
-0.12487429 0.27536383 1.6810001
-0.12109334 0.27405334 1.6730001
-0.11734286 0.27274287 1.6650001
-0.11417143 0.27274287 1.6650001
-0.11046667 0.2714324 1.6570001
-0.10731048 0.2714324 1.6570001
-0.10415429 0.2714324 1.6570001
-0.10051048 0.2701219 1.649
-0.097369529 0.2701219 1.649
-0.094228573 0.2701219 1.649
-0.091087624 0.2701219 1.649
-0.088373333 0.2714324 1.6570001
-0.085217148 0.2714324 1.6570001
-0.082060955 0.2714324 1.6570001
-0.078904763 0.2714324 1.6570001
-0.075748578 0.2714324 1.6570001
-0.072592385 0.2714324 1.6570001
-0.069771431 0.27274287 1.6650001
-0.066600002 0.27274287 1.6650001
-0.063733339 0.27405334 1.6730001
-0.06054667 0.27405334 1.6730001
-0.057634287 0.27536383 1.6810001
-0.054432385 0.27536383 1.6810001
-0.051230479 0.27536383 1.6810001
-0.048285715 0.27683809 1.6900001
-0.04506667 0.27683809 1.6900001
-0.042045716 0.27814859 1.6980001
-0.03881143 0.27814859 1.6980001
-0.035744764 0.27945906 1.7060001
-0.032495238 0.27945906 1.7060001
-0.029108573 0.27814859 1.6980001
-0.025874287 0.27814859 1.6980001
-0.022746667 0.27945906 1.7060001
-0.019497143 0.27945906 1.7060001
-0.016247619 0.27945906 1.7060001
-0.012998096 0.27945906 1.7060001
-0.0097485716 0.27945906 1.7060001
-0.0065333336 0.28093335 1.715
-0.0032666668 0.28093335 1.715
0 0.28093335 1.715
0.0032819049 0.28224382 1.723
0.0065638097 0.28224382 1.723
0.009845715 0.28224382 1.723
0.013196191 0.28371811 1.7320001
0.016580952 0.2851924 1.7410001
0.019897144 0.2851924 1.7410001
0.023213334 0.2851924 1.7410001
0.026529524 0.2851924 1.7410001
0.030000001 0.28666669 1.7500001
0.033333335 0.28666669 1.7500001
0.036666669 0.28666669 1.7500001
0.040205717 0.28814095 1.7590001
0.043556191 0.28814095 1.7590001
0.046906669 0.28814095 1.7590001
0.050257146 0.28814095 1.7590001
0.05360762 0.28814095 1.7590001
0.057249527 0.28961524 1.7680001
0.060617145 0.28961524 1.7680001
0.063984767 0.28961524 1.7680001
0.067695238 0.29108953 1.7770001
0.071440004 0.29256383 1.7860001
0.074841909 0.29256383 1.7860001
0.078243814 0.29256383 1.7860001
0.08164572 0.29256383 1.7860001
0.085476197 0.29403812 1.7950001
0.088895239 0.29403812 1.7950001
0.092314288 0.29403812 1.7950001
0.095733337 0.29403812 1.7950001
0.099649526 0.29551238 1.8040001
0.10308572 0.29551238 1.8040001
0.10711239 0.29715049 1.8140001
0.11056762 0.29715049 1.8140001
0.11402286 0.29715049 1.8140001
0.11812572 0.29878858 1.8240001
0.1216 0.29878858 1.8240001
0.12569143 0.30026287 1.8330001
0.12918286 0.30026287 1.8330001
0.13267429 0.30026287 1.8330001
0.13690858 0.30190095 1.8430001
0.14041905 0.30190095 1.8430001
0.14471048 0.30353907 1.853
0.14744 0.30190095 1.8430001
0.15176953 0.30353907 1.853
0.15529905 0.30353907 1.853
0.15882857 0.30353907 1.853
0.16323429 0.30517715 1.863
0.16678286 0.30517715 1.863
0.17033143 0.30517715 1.863
0.17481335 0.30681524 1.8730001
0.17838097 0.30681524 1.8730001
0.18194857 0.30681524 1.8730001
0.18551619 0.30681524 1.8730001
0.18908381 0.30681524 1.8730001
0.19368 0.30845335 1.8830001
0.19726667 0.30845335 1.8830001
0.20085335 0.30845335 1.8830001
0.2056343 0.31025526 1.8940001
0.20924191 0.31025526 1.8940001
0.21284953 0.31025526 1.8940001
0.2176 0.31189334 1.904
0.22122668 0.31189334 1.904
0.22485334 0.31189334 1.904
0.22848001 0.31189334 1.904
0.23344763 0.31369525 1.9150001
0.23709525 0.31369525 1.9150001
0.24074286 0.31369525 1.9150001
0.24566668 0.31533334 1.9250001
0.25075811 0.31713524 1.9360001
0.25444573 0.31713524 1.9360001
0.25813335 0.31713524 1.9360001
0.26182097 0.31713524 1.9360001
0.26550859 0.31713524 1.9360001
0.26919621 0.31713524 1.9360001
0.2744343 0.31893715 1.9470001
0.27814287 0.31893715 1.9470001
0.28344381 0.32073906 1.9580001
0.28717333 0.32073906 1.9580001
0.29090285 0.32073906 1.9580001
0.29628763 0.32254097 1.9690001
0.3000381 0.32254097 1.9690001
0.30378857 0.32254097 1.9690001
0.30753905 0.32254097 1.9690001
0.31302857 0.32434288 1.9800001
0.3168 0.32434288 1.9800001
0.32057145 0.32434288 1.9800001
0.32434288 0.32434288 1.9800001
0.3281143 0.32434288 1.9800001
0.33188573 0.32434288 1.9800001
0.33565715 0.32434288 1.9800001
-0.39460573 0.33010286 1.9920001
-0.39081144 0.33010286 1.9920001
-0.38468572 0.3281143 1.9800001
-0.3787981 0.32629144 1.9690001
-0.3729524 0.32446858 1.9580001
-0.36714858 0.32264572 1.9470001
-0.36344001 0.32264572 1.9470001
-0.35769907 0.32082286 1.9360001
-0.35401145 0.32082286 1.9360001
-0.35032383 0.32082286 1.9360001
-0.34663621 0.32082286 1.9360001
-0.34100002 0.31900001 1.9250001
-0.33733335 0.31900001 1.9250001
-0.33366668 0.31900001 1.9250001
-0.32828572 0.31734288 1.9150001
-0.32277334 0.31552002 1.904
-0.31914669 0.31552002 1.904
-0.31386286 0.31386286 1.8940001
-0.31025526 0.31386286 1.8940001
-0.30486667 0.31204 1.8830001
-0.30128002 0.31204 1.8830001
-0.29611239 0.31038287 1.8730001
-0.29254478 0.31038287 1.8730001
-0.28897715 0.31038287 1.8730001
-0.28236192 0.30706859 1.853
-0.27732763 0.30541143 1.8430001
-0.27381715 0.30541143 1.8430001
-0.27030668 0.30541143 1.8430001
-0.26534858 0.3037543 1.8330001
-0.26185715 0.3037543 1.8330001
-0.25836572 0.3037543 1.8330001
-0.25362286 0.30226287 1.8240001
-0.24877715 0.30060571 1.8140001
-0.24396953 0.29894859 1.8040001
-0.24053334 0.29894859 1.8040001
-0.23709716 0.29894859 1.8040001
-0.23249525 0.29745716 1.7950001
-0.22907619 0.29745716 1.7950001
-0.22565715 0.29745716 1.7950001
-0.22112381 0.29596573 1.7860001
-0.21662477 0.2944743 1.7770001
-0.21324001 0.2944743 1.7770001
-0.20985524 0.2944743 1.7770001
-0.20542477 0.29298288 1.7680001
-0.20205715 0.29298288 1.7680001
-0.1976781 0.29149145 1.7590001
-0.19432762 0.29149145 1.7590001
-0.19000001 0.29000002 1.7500001
-0.18570668 0.28850859 1.7410001
-0.18239048 0.28850859 1.7410001
-0.17814858 0.28701717 1.7320001
-0.17484953 0.28701717 1.7320001
-0.17065905 0.28552574 1.723
-0.16737714 0.28552574 1.723
-0.16409524 0.28552574 1.723
-0.16006668 0.28420001 1.715
-0.1568 0.28420001 1.715
-0.15272762 0.28270859 1.7060001
-0.14877714 0.28138286 1.6980001
-0.14554286 0.28138286 1.6980001
-0.14230858 0.28138286 1.6980001
-0.1390743 0.28138286 1.6980001
-0.13520001 0.28005716 1.6900001
-0.13198096 0.28005716 1.6900001
-0.1280762 0.27856573 1.6810001
-0.12428001 0.27724001 1.6730001
-0.12109334 0.27724001 1.6730001
-0.11734286 0.27591428 1.6650001
-0.11417143 0.27591428 1.6650001
-0.11046667 0.27458858 1.6570001
-0.10731048 0.27458858 1.6570001
-0.10365143 0.27326286 1.649
-0.10051048 0.27326286 1.649
-0.097369529 0.27326286 1.649
-0.094685718 0.27458858 1.6570001
-0.091529526 0.27458858 1.6570001
-0.088373333 0.27458858 1.6570001
-0.085217148 0.27458858 1.6570001
-0.082060955 0.27458858 1.6570001
-0.078904763 0.27458858 1.6570001
-0.075748578 0.27458858 1.6570001
-0.07294286 0.27591428 1.6650001
-0.069771431 0.27591428 1.6650001
-0.066600002 0.27591428 1.6650001
-0.063733339 0.27724001 1.6730001
-0.06054667 0.27724001 1.6730001
-0.057634287 0.27856573 1.6810001
-0.054432385 0.27856573 1.6810001
-0.051230479 0.27856573 1.6810001
-0.048285715 0.28005716 1.6900001
-0.04506667 0.28005716 1.6900001
-0.042045716 0.28138286 1.6980001
-0.03881143 0.28138286 1.6980001
-0.035577144 0.28138286 1.6980001
-0.032495238 0.28270859 1.7060001
-0.029108573 0.28138286 1.6980001
-0.025874287 0.28138286 1.6980001
-0.022746667 0.28270859 1.7060001
-0.019497143 0.28270859 1.7060001
-0.016247619 0.28270859 1.7060001
-0.012998096 0.28270859 1.7060001
-0.0098000001 0.28420001 1.715
-0.0065333336 0.28420001 1.715
-0.0032666668 0.28420001 1.715
0 0.28420001 1.715
0.0032819049 0.28552574 1.723
0.0065638097 0.28552574 1.723
0.009845715 0.28552574 1.723
0.013196191 0.28701717 1.7320001
0.016495239 0.28701717 1.7320001
0.019897144 0.28850859 1.7410001
0.023213334 0.28850859 1.7410001
0.026529524 0.28850859 1.7410001
0.030000001 0.29000002 1.7500001
0.033333335 0.29000002 1.7500001
0.036666669 0.29000002 1.7500001
0.040000003 0.29000002 1.7500001
0.043333337 0.29000002 1.7500001
0.046906669 0.29149145 1.7590001
0.050257146 0.29149145 1.7590001
0.05360762 0.29149145 1.7590001
0.056958098 0.29149145 1.7590001
0.060308572 0.29149145 1.7590001
0.06365905 0.29149145 1.7590001
0.067352384 0.29298288 1.7680001
0.071079999 0.2944743 1.7770001
0.074464768 0.2944743 1.7770001
0.078243814 0.29596573 1.7860001
0.082057148 0.29745716 1.7950001
0.085476197 0.29745716 1.7950001
0.088895239 0.29745716 1.7950001
0.092314288 0.29745716 1.7950001
0.096213333 0.29894859 1.8040001
0.099649526 0.29894859 1.8040001
0.10365715 0.30060571 1.8140001
0.10711239 0.30060571 1.8140001
0.11117715 0.30226287 1.8240001
0.11465143 0.30226287 1.8240001
0.11812572 0.30226287 1.8240001
0.1216 0.30226287 1.8240001
0.12569143 0.3037543 1.8330001
0.12918286 0.3037543 1.8330001
0.13267429 0.3037543 1.8330001
0.13616572 0.3037543 1.8330001
0.14041905 0.30541143 1.8430001
0.14392953 0.30541143 1.8430001
0.14744 0.30541143 1.8430001
0.15176953 0.30706859 1.853
0.15529905 0.30706859 1.853
0.15968572 0.30872571 1.863
0.16323429 0.30872571 1.863
0.16678286 0.30872571 1.863
0.17033143 0.30872571 1.863
0.17481335 0.31038287 1.8730001
0.17838097 0.31038287 1.8730001
0.18194857 0.31038287 1.8730001
0.18551619 0.31038287 1.8730001
0.19009334 0.31204 1.8830001
0.19368 0.31204 1.8830001
0.19726667 0.31204 1.8830001
0.20202668 0.31386286 1.8940001
0.2056343 0.31386286 1.8940001
0.21034667 0.31552002 1.904
0.21397334 0.31552002 1.904
0.2176 0.31552002 1.904
0.22122668 0.31552002 1.904
0.22485334 0.31552002 1.904
0.22848001 0.31552002 1.904
0.23344763 0.31734288 1.9150001
0.23709525 0.31734288 1.9150001
0.24074286 0.31734288 1.9150001
0.24566668 0.31900001 1.9250001
0.25075811 0.32082286 1.9360001
0.25300002 0.31900001 1.9250001
0.25813335 0.32082286 1.9360001
0.26182097 0.32082286 1.9360001
0.26550859 0.32082286 1.9360001
0.26919621 0.32082286 1.9360001
0.2744343 0.32264572 1.9470001
0.27814287 0.32264572 1.9470001
0.28344381 0.32446858 1.9580001
0.28717333 0.32446858 1.9580001
0.29090285 0.32446858 1.9580001
0.29628763 0.32629144 1.9690001
0.3000381 0.32629144 1.9690001
0.30548573 0.3281143 1.9800001
0.30753905 0.32629144 1.9690001
0.31302857 0.3281143 1.9800001
0.3168 0.3281143 1.9800001
0.32057145 0.3281143 1.9800001
0.32630858 0.33010286 1.9920001
0.33010286 0.33010286 1.9920001
0.33188573 0.3281143 1.9800001
0.33565715 0.3281143 1.9800001
-0.39678478 0.33574095 2.003
-0.39081144 0.33389714 1.9920001
-0.38468572 0.33188573 1.9800001
-0.3809143 0.33188573 1.9800001
-0.3729524 0.32819811 1.9580001
-0.36922288 0.32819811 1.9580001
-0.36344001 0.3263543 1.9470001
-0.35973144 0.3263543 1.9470001
-0.35401145 0.32451048 1.9360001
-0.35032383 0.32451048 1.9360001
-0.34663621 0.32451048 1.9360001
-0.34100002 0.32266667 1.9250001
-0.33733335 0.32266667 1.9250001
-0.33366668 0.32266667 1.9250001
-0.32828572 0.3209905 1.9150001
-0.32277334 0.31914669 1.904
-0.31914669 0.31914669 1.904
-0.31386286 0.31747049 1.8940001
-0.31025526 0.31747049 1.8940001
-0.30486667 0.31562668 1.8830001
-0.29968002 0.31395048 1.8730001
-0.29611239 0.31395048 1.8730001
-0.29254478 0.31395048 1.8730001
-0.28897715 0.31395048 1.8730001
-0.28236192 0.31059811 1.853
-0.27883241 0.31059811 1.853
-0.27381715 0.3089219 1.8430001
-0.27030668 0.3089219 1.8430001
-0.26534858 0.30724573 1.8330001
-0.26185715 0.30724573 1.8330001
-0.25836572 0.30724573 1.8330001
-0.25362286 0.30573717 1.8240001
-0.25014859 0.30573717 1.8240001
-0.24532191 0.30406097 1.8140001
-0.24053334 0.30238476 1.8040001
-0.23709716 0.30238476 1.8040001
-0.23249525 0.3008762 1.7950001
-0.22907619 0.3008762 1.7950001
-0.22565715 0.3008762 1.7950001
-0.22112381 0.29936764 1.7860001
-0.21772191 0.29936764 1.7860001
