# .PCD v0.7 - Point Cloud Data file format
VERSION 0.7
FIELDS x y z
SIZE 4 4 4
TYPE F F F
COUNT 1 1 1
WIDTH 1512
HEIGHT 1
VIEWPOINT 0 0 0 1 0 0 0
POINTS 1512
DATA ascii
-0.18762667 0.46571621 1.7590001
-0.18427619 0.46571621 1.7590001
-0.18000001 0.46333334 1.7500001
-0.17666668 0.46333334 1.7500001
-0.17333335 0.46333334 1.7500001
-0.1708743 0.46571621 1.7590001
-0.16666667 0.46333334 1.7500001
-0.16333334 0.46333334 1.7500001
-0.1583543 0.45856765 1.7320001
-0.15505524 0.45856765 1.7320001
-0.15254477 0.46095049 1.7410001
-0.14922857 0.46095049 1.7410001
-0.1451581 0.45856765 1.7320001
-0.14185905 0.45856765 1.7320001
-0.13856001 0.45856765 1.7320001
-0.13526095 0.45856765 1.7320001
-0.13196191 0.45856765 1.7320001
-0.12799428 0.45618477 1.723
-0.12471239 0.45618477 1.723
-0.12143048 0.45618477 1.723
-0.11814857 0.45618477 1.723
-0.11486667 0.45618477 1.723
-0.11158477 0.45618477 1.723
-0.10830286 0.45618477 1.723
-0.10502096 0.45618477 1.723
-0.10173905 0.45618477 1.723
-0.09845715 0.45618477 1.723
-0.095175244 0.45618477 1.723
-0.091893338 0.45618477 1.723
-0.088611431 0.45618477 1.723
-0.085329525 0.45618477 1.723
-0.081238098 0.45168382 1.7060001
-0.077988572 0.45168382 1.7060001
-0.074739054 0.45168382 1.7060001
-0.071154289 0.44956574 1.6980001
-0.067919999 0.44956574 1.6980001
-0.064685717 0.44956574 1.6980001
-0.061451431 0.44956574 1.6980001
-0.058217146 0.44956574 1.6980001
-0.05498286 0.44956574 1.6980001
-0.051504765 0.44744763 1.6900001
-0.048285715 0.44744763 1.6900001
-0.04506667 0.44744763 1.6900001
-0.04184762 0.44744763 1.6900001
-0.038628574 0.44744763 1.6900001
-0.035220955 0.44506478 1.6810001
-0.032190476 0.44744763 1.6900001
-0.02897143 0.44744763 1.6900001
-0.02561524 0.44506478 1.6810001
-0.022413334 0.44506478 1.6810001
-0.01912 0.44294667 1.6730001
-0.015933335 0.44294667 1.6730001
-0.012746667 0.44294667 1.6730001
-0.0095142862 0.44082859 1.6650001
-0.006312381 0.43871048 1.6570001
-0.0031561905 0.43871048 1.6570001
0 0.43871048 1.6570001
0.0031561905 0.43871048 1.6570001
0.006312381 0.43871048 1.6570001
0.0094228573 0.4365924 1.649
0.01256381 0.4365924 1.649
0.015704762 0.4365924 1.649
0.018845715 0.4365924 1.649
0.021986667 0.4365924 1.649
0.02512762 0.4365924 1.649
0.028268572 0.4365924 1.649
0.031409524 0.4365924 1.649
0.034382857 0.43447429 1.641
0.037508573 0.43447429 1.641
0.040634286 0.43447429 1.641
0.043760002 0.43447429 1.641
0.046885718 0.43447429 1.641
0.049798097 0.43262097 1.6340001
0.052910477 0.43262097 1.6340001
0.056262858 0.43447429 1.641
0.059678096 0.4365924 1.649
0.062819049 0.4365924 1.649
0.06628 0.43871048 1.6570001
0.069771431 0.44082859 1.6650001
0.073293336 0.44294667 1.6730001
0.076480001 0.44294667 1.6730001
0.080047622 0.44506478 1.6810001
0.083249524 0.44506478 1.6810001
0.086914286 0.44744763 1.6900001
0.090560004 0.44956574 1.6980001
0.094236195 0.45168382 1.7060001
0.098000005 0.45406669 1.715
0.10173905 0.45618477 1.723
0.10556953 0.45856765 1.7320001
0.10886858 0.45856765 1.7320001
0.11275048 0.46095049 1.7410001
0.11666667 0.46333334 1.7500001
0.12061714 0.46571621 1.7590001
0.12460191 0.46809906 1.7680001
0.12862095 0.47048193 1.7770001
0.13267429 0.47286478 1.7860001
0.1367619 0.47524765 1.7950001
0.14088382 0.4776305 1.8040001
0.14432001 0.4776305 1.8040001
0.14857525 0.4802781 1.8140001
0.15286858 0.48292574 1.8240001
0.1571143 0.48530859 1.8330001
0.16148192 0.4879562 1.8430001
0.16499239 0.4879562 1.8430001
0.16941714 0.49060383 1.853
0.17388001 0.49325144 1.863
0.17838097 0.49589905 1.8730001
0.18194857 0.49589905 1.8730001
0.18650667 0.49854669 1.8830001
0.19120382 0.50145906 1.8940001
0.19584 0.5041067 1.904
0.19946668 0.5041067 1.904
0.20533334 0.50966668 1.9250001
0.21019429 0.51257908 1.9360001
0.21509714 0.51549143 1.9470001
0.22004192 0.51840383 1.9580001
0.22502857 0.52131623 1.9690001
0.22877906 0.52131623 1.9690001
0.23382857 0.52422857 1.9800001
0.23904 0.52740574 1.9920001
0.2428343 0.52740574 1.9920001
0.24799049 0.53031814 2.003
0.25180572 0.53031814 2.003
0.26021525 0.53984952 2.039
0.26409906 0.53984952 2.039
0.26640573 0.53667241 2.0270002
0.27026668 0.53667241 2.0270002
0.27575049 0.53984952 2.039
0.2796343 0.53984952 2.039
-0.44734478 0.50506669 1.8940001
-0.44373715 0.50506669 1.8940001
-0.44245335 0.50773335 1.904
-0.43652192 0.50506669 1.8940001
-0.43291429 0.50506669 1.8940001
-0.42930669 0.50506669 1.8940001
-0.42322668 0.50213337 1.8830001
-0.41964 0.50213337 1.8830001
-0.41605335 0.50213337 1.8830001
-0.4102762 0.49946669 1.8730001
-0.4067086 0.49946669 1.8730001
-0.40314096 0.49946669 1.8730001
-0.39957336 0.49946669 1.8730001
-0.39389145 0.49680001 1.863
-0.39034286 0.49680001 1.863
-0.3867943 0.49680001 1.863
-0.38118857 0.49413335 1.853
-0.37765905 0.49413335 1.853
-0.37412953 0.49413335 1.853
-0.37060001 0.49413335 1.853
-0.36508954 0.49146667 1.8430001
-0.36157906 0.49146667 1.8430001
-0.35806859 0.49146667 1.8430001
-0.35455811 0.49146667 1.8430001
-0.35104764 0.49146667 1.8430001
-0.34753716 0.49146667 1.8430001
-0.34402668 0.49146667 1.8430001
-0.34051621 0.49146667 1.8430001
-0.33700573 0.49146667 1.8430001
-0.33349526 0.49146667 1.8430001
-0.32998478 0.49146667 1.8430001
-0.32470286 0.48880002 1.8330001
-0.32121143 0.48880002 1.8330001
-0.31772003 0.48880002 1.8330001
-0.31422859 0.48880002 1.8330001
-0.30921143 0.48640001 1.8240001
-0.30573717 0.48640001 1.8240001
-0.30226287 0.48640001 1.8240001
-0.29878858 0.48640001 1.8240001
-0.29369524 0.48373336 1.8140001
-0.29024002 0.48373336 1.8140001
-0.28520381 0.48106667 1.8040001
-0.28176764 0.48106667 1.8040001
-0.27833143 0.48106667 1.8040001
-0.27352381 0.47866669 1.7950001
-0.27010477 0.47866669 1.7950001
-0.26668572 0.47866669 1.7950001
-0.26194668 0.47626668 1.7860001
-0.25854477 0.47626668 1.7860001
-0.25514287 0.47626668 1.7860001
-0.2504724 0.47386667 1.7770001
-0.24708763 0.47386667 1.7770001
-0.24493715 0.47626668 1.7860001
-0.24153525 0.47626668 1.7860001
-0.23933335 0.47866669 1.7950001
-0.23473144 0.47626668 1.7860001
-0.23249525 0.47866669 1.7950001
-0.22792763 0.47626668 1.7860001
-0.22452572 0.47626668 1.7860001
-0.22000954 0.47386667 1.7770001
-0.21662477 0.47386667 1.7770001
-0.21216001 0.47146669 1.7680001
-0.20879239 0.47146669 1.7680001
-0.20542477 0.47146669 1.7680001
-0.20102859 0.46906668 1.7590001
-0.1976781 0.46906668 1.7590001
-0.19432762 0.46906668 1.7590001
-0.19097716 0.46906668 1.7590001
-0.18762667 0.46906668 1.7590001
-0.18427619 0.46906668 1.7590001
-0.18092573 0.46906668 1.7590001
-0.17666668 0.4666667 1.7500001
-0.17333335 0.4666667 1.7500001
-0.1708743 0.46906668 1.7590001
-0.16666667 0.4666667 1.7500001
-0.16333334 0.4666667 1.7500001
-0.1583543 0.46186668 1.7320001
-0.15505524 0.46186668 1.7320001
-0.1517562 0.46186668 1.7320001
-0.14845715 0.46186668 1.7320001
-0.1451581 0.46186668 1.7320001
-0.14185905 0.46186668 1.7320001
-0.13856001 0.46186668 1.7320001
-0.13526095 0.46186668 1.7320001
-0.13196191 0.46186668 1.7320001
-0.12866285 0.46186668 1.7320001
-0.12471239 0.4594667 1.723
-0.12143048 0.4594667 1.723
-0.11814857 0.4594667 1.723
-0.11433334 0.45733336 1.715
-0.11158477 0.4594667 1.723
-0.10830286 0.4594667 1.723
-0.10502096 0.4594667 1.723
-0.10173905 0.4594667 1.723
-0.09845715 0.4594667 1.723
-0.095175244 0.4594667 1.723
-0.091893338 0.4594667 1.723
-0.088611431 0.4594667 1.723
-0.085329525 0.4594667 1.723
-0.081238098 0.45493335 1.7060001
-0.077988572 0.45493335 1.7060001
-0.074739054 0.45493335 1.7060001
-0.071154289 0.45280001 1.6980001
-0.067919999 0.45280001 1.6980001
-0.064685717 0.45280001 1.6980001
-0.061451431 0.45280001 1.6980001
-0.058217146 0.45280001 1.6980001
-0.05498286 0.45280001 1.6980001
-0.051748574 0.45280001 1.6980001
-0.048285715 0.4506667 1.6900001
-0.04506667 0.4506667 1.6900001
-0.04184762 0.4506667 1.6900001
-0.038628574 0.4506667 1.6900001
-0.035220955 0.44826669 1.6810001
-0.032019049 0.44826669 1.6810001
-0.02897143 0.4506667 1.6900001
-0.025493335 0.44613335 1.6730001
-0.022413334 0.44826669 1.6810001
-0.01912 0.44613335 1.6730001
-0.015933335 0.44613335 1.6730001
-0.012685714 0.44400001 1.6650001
-0.0095142862 0.44400001 1.6650001
-0.006312381 0.4418667 1.6570001
-0.0031561905 0.4418667 1.6570001
0 0.4418667 1.6570001
0.0031561905 0.4418667 1.6570001
0.006312381 0.4418667 1.6570001
0.0094228573 0.43973336 1.649
0.01256381 0.43973336 1.649
0.015704762 0.43973336 1.649
0.018845715 0.43973336 1.649
0.021986667 0.43973336 1.649
0.02512762 0.43973336 1.649
0.028268572 0.43973336 1.649
0.031409524 0.43973336 1.649
0.034550477 0.43973336 1.649
0.037508573 0.43760002 1.641
0.040634286 0.43760002 1.641
0.043760002 0.43760002 1.641
0.046885718 0.43760002 1.641
0.049798097 0.43573335 1.6340001
0.052910477 0.43573335 1.6340001
0.056262858 0.43760002 1.641
0.059678096 0.43973336 1.649
0.062819049 0.43973336 1.649
0.06628 0.4418667 1.6570001
0.069771431 0.44400001 1.6650001
0.07294286 0.44400001 1.6650001
0.076480001 0.44613335 1.6730001
0.079666667 0.44613335 1.6730001
0.083249524 0.44826669 1.6810001
0.086914286 0.4506667 1.6900001
0.090133339 0.4506667 1.6900001
0.094236195 0.45493335 1.7060001
0.098000005 0.45733336 1.715
0.10173905 0.4594667 1.723
0.10556953 0.46186668 1.7320001
0.10886858 0.46186668 1.7320001
0.11275048 0.46426669 1.7410001
0.11666667 0.4666667 1.7500001
0.12061714 0.46906668 1.7590001
0.1252362 0.47386667 1.7770001
0.12927239 0.47626668 1.7860001
0.13267429 0.47626668 1.7860001
0.1367619 0.47866669 1.7950001
0.14088382 0.48106667 1.8040001
0.14512001 0.48373336 1.8140001
0.14857525 0.48373336 1.8140001
0.15286858 0.48640001 1.8240001
0.1571143 0.48880002 1.8330001
0.16148192 0.49146667 1.8430001
0.16499239 0.49146667 1.8430001
0.16941714 0.49413335 1.853
0.17388001 0.49680001 1.863
0.17838097 0.49946669 1.8730001
0.18194857 0.49946669 1.8730001
0.18650667 0.50213337 1.8830001
0.19120382 0.50506669 1.8940001
0.19584 0.50773335 1.904
0.19946668 0.50773335 1.904
0.20426667 0.51066667 1.9150001
0.21019429 0.5162667 1.9360001
0.21509714 0.51920003 1.9470001
0.22004192 0.52213335 1.9580001
0.22502857 0.52506667 1.9690001
0.22877906 0.52506667 1.9690001
0.23382857 0.528 1.9800001
0.23904 0.53119999 1.9920001
0.24417524 0.53413337 2.003
0.24799049 0.53413337 2.003
0.25331429 0.53733337 2.0150001
0.26021525 0.54373336 2.039
0.26409906 0.54373336 2.039
0.26640573 0.54053336 2.0270002
0.27186668 0.54373336 2.039
0.27575049 0.54373336 2.039
0.28128001 0.54693335 2.0510001
0.28518668 0.54693335 2.0510001
-0.44970667 0.51135999 1.904
-0.44608003 0.51135999 1.904
-0.44500953 0.51431429 1.9150001
-0.43882668 0.51135999 1.904
-0.43291429 0.50867432 1.8940001
-0.42930669 0.50867432 1.8940001
-0.42569906 0.50867432 1.8940001
-0.41964 0.50572002 1.8830001
-0.41605335 0.50572002 1.8830001
-0.41246668 0.50572002 1.8830001
-0.4067086 0.50303429 1.8730001
-0.40314096 0.50303429 1.8730001
-0.39957336 0.50303429 1.8730001
-0.39600572 0.50303429 1.8730001
-0.39034286 0.50034857 1.863
-0.3867943 0.50034857 1.863
-0.38324574 0.50034857 1.863
-0.37765905 0.49766287 1.853
-0.37412953 0.49766287 1.853
-0.37060001 0.49766287 1.853
-0.3670705 0.49766287 1.853
-0.36157906 0.49497715 1.8430001
-0.35806859 0.49497715 1.8430001
-0.35455811 0.49497715 1.8430001
-0.35104764 0.49497715 1.8430001
-0.34942287 0.49766287 1.853
-0.34402668 0.49497715 1.8430001
-0.34051621 0.49497715 1.8430001
-0.33700573 0.49497715 1.8430001
-0.33349526 0.49497715 1.8430001
-0.32998478 0.49497715 1.8430001
-0.32647431 0.49497715 1.8430001
-0.32296383 0.49497715 1.8430001
-0.31772003 0.49229145 1.8330001
-0.31422859 0.49229145 1.8330001
-0.30921143 0.4898743 1.8240001
-0.30573717 0.4898743 1.8240001
-0.30226287 0.4898743 1.8240001
-0.29878858 0.4898743 1.8240001
-0.29369524 0.48718858 1.8140001
-0.29024002 0.48718858 1.8140001
-0.28520381 0.48450288 1.8040001
-0.28176764 0.48450288 1.8040001
-0.27833143 0.48450288 1.8040001
-0.27352381 0.48208573 1.7950001
-0.27010477 0.48208573 1.7950001
-0.26668572 0.48208573 1.7950001
-0.26194668 0.47966859 1.7860001
-0.25854477 0.47966859 1.7860001
-0.25514287 0.47966859 1.7860001
-0.25174096 0.47966859 1.7860001
-0.24833906 0.47966859 1.7860001
-0.24493715 0.47966859 1.7860001
-0.24275239 0.48208573 1.7950001
-0.23933335 0.48208573 1.7950001
-0.23473144 0.47966859 1.7860001
-0.23132953 0.47966859 1.7860001
-0.22792763 0.47966859 1.7860001
-0.22339429 0.47725144 1.7770001
-0.22000954 0.47725144 1.7770001
-0.21662477 0.47725144 1.7770001
-0.21216001 0.47483429 1.7680001
-0.20879239 0.47483429 1.7680001
-0.20542477 0.47483429 1.7680001
-0.20102859 0.47241715 1.7590001
-0.19868954 0.47483429 1.7680001
-0.19432762 0.47241715 1.7590001
-0.19097716 0.47241715 1.7590001
-0.18762667 0.47241715 1.7590001
-0.18427619 0.47241715 1.7590001
-0.18092573 0.47241715 1.7590001
-0.17757525 0.47241715 1.7590001
-0.17422476 0.47241715 1.7590001
-0.1708743 0.47241715 1.7590001
-0.16752382 0.47241715 1.7590001
-0.16333334 0.47000003 1.7500001
-0.15917715 0.46758288 1.7410001
-0.15586096 0.46758288 1.7410001
-0.15254477 0.46758288 1.7410001
-0.14922857 0.46758288 1.7410001
-0.1451581 0.46516573 1.7320001
-0.14185905 0.46516573 1.7320001
-0.13856001 0.46516573 1.7320001
-0.13526095 0.46516573 1.7320001
-0.13196191 0.46516573 1.7320001
-0.12866285 0.46516573 1.7320001
-0.12471239 0.46274859 1.723
-0.12143048 0.46274859 1.723
-0.11814857 0.46274859 1.723
-0.11486667 0.46274859 1.723
-0.11158477 0.46274859 1.723
-0.10830286 0.46274859 1.723
-0.10502096 0.46274859 1.723
-0.10173905 0.46274859 1.723
-0.09845715 0.46274859 1.723
-0.095175244 0.46274859 1.723
-0.091893338 0.46274859 1.723
-0.088611431 0.46274859 1.723
-0.084933333 0.46060002 1.715
-0.081238098 0.45818287 1.7060001
-0.077988572 0.45818287 1.7060001
-0.074388571 0.4560343 1.6980001
-0.071154289 0.4560343 1.6980001
-0.067919999 0.4560343 1.6980001
-0.064685717 0.4560343 1.6980001
-0.061451431 0.4560343 1.6980001
-0.058217146 0.4560343 1.6980001
-0.05498286 0.4560343 1.6980001
-0.051748574 0.4560343 1.6980001
-0.048285715 0.45388573 1.6900001
-0.04506667 0.45388573 1.6900001
-0.04184762 0.45388573 1.6900001
-0.03842286 0.45146859 1.6810001
-0.035220955 0.45146859 1.6810001
-0.032019049 0.45146859 1.6810001
-0.028817143 0.45146859 1.6810001
-0.025493335 0.44932002 1.6730001
-0.022306668 0.44932002 1.6730001
-0.01912 0.44932002 1.6730001
-0.015857143 0.44717145 1.6650001
-0.012685714 0.44717145 1.6650001
-0.0095142862 0.44717145 1.6650001
-0.006312381 0.44502288 1.6570001
-0.0031561905 0.44502288 1.6570001
0 0.44502288 1.6570001
0.0031561905 0.44502288 1.6570001
0.006312381 0.44502288 1.6570001
0.0094228573 0.44287431 1.649
0.01256381 0.44287431 1.649
0.015704762 0.44287431 1.649
0.018845715 0.44287431 1.649
0.021986667 0.44287431 1.649
0.02512762 0.44287431 1.649
0.028268572 0.44287431 1.649
0.031409524 0.44287431 1.649
0.034550477 0.44287431 1.649
0.037508573 0.44072574 1.641
0.040634286 0.44072574 1.641
0.043573335 0.43884572 1.6340001
0.046685714 0.43884572 1.6340001
0.049554288 0.43669716 1.626
0.052910477 0.43884572 1.6340001
0.05602286 0.43884572 1.6340001
0.059388574 0.44072574 1.641
0.062819049 0.44287431 1.649
0.06628 0.44502288 1.6570001
0.069436193 0.44502288 1.6570001
0.07294286 0.44717145 1.6650001
0.076114289 0.44717145 1.6650001
0.079666667 0.44932002 1.6730001
0.083249524 0.45146859 1.6810001
0.086914286 0.45388573 1.6900001
0.090133339 0.45388573 1.6900001
0.093794286 0.4560343 1.6980001
0.098000005 0.46060002 1.715
0.10173905 0.46274859 1.723
0.10556953 0.46516573 1.7320001
0.10943429 0.46758288 1.7410001
0.11333334 0.47000003 1.7500001
0.11666667 0.47000003 1.7500001
0.12061714 0.47241715 1.7590001
0.1252362 0.47725144 1.7770001
0.12927239 0.47966859 1.7860001
0.13267429 0.47966859 1.7860001
0.1367619 0.48208573 1.7950001
0.14088382 0.48450288 1.8040001
0.14512001 0.48718858 1.8140001
0.14857525 0.48718858 1.8140001
0.15286858 0.4898743 1.8240001
0.1571143 0.49229145 1.8330001
0.16148192 0.49497715 1.8430001
0.16499239 0.49497715 1.8430001
0.16941714 0.49766287 1.853
0.17388001 0.50034857 1.863
0.17838097 0.50303429 1.8730001
0.18194857 0.50303429 1.8730001
0.18650667 0.50572002 1.8830001
0.19120382 0.50867432 1.8940001
0.19481143 0.50867432 1.8940001
0.19946668 0.51135999 1.904
0.20309334 0.51135999 1.904
0.21019429 0.51995432 1.9360001
0.21509714 0.52290857 1.9470001
0.22004192 0.52586287 1.9580001
0.22502857 0.52881718 1.9690001
0.22877906 0.52881718 1.9690001
0.23382857 0.53177142 1.9800001
0.23904 0.5349943 1.9920001
0.24417524 0.53794861 2.003
0.24799049 0.53794861 2.003
0.25331429 0.54117143 2.0150001
0.25868383 0.54439431 2.0270002
0.26565334 0.55084002 2.0510001
0.26798287 0.54761714 2.039
0.27186668 0.54761714 2.039
0.27575049 0.54761714 2.039
0.28128001 0.55084002 2.0510001
0.28518668 0.55084002 2.0510001
-0.44970667 0.51498669 1.904
-0.44373715 0.51228189 1.8940001
-0.44245335 0.51498669 1.904
-0.43652192 0.51228189 1.8940001
-0.43291429 0.51228189 1.8940001
-0.42930669 0.51228189 1.8940001
-0.42569906 0.51228189 1.8940001
-0.42209145 0.51228189 1.8940001
-0.41605335 0.50930667 1.8830001
-0.41246668 0.50930667 1.8830001
-0.40888003 0.50930667 1.8830001
-0.40529335 0.50930667 1.8830001
-0.4017067 0.50930667 1.8830001
-0.39600572 0.50660193 1.8730001
-0.39034286 0.50389719 1.863
-0.38887048 0.50660193 1.8730001
-0.38324574 0.50389719 1.863
-0.37969714 0.50389719 1.863
-0.37412953 0.50119239 1.853
-0.37060001 0.50119239 1.853
-0.3670705 0.50119239 1.853
-0.36157906 0.49848765 1.8430001
-0.35806859 0.49848765 1.8430001
-0.35455811 0.49848765 1.8430001
-0.35104764 0.49848765 1.8430001
-0.34753716 0.49848765 1.8430001
-0.34402668 0.49848765 1.8430001
-0.34051621 0.49848765 1.8430001
-0.33700573 0.49848765 1.8430001
-0.33349526 0.49848765 1.8430001
-0.32998478 0.49848765 1.8430001
-0.32647431 0.49848765 1.8430001
-0.32296383 0.49848765 1.8430001
-0.31772003 0.49578288 1.8330001
-0.31268573 0.4933486 1.8240001
-0.30921143 0.4933486 1.8240001
-0.30573717 0.4933486 1.8240001
-0.30226287 0.4933486 1.8240001
-0.29878858 0.4933486 1.8240001
-0.29369524 0.49064383 1.8140001
-0.29024002 0.49064383 1.8140001
-0.28678477 0.49064383 1.8140001
-0.28176764 0.48793906 1.8040001
-0.27987429 0.49064383 1.8140001
-0.27489525 0.48793906 1.8040001
-0.27010477 0.48550478 1.7950001
-0.26668572 0.48550478 1.7950001
-0.26326668 0.48550478 1.7950001
-0.25984764 0.48550478 1.7950001
-0.25514287 0.48307049 1.7860001
-0.25300953 0.48550478 1.7950001
-0.24959049 0.48550478 1.7950001
-0.24617144 0.48550478 1.7950001
-0.24275239 0.48550478 1.7950001
-0.23933335 0.48550478 1.7950001
-0.23591429 0.48550478 1.7950001
-0.23132953 0.48307049 1.7860001
-0.22792763 0.48307049 1.7860001
-0.22339429 0.48063621 1.7770001
-0.22000954 0.48063621 1.7770001
-0.21552762 0.47820193 1.7680001
-0.21216001 0.47820193 1.7680001
-0.20772953 0.47576764 1.7590001
-0.20437905 0.47576764 1.7590001
-0.20102859 0.47576764 1.7590001
-0.1976781 0.47576764 1.7590001
-0.19532192 0.47820193 1.7680001
-0.1919543 0.47820193 1.7680001
-0.18858667 0.47820193 1.7680001
-0.18521905 0.47820193 1.7680001
-0.18185143 0.47820193 1.7680001
-0.17757525 0.47576764 1.7590001
-0.17422476 0.47576764 1.7590001
-0.1708743 0.47576764 1.7590001
-0.16752382 0.47576764 1.7590001
-0.16417333 0.47576764 1.7590001
-0.16000001 0.47333336 1.7500001
-0.15586096 0.47089908 1.7410001
-0.15254477 0.47089908 1.7410001
-0.14922857 0.47089908 1.7410001
-0.1451581 0.46846479 1.7320001
-0.14185905 0.46846479 1.7320001
-0.13856001 0.46846479 1.7320001
-0.13526095 0.46846479 1.7320001
-0.13196191 0.46846479 1.7320001
-0.12866285 0.46846479 1.7320001
-0.12471239 0.46603048 1.723
-0.12143048 0.46603048 1.723
-0.11814857 0.46603048 1.723
-0.11486667 0.46603048 1.723
-0.11158477 0.46603048 1.723
-0.10830286 0.46603048 1.723
-0.10502096 0.46603048 1.723
-0.10173905 0.46603048 1.723
-0.09845715 0.46603048 1.723
-0.095175244 0.46603048 1.723
-0.091893338 0.46603048 1.723
-0.088611431 0.46603048 1.723
-0.084933333 0.46386668 1.715
-0.081238098 0.4614324 1.7060001
-0.077988572 0.4614324 1.7060001
-0.074739054 0.4614324 1.7060001
-0.071489528 0.4614324 1.7060001
-0.068240002 0.4614324 1.7060001
-0.064685717 0.4592686 1.6980001
-0.061451431 0.4592686 1.6980001
-0.058217146 0.4592686 1.6980001
-0.05498286 0.4592686 1.6980001
-0.051748574 0.4592686 1.6980001
-0.048285715 0.45710477 1.6900001
-0.04506667 0.45710477 1.6900001
-0.041624762 0.45467049 1.6810001
-0.03842286 0.45467049 1.6810001
-0.035220955 0.45467049 1.6810001
-0.032019049 0.45467049 1.6810001
-0.028817143 0.45467049 1.6810001
-0.025493335 0.45250669 1.6730001
-0.022306668 0.45250669 1.6730001
-0.019028572 0.45034286 1.6650001
-0.015857143 0.45034286 1.6650001
-0.012685714 0.45034286 1.6650001
-0.0095142862 0.45034286 1.6650001
-0.006312381 0.44817907 1.6570001
-0.0031561905 0.44817907 1.6570001
0 0.44817907 1.6570001
0.0031561905 0.44817907 1.6570001
0.006312381 0.44817907 1.6570001
0.0094228573 0.44601527 1.649
0.01256381 0.44601527 1.649
0.015704762 0.44601527 1.649
0.018845715 0.44601527 1.649
0.021986667 0.44601527 1.649
0.02512762 0.44601527 1.649
0.028268572 0.44601527 1.649
0.031409524 0.44601527 1.649
0.034550477 0.44601527 1.649
0.037508573 0.44385144 1.641
0.040634286 0.44385144 1.641
0.043760002 0.44385144 1.641
0.046885718 0.44385144 1.641
0.049798097 0.4419581 1.6340001
0.052910477 0.4419581 1.6340001
0.056262858 0.44385144 1.641
0.059678096 0.44601527 1.649
0.062819049 0.44601527 1.649
0.06628 0.44817907 1.6570001
0.069436193 0.44817907 1.6570001
0.07294286 0.45034286 1.6650001
0.076480001 0.45250669 1.6730001
0.079666667 0.45250669 1.6730001
0.08369524 0.45710477 1.6900001
0.086914286 0.45710477 1.6900001
0.090560004 0.4592686 1.6980001
0.094236195 0.4614324 1.7060001
0.098000005 0.46386668 1.715
0.10173905 0.46603048 1.723
0.10556953 0.46846479 1.7320001
0.10886858 0.46846479 1.7320001
0.11333334 0.47333336 1.7500001
0.11666667 0.47333336 1.7500001
0.12061714 0.47576764 1.7590001
0.12460191 0.47820193 1.7680001
0.12927239 0.48307049 1.7860001
0.13267429 0.48307049 1.7860001
0.1367619 0.48550478 1.7950001
0.14018096 0.48550478 1.7950001
0.14512001 0.49064383 1.8140001
0.14939429 0.4933486 1.8240001
0.15286858 0.4933486 1.8240001
0.1571143 0.49578288 1.8330001
0.16148192 0.49848765 1.8430001
0.16499239 0.49848765 1.8430001
0.17033143 0.50389719 1.863
0.17388001 0.50389719 1.863
0.17838097 0.50660193 1.8730001
0.18194857 0.50660193 1.8730001
0.18650667 0.50930667 1.8830001
0.19009334 0.50930667 1.8830001
0.19481143 0.51228189 1.8940001
0.19946668 0.51498669 1.904
0.20309334 0.51498669 1.904
0.20900001 0.52066666 1.9250001
0.21388191 0.52364194 1.9360001
0.21880572 0.52661717 1.9470001
0.22377144 0.52959239 1.9580001
0.22877906 0.53256762 1.9690001
0.23382857 0.53554291 1.9800001
0.23904 0.53878862 1.9920001
0.24417524 0.54176384 2.003
0.24947619 0.54500955 2.0150001
0.25331429 0.54500955 2.0150001
0.25868383 0.54825526 2.0270002
0.26254478 0.54825526 2.0270002
0.26798287 0.55150098 2.039
0.27186668 0.55150098 2.039
0.27575049 0.55150098 2.039
0.28128001 0.55474669 2.0510001
0.28518668 0.55474669 2.0510001
-0.44970667 0.51861334 1.904
-0.44373715 0.51588953 1.8940001
-0.44012955 0.51588953 1.8940001
-0.43652192 0.51588953 1.8940001
-0.43291429 0.51588953 1.8940001
-0.42930669 0.51588953 1.8940001
-0.42569906 0.51588953 1.8940001
-0.42209145 0.51588953 1.8940001
-0.41605335 0.51289338 1.8830001
-0.41246668 0.51289338 1.8830001
-0.4067086 0.51016957 1.8730001
-0.40314096 0.51016957 1.8730001
-0.39957336 0.51016957 1.8730001
-0.39600572 0.51016957 1.8730001
-0.39034286 0.50744575 1.863
-0.3867943 0.50744575 1.863
-0.38324574 0.50744575 1.863
-0.37765905 0.50472194 1.853
-0.37412953 0.50472194 1.853
-0.37060001 0.50472194 1.853
-0.3670705 0.50472194 1.853
-0.36354098 0.50472194 1.853
-0.36001143 0.50472194 1.853
-0.35455811 0.50199813 1.8430001
-0.35295239 0.50472194 1.853
-0.34942287 0.50472194 1.853
-0.34589335 0.50472194 1.853
-0.34051621 0.50199813 1.8430001
-0.33700573 0.50199813 1.8430001
-0.33349526 0.50199813 1.8430001
-0.32998478 0.50199813 1.8430001
-0.32647431 0.50199813 1.8430001
-0.32296383 0.50199813 1.8430001
-0.31772003 0.49927431 1.8330001
-0.31422859 0.49927431 1.8330001
-0.30921143 0.49682286 1.8240001
-0.30573717 0.49682286 1.8240001
-0.30226287 0.49682286 1.8240001
-0.29878858 0.49682286 1.8240001
-0.29531428 0.49682286 1.8240001
-0.29024002 0.49409908 1.8140001
-0.28520381 0.49137527 1.8040001
-0.28176764 0.49137527 1.8040001
-0.27833143 0.49137527 1.8040001
-0.27352381 0.48892382 1.7950001
-0.27010477 0.48892382 1.7950001
-0.26668572 0.48892382 1.7950001
-0.26326668 0.48892382 1.7950001
-0.25984764 0.48892382 1.7950001
-0.25642857 0.48892382 1.7950001
-0.25300953 0.48892382 1.7950001
-0.24959049 0.48892382 1.7950001
-0.24617144 0.48892382 1.7950001
-0.24275239 0.48892382 1.7950001
-0.23933335 0.48892382 1.7950001
-0.23591429 0.48892382 1.7950001
-0.23132953 0.4864724 1.7860001
-0.22792763 0.4864724 1.7860001
-0.22339429 0.48402098 1.7770001
-0.22000954 0.48402098 1.7770001
-0.21552762 0.48156953 1.7680001
-0.21216001 0.48156953 1.7680001
-0.20879239 0.48156953 1.7680001
-0.20437905 0.47911811 1.7590001
-0.20205715 0.48156953 1.7680001
-0.19868954 0.48156953 1.7680001
-0.19532192 0.48156953 1.7680001
-0.1919543 0.48156953 1.7680001
-0.18858667 0.48156953 1.7680001
-0.18521905 0.48156953 1.7680001
-0.18185143 0.48156953 1.7680001
-0.17757525 0.47911811 1.7590001
-0.17422476 0.47911811 1.7590001
-0.1708743 0.47911811 1.7590001
-0.16752382 0.47911811 1.7590001
-0.16417333 0.47911811 1.7590001
-0.16000001 0.47666669 1.7500001
-0.15586096 0.47421527 1.7410001
-0.15254477 0.47421527 1.7410001
-0.14922857 0.47421527 1.7410001
-0.1451581 0.47176382 1.7320001
-0.14185905 0.47176382 1.7320001
-0.13856001 0.47176382 1.7320001
-0.13526095 0.47176382 1.7320001
-0.13196191 0.47176382 1.7320001
-0.12866285 0.47176382 1.7320001
-0.12471239 0.4693124 1.723
-0.12143048 0.4693124 1.723
-0.11814857 0.4693124 1.723
-0.11486667 0.4693124 1.723
-0.11158477 0.4693124 1.723
-0.10830286 0.4693124 1.723
-0.10502096 0.4693124 1.723
-0.10173905 0.4693124 1.723
-0.09845715 0.4693124 1.723
-0.095175244 0.4693124 1.723
-0.091893338 0.4693124 1.723
-0.088611431 0.4693124 1.723
-0.084933333 0.46713334 1.715
-0.081238098 0.46468192 1.7060001
-0.077988572 0.46468192 1.7060001
-0.074739054 0.46468192 1.7060001
-0.071489528 0.46468192 1.7060001
-0.068240002 0.46468192 1.7060001
-0.064990476 0.46468192 1.7060001
-0.061740953 0.46468192 1.7060001
-0.058217146 0.46250287 1.6980001
-0.05498286 0.46250287 1.6980001
-0.051748574 0.46250287 1.6980001
-0.048514288 0.46250287 1.6980001
-0.04506667 0.46032384 1.6900001
-0.04184762 0.46032384 1.6900001
-0.03842286 0.45787239 1.6810001
-0.035220955 0.45787239 1.6810001
-0.03186667 0.45569336 1.6730001
-0.028817143 0.45787239 1.6810001
-0.025371429 0.45351431 1.6650001
-0.022200001 0.45351431 1.6650001
-0.019028572 0.45351431 1.6650001
-0.015857143 0.45351431 1.6650001
-0.012685714 0.45351431 1.6650001
-0.0095142862 0.45351431 1.6650001
-0.006312381 0.45133525 1.6570001
-0.0031561905 0.45133525 1.6570001
0 0.45133525 1.6570001
0.0031561905 0.45133525 1.6570001
0.006312381 0.45133525 1.6570001
0.0094228573 0.44915619 1.649
0.01256381 0.44915619 1.649
0.015704762 0.44915619 1.649
0.018845715 0.44915619 1.649
0.021986667 0.44915619 1.649
0.02512762 0.44915619 1.649
0.028268572 0.44915619 1.649
0.031409524 0.44915619 1.649
0.034550477 0.44915619 1.649
0.037508573 0.44697717 1.641
0.040634286 0.44697717 1.641
0.043760002 0.44697717 1.641
0.046885718 0.44697717 1.641
0.049798097 0.44507051 1.6340001
0.052910477 0.44507051 1.6340001
0.056262858 0.44697717 1.641
0.059388574 0.44697717 1.641
0.062819049 0.44915619 1.649
0.06628 0.45133525 1.6570001
0.069436193 0.45133525 1.6570001
0.07294286 0.45351431 1.6650001
0.076480001 0.45569336 1.6730001
0.080047622 0.45787239 1.6810001
0.08369524 0.46032384 1.6900001
0.086914286 0.46032384 1.6900001
0.090560004 0.46250287 1.6980001
0.094236195 0.46468192 1.7060001
0.098000005 0.46713334 1.715
0.10173905 0.4693124 1.723
0.10502096 0.4693124 1.723
0.10886858 0.47176382 1.7320001
0.11275048 0.47421527 1.7410001
0.11666667 0.47666669 1.7500001
0.12061714 0.47911811 1.7590001
0.12460191 0.48156953 1.7680001
0.12862095 0.48402098 1.7770001
0.13267429 0.4864724 1.7860001
0.1367619 0.48892382 1.7950001
0.14018096 0.48892382 1.7950001
0.14512001 0.49409908 1.8140001
0.14939429 0.49682286 1.8240001
0.15362287 0.49927431 1.8330001
0.15797144 0.50199813 1.8430001
0.16235811 0.50472194 1.853
0.16588762 0.50472194 1.853
0.17033143 0.50744575 1.863
0.17388001 0.50744575 1.863
0.17838097 0.51016957 1.8730001
0.18194857 0.51016957 1.8730001
0.18551619 0.51016957 1.8730001
0.19009334 0.51289338 1.8830001
0.19368 0.51289338 1.8830001
0.19841905 0.51588953 1.8940001
0.20309334 0.51861334 1.904
0.20900001 0.52433336 1.9250001
0.21266668 0.52433336 1.9250001
0.21880572 0.53032571 1.9470001
0.22502857 0.53631812 1.9690001
0.22877906 0.53631812 1.9690001
0.23252954 0.53631812 1.9690001
0.23760001 0.53931433 1.9800001
0.24417524 0.54557908 2.003
0.24947619 0.54884762 2.0150001
0.25331429 0.54884762 2.0150001
0.25868383 0.55211622 2.0270002
0.26409906 0.55538476 2.039
0.26640573 0.55211622 2.0270002
0.27186668 0.55538476 2.039
0.27737334 0.55865335 2.0510001
0.28128001 0.55865335 2.0510001
0.28518668 0.55865335 2.0510001
-0.45095241 0.51949716 1.8940001
-0.44734478 0.51949716 1.8940001
-0.44373715 0.51949716 1.8940001
-0.44012955 0.51949716 1.8940001
-0.43652192 0.51949716 1.8940001
-0.43291429 0.51949716 1.8940001
-0.42930669 0.51949716 1.8940001
-0.42569906 0.51949716 1.8940001
-0.42209145 0.51949716 1.8940001
-0.41605335 0.51648003 1.8830001
-0.41246668 0.51648003 1.8830001
-0.4067086 0.51373714 1.8730001
-0.40314096 0.51373714 1.8730001
-0.39957336 0.51373714 1.8730001
-0.39389145 0.51099432 1.863
-0.39034286 0.51099432 1.863
-0.3867943 0.51099432 1.863
-0.38324574 0.51099432 1.863
-0.37969714 0.51099432 1.863
-0.37614858 0.51099432 1.863
-0.37060001 0.50825143 1.853
-0.3670705 0.50825143 1.853
-0.36354098 0.50825143 1.853
-0.36001143 0.50825143 1.853
-0.35455811 0.5055086 1.8430001
-0.35295239 0.50825143 1.853
-0.34942287 0.50825143 1.853
-0.34589335 0.50825143 1.853
-0.34051621 0.5055086 1.8430001
-0.33700573 0.5055086 1.8430001
-0.33349526 0.5055086 1.8430001
-0.32998478 0.5055086 1.8430001
-0.32647431 0.5055086 1.8430001
-0.32296383 0.5055086 1.8430001
-0.31772003 0.50276572 1.8330001
-0.31422859 0.50276572 1.8330001
-0.30921143 0.50029719 1.8240001
-0.30724573 0.50276572 1.8330001
-0.30226287 0.50029719 1.8240001
-0.29878858 0.50029719 1.8240001
-0.29531428 0.50029719 1.8240001
-0.29024002 0.4975543 1.8140001
-0.28520381 0.49481145 1.8040001
-0.28176764 0.49481145 1.8040001
-0.27833143 0.49481145 1.8040001
-0.27352381 0.49234289 1.7950001
-0.27010477 0.49234289 1.7950001
-0.26668572 0.49234289 1.7950001
-0.26326668 0.49234289 1.7950001
-0.25984764 0.49234289 1.7950001
-0.25514287 0.4898743 1.7860001
-0.25174096 0.4898743 1.7860001
-0.24833906 0.4898743 1.7860001
-0.24617144 0.49234289 1.7950001
-0.24275239 0.49234289 1.7950001
-0.23933335 0.49234289 1.7950001
-0.23591429 0.49234289 1.7950001
-0.23132953 0.4898743 1.7860001
-0.22792763 0.4898743 1.7860001
-0.22339429 0.48740572 1.7770001
-0.22000954 0.48740572 1.7770001
-0.21552762 0.48493716 1.7680001
-0.21216001 0.48493716 1.7680001
-0.20879239 0.48493716 1.7680001
-0.20437905 0.48246858 1.7590001
-0.20205715 0.48493716 1.7680001
-0.19868954 0.48493716 1.7680001
-0.19532192 0.48493716 1.7680001
-0.19097716 0.48246858 1.7590001
-0.18858667 0.48493716 1.7680001
-0.18521905 0.48493716 1.7680001
-0.18185143 0.48493716 1.7680001
-0.17757525 0.48246858 1.7590001
-0.17422476 0.48246858 1.7590001
-0.1708743 0.48246858 1.7590001
-0.16752382 0.48246858 1.7590001
-0.16417333 0.48246858 1.7590001
-0.16000001 0.48000002 1.7500001
-0.15586096 0.47753143 1.7410001
-0.15333334 0.48000002 1.7500001
-0.14922857 0.47753143 1.7410001
-0.14591238 0.47753143 1.7410001
-0.1425962 0.47753143 1.7410001
-0.13928001 0.47753143 1.7410001
-0.13526095 0.47506288 1.7320001
-0.13196191 0.47506288 1.7320001
-0.12866285 0.47506288 1.7320001
-0.12536381 0.47506288 1.7320001
-0.12143048 0.47259429 1.723
-0.11814857 0.47259429 1.723
-0.11486667 0.47259429 1.723
-0.11158477 0.47259429 1.723
-0.10830286 0.47259429 1.723
-0.10502096 0.47259429 1.723
-0.10173905 0.47259429 1.723
-0.09845715 0.47259429 1.723
-0.095175244 0.47259429 1.723
-0.091466673 0.47040001 1.715
-0.088611431 0.47259429 1.723
-0.084933333 0.47040001 1.715
-0.081238098 0.46793145 1.7060001
-0.077988572 0.46793145 1.7060001
-0.074739054 0.46793145 1.7060001
-0.071489528 0.46793145 1.7060001
-0.068240002 0.46793145 1.7060001
-0.064990476 0.46793145 1.7060001
-0.061740953 0.46793145 1.7060001
-0.058217146 0.46573716 1.6980001
-0.05498286 0.46573716 1.6980001
-0.051748574 0.46573716 1.6980001
-0.048514288 0.46573716 1.6980001
-0.04506667 0.46354288 1.6900001
-0.04184762 0.46354288 1.6900001
-0.038628574 0.46354288 1.6900001
-0.035220955 0.46107429 1.6810001
-0.032019049 0.46107429 1.6810001
-0.028817143 0.46107429 1.6810001
-0.025371429 0.45668572 1.6650001
-0.022200001 0.45668572 1.6650001
-0.019028572 0.45668572 1.6650001
-0.015857143 0.45668572 1.6650001
-0.012624762 0.45449144 1.6570001
-0.0094685722 0.45449144 1.6570001
-0.006312381 0.45449144 1.6570001
-0.0031561905 0.45449144 1.6570001
0 0.45449144 1.6570001
0.0031561905 0.45449144 1.6570001
0.006312381 0.45449144 1.6570001
0.0094685722 0.45449144 1.6570001
0.012624762 0.45449144 1.6570001
0.015780954 0.45449144 1.6570001
0.018845715 0.45229715 1.649
0.021986667 0.45229715 1.649
0.02512762 0.45229715 1.649
0.028268572 0.45229715 1.649
0.031409524 0.45229715 1.649
0.034550477 0.45229715 1.649
0.037508573 0.45010287 1.641
0.040634286 0.45010287 1.641
0.043760002 0.45010287 1.641
0.046885718 0.45010287 1.641
0.049798097 0.44818288 1.6340001
0.052910477 0.44818288 1.6340001
0.056262858 0.45010287 1.641
0.059678096 0.45229715 1.649
0.062819049 0.45229715 1.649
0.06628 0.45449144 1.6570001
0.069436193 0.45449144 1.6570001
0.07294286 0.45668572 1.6650001
0.076480001 0.45888001 1.6730001
0.080047622 0.46107429 1.6810001
0.08369524 0.46354288 1.6900001
0.086914286 0.46354288 1.6900001
0.090986669 0.46793145 1.7060001
0.094733335 0.47040001 1.715
0.098000005 0.47040001 1.715
0.10173905 0.47259429 1.723
0.10502096 0.47259429 1.723
0.10886858 0.47506288 1.7320001
0.11275048 0.47753143 1.7410001
0.11666667 0.48000002 1.7500001
0.12061714 0.48246858 1.7590001
0.12396763 0.48246858 1.7590001
0.12862095 0.48740572 1.7770001
0.13200572 0.48740572 1.7770001
0.1360762 0.4898743 1.7860001
0.14088382 0.49481145 1.8040001
0.14512001 0.4975543 1.8140001
0.14857525 0.4975543 1.8140001
0.15286858 0.50029719 1.8240001
0.1571143 0.50276572 1.8330001
0.16235811 0.50825143 1.853
0.16678286 0.51099432 1.863
0.17033143 0.51099432 1.863
0.17388001 0.51099432 1.863
0.17838097 0.51373714 1.8730001
0.18194857 0.51373714 1.8730001
0.18650667 0.51648003 1.8830001
0.19009334 0.51648003 1.8830001
0.19481143 0.51949716 1.8940001
0.19841905 0.51949716 1.8940001
0.20309334 0.52224004 1.904
0.20900001 0.528 1.9250001
0.21266668 0.528 1.9250001
0.21880572 0.53403431 1.9470001
0.22377144 0.53705144 1.9580001
0.22877906 0.54006857 1.9690001
0.23252954 0.54006857 1.9690001
0.23760001 0.54308575 1.9800001
0.24417524 0.54939431 2.003
0.24947619 0.55268574 2.0150001
0.25331429 0.55268574 2.0150001
0.25868383 0.55597717 2.0270002
0.26254478 0.55597717 2.0270002
0.26798287 0.55926859 2.039
0.27186668 0.55926859 2.039
0.27575049 0.55926859 2.039
0.28128001 0.56256002 2.0510001
0.28518668 0.56256002 2.0510001
-0.44970667 0.52586669 1.904
-0.44608003 0.52586669 1.904
-0.44012955 0.52310479 1.8940001
-0.43652192 0.52310479 1.8940001
-0.43291429 0.52310479 1.8940001
-0.42930669 0.52310479 1.8940001
-0.42569906 0.52310479 1.8940001
-0.41964 0.52006668 1.8830001
-0.41605335 0.52006668 1.8830001
-0.41246668 0.52006668 1.8830001
-0.40888003 0.52006668 1.8830001
-0.40314096 0.51730478 1.8730001
-0.39957336 0.51730478 1.8730001
-0.39600572 0.51730478 1.8730001
-0.39034286 0.51454288 1.863
-0.3867943 0.51454288 1.863
-0.38324574 0.51454288 1.863
-0.37969714 0.51454288 1.863
-0.37614858 0.51454288 1.863
-0.37060001 0.51178098 1.853
-0.3670705 0.51178098 1.853
-0.36354098 0.51178098 1.853
-0.36001143 0.51178098 1.853
-0.35455811 0.50901908 1.8430001
-0.35295239 0.51178098 1.853
-0.34942287 0.51178098 1.853
-0.34589335 0.51178098 1.853
-0.34051621 0.50901908 1.8430001
-0.33700573 0.50901908 1.8430001
-0.33349526 0.50901908 1.8430001
-0.32998478 0.50901908 1.8430001
-0.32647431 0.50901908 1.8430001
-0.32296383 0.50901908 1.8430001
-0.31945336 0.50901908 1.8430001
-0.31422859 0.50625718 1.8330001
-0.30921143 0.50377142 1.8240001
-0.30573717 0.50377142 1.8240001
-0.30226287 0.50377142 1.8240001
-0.29878858 0.50377142 1.8240001
-0.29369524 0.50100952 1.8140001
-0.29024002 0.50100952 1.8140001
-0.28520381 0.49824762 1.8040001
-0.28176764 0.49824762 1.8040001
-0.27833143 0.49824762 1.8040001
-0.27352381 0.49576193 1.7950001
-0.27010477 0.49576193 1.7950001
-0.26668572 0.49576193 1.7950001
-0.26326668 0.49576193 1.7950001
-0.25984764 0.49576193 1.7950001
-0.25642857 0.49576193 1.7950001
-0.25300953 0.49576193 1.7950001
-0.24959049 0.49576193 1.7950001
-0.24617144 0.49576193 1.7950001
-0.24275239 0.49576193 1.7950001
-0.23933335 0.49576193 1.7950001
-0.23473144 0.49327621 1.7860001
-0.23132953 0.49327621 1.7860001
-0.22677906 0.49079049 1.7770001
-0.22339429 0.49079049 1.7770001
-0.21889524 0.48830479 1.7680001
-0.21552762 0.48830479 1.7680001
-0.21216001 0.48830479 1.7680001
-0.20772953 0.48581907 1.7590001
-0.20437905 0.48581907 1.7590001
-0.20102859 0.48581907 1.7590001
-0.1976781 0.48581907 1.7590001
-0.19432762 0.48581907 1.7590001
-0.19097716 0.48581907 1.7590001
-0.18858667 0.48830479 1.7680001
-0.18521905 0.48830479 1.7680001
-0.18185143 0.48830479 1.7680001
-0.17757525 0.48581907 1.7590001
-0.17422476 0.48581907 1.7590001
-0.1708743 0.48581907 1.7590001
-0.16752382 0.48581907 1.7590001
-0.16417333 0.48581907 1.7590001
-0.16000001 0.48333335 1.7500001
-0.15666667 0.48333335 1.7500001
-0.15333334 0.48333335 1.7500001
-0.15000001 0.48333335 1.7500001
-0.14591238 0.48084763 1.7410001
-0.1425962 0.48084763 1.7410001
-0.13928001 0.48084763 1.7410001
-0.13596381 0.48084763 1.7410001
-0.13196191 0.47836193 1.7320001
-0.12866285 0.47836193 1.7320001
-0.12536381 0.47836193 1.7320001
-0.12206477 0.47836193 1.7320001
-0.11814857 0.47587621 1.723
-0.11486667 0.47587621 1.723
-0.11158477 0.47587621 1.723
-0.10830286 0.47587621 1.723
-0.10502096 0.47587621 1.723
-0.10173905 0.47587621 1.723
-0.09845715 0.47587621 1.723
-0.095175244 0.47587621 1.723
-0.091893338 0.47587621 1.723
-0.088611431 0.47587621 1.723
-0.084933333 0.4736667 1.715
-0.081238098 0.47118098 1.7060001
-0.077988572 0.47118098 1.7060001
-0.074739054 0.47118098 1.7060001
-0.071489528 0.47118098 1.7060001
-0.068240002 0.47118098 1.7060001
-0.064990476 0.47118098 1.7060001
-0.061740953 0.47118098 1.7060001
-0.058491431 0.47118098 1.7060001
-0.05498286 0.46897143 1.6980001
-0.051748574 0.46897143 1.6980001
-0.048514288 0.46897143 1.6980001
-0.045280002 0.46897143 1.6980001
-0.04184762 0.46676192 1.6900001
-0.038628574 0.46676192 1.6900001
-0.035220955 0.46427619 1.6810001
-0.032019049 0.46427619 1.6810001
-0.028817143 0.46427619 1.6810001
-0.025371429 0.45985717 1.6650001
-0.022200001 0.45985717 1.6650001
-0.019028572 0.45985717 1.6650001
-0.015857143 0.45985717 1.6650001
-0.012624762 0.45764762 1.6570001
-0.0094685722 0.45764762 1.6570001
-0.006312381 0.45764762 1.6570001
-0.0031561905 0.45764762 1.6570001
0 0.45764762 1.6570001
0.0031561905 0.45764762 1.6570001
0.006312381 0.45764762 1.6570001
0.0094685722 0.45764762 1.6570001
0.012624762 0.45764762 1.6570001
0.015780954 0.45764762 1.6570001
0.018937144 0.45764762 1.6570001
0.021986667 0.45543811 1.649
0.02512762 0.45543811 1.649
0.028268572 0.45543811 1.649
0.031409524 0.45543811 1.649
0.034550477 0.45543811 1.649
0.037508573 0.45322859 1.641
0.040634286 0.45322859 1.641
0.043760002 0.45322859 1.641
0.046885718 0.45322859 1.641
0.049798097 0.45129526 1.6340001
0.052910477 0.45129526 1.6340001
0.056262858 0.45322859 1.641
0.059678096 0.45543811 1.649
0.062819049 0.45543811 1.649
0.06628 0.45764762 1.6570001
0.069436193 0.45764762 1.6570001
0.07294286 0.45985717 1.6650001
0.076114289 0.45985717 1.6650001
0.080047622 0.46427619 1.6810001
0.083249524 0.46427619 1.6810001
0.086914286 0.46676192 1.6900001
0.090133339 0.46676192 1.6900001
0.094236195 0.47118098 1.7060001
0.098000005 0.4736667 1.715
0.10126667 0.4736667 1.715
0.10502096 0.47587621 1.723
0.10886858 0.47836193 1.7320001
0.11275048 0.48084763 1.7410001
0.11666667 0.48333335 1.7500001
0.12 0.48333335 1.7500001
0.12460191 0.48830479 1.7680001
0.12862095 0.49079049 1.7770001
0.13267429 0.49327621 1.7860001
0.1367619 0.49576193 1.7950001
0.14088382 0.49824762 1.8040001
0.14512001 0.50100952 1.8140001
0.14939429 0.50377142 1.8240001
0.15286858 0.50377142 1.8240001
0.1571143 0.50625718 1.8330001
0.16235811 0.51178098 1.853
0.16588762 0.51178098 1.853
0.17033143 0.51454288 1.863
0.17388001 0.51454288 1.863
0.17838097 0.51730478 1.8730001
0.18194857 0.51730478 1.8730001
0.18650667 0.52006668 1.8830001
0.19009334 0.52006668 1.8830001
0.19481143 0.52310479 1.8940001
0.19946668 0.52586669 1.904
0.20426667 0.5289048 1.9150001
0.20900001 0.5316667 1.9250001
0.21509714 0.53774285 1.9470001
0.22004192 0.54078096 1.9580001
0.22502857 0.54381907 1.9690001
0.22877906 0.54381907 1.9690001
0.23382857 0.54685718 1.9800001
0.23904 0.55017143 1.9920001
0.2428343 0.55017143 1.9920001
0.24799049 0.55320954 2.003
0.25331429 0.55652386 2.0150001
0.25868383 0.55983812 2.0270002
0.26254478 0.55983812 2.0270002
0.26640573 0.55983812 2.0270002
0.27026668 0.55983812 2.0270002
0.27575049 0.56315237 2.039
0.2796343 0.56315237 2.039
0.28351811 0.56315237 2.039
-0.44373715 0.52671242 1.8940001
-0.44012955 0.52671242 1.8940001
-0.43652192 0.52671242 1.8940001
-0.43291429 0.52671242 1.8940001
-0.42930669 0.52671242 1.8940001
-0.42569906 0.52671242 1.8940001
-0.41964 0.52365333 1.8830001
-0.41605335 0.52365333 1.8830001
-0.41246668 0.52365333 1.8830001
-0.40888003 0.52365333 1.8830001
-0.40314096 0.52087241 1.8730001
-0.39957336 0.52087241 1.8730001
-0.39600572 0.52087241 1.8730001
-0.39034286 0.51809144 1.863
-0.3867943 0.51809144 1.863
-0.38324574 0.51809144 1.863
-0.37969714 0.51809144 1.863
-0.37614858 0.51809144 1.863
-0.37060001 0.51531047 1.853
-0.3670705 0.51531047 1.853
-0.36354098 0.51531047 1.853
-0.36001143 0.51531047 1.853
-0.35455811 0.51252955 1.8430001
-0.35295239 0.51531047 1.853
-0.34942287 0.51531047 1.853
-0.34589335 0.51531047 1.853
-0.34051621 0.51252955 1.8430001
-0.33700573 0.51252955 1.8430001
-0.33349526 0.51252955 1.8430001
-0.32998478 0.51252955 1.8430001
-0.32647431 0.51252955 1.8430001
-0.32296383 0.51252955 1.8430001
-0.31945336 0.51252955 1.8430001
-0.31422859 0.50974858 1.8330001
-0.30921143 0.50724572 1.8240001
-0.30573717 0.50724572 1.8240001
-0.30226287 0.50724572 1.8240001
-0.29715049 0.50446481 1.8140001
-0.29369524 0.50446481 1.8140001
-0.29024002 0.50446481 1.8140001
-0.28520381 0.50168383 1.8040001
-0.28176764 0.50168383 1.8040001
-0.27833143 0.50168383 1.8040001
-0.27352381 0.49918097 1.7950001
-0.27010477 0.49918097 1.7950001
-0.26668572 0.49918097 1.7950001
-0.26326668 0.49918097 1.7950001
-0.25984764 0.49918097 1.7950001
-0.25642857 0.49918097 1.7950001
-0.25300953 0.49918097 1.7950001
-0.24959049 0.49918097 1.7950001
-0.24493715 0.49667811 1.7860001
-0.24153525 0.49667811 1.7860001
-0.23813334 0.49667811 1.7860001
-0.23473144 0.49667811 1.7860001
-0.23016381 0.49417526 1.7770001
-0.22677906 0.49417526 1.7770001
-0.22339429 0.49417526 1.7770001
-0.21889524 0.4916724 1.7680001
-0.21552762 0.4916724 1.7680001
-0.21216001 0.4916724 1.7680001
-0.20879239 0.4916724 1.7680001
-0.20437905 0.48916954 1.7590001
-0.20205715 0.4916724 1.7680001
-0.1976781 0.48916954 1.7590001
-0.19532192 0.4916724 1.7680001
-0.1919543 0.4916724 1.7680001
-0.18858667 0.4916724 1.7680001
-0.18521905 0.4916724 1.7680001
-0.18185143 0.4916724 1.7680001
-0.17757525 0.48916954 1.7590001
-0.17422476 0.48916954 1.7590001
-0.1708743 0.48916954 1.7590001
-0.16752382 0.48916954 1.7590001
-0.16417333 0.48916954 1.7590001
-0.16082287 0.48916954 1.7590001
-0.15666667 0.48666668 1.7500001
-0.15333334 0.48666668 1.7500001
-0.15000001 0.48666668 1.7500001
-0.14591238 0.48416382 1.7410001
-0.1425962 0.48416382 1.7410001
-0.13928001 0.48416382 1.7410001
-0.13596381 0.48416382 1.7410001
-0.13196191 0.48166096 1.7320001
-0.12866285 0.48166096 1.7320001
-0.12536381 0.48166096 1.7320001
-0.12206477 0.48166096 1.7320001
-0.11814857 0.4791581 1.723
-0.11486667 0.4791581 1.723
-0.11158477 0.4791581 1.723
-0.10830286 0.4791581 1.723
-0.10502096 0.4791581 1.723
-0.10173905 0.4791581 1.723
-0.09845715 0.4791581 1.723
-0.095175244 0.4791581 1.723
-0.091893338 0.4791581 1.723
-0.088611431 0.4791581 1.723
-0.085329525 0.4791581 1.723
-0.081238098 0.4744305 1.7060001
-0.077988572 0.4744305 1.7060001
-0.074739054 0.4744305 1.7060001
-0.071489528 0.4744305 1.7060001
-0.068240002 0.4744305 1.7060001
-0.064990476 0.4744305 1.7060001
-0.061740953 0.4744305 1.7060001
-0.058217146 0.47220573 1.6980001
-0.05498286 0.47220573 1.6980001
-0.051748574 0.47220573 1.6980001
-0.048514288 0.47220573 1.6980001
-0.04506667 0.46998096 1.6900001
-0.04184762 0.46998096 1.6900001
-0.03842286 0.46747813 1.6810001
-0.035220955 0.46747813 1.6810001
-0.032019049 0.46747813 1.6810001
-0.028817143 0.46747813 1.6810001
-0.025371429 0.46302858 1.6650001
-0.022200001 0.46302858 1.6650001
-0.019028572 0.46302858 1.6650001
-0.015857143 0.46302858 1.6650001
-0.012685714 0.46302858 1.6650001
-0.0094685722 0.46080384 1.6570001
-0.006312381 0.46080384 1.6570001
-0.0031561905 0.46080384 1.6570001
0 0.46080384 1.6570001
0.0031561905 0.46080384 1.6570001
0.006312381 0.46080384 1.6570001
0.0094685722 0.46080384 1.6570001
0.012624762 0.46080384 1.6570001
0.015780954 0.46080384 1.6570001
0.018937144 0.46080384 1.6570001
0.021986667 0.45857906 1.649
0.02512762 0.45857906 1.649
0.028268572 0.45857906 1.649
0.031409524 0.45857906 1.649
0.034550477 0.45857906 1.649
0.037691429 0.45857906 1.649
0.040832382 0.45857906 1.649
0.043760002 0.45635429 1.641
0.046885718 0.45635429 1.641
0.049798097 0.45440763 1.6340001
0.052910477 0.45440763 1.6340001
0.05602286 0.45440763 1.6340001
0.05913524 0.45440763 1.6340001
0.062247623 0.45440763 1.6340001
0.065960005 0.45857906 1.649
0.069436193 0.46080384 1.6570001
0.07294286 0.46302858 1.6650001
0.07684572 0.46747813 1.6810001
0.080047622 0.46747813 1.6810001
0.08369524 0.46998096 1.6900001
0.086914286 0.46998096 1.6900001
0.090560004 0.47220573 1.6980001
0.094236195 0.4744305 1.7060001
0.098000005 0.47693336 1.715
0.10173905 0.4791581 1.723
0.10502096 0.4791581 1.723
0.10886858 0.48166096 1.7320001
0.11275048 0.48416382 1.7410001
0.11666667 0.48666668 1.7500001
0.12 0.48666668 1.7500001
0.12396763 0.48916954 1.7590001
0.12862095 0.49417526 1.7770001
0.13267429 0.49667811 1.7860001
0.1367619 0.49918097 1.7950001
0.14088382 0.50168383 1.8040001
0.14512001 0.50446481 1.8140001
0.14857525 0.50446481 1.8140001
0.15286858 0.50724572 1.8240001
0.1571143 0.50974858 1.8330001
0.16235811 0.51531047 1.853
0.16588762 0.51531047 1.853
0.17033143 0.51809144 1.863
0.17388001 0.51809144 1.863
0.17838097 0.52087241 1.8730001
0.18194857 0.52087241 1.8730001
0.18650667 0.52365333 1.8830001
0.19009334 0.52365333 1.8830001
0.19584 0.52949333 1.904
0.19946668 0.52949333 1.904
0.20426667 0.53255242 1.9150001
0.20900001 0.53533334 1.9250001
0.21388191 0.53839242 1.9360001
0.21880572 0.54145145 1.9470001
0.22502857 0.54756957 1.9690001
0.22877906 0.54756957 1.9690001
0.23382857 0.5506286 1.9800001
0.23760001 0.5506286 1.9800001
0.2428343 0.55396575 1.9920001
0.24799049 0.55702478 2.003
0.25331429 0.56036192 2.0150001
0.25868383 0.56369907 2.0270002
0.26254478 0.56369907 2.0270002
0.26640573 0.56369907 2.0270002
0.27026668 0.56369907 2.0270002
