# .PCD v0.7 - Point Cloud Data file format
VERSION 0.7
FIELDS x y z
SIZE 4 4 4
TYPE F F F
COUNT 1 1 1
WIDTH 1504
HEIGHT 1
VIEWPOINT 0 0 0 1 0 0 0
POINTS 1504
DATA ascii
0.21768001 0.44572574 1.8140001
0.22235429 0.44818288 1.8240001
0.22582857 0.44818288 1.8240001
0.22930287 0.44818288 1.8240001
0.23277715 0.44818288 1.8240001
0.23625144 0.44818288 1.8240001
0.24090858 0.4503943 1.8330001
0.24440001 0.4503943 1.8330001
0.2466743 0.44818288 1.8240001
0.25014859 0.44818288 1.8240001
0.25362286 0.44818288 1.8240001
0.25836572 0.4503943 1.8330001
0.26185715 0.4503943 1.8330001
0.26404572 0.44818288 1.8240001
0.26752001 0.44818288 1.8240001
0.27233145 0.4503943 1.8330001
0.27582288 0.4503943 1.8330001
0.27931431 0.4503943 1.8330001
0.28280571 0.4503943 1.8330001
0.28629714 0.4503943 1.8330001
0.28978857 0.4503943 1.8330001
0.29328001 0.4503943 1.8330001
0.29677144 0.4503943 1.8330001
0.30026287 0.4503943 1.8330001
0.30541143 0.45285144 1.8430001
0.3089219 0.45285144 1.8430001
0.31243238 0.45285144 1.8430001
0.31594288 0.45285144 1.8430001
0.31945336 0.45285144 1.8430001
0.32296383 0.45285144 1.8430001
0.32647431 0.45285144 1.8430001
0.32998478 0.45285144 1.8430001
0.33349526 0.45285144 1.8430001
0.33883429 0.45530859 1.853
0.34051621 0.45285144 1.8430001
0.34402668 0.45285144 1.8430001
0.34565145 0.4503943 1.8330001
0.34914288 0.4503943 1.8330001
0.35263431 0.4503943 1.8330001
-0.32612574 0.51702857 2.0880001
-0.32214859 0.51702857 2.0880001
-0.31436193 0.51083809 2.0630002
-0.30862668 0.50786668 2.0510001
-0.30293715 0.50489527 2.039
-0.29729334 0.5019238 2.0270002
-0.29169524 0.49895239 2.0150001
-0.28614286 0.49598098 2.003
-0.28077716 0.49325716 1.9920001
-0.2753143 0.49028572 1.9800001
-0.26550859 0.4793905 1.9360001
-0.26182097 0.4793905 1.9360001
-0.25533333 0.4741905 1.9150001
-0.25024 0.47146669 1.904
-0.2453181 0.4689905 1.8940001
-0.23903048 0.46379051 1.8730001
-0.2304343 0.45388573 1.8330001
-0.22459048 0.44918096 1.8140001
-0.21991619 0.44670478 1.8040001
-0.21540001 0.44447622 1.7950001
-0.2109181 0.44224763 1.7860001
-0.20542477 0.43779048 1.7680001
-0.19794287 0.42887619 1.7320001
-0.19363239 0.42664763 1.723
-0.19035049 0.42664763 1.723
-0.18620001 0.42466667 1.715
-0.18197334 0.42243811 1.7060001
-0.17788573 0.42045715 1.6980001
-0.17382857 0.41847619 1.6900001
-0.17060953 0.41847619 1.6900001
-0.16649905 0.41624764 1.6810001
-0.16417143 0.41847619 1.6900001
-0.16009524 0.41624764 1.6810001
-0.15689334 0.41624764 1.6810001
-0.15296 0.41426668 1.6730001
-0.15048952 0.41624764 1.6810001
-0.14728762 0.41624764 1.6810001
-0.14408572 0.41624764 1.6810001
-0.14088382 0.41624764 1.6810001
-0.13768192 0.41624764 1.6810001
-0.13448 0.41624764 1.6810001
-0.13198096 0.41847619 1.6900001
-0.1287619 0.41847619 1.6900001
-0.12554286 0.41847619 1.6900001
-0.12232381 0.41847619 1.6900001
-0.11910477 0.41847619 1.6900001
-0.11643429 0.42045715 1.6980001
-0.1132 0.42045715 1.6980001
-0.10996572 0.42045715 1.6980001
-0.10673143 0.42045715 1.6980001
-0.10349715 0.42045715 1.6980001
-0.10026286 0.42045715 1.6980001
-0.097485721 0.42243811 1.7060001
-0.094236195 0.42243811 1.7060001
-0.091466673 0.42466667 1.715
-0.088200003 0.42466667 1.715
-0.084933333 0.42466667 1.715
-0.081666671 0.42466667 1.715
-0.078400001 0.42466667 1.715
-0.075133339 0.42466667 1.715
-0.071866669 0.42466667 1.715
-0.068599999 0.42466667 1.715
-0.065333337 0.42466667 1.715
-0.062066671 0.42466667 1.715
-0.059074286 0.42664763 1.723
-0.055792384 0.42664763 1.723
-0.052510478 0.42664763 1.723
-0.049228575 0.42664763 1.723
-0.045946669 0.42664763 1.723
-0.042664763 0.42664763 1.723
-0.03938286 0.42664763 1.723
-0.036100954 0.42664763 1.723
-0.032819048 0.42664763 1.723
-0.0294 0.42466667 1.715
-0.026133334 0.42466667 1.715
-0.022973334 0.42664763 1.723
-0.01969143 0.42664763 1.723
-0.016333334 0.42466667 1.715
-0.013127619 0.42664763 1.723
-0.009845715 0.42664763 1.723
-0.0065980954 0.42887619 1.7320001
-0.0032990477 0.42887619 1.7320001
0 0.42664763 1.723
0.0032990477 0.42887619 1.7320001
0.0065980954 0.42887619 1.7320001
0.009845715 0.42664763 1.723
0.013196191 0.42887619 1.7320001
0.016495239 0.42887619 1.7320001
0.019794287 0.42887619 1.7320001
0.023213334 0.43110478 1.7410001
0.026529524 0.43110478 1.7410001
0.030000001 0.43333334 1.7500001
0.033333335 0.43333334 1.7500001
0.036666669 0.43333334 1.7500001
0.040000003 0.43333334 1.7500001
0.043333337 0.43333334 1.7500001
0.046666667 0.43333334 1.7500001
0.050000001 0.43333334 1.7500001
0.053333335 0.43333334 1.7500001
0.056958098 0.43556193 1.7590001
0.060308572 0.43556193 1.7590001
0.06365905 0.43556193 1.7590001
0.067009524 0.43556193 1.7590001
0.070360005 0.43556193 1.7590001
0.073710479 0.43556193 1.7590001
0.077060953 0.43556193 1.7590001
0.080411434 0.43556193 1.7590001
0.083761908 0.43556193 1.7590001
0.087112382 0.43556193 1.7590001
0.090925716 0.43779048 1.7680001
0.094293334 0.43779048 1.7680001
0.097660959 0.43779048 1.7680001
0.10102858 0.43779048 1.7680001
0.10439619 0.43779048 1.7680001
0.10831238 0.44001907 1.7770001
0.11169714 0.44001907 1.7770001
0.11508191 0.44001907 1.7770001
0.11846667 0.44001907 1.7770001
0.12185143 0.44001907 1.7770001
0.1252362 0.44001907 1.7770001
0.12927239 0.44224763 1.7860001
0.13267429 0.44224763 1.7860001
0.1360762 0.44224763 1.7860001
0.14018096 0.44447622 1.7950001
0.1436 0.44447622 1.7950001
0.14701906 0.44447622 1.7950001
0.1504381 0.44447622 1.7950001
0.15385714 0.44447622 1.7950001
0.1572762 0.44447622 1.7950001
0.16069524 0.44447622 1.7950001
0.1641143 0.44447622 1.7950001
0.16753334 0.44447622 1.7950001
0.17095239 0.44447622 1.7950001
0.17437144 0.44447622 1.7950001
0.17868191 0.44670478 1.8040001
0.18312763 0.44918096 1.8140001
0.18658286 0.44918096 1.8140001
0.1900381 0.44918096 1.8140001
0.19242667 0.44670478 1.8040001
0.19586286 0.44670478 1.8040001
0.19929905 0.44670478 1.8040001
0.20273525 0.44670478 1.8040001
0.20617144 0.44670478 1.8040001
0.21076953 0.44918096 1.8140001
0.21422477 0.44918096 1.8140001
0.21768001 0.44918096 1.8140001
0.22113524 0.44918096 1.8140001
0.22582857 0.45165715 1.8240001
0.22930287 0.45165715 1.8240001
0.23277715 0.45165715 1.8240001
0.23625144 0.45165715 1.8240001
0.23972572 0.45165715 1.8240001
0.24440001 0.45388573 1.8330001
0.2466743 0.45165715 1.8240001
0.25014859 0.45165715 1.8240001
0.25362286 0.45165715 1.8240001
0.25709715 0.45165715 1.8240001
0.26185715 0.45388573 1.8330001
0.26534858 0.45388573 1.8330001
0.26752001 0.45165715 1.8240001
0.27233145 0.45388573 1.8330001
0.27446857 0.45165715 1.8240001
0.27931431 0.45388573 1.8330001
0.28280571 0.45388573 1.8330001
0.28629714 0.45388573 1.8330001
0.28978857 0.45388573 1.8330001
0.29328001 0.45388573 1.8330001
0.29839048 0.45636192 1.8430001
0.30026287 0.45388573 1.8330001
0.30541143 0.45636192 1.8430001
0.3089219 0.45636192 1.8430001
0.31243238 0.45636192 1.8430001
0.31594288 0.45636192 1.8430001
0.31945336 0.45636192 1.8430001
0.32296383 0.45636192 1.8430001
0.32647431 0.45636192 1.8430001
0.32998478 0.45636192 1.8430001
0.33349526 0.45636192 1.8430001
0.33883429 0.45883811 1.853
0.34051621 0.45636192 1.8430001
0.34402668 0.45636192 1.8430001
0.34753716 0.45636192 1.8430001
0.35104764 0.45636192 1.8430001
0.35263431 0.45388573 1.8330001
-0.33421335 0.52749336 2.1140001
-0.32612574 0.52100575 2.0880001
-0.32214859 0.52100575 2.0880001
-0.31634286 0.51801145 2.0760002
-0.3104324 0.51476765 2.0630002
-0.30472001 0.51177335 2.0510001
-0.29729334 0.50578481 2.0270002
-0.29169524 0.50279051 2.0150001
-0.28614286 0.49979621 2.003
-0.28077716 0.49705145 1.9920001
-0.2753143 0.49405715 1.9800001
-0.26701716 0.48582289 1.9470001
-0.26182097 0.48307812 1.9360001
-0.25533333 0.4778381 1.9150001
-0.25024 0.47509336 1.904
-0.2453181 0.47259811 1.8940001
-0.23903048 0.46735811 1.8730001
-0.2304343 0.45737717 1.8330001
-0.22459048 0.45263621 1.8140001
-0.21991619 0.45014098 1.8040001
-0.21540001 0.44789526 1.7950001
-0.2109181 0.44564953 1.7860001
-0.20647049 0.44340384 1.7770001
-0.19897144 0.43442097 1.7410001
-0.19363239 0.42992955 1.723
-0.19035049 0.42992955 1.723
-0.18620001 0.42793334 1.715
-0.18197334 0.42568764 1.7060001
-0.17788573 0.42369145 1.6980001
-0.17382857 0.42169526 1.6900001
-0.17060953 0.42169526 1.6900001
-0.16649905 0.41944954 1.6810001
-0.16329715 0.41944954 1.6810001
-0.16009524 0.41944954 1.6810001
-0.15689334 0.41944954 1.6810001
-0.15296 0.41745335 1.6730001
-0.15048952 0.41944954 1.6810001
-0.14728762 0.41944954 1.6810001
-0.14408572 0.41944954 1.6810001
-0.14088382 0.41944954 1.6810001
-0.13768192 0.41944954 1.6810001
-0.13448 0.41944954 1.6810001
-0.13198096 0.42169526 1.6900001
-0.1287619 0.42169526 1.6900001
-0.12554286 0.42169526 1.6900001
-0.12232381 0.42169526 1.6900001
-0.11910477 0.42169526 1.6900001
-0.11588572 0.42169526 1.6900001
-0.11266667 0.42169526 1.6900001
-0.10944762 0.42169526 1.6900001
-0.10622858 0.42169526 1.6900001
-0.10349715 0.42369145 1.6980001
-0.10026286 0.42369145 1.6980001
-0.097485721 0.42568764 1.7060001
-0.094236195 0.42568764 1.7060001
-0.091466673 0.42793334 1.715
-0.088200003 0.42793334 1.715
-0.084933333 0.42793334 1.715
-0.081666671 0.42793334 1.715
-0.07876572 0.42992955 1.723
-0.075133339 0.42793334 1.715
-0.071866669 0.42793334 1.715
-0.068599999 0.42793334 1.715
-0.065333337 0.42793334 1.715
-0.062066671 0.42793334 1.715
-0.058800001 0.42793334 1.715
-0.055792384 0.42992955 1.723
-0.052510478 0.42992955 1.723
-0.049228575 0.42992955 1.723
-0.045946669 0.42992955 1.723
-0.042664763 0.42992955 1.723
-0.03938286 0.42992955 1.723
-0.036100954 0.42992955 1.723
-0.032819048 0.42992955 1.723
-0.029537143 0.42992955 1.723
-0.026255239 0.42992955 1.723
-0.022973334 0.42992955 1.723
-0.01969143 0.42992955 1.723
-0.016409524 0.42992955 1.723
-0.013127619 0.42992955 1.723
-0.0098971436 0.43217525 1.7320001
-0.0065980954 0.43217525 1.7320001
-0.0032990477 0.43217525 1.7320001
0 0.42992955 1.723
0.0032990477 0.43217525 1.7320001
0.0065980954 0.43217525 1.7320001
0.009845715 0.42992955 1.723
0.013196191 0.43217525 1.7320001
0.016495239 0.43217525 1.7320001
0.019897144 0.43442097 1.7410001
0.023213334 0.43442097 1.7410001
0.026529524 0.43442097 1.7410001
0.030000001 0.4366667 1.7500001
0.033333335 0.4366667 1.7500001
0.036666669 0.4366667 1.7500001
0.040000003 0.4366667 1.7500001
0.043333337 0.4366667 1.7500001
0.046666667 0.4366667 1.7500001
0.050000001 0.4366667 1.7500001
0.053333335 0.4366667 1.7500001
0.056958098 0.43891239 1.7590001
0.060308572 0.43891239 1.7590001
0.06365905 0.43891239 1.7590001
0.067009524 0.43891239 1.7590001
0.070360005 0.43891239 1.7590001
0.073710479 0.43891239 1.7590001
0.077060953 0.43891239 1.7590001
0.080411434 0.43891239 1.7590001
0.083761908 0.43891239 1.7590001
0.087112382 0.43891239 1.7590001
0.090925716 0.44115812 1.7680001
0.094293334 0.44115812 1.7680001
0.097660959 0.44115812 1.7680001
0.10154286 0.44340384 1.7770001
0.10492762 0.44340384 1.7770001
0.10831238 0.44340384 1.7770001
0.11169714 0.44340384 1.7770001
0.11508191 0.44340384 1.7770001
0.11846667 0.44340384 1.7770001
0.12185143 0.44340384 1.7770001
0.1252362 0.44340384 1.7770001
0.12927239 0.44564953 1.7860001
0.13267429 0.44564953 1.7860001
0.1360762 0.44564953 1.7860001
0.14018096 0.44789526 1.7950001
0.1436 0.44789526 1.7950001
0.14701906 0.44789526 1.7950001
0.1504381 0.44789526 1.7950001
0.15385714 0.44789526 1.7950001
0.1572762 0.44789526 1.7950001
0.16069524 0.44789526 1.7950001
0.1641143 0.44789526 1.7950001
0.16753334 0.44789526 1.7950001
0.17095239 0.44789526 1.7950001
0.17437144 0.44789526 1.7950001
0.17779048 0.44789526 1.7950001
0.18120953 0.44789526 1.7950001
0.1855543 0.45014098 1.8040001
0.18899049 0.45014098 1.8040001
0.19242667 0.45014098 1.8040001
0.19586286 0.45014098 1.8040001
0.19929905 0.45014098 1.8040001
0.20273525 0.45014098 1.8040001
0.2073143 0.45263621 1.8140001
0.21076953 0.45263621 1.8140001
0.21422477 0.45263621 1.8140001
0.21888001 0.45513144 1.8240001
0.22235429 0.45513144 1.8240001
0.22582857 0.45513144 1.8240001
0.22930287 0.45513144 1.8240001
0.23277715 0.45513144 1.8240001
0.23625144 0.45513144 1.8240001
0.24090858 0.45737717 1.8330001
0.24440001 0.45737717 1.8330001
0.2466743 0.45513144 1.8240001
0.25014859 0.45513144 1.8240001
0.25362286 0.45513144 1.8240001
0.25709715 0.45513144 1.8240001
0.26185715 0.45737717 1.8330001
0.26534858 0.45737717 1.8330001
0.26752001 0.45513144 1.8240001
0.27233145 0.45737717 1.8330001
0.27446857 0.45513144 1.8240001
0.27931431 0.45737717 1.8330001
0.28280571 0.45737717 1.8330001
0.28629714 0.45737717 1.8330001
0.28978857 0.45737717 1.8330001
0.29328001 0.45737717 1.8330001
0.29839048 0.45987239 1.8430001
0.30026287 0.45737717 1.8330001
0.3037543 0.45737717 1.8330001
0.3089219 0.45987239 1.8430001
0.31243238 0.45987239 1.8430001
0.31594288 0.45987239 1.8430001
0.31945336 0.45987239 1.8430001
0.32296383 0.45987239 1.8430001
0.32824573 0.46236762 1.853
0.33177525 0.46236762 1.853
0.33530477 0.46236762 1.853
0.33883429 0.46236762 1.853
0.34236383 0.46236762 1.853
0.34589335 0.46236762 1.853
0.34942287 0.46236762 1.853
0.35295239 0.46236762 1.853
-0.33421335 0.53152001 2.1140001
-0.33018667 0.53152001 2.1140001
-0.32415429 0.52825147 2.1010001
-0.31817144 0.52498287 2.0880001
-0.3104324 0.51869714 2.0630002
-0.30472001 0.51568002 2.0510001
-0.29729334 0.50964576 2.0270002
-0.29343238 0.50964576 2.0270002
-0.28614286 0.50361145 2.003
-0.28077716 0.50084573 1.9920001
-0.2753143 0.4978286 1.9800001
-0.26852572 0.49229717 1.9580001
-0.26330858 0.48953146 1.9470001
-0.25666669 0.48400003 1.9250001
-0.25168571 0.48148572 1.9150001
-0.2453181 0.47620574 1.8940001
-0.23903048 0.47092572 1.8730001
-0.23169143 0.46338287 1.8430001
-0.22582857 0.45860574 1.8240001
-0.22113524 0.45609143 1.8140001
-0.21648 0.45357716 1.8040001
-0.21198095 0.4513143 1.7950001
-0.20647049 0.44678858 1.7770001
-0.19794287 0.43547431 1.7320001
-0.19363239 0.43321145 1.723
-0.19035049 0.43321145 1.723
-0.18620001 0.43120003 1.715
-0.18197334 0.42893717 1.7060001
-0.17788573 0.42692572 1.6980001
-0.17382857 0.4249143 1.6900001
-0.17060953 0.4249143 1.6900001
-0.16570668 0.42064002 1.6730001
-0.16329715 0.42265144 1.6810001
-0.16009524 0.42265144 1.6810001
-0.15614668 0.42064002 1.6730001
-0.15296 0.42064002 1.6730001
-0.15048952 0.42265144 1.6810001
-0.14728762 0.42265144 1.6810001
-0.14485715 0.4249143 1.6900001
-0.14088382 0.42265144 1.6810001
-0.13768192 0.42265144 1.6810001
-0.13448 0.42265144 1.6810001
-0.13198096 0.4249143 1.6900001
-0.1287619 0.4249143 1.6900001
-0.12554286 0.4249143 1.6900001
-0.12232381 0.4249143 1.6900001
-0.11910477 0.4249143 1.6900001
-0.11588572 0.4249143 1.6900001
-0.11266667 0.4249143 1.6900001
-0.10944762 0.4249143 1.6900001
-0.10622858 0.4249143 1.6900001
-0.10300953 0.4249143 1.6900001
-0.10026286 0.42692572 1.6980001
-0.097485721 0.42893717 1.7060001
-0.094236195 0.42893717 1.7060001
-0.091466673 0.43120003 1.715
-0.088200003 0.43120003 1.715
-0.084933333 0.43120003 1.715
-0.082047619 0.43321145 1.723
-0.07876572 0.43321145 1.723
-0.075483814 0.43321145 1.723
-0.072201908 0.43321145 1.723
-0.068920001 0.43321145 1.723
-0.065638095 0.43321145 1.723
-0.062066671 0.43120003 1.715
-0.058800001 0.43120003 1.715
-0.055792384 0.43321145 1.723
-0.052510478 0.43321145 1.723
-0.049000002 0.43120003 1.715
-0.045733336 0.43120003 1.715
-0.042664763 0.43321145 1.723
-0.03938286 0.43321145 1.723
-0.036100954 0.43321145 1.723
-0.032819048 0.43321145 1.723
-0.029537143 0.43321145 1.723
-0.026255239 0.43321145 1.723
-0.022973334 0.43321145 1.723
-0.01969143 0.43321145 1.723
-0.016409524 0.43321145 1.723
-0.013196191 0.43547431 1.7320001
-0.0098971436 0.43547431 1.7320001
-0.0065980954 0.43547431 1.7320001
-0.0032990477 0.43547431 1.7320001
0 0.43547431 1.7320001
0.0032990477 0.43547431 1.7320001
0.0065980954 0.43547431 1.7320001
0.0098971436 0.43547431 1.7320001
0.013196191 0.43547431 1.7320001
0.016495239 0.43547431 1.7320001
0.019794287 0.43547431 1.7320001
0.023213334 0.43773717 1.7410001
0.026529524 0.43773717 1.7410001
0.030000001 0.44000003 1.7500001
0.033333335 0.44000003 1.7500001
0.036666669 0.44000003 1.7500001
0.040000003 0.44000003 1.7500001
0.043333337 0.44000003 1.7500001
0.046666667 0.44000003 1.7500001
0.050000001 0.44000003 1.7500001
0.053333335 0.44000003 1.7500001
0.056958098 0.44226289 1.7590001
0.060308572 0.44226289 1.7590001
0.06365905 0.44226289 1.7590001
0.067009524 0.44226289 1.7590001
0.070360005 0.44226289 1.7590001
0.073710479 0.44226289 1.7590001
0.077060953 0.44226289 1.7590001
0.080411434 0.44226289 1.7590001
0.083761908 0.44226289 1.7590001
0.087112382 0.44226289 1.7590001
0.090925716 0.44452572 1.7680001
0.094293334 0.44452572 1.7680001
0.097660959 0.44452572 1.7680001
0.10154286 0.44678858 1.7770001
0.10492762 0.44678858 1.7770001
0.10831238 0.44678858 1.7770001
0.11169714 0.44678858 1.7770001
0.11508191 0.44678858 1.7770001
0.11846667 0.44678858 1.7770001
0.12185143 0.44678858 1.7770001
0.12587048 0.44905144 1.7860001
0.12927239 0.44905144 1.7860001
0.13267429 0.44905144 1.7860001
0.1360762 0.44905144 1.7860001
0.1394781 0.44905144 1.7860001
0.1436 0.4513143 1.7950001
0.14701906 0.4513143 1.7950001
0.1504381 0.4513143 1.7950001
0.15385714 0.4513143 1.7950001
0.1572762 0.4513143 1.7950001
0.16069524 0.4513143 1.7950001
0.1641143 0.4513143 1.7950001
0.16753334 0.4513143 1.7950001
0.17095239 0.4513143 1.7950001
0.17437144 0.4513143 1.7950001
0.17868191 0.45357716 1.8040001
0.1821181 0.45357716 1.8040001
0.18658286 0.45609143 1.8140001
0.1900381 0.45609143 1.8140001
0.19349334 0.45609143 1.8140001
0.19694857 0.45609143 1.8140001
0.20040381 0.45609143 1.8140001
0.20385906 0.45609143 1.8140001
0.2073143 0.45609143 1.8140001
0.21076953 0.45609143 1.8140001
0.21422477 0.45609143 1.8140001
0.21888001 0.45860574 1.8240001
0.22235429 0.45860574 1.8240001
0.22582857 0.45860574 1.8240001
0.22930287 0.45860574 1.8240001
0.23277715 0.45860574 1.8240001
0.23625144 0.45860574 1.8240001
0.24090858 0.4608686 1.8330001
0.24440001 0.4608686 1.8330001
0.2466743 0.45860574 1.8240001
0.25014859 0.45860574 1.8240001
0.25362286 0.45860574 1.8240001
0.25709715 0.45860574 1.8240001
0.26185715 0.4608686 1.8330001
0.26404572 0.45860574 1.8240001
0.26752001 0.45860574 1.8240001
0.27233145 0.4608686 1.8330001
0.27582288 0.4608686 1.8330001
0.27931431 0.4608686 1.8330001
0.28280571 0.4608686 1.8330001
0.28629714 0.4608686 1.8330001
0.28978857 0.4608686 1.8330001
0.29328001 0.4608686 1.8330001
0.29677144 0.4608686 1.8330001
0.30026287 0.4608686 1.8330001
0.3037543 0.4608686 1.8330001
0.3089219 0.46338287 1.8430001
0.31243238 0.46338287 1.8430001
0.31594288 0.46338287 1.8430001
0.32118669 0.46589717 1.853
0.32471621 0.46589717 1.853
0.32824573 0.46589717 1.853
0.33177525 0.46589717 1.853
0.33530477 0.46589717 1.853
0.33883429 0.46589717 1.853
0.34236383 0.46589717 1.853
0.34589335 0.46589717 1.853
0.34753716 0.46338287 1.8430001
0.35104764 0.46338287 1.8430001
0.35455811 0.46338287 1.8430001
-0.33221716 0.53884 2.1270001
-0.32816574 0.53884 2.1270001
-0.3201524 0.53225332 2.1010001
-0.31238857 0.52592003 2.0760002
-0.30650288 0.5226267 2.0630002
-0.30081335 0.51958668 2.0510001
-0.29343238 0.51350671 2.0270002
-0.28614286 0.50742668 2.003
-0.28077716 0.50464004 1.9920001
-0.2753143 0.50160003 1.9800001
-0.26852572 0.49602669 1.9580001
-0.26330858 0.49324003 1.9470001
-0.25813335 0.49045336 1.9360001
-0.25168571 0.48513335 1.9150001
-0.2453181 0.47981334 1.8940001
-0.24030668 0.47702667 1.8830001
-0.23294859 0.46942669 1.853
-0.22694287 0.46436003 1.8330001
-0.22113524 0.45954669 1.8140001
-0.21648 0.45701334 1.8040001
-0.21198095 0.45473334 1.7950001
-0.20647049 0.45017335 1.7770001
-0.19794287 0.43877336 1.7320001
-0.19363239 0.43649334 1.723
-0.19035049 0.43649334 1.723
-0.18620001 0.43446669 1.715
-0.18197334 0.43218669 1.7060001
-0.17788573 0.43016002 1.6980001
-0.17382857 0.42813334 1.6900001
-0.16970097 0.42585334 1.6810001
-0.16649905 0.42585334 1.6810001
-0.16252001 0.42382669 1.6730001
-0.16009524 0.42585334 1.6810001
-0.15614668 0.42382669 1.6730001
-0.15296 0.42382669 1.6730001
-0.15048952 0.42585334 1.6810001
-0.14728762 0.42585334 1.6810001
-0.14408572 0.42585334 1.6810001
-0.14088382 0.42585334 1.6810001
-0.13768192 0.42585334 1.6810001
-0.13448 0.42585334 1.6810001
-0.13198096 0.42813334 1.6900001
-0.1287619 0.42813334 1.6900001
-0.12554286 0.42813334 1.6900001
-0.12232381 0.42813334 1.6900001
-0.11910477 0.42813334 1.6900001
-0.11588572 0.42813334 1.6900001
-0.11266667 0.42813334 1.6900001
-0.10944762 0.42813334 1.6900001
-0.10622858 0.42813334 1.6900001
-0.10300953 0.42813334 1.6900001
-0.10026286 0.43016002 1.6980001
-0.097485721 0.43218669 1.7060001
-0.094236195 0.43218669 1.7060001
-0.090986669 0.43218669 1.7060001
-0.087737143 0.43218669 1.7060001
-0.084933333 0.43446669 1.715
-0.081666671 0.43446669 1.715
-0.07876572 0.43649334 1.723
-0.075483814 0.43649334 1.723
-0.072201908 0.43649334 1.723
-0.068599999 0.43446669 1.715
-0.065638095 0.43649334 1.723
-0.062066671 0.43446669 1.715
-0.058800001 0.43446669 1.715
-0.055533335 0.43446669 1.715
-0.052266669 0.43446669 1.715
-0.049000002 0.43446669 1.715
-0.045733336 0.43446669 1.715
-0.042664763 0.43649334 1.723
-0.03938286 0.43649334 1.723
-0.036100954 0.43649334 1.723
-0.032990478 0.43877336 1.7320001
-0.029537143 0.43649334 1.723
-0.026255239 0.43649334 1.723
-0.023093333 0.43877336 1.7320001
-0.01969143 0.43649334 1.723
-0.016409524 0.43649334 1.723
-0.013196191 0.43877336 1.7320001
-0.0099485721 0.44105336 1.7410001
-0.0065980954 0.43877336 1.7320001
-0.0032819049 0.43649334 1.723
0 0.43877336 1.7320001
0.0032990477 0.43877336 1.7320001
0.0065980954 0.43877336 1.7320001
0.0098971436 0.43877336 1.7320001
0.013196191 0.43877336 1.7320001
0.016495239 0.43877336 1.7320001
0.019897144 0.44105336 1.7410001
0.023213334 0.44105336 1.7410001
0.026529524 0.44105336 1.7410001
0.030000001 0.44333336 1.7500001
0.033333335 0.44333336 1.7500001
0.036666669 0.44333336 1.7500001
0.040000003 0.44333336 1.7500001
0.043333337 0.44333336 1.7500001
0.046666667 0.44333336 1.7500001
0.050257146 0.44561335 1.7590001
0.05360762 0.44561335 1.7590001
0.056958098 0.44561335 1.7590001
0.060308572 0.44561335 1.7590001
0.06365905 0.44561335 1.7590001
0.067009524 0.44561335 1.7590001
0.070360005 0.44561335 1.7590001
0.073710479 0.44561335 1.7590001
0.077060953 0.44561335 1.7590001
0.080411434 0.44561335 1.7590001
0.083761908 0.44561335 1.7590001
0.087558098 0.44789335 1.7680001
0.090925716 0.44789335 1.7680001
0.094293334 0.44789335 1.7680001
0.097660959 0.44789335 1.7680001
0.10154286 0.45017335 1.7770001
0.10492762 0.45017335 1.7770001
0.10831238 0.45017335 1.7770001
0.11169714 0.45017335 1.7770001
0.11508191 0.45017335 1.7770001
0.11846667 0.45017335 1.7770001
0.12246858 0.45245335 1.7860001
0.12587048 0.45245335 1.7860001
0.12927239 0.45245335 1.7860001
0.13267429 0.45245335 1.7860001
0.1360762 0.45245335 1.7860001
0.14018096 0.45473334 1.7950001
0.14288001 0.45245335 1.7860001
0.14628191 0.45245335 1.7860001
0.1504381 0.45473334 1.7950001
0.15385714 0.45473334 1.7950001
0.1572762 0.45473334 1.7950001
0.16069524 0.45473334 1.7950001
0.1641143 0.45473334 1.7950001
0.16753334 0.45473334 1.7950001
0.17095239 0.45473334 1.7950001
0.17437144 0.45473334 1.7950001
0.17868191 0.45701334 1.8040001
0.1821181 0.45701334 1.8040001
0.18658286 0.45954669 1.8140001
0.1900381 0.45954669 1.8140001
0.19349334 0.45954669 1.8140001
0.19586286 0.45701334 1.8040001
0.20040381 0.45954669 1.8140001
0.20273525 0.45701334 1.8040001
0.2073143 0.45954669 1.8140001
0.21076953 0.45954669 1.8140001
0.21422477 0.45954669 1.8140001
0.21888001 0.46208003 1.8240001
0.22235429 0.46208003 1.8240001
0.22582857 0.46208003 1.8240001
0.22930287 0.46208003 1.8240001
0.23277715 0.46208003 1.8240001
0.23625144 0.46208003 1.8240001
0.24090858 0.46436003 1.8330001
0.24440001 0.46436003 1.8330001
0.2466743 0.46208003 1.8240001
0.25014859 0.46208003 1.8240001
0.25362286 0.46208003 1.8240001
0.25709715 0.46208003 1.8240001
0.26057145 0.46208003 1.8240001
0.26404572 0.46208003 1.8240001
0.26752001 0.46208003 1.8240001
0.27233145 0.46436003 1.8330001
0.27582288 0.46436003 1.8330001
0.27931431 0.46436003 1.8330001
0.28280571 0.46436003 1.8330001
0.28785905 0.46689335 1.8430001
0.28978857 0.46436003 1.8330001
0.29328001 0.46436003 1.8330001
0.29839048 0.46689335 1.8430001
0.30026287 0.46436003 1.8330001
0.30541143 0.46689335 1.8430001
0.3089219 0.46689335 1.8430001
0.31243238 0.46689335 1.8430001
0.31594288 0.46689335 1.8430001
0.32118669 0.46942669 1.853
0.32471621 0.46942669 1.853
0.32824573 0.46942669 1.853
0.33177525 0.46942669 1.853
0.33530477 0.46942669 1.853
0.33883429 0.46942669 1.853
0.34236383 0.46942669 1.853
0.34589335 0.46942669 1.853
0.34942287 0.46942669 1.853
0.35295239 0.46942669 1.853
0.35648191 0.46942669 1.853
-0.33832383 0.54620951 2.1400001
-0.33221716 0.54289144 2.1270001
-0.32816574 0.54289144 2.1270001
-0.3201524 0.53625524 2.1010001
-0.31238857 0.52987432 2.0760002
-0.30650288 0.52655619 2.0630002
-0.30081335 0.52349335 2.0510001
-0.29343238 0.51736766 2.0270002
-0.28614286 0.51124191 2.003
-0.28077716 0.5084343 1.9920001
-0.2753143 0.50537145 1.9800001
-0.26852572 0.49975622 1.9580001
-0.2647962 0.49975622 1.9580001
-0.25960001 0.4969486 1.9470001
-0.25300002 0.49133337 1.9250001
-0.2453181 0.48342097 1.8940001
-0.23903048 0.47806096 1.8730001
-0.23294859 0.47295621 1.853
-0.22694287 0.46785146 1.8330001
-0.22113524 0.46300194 1.8140001
-0.21648 0.46044955 1.8040001
-0.21198095 0.45815238 1.7950001
-0.20647049 0.45355812 1.7770001
-0.2 0.44666669 1.7500001
-0.19464381 0.44207239 1.7320001
-0.19035049 0.43977526 1.723
-0.18706858 0.43977526 1.723
-0.18197334 0.43543622 1.7060001
-0.17788573 0.43339431 1.6980001
-0.17382857 0.43135241 1.6900001
-0.16970097 0.42905524 1.6810001
-0.16570668 0.42701334 1.6730001
-0.16252001 0.42701334 1.6730001
-0.16009524 0.42905524 1.6810001
-0.15689334 0.42905524 1.6810001
-0.15369144 0.42905524 1.6810001
-0.15129524 0.43135241 1.6900001
-0.14728762 0.42905524 1.6810001
-0.14485715 0.43135241 1.6900001
-0.14088382 0.42905524 1.6810001
-0.13768192 0.42905524 1.6810001
-0.13520001 0.43135241 1.6900001
-0.13198096 0.43135241 1.6900001
-0.1287619 0.43135241 1.6900001
-0.12554286 0.43135241 1.6900001
-0.12232381 0.43135241 1.6900001
-0.11910477 0.43135241 1.6900001
-0.11588572 0.43135241 1.6900001
-0.11266667 0.43135241 1.6900001
-0.10944762 0.43135241 1.6900001
-0.10622858 0.43135241 1.6900001
-0.10300953 0.43135241 1.6900001
-0.10026286 0.43339431 1.6980001
-0.097485721 0.43543622 1.7060001
-0.094236195 0.43543622 1.7060001
-0.090986669 0.43543622 1.7060001
-0.087737143 0.43543622 1.7060001
-0.084933333 0.43773335 1.715
-0.081666671 0.43773335 1.715
-0.07876572 0.43977526 1.723
-0.075483814 0.43977526 1.723
-0.072201908 0.43977526 1.723
-0.068599999 0.43773335 1.715
-0.065638095 0.43977526 1.723
-0.062066671 0.43773335 1.715
-0.058800001 0.43773335 1.715
-0.055533335 0.43773335 1.715
-0.052266669 0.43773335 1.715
-0.049000002 0.43773335 1.715
-0.045733336 0.43773335 1.715
-0.042664763 0.43977526 1.723
-0.03938286 0.43977526 1.723
-0.036289524 0.44207239 1.7320001
-0.032990478 0.44207239 1.7320001
-0.02969143 0.44207239 1.7320001
-0.026392382 0.44207239 1.7320001
-0.023093333 0.44207239 1.7320001
-0.019794287 0.44207239 1.7320001
-0.016495239 0.44207239 1.7320001
-0.013264762 0.44436955 1.7410001
-0.0098971436 0.44207239 1.7320001
-0.0065980954 0.44207239 1.7320001
-0.0032819049 0.43977526 1.723
0 0.44207239 1.7320001
0.0033161906 0.44436955 1.7410001
0.0066323811 0.44436955 1.7410001
0.0098971436 0.44207239 1.7320001
0.013196191 0.44207239 1.7320001
0.016580952 0.44436955 1.7410001
0.019897144 0.44436955 1.7410001
0.023333333 0.44666669 1.7500001
0.026666667 0.44666669 1.7500001
0.030000001 0.44666669 1.7500001
0.033333335 0.44666669 1.7500001
0.036666669 0.44666669 1.7500001
0.040000003 0.44666669 1.7500001
0.043333337 0.44666669 1.7500001
0.046666667 0.44666669 1.7500001
0.050257146 0.44896382 1.7590001
0.05360762 0.44896382 1.7590001
0.056958098 0.44896382 1.7590001
0.060308572 0.44896382 1.7590001
0.06365905 0.44896382 1.7590001
0.067009524 0.44896382 1.7590001
0.070360005 0.44896382 1.7590001
0.073710479 0.44896382 1.7590001
0.077060953 0.44896382 1.7590001
0.080411434 0.44896382 1.7590001
0.08419048 0.45126095 1.7680001
0.087558098 0.45126095 1.7680001
0.090925716 0.45126095 1.7680001
0.094293334 0.45126095 1.7680001
0.097660959 0.45126095 1.7680001
0.10102858 0.45126095 1.7680001
0.10492762 0.45355812 1.7770001
0.10831238 0.45355812 1.7770001
0.11169714 0.45355812 1.7770001
0.11508191 0.45355812 1.7770001
0.11906667 0.45585525 1.7860001
0.12246858 0.45585525 1.7860001
0.12587048 0.45585525 1.7860001
0.12927239 0.45585525 1.7860001
0.13267429 0.45585525 1.7860001
0.1360762 0.45585525 1.7860001
0.14018096 0.45815238 1.7950001
0.1436 0.45815238 1.7950001
0.14701906 0.45815238 1.7950001
0.1504381 0.45815238 1.7950001
0.15385714 0.45815238 1.7950001
0.1572762 0.45815238 1.7950001
0.16069524 0.45815238 1.7950001
0.1641143 0.45815238 1.7950001
0.16753334 0.45815238 1.7950001
0.17095239 0.45815238 1.7950001
0.17437144 0.45815238 1.7950001
0.17779048 0.45815238 1.7950001
0.1821181 0.46044955 1.8040001
0.18658286 0.46300194 1.8140001
0.1900381 0.46300194 1.8140001
0.19242667 0.46044955 1.8040001
0.19694857 0.46300194 1.8140001
0.20040381 0.46300194 1.8140001
0.20385906 0.46300194 1.8140001
0.2073143 0.46300194 1.8140001
0.21076953 0.46300194 1.8140001
0.21540572 0.4655543 1.8240001
0.21888001 0.4655543 1.8240001
0.22235429 0.4655543 1.8240001
0.22582857 0.4655543 1.8240001
0.22930287 0.4655543 1.8240001
0.23277715 0.4655543 1.8240001
0.23625144 0.4655543 1.8240001
0.23972572 0.4655543 1.8240001
0.2432 0.4655543 1.8240001
0.24532191 0.46300194 1.8140001
0.24877715 0.46300194 1.8140001
0.2522324 0.46300194 1.8140001
0.25709715 0.4655543 1.8240001
0.26057145 0.4655543 1.8240001
0.26404572 0.4655543 1.8240001
0.26752001 0.4655543 1.8240001
0.27233145 0.46785146 1.8330001
0.27582288 0.46785146 1.8330001
0.2808381 0.47040382 1.8430001
0.28434858 0.47040382 1.8430001
0.28785905 0.47040382 1.8430001
0.29136953 0.47040382 1.8430001
0.29488 0.47040382 1.8430001
0.29839048 0.47040382 1.8430001
0.30190095 0.47040382 1.8430001
0.30541143 0.47040382 1.8430001
0.3089219 0.47040382 1.8430001
0.31243238 0.47040382 1.8430001
0.31594288 0.47040382 1.8430001
0.31945336 0.47040382 1.8430001
0.32471621 0.47295621 1.853
0.32824573 0.47295621 1.853
0.33177525 0.47295621 1.853
0.33530477 0.47295621 1.853
0.33883429 0.47295621 1.853
0.34236383 0.47295621 1.853
0.34589335 0.47295621 1.853
0.34942287 0.47295621 1.853
0.35295239 0.47295621 1.853
0.35648191 0.47295621 1.853
-0.33832383 0.55028576 2.1400001
-0.33424762 0.55028576 2.1400001
-0.32816574 0.54694289 2.1270001
-0.32213333 0.54360002 2.1140001
-0.31615049 0.54025716 2.1010001
-0.30843431 0.53382862 2.0760002
-0.30081335 0.52740002 2.0510001
-0.29343238 0.52122861 2.0270002
-0.28614286 0.51505715 2.003
-0.28077716 0.51222861 1.9920001
-0.2753143 0.50914288 1.9800001
-0.27003428 0.50631428 1.9690001
-0.2647962 0.50348574 1.9580001
-0.25960001 0.50065714 1.9470001
-0.25444573 0.4978286 1.9360001
-0.2453181 0.4870286 1.8940001
-0.23903048 0.4816286 1.8730001
-0.23294859 0.47648573 1.853
-0.22694287 0.47134286 1.8330001
-0.22113524 0.46645716 1.8140001
-0.21648 0.46388572 1.8040001
-0.21198095 0.46157146 1.7950001
-0.20647049 0.45694289 1.7770001
-0.20102859 0.45231432 1.7590001
-0.19464381 0.44537145 1.7320001
-0.19134477 0.44537145 1.7320001
-0.18706858 0.44305715 1.723
-0.18293335 0.44100001 1.715
-0.17788573 0.43662858 1.6980001
-0.17290287 0.43225715 1.6810001
-0.16889334 0.43020001 1.6730001
-0.16570668 0.43020001 1.6730001
-0.16252001 0.43020001 1.6730001
-0.15933333 0.43020001 1.6730001
-0.15614668 0.43020001 1.6730001
-0.15369144 0.43225715 1.6810001
-0.15129524 0.43457144 1.6900001
-0.14807619 0.43457144 1.6900001
-0.14485715 0.43457144 1.6900001
-0.14088382 0.43225715 1.6810001
-0.13768192 0.43225715 1.6810001
-0.13520001 0.43457144 1.6900001
-0.13198096 0.43457144 1.6900001
-0.1287619 0.43457144 1.6900001
-0.12554286 0.43457144 1.6900001
-0.12232381 0.43457144 1.6900001
-0.11910477 0.43457144 1.6900001
-0.11643429 0.43662858 1.6980001
-0.1132 0.43662858 1.6980001
-0.10996572 0.43662858 1.6980001
-0.10673143 0.43662858 1.6980001
-0.10349715 0.43662858 1.6980001
-0.10026286 0.43662858 1.6980001
-0.097028576 0.43662858 1.6980001
-0.094236195 0.43868575 1.7060001
-0.090986669 0.43868575 1.7060001
-0.087737143 0.43868575 1.7060001
-0.084933333 0.44100001 1.715
-0.081666671 0.44100001 1.715
-0.07876572 0.44305715 1.723
-0.075483814 0.44305715 1.723
-0.071866669 0.44100001 1.715
-0.068599999 0.44100001 1.715
-0.065333337 0.44100001 1.715
-0.062066671 0.44100001 1.715
-0.058800001 0.44100001 1.715
-0.055533335 0.44100001 1.715
-0.052266669 0.44100001 1.715
-0.049000002 0.44100001 1.715
-0.045733336 0.44100001 1.715
-0.042664763 0.44305715 1.723
-0.03938286 0.44305715 1.723
-0.036289524 0.44537145 1.7320001
-0.033161905 0.44768572 1.7410001
-0.02969143 0.44537145 1.7320001
-0.026529524 0.44768572 1.7410001
-0.023213334 0.44768572 1.7410001
-0.019794287 0.44537145 1.7320001
-0.016495239 0.44537145 1.7320001
-0.013264762 0.44768572 1.7410001
-0.0099485721 0.44768572 1.7410001
-0.0066323811 0.44768572 1.7410001
-0.0032990477 0.44537145 1.7320001
0 0.44537145 1.7320001
0.0033161906 0.44768572 1.7410001
0.0066323811 0.44768572 1.7410001
0.0099485721 0.44768572 1.7410001
0.013264762 0.44768572 1.7410001
0.016580952 0.44768572 1.7410001
0.020000001 0.45000002 1.7500001
0.023333333 0.45000002 1.7500001
0.026666667 0.45000002 1.7500001
0.030000001 0.45000002 1.7500001
0.033333335 0.45000002 1.7500001
0.036666669 0.45000002 1.7500001
0.040205717 0.45231432 1.7590001
0.043556191 0.45231432 1.7590001
0.046906669 0.45231432 1.7590001
0.050257146 0.45231432 1.7590001
0.05360762 0.45231432 1.7590001
0.056958098 0.45231432 1.7590001
0.060308572 0.45231432 1.7590001
0.06365905 0.45231432 1.7590001
0.067009524 0.45231432 1.7590001
0.070360005 0.45231432 1.7590001
0.073710479 0.45231432 1.7590001
0.077060953 0.45231432 1.7590001
0.080411434 0.45231432 1.7590001
0.08419048 0.45462859 1.7680001
0.087558098 0.45462859 1.7680001
0.090925716 0.45462859 1.7680001
0.094293334 0.45462859 1.7680001
0.097660959 0.45462859 1.7680001
0.10154286 0.45694289 1.7770001
0.10492762 0.45694289 1.7770001
0.10831238 0.45694289 1.7770001
0.11169714 0.45694289 1.7770001
0.11508191 0.45694289 1.7770001
0.11906667 0.45925716 1.7860001
0.12246858 0.45925716 1.7860001
0.12587048 0.45925716 1.7860001
0.12927239 0.45925716 1.7860001
0.13267429 0.45925716 1.7860001
0.1360762 0.45925716 1.7860001
0.14018096 0.46157146 1.7950001
0.1436 0.46157146 1.7950001
0.14701906 0.46157146 1.7950001
0.1504381 0.46157146 1.7950001
0.15385714 0.46157146 1.7950001
0.1572762 0.46157146 1.7950001
0.16069524 0.46157146 1.7950001
0.1641143 0.46157146 1.7950001
0.16753334 0.46157146 1.7950001
0.17095239 0.46157146 1.7950001
0.17437144 0.46157146 1.7950001
0.17779048 0.46157146 1.7950001
0.1821181 0.46388572 1.8040001
0.1855543 0.46388572 1.8040001
0.1900381 0.46645716 1.8140001
0.19349334 0.46645716 1.8140001
0.19586286 0.46388572 1.8040001
0.20040381 0.46645716 1.8140001
0.20385906 0.46645716 1.8140001
0.2073143 0.46645716 1.8140001
0.21076953 0.46645716 1.8140001
0.21422477 0.46645716 1.8140001
0.21888001 0.46902859 1.8240001
0.22235429 0.46902859 1.8240001
0.22582857 0.46902859 1.8240001
0.22930287 0.46902859 1.8240001
0.23277715 0.46902859 1.8240001
0.23625144 0.46902859 1.8240001
0.23972572 0.46902859 1.8240001
0.2432 0.46902859 1.8240001
0.24532191 0.46645716 1.8140001
0.25014859 0.46902859 1.8240001
0.25362286 0.46902859 1.8240001
0.25709715 0.46902859 1.8240001
0.26057145 0.46902859 1.8240001
0.26404572 0.46902859 1.8240001
0.26752001 0.46902859 1.8240001
0.27233145 0.47134286 1.8330001
0.27582288 0.47134286 1.8330001
0.2808381 0.4739143 1.8430001
0.28434858 0.4739143 1.8430001
0.28785905 0.4739143 1.8430001
0.29136953 0.4739143 1.8430001
0.29488 0.4739143 1.8430001
0.29839048 0.4739143 1.8430001
0.30190095 0.4739143 1.8430001
0.3037543 0.47134286 1.8330001
0.3089219 0.4739143 1.8430001
0.31243238 0.4739143 1.8430001
0.31594288 0.4739143 1.8430001
0.31945336 0.4739143 1.8430001
0.32471621 0.47648573 1.853
0.32824573 0.47648573 1.853
0.33177525 0.47648573 1.853
0.33530477 0.47648573 1.853
0.33883429 0.47648573 1.853
0.34236383 0.47648573 1.853
0.34589335 0.47648573 1.853
0.34942287 0.47648573 1.853
0.35104764 0.4739143 1.8430001
0.35455811 0.4739143 1.8430001
-0.33627811 0.55772954 2.1530001
-0.33017144 0.55436194 2.1400001
-0.32213333 0.54762667 2.1140001
-0.31810668 0.54762667 2.1140001
-0.30843431 0.53778285 2.0760002
-0.30081335 0.53130668 2.0510001
-0.29343238 0.52508956 2.0270002
-0.28614286 0.51887238 2.003
-0.28077716 0.51602286 1.9920001
-0.2753143 0.5129143 1.9800001
-0.26852572 0.50721526 1.9580001
-0.2647962 0.50721526 1.9580001
-0.25960001 0.50436574 1.9470001
-0.25300002 0.49866667 1.9250001
-0.24389334 0.48778668 1.8830001
-0.24030668 0.48778668 1.8830001
-0.23294859 0.48001525 1.853
-0.22694287 0.47483429 1.8330001
-0.22113524 0.46991241 1.8140001
-0.21648 0.46732193 1.8040001
-0.21198095 0.4649905 1.7950001
-0.20647049 0.46032763 1.7770001
-0.20102859 0.45566478 1.7590001
-0.19565524 0.45100191 1.7410001
-0.19134477 0.44867051 1.7320001
-0.18706858 0.44633907 1.723
-0.18293335 0.44426668 1.715
-0.17788573 0.43986288 1.6980001
-0.17290287 0.43545908 1.6810001
-0.16889334 0.43338668 1.6730001
-0.16570668 0.43338668 1.6730001
-0.16252001 0.43338668 1.6730001
-0.15933333 0.43338668 1.6730001
-0.15689334 0.43545908 1.6810001
-0.15369144 0.43545908 1.6810001
-0.15129524 0.43779048 1.6900001
-0.14807619 0.43779048 1.6900001
-0.14485715 0.43779048 1.6900001
-0.1416381 0.43779048 1.6900001
-0.13841905 0.43779048 1.6900001
-0.13520001 0.43779048 1.6900001
-0.13198096 0.43779048 1.6900001
-0.1287619 0.43779048 1.6900001
-0.12554286 0.43779048 1.6900001
-0.12232381 0.43779048 1.6900001
-0.11910477 0.43779048 1.6900001
-0.11643429 0.43986288 1.6980001
-0.1132 0.43986288 1.6980001
-0.10944762 0.43779048 1.6900001
-0.10622858 0.43779048 1.6900001
-0.10300953 0.43779048 1.6900001
-0.10026286 0.43986288 1.6980001
-0.097028576 0.43986288 1.6980001
-0.093794286 0.43986288 1.6980001
-0.090560004 0.43986288 1.6980001
-0.087737143 0.44193524 1.7060001
-0.084487624 0.44193524 1.7060001
-0.081666671 0.44426668 1.715
-0.07876572 0.44633907 1.723
-0.075133339 0.44426668 1.715
-0.071866669 0.44426668 1.715
-0.068599999 0.44426668 1.715
-0.065333337 0.44426668 1.715
-0.062066671 0.44426668 1.715
-0.058800001 0.44426668 1.715
-0.055533335 0.44426668 1.715
-0.052266669 0.44426668 1.715
-0.049000002 0.44426668 1.715
-0.045733336 0.44426668 1.715
-0.042664763 0.44633907 1.723
-0.03938286 0.44633907 1.723
-0.036289524 0.44867051 1.7320001
-0.032990478 0.44867051 1.7320001
-0.02969143 0.44867051 1.7320001
-0.026392382 0.44867051 1.7320001
-0.023213334 0.45100191 1.7410001
-0.019794287 0.44867051 1.7320001
-0.016495239 0.44867051 1.7320001
-0.013264762 0.45100191 1.7410001
-0.0099485721 0.45100191 1.7410001
-0.0066323811 0.45100191 1.7410001
-0.0032990477 0.44867051 1.7320001
0 0.45100191 1.7410001
0.0033161906 0.45100191 1.7410001
0.0066323811 0.45100191 1.7410001
0.0099485721 0.45100191 1.7410001
0.013264762 0.45100191 1.7410001
0.016666668 0.45333335 1.7500001
0.020000001 0.45333335 1.7500001
0.023333333 0.45333335 1.7500001
0.026666667 0.45333335 1.7500001
0.030000001 0.45333335 1.7500001
0.033333335 0.45333335 1.7500001
0.036666669 0.45333335 1.7500001
0.040000003 0.45333335 1.7500001
0.043333337 0.45333335 1.7500001
0.046906669 0.45566478 1.7590001
0.050257146 0.45566478 1.7590001
0.05360762 0.45566478 1.7590001
0.056958098 0.45566478 1.7590001
0.060308572 0.45566478 1.7590001
0.06365905 0.45566478 1.7590001
0.067009524 0.45566478 1.7590001
0.070360005 0.45566478 1.7590001
0.073710479 0.45566478 1.7590001
0.077060953 0.45566478 1.7590001
0.080411434 0.45566478 1.7590001
0.08419048 0.45799622 1.7680001
0.087558098 0.45799622 1.7680001
0.090925716 0.45799622 1.7680001
0.094293334 0.45799622 1.7680001
0.097660959 0.45799622 1.7680001
0.10154286 0.46032763 1.7770001
0.10492762 0.46032763 1.7770001
0.10831238 0.46032763 1.7770001
0.11169714 0.46032763 1.7770001
0.11508191 0.46032763 1.7770001
0.11906667 0.46265906 1.7860001
0.12246858 0.46265906 1.7860001
0.12587048 0.46265906 1.7860001
0.12927239 0.46265906 1.7860001
0.13334286 0.4649905 1.7950001
0.1367619 0.4649905 1.7950001
0.14018096 0.4649905 1.7950001
0.1436 0.4649905 1.7950001
0.14701906 0.4649905 1.7950001
0.1504381 0.4649905 1.7950001
0.15385714 0.4649905 1.7950001
0.1572762 0.4649905 1.7950001
0.16069524 0.4649905 1.7950001
0.1641143 0.4649905 1.7950001
0.16753334 0.4649905 1.7950001
0.17095239 0.4649905 1.7950001
0.17437144 0.4649905 1.7950001
0.17779048 0.4649905 1.7950001
0.1821181 0.46732193 1.8040001
0.1855543 0.46732193 1.8040001
0.1900381 0.46991241 1.8140001
0.19456001 0.47250289 1.8240001
0.19694857 0.46991241 1.8140001
0.20150858 0.47250289 1.8240001
0.20385906 0.46991241 1.8140001
0.2073143 0.46991241 1.8140001
0.21193144 0.47250289 1.8240001
0.21540572 0.47250289 1.8240001
0.21888001 0.47250289 1.8240001
0.22235429 0.47250289 1.8240001
0.22582857 0.47250289 1.8240001
0.22930287 0.47250289 1.8240001
0.23277715 0.47250289 1.8240001
0.23625144 0.47250289 1.8240001
0.23972572 0.47250289 1.8240001
0.2432 0.47250289 1.8240001
0.24532191 0.46991241 1.8140001
0.25014859 0.47250289 1.8240001
0.25362286 0.47250289 1.8240001
0.25709715 0.47250289 1.8240001
0.26057145 0.47250289 1.8240001
0.26404572 0.47250289 1.8240001
0.26752001 0.47250289 1.8240001
0.27233145 0.47483429 1.8330001
0.27582288 0.47483429 1.8330001
0.2808381 0.47742477 1.8430001
0.28434858 0.47742477 1.8430001
0.28785905 0.47742477 1.8430001
0.29136953 0.47742477 1.8430001
0.29488 0.47742477 1.8430001
0.29677144 0.47483429 1.8330001
0.30190095 0.47742477 1.8430001
0.3037543 0.47483429 1.8330001
0.30724573 0.47483429 1.8330001
0.31243238 0.47742477 1.8430001
0.31594288 0.47742477 1.8430001
0.31945336 0.47742477 1.8430001
0.32471621 0.48001525 1.853
0.32824573 0.48001525 1.853
0.33177525 0.48001525 1.853
0.33530477 0.48001525 1.853
0.33883429 0.48001525 1.853
0.34236383 0.48001525 1.853
0.34589335 0.48001525 1.853
0.34942287 0.48001525 1.853
0.35295239 0.48001525 1.853
0.35648191 0.48001525 1.853
-0.32213333 0.55165333 2.1140001
-0.3104324 0.5383448 2.0630002
-0.30472001 0.53521335 2.0510001
-0.30081335 0.53521335 2.0510001
-0.29343238 0.52895051 2.0270002
-0.28614286 0.52268761 2.003
-0.28077716 0.51981717 1.9920001
-0.2753143 0.51668572 1.9800001
-0.26852572 0.51094478 1.9580001
-0.26330858 0.50807428 1.9470001
-0.25813335 0.50520384 1.9360001
-0.25168571 0.49972382 1.9150001
-0.2453181 0.49424383 1.8940001
-0.24030668 0.49137336 1.8830001
-0.23420572 0.48615432 1.863
-0.22694287 0.47832572 1.8330001
-0.22113524 0.47336763 1.8140001
-0.21648 0.47075811 1.8040001
-0.21198095 0.46840954 1.7950001
-0.20751619 0.46606097 1.7860001
-0.20102859 0.45901525 1.7590001
-0.19565524 0.45431811 1.7410001
-0.19134477 0.45196953 1.7320001
-0.18706858 0.44962096 1.723
-0.18293335 0.44753334 1.715
-0.17872381 0.44518477 1.7060001
-0.17382857 0.44100955 1.6900001
-0.16970097 0.43866098 1.6810001
-0.16570668 0.43657336 1.6730001
-0.16252001 0.43657336 1.6730001
-0.15933333 0.43657336 1.6730001
-0.15689334 0.43866098 1.6810001
-0.1545143 0.44100955 1.6900001
-0.15129524 0.44100955 1.6900001
-0.14807619 0.44100955 1.6900001
-0.14485715 0.44100955 1.6900001
-0.1416381 0.44100955 1.6900001
-0.13841905 0.44100955 1.6900001
-0.13520001 0.44100955 1.6900001
-0.13198096 0.44100955 1.6900001
-0.1287619 0.44100955 1.6900001
-0.12554286 0.44100955 1.6900001
-0.12232381 0.44100955 1.6900001
-0.11910477 0.44100955 1.6900001
-0.11643429 0.44309714 1.6980001
-0.11266667 0.44100955 1.6900001
-0.10944762 0.44100955 1.6900001
-0.10622858 0.44100955 1.6900001
-0.10300953 0.44100955 1.6900001
-0.10026286 0.44309714 1.6980001
-0.097028576 0.44309714 1.6980001
-0.093794286 0.44309714 1.6980001
-0.090560004 0.44309714 1.6980001
-0.087737143 0.44518477 1.7060001
-0.084933333 0.44753334 1.715
-0.081666671 0.44753334 1.715
-0.07876572 0.44962096 1.723
-0.075133339 0.44753334 1.715
-0.071866669 0.44753334 1.715
-0.068599999 0.44753334 1.715
-0.065333337 0.44753334 1.715
-0.062066671 0.44753334 1.715
-0.058800001 0.44753334 1.715
-0.055533335 0.44753334 1.715
-0.052266669 0.44753334 1.715
-0.049000002 0.44753334 1.715
-0.045733336 0.44753334 1.715
-0.042664763 0.44962096 1.723
-0.039588574 0.45196953 1.7320001
-0.036289524 0.45196953 1.7320001
-0.033161905 0.45431811 1.7410001
-0.02969143 0.45196953 1.7320001
-0.026392382 0.45196953 1.7320001
-0.023093333 0.45196953 1.7320001
-0.019794287 0.45196953 1.7320001
-0.016495239 0.45196953 1.7320001
-0.013196191 0.45196953 1.7320001
-0.0098971436 0.45196953 1.7320001
-0.0065980954 0.45196953 1.7320001
-0.0032819049 0.44962096 1.723
0 0.45196953 1.7320001
0.0033161906 0.45431811 1.7410001
0.0066323811 0.45431811 1.7410001
0.0099485721 0.45431811 1.7410001
0.013264762 0.45431811 1.7410001
0.016666668 0.45666668 1.7500001
0.020000001 0.45666668 1.7500001
0.023333333 0.45666668 1.7500001
0.026666667 0.45666668 1.7500001
0.030000001 0.45666668 1.7500001
0.033333335 0.45666668 1.7500001
0.036666669 0.45666668 1.7500001
0.040000003 0.45666668 1.7500001
0.043556191 0.45901525 1.7590001
0.046906669 0.45901525 1.7590001
0.050257146 0.45901525 1.7590001
0.05360762 0.45901525 1.7590001
0.056958098 0.45901525 1.7590001
0.060308572 0.45901525 1.7590001
0.06365905 0.45901525 1.7590001
0.067009524 0.45901525 1.7590001
0.070360005 0.45901525 1.7590001
0.073710479 0.45901525 1.7590001
0.077060953 0.45901525 1.7590001
0.080411434 0.45901525 1.7590001
0.08419048 0.46136382 1.7680001
0.087558098 0.46136382 1.7680001
0.090925716 0.46136382 1.7680001
0.094293334 0.46136382 1.7680001
0.097660959 0.46136382 1.7680001
0.10102858 0.46136382 1.7680001
0.10492762 0.46371239 1.7770001
0.10831238 0.46371239 1.7770001
0.11169714 0.46371239 1.7770001
0.11508191 0.46371239 1.7770001
0.11906667 0.46606097 1.7860001
0.12246858 0.46606097 1.7860001
0.12587048 0.46606097 1.7860001
0.12927239 0.46606097 1.7860001
0.13334286 0.46840954 1.7950001
0.1367619 0.46840954 1.7950001
0.14018096 0.46840954 1.7950001
0.1436 0.46840954 1.7950001
0.14701906 0.46840954 1.7950001
0.1504381 0.46840954 1.7950001
0.15385714 0.46840954 1.7950001
0.1572762 0.46840954 1.7950001
0.16069524 0.46840954 1.7950001
0.1641143 0.46840954 1.7950001
0.16753334 0.46840954 1.7950001
0.17095239 0.46840954 1.7950001
0.17437144 0.46840954 1.7950001
0.17779048 0.46840954 1.7950001
0.1821181 0.47075811 1.8040001
0.1855543 0.47075811 1.8040001
0.19108573 0.47597715 1.8240001
0.19456001 0.47597715 1.8240001
0.19803429 0.47597715 1.8240001
0.20150858 0.47597715 1.8240001
0.20498286 0.47597715 1.8240001
0.20845716 0.47597715 1.8240001
0.21193144 0.47597715 1.8240001
0.21540572 0.47597715 1.8240001
0.21888001 0.47597715 1.8240001
0.22235429 0.47597715 1.8240001
0.22582857 0.47597715 1.8240001
0.2304343 0.47832572 1.8330001
0.23392573 0.47832572 1.8330001
0.23741715 0.47832572 1.8330001
0.23972572 0.47597715 1.8240001
0.2432 0.47597715 1.8240001
0.24532191 0.47336763 1.8140001
0.25014859 0.47597715 1.8240001
0.25362286 0.47597715 1.8240001
0.25709715 0.47597715 1.8240001
0.26057145 0.47597715 1.8240001
0.26404572 0.47597715 1.8240001
0.26752001 0.47597715 1.8240001
0.27233145 0.47832572 1.8330001
0.27582288 0.47832572 1.8330001
0.2808381 0.48093525 1.8430001
0.28434858 0.48093525 1.8430001
0.28785905 0.48093525 1.8430001
0.29136953 0.48093525 1.8430001
0.29488 0.48093525 1.8430001
0.29677144 0.47832572 1.8330001
0.30026287 0.47832572 1.8330001
0.3037543 0.47832572 1.8330001
0.30724573 0.47832572 1.8330001
0.31243238 0.48093525 1.8430001
0.31594288 0.48093525 1.8430001
0.31945336 0.48093525 1.8430001
0.32471621 0.48354477 1.853
0.32824573 0.48354477 1.853
