# .PCD v0.7 - Point Cloud Data file format
VERSION 0.7
FIELDS x y z
SIZE 4 4 4
TYPE F F F
COUNT 1 1 1
WIDTH 1520
HEIGHT 1
VIEWPOINT 0 0 0 1 0 0 0
POINTS 1520
DATA ascii
0.050000001 0.48000002 1.7500001
0.053333335 0.48000002 1.7500001
0.056666669 0.48000002 1.7500001
0.060000002 0.48000002 1.7500001
0.06365905 0.48246858 1.7590001
0.067009524 0.48246858 1.7590001
0.070360005 0.48246858 1.7590001
0.073710479 0.48246858 1.7590001
0.077060953 0.48246858 1.7590001
0.080411434 0.48246858 1.7590001
0.083761908 0.48246858 1.7590001
0.087112382 0.48246858 1.7590001
0.090462863 0.48246858 1.7590001
0.094293334 0.48493716 1.7680001
0.098158099 0.48740572 1.7770001
0.10154286 0.48740572 1.7770001
0.10492762 0.48740572 1.7770001
0.10831238 0.48740572 1.7770001
0.11226286 0.4898743 1.7860001
0.11566477 0.4898743 1.7860001
0.11906667 0.4898743 1.7860001
0.12246858 0.4898743 1.7860001
0.12587048 0.4898743 1.7860001
0.12992382 0.49234289 1.7950001
0.13334286 0.49234289 1.7950001
0.1367619 0.49234289 1.7950001
0.14018096 0.49234289 1.7950001
0.1436 0.49234289 1.7950001
0.14775619 0.49481145 1.8040001
0.15119238 0.49481145 1.8040001
0.15462857 0.49481145 1.8040001
0.15894096 0.4975543 1.8140001
0.16239619 0.4975543 1.8140001
0.16585143 0.4975543 1.8140001
0.16930667 0.4975543 1.8140001
0.17276192 0.4975543 1.8140001
0.17621715 0.4975543 1.8140001
0.18066287 0.50029719 1.8240001
0.18413715 0.50029719 1.8240001
0.18761143 0.50029719 1.8240001
0.19108573 0.50029719 1.8240001
0.19456001 0.50029719 1.8240001
0.19803429 0.50029719 1.8240001
0.20250286 0.50276572 1.8330001
0.20599429 0.50276572 1.8330001
0.20948572 0.50276572 1.8330001
0.21413906 0.5055086 1.8430001
0.21764953 0.5055086 1.8430001
0.22116001 0.5055086 1.8430001
0.22588953 0.50825143 1.853
0.22941905 0.50825143 1.853
0.23420572 0.51099432 1.863
0.23520191 0.5055086 1.8430001
0.24000762 0.50825143 1.853
0.24353716 0.50825143 1.853
0.24706668 0.50825143 1.853
0.2505962 0.50825143 1.853
0.25412571 0.50825143 1.853
0.25904572 0.51099432 1.863
-0.45634288 0.54685718 1.9800001
-0.45257145 0.54685718 1.9800001
-0.44630668 0.54381907 1.9690001
-0.4425562 0.54381907 1.9690001
-0.43390286 0.53774285 1.9470001
-0.43019429 0.53774285 1.9470001
-0.4240762 0.5347048 1.9360001
-0.41800001 0.5316667 1.9250001
-0.41433334 0.5316667 1.9250001
-0.40618667 0.52586669 1.904
-0.39812002 0.52006668 1.8830001
-0.39243811 0.51730478 1.8730001
-0.3867943 0.51454288 1.863
-0.38118857 0.51178098 1.853
-0.37562096 0.50901908 1.8430001
-0.37009144 0.50625718 1.8330001
-0.36480001 0.50377142 1.8240001
-0.35736382 0.49824762 1.8040001
-0.35216191 0.49576193 1.7950001
-0.34699431 0.49327621 1.7860001
-0.34186098 0.49079049 1.7770001
-0.33847621 0.49079049 1.7770001
-0.33509144 0.49079049 1.7770001
-0.33002669 0.48830479 1.7680001
-0.3249962 0.48581907 1.7590001
-0.31506288 0.47587621 1.723
-0.31033334 0.4736667 1.715
-0.30545524 0.47118098 1.7060001
-0.30220571 0.47118098 1.7060001
-0.29755428 0.46897143 1.6980001
-0.29432002 0.46897143 1.6980001
-0.28971431 0.46676192 1.6900001
-0.28496954 0.46427619 1.6810001
-0.27908573 0.45985717 1.6650001
-0.27591428 0.45985717 1.6650001
-0.26766476 0.45129526 1.6340001
-0.26325715 0.44908574 1.626
-0.25776002 0.44494286 1.6110001
-0.25469145 0.44494286 1.6110001
-0.25037333 0.44273335 1.603
-0.24624 0.44080001 1.5960001
-0.24213335 0.43886667 1.5890001
-0.23790286 0.43665716 1.5810001
-0.23489144 0.43665716 1.5810001
-0.23188001 0.43665716 1.5810001
-0.22886857 0.43665716 1.5810001
-0.22585715 0.43665716 1.5810001
-0.22397335 0.43886667 1.5890001
-0.22192001 0.44080001 1.5960001
-0.21888001 0.44080001 1.5960001
-0.21678667 0.44273335 1.603
-0.21373335 0.44273335 1.603
-0.21068001 0.44273335 1.603
-0.20762667 0.44273335 1.603
-0.20457335 0.44273335 1.603
-0.20152001 0.44273335 1.603
-0.19945715 0.44494286 1.6110001
-0.19638857 0.44494286 1.6110001
-0.19332001 0.44494286 1.6110001
-0.19025144 0.44494286 1.6110001
-0.18718286 0.44494286 1.6110001
-0.18411429 0.44494286 1.6110001
-0.18104573 0.44494286 1.6110001
-0.17875049 0.4468762 1.618
-0.17566858 0.4468762 1.618
-0.17258668 0.4468762 1.618
-0.17034286 0.44908574 1.626
-0.16724572 0.44908574 1.626
-0.1649562 0.45129526 1.6340001
-0.16105144 0.44908574 1.626
-0.15795429 0.44908574 1.626
-0.15561906 0.45129526 1.6340001
-0.15250668 0.45129526 1.6340001
-0.14939429 0.45129526 1.6340001
-0.14628191 0.45129526 1.6340001
-0.14378287 0.45322859 1.641
-0.14065714 0.45322859 1.641
-0.13820191 0.45543811 1.649
-0.13506095 0.45543811 1.649
-0.13192001 0.45543811 1.649
-0.12877905 0.45543811 1.649
-0.1256381 0.45543811 1.649
-0.12249715 0.45543811 1.649
-0.11877715 0.45322859 1.641
-0.11565144 0.45322859 1.641
-0.11252572 0.45322859 1.641
-0.1094 0.45322859 1.641
-0.10679238 0.45543811 1.649
-0.10365143 0.45543811 1.649
-0.10148571 0.45985717 1.6650001
-0.098786667 0.46206668 1.6730001
-0.095600002 0.46206668 1.6730001
-0.092855245 0.46427619 1.6810001
-0.089653336 0.46427619 1.6810001
-0.086040005 0.46206668 1.6730001
-0.083249524 0.46427619 1.6810001
-0.079666667 0.46206668 1.6730001
-0.076480001 0.46206668 1.6730001
-0.073643811 0.46427619 1.6810001
-0.070441909 0.46427619 1.6810001
-0.06724 0.46427619 1.6810001
-0.064380951 0.46676192 1.6900001
-0.061161906 0.46676192 1.6900001
-0.05794286 0.46676192 1.6900001
-0.05498286 0.46897143 1.6980001
-0.051748574 0.46897143 1.6980001
-0.048514288 0.46897143 1.6980001
-0.045280002 0.46897143 1.6980001
-0.042243812 0.47118098 1.7060001
-0.038994286 0.47118098 1.7060001
-0.035933334 0.4736667 1.715
-0.032666668 0.4736667 1.715
-0.029245716 0.47118098 1.7060001
-0.025996191 0.47118098 1.7060001
-0.022746667 0.47118098 1.7060001
-0.019497143 0.47118098 1.7060001
-0.016247619 0.47118098 1.7060001
-0.012998096 0.47118098 1.7060001
-0.0097485716 0.47118098 1.7060001
-0.0064990479 0.47118098 1.7060001
-0.0032666668 0.4736667 1.715
0 0.47587621 1.723
0.0032819049 0.47587621 1.723
0.0065638097 0.47587621 1.723
0.009845715 0.47587621 1.723
0.013196191 0.47836193 1.7320001
0.016495239 0.47836193 1.7320001
0.019794287 0.47836193 1.7320001
0.023093333 0.47836193 1.7320001
0.026392382 0.47836193 1.7320001
0.029845715 0.48084763 1.7410001
0.033161905 0.48084763 1.7410001
0.036478095 0.48084763 1.7410001
0.039794289 0.48084763 1.7410001
0.043333337 0.48333335 1.7500001
0.046666667 0.48333335 1.7500001
0.050000001 0.48333335 1.7500001
0.053333335 0.48333335 1.7500001
0.056666669 0.48333335 1.7500001
0.060000002 0.48333335 1.7500001
0.06365905 0.48581907 1.7590001
0.067009524 0.48581907 1.7590001
0.070360005 0.48581907 1.7590001
0.073710479 0.48581907 1.7590001
0.077060953 0.48581907 1.7590001
0.080411434 0.48581907 1.7590001
0.083761908 0.48581907 1.7590001
0.087112382 0.48581907 1.7590001
0.090462863 0.48581907 1.7590001
0.094293334 0.48830479 1.7680001
0.097660959 0.48830479 1.7680001
0.10154286 0.49079049 1.7770001
0.10492762 0.49079049 1.7770001
0.10831238 0.49079049 1.7770001
0.11226286 0.49327621 1.7860001
0.11566477 0.49327621 1.7860001
0.11906667 0.49327621 1.7860001
0.12246858 0.49327621 1.7860001
0.12587048 0.49327621 1.7860001
0.12992382 0.49576193 1.7950001
0.13334286 0.49576193 1.7950001
0.13744763 0.49824762 1.8040001
0.14018096 0.49576193 1.7950001
0.14432001 0.49824762 1.8040001
0.14775619 0.49824762 1.8040001
0.15119238 0.49824762 1.8040001
0.15548572 0.50100952 1.8140001
0.15894096 0.50100952 1.8140001
0.16239619 0.50100952 1.8140001
0.16585143 0.50100952 1.8140001
0.16930667 0.50100952 1.8140001
0.17276192 0.50100952 1.8140001
0.17621715 0.50100952 1.8140001
0.18066287 0.50377142 1.8240001
0.18413715 0.50377142 1.8240001
0.18853715 0.50625718 1.8330001
0.19108573 0.50377142 1.8240001
0.19456001 0.50377142 1.8240001
0.19901143 0.50625718 1.8330001
0.20250286 0.50625718 1.8330001
0.20599429 0.50625718 1.8330001
0.20948572 0.50625718 1.8330001
0.21413906 0.50901908 1.8430001
0.21764953 0.50901908 1.8430001
0.22236001 0.51178098 1.853
0.22467048 0.50901908 1.8430001
0.22941905 0.51178098 1.853
0.23420572 0.51454288 1.863
0.23647811 0.51178098 1.853
0.24000762 0.51178098 1.853
0.24353716 0.51178098 1.853
0.24706668 0.51178098 1.853
0.2505962 0.51178098 1.853
0.25412571 0.51178098 1.853
-0.45634288 0.5506286 1.9800001
-0.45257145 0.5506286 1.9800001
-0.44630668 0.54756957 1.9690001
-0.4425562 0.54756957 1.9690001
-0.43390286 0.54145145 1.9470001
-0.43019429 0.54145145 1.9470001
-0.4240762 0.53839242 1.9360001
-0.42038858 0.53839242 1.9360001
-0.41433334 0.53533334 1.9250001
-0.40618667 0.52949333 1.904
-0.40044573 0.52671242 1.8940001
-0.39243811 0.52087241 1.8730001
-0.3867943 0.51809144 1.863
-0.38118857 0.51531047 1.853
-0.37562096 0.51252955 1.8430001
-0.37009144 0.50974858 1.8330001
-0.3628 0.50446481 1.8140001
-0.35736382 0.50168383 1.8040001
-0.35216191 0.49918097 1.7950001
-0.34699431 0.49667811 1.7860001
-0.34186098 0.49417526 1.7770001
-0.33847621 0.49417526 1.7770001
-0.33339429 0.4916724 1.7680001
-0.33002669 0.4916724 1.7680001
-0.32333335 0.48666668 1.7500001
-0.31506288 0.4791581 1.723
-0.31033334 0.47693336 1.715
-0.30545524 0.4744305 1.7060001
-0.30220571 0.4744305 1.7060001
-0.29755428 0.47220573 1.6980001
-0.29432002 0.47220573 1.6980001
-0.28971431 0.46998096 1.6900001
-0.28496954 0.46747813 1.6810001
-0.27908573 0.46302858 1.6650001
-0.27458858 0.46080384 1.6570001
-0.26881143 0.45635429 1.641
-0.26455238 0.45440763 1.6340001
-0.25888002 0.44995812 1.618
-0.25469145 0.44801146 1.6110001
-0.25162286 0.44801146 1.6110001
-0.24624 0.44384003 1.5960001
-0.2432 0.44384003 1.5960001
-0.23910667 0.44189334 1.5890001
-0.23489144 0.4396686 1.5810001
-0.23188001 0.4396686 1.5810001
-0.22886857 0.4396686 1.5810001
-0.22700001 0.44189334 1.5890001
-0.22496001 0.44384003 1.5960001
-0.22192001 0.44384003 1.5960001
-0.21888001 0.44384003 1.5960001
-0.21678667 0.44578668 1.603
-0.21373335 0.44578668 1.603
-0.21068001 0.44578668 1.603
-0.20762667 0.44578668 1.603
-0.20457335 0.44578668 1.603
-0.20152001 0.44578668 1.603
-0.19846667 0.44578668 1.603
-0.19638857 0.44801146 1.6110001
-0.19332001 0.44801146 1.6110001
-0.18930668 0.44578668 1.603
-0.18718286 0.44801146 1.6110001
-0.18411429 0.44801146 1.6110001
-0.18104573 0.44801146 1.6110001
-0.17875049 0.44995812 1.618
-0.17566858 0.44995812 1.618
-0.17258668 0.44995812 1.618
-0.17034286 0.45218286 1.626
-0.16724572 0.45218286 1.626
-0.1649562 0.45440763 1.6340001
-0.16105144 0.45218286 1.626
-0.15795429 0.45218286 1.626
-0.15561906 0.45440763 1.6340001
-0.15250668 0.45440763 1.6340001
-0.14939429 0.45440763 1.6340001
-0.14628191 0.45440763 1.6340001
-0.14378287 0.45635429 1.641
-0.14065714 0.45635429 1.641
-0.13820191 0.45857906 1.649
-0.13506095 0.45857906 1.649
-0.13192001 0.45857906 1.649
-0.12877905 0.45857906 1.649
-0.1256381 0.45857906 1.649
-0.12249715 0.45857906 1.649
-0.11877715 0.45635429 1.641
-0.11565144 0.45635429 1.641
-0.11252572 0.45635429 1.641
-0.1094 0.45635429 1.641
-0.10679238 0.45857906 1.649
-0.10415429 0.46080384 1.6570001
-0.10148571 0.46302858 1.6650001
-0.098786667 0.46525335 1.6730001
-0.095600002 0.46525335 1.6730001
-0.092855245 0.46747813 1.6810001
-0.089653336 0.46747813 1.6810001
-0.086451434 0.46747813 1.6810001
-0.083249524 0.46747813 1.6810001
-0.080047622 0.46747813 1.6810001
-0.076480001 0.46525335 1.6730001
-0.073643811 0.46747813 1.6810001
-0.070441909 0.46747813 1.6810001
-0.06724 0.46747813 1.6810001
-0.064380951 0.46998096 1.6900001
-0.061161906 0.46998096 1.6900001
-0.05794286 0.46998096 1.6900001
-0.05498286 0.47220573 1.6980001
-0.051748574 0.47220573 1.6980001
-0.048514288 0.47220573 1.6980001
-0.045280002 0.47220573 1.6980001
-0.042243812 0.4744305 1.7060001
-0.038994286 0.4744305 1.7060001
-0.035933334 0.47693336 1.715
-0.032666668 0.47693336 1.715
-0.029245716 0.4744305 1.7060001
-0.025996191 0.4744305 1.7060001
-0.022746667 0.4744305 1.7060001
-0.019497143 0.4744305 1.7060001
-0.016247619 0.4744305 1.7060001
-0.012998096 0.4744305 1.7060001
-0.0097485716 0.4744305 1.7060001
-0.0064990479 0.4744305 1.7060001
-0.0032666668 0.47693336 1.715
0 0.4791581 1.723
0.0032819049 0.4791581 1.723
0.0065638097 0.4791581 1.723
0.009845715 0.4791581 1.723
0.013196191 0.48166096 1.7320001
0.016495239 0.48166096 1.7320001
0.019794287 0.48166096 1.7320001
0.023093333 0.48166096 1.7320001
0.026529524 0.48416382 1.7410001
0.029845715 0.48416382 1.7410001
0.033161905 0.48416382 1.7410001
0.036478095 0.48416382 1.7410001
0.039794289 0.48416382 1.7410001
0.043333337 0.48666668 1.7500001
0.046666667 0.48666668 1.7500001
0.050000001 0.48666668 1.7500001
0.053333335 0.48666668 1.7500001
0.056666669 0.48666668 1.7500001
0.060000002 0.48666668 1.7500001
0.063333333 0.48666668 1.7500001
0.067009524 0.48916954 1.7590001
0.070360005 0.48916954 1.7590001
0.073333338 0.48666668 1.7500001
0.077060953 0.48916954 1.7590001
0.080411434 0.48916954 1.7590001
0.083761908 0.48916954 1.7590001
0.087112382 0.48916954 1.7590001
0.090925716 0.4916724 1.7680001
0.094293334 0.4916724 1.7680001
0.098158099 0.49417526 1.7770001
0.10154286 0.49417526 1.7770001
0.10492762 0.49417526 1.7770001
0.10831238 0.49417526 1.7770001
0.11226286 0.49667811 1.7860001
0.11566477 0.49667811 1.7860001
0.11906667 0.49667811 1.7860001
0.12246858 0.49667811 1.7860001
0.12587048 0.49667811 1.7860001
0.12992382 0.49918097 1.7950001
0.13334286 0.49918097 1.7950001
0.13744763 0.50168383 1.8040001
0.14088382 0.50168383 1.8040001
0.14432001 0.50168383 1.8040001
0.14775619 0.50168383 1.8040001
0.15119238 0.50168383 1.8040001
0.15548572 0.50446481 1.8140001
0.15894096 0.50446481 1.8140001
0.16239619 0.50446481 1.8140001
0.16585143 0.50446481 1.8140001
0.16930667 0.50446481 1.8140001
0.17276192 0.50446481 1.8140001
0.17718858 0.50724572 1.8240001
0.18066287 0.50724572 1.8240001
0.18413715 0.50724572 1.8240001
0.18761143 0.50724572 1.8240001
0.19202858 0.50974858 1.8330001
0.19552001 0.50974858 1.8330001
0.19901143 0.50974858 1.8330001
0.20150858 0.50724572 1.8240001
0.20599429 0.50974858 1.8330001
0.20948572 0.50974858 1.8330001
0.21413906 0.51252955 1.8430001
0.21764953 0.51252955 1.8430001
0.22236001 0.51531047 1.853
0.22588953 0.51531047 1.853
0.22941905 0.51531047 1.853
0.23420572 0.51809144 1.863
0.23647811 0.51531047 1.853
0.24000762 0.51531047 1.853
0.24353716 0.51531047 1.853
0.24706668 0.51531047 1.853
0.2505962 0.51531047 1.853
0.25412571 0.51531047 1.853
-0.45257145 0.55440003 1.9800001
-0.44630668 0.55132002 1.9690001
-0.44008383 0.54824001 1.9580001
-0.43390286 0.54516 1.9470001
-0.43019429 0.54516 1.9470001
-0.4240762 0.54208004 1.9360001
-0.42038858 0.54208004 1.9360001
-0.41433334 0.53900003 1.9250001
-0.40853333 0.53620005 1.9150001
-0.40044573 0.53032005 1.8940001
-0.39453334 0.52724004 1.8830001
-0.38887048 0.52443999 1.8730001
-0.38118857 0.51884001 1.853
-0.37765905 0.51884001 1.853
-0.37009144 0.51324004 1.8330001
-0.36480001 0.51072001 1.8240001
-0.35736382 0.50512004 1.8040001
-0.35216191 0.50260001 1.7950001
-0.34699431 0.50007999 1.7860001
-0.34186098 0.49756002 1.7770001
-0.33847621 0.49756002 1.7770001
-0.33339429 0.49504003 1.7680001
-0.32834667 0.49252 1.7590001
-0.32333335 0.49000001 1.7500001
-0.31670859 0.48496002 1.7320001
-0.31178096 0.48244002 1.723
-0.30706668 0.48020002 1.715
-0.30220571 0.47768003 1.7060001
-0.29755428 0.47544003 1.6980001
-0.29432002 0.47544003 1.6980001
-0.28971431 0.47320002 1.6900001
-0.28496954 0.47068003 1.6810001
-0.27908573 0.46620002 1.6650001
-0.27458858 0.46396002 1.6570001
-0.2701219 0.46172002 1.649
-0.26568574 0.45948002 1.641
-0.25888002 0.45304 1.618
-0.2557981 0.45304 1.618
-0.25162286 0.45108002 1.6110001
-0.24624 0.44688001 1.5960001
-0.2432 0.44688001 1.5960001
-0.23910667 0.44492 1.5890001
-0.23608001 0.44492 1.5890001
-0.23305334 0.44492 1.5890001
-0.23002668 0.44492 1.5890001
-0.22700001 0.44492 1.5890001
-0.22496001 0.44688001 1.5960001
-0.22192001 0.44688001 1.5960001
-0.21888001 0.44688001 1.5960001
-0.21678667 0.44884002 1.603
-0.21373335 0.44884002 1.603
-0.21068001 0.44884002 1.603
-0.20762667 0.44884002 1.603
-0.20457335 0.44884002 1.603
-0.20152001 0.44884002 1.603
-0.19846667 0.44884002 1.603
-0.19638857 0.45108002 1.6110001
-0.19332001 0.45108002 1.6110001
-0.19025144 0.45108002 1.6110001
-0.18718286 0.45108002 1.6110001
-0.18411429 0.45108002 1.6110001
-0.18183239 0.45304 1.618
-0.17875049 0.45304 1.618
-0.17566858 0.45304 1.618
-0.17258668 0.45304 1.618
-0.17034286 0.45528001 1.626
-0.16724572 0.45528001 1.626
-0.1649562 0.45752001 1.6340001
-0.16184382 0.45752001 1.6340001
-0.15795429 0.45528001 1.626
-0.15561906 0.45752001 1.6340001
-0.15250668 0.45752001 1.6340001
-0.14939429 0.45752001 1.6340001
-0.14628191 0.45752001 1.6340001
-0.14378287 0.45948002 1.641
-0.14065714 0.45948002 1.641
-0.13820191 0.46172002 1.649
-0.13506095 0.46172002 1.649
-0.13192001 0.46172002 1.649
-0.12877905 0.46172002 1.649
-0.1256381 0.46172002 1.649
-0.12249715 0.46172002 1.649
-0.11935619 0.46172002 1.649
-0.11621524 0.46172002 1.649
-0.11252572 0.45948002 1.641
-0.10993334 0.46172002 1.649
-0.10679238 0.46172002 1.649
-0.10415429 0.46396002 1.6570001
-0.10148571 0.46620002 1.6650001
-0.099259049 0.47068003 1.6810001
-0.096057147 0.47068003 1.6810001
-0.092855245 0.47068003 1.6810001
-0.089653336 0.47068003 1.6810001
-0.086451434 0.47068003 1.6810001
-0.083249524 0.47068003 1.6810001
-0.080047622 0.47068003 1.6810001
-0.076480001 0.46844003 1.6730001
-0.073643811 0.47068003 1.6810001
-0.070441909 0.47068003 1.6810001
-0.06724 0.47068003 1.6810001
-0.064380951 0.47320002 1.6900001
-0.061161906 0.47320002 1.6900001
-0.05794286 0.47320002 1.6900001
-0.05498286 0.47544003 1.6980001
-0.051748574 0.47544003 1.6980001
-0.048514288 0.47544003 1.6980001
-0.045493335 0.47768003 1.7060001
-0.042045716 0.47544003 1.6980001
-0.038994286 0.47768003 1.7060001
-0.035933334 0.48020002 1.715
-0.032666668 0.48020002 1.715
-0.029245716 0.47768003 1.7060001
-0.025996191 0.47768003 1.7060001
-0.022746667 0.47768003 1.7060001
-0.0196 0.48020002 1.715
-0.016333334 0.48020002 1.715
-0.012998096 0.47768003 1.7060001
-0.0097485716 0.47768003 1.7060001
-0.0064990479 0.47768003 1.7060001
-0.0032666668 0.48020002 1.715
0 0.48244002 1.723
0.0032819049 0.48244002 1.723
0.0065638097 0.48244002 1.723
0.009845715 0.48244002 1.723
0.013196191 0.48496002 1.7320001
0.016495239 0.48496002 1.7320001
0.019794287 0.48496002 1.7320001
0.023093333 0.48496002 1.7320001
0.026529524 0.48748001 1.7410001
0.029845715 0.48748001 1.7410001
0.033161905 0.48748001 1.7410001
0.036478095 0.48748001 1.7410001
0.040000003 0.49000001 1.7500001
0.043333337 0.49000001 1.7500001
0.046666667 0.49000001 1.7500001
0.050000001 0.49000001 1.7500001
0.053333335 0.49000001 1.7500001
0.056666669 0.49000001 1.7500001
0.060000002 0.49000001 1.7500001
0.06365905 0.49252 1.7590001
0.067009524 0.49252 1.7590001
0.070360005 0.49252 1.7590001
0.073710479 0.49252 1.7590001
0.077060953 0.49252 1.7590001
0.080411434 0.49252 1.7590001
0.083761908 0.49252 1.7590001
0.087558098 0.49504003 1.7680001
0.090925716 0.49504003 1.7680001
0.094773337 0.49756002 1.7770001
0.098158099 0.49756002 1.7770001
0.10154286 0.49756002 1.7770001
0.10492762 0.49756002 1.7770001
0.10831238 0.49756002 1.7770001
0.11226286 0.50007999 1.7860001
0.11566477 0.50007999 1.7860001
0.11906667 0.50007999 1.7860001
0.12246858 0.50007999 1.7860001
0.12587048 0.50007999 1.7860001
0.12992382 0.50260001 1.7950001
0.13334286 0.50260001 1.7950001
0.13744763 0.50512004 1.8040001
0.14088382 0.50512004 1.8040001
0.14432001 0.50512004 1.8040001
0.14775619 0.50512004 1.8040001
0.15203048 0.50792003 1.8140001
0.15548572 0.50792003 1.8140001
0.15894096 0.50792003 1.8140001
0.16329144 0.51072001 1.8240001
0.16676572 0.51072001 1.8240001
0.17024 0.51072001 1.8240001
0.1737143 0.51072001 1.8240001
0.17718858 0.51072001 1.8240001
0.18066287 0.51072001 1.8240001
0.18413715 0.51072001 1.8240001
0.18761143 0.51072001 1.8240001
0.19108573 0.51072001 1.8240001
0.19456001 0.51072001 1.8240001
0.19803429 0.51072001 1.8240001
0.20150858 0.51072001 1.8240001
0.20599429 0.51324004 1.8330001
0.20948572 0.51324004 1.8330001
0.21297716 0.51324004 1.8330001
0.21764953 0.51604003 1.8430001
0.22236001 0.51884001 1.853
0.22588953 0.51884001 1.853
0.22941905 0.51884001 1.853
0.23420572 0.52164 1.863
0.23520191 0.51604003 1.8430001
0.23871239 0.51604003 1.8430001
0.24353716 0.51884001 1.853
0.24706668 0.51884001 1.853
0.2505962 0.51884001 1.853
0.25412571 0.51884001 1.853
0.25765523 0.51884001 1.853
-0.45257145 0.55817145 1.9800001
-0.44630668 0.55507052 1.9690001
-0.44008383 0.55196953 1.9580001
-0.43390286 0.5488686 1.9470001
-0.43019429 0.5488686 1.9470001
-0.4240762 0.54576766 1.9360001
-0.42038858 0.54576766 1.9360001
-0.41433334 0.54266667 1.9250001
-0.40618667 0.53674668 1.904
-0.40044573 0.53392762 1.8940001
-0.39453334 0.53082669 1.8830001
-0.3867943 0.52518857 1.863
-0.38118857 0.52236956 1.853
-0.37562096 0.5195505 1.8430001
-0.37009144 0.51673144 1.8330001
-0.36480001 0.51419431 1.8240001
-0.35736382 0.50855619 1.8040001
-0.35216191 0.50601906 1.7950001
-0.34699431 0.50348192 1.7860001
-0.34186098 0.50094479 1.7770001
-0.33676192 0.49840763 1.7680001
-0.33169717 0.4958705 1.7590001
-0.32834667 0.4958705 1.7590001
-0.32333335 0.49333334 1.7500001
-0.31670859 0.48825908 1.7320001
-0.31178096 0.48572192 1.723
-0.30706668 0.48346668 1.715
-0.30220571 0.48092955 1.7060001
-0.29755428 0.47867429 1.6980001
-0.29432002 0.47867429 1.6980001
-0.28817144 0.47388193 1.6810001
-0.28361335 0.47162667 1.6730001
-0.27908573 0.46937144 1.6650001
-0.27458858 0.46711621 1.6570001
-0.2701219 0.46486098 1.649
-0.26568574 0.46260574 1.641
-0.25888002 0.45612192 1.618
-0.25469145 0.45414859 1.6110001
-0.25037333 0.45189336 1.603
-0.24624 0.44992003 1.5960001
-0.2432 0.44992003 1.5960001
-0.24016 0.44992003 1.5960001
-0.23712 0.44992003 1.5960001
-0.23408 0.44992003 1.5960001
-0.23104002 0.44992003 1.5960001
-0.22800002 0.44992003 1.5960001
-0.22496001 0.44992003 1.5960001
-0.22192001 0.44992003 1.5960001
-0.21984001 0.45189336 1.603
-0.21678667 0.45189336 1.603
-0.21373335 0.45189336 1.603
-0.21068001 0.45189336 1.603
-0.20762667 0.45189336 1.603
-0.20457335 0.45189336 1.603
-0.20152001 0.45189336 1.603
-0.19945715 0.45414859 1.6110001
-0.19638857 0.45414859 1.6110001
-0.19332001 0.45414859 1.6110001
-0.19025144 0.45414859 1.6110001
-0.18718286 0.45414859 1.6110001
-0.18491429 0.45612192 1.618
-0.18183239 0.45612192 1.618
-0.17963429 0.45837715 1.626
-0.17566858 0.45612192 1.618
-0.17258668 0.45612192 1.618
-0.17034286 0.45837715 1.626
-0.16806857 0.46063238 1.6340001
-0.1649562 0.46063238 1.6340001
-0.16184382 0.46063238 1.6340001
-0.15873143 0.46063238 1.6340001
-0.15561906 0.46063238 1.6340001
-0.15316001 0.46260574 1.641
-0.15003429 0.46260574 1.641
-0.14690858 0.46260574 1.641
-0.14378287 0.46260574 1.641
-0.14134286 0.46486098 1.649
-0.13820191 0.46486098 1.649
-0.13506095 0.46486098 1.649
-0.13192001 0.46486098 1.649
-0.12877905 0.46486098 1.649
-0.1256381 0.46486098 1.649
-0.12249715 0.46486098 1.649
-0.11935619 0.46486098 1.649
-0.11621524 0.46486098 1.649
-0.11307429 0.46486098 1.649
-0.10993334 0.46486098 1.649
-0.10731048 0.46711621 1.6570001
-0.10415429 0.46711621 1.6570001
-0.10148571 0.46937144 1.6650001
-0.099259049 0.47388193 1.6810001
-0.096057147 0.47388193 1.6810001
-0.092855245 0.47388193 1.6810001
-0.089653336 0.47388193 1.6810001
-0.086451434 0.47388193 1.6810001
-0.083249524 0.47388193 1.6810001
-0.080047622 0.47388193 1.6810001
-0.076480001 0.47162667 1.6730001
-0.073293336 0.47162667 1.6730001
-0.070441909 0.47388193 1.6810001
-0.06724 0.47388193 1.6810001
-0.064380951 0.47641906 1.6900001
-0.061161906 0.47641906 1.6900001
-0.05794286 0.47641906 1.6900001
-0.05498286 0.47867429 1.6980001
-0.051748574 0.47867429 1.6980001
-0.048514288 0.47867429 1.6980001
-0.045493335 0.48092955 1.7060001
-0.042045716 0.47867429 1.6980001
-0.038994286 0.48092955 1.7060001
-0.035933334 0.48346668 1.715
-0.032666668 0.48346668 1.715
-0.029245716 0.48092955 1.7060001
-0.025996191 0.48092955 1.7060001
-0.022746667 0.48092955 1.7060001
-0.019497143 0.48092955 1.7060001
-0.016333334 0.48346668 1.715
-0.013066667 0.48346668 1.715
-0.0097485716 0.48092955 1.7060001
-0.0064990479 0.48092955 1.7060001
-0.0032666668 0.48346668 1.715
0 0.48572192 1.723
0.0032819049 0.48572192 1.723
0.0065638097 0.48572192 1.723
0.0098971436 0.48825908 1.7320001
0.013196191 0.48825908 1.7320001
0.016495239 0.48825908 1.7320001
0.019794287 0.48825908 1.7320001
0.023213334 0.49079621 1.7410001
0.026529524 0.49079621 1.7410001
0.029845715 0.49079621 1.7410001
0.033161905 0.49079621 1.7410001
0.036478095 0.49079621 1.7410001
0.039794289 0.49079621 1.7410001
0.043110479 0.49079621 1.7410001
0.046666667 0.49333334 1.7500001
0.050000001 0.49333334 1.7500001
0.053333335 0.49333334 1.7500001
0.056666669 0.49333334 1.7500001
0.060000002 0.49333334 1.7500001
0.063333333 0.49333334 1.7500001
0.067009524 0.4958705 1.7590001
0.070360005 0.4958705 1.7590001
0.073710479 0.4958705 1.7590001
0.077060953 0.4958705 1.7590001
0.080411434 0.4958705 1.7590001
0.083761908 0.4958705 1.7590001
0.087558098 0.49840763 1.7680001
0.091388576 0.50094479 1.7770001
0.094773337 0.50094479 1.7770001
0.098158099 0.50094479 1.7770001
0.10154286 0.50094479 1.7770001
0.10492762 0.50094479 1.7770001
0.10831238 0.50094479 1.7770001
0.11226286 0.50348192 1.7860001
0.11566477 0.50348192 1.7860001
0.11906667 0.50348192 1.7860001
0.12246858 0.50348192 1.7860001
0.12587048 0.50348192 1.7860001
0.12992382 0.50601906 1.7950001
0.13334286 0.50601906 1.7950001
0.13744763 0.50855619 1.8040001
0.14088382 0.50855619 1.8040001
0.14432001 0.50855619 1.8040001
0.14775619 0.50855619 1.8040001
0.15203048 0.51137525 1.8140001
0.15548572 0.51137525 1.8140001
0.15894096 0.51137525 1.8140001
0.16329144 0.51419431 1.8240001
0.16676572 0.51419431 1.8240001
0.17024 0.51419431 1.8240001
0.1737143 0.51419431 1.8240001
0.17718858 0.51419431 1.8240001
0.18066287 0.51419431 1.8240001
0.18413715 0.51419431 1.8240001
0.18761143 0.51419431 1.8240001
0.19108573 0.51419431 1.8240001
0.19456001 0.51419431 1.8240001
0.19803429 0.51419431 1.8240001
0.20150858 0.51419431 1.8240001
0.20599429 0.51673144 1.8330001
0.20948572 0.51673144 1.8330001
0.21413906 0.5195505 1.8430001
0.21764953 0.5195505 1.8430001
0.22236001 0.52236956 1.853
0.22588953 0.52236956 1.853
0.22941905 0.52236956 1.853
0.23420572 0.52518857 1.863
0.23647811 0.52236956 1.853
0.24000762 0.52236956 1.853
0.24353716 0.52236956 1.853
0.24706668 0.52236956 1.853
0.2505962 0.52236956 1.853
0.25412571 0.52236956 1.853
0.25765523 0.52236956 1.853
-0.45634288 0.56194288 1.9800001
-0.45257145 0.56194288 1.9800001
-0.44630668 0.55882096 1.9690001
-0.44008383 0.55569905 1.9580001
-0.43635431 0.55569905 1.9580001
-0.43019429 0.55257714 1.9470001
-0.4240762 0.54945529 1.9360001
-0.42038858 0.54945529 1.9360001
-0.41433334 0.54633337 1.9250001
-0.40618667 0.54037333 1.904
-0.40256003 0.54037333 1.904
-0.39243811 0.53157526 1.8730001
-0.3867943 0.52873719 1.863
-0.38118857 0.52589905 1.853
-0.37562096 0.52306098 1.8430001
-0.37211049 0.52306098 1.8430001
-0.36660001 0.5202229 1.8330001
-0.35934478 0.51483047 1.8140001
-0.35392764 0.51199239 1.8040001
-0.34699431 0.5068838 1.7860001
-0.34186098 0.50432956 1.7770001
-0.33676192 0.50177526 1.7680001
-0.33169717 0.49922097 1.7590001
-0.32834667 0.49922097 1.7590001
-0.32333335 0.4966667 1.7500001
-0.31670859 0.4915581 1.7320001
-0.31178096 0.48900384 1.723
-0.30706668 0.48673335 1.715
-0.30380002 0.48673335 1.715
-0.29755428 0.48190859 1.6980001
-0.29293334 0.4796381 1.6900001
-0.28817144 0.47708383 1.6810001
-0.28361335 0.47481334 1.6730001
-0.27908573 0.47254288 1.6650001
-0.27458858 0.47027239 1.6570001
-0.2701219 0.46800193 1.649
-0.26568574 0.46573144 1.641
-0.26016 0.4614743 1.626
-0.2557981 0.45920384 1.618
-0.25162286 0.45721716 1.6110001
-0.24624 0.45296001 1.5960001
-0.2432 0.45296001 1.5960001
-0.24016 0.45296001 1.5960001
-0.23712 0.45296001 1.5960001
-0.23408 0.45296001 1.5960001
-0.23104002 0.45296001 1.5960001
-0.22800002 0.45296001 1.5960001
-0.22594668 0.4549467 1.603
-0.22289334 0.4549467 1.603
-0.21984001 0.4549467 1.603
-0.21678667 0.4549467 1.603
-0.21373335 0.4549467 1.603
-0.21068001 0.4549467 1.603
-0.20762667 0.4549467 1.603
-0.20559429 0.45721716 1.6110001
-0.20152001 0.4549467 1.603
-0.19945715 0.45721716 1.6110001
-0.19638857 0.45721716 1.6110001
-0.19332001 0.45721716 1.6110001
-0.19025144 0.45721716 1.6110001
-0.18718286 0.45721716 1.6110001
-0.18411429 0.45721716 1.6110001
-0.18183239 0.45920384 1.618
-0.17875049 0.45920384 1.618
-0.17566858 0.45920384 1.618
-0.17258668 0.45920384 1.618
-0.16950476 0.45920384 1.618
-0.16724572 0.4614743 1.626
-0.1649562 0.46374479 1.6340001
-0.16184382 0.46374479 1.6340001
-0.15873143 0.46374479 1.6340001
-0.15561906 0.46374479 1.6340001
-0.15316001 0.46573144 1.641
-0.15003429 0.46573144 1.641
-0.14690858 0.46573144 1.641
-0.14448382 0.46800193 1.649
-0.14134286 0.46800193 1.649
-0.13820191 0.46800193 1.649
-0.13506095 0.46800193 1.649
-0.13192001 0.46800193 1.649
-0.12877905 0.46800193 1.649
-0.1256381 0.46800193 1.649
-0.12249715 0.46800193 1.649
-0.11935619 0.46800193 1.649
-0.11621524 0.46800193 1.649
-0.11362286 0.47027239 1.6570001
-0.11046667 0.47027239 1.6570001
-0.10731048 0.47027239 1.6570001
-0.10465714 0.47254288 1.6650001
-0.10197334 0.47481334 1.6730001
-0.099259049 0.47708383 1.6810001
-0.096057147 0.47708383 1.6810001
-0.092855245 0.47708383 1.6810001
-0.089653336 0.47708383 1.6810001
-0.086451434 0.47708383 1.6810001
-0.083249524 0.47708383 1.6810001
-0.080047622 0.47708383 1.6810001
-0.07684572 0.47708383 1.6810001
-0.073643811 0.47708383 1.6810001
-0.070441909 0.47708383 1.6810001
-0.067600004 0.4796381 1.6900001
-0.064380951 0.4796381 1.6900001
-0.061161906 0.4796381 1.6900001
-0.05794286 0.4796381 1.6900001
-0.05498286 0.48190859 1.6980001
-0.051748574 0.48190859 1.6980001
-0.048514288 0.48190859 1.6980001
-0.045280002 0.48190859 1.6980001
-0.042045716 0.48190859 1.6980001
-0.038994286 0.48417908 1.7060001
-0.035744764 0.48417908 1.7060001
-0.032666668 0.48673335 1.715
-0.029245716 0.48417908 1.7060001
-0.025996191 0.48417908 1.7060001
-0.022746667 0.48417908 1.7060001
-0.019497143 0.48417908 1.7060001
-0.016333334 0.48673335 1.715
-0.013066667 0.48673335 1.715
-0.0097485716 0.48417908 1.7060001
-0.0065333336 0.48673335 1.715
-0.0032666668 0.48673335 1.715
0 0.48900384 1.723
0.0032819049 0.48900384 1.723
0.0065980954 0.4915581 1.7320001
0.0098971436 0.4915581 1.7320001
0.013196191 0.4915581 1.7320001
0.016495239 0.4915581 1.7320001
0.019897144 0.4941124 1.7410001
0.023213334 0.4941124 1.7410001
0.026529524 0.4941124 1.7410001
0.029845715 0.4941124 1.7410001
0.033161905 0.4941124 1.7410001
0.036478095 0.4941124 1.7410001
0.039794289 0.4941124 1.7410001
0.043110479 0.4941124 1.7410001
0.046426669 0.4941124 1.7410001
0.050000001 0.4966667 1.7500001
0.053333335 0.4966667 1.7500001
0.056666669 0.4966667 1.7500001
0.060000002 0.4966667 1.7500001
0.06365905 0.49922097 1.7590001
0.067009524 0.49922097 1.7590001
0.070360005 0.49922097 1.7590001
0.073710479 0.49922097 1.7590001
0.077060953 0.49922097 1.7590001
0.080411434 0.49922097 1.7590001
0.083761908 0.49922097 1.7590001
0.087558098 0.50177526 1.7680001
0.091388576 0.50432956 1.7770001
0.094773337 0.50432956 1.7770001
0.098158099 0.50432956 1.7770001
0.10154286 0.50432956 1.7770001
0.10492762 0.50432956 1.7770001
0.10886095 0.5068838 1.7860001
0.11226286 0.5068838 1.7860001
0.11566477 0.5068838 1.7860001
0.11906667 0.5068838 1.7860001
0.12246858 0.5068838 1.7860001
0.12587048 0.5068838 1.7860001
0.12992382 0.5094381 1.7950001
0.13334286 0.5094381 1.7950001
0.13744763 0.51199239 1.8040001
0.14088382 0.51199239 1.8040001
0.14512001 0.51483047 1.8140001
0.14775619 0.51199239 1.8040001
0.15286858 0.5176686 1.8240001
0.15634286 0.5176686 1.8240001
0.15981714 0.5176686 1.8240001
0.16329144 0.5176686 1.8240001
0.16676572 0.5176686 1.8240001
0.17024 0.5176686 1.8240001
0.1737143 0.5176686 1.8240001
0.17718858 0.5176686 1.8240001
0.18066287 0.5176686 1.8240001
0.18413715 0.5176686 1.8240001
0.18761143 0.5176686 1.8240001
0.19108573 0.5176686 1.8240001
0.19552001 0.5202229 1.8330001
0.19901143 0.5202229 1.8330001
0.20250286 0.5202229 1.8330001
0.20599429 0.5202229 1.8330001
0.20948572 0.5202229 1.8330001
0.21413906 0.52306098 1.8430001
0.21764953 0.52306098 1.8430001
0.22236001 0.52589905 1.853
0.22588953 0.52589905 1.853
0.22818096 0.52306098 1.8430001
0.23294859 0.52589905 1.853
0.23520191 0.52306098 1.8430001
0.23871239 0.52306098 1.8430001
0.24222286 0.52306098 1.8430001
0.24573334 0.52306098 1.8430001
0.2505962 0.52589905 1.853
0.25412571 0.52589905 1.853
0.25904572 0.52873719 1.863
0.26259428 0.52873719 1.863
-0.45380762 0.56257147 1.9690001
-0.45005715 0.56257147 1.9690001
-0.44630668 0.56257147 1.9690001
-0.44008383 0.55942857 1.9580001
-0.43390286 0.55628574 1.9470001
-0.43019429 0.55628574 1.9470001
-0.4240762 0.55314291 1.9360001
-0.42038858 0.55314291 1.9360001
-0.41433334 0.55000001 1.9250001
-0.40618667 0.54400003 1.904
-0.40044573 0.54114288 1.8940001
-0.39243811 0.5351429 1.8730001
-0.3867943 0.53228575 1.863
-0.38118857 0.5294286 1.853
-0.37562096 0.52657145 1.8430001
-0.37211049 0.52657145 1.8430001
-0.36660001 0.5237143 1.8330001
-0.35934478 0.51828575 1.8140001
-0.35392764 0.5154286 1.8040001
-0.34874287 0.51285714 1.7950001
-0.34186098 0.50771433 1.7770001
-0.33676192 0.50514287 1.7680001
-0.33169717 0.50257146 1.7590001
-0.32834667 0.50257146 1.7590001
-0.32333335 0.5 1.7500001
-0.31670859 0.49485716 1.7320001
-0.31178096 0.49228573 1.723
-0.30706668 0.49000001 1.715
-0.30380002 0.49000001 1.715
-0.29755428 0.48514289 1.6980001
-0.29293334 0.48285717 1.6900001
-0.28817144 0.48028573 1.6810001
-0.28361335 0.47800002 1.6730001
-0.27908573 0.4757143 1.6650001
-0.27458858 0.47342858 1.6570001
-0.2701219 0.47114289 1.649
-0.26568574 0.46885717 1.641
-0.26016 0.46457145 1.626
-0.2557981 0.46228573 1.618
-0.25037333 0.458 1.603
-0.24732001 0.458 1.603
-0.2432 0.45600003 1.5960001
-0.24016 0.45600003 1.5960001
-0.23712 0.45600003 1.5960001
-0.23408 0.45600003 1.5960001
-0.23104002 0.45600003 1.5960001
-0.22800002 0.45600003 1.5960001
-0.22594668 0.458 1.603
-0.22289334 0.458 1.603
-0.21984001 0.458 1.603
-0.21678667 0.458 1.603
-0.21373335 0.458 1.603
-0.21068001 0.458 1.603
-0.20866287 0.46028572 1.6110001
-0.20559429 0.46028572 1.6110001
-0.20252572 0.46028572 1.6110001
-0.19945715 0.46028572 1.6110001
-0.19638857 0.46028572 1.6110001
-0.19332001 0.46028572 1.6110001
-0.19025144 0.46028572 1.6110001
-0.18718286 0.46028572 1.6110001
-0.18411429 0.46028572 1.6110001
-0.18104573 0.46028572 1.6110001
-0.17875049 0.46228573 1.618
-0.17566858 0.46228573 1.618
-0.17258668 0.46228573 1.618
-0.17034286 0.46457145 1.626
-0.16806857 0.46685717 1.6340001
-0.1649562 0.46685717 1.6340001
-0.16184382 0.46685717 1.6340001
-0.15873143 0.46685717 1.6340001
-0.15628572 0.46885717 1.641
-0.15316001 0.46885717 1.641
-0.15076572 0.47114289 1.649
-0.14762476 0.47114289 1.649
-0.14448382 0.47114289 1.649
-0.14134286 0.47114289 1.649
-0.13820191 0.47114289 1.649
-0.13506095 0.47114289 1.649
-0.13192001 0.47114289 1.649
-0.12877905 0.47114289 1.649
-0.1256381 0.47114289 1.649
-0.12249715 0.47114289 1.649
-0.11993524 0.47342858 1.6570001
-0.11677905 0.47342858 1.6570001
-0.11362286 0.47342858 1.6570001
-0.11046667 0.47342858 1.6570001
-0.10782857 0.4757143 1.6650001
-0.10465714 0.4757143 1.6650001
-0.10197334 0.47800002 1.6730001
-0.099259049 0.48028573 1.6810001
-0.096057147 0.48028573 1.6810001
-0.092855245 0.48028573 1.6810001
-0.089653336 0.48028573 1.6810001
-0.086451434 0.48028573 1.6810001
-0.083249524 0.48028573 1.6810001
-0.080047622 0.48028573 1.6810001
-0.07684572 0.48028573 1.6810001
-0.073643811 0.48028573 1.6810001
-0.070441909 0.48028573 1.6810001
-0.06724 0.48028573 1.6810001
-0.064380951 0.48285717 1.6900001
-0.061161906 0.48285717 1.6900001
-0.05794286 0.48285717 1.6900001
-0.05498286 0.48514289 1.6980001
-0.051748574 0.48514289 1.6980001
-0.048514288 0.48514289 1.6980001
-0.045493335 0.48742858 1.7060001
-0.042243812 0.48742858 1.7060001
-0.038994286 0.48742858 1.7060001
-0.035933334 0.49000001 1.715
-0.032666668 0.49000001 1.715
-0.029245716 0.48742858 1.7060001
-0.025996191 0.48742858 1.7060001
-0.022746667 0.48742858 1.7060001
-0.019497143 0.48742858 1.7060001
-0.016333334 0.49000001 1.715
-0.013066667 0.49000001 1.715
-0.0097485716 0.48742858 1.7060001
-0.0065333336 0.49000001 1.715
-0.0032666668 0.49000001 1.715
0 0.49485716 1.7320001
0.0032990477 0.49485716 1.7320001
0.0065980954 0.49485716 1.7320001
0.0099485721 0.4974286 1.7410001
0.013264762 0.4974286 1.7410001
0.016580952 0.4974286 1.7410001
0.019897144 0.4974286 1.7410001
0.023213334 0.4974286 1.7410001
0.026529524 0.4974286 1.7410001
0.029845715 0.4974286 1.7410001
0.033161905 0.4974286 1.7410001
0.036478095 0.4974286 1.7410001
0.039794289 0.4974286 1.7410001
0.043110479 0.4974286 1.7410001
0.046426669 0.4974286 1.7410001
0.050000001 0.5 1.7500001
0.053333335 0.5 1.7500001
0.056666669 0.5 1.7500001
0.060308572 0.50257146 1.7590001
0.06365905 0.50257146 1.7590001
0.067009524 0.50257146 1.7590001
0.070360005 0.50257146 1.7590001
0.073710479 0.50257146 1.7590001
0.077060953 0.50257146 1.7590001
0.080411434 0.50257146 1.7590001
0.083761908 0.50257146 1.7590001
0.087558098 0.50514287 1.7680001
0.091388576 0.50771433 1.7770001
0.094773337 0.50771433 1.7770001
0.098158099 0.50771433 1.7770001
0.10154286 0.50771433 1.7770001
0.10492762 0.50771433 1.7770001
0.10886095 0.51028574 1.7860001
0.11226286 0.51028574 1.7860001
0.11566477 0.51028574 1.7860001
0.11906667 0.51028574 1.7860001
0.12246858 0.51028574 1.7860001
0.12587048 0.51028574 1.7860001
0.12927239 0.51028574 1.7860001
0.13334286 0.51285714 1.7950001
0.1367619 0.51285714 1.7950001
0.14088382 0.5154286 1.8040001
0.14512001 0.51828575 1.8140001
0.14857525 0.51828575 1.8140001
0.15203048 0.51828575 1.8140001
0.15548572 0.51828575 1.8140001
0.15894096 0.51828575 1.8140001
0.16329144 0.5211429 1.8240001
0.16676572 0.5211429 1.8240001
0.17024 0.5211429 1.8240001
0.1737143 0.5211429 1.8240001
0.17718858 0.5211429 1.8240001
0.18066287 0.5211429 1.8240001
0.18413715 0.5211429 1.8240001
0.18761143 0.5211429 1.8240001
0.19108573 0.5211429 1.8240001
0.19456001 0.5211429 1.8240001
0.19901143 0.5237143 1.8330001
0.20250286 0.5237143 1.8330001
0.20599429 0.5237143 1.8330001
0.20948572 0.5237143 1.8330001
0.21413906 0.52657145 1.8430001
0.21764953 0.52657145 1.8430001
0.22116001 0.52657145 1.8430001
0.22467048 0.52657145 1.8430001
0.22818096 0.52657145 1.8430001
0.23294859 0.5294286 1.853
0.23520191 0.52657145 1.8430001
0.23871239 0.52657145 1.8430001
0.24222286 0.52657145 1.8430001
0.24573334 0.52657145 1.8430001
0.2505962 0.5294286 1.853
0.25412571 0.5294286 1.853
0.25904572 0.53228575 1.863
0.26259428 0.53228575 1.863
-0.45380762 0.56632191 1.9690001
-0.45005715 0.56632191 1.9690001
-0.44630668 0.56632191 1.9690001
-0.4425562 0.56632191 1.9690001
-0.43635431 0.56315809 1.9580001
-0.43262479 0.56315809 1.9580001
-0.42648572 0.55999428 1.9470001
-0.42038858 0.55683053 1.9360001
-0.41433334 0.55366671 1.9250001
-0.40853333 0.55079049 1.9150001
-0.40044573 0.54475051 1.8940001
-0.39243811 0.53871047 1.8730001
-0.3867943 0.53583431 1.863
-0.38118857 0.53295809 1.853
-0.37562096 0.53008193 1.8430001
-0.37211049 0.53008193 1.8430001
-0.36660001 0.52720571 1.8330001
-0.35934478 0.52174097 1.8140001
-0.35392764 0.51886481 1.8040001
-0.34874287 0.51627618 1.7950001
-0.34359241 0.51368761 1.7860001
-0.33847621 0.51109904 1.7770001
-0.33169717 0.5059219 1.7590001
-0.32834667 0.5059219 1.7590001
-0.32333335 0.50333333 1.7500001
-0.31670859 0.49815622 1.7320001
-0.31178096 0.49556765 1.723
-0.30706668 0.49326667 1.715
-0.30220571 0.4906781 1.7060001
-0.29755428 0.48837715 1.6980001
-0.29293334 0.48607621 1.6900001
-0.28817144 0.48348764 1.6810001
-0.28361335 0.48118669 1.6730001
-0.27908573 0.47888574 1.6650001
-0.27458858 0.47658479 1.6570001
-0.2701219 0.47428381 1.649
-0.26568574 0.47198287 1.641
-0.26016 0.46766859 1.626
-0.2557981 0.46536765 1.618
-0.25162286 0.46335429 1.6110001
-0.24732001 0.46105334 1.603
-0.2432 0.45904002 1.5960001
-0.24016 0.45904002 1.5960001
-0.23712 0.45904002 1.5960001
-0.23408 0.45904002 1.5960001
-0.23104002 0.45904002 1.5960001
-0.22800002 0.45904002 1.5960001
-0.22594668 0.46105334 1.603
-0.22192001 0.45904002 1.5960001
-0.21984001 0.46105334 1.603
-0.21678667 0.46105334 1.603
-0.21373335 0.46105334 1.603
-0.21068001 0.46105334 1.603
-0.20762667 0.46105334 1.603
-0.20457335 0.46105334 1.603
-0.20152001 0.46105334 1.603
-0.19846667 0.46105334 1.603
-0.19541334 0.46105334 1.603
-0.19332001 0.46335429 1.6110001
-0.18930668 0.46105334 1.603
-0.18718286 0.46335429 1.6110001
-0.18411429 0.46335429 1.6110001
-0.18104573 0.46335429 1.6110001
-0.17875049 0.46536765 1.618
-0.17566858 0.46536765 1.618
-0.17344001 0.46766859 1.626
-0.17034286 0.46766859 1.626
-0.16806857 0.46996954 1.6340001
-0.1649562 0.46996954 1.6340001
-0.16184382 0.46996954 1.6340001
-0.15873143 0.46996954 1.6340001
-0.15628572 0.47198287 1.641
-0.15316001 0.47198287 1.641
-0.15076572 0.47428381 1.649
-0.14762476 0.47428381 1.649
-0.14448382 0.47428381 1.649
-0.14202857 0.47658479 1.6570001
-0.13820191 0.47428381 1.649
-0.13506095 0.47428381 1.649
-0.13192001 0.47428381 1.649
-0.12877905 0.47428381 1.649
-0.1256381 0.47428381 1.649
-0.12309143 0.47658479 1.6570001
-0.11993524 0.47658479 1.6570001
-0.11677905 0.47658479 1.6570001
-0.11362286 0.47658479 1.6570001
-0.111 0.47888574 1.6650001
-0.10782857 0.47888574 1.6650001
-0.10465714 0.47888574 1.6650001
-0.10197334 0.48118669 1.6730001
-0.098786667 0.48118669 1.6730001
-0.096057147 0.48348764 1.6810001
-0.092855245 0.48348764 1.6810001
-0.089653336 0.48348764 1.6810001
-0.086451434 0.48348764 1.6810001
-0.083249524 0.48348764 1.6810001
-0.080047622 0.48348764 1.6810001
-0.07684572 0.48348764 1.6810001
-0.073643811 0.48348764 1.6810001
-0.070441909 0.48348764 1.6810001
-0.06724 0.48348764 1.6810001
-0.064380951 0.48607621 1.6900001
-0.061161906 0.48607621 1.6900001
-0.05794286 0.48607621 1.6900001
-0.05498286 0.48837715 1.6980001
-0.051748574 0.48837715 1.6980001
-0.048514288 0.48837715 1.6980001
-0.045280002 0.48837715 1.6980001
-0.042045716 0.48837715 1.6980001
-0.038994286 0.4906781 1.7060001
-0.035744764 0.4906781 1.7060001
-0.032666668 0.49326667 1.715
-0.029245716 0.4906781 1.7060001
-0.025996191 0.4906781 1.7060001
-0.022746667 0.4906781 1.7060001
-0.0196 0.49326667 1.715
-0.016333334 0.49326667 1.715
-0.013066667 0.49326667 1.715
-0.0097485716 0.4906781 1.7060001
-0.0065333336 0.49326667 1.715
-0.0032666668 0.49326667 1.715
0 0.49815622 1.7320001
0.0032819049 0.49556765 1.723
0.0065980954 0.49815622 1.7320001
0.0098971436 0.49815622 1.7320001
0.013196191 0.49815622 1.7320001
0.016495239 0.49815622 1.7320001
0.019794287 0.49815622 1.7320001
0.023213334 0.50074476 1.7410001
0.026392382 0.49815622 1.7320001
0.029845715 0.50074476 1.7410001
0.033161905 0.50074476 1.7410001
0.036478095 0.50074476 1.7410001
0.039794289 0.50074476 1.7410001
0.043110479 0.50074476 1.7410001
0.046426669 0.50074476 1.7410001
0.050000001 0.50333333 1.7500001
0.053333335 0.50333333 1.7500001
0.056666669 0.50333333 1.7500001
0.060308572 0.5059219 1.7590001
0.06365905 0.5059219 1.7590001
0.067009524 0.5059219 1.7590001
0.070360005 0.5059219 1.7590001
0.073710479 0.5059219 1.7590001
0.077060953 0.5059219 1.7590001
0.080411434 0.5059219 1.7590001
0.083761908 0.5059219 1.7590001
0.087558098 0.50851047 1.7680001
0.091388576 0.51109904 1.7770001
0.094773337 0.51109904 1.7770001
0.098158099 0.51109904 1.7770001
0.10205714 0.51368761 1.7860001
0.10545905 0.51368761 1.7860001
0.10886095 0.51368761 1.7860001
0.11226286 0.51368761 1.7860001
0.11566477 0.51368761 1.7860001
0.11906667 0.51368761 1.7860001
0.12246858 0.51368761 1.7860001
0.12587048 0.51368761 1.7860001
0.12992382 0.51627618 1.7950001
0.13334286 0.51627618 1.7950001
0.13744763 0.51886481 1.8040001
0.14088382 0.51886481 1.8040001
0.14512001 0.52174097 1.8140001
0.14857525 0.52174097 1.8140001
0.15203048 0.52174097 1.8140001
0.15548572 0.52174097 1.8140001
0.15894096 0.52174097 1.8140001
0.16239619 0.52174097 1.8140001
0.16676572 0.52461714 1.8240001
0.17024 0.52461714 1.8240001
0.1737143 0.52461714 1.8240001
0.17718858 0.52461714 1.8240001
0.18066287 0.52461714 1.8240001
0.18413715 0.52461714 1.8240001
0.18761143 0.52461714 1.8240001
0.19108573 0.52461714 1.8240001
0.19552001 0.52720571 1.8330001
0.19901143 0.52720571 1.8330001
0.20250286 0.52720571 1.8330001
0.20599429 0.52720571 1.8330001
0.20948572 0.52720571 1.8330001
0.21297716 0.52720571 1.8330001
0.21646857 0.52720571 1.8330001
0.22116001 0.53008193 1.8430001
0.22467048 0.53008193 1.8430001
0.22818096 0.53008193 1.8430001
0.23294859 0.53295809 1.853
0.23520191 0.53008193 1.8430001
0.23871239 0.53008193 1.8430001
0.24222286 0.53008193 1.8430001
0.24573334 0.53008193 1.8430001
0.2505962 0.53295809 1.853
0.25412571 0.53295809 1.853
0.25765523 0.53295809 1.853
0.26118478 0.53295809 1.853
-0.45005715 0.57007241 1.9690001
-0.44630668 0.57007241 1.9690001
-0.4425562 0.57007241 1.9690001
-0.43635431 0.56688762 1.9580001
-0.43262479 0.56688762 1.9580001
-0.42648572 0.56370288 1.9470001
-0.42038858 0.56051815 1.9360001
-0.41433334 0.55733335 1.9250001
-0.40853333 0.55443811 1.9150001
-0.40044573 0.54835814 1.8940001
-0.39453334 0.54517335 1.8830001
-0.38887048 0.54227811 1.8730001
-0.38118857 0.53648764 1.853
-0.37765905 0.53648764 1.853
-0.37211049 0.5335924 1.8430001
-0.36660001 0.53069717 1.8330001
-0.35934478 0.52519619 1.8140001
-0.35588953 0.52519619 1.8140001
-0.35049143 0.52230096 1.8040001
-0.34359241 0.51708955 1.7860001
-0.33847621 0.51448381 1.7770001
-0.33339429 0.51187813 1.7680001
-0.32834667 0.5092724 1.7590001
-0.32333335 0.50666666 1.7500001
-0.31670859 0.50145525 1.7320001
-0.31340954 0.50145525 1.7320001
-0.30849907 0.49884954 1.723
-0.30220571 0.49392763 1.7060001
-0.29755428 0.49161145 1.6980001
-0.29293334 0.48929524 1.6900001
-0.28817144 0.48668954 1.6810001
-0.28361335 0.48437336 1.6730001
-0.27908573 0.48205715 1.6650001
-0.27458858 0.47974098 1.6570001
-0.2701219 0.47742477 1.649
-0.26568574 0.47510859 1.641
-0.26016 0.47076574 1.626
-0.2557981 0.46844953 1.618
-0.25162286 0.46642289 1.6110001
-0.24732001 0.46410668 1.603
-0.24426667 0.46410668 1.603
-0.24016 0.46208003 1.5960001
-0.23712 0.46208003 1.5960001
-0.23408 0.46208003 1.5960001
-0.23104002 0.46208003 1.5960001
-0.229 0.46410668 1.603
-0.22594668 0.46410668 1.603
-0.22192001 0.46208003 1.5960001
-0.21984001 0.46410668 1.603
-0.21678667 0.46410668 1.603
-0.21373335 0.46410668 1.603
-0.21068001 0.46410668 1.603
-0.20762667 0.46410668 1.603
-0.20457335 0.46410668 1.603
-0.20152001 0.46410668 1.603
-0.19846667 0.46410668 1.603
-0.19541334 0.46410668 1.603
-0.19236001 0.46410668 1.603
-0.18930668 0.46410668 1.603
-0.18625334 0.46410668 1.603
-0.1832 0.46410668 1.603
-0.18014668 0.46410668 1.603
-0.17797714 0.46642289 1.6110001
-0.17566858 0.46844953 1.618
-0.17258668 0.46844953 1.618
-0.17034286 0.47076574 1.626
-0.16724572 0.47076574 1.626
-0.1649562 0.47308192 1.6340001
-0.16184382 0.47308192 1.6340001
-0.15873143 0.47308192 1.6340001
-0.15561906 0.47308192 1.6340001
-0.15316001 0.47510859 1.641
-0.15076572 0.47742477 1.649
-0.14762476 0.47742477 1.649
-0.14448382 0.47742477 1.649
-0.14202857 0.47974098 1.6570001
-0.13887239 0.47974098 1.6570001
-0.1357162 0.47974098 1.6570001
-0.13192001 0.47742477 1.649
-0.12877905 0.47742477 1.649
-0.1256381 0.47742477 1.649
-0.12249715 0.47742477 1.649
-0.11993524 0.47974098 1.6570001
-0.11734286 0.48205715 1.6650001
-0.11417143 0.48205715 1.6650001
-0.111 0.48205715 1.6650001
-0.10782857 0.48205715 1.6650001
-0.10516001 0.48437336 1.6730001
-0.10197334 0.48437336 1.6730001
-0.099259049 0.48668954 1.6810001
-0.096057147 0.48668954 1.6810001
-0.092855245 0.48668954 1.6810001
-0.089653336 0.48668954 1.6810001
-0.086451434 0.48668954 1.6810001
-0.083249524 0.48668954 1.6810001
-0.080047622 0.48668954 1.6810001
-0.07684572 0.48668954 1.6810001
