# .PCD v0.7 - Point Cloud Data file format
VERSION 0.7
FIELDS x y z
SIZE 4 4 4
TYPE F F F
COUNT 1 1 1
WIDTH 1518
HEIGHT 1
VIEWPOINT 0 0 0 1 0 0 0
POINTS 1518
DATA ascii
-0.31503811 0.4576343 1.7410001
-0.31172192 0.4576343 1.7410001
-0.30681145 0.45526859 1.7320001
-0.30193526 0.45290288 1.723
-0.29726669 0.45080003 1.715
-0.294 0.45080003 1.715
-0.29073334 0.45080003 1.715
-0.28746668 0.45080003 1.715
-0.28552574 0.45290288 1.723
-0.28224382 0.45290288 1.723
-0.27766669 0.45080003 1.715
-0.2744 0.45080003 1.715
-0.26971048 0.44843429 1.7060001
-0.26521143 0.44633144 1.6980001
-0.26197717 0.44633144 1.6980001
-0.2575238 0.44422859 1.6900001
-0.25430477 0.44422859 1.6900001
-0.25108573 0.44422859 1.6900001
-0.24654667 0.44186288 1.6810001
-0.24218668 0.43976003 1.6730001
-0.23785715 0.43765715 1.6650001
-0.23468572 0.43765715 1.6650001
-0.23040192 0.4355543 1.6570001
-0.22724572 0.4355543 1.6570001
-0.22300763 0.43345144 1.649
-0.21986668 0.43345144 1.649
-0.21777715 0.4355543 1.6570001
-0.21462096 0.4355543 1.6570001
-0.21146476 0.4355543 1.6570001
-0.20830858 0.4355543 1.6570001
-0.20515239 0.4355543 1.6570001
-0.20199619 0.4355543 1.6570001
-0.19788 0.43345144 1.649
-0.19473906 0.43345144 1.649
-0.19066858 0.43134859 1.641
-0.18674286 0.4295086 1.6340001
-0.18363048 0.4295086 1.6340001
-0.18051811 0.4295086 1.6340001
-0.17653716 0.42740574 1.626
-0.17344001 0.42740574 1.626
-0.17034286 0.42740574 1.626
-0.16724572 0.42740574 1.626
-0.16334096 0.42530286 1.618
-0.16025905 0.42530286 1.618
-0.15649715 0.42346287 1.6110001
-0.15342858 0.42346287 1.6110001
-0.15036 0.42346287 1.6110001
-0.14656 0.42136002 1.603
-0.14350668 0.42136002 1.603
-0.14045334 0.42136002 1.603
-0.1374 0.42136002 1.603
-0.13434668 0.42136002 1.603
-0.13072 0.41952002 1.5960001
-0.12768 0.41952002 1.5960001
-0.12464 0.41952002 1.5960001
-0.1216 0.41952002 1.5960001
-0.11856 0.41952002 1.5960001
-0.11552001 0.41952002 1.5960001
-0.11198667 0.41768003 1.5890001
-0.10841143 0.41557714 1.5810001
-0.1054 0.41557714 1.5810001
-0.10193525 0.41373715 1.5740001
-0.098937146 0.41373715 1.5740001
-0.095512383 0.41189715 1.567
-0.092114292 0.41005716 1.5600001
-0.089142859 0.41005716 1.5600001
-0.086171433 0.41005716 1.5600001
-0.082826667 0.40821716 1.5530001
-0.079868577 0.40821716 1.5530001
-0.076910481 0.40821716 1.5530001
-0.073952384 0.40821716 1.5530001
-0.07131429 0.41005716 1.5600001
-0.068342857 0.41005716 1.5600001
-0.065371431 0.41005716 1.5600001
-0.062400002 0.41005716 1.5600001
-0.059428573 0.41005716 1.5600001
-0.056710478 0.41189715 1.567
-0.053725716 0.41189715 1.567
-0.050740954 0.41189715 1.567
-0.047969524 0.41373715 1.5740001
-0.045171428 0.41557714 1.5810001
-0.042160001 0.41557714 1.5810001
-0.039346669 0.41768003 1.5890001
-0.036320001 0.41768003 1.5890001
-0.033440001 0.41952002 1.5960001
-0.030400001 0.41952002 1.5960001
-0.027360002 0.41952002 1.5960001
-0.024426667 0.42136002 1.603
-0.021373333 0.42136002 1.603
-0.01841143 0.42346287 1.6110001
-0.015342858 0.42346287 1.6110001
-0.01232762 0.42530286 1.618
-0.0092457142 0.42530286 1.618
-0.006194286 0.42740574 1.626
-0.003097143 0.42740574 1.626
0 0.4295086 1.6340001
0.0031123811 0.4295086 1.6340001
0.0062514287 0.43134859 1.641
0.0094228573 0.43345144 1.649
0.01256381 0.43345144 1.649
0.015780954 0.4355543 1.6570001
0.018937144 0.4355543 1.6570001
0.022200001 0.43765715 1.6650001
0.025493335 0.43976003 1.6730001
0.028817143 0.44186288 1.6810001
0.032019049 0.44186288 1.6810001
0.035409525 0.44422859 1.6900001
0.038628574 0.44422859 1.6900001
0.042045716 0.44633144 1.6980001
0.045493335 0.44843429 1.7060001
0.048742861 0.44843429 1.7060001
0.052266669 0.45080003 1.715
0.055533335 0.45080003 1.715
0.058800001 0.45080003 1.715
0.062356193 0.45290288 1.723
0.065638095 0.45290288 1.723
0.069280006 0.45526859 1.7320001
0.07295619 0.4576343 1.7410001
0.076272383 0.4576343 1.7410001
0.080000006 0.46000001 1.7500001
0.083761908 0.46236572 1.7590001
0.087112382 0.46236572 1.7590001
0.090462863 0.46236572 1.7590001
0.094293334 0.46473145 1.7680001
0.098158099 0.46709716 1.7770001
0.10205714 0.46946287 1.7860001
0.10545905 0.46946287 1.7860001
0.10886095 0.46946287 1.7860001
0.11226286 0.46946287 1.7860001
0.11624762 0.47182858 1.7950001
0.11966667 0.47182858 1.7950001
0.12308572 0.47182858 1.7950001
0.12713905 0.47419432 1.8040001
0.13129905 0.47682288 1.8140001
0.13549715 0.47945145 1.8240001
0.13897143 0.47945145 1.8240001
0.14314857 0.48181716 1.8330001
0.14664 0.48181716 1.8330001
0.15095048 0.48444572 1.8430001
0.15529905 0.48707432 1.853
0.15968572 0.48970288 1.863
0.16411048 0.49233145 1.8730001
0.1676781 0.49233145 1.8730001
0.17124572 0.49233145 1.8730001
0.17574668 0.49496001 1.8830001
0.17933334 0.49496001 1.8830001
0.18496001 0.50048 1.904
0.18858667 0.50048 1.904
0.19221334 0.50048 1.904
0.19584 0.50048 1.904
0.20061906 0.50337142 1.9150001
0.20533334 0.50600004 1.9250001
0.21019429 0.50889146 1.9360001
0.21388191 0.50889146 1.9360001
0.21880572 0.51178288 1.9470001
0.22377144 0.51467431 1.9580001
0.22750096 0.51467431 1.9580001
0.23252954 0.51756573 1.9690001
0.23760001 0.52045715 1.9800001
0.2428343 0.52361143 1.9920001
0.24662858 0.52361143 1.9920001
0.25180572 0.52650285 2.003
0.25562096 0.52650285 2.003
0.25801143 0.52361143 1.9920001
0.26022857 0.52045715 1.9800001
0.26253334 0.51756573 1.9690001
0.26628381 0.51756573 1.9690001
-0.44572574 0.4802781 1.8140001
-0.44227049 0.4802781 1.8140001
-0.43881527 0.4802781 1.8140001
-0.43536001 0.4802781 1.8140001
-0.43190476 0.4802781 1.8140001
-0.42844954 0.4802781 1.8140001
-0.42499429 0.4802781 1.8140001
-0.42153907 0.4802781 1.8140001
-0.41808382 0.4802781 1.8140001
-0.4146286 0.4802781 1.8140001
-0.41117334 0.4802781 1.8140001
-0.40547049 0.4776305 1.8040001
-0.40203431 0.4776305 1.8040001
-0.39660954 0.47524765 1.7950001
-0.3931905 0.47524765 1.7950001
-0.38977143 0.47524765 1.7950001
-0.38441524 0.47286478 1.7860001
-0.38101333 0.47286478 1.7860001
-0.37761143 0.47286478 1.7860001
-0.37232381 0.47048193 1.7770001
-0.36893907 0.47048193 1.7770001
-0.36370286 0.46809906 1.7680001
-0.36033526 0.46809906 1.7680001
-0.35696763 0.46809906 1.7680001
-0.35180002 0.46571621 1.7590001
-0.34666669 0.46333334 1.7500001
-0.34333333 0.46333334 1.7500001
-0.33825144 0.46095049 1.7410001
-0.33493525 0.46095049 1.7410001
-0.33161905 0.46095049 1.7410001
-0.32830286 0.46095049 1.7410001
-0.32498667 0.46095049 1.7410001
-0.3216705 0.46095049 1.7410001
-0.31835431 0.46095049 1.7410001
-0.31503811 0.46095049 1.7410001
-0.31011048 0.45856765 1.7320001
-0.30681145 0.45856765 1.7320001
-0.30193526 0.45618477 1.723
-0.29865333 0.45618477 1.723
-0.294 0.45406669 1.715
-0.29073334 0.45406669 1.715
-0.28746668 0.45406669 1.715
-0.28552574 0.45618477 1.723
-0.28224382 0.45618477 1.723
-0.27766669 0.45406669 1.715
-0.2744 0.45406669 1.715
-0.26971048 0.45168382 1.7060001
-0.26521143 0.44956574 1.6980001
-0.26197717 0.44956574 1.6980001
-0.2575238 0.44744763 1.6900001
-0.25430477 0.44744763 1.6900001
-0.25108573 0.44744763 1.6900001
-0.24654667 0.44506478 1.6810001
-0.24218668 0.44294667 1.6730001
-0.23785715 0.44082859 1.6650001
-0.23468572 0.44082859 1.6650001
-0.23040192 0.43871048 1.6570001
-0.22724572 0.43871048 1.6570001
-0.22408953 0.43871048 1.6570001
-0.22093335 0.43871048 1.6570001
-0.21777715 0.43871048 1.6570001
-0.21462096 0.43871048 1.6570001
-0.21146476 0.43871048 1.6570001
-0.20830858 0.43871048 1.6570001
-0.20515239 0.43871048 1.6570001
-0.20199619 0.43871048 1.6570001
-0.19788 0.4365924 1.649
-0.19473906 0.4365924 1.649
-0.19066858 0.43447429 1.641
-0.18674286 0.43262097 1.6340001
-0.18363048 0.43262097 1.6340001
-0.18051811 0.43262097 1.6340001
-0.17653716 0.43050286 1.626
-0.17344001 0.43050286 1.626
-0.17034286 0.43050286 1.626
-0.16724572 0.43050286 1.626
-0.16334096 0.42838478 1.618
-0.16025905 0.42838478 1.618
-0.15717715 0.42838478 1.618
-0.15409525 0.42838478 1.618
-0.15036 0.42653143 1.6110001
-0.14729144 0.42653143 1.6110001
-0.14350668 0.42441335 1.603
-0.14045334 0.42441335 1.603
-0.1374 0.42441335 1.603
-0.13434668 0.42441335 1.603
-0.13072 0.42256001 1.5960001
-0.12768 0.42256001 1.5960001
-0.12464 0.42256001 1.5960001
-0.1216 0.42256001 1.5960001
-0.11856 0.42256001 1.5960001
-0.11552001 0.42256001 1.5960001
-0.11198667 0.42070669 1.5890001
-0.10841143 0.41858858 1.5810001
-0.1054 0.41858858 1.5810001
-0.10193525 0.41673526 1.5740001
-0.098497145 0.41488191 1.567
-0.095512383 0.41488191 1.567
-0.09252762 0.41488191 1.567
-0.089542858 0.41488191 1.567
-0.086171433 0.4130286 1.5600001
-0.0832 0.4130286 1.5600001
-0.080228575 0.4130286 1.5600001
-0.077257149 0.4130286 1.5600001
-0.074285716 0.4130286 1.5600001
-0.07131429 0.4130286 1.5600001
-0.068036191 0.41117525 1.5530001
-0.065371431 0.4130286 1.5600001
-0.062400002 0.4130286 1.5600001
-0.059428573 0.4130286 1.5600001
-0.056710478 0.41488191 1.567
-0.053725716 0.41488191 1.567
-0.050967623 0.41673526 1.5740001
-0.047969524 0.41673526 1.5740001
-0.045171428 0.41858858 1.5810001
-0.042160001 0.41858858 1.5810001
-0.039346669 0.42070669 1.5890001
-0.036480002 0.42256001 1.5960001
-0.033440001 0.42256001 1.5960001
-0.030400001 0.42256001 1.5960001
-0.027360002 0.42256001 1.5960001
-0.024426667 0.42441335 1.603
-0.021480002 0.42653143 1.6110001
-0.01841143 0.42653143 1.6110001
-0.015342858 0.42653143 1.6110001
-0.01232762 0.42838478 1.618
-0.0092457142 0.42838478 1.618
-0.006194286 0.43050286 1.626
-0.003097143 0.43050286 1.626
0 0.43262097 1.6340001
0.0031257144 0.43447429 1.641
0.0062819049 0.4365924 1.649
0.0094228573 0.4365924 1.649
0.01256381 0.4365924 1.649
0.015780954 0.43871048 1.6570001
0.018937144 0.43871048 1.6570001
0.022200001 0.44082859 1.6650001
0.025493335 0.44294667 1.6730001
0.028817143 0.44506478 1.6810001
0.032190476 0.44744763 1.6900001
0.035409525 0.44744763 1.6900001
0.03881143 0.44956574 1.6980001
0.042045716 0.44956574 1.6980001
0.045493335 0.45168382 1.7060001
0.048742861 0.45168382 1.7060001
0.052266669 0.45406669 1.715
0.055533335 0.45406669 1.715
0.059074286 0.45618477 1.723
0.062356193 0.45618477 1.723
0.065638095 0.45618477 1.723
0.069280006 0.45856765 1.7320001
0.07295619 0.46095049 1.7410001
0.076666668 0.46333334 1.7500001
0.080411434 0.46571621 1.7590001
0.083761908 0.46571621 1.7590001
0.087112382 0.46571621 1.7590001
0.090462863 0.46571621 1.7590001
0.094293334 0.46809906 1.7680001
0.097660959 0.46809906 1.7680001
0.10154286 0.47048193 1.7770001
0.10545905 0.47286478 1.7860001
0.10886095 0.47286478 1.7860001
0.11226286 0.47286478 1.7860001
0.11624762 0.47524765 1.7950001
0.11966667 0.47524765 1.7950001
0.12308572 0.47524765 1.7950001
0.12713905 0.4776305 1.8040001
0.13129905 0.4802781 1.8140001
0.13549715 0.48292574 1.8240001
0.13897143 0.48292574 1.8240001
0.14392953 0.4879562 1.8430001
0.14744 0.4879562 1.8430001
0.15176953 0.49060383 1.853
0.15613715 0.49325144 1.863
0.15968572 0.49325144 1.863
0.16411048 0.49589905 1.8730001
0.1676781 0.49589905 1.8730001
0.17216 0.49854669 1.8830001
0.17574668 0.49854669 1.8830001
0.17933334 0.49854669 1.8830001
0.18398857 0.50145906 1.8940001
0.1875962 0.50145906 1.8940001
0.19221334 0.5041067 1.904
0.19584 0.5041067 1.904
0.20061906 0.50701904 1.9150001
0.20533334 0.50966668 1.9250001
0.21019429 0.51257908 1.9360001
0.21388191 0.51257908 1.9360001
0.21756953 0.51257908 1.9360001
0.22377144 0.51840383 1.9580001
0.22750096 0.51840383 1.9580001
0.23252954 0.52131623 1.9690001
0.23760001 0.52422857 1.9800001
0.24137144 0.52422857 1.9800001
0.24662858 0.52740574 1.9920001
0.25042287 0.52740574 1.9920001
0.25421715 0.52740574 1.9920001
0.25801143 0.52740574 1.9920001
0.26022857 0.52422857 1.9800001
0.264 0.52422857 1.9800001
0.26777145 0.52422857 1.9800001
0.27154288 0.52422857 1.9800001
-0.44818288 0.48640001 1.8240001
-0.44470859 0.48640001 1.8240001
-0.43881527 0.48373336 1.8140001
-0.43536001 0.48373336 1.8140001
-0.43190476 0.48373336 1.8140001
-0.42844954 0.48373336 1.8140001
-0.42499429 0.48373336 1.8140001
-0.42153907 0.48373336 1.8140001
-0.41808382 0.48373336 1.8140001
-0.4146286 0.48373336 1.8140001
-0.41117334 0.48373336 1.8140001
-0.40547049 0.48106667 1.8040001
-0.40203431 0.48106667 1.8040001
-0.3985981 0.48106667 1.8040001
-0.39516193 0.48106667 1.8040001
-0.38977143 0.47866669 1.7950001
-0.38441524 0.47626668 1.7860001
-0.38101333 0.47626668 1.7860001
-0.37761143 0.47626668 1.7860001
-0.37232381 0.47386667 1.7770001
-0.36893907 0.47386667 1.7770001
-0.36370286 0.47146669 1.7680001
-0.36033526 0.47146669 1.7680001
-0.35696763 0.47146669 1.7680001
-0.35180002 0.46906668 1.7590001
-0.34666669 0.4666667 1.7500001
-0.34333333 0.4666667 1.7500001
-0.34 0.4666667 1.7500001
-0.33666667 0.4666667 1.7500001
-0.33161905 0.46426669 1.7410001
-0.32830286 0.46426669 1.7410001
-0.32498667 0.46426669 1.7410001
-0.3216705 0.46426669 1.7410001
-0.31835431 0.46426669 1.7410001
-0.31503811 0.46426669 1.7410001
-0.31011048 0.46186668 1.7320001
-0.30681145 0.46186668 1.7320001
-0.30351239 0.46186668 1.7320001
-0.29865333 0.4594667 1.723
-0.29537144 0.4594667 1.723
-0.29208952 0.4594667 1.723
-0.28746668 0.45733336 1.715
-0.28552574 0.4594667 1.723
-0.28093335 0.45733336 1.715
-0.27766669 0.45733336 1.715
-0.27296001 0.45493335 1.7060001
-0.26844573 0.45280001 1.6980001
-0.26521143 0.45280001 1.6980001
-0.26197717 0.45280001 1.6980001
-0.2575238 0.4506667 1.6900001
-0.25430477 0.4506667 1.6900001
-0.25108573 0.4506667 1.6900001
-0.24654667 0.44826669 1.6810001
-0.24334477 0.44826669 1.6810001
-0.23785715 0.44400001 1.6650001
-0.23468572 0.44400001 1.6650001
-0.23040192 0.4418667 1.6570001
-0.22724572 0.4418667 1.6570001
-0.22408953 0.4418667 1.6570001
-0.22093335 0.4418667 1.6570001
-0.21777715 0.4418667 1.6570001
-0.21462096 0.4418667 1.6570001
-0.21146476 0.4418667 1.6570001
-0.20830858 0.4418667 1.6570001
-0.20515239 0.4418667 1.6570001
-0.20199619 0.4418667 1.6570001
-0.19788 0.43973336 1.649
-0.19473906 0.43973336 1.649
-0.19066858 0.43760002 1.641
-0.18674286 0.43573335 1.6340001
-0.18363048 0.43573335 1.6340001
-0.18051811 0.43573335 1.6340001
-0.17653716 0.43360001 1.626
-0.17344001 0.43360001 1.626
-0.17034286 0.43360001 1.626
-0.16724572 0.43360001 1.626
-0.16334096 0.43146667 1.618
-0.16025905 0.43146667 1.618
-0.15717715 0.43146667 1.618
-0.15409525 0.43146667 1.618
-0.15101334 0.43146667 1.618
-0.14729144 0.42960003 1.6110001
-0.14350668 0.42746669 1.603
-0.14045334 0.42746669 1.603
-0.1374 0.42746669 1.603
-0.13434668 0.42746669 1.603
-0.13072 0.42560002 1.5960001
-0.12768 0.42560002 1.5960001
-0.12464 0.42560002 1.5960001
-0.1216 0.42560002 1.5960001
-0.11856 0.42560002 1.5960001
-0.11501334 0.42373335 1.5890001
-0.11142286 0.42160001 1.5810001
-0.10841143 0.42160001 1.5810001
-0.1054 0.42160001 1.5810001
-0.10193525 0.41973335 1.5740001
-0.098497145 0.41786668 1.567
-0.095512383 0.41786668 1.567
-0.09252762 0.41786668 1.567
-0.089542858 0.41786668 1.567
-0.086558096 0.41786668 1.567
-0.0832 0.41600001 1.5600001
-0.080588572 0.41786668 1.567
-0.077257149 0.41600001 1.5600001
-0.074285716 0.41600001 1.5600001
-0.07131429 0.41600001 1.5600001
-0.068036191 0.41413334 1.5530001
-0.065371431 0.41600001 1.5600001
-0.062400002 0.41600001 1.5600001
-0.059428573 0.41600001 1.5600001
-0.056457143 0.41600001 1.5600001
-0.053725716 0.41786668 1.567
-0.050967623 0.41973335 1.5740001
-0.047969524 0.41973335 1.5740001
-0.045171428 0.42160001 1.5810001
-0.042373333 0.42373335 1.5890001
-0.039520003 0.42560002 1.5960001
-0.036480002 0.42560002 1.5960001
-0.033440001 0.42560002 1.5960001
-0.030533334 0.42746669 1.603
-0.027480001 0.42746669 1.603
-0.024426667 0.42746669 1.603
-0.021480002 0.42960003 1.6110001
-0.01841143 0.42960003 1.6110001
-0.015409525 0.43146667 1.618
-0.01232762 0.43146667 1.618
-0.0092457142 0.43146667 1.618
-0.006194286 0.43360001 1.626
-0.003097143 0.43360001 1.626
0 0.43573335 1.6340001
0.0031257144 0.43760002 1.641
0.0062819049 0.43973336 1.649
0.0094228573 0.43973336 1.649
0.01256381 0.43973336 1.649
0.015780954 0.4418667 1.6570001
0.018937144 0.4418667 1.6570001
0.022200001 0.44400001 1.6650001
0.025493335 0.44613335 1.6730001
0.028817143 0.44826669 1.6810001
0.032190476 0.4506667 1.6900001
0.035409525 0.4506667 1.6900001
0.03881143 0.45280001 1.6980001
0.042243812 0.45493335 1.7060001
0.045493335 0.45493335 1.7060001
0.048742861 0.45493335 1.7060001
0.052266669 0.45733336 1.715
0.055533335 0.45733336 1.715
0.058800001 0.45733336 1.715
0.062356193 0.4594667 1.723
0.065638095 0.4594667 1.723
0.069280006 0.46186668 1.7320001
0.07295619 0.46426669 1.7410001
0.076666668 0.4666667 1.7500001
0.080000006 0.4666667 1.7500001
0.083761908 0.46906668 1.7590001
0.087112382 0.46906668 1.7590001
0.090462863 0.46906668 1.7590001
0.094293334 0.47146669 1.7680001
0.097660959 0.47146669 1.7680001
0.10154286 0.47386667 1.7770001
0.10545905 0.47626668 1.7860001
0.10886095 0.47626668 1.7860001
0.11282858 0.47866669 1.7950001
0.11624762 0.47866669 1.7950001
0.11966667 0.47866669 1.7950001
0.12308572 0.47866669 1.7950001
0.12713905 0.48106667 1.8040001
0.13129905 0.48373336 1.8140001
0.13549715 0.48640001 1.8240001
0.13897143 0.48640001 1.8240001
0.14392953 0.49146667 1.8430001
0.14744 0.49146667 1.8430001
0.15176953 0.49413335 1.853
0.15613715 0.49680001 1.863
0.16054286 0.49946669 1.8730001
0.16411048 0.49946669 1.8730001
0.1676781 0.49946669 1.8730001
0.17216 0.50213337 1.8830001
0.17574668 0.50213337 1.8830001
0.17933334 0.50213337 1.8830001
0.18398857 0.50506669 1.8940001
0.1875962 0.50506669 1.8940001
0.19221334 0.50773335 1.904
0.19584 0.50773335 1.904
0.19946668 0.50773335 1.904
0.20426667 0.51066667 1.9150001
0.20900001 0.51333338 1.9250001
0.21388191 0.5162667 1.9360001
0.21756953 0.5162667 1.9360001
0.22251429 0.51920003 1.9470001
0.22750096 0.52213335 1.9580001
0.23252954 0.52506667 1.9690001
0.23760001 0.528 1.9800001
0.24137144 0.528 1.9800001
0.24662858 0.53119999 1.9920001
0.25042287 0.53119999 1.9920001
0.25562096 0.53413337 2.003
0.25801143 0.53119999 1.9920001
0.26022857 0.528 1.9800001
0.264 0.528 1.9800001
0.26777145 0.528 1.9800001
0.27154288 0.528 1.9800001
-0.44470859 0.4898743 1.8240001
-0.43881527 0.48718858 1.8140001
-0.43536001 0.48718858 1.8140001
-0.43190476 0.48718858 1.8140001
-0.42844954 0.48718858 1.8140001
-0.42499429 0.48718858 1.8140001
-0.42153907 0.48718858 1.8140001
-0.41808382 0.48718858 1.8140001
-0.4146286 0.48718858 1.8140001
-0.41117334 0.48718858 1.8140001
-0.40547049 0.48450288 1.8040001
-0.40203431 0.48450288 1.8040001
-0.39660954 0.48208573 1.7950001
-0.3931905 0.48208573 1.7950001
-0.38781714 0.47966859 1.7860001
-0.38441524 0.47966859 1.7860001
-0.38101333 0.47966859 1.7860001
-0.37570858 0.47725144 1.7770001
-0.37232381 0.47725144 1.7770001
-0.36893907 0.47725144 1.7770001
-0.3655543 0.47725144 1.7770001
-0.36033526 0.47483429 1.7680001
-0.35696763 0.47483429 1.7680001
-0.35180002 0.47241715 1.7590001
-0.34844953 0.47241715 1.7590001
-0.34333333 0.47000003 1.7500001
-0.34 0.47000003 1.7500001
-0.33666667 0.47000003 1.7500001
-0.33333334 0.47000003 1.7500001
-0.33000001 0.47000003 1.7500001
-0.32498667 0.46758288 1.7410001
-0.3216705 0.46758288 1.7410001
-0.31835431 0.46758288 1.7410001
-0.31503811 0.46758288 1.7410001
-0.31011048 0.46516573 1.7320001
-0.30681145 0.46516573 1.7320001
-0.30351239 0.46516573 1.7320001
-0.30021334 0.46516573 1.7320001
-0.29537144 0.46274859 1.723
-0.29208952 0.46274859 1.723
-0.28746668 0.46060002 1.715
-0.28420001 0.46060002 1.715
-0.28093335 0.46060002 1.715
-0.27766669 0.46060002 1.715
-0.27168 0.4560343 1.6980001
-0.26844573 0.4560343 1.6980001
-0.26521143 0.4560343 1.6980001
-0.26197717 0.4560343 1.6980001
-0.2575238 0.45388573 1.6900001
-0.25430477 0.45388573 1.6900001
-0.24974859 0.45146859 1.6810001
-0.24654667 0.45146859 1.6810001
-0.24218668 0.44932002 1.6730001
-0.23785715 0.44717145 1.6650001
-0.23468572 0.44717145 1.6650001
-0.23151429 0.44717145 1.6650001
-0.22724572 0.44502288 1.6570001
-0.22408953 0.44502288 1.6570001
-0.22093335 0.44502288 1.6570001
-0.21777715 0.44502288 1.6570001
-0.21462096 0.44502288 1.6570001
-0.21146476 0.44502288 1.6570001
-0.20830858 0.44502288 1.6570001
-0.20515239 0.44502288 1.6570001
-0.20199619 0.44502288 1.6570001
-0.19788 0.44287431 1.649
-0.19473906 0.44287431 1.649
-0.19066858 0.44072574 1.641
-0.18674286 0.43884572 1.6340001
-0.18363048 0.43884572 1.6340001
-0.18051811 0.43884572 1.6340001
-0.17653716 0.43669716 1.626
-0.17344001 0.43669716 1.626
-0.17034286 0.43669716 1.626
-0.16724572 0.43669716 1.626
-0.16414858 0.43669716 1.626
-0.16025905 0.43454859 1.618
-0.15795429 0.43669716 1.626
-0.15485714 0.43669716 1.626
-0.15101334 0.43454859 1.618
-0.14793143 0.43454859 1.618
-0.14422286 0.4326686 1.6110001
-0.14115429 0.4326686 1.6110001
-0.1374 0.43052003 1.603
-0.13434668 0.43052003 1.603
-0.13072 0.42864001 1.5960001
-0.12768 0.42864001 1.5960001
-0.12464 0.42864001 1.5960001
-0.1216 0.42864001 1.5960001
-0.11856 0.42864001 1.5960001
-0.11501334 0.42676002 1.5890001
-0.11142286 0.42461145 1.5810001
-0.10841143 0.42461145 1.5810001
-0.10493334 0.42273143 1.5740001
-0.10193525 0.42273143 1.5740001
-0.098497145 0.42085144 1.567
-0.095512383 0.42085144 1.567
-0.09252762 0.42085144 1.567
-0.089542858 0.42085144 1.567
-0.086558096 0.42085144 1.567
-0.083573334 0.42085144 1.567
-0.080588572 0.42085144 1.567
-0.07760381 0.42085144 1.567
-0.074619047 0.42085144 1.567
-0.071634285 0.42085144 1.567
-0.068342857 0.41897145 1.5600001
-0.065371431 0.41897145 1.5600001
-0.062120002 0.41709143 1.5530001
-0.059161905 0.41709143 1.5530001
-0.056457143 0.41897145 1.5600001
-0.053485718 0.41897145 1.5600001
-0.050740954 0.42085144 1.567
-0.047969524 0.42273143 1.5740001
-0.045171428 0.42461145 1.5810001
-0.042373333 0.42676002 1.5890001
-0.039520003 0.42864001 1.5960001
-0.036480002 0.42864001 1.5960001
-0.033440001 0.42864001 1.5960001
-0.030533334 0.43052003 1.603
-0.027480001 0.43052003 1.603
-0.024426667 0.43052003 1.603
-0.021480002 0.4326686 1.6110001
-0.01841143 0.4326686 1.6110001
-0.015409525 0.43454859 1.618
-0.01232762 0.43454859 1.618
-0.0092457142 0.43454859 1.618
-0.006194286 0.43669716 1.626
-0.0031123811 0.43884572 1.6340001
0 0.44072574 1.641
0.0031257144 0.44072574 1.641
0.0062819049 0.44287431 1.649
0.0094228573 0.44287431 1.649
0.01256381 0.44287431 1.649
0.015780954 0.44502288 1.6570001
0.018937144 0.44502288 1.6570001
0.022200001 0.44717145 1.6650001
0.025493335 0.44932002 1.6730001
0.028817143 0.45146859 1.6810001
0.032190476 0.45388573 1.6900001
0.035409525 0.45388573 1.6900001
0.03881143 0.4560343 1.6980001
0.042243812 0.45818287 1.7060001
0.045493335 0.45818287 1.7060001
0.048742861 0.45818287 1.7060001
0.052266669 0.46060002 1.715
0.055533335 0.46060002 1.715
0.058800001 0.46060002 1.715
0.062356193 0.46274859 1.723
0.065638095 0.46274859 1.723
0.069280006 0.46516573 1.7320001
0.07295619 0.46758288 1.7410001
0.076272383 0.46758288 1.7410001
0.080000006 0.47000003 1.7500001
0.083761908 0.47241715 1.7590001
0.087112382 0.47241715 1.7590001
0.090462863 0.47241715 1.7590001
0.094293334 0.47483429 1.7680001
0.097660959 0.47483429 1.7680001
0.10154286 0.47725144 1.7770001
0.10545905 0.47966859 1.7860001
0.10886095 0.47966859 1.7860001
0.11282858 0.48208573 1.7950001
0.11624762 0.48208573 1.7950001
0.11966667 0.48208573 1.7950001
0.12308572 0.48208573 1.7950001
0.12713905 0.48450288 1.8040001
0.13129905 0.48718858 1.8140001
0.13549715 0.4898743 1.8240001
0.13897143 0.4898743 1.8240001
0.14392953 0.49497715 1.8430001
0.14824 0.49766287 1.853
0.15258858 0.50034857 1.863
0.15613715 0.50034857 1.863
0.16054286 0.50303429 1.8730001
0.16411048 0.50303429 1.8730001
0.1676781 0.50303429 1.8730001
0.17124572 0.50303429 1.8730001
0.17574668 0.50572002 1.8830001
0.17933334 0.50572002 1.8830001
0.18398857 0.50867432 1.8940001
0.1875962 0.50867432 1.8940001
0.19221334 0.51135999 1.904
0.19584 0.51135999 1.904
0.19946668 0.51135999 1.904
0.20426667 0.51431429 1.9150001
0.20900001 0.51700002 1.9250001
0.21388191 0.51995432 1.9360001
0.21880572 0.52290857 1.9470001
0.22377144 0.52586287 1.9580001
0.22750096 0.52586287 1.9580001
0.23252954 0.52881718 1.9690001
0.23760001 0.53177142 1.9800001
0.24137144 0.53177142 1.9800001
0.24662858 0.5349943 1.9920001
0.25042287 0.5349943 1.9920001
0.25562096 0.53794861 2.003
0.25801143 0.5349943 1.9920001
0.26180571 0.5349943 1.9920001
0.2656 0.5349943 1.9920001
0.27088192 0.53794861 2.003
0.27469715 0.53794861 2.003
-0.44470859 0.4933486 1.8240001
-0.43881527 0.49064383 1.8140001
-0.43536001 0.49064383 1.8140001
-0.43428573 0.4933486 1.8240001
-0.42844954 0.49064383 1.8140001
-0.42499429 0.49064383 1.8140001
-0.42153907 0.49064383 1.8140001
-0.41808382 0.49064383 1.8140001
-0.4146286 0.49064383 1.8140001
-0.41117334 0.49064383 1.8140001
-0.40547049 0.48793906 1.8040001
-0.40203431 0.48793906 1.8040001
-0.3985981 0.48793906 1.8040001
-0.39516193 0.48793906 1.8040001
-0.38977143 0.48550478 1.7950001
-0.38441524 0.48307049 1.7860001
-0.38101333 0.48307049 1.7860001
-0.37761143 0.48307049 1.7860001
-0.37420952 0.48307049 1.7860001
-0.36893907 0.48063621 1.7770001
-0.3655543 0.48063621 1.7770001
-0.36033526 0.47820193 1.7680001
-0.35696763 0.47820193 1.7680001
-0.35180002 0.47576764 1.7590001
-0.34844953 0.47576764 1.7590001
-0.34509906 0.47576764 1.7590001
-0.34 0.47333336 1.7500001
-0.33666667 0.47333336 1.7500001
-0.33333334 0.47333336 1.7500001
-0.33000001 0.47333336 1.7500001
-0.32666668 0.47333336 1.7500001
-0.32333335 0.47333336 1.7500001
-0.31835431 0.47089908 1.7410001
-0.31503811 0.47089908 1.7410001
-0.31011048 0.46846479 1.7320001
-0.30681145 0.46846479 1.7320001
-0.30351239 0.46846479 1.7320001
-0.30021334 0.46846479 1.7320001
-0.29537144 0.46603048 1.723
-0.29208952 0.46603048 1.723
-0.28746668 0.46386668 1.715
-0.28420001 0.46386668 1.715
-0.27945906 0.4614324 1.7060001
-0.27620953 0.4614324 1.7060001
-0.27168 0.4592686 1.6980001
-0.26844573 0.4592686 1.6980001
-0.26521143 0.4592686 1.6980001
-0.26074287 0.45710477 1.6900001
-0.2575238 0.45710477 1.6900001
-0.25295049 0.45467049 1.6810001
-0.24974859 0.45467049 1.6810001
-0.24654667 0.45467049 1.6810001
-0.24218668 0.45250669 1.6730001
-0.23785715 0.45034286 1.6650001
-0.23468572 0.45034286 1.6650001
-0.23151429 0.45034286 1.6650001
-0.22724572 0.44817907 1.6570001
-0.22408953 0.44817907 1.6570001
-0.222 0.45034286 1.6650001
-0.21882857 0.45034286 1.6650001
-0.21462096 0.44817907 1.6570001
-0.21146476 0.44817907 1.6570001
-0.20830858 0.44817907 1.6570001
-0.20515239 0.44817907 1.6570001
-0.20102096 0.44601527 1.649
-0.19788 0.44601527 1.649
-0.19473906 0.44601527 1.649
-0.19066858 0.44385144 1.641
-0.18674286 0.4419581 1.6340001
-0.18363048 0.4419581 1.6340001
-0.18051811 0.4419581 1.6340001
-0.17740571 0.4419581 1.6340001
-0.17429334 0.4419581 1.6340001
-0.17034286 0.4397943 1.626
-0.16724572 0.4397943 1.626
-0.16414858 0.4397943 1.626
-0.16105144 0.4397943 1.626
-0.15795429 0.4397943 1.626
-0.15485714 0.4397943 1.626
-0.15176001 0.4397943 1.626
-0.14793143 0.4376305 1.618
-0.14422286 0.43573716 1.6110001
-0.14115429 0.43573716 1.6110001
-0.13808572 0.43573716 1.6110001
-0.13434668 0.43357334 1.603
-0.13072 0.43168002 1.5960001
-0.12768 0.43168002 1.5960001
-0.12464 0.43168002 1.5960001
-0.1216 0.43168002 1.5960001
-0.11856 0.43168002 1.5960001
-0.11501334 0.42978668 1.5890001
-0.11198667 0.42978668 1.5890001
-0.10841143 0.42762288 1.5810001
-0.1054 0.42762288 1.5810001
-0.10193525 0.42572954 1.5740001
-0.098937146 0.42572954 1.5740001
-0.095512383 0.4238362 1.567
-0.092940956 0.42572954 1.5740001
-0.089942858 0.42572954 1.5740001
-0.086558096 0.4238362 1.567
-0.083573334 0.4238362 1.567
-0.080588572 0.4238362 1.567
-0.07760381 0.4238362 1.567
-0.074619047 0.4238362 1.567
-0.071634285 0.4238362 1.567
-0.068342857 0.42194286 1.5600001
-0.065371431 0.42194286 1.5600001
-0.062400002 0.42194286 1.5600001
-0.059428573 0.42194286 1.5600001
-0.056457143 0.42194286 1.5600001
-0.053725716 0.4238362 1.567
-0.050967623 0.42572954 1.5740001
-0.047969524 0.42572954 1.5740001
-0.045400001 0.42978668 1.5890001
-0.042373333 0.42978668 1.5890001
-0.039520003 0.43168002 1.5960001
-0.036480002 0.43168002 1.5960001
-0.033440001 0.43168002 1.5960001
-0.030400001 0.43168002 1.5960001
-0.027480001 0.43357334 1.603
-0.024426667 0.43357334 1.603
-0.021480002 0.43573716 1.6110001
-0.018491428 0.4376305 1.618
-0.015409525 0.4376305 1.618
-0.01232762 0.4376305 1.618
-0.0092457142 0.4376305 1.618
-0.006194286 0.4397943 1.626
-0.0031123811 0.4419581 1.6340001
0 0.44385144 1.641
0.0031409524 0.44601527 1.649
0.0062819049 0.44601527 1.649
0.0094228573 0.44601527 1.649
0.012624762 0.44817907 1.6570001
0.015780954 0.44817907 1.6570001
0.018937144 0.44817907 1.6570001
0.022200001 0.45034286 1.6650001
0.025493335 0.45250669 1.6730001
0.028817143 0.45467049 1.6810001
0.032190476 0.45710477 1.6900001
0.035409525 0.45710477 1.6900001
0.03881143 0.4592686 1.6980001
0.042045716 0.4592686 1.6980001
0.045493335 0.4614324 1.7060001
0.048742861 0.4614324 1.7060001
0.052266669 0.46386668 1.715
0.055533335 0.46386668 1.715
0.058800001 0.46386668 1.715
0.062356193 0.46603048 1.723
0.065638095 0.46603048 1.723
0.069280006 0.46846479 1.7320001
0.072579049 0.46846479 1.7320001
0.076272383 0.47089908 1.7410001
0.080000006 0.47333336 1.7500001
0.083761908 0.47576764 1.7590001
0.087112382 0.47576764 1.7590001
0.090462863 0.47576764 1.7590001
0.094293334 0.47820193 1.7680001
0.098158099 0.48063621 1.7770001
0.10154286 0.48063621 1.7770001
0.10545905 0.48307049 1.7860001
0.10886095 0.48307049 1.7860001
0.11282858 0.48550478 1.7950001
0.11624762 0.48550478 1.7950001
0.11966667 0.48550478 1.7950001
0.12370286 0.48793906 1.8040001
0.12713905 0.48793906 1.8040001
0.13129905 0.49064383 1.8140001
0.13549715 0.4933486 1.8240001
0.13965715 0.49578288 1.8330001
0.14392953 0.49848765 1.8430001
0.14824 0.50119239 1.853
0.15258858 0.50389719 1.863
0.15613715 0.50389719 1.863
0.16054286 0.50660193 1.8730001
0.16411048 0.50660193 1.8730001
0.1676781 0.50660193 1.8730001
0.17124572 0.50660193 1.8730001
0.17574668 0.50930667 1.8830001
0.17933334 0.50930667 1.8830001
0.18398857 0.51228189 1.8940001
0.1875962 0.51228189 1.8940001
0.19221334 0.51498669 1.904
0.19584 0.51498669 1.904
0.19946668 0.51498669 1.904
0.20426667 0.51796192 1.9150001
0.20900001 0.52066666 1.9250001
0.21388191 0.52364194 1.9360001
0.21880572 0.52661717 1.9470001
0.22251429 0.52661717 1.9470001
0.22750096 0.52959239 1.9580001
0.23252954 0.53256762 1.9690001
0.23628001 0.53256762 1.9690001
0.24137144 0.53554291 1.9800001
0.24514286 0.53554291 1.9800001
0.25042287 0.53878862 1.9920001
0.25421715 0.53878862 1.9920001
0.25801143 0.53878862 1.9920001
0.26180571 0.53878862 1.9920001
0.2656 0.53878862 1.9920001
0.26939431 0.53878862 1.9920001
-0.44227049 0.49409908 1.8140001
-0.43881527 0.49409908 1.8140001
-0.43536001 0.49409908 1.8140001
-0.43428573 0.49682286 1.8240001
-0.42844954 0.49409908 1.8140001
-0.42499429 0.49409908 1.8140001
-0.42153907 0.49409908 1.8140001
-0.41808382 0.49409908 1.8140001
-0.4146286 0.49409908 1.8140001
-0.41117334 0.49409908 1.8140001
-0.40547049 0.49137527 1.8040001
-0.40203431 0.49137527 1.8040001
-0.3985981 0.49137527 1.8040001
-0.39516193 0.49137527 1.8040001
-0.38977143 0.48892382 1.7950001
-0.38441524 0.4864724 1.7860001
-0.38101333 0.4864724 1.7860001
-0.37761143 0.4864724 1.7860001
-0.37420952 0.4864724 1.7860001
-0.36893907 0.48402098 1.7770001
-0.3655543 0.48402098 1.7770001
-0.36033526 0.48156953 1.7680001
-0.35696763 0.48156953 1.7680001
-0.35360003 0.48156953 1.7680001
-0.34844953 0.47911811 1.7590001
-0.34509906 0.47911811 1.7590001
-0.3417486 0.47911811 1.7590001
-0.33666667 0.47666669 1.7500001
-0.33333334 0.47666669 1.7500001
-0.33000001 0.47666669 1.7500001
-0.32666668 0.47666669 1.7500001
-0.32333335 0.47666669 1.7500001
-0.31835431 0.47421527 1.7410001
-0.31503811 0.47421527 1.7410001
-0.31172192 0.47421527 1.7410001
-0.30681145 0.47176382 1.7320001
-0.30351239 0.47176382 1.7320001
-0.30021334 0.47176382 1.7320001
-0.29537144 0.4693124 1.723
-0.29208952 0.4693124 1.723
-0.28746668 0.46713334 1.715
-0.28270859 0.46468192 1.7060001
-0.27945906 0.46468192 1.7060001
-0.27620953 0.46468192 1.7060001
-0.27168 0.46250287 1.6980001
-0.26844573 0.46250287 1.6980001
-0.26521143 0.46250287 1.6980001
-0.26074287 0.46032384 1.6900001
-0.2575238 0.46032384 1.6900001
-0.25430477 0.46032384 1.6900001
-0.24974859 0.45787239 1.6810001
-0.24654667 0.45787239 1.6810001
-0.24218668 0.45569336 1.6730001
-0.23785715 0.45351431 1.6650001
-0.23468572 0.45351431 1.6650001
-0.23151429 0.45351431 1.6650001
-0.22724572 0.45133525 1.6570001
-0.22517143 0.45351431 1.6650001
-0.222 0.45351431 1.6650001
-0.21882857 0.45351431 1.6650001
-0.21462096 0.45133525 1.6570001
-0.21146476 0.45133525 1.6570001
-0.20830858 0.45133525 1.6570001
-0.20515239 0.45133525 1.6570001
-0.20102096 0.44915619 1.649
-0.19788 0.44915619 1.649
-0.19473906 0.44915619 1.649
-0.19066858 0.44697717 1.641
-0.18754287 0.44697717 1.641
-0.18363048 0.44507051 1.6340001
-0.18051811 0.44507051 1.6340001
-0.17740571 0.44507051 1.6340001
-0.17429334 0.44507051 1.6340001
-0.17118096 0.44507051 1.6340001
-0.16724572 0.44289145 1.626
-0.16414858 0.44289145 1.626
-0.16105144 0.44289145 1.626
-0.15795429 0.44289145 1.626
-0.15485714 0.44289145 1.626
-0.15176001 0.44289145 1.626
-0.14866287 0.44289145 1.626
-0.14422286 0.43880573 1.6110001
-0.14115429 0.43880573 1.6110001
-0.13808572 0.43880573 1.6110001
-0.13434668 0.43662667 1.603
-0.13129334 0.43662667 1.603
-0.12768 0.43472001 1.5960001
-0.12464 0.43472001 1.5960001
-0.1216 0.43472001 1.5960001
-0.11856 0.43472001 1.5960001
-0.11501334 0.43281335 1.5890001
-0.11198667 0.43281335 1.5890001
-0.10841143 0.43063429 1.5810001
-0.10493334 0.42872763 1.5740001
-0.10193525 0.42872763 1.5740001
-0.098937146 0.42872763 1.5740001
-0.095939048 0.42872763 1.5740001
-0.092940956 0.42872763 1.5740001
-0.089942858 0.42872763 1.5740001
-0.086558096 0.42682096 1.567
-0.083573334 0.42682096 1.567
-0.080588572 0.42682096 1.567
-0.07760381 0.42682096 1.567
-0.074619047 0.42682096 1.567
-0.071634285 0.42682096 1.567
-0.068342857 0.4249143 1.5600001
-0.065371431 0.4249143 1.5600001
-0.062400002 0.4249143 1.5600001
-0.059428573 0.4249143 1.5600001
-0.056457143 0.4249143 1.5600001
-0.053725716 0.42682096 1.567
-0.050740954 0.42682096 1.567
-0.047969524 0.42872763 1.5740001
-0.045171428 0.43063429 1.5810001
-0.042373333 0.43281335 1.5890001
-0.039346669 0.43281335 1.5890001
-0.036320001 0.43281335 1.5890001
-0.033440001 0.43472001 1.5960001
-0.030400001 0.43472001 1.5960001
-0.027480001 0.43662667 1.603
-0.024426667 0.43662667 1.603
-0.021480002 0.43880573 1.6110001
-0.018491428 0.44071239 1.618
-0.015409525 0.44071239 1.618
-0.01232762 0.44071239 1.618
-0.0092457142 0.44071239 1.618
-0.006194286 0.44289145 1.626
-0.0031123811 0.44507051 1.6340001
0 0.44507051 1.6340001
0.0031257144 0.44697717 1.641
0.0062819049 0.44915619 1.649
0.0094228573 0.44915619 1.649
0.01256381 0.44915619 1.649
0.015780954 0.45133525 1.6570001
0.018937144 0.45133525 1.6570001
0.022200001 0.45351431 1.6650001
0.025493335 0.45569336 1.6730001
0.028817143 0.45787239 1.6810001
0.032019049 0.45787239 1.6810001
0.035409525 0.46032384 1.6900001
0.038628574 0.46032384 1.6900001
0.042045716 0.46250287 1.6980001
0.045493335 0.46468192 1.7060001
0.048742861 0.46468192 1.7060001
0.052266669 0.46713334 1.715
0.055533335 0.46713334 1.715
0.058800001 0.46713334 1.715
0.062356193 0.4693124 1.723
0.065638095 0.4693124 1.723
0.069280006 0.47176382 1.7320001
0.072579049 0.47176382 1.7320001
0.076272383 0.47421527 1.7410001
0.080000006 0.47666669 1.7500001
0.083761908 0.47911811 1.7590001
0.087112382 0.47911811 1.7590001
0.090462863 0.47911811 1.7590001
0.094293334 0.48156953 1.7680001
0.098158099 0.48402098 1.7770001
0.10154286 0.48402098 1.7770001
0.10545905 0.4864724 1.7860001
0.10886095 0.4864724 1.7860001
0.11282858 0.48892382 1.7950001
0.11624762 0.48892382 1.7950001
0.11966667 0.48892382 1.7950001
0.12370286 0.49137527 1.8040001
0.12713905 0.49137527 1.8040001
0.13129905 0.49409908 1.8140001
0.13549715 0.49682286 1.8240001
0.13897143 0.49682286 1.8240001
0.14392953 0.50199813 1.8430001
0.14824 0.50472194 1.853
0.15258858 0.50744575 1.863
0.15613715 0.50744575 1.863
0.16054286 0.51016957 1.8730001
0.16411048 0.51016957 1.8730001
0.1676781 0.51016957 1.8730001
0.17124572 0.51016957 1.8730001
0.17481335 0.51016957 1.8730001
0.17933334 0.51289338 1.8830001
0.18292001 0.51289338 1.8830001
0.1875962 0.51588953 1.8940001
0.19120382 0.51588953 1.8940001
0.19481143 0.51588953 1.8940001
0.19946668 0.51861334 1.904
0.20426667 0.52160954 1.9150001
0.20900001 0.52433336 1.9250001
0.21388191 0.52732956 1.9360001
0.21756953 0.52732956 1.9360001
0.22377144 0.53332192 1.9580001
0.22750096 0.53332192 1.9580001
0.23252954 0.53631812 1.9690001
0.23628001 0.53631812 1.9690001
0.24137144 0.53931433 1.9800001
0.24662858 0.54258287 1.9920001
0.25042287 0.54258287 1.9920001
0.25562096 0.54557908 2.003
0.25801143 0.54258287 1.9920001
0.26180571 0.54258287 1.9920001
0.26706669 0.54557908 2.003
0.27088192 0.54557908 2.003
-0.44227049 0.4975543 1.8140001
-0.43881527 0.4975543 1.8140001
-0.43536001 0.4975543 1.8140001
-0.43428573 0.50029719 1.8240001
-0.43081143 0.50029719 1.8240001
-0.42733717 0.50029719 1.8240001
-0.42153907 0.4975543 1.8140001
-0.42038858 0.50029719 1.8240001
-0.4146286 0.4975543 1.8140001
-0.41117334 0.4975543 1.8140001
-0.40547049 0.49481145 1.8040001
-0.40203431 0.49481145 1.8040001
-0.3985981 0.49481145 1.8040001
-0.39516193 0.49481145 1.8040001
-0.38977143 0.49234289 1.7950001
-0.38441524 0.4898743 1.7860001
-0.38101333 0.4898743 1.7860001
-0.37761143 0.4898743 1.7860001
-0.37420952 0.4898743 1.7860001
-0.36893907 0.48740572 1.7770001
-0.3655543 0.48740572 1.7770001
-0.36216953 0.48740572 1.7770001
-0.35696763 0.48493716 1.7680001
-0.35360003 0.48493716 1.7680001
-0.34844953 0.48246858 1.7590001
-0.34509906 0.48246858 1.7590001
-0.3417486 0.48246858 1.7590001
-0.3383981 0.48246858 1.7590001
-0.33333334 0.48000002 1.7500001
-0.33169717 0.48246858 1.7590001
-0.32666668 0.48000002 1.7500001
-0.32333335 0.48000002 1.7500001
-0.31835431 0.47753143 1.7410001
-0.31503811 0.47753143 1.7410001
-0.31172192 0.47753143 1.7410001
-0.30681145 0.47506288 1.7320001
-0.30351239 0.47506288 1.7320001
-0.29865333 0.47259429 1.723
-0.29537144 0.47259429 1.723
-0.29208952 0.47259429 1.723
-0.28746668 0.47040001 1.715
-0.28270859 0.46793145 1.7060001
-0.27945906 0.46793145 1.7060001
-0.27620953 0.46793145 1.7060001
-0.27168 0.46573716 1.6980001
-0.26844573 0.46573716 1.6980001
-0.26521143 0.46573716 1.6980001
-0.26074287 0.46354288 1.6900001
-0.2575238 0.46354288 1.6900001
-0.25295049 0.46107429 1.6810001
-0.24974859 0.46107429 1.6810001
-0.24654667 0.46107429 1.6810001
-0.24218668 0.45888001 1.6730001
-0.23785715 0.45668572 1.6650001
-0.23468572 0.45668572 1.6650001
-0.23151429 0.45668572 1.6650001
-0.22834286 0.45668572 1.6650001
-0.22517143 0.45668572 1.6650001
-0.222 0.45668572 1.6650001
-0.21882857 0.45668572 1.6650001
-0.21565714 0.45668572 1.6650001
-0.21146476 0.45449144 1.6570001
-0.20830858 0.45449144 1.6570001
-0.20515239 0.45449144 1.6570001
-0.20102096 0.45229715 1.649
-0.19788 0.45229715 1.649
-0.19473906 0.45229715 1.649
-0.19066858 0.45010287 1.641
-0.18754287 0.45010287 1.641
-0.18441714 0.45010287 1.641
-0.18051811 0.44818288 1.6340001
-0.17740571 0.44818288 1.6340001
-0.17429334 0.44818288 1.6340001
-0.17118096 0.44818288 1.6340001
-0.16806857 0.44818288 1.6340001
-0.16414858 0.4459886 1.626
-0.16105144 0.4459886 1.626
-0.15795429 0.4459886 1.626
-0.15485714 0.4459886 1.626
-0.15176001 0.4459886 1.626
-0.14793143 0.44379431 1.618
-0.14422286 0.4418743 1.6110001
-0.14115429 0.4418743 1.6110001
-0.13808572 0.4418743 1.6110001
-0.13434668 0.43968001 1.603
-0.13129334 0.43968001 1.603
-0.12824 0.43968001 1.603
-0.12464 0.43776003 1.5960001
-0.1216 0.43776003 1.5960001
-0.11856 0.43776003 1.5960001
-0.11501334 0.43584001 1.5890001
-0.11198667 0.43584001 1.5890001
-0.10841143 0.43364573 1.5810001
-0.10493334 0.43172574 1.5740001
-0.10193525 0.43172574 1.5740001
-0.098937146 0.43172574 1.5740001
-0.095939048 0.43172574 1.5740001
-0.092940956 0.43172574 1.5740001
-0.089942858 0.43172574 1.5740001
-0.086558096 0.42980573 1.567
-0.083573334 0.42980573 1.567
-0.080588572 0.42980573 1.567
-0.07760381 0.42980573 1.567
-0.074619047 0.42980573 1.567
-0.071634285 0.42980573 1.567
-0.068342857 0.42788574 1.5600001
-0.065371431 0.42788574 1.5600001
-0.062400002 0.42788574 1.5600001
-0.059428573 0.42788574 1.5600001
-0.056457143 0.42788574 1.5600001
-0.053725716 0.42980573 1.567
-0.050740954 0.42980573 1.567
-0.047969524 0.43172574 1.5740001
-0.045171428 0.43364573 1.5810001
-0.042373333 0.43584001 1.5890001
-0.039346669 0.43584001 1.5890001
-0.036320001 0.43584001 1.5890001
-0.033440001 0.43776003 1.5960001
-0.030400001 0.43776003 1.5960001
-0.027480001 0.43968001 1.603
-0.024426667 0.43968001 1.603
-0.021480002 0.4418743 1.6110001
-0.018491428 0.44379431 1.618
-0.015409525 0.44379431 1.618
-0.01232762 0.44379431 1.618
-0.0092457142 0.44379431 1.618
-0.006194286 0.4459886 1.626
-0.0031123811 0.44818288 1.6340001
0 0.44818288 1.6340001
0.0031257144 0.45010287 1.641
0.0062819049 0.45229715 1.649
0.0094228573 0.45229715 1.649
0.012624762 0.45449144 1.6570001
0.015780954 0.45449144 1.6570001
0.018937144 0.45449144 1.6570001
0.022200001 0.45668572 1.6650001
0.025493335 0.45888001 1.6730001
0.02868 0.45888001 1.6730001
0.032019049 0.46107429 1.6810001
0.035409525 0.46354288 1.6900001
0.038628574 0.46354288 1.6900001
0.042045716 0.46573716 1.6980001
0.045493335 0.46793145 1.7060001
0.048742861 0.46793145 1.7060001
0.052266669 0.47040001 1.715
0.055533335 0.47040001 1.715
0.058800001 0.47040001 1.715
0.062356193 0.47259429 1.723
0.065638095 0.47259429 1.723
0.068920001 0.47259429 1.723
0.072579049 0.47506288 1.7320001
0.075878099 0.47506288 1.7320001
0.079588577 0.47753143 1.7410001
0.083333336 0.48000002 1.7500001
0.087112382 0.48246858 1.7590001
0.090462863 0.48246858 1.7590001
0.094293334 0.48493716 1.7680001
0.098158099 0.48740572 1.7770001
0.10154286 0.48740572 1.7770001
0.10545905 0.4898743 1.7860001
0.10940953 0.49234289 1.7950001
0.11282858 0.49234289 1.7950001
0.11624762 0.49234289 1.7950001
0.11966667 0.49234289 1.7950001
0.12370286 0.49481145 1.8040001
0.12713905 0.49481145 1.8040001
0.13129905 0.4975543 1.8140001
0.13549715 0.50029719 1.8240001
0.13965715 0.50276572 1.8330001
0.14392953 0.5055086 1.8430001
0.14824 0.50825143 1.853
0.15258858 0.51099432 1.863
0.15613715 0.51099432 1.863
0.16054286 0.51373714 1.8730001
0.16411048 0.51373714 1.8730001
0.1676781 0.51373714 1.8730001
0.17124572 0.51373714 1.8730001
0.17481335 0.51373714 1.8730001
0.17933334 0.51648003 1.8830001
0.18398857 0.51949716 1.8940001
0.1875962 0.51949716 1.8940001
0.19221334 0.52224004 1.904
0.19584 0.52224004 1.904
0.19946668 0.52224004 1.904
0.20426667 0.52525717 1.9150001
0.20791429 0.52525717 1.9150001
0.21388191 0.53101718 1.9360001
0.21880572 0.53403431 1.9470001
0.22377144 0.53705144 1.9580001
0.22750096 0.53705144 1.9580001
0.23252954 0.54006857 1.9690001
0.23628001 0.54006857 1.9690001
0.24137144 0.54308575 1.9800001
0.24662858 0.54637718 1.9920001
0.25042287 0.54637718 1.9920001
0.25562096 0.54939431 2.003
0.25801143 0.54637718 1.9920001
0.26180571 0.54637718 1.9920001
0.2656 0.54637718 1.9920001
0.26939431 0.54637718 1.9920001
0.27318859 0.54637718 1.9920001
-0.43881527 0.50100952 1.8140001
-0.43536001 0.50100952 1.8140001
-0.43428573 0.50377142 1.8240001
-0.43081143 0.50377142 1.8240001
-0.42499429 0.50100952 1.8140001
-0.42153907 0.50100952 1.8140001
-0.41808382 0.50100952 1.8140001
-0.4146286 0.50100952 1.8140001
-0.41117334 0.50100952 1.8140001
-0.40547049 0.49824762 1.8040001
-0.40203431 0.49824762 1.8040001
-0.3985981 0.49824762 1.8040001
-0.39516193 0.49824762 1.8040001
-0.38977143 0.49576193 1.7950001
-0.38635239 0.49576193 1.7950001
-0.38293335 0.49576193 1.7950001
-0.37761143 0.49327621 1.7860001
-0.37609527 0.49576193 1.7950001
-0.37080762 0.49327621 1.7860001
-0.36740574 0.49327621 1.7860001
-0.36216953 0.49079049 1.7770001
-0.35696763 0.48830479 1.7680001
-0.35360003 0.48830479 1.7680001
-0.35023239 0.48830479 1.7680001
-0.34509906 0.48581907 1.7590001
-0.3417486 0.48581907 1.7590001
-0.3383981 0.48581907 1.7590001
-0.33504763 0.48581907 1.7590001
-0.33169717 0.48581907 1.7590001
-0.32834667 0.48581907 1.7590001
-0.32333335 0.48333335 1.7500001
-0.31835431 0.48084763 1.7410001
-0.31503811 0.48084763 1.7410001
-0.31011048 0.47836193 1.7320001
-0.30681145 0.47836193 1.7320001
-0.30351239 0.47836193 1.7320001
-0.30021334 0.47836193 1.7320001
-0.29537144 0.47587621 1.723
-0.29208952 0.47587621 1.723
-0.28746668 0.4736667 1.715
-0.28270859 0.47118098 1.7060001
-0.27945906 0.47118098 1.7060001
-0.27620953 0.47118098 1.7060001
-0.27168 0.46897143 1.6980001
-0.26844573 0.46897143 1.6980001
-0.26396191 0.46676192 1.6900001
-0.26074287 0.46676192 1.6900001
-0.2575238 0.46676192 1.6900001
-0.25430477 0.46676192 1.6900001
-0.24974859 0.46427619 1.6810001
-0.24654667 0.46427619 1.6810001
-0.24218668 0.46206668 1.6730001
-0.23785715 0.45985717 1.6650001
-0.23468572 0.45985717 1.6650001
-0.23151429 0.45985717 1.6650001
-0.22834286 0.45985717 1.6650001
-0.22517143 0.45985717 1.6650001
-0.222 0.45985717 1.6650001
-0.21882857 0.45985717 1.6650001
-0.21565714 0.45985717 1.6650001
-0.21248572 0.45985717 1.6650001
-0.20830858 0.45764762 1.6570001
-0.20515239 0.45764762 1.6570001
-0.20102096 0.45543811 1.649
-0.19788 0.45543811 1.649
-0.19473906 0.45543811 1.649
-0.19066858 0.45322859 1.641
-0.18754287 0.45322859 1.641
-0.18441714 0.45322859 1.641
-0.18051811 0.45129526 1.6340001
-0.17740571 0.45129526 1.6340001
-0.17429334 0.45129526 1.6340001
-0.17118096 0.45129526 1.6340001
-0.16806857 0.45129526 1.6340001
-0.1649562 0.45129526 1.6340001
-0.16105144 0.44908574 1.626
-0.15795429 0.44908574 1.626
-0.15485714 0.44908574 1.626
-0.15176001 0.44908574 1.626
-0.14866287 0.44908574 1.626
-0.14484952 0.4468762 1.618
-0.14115429 0.44494286 1.6110001
-0.13808572 0.44494286 1.6110001
-0.13434668 0.44273335 1.603
-0.13129334 0.44273335 1.603
-0.12824 0.44273335 1.603
-0.12464 0.44080001 1.5960001
-0.1216 0.44080001 1.5960001
-0.11856 0.44080001 1.5960001
-0.11501334 0.43886667 1.5890001
-0.11142286 0.43665716 1.5810001
-0.10841143 0.43665716 1.5810001
-0.10493334 0.43472382 1.5740001
-0.10193525 0.43472382 1.5740001
-0.098937146 0.43472382 1.5740001
-0.095939048 0.43472382 1.5740001
-0.092940956 0.43472382 1.5740001
-0.089942858 0.43472382 1.5740001
-0.086944766 0.43472382 1.5740001
-0.083946668 0.43472382 1.5740001
-0.080948576 0.43472382 1.5740001
-0.07760381 0.43279049 1.567
-0.074619047 0.43279049 1.567
-0.071634285 0.43279049 1.567
-0.068342857 0.43085715 1.5600001
-0.065371431 0.43085715 1.5600001
-0.062400002 0.43085715 1.5600001
-0.059161905 0.42892382 1.5530001
-0.056457143 0.43085715 1.5600001
-0.053725716 0.43279049 1.567
-0.050967623 0.43472382 1.5740001
-0.04818286 0.43665716 1.5810001
-0.045400001 0.43886667 1.5890001
-0.042373333 0.43886667 1.5890001
-0.039520003 0.44080001 1.5960001
-0.036320001 0.43886667 1.5890001
-0.033440001 0.44080001 1.5960001
-0.030400001 0.44080001 1.5960001
-0.027360002 0.44080001 1.5960001
-0.024426667 0.44273335 1.603
-0.021480002 0.44494286 1.6110001
-0.018491428 0.4468762 1.618
-0.015409525 0.4468762 1.618
-0.01232762 0.4468762 1.618
-0.0092457142 0.4468762 1.618
-0.006194286 0.44908574 1.626
-0.0031123811 0.45129526 1.6340001
0 0.45129526 1.6340001
0.0031409524 0.45543811 1.649
0.0062819049 0.45543811 1.649
0.0094228573 0.45543811 1.649
0.012624762 0.45764762 1.6570001
0.015780954 0.45764762 1.6570001
0.018937144 0.45764762 1.6570001
0.022200001 0.45985717 1.6650001
0.025371429 0.45985717 1.6650001
0.02868 0.46206668 1.6730001
0.032019049 0.46427619 1.6810001
0.035409525 0.46676192 1.6900001
0.038628574 0.46676192 1.6900001
0.042045716 0.46897143 1.6980001
0.045280002 0.46897143 1.6980001
0.048742861 0.47118098 1.7060001
0.052266669 0.4736667 1.715
0.055533335 0.4736667 1.715
