# .PCD v0.7 - Point Cloud Data file format
VERSION 0.7
FIELDS x y z
SIZE 4 4 4
TYPE F F F
COUNT 1 1 1
WIDTH 1498
HEIGHT 1
VIEWPOINT 0 0 0 1 0 0 0
POINTS 1498
DATA ascii
0.040064763 0.16025905 1.618
0.04314667 0.16025905 1.618
0.046228573 0.16025905 1.618
0.049310479 0.16025905 1.618
0.052392382 0.16025905 1.618
0.055474289 0.16025905 1.618
0.058556192 0.16025905 1.618
0.061638098 0.16025905 1.618
0.064720005 0.16025905 1.618
0.067801908 0.16025905 1.618
0.070883811 0.16025905 1.618
0.074331433 0.16105144 1.626
0.077428572 0.16105144 1.626
0.080525719 0.16105144 1.626
0.084034286 0.16184382 1.6340001
0.087520003 0.16253714 1.641
0.091087624 0.16332953 1.649
0.094685718 0.16412191 1.6570001
0.099790476 0.16739048 1.6900001
0.10300953 0.16739048 1.6900001
0.10943429 0.17244191 1.7410001
0.1139162 0.17422476 1.7590001
0.12093334 0.17967239 1.8140001
0.1250743 0.18066287 1.8240001
0.12988763 0.18254477 1.8430001
0.13484572 0.18452573 1.863
0.1383943 0.18452573 1.863
0.14270477 0.18551619 1.8730001
0.14627239 0.18551619 1.8730001
0.15664001 0.19393525 1.9580001
0.16217144 0.19611429 1.9800001
0.16594286 0.19611429 1.9800001
0.17168573 0.19839239 2.003
0.17550096 0.19839239 2.003
0.18692572 0.20681144 2.0880001
0.19090286 0.20681144 2.0880001
0.19488001 0.20681144 2.0880001
0.19885714 0.20681144 2.0880001
0.20283429 0.20681144 2.0880001
-0.38546669 0.17313334 1.715
-0.38019431 0.17222477 1.7060001
-0.37694478 0.17222477 1.7060001
-0.37369525 0.17222477 1.7060001
-0.37044573 0.17222477 1.7060001
-0.3671962 0.17222477 1.7060001
-0.36394668 0.17222477 1.7060001
-0.36069715 0.17222477 1.7060001
-0.35744762 0.17222477 1.7060001
-0.3541981 0.17222477 1.7060001
-0.35094857 0.17222477 1.7060001
-0.34769905 0.17222477 1.7060001
-0.34444955 0.17222477 1.7060001
-0.34120002 0.17222477 1.7060001
-0.3379505 0.17222477 1.7060001
-0.33470097 0.17222477 1.7060001
-0.33145145 0.17222477 1.7060001
-0.32820192 0.17222477 1.7060001
-0.32495239 0.17222477 1.7060001
-0.32170287 0.17222477 1.7060001
-0.31845334 0.17222477 1.7060001
-0.31520382 0.17222477 1.7060001
-0.31195429 0.17222477 1.7060001
-0.30870476 0.17222477 1.7060001
-0.30545524 0.17222477 1.7060001
-0.30078858 0.17141715 1.6980001
-0.29755428 0.17141715 1.6980001
-0.29432002 0.17141715 1.6980001
-0.29108572 0.17141715 1.6980001
-0.28920764 0.17222477 1.7060001
-0.28595811 0.17222477 1.7060001
-0.28270859 0.17222477 1.7060001
-0.27814859 0.17141715 1.6980001
-0.27361906 0.17060953 1.6900001
-0.27168 0.17141715 1.6980001
-0.26844573 0.17141715 1.6980001
-0.26521143 0.17141715 1.6980001
-0.26074287 0.17060953 1.6900001
-0.2575238 0.17060953 1.6900001
-0.25550857 0.17141715 1.6980001
-0.2522743 0.17141715 1.6980001
-0.24904001 0.17141715 1.6980001
-0.24580573 0.17141715 1.6980001
-0.24257144 0.17141715 1.6980001
-0.23933715 0.17141715 1.6980001
-0.23610286 0.17141715 1.6980001
-0.23286858 0.17141715 1.6980001
-0.2296343 0.17141715 1.6980001
-0.22533335 0.17060953 1.6900001
-0.22211429 0.17060953 1.6900001
-0.21889524 0.17060953 1.6900001
-0.2156762 0.17060953 1.6900001
-0.21245715 0.17060953 1.6900001
-0.2092381 0.17060953 1.6900001
-0.20492192 0.16970097 1.6810001
-0.20280001 0.17060953 1.6900001
-0.19958095 0.17060953 1.6900001
-0.1953162 0.16970097 1.6810001
-0.19211429 0.16970097 1.6810001
-0.18891239 0.16970097 1.6810001
-0.18571049 0.16970097 1.6810001
-0.18250857 0.16970097 1.6810001
-0.17930667 0.16970097 1.6810001
-0.17610477 0.16970097 1.6810001
-0.17290287 0.16970097 1.6810001
-0.16970097 0.16970097 1.6810001
-0.16649905 0.16970097 1.6810001
-0.16329715 0.16970097 1.6810001
-0.16009524 0.16970097 1.6810001
-0.15614668 0.16889334 1.6730001
-0.15296 0.16889334 1.6730001
-0.14977334 0.16889334 1.6730001
-0.14658667 0.16889334 1.6730001
-0.1434 0.16889334 1.6730001
-0.14021334 0.16889334 1.6730001
-0.13702667 0.16889334 1.6730001
-0.13448 0.16970097 1.6810001
-0.13065334 0.16889334 1.6730001
-0.12746668 0.16889334 1.6730001
-0.12428001 0.16889334 1.6730001
-0.12167238 0.16970097 1.6810001
-0.11790667 0.16889334 1.6730001
-0.11472 0.16889334 1.6730001
-0.11153334 0.16889334 1.6730001
-0.10834667 0.16889334 1.6730001
-0.10465714 0.16808572 1.6650001
-0.10148571 0.16808572 1.6650001
-0.098314293 0.16808572 1.6650001
-0.095142864 0.16808572 1.6650001
-0.091971435 0.16808572 1.6650001
-0.088800006 0.16808572 1.6650001
-0.085217148 0.1672781 1.6570001
-0.082060955 0.1672781 1.6570001
-0.078904763 0.1672781 1.6570001
-0.075748578 0.1672781 1.6570001
-0.072592385 0.1672781 1.6570001
-0.069436193 0.1672781 1.6570001
-0.06628 0.1672781 1.6570001
-0.063123815 0.1672781 1.6570001
-0.059967622 0.1672781 1.6570001
-0.05681143 0.1672781 1.6570001
-0.053655241 0.1672781 1.6570001
-0.050499048 0.1672781 1.6570001
-0.047342859 0.1672781 1.6570001
-0.044186667 0.1672781 1.6570001
-0.041030478 0.1672781 1.6570001
-0.037874289 0.1672781 1.6570001
-0.034550477 0.16647048 1.649
-0.031409524 0.16647048 1.649
-0.028131429 0.16566287 1.641
-0.025005715 0.16566287 1.641
-0.021880001 0.16566287 1.641
-0.018674286 0.1649562 1.6340001
-0.015561906 0.1649562 1.6340001
-0.012449524 0.1649562 1.6340001
-0.009337143 0.1649562 1.6340001
-0.0062247622 0.1649562 1.6340001
-0.0031123811 0.1649562 1.6340001
0 0.16414858 1.626
0.0031123811 0.1649562 1.6340001
0.0062247622 0.1649562 1.6340001
0.0092914291 0.16414858 1.626
0.012388572 0.16414858 1.626
0.015485715 0.16414858 1.626
0.018582858 0.16414858 1.626
0.021680001 0.16414858 1.626
0.024777144 0.16414858 1.626
0.027874287 0.16414858 1.626
0.03097143 0.16414858 1.626
0.034068573 0.16414858 1.626
0.037165716 0.16414858 1.626
0.040262859 0.16414858 1.626
0.043360002 0.16414858 1.626
0.046457145 0.16414858 1.626
0.049554288 0.16414858 1.626
0.052392382 0.16334096 1.618
0.055474289 0.16334096 1.618
0.058556192 0.16334096 1.618
0.061638098 0.16334096 1.618
0.064720005 0.16334096 1.618
0.067801908 0.16334096 1.618
0.070883811 0.16334096 1.618
0.073965713 0.16334096 1.618
0.077428572 0.16414858 1.626
0.080525719 0.16414858 1.626
0.083622858 0.16414858 1.626
0.087520003 0.16566287 1.641
0.091087624 0.16647048 1.649
0.094685718 0.1672781 1.6570001
0.098314293 0.16808572 1.6650001
0.1061181 0.17575811 1.7410001
0.11000001 0.17666668 1.7500001
0.1139162 0.17757525 1.7590001
0.12093334 0.18312763 1.8140001
0.1250743 0.18413715 1.8240001
0.12988763 0.18605524 1.8430001
0.13484572 0.18807429 1.863
0.13913715 0.18908381 1.8730001
0.14346667 0.19009334 1.8830001
0.15119238 0.19544382 1.9360001
0.15576001 0.19655429 1.9470001
0.16127048 0.19877525 1.9690001
0.16594286 0.19988573 1.9800001
0.17074287 0.20109715 1.9920001
0.17453715 0.20109715 1.9920001
0.18692572 0.21078858 2.0880001
0.19090286 0.21078858 2.0880001
0.19488001 0.21078858 2.0880001
0.19885714 0.21078858 2.0880001
0.20283429 0.21078858 2.0880001
-0.39131048 0.17907429 1.7410001
-0.38019431 0.17547429 1.7060001
-0.37893334 0.17640001 1.715
-0.37369525 0.17547429 1.7060001
-0.37044573 0.17547429 1.7060001
-0.3671962 0.17547429 1.7060001
-0.36394668 0.17547429 1.7060001
-0.36069715 0.17547429 1.7060001
-0.35744762 0.17547429 1.7060001
-0.3541981 0.17547429 1.7060001
-0.34930286 0.17465143 1.6980001
-0.34769905 0.17547429 1.7060001
-0.34444955 0.17547429 1.7060001
-0.34120002 0.17547429 1.7060001
-0.3379505 0.17547429 1.7060001
-0.33470097 0.17547429 1.7060001
-0.33145145 0.17547429 1.7060001
-0.32820192 0.17547429 1.7060001
-0.32495239 0.17547429 1.7060001
-0.32170287 0.17547429 1.7060001
-0.31845334 0.17547429 1.7060001
-0.31520382 0.17547429 1.7060001
-0.31195429 0.17547429 1.7060001
-0.30870476 0.17547429 1.7060001
-0.30402288 0.17465143 1.6980001
-0.30078858 0.17465143 1.6980001
-0.29755428 0.17465143 1.6980001
-0.29432002 0.17465143 1.6980001
-0.29108572 0.17465143 1.6980001
-0.28785145 0.17465143 1.6980001
-0.28595811 0.17547429 1.7060001
-0.28270859 0.17547429 1.7060001
-0.27814859 0.17465143 1.6980001
-0.27491429 0.17465143 1.6980001
-0.27040002 0.17382857 1.6900001
-0.26718095 0.17382857 1.6900001
-0.26396191 0.17382857 1.6900001
-0.26074287 0.17382857 1.6900001
-0.2575238 0.17382857 1.6900001
-0.25430477 0.17382857 1.6900001
-0.25108573 0.17382857 1.6900001
-0.24786668 0.17382857 1.6900001
-0.24580573 0.17465143 1.6980001
-0.24142858 0.17382857 1.6900001
-0.23933715 0.17465143 1.6980001
-0.23610286 0.17465143 1.6980001
-0.23286858 0.17465143 1.6980001
-0.2296343 0.17465143 1.6980001
-0.22533335 0.17382857 1.6900001
-0.22211429 0.17382857 1.6900001
-0.21889524 0.17382857 1.6900001
-0.21452762 0.17290287 1.6810001
-0.21132572 0.17290287 1.6810001
-0.20812382 0.17290287 1.6810001
-0.20492192 0.17290287 1.6810001
-0.20172001 0.17290287 1.6810001
-0.1985181 0.17290287 1.6810001
-0.1953162 0.17290287 1.6810001
-0.19211429 0.17290287 1.6810001
-0.18891239 0.17290287 1.6810001
-0.18571049 0.17290287 1.6810001
-0.18250857 0.17290287 1.6810001
-0.17930667 0.17290287 1.6810001
-0.17610477 0.17290287 1.6810001
-0.17290287 0.17290287 1.6810001
-0.16970097 0.17290287 1.6810001
-0.16739048 0.17382857 1.6900001
-0.16329715 0.17290287 1.6810001
-0.16009524 0.17290287 1.6810001
-0.15689334 0.17290287 1.6810001
-0.15369144 0.17290287 1.6810001
-0.14977334 0.17208001 1.6730001
-0.14658667 0.17208001 1.6730001
-0.1434 0.17208001 1.6730001
-0.14021334 0.17208001 1.6730001
-0.13702667 0.17208001 1.6730001
-0.13384001 0.17208001 1.6730001
-0.13065334 0.17208001 1.6730001
-0.12746668 0.17208001 1.6730001
-0.12428001 0.17208001 1.6730001
-0.12109334 0.17208001 1.6730001
-0.11790667 0.17208001 1.6730001
-0.11472 0.17208001 1.6730001
-0.11206667 0.17290287 1.6810001
-0.10834667 0.17208001 1.6730001
-0.10516001 0.17208001 1.6730001
-0.10148571 0.17125715 1.6650001
-0.098314293 0.17125715 1.6650001
-0.095142864 0.17125715 1.6650001
-0.091971435 0.17125715 1.6650001
-0.088800006 0.17125715 1.6650001
-0.085217148 0.1704343 1.6570001
-0.082060955 0.1704343 1.6570001
-0.078904763 0.1704343 1.6570001
-0.075748578 0.1704343 1.6570001
-0.072592385 0.1704343 1.6570001
-0.069436193 0.1704343 1.6570001
-0.06628 0.1704343 1.6570001
-0.063123815 0.1704343 1.6570001
-0.059967622 0.1704343 1.6570001
-0.05681143 0.1704343 1.6570001
-0.053655241 0.1704343 1.6570001
-0.050499048 0.1704343 1.6570001
-0.047342859 0.1704343 1.6570001
-0.044186667 0.1704343 1.6570001
-0.041030478 0.1704343 1.6570001
-0.037874289 0.1704343 1.6570001
-0.034550477 0.16961144 1.649
-0.031409524 0.16961144 1.649
-0.028131429 0.16878858 1.641
-0.024899049 0.16806857 1.6340001
-0.021786667 0.16806857 1.6340001
-0.018674286 0.16806857 1.6340001
-0.015485715 0.16724572 1.626
-0.012388572 0.16724572 1.626
-0.009337143 0.16806857 1.6340001
-0.0062247622 0.16806857 1.6340001
-0.0031123811 0.16806857 1.6340001
0 0.16806857 1.6340001
0.0031123811 0.16806857 1.6340001
0.0062247622 0.16806857 1.6340001
0.0092914291 0.16724572 1.626
0.012388572 0.16724572 1.626
0.015485715 0.16724572 1.626
0.018582858 0.16724572 1.626
0.021680001 0.16724572 1.626
0.024777144 0.16724572 1.626
0.027874287 0.16724572 1.626
0.03097143 0.16724572 1.626
0.034068573 0.16724572 1.626
0.037165716 0.16724572 1.626
0.040262859 0.16724572 1.626
0.043360002 0.16724572 1.626
0.046457145 0.16724572 1.626
0.049554288 0.16724572 1.626
0.052651431 0.16724572 1.626
0.055748574 0.16724572 1.626
0.058556192 0.16642286 1.618
0.061638098 0.16642286 1.618
0.064720005 0.16642286 1.618
0.067801908 0.16642286 1.618
0.070883811 0.16642286 1.618
0.073965713 0.16642286 1.618
0.077428572 0.16724572 1.626
0.080525719 0.16724572 1.626
0.084034286 0.16806857 1.6340001
0.087520003 0.16878858 1.641
0.091087624 0.16961144 1.649
0.094685718 0.1704343 1.6570001
0.098314293 0.17125715 1.6650001
0.1061181 0.17907429 1.7410001
0.11000001 0.18000001 1.7500001
0.1139162 0.18092573 1.7590001
0.12093334 0.18658286 1.8140001
0.1250743 0.18761143 1.8240001
0.12988763 0.18956572 1.8430001
0.13484572 0.19162287 1.863
0.13913715 0.19265144 1.8730001
0.14346667 0.19368 1.8830001
0.15119238 0.19913143 1.9360001
0.15576001 0.20026286 1.9470001
0.16127048 0.20252572 1.9690001
0.16594286 0.20365715 1.9800001
0.17074287 0.20489144 1.9920001
0.17453715 0.20489144 1.9920001
0.18692572 0.21476573 2.0880001
0.19090286 0.21476573 2.0880001
0.19488001 0.21476573 2.0880001
0.19885714 0.21476573 2.0880001
0.20283429 0.21476573 2.0880001
0.20681144 0.21476573 2.0880001
-0.39131048 0.18239048 1.7410001
-0.3822 0.17966667 1.715
-0.37893334 0.17966667 1.715
-0.37566668 0.17966667 1.715
-0.37044573 0.17872381 1.7060001
-0.3671962 0.17872381 1.7060001
-0.36394668 0.17872381 1.7060001
-0.36069715 0.17872381 1.7060001
-0.35744762 0.17872381 1.7060001
-0.3541981 0.17872381 1.7060001
-0.34930286 0.17788573 1.6980001
-0.34769905 0.17872381 1.7060001
-0.34444955 0.17872381 1.7060001
-0.34120002 0.17872381 1.7060001
-0.3379505 0.17872381 1.7060001
-0.33470097 0.17872381 1.7060001
-0.33145145 0.17872381 1.7060001
-0.32820192 0.17872381 1.7060001
-0.32342857 0.17788573 1.6980001
-0.32170287 0.17872381 1.7060001
-0.31845334 0.17872381 1.7060001
-0.31520382 0.17872381 1.7060001
-0.31049144 0.17788573 1.6980001
-0.30725715 0.17788573 1.6980001
-0.30402288 0.17788573 1.6980001
-0.30078858 0.17788573 1.6980001
-0.29755428 0.17788573 1.6980001
-0.29432002 0.17788573 1.6980001
-0.29108572 0.17788573 1.6980001
-0.28785145 0.17788573 1.6980001
-0.28461716 0.17788573 1.6980001
-0.28138286 0.17788573 1.6980001
-0.27814859 0.17788573 1.6980001
-0.27361906 0.17704763 1.6900001
-0.27040002 0.17704763 1.6900001
-0.26718095 0.17704763 1.6900001
-0.26396191 0.17704763 1.6900001
-0.26074287 0.17704763 1.6900001
-0.2575238 0.17704763 1.6900001
-0.25430477 0.17704763 1.6900001
-0.25108573 0.17704763 1.6900001
-0.24786668 0.17704763 1.6900001
-0.24464762 0.17704763 1.6900001
-0.24142858 0.17704763 1.6900001
-0.23820953 0.17704763 1.6900001
-0.23499048 0.17704763 1.6900001
-0.23177144 0.17704763 1.6900001
-0.22855239 0.17704763 1.6900001
-0.22533335 0.17704763 1.6900001
-0.22211429 0.17704763 1.6900001
-0.21889524 0.17704763 1.6900001
-0.21452762 0.17610477 1.6810001
-0.21132572 0.17610477 1.6810001
-0.20812382 0.17610477 1.6810001
-0.20492192 0.17610477 1.6810001
-0.20172001 0.17610477 1.6810001
-0.1985181 0.17610477 1.6810001
-0.1953162 0.17610477 1.6810001
-0.19211429 0.17610477 1.6810001
-0.18891239 0.17610477 1.6810001
-0.18571049 0.17610477 1.6810001
-0.18164001 0.17526667 1.6730001
-0.17845334 0.17526667 1.6730001
-0.17610477 0.17610477 1.6810001
-0.17290287 0.17610477 1.6810001
-0.16970097 0.17610477 1.6810001
-0.16739048 0.17704763 1.6900001
-0.16329715 0.17610477 1.6810001
-0.16009524 0.17610477 1.6810001
-0.15689334 0.17610477 1.6810001
-0.15369144 0.17610477 1.6810001
-0.15048952 0.17610477 1.6810001
-0.14658667 0.17526667 1.6730001
-0.1434 0.17526667 1.6730001
-0.14021334 0.17526667 1.6730001
-0.13702667 0.17526667 1.6730001
-0.13384001 0.17526667 1.6730001
-0.13002858 0.17442858 1.6650001
-0.12685715 0.17442858 1.6650001
-0.12368572 0.17442858 1.6650001
-0.12109334 0.17526667 1.6730001
-0.11790667 0.17526667 1.6730001
-0.11472 0.17526667 1.6730001
-0.11153334 0.17526667 1.6730001
-0.10834667 0.17526667 1.6730001
-0.10516001 0.17526667 1.6730001
-0.10148571 0.17442858 1.6650001
-0.098314293 0.17442858 1.6650001
-0.095142864 0.17442858 1.6650001
-0.091971435 0.17442858 1.6650001
-0.088800006 0.17442858 1.6650001
-0.085217148 0.17359048 1.6570001
-0.082060955 0.17359048 1.6570001
-0.078904763 0.17359048 1.6570001
-0.075748578 0.17359048 1.6570001
-0.072592385 0.17359048 1.6570001
-0.069436193 0.17359048 1.6570001
-0.06628 0.17359048 1.6570001
-0.063123815 0.17359048 1.6570001
-0.059967622 0.17359048 1.6570001
-0.05681143 0.17359048 1.6570001
-0.053655241 0.17359048 1.6570001
-0.050499048 0.17359048 1.6570001
-0.047342859 0.17359048 1.6570001
-0.044186667 0.17359048 1.6570001
-0.041030478 0.17359048 1.6570001
-0.037874289 0.17359048 1.6570001
-0.034718096 0.17359048 1.6570001
-0.031409524 0.17275238 1.649
-0.028131429 0.17191429 1.641
-0.025005715 0.17191429 1.641
-0.021880001 0.17191429 1.641
-0.018674286 0.17118096 1.6340001
-0.015485715 0.17034286 1.626
-0.012388572 0.17034286 1.626
-0.009337143 0.17118096 1.6340001
-0.0062247622 0.17118096 1.6340001
-0.0031123811 0.17118096 1.6340001
0 0.17034286 1.626
0.003097143 0.17034286 1.626
0.0062247622 0.17118096 1.6340001
0.0092914291 0.17034286 1.626
0.012388572 0.17034286 1.626
0.015485715 0.17034286 1.626
0.018582858 0.17034286 1.626
0.021680001 0.17034286 1.626
0.024777144 0.17034286 1.626
0.027874287 0.17034286 1.626
0.03097143 0.17034286 1.626
0.034068573 0.17034286 1.626
0.037165716 0.17034286 1.626
0.040262859 0.17034286 1.626
0.043360002 0.17034286 1.626
0.046457145 0.17034286 1.626
0.049554288 0.17034286 1.626
0.052651431 0.17034286 1.626
0.055748574 0.17034286 1.626
0.058845717 0.17034286 1.626
0.06194286 0.17034286 1.626
0.064720005 0.16950476 1.618
0.067801908 0.16950476 1.618
0.070883811 0.16950476 1.618
0.074331433 0.17034286 1.626
0.077428572 0.17034286 1.626
0.080525719 0.17034286 1.626
0.084034286 0.17118096 1.6340001
0.087520003 0.17191429 1.641
0.091087624 0.17275238 1.649
0.094685718 0.17359048 1.6570001
0.099259049 0.17610477 1.6810001
0.10398477 0.17872381 1.7060001
0.10943429 0.18239048 1.7410001
0.11333334 0.18333334 1.7500001
0.12093334 0.1900381 1.8140001
0.12569143 0.19202858 1.8330001
0.12988763 0.19307619 1.8430001
0.13412191 0.19412382 1.853
0.13913715 0.19621906 1.8730001
0.14346667 0.19726667 1.8830001
0.15119238 0.20281905 1.9360001
0.15576001 0.20397143 1.9470001
0.16036953 0.20512381 1.9580001
0.16502096 0.20627619 1.9690001
0.17074287 0.20868573 1.9920001
0.17453715 0.20868573 1.9920001
0.18692572 0.21874286 2.0880001
0.19209144 0.22010477 2.1010001
0.19488001 0.21874286 2.0880001
0.20009525 0.22010477 2.1010001
0.20409715 0.22010477 2.1010001
0.20809905 0.22010477 2.1010001
-0.39333335 0.18666667 1.7500001
-0.3822 0.18293335 1.715
-0.37893334 0.18293335 1.715
-0.37566668 0.18293335 1.715
-0.37044573 0.18197334 1.7060001
-0.3671962 0.18197334 1.7060001
-0.36394668 0.18197334 1.7060001
-0.36069715 0.18197334 1.7060001
-0.35744762 0.18197334 1.7060001
-0.3541981 0.18197334 1.7060001
-0.34930286 0.18112001 1.6980001
-0.34769905 0.18197334 1.7060001
-0.34444955 0.18197334 1.7060001
-0.34120002 0.18197334 1.7060001
-0.3379505 0.18197334 1.7060001
-0.33470097 0.18197334 1.7060001
-0.33145145 0.18197334 1.7060001
-0.32820192 0.18197334 1.7060001
-0.32342857 0.18112001 1.6980001
-0.32170287 0.18197334 1.7060001
-0.31845334 0.18197334 1.7060001
-0.31520382 0.18197334 1.7060001
-0.31195429 0.18197334 1.7060001
-0.30725715 0.18112001 1.6980001
-0.30402288 0.18112001 1.6980001
-0.30078858 0.18112001 1.6980001
-0.29755428 0.18112001 1.6980001
-0.29432002 0.18112001 1.6980001
-0.29108572 0.18112001 1.6980001
-0.28785145 0.18112001 1.6980001
-0.28461716 0.18112001 1.6980001
-0.28138286 0.18112001 1.6980001
-0.27814859 0.18112001 1.6980001
-0.27361906 0.18026668 1.6900001
-0.27040002 0.18026668 1.6900001
-0.26718095 0.18026668 1.6900001
-0.26396191 0.18026668 1.6900001
-0.26074287 0.18026668 1.6900001
-0.2575238 0.18026668 1.6900001
-0.25430477 0.18026668 1.6900001
-0.25108573 0.18026668 1.6900001
-0.24786668 0.18026668 1.6900001
-0.24464762 0.18026668 1.6900001
-0.24142858 0.18026668 1.6900001
-0.23820953 0.18026668 1.6900001
-0.23499048 0.18026668 1.6900001
-0.23177144 0.18026668 1.6900001
-0.22855239 0.18026668 1.6900001
-0.22413334 0.17930667 1.6810001
-0.22093144 0.17930667 1.6810001
-0.21772954 0.17930667 1.6810001
-0.21452762 0.17930667 1.6810001
-0.21132572 0.17930667 1.6810001
-0.20812382 0.17930667 1.6810001
-0.20492192 0.17930667 1.6810001
-0.20172001 0.17930667 1.6810001
-0.1985181 0.17930667 1.6810001
-0.1953162 0.17930667 1.6810001
-0.19211429 0.17930667 1.6810001
-0.18891239 0.17930667 1.6810001
-0.18571049 0.17930667 1.6810001
-0.18250857 0.17930667 1.6810001
-0.17930667 0.17930667 1.6810001
-0.17610477 0.17930667 1.6810001
-0.17290287 0.17930667 1.6810001
-0.16970097 0.17930667 1.6810001
-0.16739048 0.18026668 1.6900001
-0.16417143 0.18026668 1.6900001
-0.16095239 0.18026668 1.6900001
-0.15689334 0.17930667 1.6810001
-0.15369144 0.17930667 1.6810001
-0.15048952 0.17930667 1.6810001
-0.14658667 0.17845334 1.6730001
-0.1434 0.17845334 1.6730001
-0.14021334 0.17845334 1.6730001
-0.13702667 0.17845334 1.6730001
-0.13384001 0.17845334 1.6730001
-0.13065334 0.17845334 1.6730001
-0.12685715 0.17760001 1.6650001
-0.12368572 0.17760001 1.6650001
-0.12109334 0.17845334 1.6730001
-0.11734286 0.17760001 1.6650001
-0.11417143 0.17760001 1.6650001
-0.11153334 0.17845334 1.6730001
-0.10834667 0.17845334 1.6730001
-0.10516001 0.17845334 1.6730001
-0.10148571 0.17760001 1.6650001
-0.098314293 0.17760001 1.6650001
-0.095142864 0.17760001 1.6650001
-0.091971435 0.17760001 1.6650001
-0.088800006 0.17760001 1.6650001
-0.085217148 0.17674667 1.6570001
-0.082060955 0.17674667 1.6570001
-0.078904763 0.17674667 1.6570001
-0.075748578 0.17674667 1.6570001
-0.072592385 0.17674667 1.6570001
-0.069436193 0.17674667 1.6570001
-0.06628 0.17674667 1.6570001
-0.063123815 0.17674667 1.6570001
-0.059967622 0.17674667 1.6570001
-0.05681143 0.17674667 1.6570001
-0.053655241 0.17674667 1.6570001
-0.050499048 0.17674667 1.6570001
-0.047342859 0.17674667 1.6570001
-0.044186667 0.17674667 1.6570001
-0.041030478 0.17674667 1.6570001
-0.037874289 0.17674667 1.6570001
-0.034550477 0.17589334 1.649
-0.031409524 0.17589334 1.649
-0.028131429 0.17504001 1.641
-0.025005715 0.17504001 1.641
-0.021880001 0.17504001 1.641
-0.018674286 0.17429334 1.6340001
-0.015561906 0.17429334 1.6340001
-0.012449524 0.17429334 1.6340001
-0.009337143 0.17429334 1.6340001
-0.0062247622 0.17429334 1.6340001
-0.0031123811 0.17429334 1.6340001
0 0.17344001 1.626
0.0031123811 0.17429334 1.6340001
0.0062247622 0.17429334 1.6340001
0.0092914291 0.17344001 1.626
0.012388572 0.17344001 1.626
0.015485715 0.17344001 1.626
0.018582858 0.17344001 1.626
0.021680001 0.17344001 1.626
0.024777144 0.17344001 1.626
0.027874287 0.17344001 1.626
0.03097143 0.17344001 1.626
0.034068573 0.17344001 1.626
0.037165716 0.17344001 1.626
0.040262859 0.17344001 1.626
0.043360002 0.17344001 1.626
0.046457145 0.17344001 1.626
0.049554288 0.17344001 1.626
0.052651431 0.17344001 1.626
0.055748574 0.17344001 1.626
0.058845717 0.17344001 1.626
0.06194286 0.17344001 1.626
0.064720005 0.17258668 1.618
0.067801908 0.17258668 1.618
0.070883811 0.17258668 1.618
0.074331433 0.17344001 1.626
0.077428572 0.17344001 1.626
0.080921911 0.17429334 1.6340001
0.084394291 0.17504001 1.641
0.087946668 0.17589334 1.649
0.091529526 0.17674667 1.6570001
0.094685718 0.17674667 1.6570001
0.099259049 0.17930667 1.6810001
0.10349715 0.18112001 1.6980001
0.11000001 0.18666667 1.7500001
0.11508191 0.18954667 1.7770001
0.12093334 0.19349334 1.8140001
0.12569143 0.19552001 1.8330001
0.13059239 0.19765334 1.853
0.13484572 0.19872001 1.863
0.13913715 0.19978668 1.8730001
0.14346667 0.20085335 1.8830001
0.15033334 0.20533334 1.9250001
0.15576001 0.20768 1.9470001
0.16036953 0.20885333 1.9580001
0.16409905 0.20885333 1.9580001
0.16971429 0.21120001 1.9800001
0.17453715 0.21248001 1.9920001
0.18808953 0.22410667 2.1010001
0.19209144 0.22410667 2.1010001
0.19609334 0.22410667 2.1010001
0.20009525 0.22410667 2.1010001
0.20409715 0.22410667 2.1010001
0.20809905 0.22410667 2.1010001
-0.39333335 0.19000001 1.7500001
-0.3822 0.18620001 1.715
-0.37893334 0.18620001 1.715
-0.37566668 0.18620001 1.715
-0.37044573 0.18522286 1.7060001
-0.3671962 0.18522286 1.7060001
-0.36394668 0.18522286 1.7060001
-0.36069715 0.18522286 1.7060001
-0.35744762 0.18522286 1.7060001
-0.3541981 0.18522286 1.7060001
-0.35094857 0.18522286 1.7060001
-0.34769905 0.18522286 1.7060001
-0.34444955 0.18522286 1.7060001
-0.34120002 0.18522286 1.7060001
-0.33636573 0.18435429 1.6980001
-0.33470097 0.18522286 1.7060001
-0.33145145 0.18522286 1.7060001
-0.32820192 0.18522286 1.7060001
-0.32495239 0.18522286 1.7060001
-0.32170287 0.18522286 1.7060001
-0.31845334 0.18522286 1.7060001
-0.31520382 0.18522286 1.7060001
-0.31195429 0.18522286 1.7060001
-0.30870476 0.18522286 1.7060001
-0.30545524 0.18522286 1.7060001
-0.30220571 0.18522286 1.7060001
-0.29895622 0.18522286 1.7060001
-0.29432002 0.18435429 1.6980001
-0.29108572 0.18435429 1.6980001
-0.28785145 0.18435429 1.6980001
-0.28461716 0.18435429 1.6980001
-0.28138286 0.18435429 1.6980001
-0.27814859 0.18435429 1.6980001
-0.27361906 0.18348572 1.6900001
-0.27040002 0.18348572 1.6900001
-0.26718095 0.18348572 1.6900001
-0.26396191 0.18348572 1.6900001
-0.26074287 0.18348572 1.6900001
-0.2575238 0.18348572 1.6900001
-0.25430477 0.18348572 1.6900001
-0.25108573 0.18348572 1.6900001
-0.24786668 0.18348572 1.6900001
-0.24464762 0.18348572 1.6900001
-0.24142858 0.18348572 1.6900001
-0.23820953 0.18348572 1.6900001
-0.23499048 0.18348572 1.6900001
-0.23177144 0.18348572 1.6900001
-0.22855239 0.18348572 1.6900001
-0.22413334 0.18250857 1.6810001
-0.22093144 0.18250857 1.6810001
-0.21772954 0.18250857 1.6810001
-0.21452762 0.18250857 1.6810001
-0.21132572 0.18250857 1.6810001
-0.20812382 0.18250857 1.6810001
-0.20492192 0.18250857 1.6810001
-0.20280001 0.18348572 1.6900001
-0.1985181 0.18250857 1.6810001
-0.19636191 0.18348572 1.6900001
-0.19211429 0.18250857 1.6810001
-0.18891239 0.18250857 1.6810001
-0.18571049 0.18250857 1.6810001
-0.18250857 0.18250857 1.6810001
-0.17930667 0.18250857 1.6810001
-0.17610477 0.18250857 1.6810001
-0.17382857 0.18348572 1.6900001
-0.17060953 0.18348572 1.6900001
-0.16739048 0.18348572 1.6900001
-0.16417143 0.18348572 1.6900001
-0.16095239 0.18348572 1.6900001
-0.15689334 0.18250857 1.6810001
-0.15369144 0.18250857 1.6810001
-0.15048952 0.18250857 1.6810001
-0.14728762 0.18250857 1.6810001
-0.1434 0.18164001 1.6730001
-0.14021334 0.18164001 1.6730001
-0.13702667 0.18164001 1.6730001
-0.13384001 0.18164001 1.6730001
-0.13065334 0.18164001 1.6730001
-0.12746668 0.18164001 1.6730001
-0.12368572 0.18077144 1.6650001
-0.12051429 0.18077144 1.6650001
-0.11734286 0.18077144 1.6650001
-0.11417143 0.18077144 1.6650001
-0.11153334 0.18164001 1.6730001
-0.10834667 0.18164001 1.6730001
-0.10516001 0.18164001 1.6730001
-0.10197334 0.18164001 1.6730001
-0.098314293 0.18077144 1.6650001
-0.095142864 0.18077144 1.6650001
-0.091971435 0.18077144 1.6650001
-0.088800006 0.18077144 1.6650001
-0.085217148 0.17990287 1.6570001
-0.082060955 0.17990287 1.6570001
-0.078904763 0.17990287 1.6570001
-0.075748578 0.17990287 1.6570001
-0.072592385 0.17990287 1.6570001
-0.069436193 0.17990287 1.6570001
-0.06628 0.17990287 1.6570001
-0.063123815 0.17990287 1.6570001
-0.059967622 0.17990287 1.6570001
-0.05681143 0.17990287 1.6570001
-0.053655241 0.17990287 1.6570001
-0.050499048 0.17990287 1.6570001
-0.047342859 0.17990287 1.6570001
-0.044186667 0.17990287 1.6570001
-0.041030478 0.17990287 1.6570001
-0.037874289 0.17990287 1.6570001
-0.034718096 0.17990287 1.6570001
-0.031409524 0.17903429 1.649
-0.028131429 0.17816572 1.641
-0.025005715 0.17816572 1.641
-0.021880001 0.17816572 1.641
-0.018674286 0.17740571 1.6340001
-0.015561906 0.17740571 1.6340001
-0.012449524 0.17740571 1.6340001
-0.009337143 0.17740571 1.6340001
-0.0062247622 0.17740571 1.6340001
-0.0031123811 0.17740571 1.6340001
0 0.17653716 1.626
0.003097143 0.17653716 1.626
0.0062247622 0.17740571 1.6340001
0.0092914291 0.17653716 1.626
0.012388572 0.17653716 1.626
0.015485715 0.17653716 1.626
0.018582858 0.17653716 1.626
0.021680001 0.17653716 1.626
0.024777144 0.17653716 1.626
0.027874287 0.17653716 1.626
0.03097143 0.17653716 1.626
0.034068573 0.17653716 1.626
0.037165716 0.17653716 1.626
0.040262859 0.17653716 1.626
0.043360002 0.17653716 1.626
0.046457145 0.17653716 1.626
0.049554288 0.17653716 1.626
0.052651431 0.17653716 1.626
0.055748574 0.17653716 1.626
0.058845717 0.17653716 1.626
0.06194286 0.17653716 1.626
0.064720005 0.17566858 1.618
0.067801908 0.17566858 1.618
0.070883811 0.17566858 1.618
0.074331433 0.17653716 1.626
0.077428572 0.17653716 1.626
0.080921911 0.17740571 1.6340001
0.084034286 0.17740571 1.6340001
0.087946668 0.17903429 1.649
0.091529526 0.17990287 1.6570001
0.095142864 0.18077144 1.6650001
0.099259049 0.18250857 1.6810001
0.10349715 0.18435429 1.6980001
0.10886858 0.18804573 1.7320001
0.11812572 0.19803429 1.8240001
0.1216 0.19803429 1.8240001
0.12569143 0.19901143 1.8330001
0.13059239 0.20118286 1.853
0.13484572 0.20226859 1.863
0.13913715 0.2033543 1.8730001
0.14346667 0.20444001 1.8830001
0.14955239 0.20791429 1.9150001
0.15488 0.21019429 1.9360001
0.16036953 0.21258287 1.9580001
0.16409905 0.21258287 1.9580001
0.17074287 0.21627429 1.9920001
0.17550096 0.21746857 2.003
0.18692572 0.22669715 2.0880001
0.19209144 0.22810858 2.1010001
0.19609334 0.22810858 2.1010001
0.20009525 0.22810858 2.1010001
0.20409715 0.22810858 2.1010001
0.20809905 0.22810858 2.1010001
-0.3822 0.18946667 1.715
-0.37893334 0.18946667 1.715
-0.37566668 0.18946667 1.715
-0.37240002 0.18946667 1.715
-0.3671962 0.18847239 1.7060001
-0.36394668 0.18847239 1.7060001
-0.36069715 0.18847239 1.7060001
-0.35744762 0.18847239 1.7060001
-0.3541981 0.18847239 1.7060001
-0.35094857 0.18847239 1.7060001
-0.34769905 0.18847239 1.7060001
-0.34444955 0.18847239 1.7060001
-0.34120002 0.18847239 1.7060001
-0.3379505 0.18847239 1.7060001
-0.33470097 0.18847239 1.7060001
-0.33145145 0.18847239 1.7060001
-0.32820192 0.18847239 1.7060001
-0.32495239 0.18847239 1.7060001
-0.32170287 0.18847239 1.7060001
-0.31845334 0.18847239 1.7060001
-0.31520382 0.18847239 1.7060001
-0.31195429 0.18847239 1.7060001
-0.30870476 0.18847239 1.7060001
-0.30545524 0.18847239 1.7060001
-0.30220571 0.18847239 1.7060001
-0.29895622 0.18847239 1.7060001
-0.29432002 0.18758857 1.6980001
-0.29108572 0.18758857 1.6980001
-0.28785145 0.18758857 1.6980001
-0.28461716 0.18758857 1.6980001
-0.28138286 0.18758857 1.6980001
-0.27814859 0.18758857 1.6980001
-0.27361906 0.18670477 1.6900001
-0.27040002 0.18670477 1.6900001
-0.26718095 0.18670477 1.6900001
-0.26396191 0.18670477 1.6900001
-0.26074287 0.18670477 1.6900001
-0.2575238 0.18670477 1.6900001
-0.25430477 0.18670477 1.6900001
-0.25108573 0.18670477 1.6900001
-0.24786668 0.18670477 1.6900001
-0.24464762 0.18670477 1.6900001
-0.24142858 0.18670477 1.6900001
-0.23820953 0.18670477 1.6900001
-0.23499048 0.18670477 1.6900001
-0.23177144 0.18670477 1.6900001
-0.22855239 0.18670477 1.6900001
-0.22533335 0.18670477 1.6900001
-0.22093144 0.18571049 1.6810001
-0.21772954 0.18571049 1.6810001
-0.21452762 0.18571049 1.6810001
-0.21132572 0.18571049 1.6810001
-0.2092381 0.18670477 1.6900001
-0.20492192 0.18571049 1.6810001
-0.20280001 0.18670477 1.6900001
-0.19958095 0.18670477 1.6900001
-0.19636191 0.18670477 1.6900001
-0.19314286 0.18670477 1.6900001
-0.18992382 0.18670477 1.6900001
-0.18571049 0.18571049 1.6810001
-0.18250857 0.18571049 1.6810001
-0.17930667 0.18571049 1.6810001
-0.17610477 0.18571049 1.6810001
-0.17382857 0.18670477 1.6900001
-0.17060953 0.18670477 1.6900001
-0.16739048 0.18670477 1.6900001
-0.16417143 0.18670477 1.6900001
-0.16095239 0.18670477 1.6900001
-0.15773334 0.18670477 1.6900001
-0.15369144 0.18571049 1.6810001
-0.15048952 0.18571049 1.6810001
-0.14728762 0.18571049 1.6810001
-0.14408572 0.18571049 1.6810001
-0.14021334 0.18482667 1.6730001
-0.13702667 0.18482667 1.6730001
-0.13384001 0.18482667 1.6730001
-0.13065334 0.18482667 1.6730001
-0.12746668 0.18482667 1.6730001
-0.12368572 0.18394287 1.6650001
-0.12051429 0.18394287 1.6650001
-0.11734286 0.18394287 1.6650001
-0.11417143 0.18394287 1.6650001
-0.111 0.18394287 1.6650001
-0.10834667 0.18482667 1.6730001
-0.10516001 0.18482667 1.6730001
-0.10197334 0.18482667 1.6730001
-0.098786667 0.18482667 1.6730001
-0.095600002 0.18482667 1.6730001
-0.091971435 0.18394287 1.6650001
-0.088800006 0.18394287 1.6650001
-0.085628577 0.18394287 1.6650001
-0.082457148 0.18394287 1.6650001
-0.079285719 0.18394287 1.6650001
-0.076114289 0.18394287 1.6650001
-0.072592385 0.18305905 1.6570001
-0.069436193 0.18305905 1.6570001
-0.06628 0.18305905 1.6570001
-0.063123815 0.18305905 1.6570001
-0.059967622 0.18305905 1.6570001
-0.05681143 0.18305905 1.6570001
-0.053655241 0.18305905 1.6570001
-0.050499048 0.18305905 1.6570001
-0.047342859 0.18305905 1.6570001
-0.044186667 0.18305905 1.6570001
-0.041030478 0.18305905 1.6570001
-0.037874289 0.18305905 1.6570001
-0.034550477 0.18217525 1.649
-0.031409524 0.18217525 1.649
-0.028131429 0.18129143 1.641
-0.025005715 0.18129143 1.641
-0.021880001 0.18129143 1.641
-0.018674286 0.18051811 1.6340001
-0.015561906 0.18051811 1.6340001
-0.012449524 0.18051811 1.6340001
-0.009337143 0.18051811 1.6340001
-0.0062247622 0.18051811 1.6340001
-0.0031123811 0.18051811 1.6340001
0 0.18051811 1.6340001
0.0031123811 0.18051811 1.6340001
0.0062247622 0.18051811 1.6340001
0.0092914291 0.17963429 1.626
0.012388572 0.17963429 1.626
0.015485715 0.17963429 1.626
0.018582858 0.17963429 1.626
0.021680001 0.17963429 1.626
0.024777144 0.17963429 1.626
0.027874287 0.17963429 1.626
0.03097143 0.17963429 1.626
0.034068573 0.17963429 1.626
0.037165716 0.17963429 1.626
0.040262859 0.17963429 1.626
0.043360002 0.17963429 1.626
0.046457145 0.17963429 1.626
0.049554288 0.17963429 1.626
0.052651431 0.17963429 1.626
0.055748574 0.17963429 1.626
0.058845717 0.17963429 1.626
0.06194286 0.17963429 1.626
0.064720005 0.17875049 1.618
0.067801908 0.17875049 1.618
0.070883811 0.17875049 1.618
0.074331433 0.17963429 1.626
0.077428572 0.17963429 1.626
0.080921911 0.18051811 1.6340001
0.084034286 0.18051811 1.6340001
0.087946668 0.18217525 1.649
0.091529526 0.18305905 1.6570001
0.094685718 0.18305905 1.6570001
0.099259049 0.18571049 1.6810001
0.10349715 0.18758857 1.6980001
0.10943429 0.19233905 1.7410001
0.11812572 0.20150858 1.8240001
0.1216 0.20150858 1.8240001
0.12569143 0.20250286 1.8330001
0.12988763 0.20360763 1.8430001
0.13412191 0.20471239 1.853
0.13913715 0.20692191 1.8730001
0.14430477 0.20924191 1.8940001
0.15033334 0.21266668 1.9250001
0.15576001 0.21509714 1.9470001
0.16036953 0.21631239 1.9580001
0.16409905 0.21631239 1.9580001
0.17074287 0.22006857 1.9920001
0.17655239 0.22260953 2.0150001
0.18039048 0.22260953 2.0150001
0.19209144 0.23211049 2.1010001
0.19609334 0.23211049 2.1010001
0.20133334 0.23354667 2.1140001
0.20536001 0.23354667 2.1140001
0.20938668 0.23354667 2.1140001
0.21341334 0.23354667 2.1140001
0.21744001 0.23354667 2.1140001
-0.38398287 0.19363239 1.723
-0.38070098 0.19363239 1.723
-0.37566668 0.19273335 1.715
-0.37240002 0.19273335 1.715
-0.36913335 0.19273335 1.715
-0.36586669 0.19273335 1.715
-0.3626 0.19273335 1.715
-0.35933334 0.19273335 1.715
-0.35606667 0.19273335 1.715
-0.35094857 0.19172192 1.7060001
-0.34769905 0.19172192 1.7060001
-0.34444955 0.19172192 1.7060001
-0.34120002 0.19172192 1.7060001
-0.3379505 0.19172192 1.7060001
-0.33470097 0.19172192 1.7060001
-0.33145145 0.19172192 1.7060001
-0.32820192 0.19172192 1.7060001
-0.32495239 0.19172192 1.7060001
-0.32170287 0.19172192 1.7060001
-0.31845334 0.19172192 1.7060001
-0.31520382 0.19172192 1.7060001
-0.31195429 0.19172192 1.7060001
-0.30870476 0.19172192 1.7060001
-0.30545524 0.19172192 1.7060001
-0.30220571 0.19172192 1.7060001
-0.29895622 0.19172192 1.7060001
-0.29432002 0.19082287 1.6980001
-0.29245716 0.19172192 1.7060001
-0.28785145 0.19082287 1.6980001
-0.28461716 0.19082287 1.6980001
-0.28138286 0.19082287 1.6980001
-0.27814859 0.19082287 1.6980001
-0.27361906 0.18992382 1.6900001
-0.27040002 0.18992382 1.6900001
-0.26718095 0.18992382 1.6900001
-0.26396191 0.18992382 1.6900001
-0.26074287 0.18992382 1.6900001
-0.2575238 0.18992382 1.6900001
-0.25430477 0.18992382 1.6900001
-0.25108573 0.18992382 1.6900001
-0.24786668 0.18992382 1.6900001
-0.24464762 0.18992382 1.6900001
-0.24142858 0.18992382 1.6900001
-0.23820953 0.18992382 1.6900001
-0.23499048 0.18992382 1.6900001
-0.23177144 0.18992382 1.6900001
-0.22855239 0.18992382 1.6900001
-0.22413334 0.18891239 1.6810001
-0.22093144 0.18891239 1.6810001
-0.21772954 0.18891239 1.6810001
-0.21452762 0.18891239 1.6810001
-0.21132572 0.18891239 1.6810001
-0.2092381 0.18992382 1.6900001
-0.20492192 0.18891239 1.6810001
-0.20280001 0.18992382 1.6900001
-0.1985181 0.18891239 1.6810001
-0.19636191 0.18992382 1.6900001
-0.19314286 0.18992382 1.6900001
-0.18992382 0.18992382 1.6900001
-0.18670477 0.18992382 1.6900001
-0.18250857 0.18891239 1.6810001
-0.18026668 0.18992382 1.6900001
-0.17704763 0.18992382 1.6900001
-0.17382857 0.18992382 1.6900001
-0.17060953 0.18992382 1.6900001
-0.16739048 0.18992382 1.6900001
-0.16417143 0.18992382 1.6900001
-0.16095239 0.18992382 1.6900001
-0.15773334 0.18992382 1.6900001
-0.15369144 0.18891239 1.6810001
-0.15048952 0.18891239 1.6810001
-0.14728762 0.18891239 1.6810001
-0.14408572 0.18891239 1.6810001
-0.14088382 0.18891239 1.6810001
-0.13702667 0.18801335 1.6730001
-0.13384001 0.18801335 1.6730001
-0.13065334 0.18801335 1.6730001
-0.12746668 0.18801335 1.6730001
-0.12368572 0.1871143 1.6650001
-0.12051429 0.1871143 1.6650001
-0.11734286 0.1871143 1.6650001
-0.11417143 0.1871143 1.6650001
-0.11153334 0.18801335 1.6730001
-0.10834667 0.18801335 1.6730001
-0.10516001 0.18801335 1.6730001
-0.10197334 0.18801335 1.6730001
-0.098786667 0.18801335 1.6730001
-0.095600002 0.18801335 1.6730001
-0.092413336 0.18801335 1.6730001
-0.088800006 0.1871143 1.6650001
-0.085628577 0.1871143 1.6650001
-0.082457148 0.1871143 1.6650001
-0.079285719 0.1871143 1.6650001
-0.076114289 0.1871143 1.6650001
-0.07294286 0.1871143 1.6650001
-0.069436193 0.18621525 1.6570001
-0.06628 0.18621525 1.6570001
-0.063428573 0.1871143 1.6650001
-0.059967622 0.18621525 1.6570001
-0.05681143 0.18621525 1.6570001
-0.053655241 0.18621525 1.6570001
-0.050499048 0.18621525 1.6570001
-0.047342859 0.18621525 1.6570001
-0.044186667 0.18621525 1.6570001
-0.041030478 0.18621525 1.6570001
-0.037874289 0.18621525 1.6570001
-0.034550477 0.18531619 1.649
-0.031409524 0.18531619 1.649
-0.028131429 0.18441714 1.641
-0.025005715 0.18441714 1.641
-0.021880001 0.18441714 1.641
-0.018674286 0.18363048 1.6340001
-0.015561906 0.18363048 1.6340001
-0.012449524 0.18363048 1.6340001
-0.009337143 0.18363048 1.6340001
-0.0062247622 0.18363048 1.6340001
-0.0031123811 0.18363048 1.6340001
0 0.18363048 1.6340001
0.0031123811 0.18363048 1.6340001
0.0062247622 0.18363048 1.6340001
0.0092914291 0.18273143 1.626
0.012449524 0.18363048 1.6340001
0.015485715 0.18273143 1.626
0.018582858 0.18273143 1.626
0.021680001 0.18273143 1.626
0.024777144 0.18273143 1.626
0.027874287 0.18273143 1.626
0.03097143 0.18273143 1.626
0.034068573 0.18273143 1.626
0.037165716 0.18273143 1.626
0.040262859 0.18273143 1.626
0.043360002 0.18273143 1.626
0.046457145 0.18273143 1.626
0.049554288 0.18273143 1.626
0.052651431 0.18273143 1.626
0.055748574 0.18273143 1.626
0.058845717 0.18273143 1.626
0.06194286 0.18273143 1.626
0.064720005 0.18183239 1.618
0.067801908 0.18183239 1.618
0.070883811 0.18183239 1.618
0.074331433 0.18273143 1.626
0.077428572 0.18273143 1.626
0.080921911 0.18363048 1.6340001
0.084034286 0.18363048 1.6340001
0.087946668 0.18531619 1.649
0.091971435 0.1871143 1.6650001
0.095142864 0.1871143 1.6650001
0.099790476 0.18992382 1.6900001
0.10300953 0.18992382 1.6900001
0.10622858 0.18992382 1.6900001
0.1174781 0.20385906 1.8140001
0.1216 0.20498286 1.8240001
0.12569143 0.20599429 1.8330001
0.12988763 0.20711811 1.8430001
0.13412191 0.20824191 1.853
0.13913715 0.21048953 1.8730001
0.14430477 0.21284953 1.8940001
0.14955239 0.21520953 1.9150001
0.15488 0.21756953 1.9360001
0.15946858 0.21880572 1.9470001
0.16409905 0.22004192 1.9580001
0.17374286 0.2277962 2.0270002
0.18189715 0.23330286 2.0760002
0.18808953 0.23611239 2.1010001
0.19209144 0.23611239 2.1010001
0.19609334 0.23611239 2.1010001
0.20257144 0.2390343 2.1270001
0.20536001 0.23757334 2.1140001
0.20938668 0.23757334 2.1140001
0.21341334 0.23757334 2.1140001
0.21744001 0.23757334 2.1140001
-0.38598859 0.19794287 1.7320001
-0.38070098 0.1969143 1.723
-0.37741905 0.1969143 1.723
-0.37413716 0.1969143 1.723
-0.36913335 0.19600001 1.715
-0.36757335 0.1969143 1.723
-0.3626 0.19600001 1.715
-0.35933334 0.19600001 1.715
-0.35606667 0.19600001 1.715
-0.35280001 0.19600001 1.715
-0.34953335 0.19600001 1.715
-0.34444955 0.19497144 1.7060001
-0.34120002 0.19497144 1.7060001
-0.3379505 0.19497144 1.7060001
-0.33470097 0.19497144 1.7060001
-0.33145145 0.19497144 1.7060001
-0.32820192 0.19497144 1.7060001
-0.32495239 0.19497144 1.7060001
-0.32170287 0.19497144 1.7060001
-0.31845334 0.19497144 1.7060001
-0.31520382 0.19497144 1.7060001
-0.31195429 0.19497144 1.7060001
-0.30870476 0.19497144 1.7060001
-0.30545524 0.19497144 1.7060001
-0.30220571 0.19497144 1.7060001
-0.29895622 0.19497144 1.7060001
-0.29432002 0.19405715 1.6980001
-0.29108572 0.19405715 1.6980001
-0.28785145 0.19405715 1.6980001
-0.28461716 0.19405715 1.6980001
-0.28138286 0.19405715 1.6980001
-0.27814859 0.19405715 1.6980001
-0.27361906 0.19314286 1.6900001
-0.27040002 0.19314286 1.6900001
-0.26718095 0.19314286 1.6900001
-0.26396191 0.19314286 1.6900001
-0.26074287 0.19314286 1.6900001
-0.2575238 0.19314286 1.6900001
-0.25430477 0.19314286 1.6900001
-0.25108573 0.19314286 1.6900001
-0.24786668 0.19314286 1.6900001
-0.24464762 0.19314286 1.6900001
-0.24142858 0.19314286 1.6900001
-0.23820953 0.19314286 1.6900001
-0.23499048 0.19314286 1.6900001
-0.23177144 0.19314286 1.6900001
-0.22855239 0.19314286 1.6900001
-0.22413334 0.19211429 1.6810001
-0.22211429 0.19314286 1.6900001
-0.21772954 0.19211429 1.6810001
-0.21452762 0.19211429 1.6810001
-0.21132572 0.19211429 1.6810001
-0.20812382 0.19211429 1.6810001
-0.20492192 0.19211429 1.6810001
-0.20280001 0.19314286 1.6900001
-0.19958095 0.19314286 1.6900001
-0.19636191 0.19314286 1.6900001
-0.19314286 0.19314286 1.6900001
-0.18992382 0.19314286 1.6900001
-0.18670477 0.19314286 1.6900001
-0.18348572 0.19314286 1.6900001
-0.18026668 0.19314286 1.6900001
-0.17704763 0.19314286 1.6900001
-0.17382857 0.19314286 1.6900001
-0.17060953 0.19314286 1.6900001
-0.16739048 0.19314286 1.6900001
-0.16417143 0.19314286 1.6900001
-0.16095239 0.19314286 1.6900001
-0.15689334 0.19211429 1.6810001
-0.15369144 0.19211429 1.6810001
-0.15048952 0.19211429 1.6810001
-0.14728762 0.19211429 1.6810001
-0.14408572 0.19211429 1.6810001
-0.14088382 0.19211429 1.6810001
-0.13768192 0.19211429 1.6810001
-0.13448 0.19211429 1.6810001
-0.13065334 0.1912 1.6730001
-0.12746668 0.1912 1.6730001
-0.12368572 0.19028573 1.6650001
-0.12051429 0.19028573 1.6650001
-0.11734286 0.19028573 1.6650001
-0.11417143 0.19028573 1.6650001
-0.11153334 0.1912 1.6730001
-0.10834667 0.1912 1.6730001
-0.10516001 0.1912 1.6730001
-0.10197334 0.1912 1.6730001
-0.098786667 0.1912 1.6730001
-0.095600002 0.1912 1.6730001
-0.092413336 0.1912 1.6730001
-0.088800006 0.19028573 1.6650001
-0.085628577 0.19028573 1.6650001
-0.082457148 0.19028573 1.6650001
-0.079285719 0.19028573 1.6650001
-0.076114289 0.19028573 1.6650001
-0.07294286 0.19028573 1.6650001
-0.069771431 0.19028573 1.6650001
-0.066600002 0.19028573 1.6650001
-0.063428573 0.19028573 1.6650001
-0.060257144 0.19028573 1.6650001
-0.05681143 0.18937144 1.6570001
-0.053655241 0.18937144 1.6570001
-0.050499048 0.18937144 1.6570001
-0.047342859 0.18937144 1.6570001
-0.044186667 0.18937144 1.6570001
-0.041030478 0.18937144 1.6570001
-0.037874289 0.18937144 1.6570001
-0.034550477 0.18845715 1.649
-0.031409524 0.18845715 1.649
-0.028131429 0.18754287 1.641
-0.025005715 0.18754287 1.641
-0.021880001 0.18754287 1.641
-0.018674286 0.18674286 1.6340001
-0.015561906 0.18674286 1.6340001
-0.012449524 0.18674286 1.6340001
-0.009337143 0.18674286 1.6340001
-0.006194286 0.18582858 1.626
-0.0031123811 0.18674286 1.6340001
0 0.18582858 1.626
0.0031123811 0.18674286 1.6340001
0.0062247622 0.18674286 1.6340001
0.0092914291 0.18582858 1.626
0.012449524 0.18674286 1.6340001
0.015485715 0.18582858 1.626
0.018582858 0.18582858 1.626
0.021680001 0.18582858 1.626
0.024777144 0.18582858 1.626
0.027874287 0.18582858 1.626
0.03097143 0.18582858 1.626
0.034068573 0.18582858 1.626
0.037165716 0.18582858 1.626
0.040262859 0.18582858 1.626
0.043360002 0.18582858 1.626
0.046457145 0.18582858 1.626
0.049554288 0.18582858 1.626
0.052651431 0.18582858 1.626
0.055748574 0.18582858 1.626
0.058845717 0.18582858 1.626
0.061638098 0.18491429 1.618
0.064720005 0.18491429 1.618
0.067801908 0.18491429 1.618
0.070883811 0.18491429 1.618
0.074331433 0.18582858 1.626
0.077428572 0.18582858 1.626
0.080921911 0.18674286 1.6340001
0.084034286 0.18674286 1.6340001
0.087946668 0.18845715 1.649
0.092413336 0.1912 1.6730001
0.096057147 0.19211429 1.6810001
0.099790476 0.19314286 1.6900001
0.10349715 0.19405715 1.6980001
0.10673143 0.19405715 1.6980001
0.1174781 0.2073143 1.8140001
0.12093334 0.2073143 1.8140001
0.1250743 0.20845716 1.8240001
0.12988763 0.21062858 1.8430001
0.13412191 0.21177144 1.853
0.13913715 0.21405715 1.8730001
0.14430477 0.21645714 1.8940001
0.14955239 0.21885715 1.9150001
0.15488 0.22125715 1.9360001
0.15946858 0.22251429 1.9470001
0.16409905 0.22377144 1.9580001
0.17477143 0.23302858 2.039
0.18522668 0.24160001 2.1140001
0.18808953 0.2401143 2.1010001
0.19209144 0.2401143 2.1010001
0.19730668 0.24160001 2.1140001
0.20133334 0.24160001 2.1140001
0.20536001 0.24160001 2.1140001
0.20938668 0.24160001 2.1140001
0.21210095 0.2401143 2.1010001
0.21610287 0.2401143 2.1010001
-0.38398287 0.20019619 1.723
-0.38070098 0.20019619 1.723
-0.37566668 0.19926667 1.715
-0.37240002 0.19926667 1.715
-0.36913335 0.19926667 1.715
-0.36757335 0.20019619 1.723
-0.36429143 0.20019619 1.723
-0.36100954 0.20019619 1.723
-0.35606667 0.19926667 1.715
-0.35280001 0.19926667 1.715
-0.34953335 0.19926667 1.715
-0.34444955 0.19822095 1.7060001
-0.34120002 0.19822095 1.7060001
-0.3379505 0.19822095 1.7060001
-0.33470097 0.19822095 1.7060001
-0.33145145 0.19822095 1.7060001
-0.32820192 0.19822095 1.7060001
-0.32495239 0.19822095 1.7060001
-0.32170287 0.19822095 1.7060001
-0.31845334 0.19822095 1.7060001
-0.31520382 0.19822095 1.7060001
-0.31195429 0.19822095 1.7060001
-0.30870476 0.19822095 1.7060001
-0.30545524 0.19822095 1.7060001
-0.30220571 0.19822095 1.7060001
-0.29895622 0.19822095 1.7060001
-0.29570669 0.19822095 1.7060001
-0.29245716 0.19822095 1.7060001
-0.28920764 0.19822095 1.7060001
-0.28595811 0.19822095 1.7060001
-0.28270859 0.19822095 1.7060001
-0.27945906 0.19822095 1.7060001
-0.27361906 0.19636191 1.6900001
-0.27040002 0.19636191 1.6900001
-0.26718095 0.19636191 1.6900001
-0.26396191 0.19636191 1.6900001
-0.26074287 0.19636191 1.6900001
-0.2575238 0.19636191 1.6900001
-0.25430477 0.19636191 1.6900001
-0.25108573 0.19636191 1.6900001
-0.24786668 0.19636191 1.6900001
-0.24464762 0.19636191 1.6900001
-0.24142858 0.19636191 1.6900001
-0.23820953 0.19636191 1.6900001
-0.23499048 0.19636191 1.6900001
-0.23177144 0.19636191 1.6900001
-0.22855239 0.19636191 1.6900001
-0.22533335 0.19636191 1.6900001
-0.22211429 0.19636191 1.6900001
-0.21889524 0.19636191 1.6900001
-0.2156762 0.19636191 1.6900001
-0.21245715 0.19636191 1.6900001
-0.2092381 0.19636191 1.6900001
-0.20601906 0.19636191 1.6900001
-0.20280001 0.19636191 1.6900001
-0.19958095 0.19636191 1.6900001
-0.19636191 0.19636191 1.6900001
-0.19314286 0.19636191 1.6900001
-0.18992382 0.19636191 1.6900001
-0.18670477 0.19636191 1.6900001
-0.18348572 0.19636191 1.6900001
-0.18026668 0.19636191 1.6900001
-0.17704763 0.19636191 1.6900001
-0.17382857 0.19636191 1.6900001
-0.17060953 0.19636191 1.6900001
-0.16739048 0.19636191 1.6900001
-0.16329715 0.1953162 1.6810001
-0.16009524 0.1953162 1.6810001
-0.15689334 0.1953162 1.6810001
-0.15369144 0.1953162 1.6810001
-0.15048952 0.1953162 1.6810001
-0.14728762 0.1953162 1.6810001
-0.14408572 0.1953162 1.6810001
-0.14088382 0.1953162 1.6810001
-0.13768192 0.1953162 1.6810001
-0.13448 0.1953162 1.6810001
-0.1312781 0.1953162 1.6810001
-0.1280762 0.1953162 1.6810001
-0.12428001 0.19438668 1.6730001
-0.12109334 0.19438668 1.6730001
-0.11734286 0.19345716 1.6650001
-0.11417143 0.19345716 1.6650001
-0.111 0.19345716 1.6650001
-0.10782857 0.19345716 1.6650001
-0.10465714 0.19345716 1.6650001
-0.10148571 0.19345716 1.6650001
-0.098314293 0.19345716 1.6650001
-0.095142864 0.19345716 1.6650001
-0.091971435 0.19345716 1.6650001
