# .PCD v0.7 - Point Cloud Data file format
VERSION 0.7
FIELDS x y z
SIZE 4 4 4
TYPE F F F
COUNT 1 1 1
WIDTH 1500
HEIGHT 1
VIEWPOINT 0 0 0 1 0 0 0
POINTS 1500
DATA ascii
-0.33170286 0.17967239 1.8140001
-0.3264381 0.17868191 1.8040001
-0.32139048 0.17779048 1.7950001
-0.31637716 0.17689906 1.7860001
-0.31297526 0.17689906 1.7860001
-0.30801335 0.17600763 1.7770001
-0.30462858 0.17600763 1.7770001
-0.29971811 0.1751162 1.7680001
-0.29333335 0.17333335 1.7500001
-0.28850859 0.17244191 1.7410001
-0.28371811 0.17155048 1.7320001
-0.27896193 0.17065905 1.723
-0.27568001 0.17065905 1.723
-0.27113333 0.16986667 1.715
-0.26646096 0.16897525 1.7060001
-0.26197717 0.16818286 1.6980001
-0.2575238 0.16739048 1.6900001
-0.25430477 0.16739048 1.6900001
-0.24974859 0.16649905 1.6810001
-0.24654667 0.16649905 1.6810001
-0.24218668 0.16570668 1.6730001
-0.23785715 0.1649143 1.6650001
-0.23468572 0.1649143 1.6650001
-0.23151429 0.1649143 1.6650001
-0.22834286 0.1649143 1.6650001
-0.22517143 0.1649143 1.6650001
-0.222 0.1649143 1.6650001
-0.21988001 0.16570668 1.6730001
-0.21772954 0.16649905 1.6810001
-0.21452762 0.16649905 1.6810001
-0.21132572 0.16649905 1.6810001
-0.20812382 0.16649905 1.6810001
-0.20492192 0.16649905 1.6810001
-0.20172001 0.16649905 1.6810001
-0.1985181 0.16649905 1.6810001
-0.1953162 0.16649905 1.6810001
-0.19314286 0.16739048 1.6900001
-0.18992382 0.16739048 1.6900001
-0.18670477 0.16739048 1.6900001
-0.18348572 0.16739048 1.6900001
-0.18112001 0.16818286 1.6980001
-0.17872381 0.16897525 1.7060001
-0.17547429 0.16897525 1.7060001
-0.17222477 0.16897525 1.7060001
-0.16897525 0.16897525 1.7060001
-0.16572572 0.16897525 1.7060001
-0.16333334 0.16986667 1.715
-0.16006668 0.16986667 1.715
-0.1568 0.16986667 1.715
-0.15353334 0.16986667 1.715
-0.15026668 0.16986667 1.715
-0.147 0.16986667 1.715
-0.14373334 0.16986667 1.715
-0.14112191 0.17065905 1.723
-0.13784 0.17065905 1.723
-0.1345581 0.17065905 1.723
-0.13127619 0.17065905 1.723
-0.12799428 0.17065905 1.723
-0.12471239 0.17065905 1.723
-0.12143048 0.17065905 1.723
-0.11814857 0.17065905 1.723
-0.11486667 0.17065905 1.723
-0.11216763 0.17155048 1.7320001
-0.10886858 0.17155048 1.7320001
-0.1061181 0.17244191 1.7410001
-0.10280191 0.17244191 1.7410001
-0.1 0.17333335 1.7500001
-0.096666671 0.17333335 1.7500001
-0.093333334 0.17333335 1.7500001
-0.090000004 0.17333335 1.7500001
-0.086666673 0.17333335 1.7500001
-0.083333336 0.17333335 1.7500001
-0.080000006 0.17333335 1.7500001
-0.076666668 0.17333335 1.7500001
-0.073710479 0.17422476 1.7590001
-0.070360005 0.17422476 1.7590001
-0.067009524 0.17422476 1.7590001
-0.063984767 0.1751162 1.7680001
-0.060617145 0.1751162 1.7680001
-0.057249527 0.1751162 1.7680001
-0.053881906 0.1751162 1.7680001
-0.050514288 0.1751162 1.7680001
-0.047146667 0.1751162 1.7680001
-0.043779049 0.1751162 1.7680001
-0.040617146 0.17600763 1.7770001
-0.037232384 0.17600763 1.7770001
-0.034019049 0.17689906 1.7860001
-0.030617144 0.17689906 1.7860001
-0.027215239 0.17689906 1.7860001
-0.023813333 0.17689906 1.7860001
-0.020514287 0.17779048 1.7950001
-0.017095238 0.17779048 1.7950001
-0.013676191 0.17779048 1.7950001
-0.010257144 0.17779048 1.7950001
-0.0068380954 0.17779048 1.7950001
-0.0034190477 0.17779048 1.7950001
0 0.17868191 1.8040001
0.0034190477 0.17779048 1.7950001
0.0068723811 0.17868191 1.8040001
0.010308572 0.17868191 1.8040001
0.013744762 0.17868191 1.8040001
0.017180953 0.17868191 1.8040001
0.020617144 0.17868191 1.8040001
0.024186667 0.17967239 1.8140001
0.027641905 0.17967239 1.8140001
0.031097144 0.17967239 1.8140001
0.03455238 0.17967239 1.8140001
0.038007621 0.17967239 1.8140001
0.041462857 0.17967239 1.8140001
0.044918098 0.17967239 1.8140001
0.048373334 0.17967239 1.8140001
0.052114289 0.18066287 1.8240001
0.055588573 0.18066287 1.8240001
0.059354287 0.18155429 1.8330001
0.062845714 0.18155429 1.8330001
0.06669905 0.18254477 1.8430001
0.070209526 0.18254477 1.8430001
0.073720001 0.18254477 1.8430001
0.077230476 0.18254477 1.8430001
0.080740958 0.18254477 1.8430001
0.084251434 0.18254477 1.8430001
0.087761909 0.18254477 1.8430001
0.091272384 0.18254477 1.8430001
0.095297143 0.18353525 1.853
0.098826669 0.18353525 1.853
0.1023562 0.18353525 1.853
0.10588572 0.18353525 1.853
0.10941524 0.18353525 1.853
0.11355429 0.18452573 1.863
0.11710286 0.18452573 1.863
0.12065143 0.18452573 1.863
0.12486667 0.18551619 1.8730001
0.12843429 0.18551619 1.8730001
0.13200191 0.18551619 1.8730001
0.13556953 0.18551619 1.8730001
0.13913715 0.18551619 1.8730001
0.14270477 0.18551619 1.8730001
0.14705335 0.18650667 1.8830001
0.15064001 0.18650667 1.8830001
0.15422668 0.18650667 1.8830001
0.15873525 0.1875962 1.8940001
0.16234286 0.1875962 1.8940001
0.16595048 0.1875962 1.8940001
0.16955811 0.1875962 1.8940001
0.17408 0.18858667 1.904
0.17770667 0.18858667 1.904
0.18133333 0.18858667 1.904
0.18602858 0.1896762 1.9150001
0.1896762 0.1896762 1.9150001
0.19332382 0.1896762 1.9150001
0.19697143 0.1896762 1.9150001
0.20061906 0.1896762 1.9150001
0.20426667 0.1896762 1.9150001
0.20791429 0.1896762 1.9150001
0.21156192 0.1896762 1.9150001
0.21633334 0.19066668 1.9250001
0.22000001 0.19066668 1.9250001
0.22494477 0.1917562 1.9360001
0.22993144 0.19284572 1.9470001
0.23364002 0.19284572 1.9470001
0.23734859 0.19284572 1.9470001
0.24105716 0.19284572 1.9470001
0.24476573 0.19284572 1.9470001
0.24987811 0.19393525 1.9580001
0.25075811 0.1917562 1.9360001
0.25444573 0.1917562 1.9360001
0.25813335 0.1917562 1.9360001
-0.49316573 0.21078858 2.0880001
-0.48637715 0.20957714 2.0760002
-0.47661334 0.20705333 2.0510001
-0.47270668 0.20705333 2.0510001
-0.46605715 0.20584191 2.039
-0.46217334 0.20584191 2.039
-0.45559239 0.20463048 2.0270002
-0.44905716 0.20341906 2.0150001
-0.44256765 0.20220762 2.003
-0.43634287 0.20109715 1.9920001
-0.42755431 0.19877525 1.9690001
-0.42143622 0.19766477 1.9580001
-0.41770667 0.19766477 1.9580001
-0.41165143 0.19655429 1.9470001
-0.4056381 0.19544382 1.9360001
-0.39966667 0.19433334 1.9250001
-0.39394286 0.19332382 1.9150001
-0.39029527 0.19332382 1.9150001
-0.38442668 0.19221334 1.904
-0.37660003 0.19009334 1.8830001
-0.37103239 0.18908381 1.8730001
-0.36746478 0.18908381 1.8730001
-0.36389714 0.18908381 1.8730001
-0.35840574 0.18807429 1.863
-0.35485715 0.18807429 1.863
-0.34942287 0.18706477 1.853
-0.34402668 0.18605524 1.8430001
-0.33866858 0.18504572 1.8330001
-0.33170286 0.18312763 1.8140001
-0.3264381 0.1821181 1.8040001
-0.32300192 0.1821181 1.8040001
-0.31797144 0.18120953 1.7950001
-0.31297526 0.18030097 1.7860001
-0.30957335 0.18030097 1.7860001
-0.30462858 0.17939238 1.7770001
-0.29971811 0.17848381 1.7680001
-0.29484192 0.17757525 1.7590001
-0.29000002 0.17666668 1.7500001
-0.28371811 0.17484953 1.7320001
-0.28041905 0.17484953 1.7320001
-0.27568001 0.17394096 1.723
-0.27113333 0.17313334 1.715
-0.26646096 0.17222477 1.7060001
-0.26321143 0.17222477 1.7060001
-0.2575238 0.17060953 1.6900001
-0.25430477 0.17060953 1.6900001
-0.24974859 0.16970097 1.6810001
-0.24654667 0.16970097 1.6810001
-0.24218668 0.16889334 1.6730001
-0.23785715 0.16808572 1.6650001
-0.23468572 0.16808572 1.6650001
-0.23151429 0.16808572 1.6650001
-0.22834286 0.16808572 1.6650001
-0.22625335 0.16889334 1.6730001
-0.222 0.16808572 1.6650001
-0.21988001 0.16889334 1.6730001
-0.21772954 0.16970097 1.6810001
-0.21452762 0.16970097 1.6810001
-0.21132572 0.16970097 1.6810001
-0.20812382 0.16970097 1.6810001
-0.20492192 0.16970097 1.6810001
-0.20172001 0.16970097 1.6810001
-0.1985181 0.16970097 1.6810001
-0.1953162 0.16970097 1.6810001
-0.19314286 0.17060953 1.6900001
-0.18992382 0.17060953 1.6900001
-0.18670477 0.17060953 1.6900001
-0.18348572 0.17060953 1.6900001
-0.18112001 0.17141715 1.6980001
-0.17872381 0.17222477 1.7060001
-0.17547429 0.17222477 1.7060001
-0.17222477 0.17222477 1.7060001
-0.16897525 0.17222477 1.7060001
-0.16572572 0.17222477 1.7060001
-0.16333334 0.17313334 1.715
-0.16006668 0.17313334 1.715
-0.1568 0.17313334 1.715
-0.15353334 0.17313334 1.715
-0.15026668 0.17313334 1.715
-0.147 0.17313334 1.715
-0.14373334 0.17313334 1.715
-0.14112191 0.17394096 1.723
-0.13784 0.17394096 1.723
-0.1345581 0.17394096 1.723
-0.13127619 0.17394096 1.723
-0.12799428 0.17394096 1.723
-0.12471239 0.17394096 1.723
-0.12143048 0.17394096 1.723
-0.11814857 0.17394096 1.723
-0.11486667 0.17394096 1.723
-0.11275048 0.17575811 1.7410001
-0.10943429 0.17575811 1.7410001
-0.1061181 0.17575811 1.7410001
-0.10280191 0.17575811 1.7410001
-0.1 0.17666668 1.7500001
-0.096666671 0.17666668 1.7500001
-0.093333334 0.17666668 1.7500001
-0.090000004 0.17666668 1.7500001
-0.086666673 0.17666668 1.7500001
-0.083333336 0.17666668 1.7500001
-0.080000006 0.17666668 1.7500001
-0.077060953 0.17757525 1.7590001
-0.073710479 0.17757525 1.7590001
-0.070360005 0.17757525 1.7590001
-0.067009524 0.17757525 1.7590001
-0.06365905 0.17757525 1.7590001
-0.060308572 0.17757525 1.7590001
-0.057249527 0.17848381 1.7680001
-0.053881906 0.17848381 1.7680001
-0.050514288 0.17848381 1.7680001
-0.047146667 0.17848381 1.7680001
-0.044001907 0.17939238 1.7770001
-0.040617146 0.17939238 1.7770001
-0.037232384 0.17939238 1.7770001
-0.034019049 0.18030097 1.7860001
-0.030617144 0.18030097 1.7860001
-0.027215239 0.18030097 1.7860001
-0.023933334 0.18120953 1.7950001
-0.020514287 0.18120953 1.7950001
-0.017095238 0.18120953 1.7950001
-0.013676191 0.18120953 1.7950001
-0.010257144 0.18120953 1.7950001
-0.0068380954 0.18120953 1.7950001
-0.0034361905 0.1821181 1.8040001
0 0.1821181 1.8040001
0.0034361905 0.1821181 1.8040001
0.0068723811 0.1821181 1.8040001
0.010308572 0.1821181 1.8040001
0.013744762 0.1821181 1.8040001
0.017180953 0.1821181 1.8040001
0.020731429 0.18312763 1.8140001
0.024186667 0.18312763 1.8140001
0.027641905 0.18312763 1.8140001
0.031097144 0.18312763 1.8140001
0.034742858 0.18413715 1.8240001
0.038217146 0.18413715 1.8240001
0.041462857 0.18312763 1.8140001
0.045165718 0.18413715 1.8240001
0.048640002 0.18413715 1.8240001
0.052114289 0.18413715 1.8240001
0.055588573 0.18413715 1.8240001
0.059354287 0.18504572 1.8330001
0.062845714 0.18504572 1.8330001
0.06669905 0.18605524 1.8430001
0.070209526 0.18605524 1.8430001
0.073720001 0.18605524 1.8430001
0.077230476 0.18605524 1.8430001
0.080740958 0.18605524 1.8430001
0.084251434 0.18605524 1.8430001
0.087761909 0.18605524 1.8430001
0.091272384 0.18605524 1.8430001
0.094782859 0.18605524 1.8430001
0.098293334 0.18605524 1.8430001
0.1023562 0.18706477 1.853
0.10588572 0.18706477 1.853
0.10941524 0.18706477 1.853
0.11355429 0.18807429 1.863
0.11710286 0.18807429 1.863
0.12129905 0.18908381 1.8730001
0.12486667 0.18908381 1.8730001
0.12843429 0.18908381 1.8730001
0.13200191 0.18908381 1.8730001
0.13556953 0.18908381 1.8730001
0.13913715 0.18908381 1.8730001
0.14346667 0.19009334 1.8830001
0.14705335 0.19009334 1.8830001
0.15064001 0.19009334 1.8830001
0.15422668 0.19009334 1.8830001
0.15873525 0.19120382 1.8940001
0.16234286 0.19120382 1.8940001
0.16595048 0.19120382 1.8940001
0.16955811 0.19120382 1.8940001
0.17408 0.19221334 1.904
0.17770667 0.19221334 1.904
0.18133333 0.19221334 1.904
0.18602858 0.19332382 1.9150001
0.1896762 0.19332382 1.9150001
0.19332382 0.19332382 1.9150001
0.19697143 0.19332382 1.9150001
0.20061906 0.19332382 1.9150001
0.20426667 0.19332382 1.9150001
0.20791429 0.19332382 1.9150001
0.21266668 0.19433334 1.9250001
0.21633334 0.19433334 1.9250001
0.22000001 0.19433334 1.9250001
0.22494477 0.19544382 1.9360001
0.22993144 0.19655429 1.9470001
0.23364002 0.19655429 1.9470001
0.23868953 0.19766477 1.9580001
0.24105716 0.19655429 1.9470001
0.24614859 0.19766477 1.9580001
0.24987811 0.19766477 1.9580001
0.25360763 0.19766477 1.9580001
0.25733715 0.19766477 1.9580001
0.25813335 0.19544382 1.9360001
-0.49316573 0.21476573 2.0880001
-0.48637715 0.21353143 2.0760002
-0.47661334 0.21096 2.0510001
-0.46994096 0.20972572 2.039
-0.46605715 0.20972572 2.039
-0.46217334 0.20972572 2.039
-0.45559239 0.20849143 2.0270002
-0.44905716 0.20725715 2.0150001
-0.44256765 0.20602286 2.003
-0.43634287 0.20489144 1.9920001
-0.42755431 0.20252572 1.9690001
-0.42143622 0.20139429 1.9580001
-0.41770667 0.20139429 1.9580001
-0.41165143 0.20026286 1.9470001
-0.4056381 0.19913143 1.9360001
-0.39966667 0.19800001 1.9250001
-0.39600003 0.19800001 1.9250001
-0.39029527 0.19697143 1.9150001
-0.38442668 0.19584 1.904
-0.37660003 0.19368 1.8830001
-0.37103239 0.19265144 1.8730001
-0.36746478 0.19265144 1.8730001
-0.3619543 0.19162287 1.863
-0.35840574 0.19162287 1.863
-0.35485715 0.19162287 1.863
-0.34942287 0.19059429 1.853
-0.34402668 0.18956572 1.8430001
-0.33866858 0.18853715 1.8330001
-0.33170286 0.18658286 1.8140001
-0.32824764 0.18658286 1.8140001
-0.32300192 0.1855543 1.8040001
-0.31797144 0.18462858 1.7950001
-0.31297526 0.18370287 1.7860001
-0.30957335 0.18370287 1.7860001
-0.30462858 0.18277715 1.7770001
-0.29971811 0.18185143 1.7680001
-0.29333335 0.18000001 1.7500001
-0.29000002 0.18000001 1.7500001
-0.2851924 0.17907429 1.7410001
-0.28041905 0.17814858 1.7320001
-0.27568001 0.17722286 1.723
-0.27113333 0.17640001 1.715
-0.26786667 0.17640001 1.715
-0.26321143 0.17547429 1.7060001
-0.2575238 0.17382857 1.6900001
-0.25430477 0.17382857 1.6900001
-0.24974859 0.17290287 1.6810001
-0.24654667 0.17290287 1.6810001
-0.24218668 0.17208001 1.6730001
-0.23785715 0.17125715 1.6650001
-0.23468572 0.17125715 1.6650001
-0.23151429 0.17125715 1.6650001
-0.22944 0.17208001 1.6730001
-0.22625335 0.17208001 1.6730001
-0.22306667 0.17208001 1.6730001
-0.21988001 0.17208001 1.6730001
-0.21772954 0.17290287 1.6810001
-0.21452762 0.17290287 1.6810001
-0.21132572 0.17290287 1.6810001
-0.20812382 0.17290287 1.6810001
-0.20492192 0.17290287 1.6810001
-0.20172001 0.17290287 1.6810001
-0.1985181 0.17290287 1.6810001
-0.1953162 0.17290287 1.6810001
-0.19314286 0.17382857 1.6900001
-0.18992382 0.17382857 1.6900001
-0.18670477 0.17382857 1.6900001
-0.18348572 0.17382857 1.6900001
-0.18112001 0.17465143 1.6980001
-0.17872381 0.17547429 1.7060001
-0.17547429 0.17547429 1.7060001
-0.17222477 0.17547429 1.7060001
-0.16897525 0.17547429 1.7060001
-0.1666 0.17640001 1.715
-0.16333334 0.17640001 1.715
-0.16006668 0.17640001 1.715
-0.1568 0.17640001 1.715
-0.15353334 0.17640001 1.715
-0.15026668 0.17640001 1.715
-0.147 0.17640001 1.715
-0.14373334 0.17640001 1.715
-0.14112191 0.17722286 1.723
-0.13784 0.17722286 1.723
-0.1345581 0.17722286 1.723
-0.13127619 0.17722286 1.723
-0.12799428 0.17722286 1.723
-0.12471239 0.17722286 1.723
-0.12143048 0.17722286 1.723
-0.11814857 0.17722286 1.723
-0.11486667 0.17722286 1.723
-0.11275048 0.17907429 1.7410001
-0.10943429 0.17907429 1.7410001
-0.1061181 0.17907429 1.7410001
-0.10280191 0.17907429 1.7410001
-0.1 0.18000001 1.7500001
-0.096666671 0.18000001 1.7500001
-0.093333334 0.18000001 1.7500001
-0.090000004 0.18000001 1.7500001
-0.086666673 0.18000001 1.7500001
-0.083333336 0.18000001 1.7500001
-0.080411434 0.18092573 1.7590001
-0.077060953 0.18092573 1.7590001
-0.073710479 0.18092573 1.7590001
-0.070360005 0.18092573 1.7590001
-0.067009524 0.18092573 1.7590001
-0.063984767 0.18185143 1.7680001
-0.060308572 0.18092573 1.7590001
-0.057249527 0.18185143 1.7680001
-0.053881906 0.18185143 1.7680001
-0.050514288 0.18185143 1.7680001
-0.047146667 0.18185143 1.7680001
-0.044001907 0.18277715 1.7770001
-0.040617146 0.18277715 1.7770001
-0.037232384 0.18277715 1.7770001
-0.034019049 0.18370287 1.7860001
-0.030617144 0.18370287 1.7860001
-0.027215239 0.18370287 1.7860001
-0.023933334 0.18462858 1.7950001
-0.020514287 0.18462858 1.7950001
-0.017095238 0.18462858 1.7950001
-0.013676191 0.18462858 1.7950001
-0.010257144 0.18462858 1.7950001
-0.0068380954 0.18462858 1.7950001
-0.0034361905 0.1855543 1.8040001
0 0.1855543 1.8040001
0.0034361905 0.1855543 1.8040001
0.0068723811 0.1855543 1.8040001
0.010308572 0.1855543 1.8040001
0.013744762 0.1855543 1.8040001
0.017180953 0.1855543 1.8040001
0.020731429 0.18658286 1.8140001
0.024186667 0.18658286 1.8140001
0.027641905 0.18658286 1.8140001
0.031097144 0.18658286 1.8140001
0.03455238 0.18658286 1.8140001
0.038007621 0.18658286 1.8140001
0.041462857 0.18658286 1.8140001
0.045165718 0.18761143 1.8240001
0.048640002 0.18761143 1.8240001
0.052114289 0.18761143 1.8240001
0.055588573 0.18761143 1.8240001
0.059354287 0.18853715 1.8330001
0.063188575 0.18956572 1.8430001
0.06669905 0.18956572 1.8430001
0.070209526 0.18956572 1.8430001
0.073720001 0.18956572 1.8430001
0.077230476 0.18956572 1.8430001
0.080740958 0.18956572 1.8430001
0.084251434 0.18956572 1.8430001
0.087761909 0.18956572 1.8430001
0.091272384 0.18956572 1.8430001
0.095297143 0.19059429 1.853
0.098826669 0.19059429 1.853
0.1023562 0.19059429 1.853
0.10588572 0.19059429 1.853
0.11059619 0.19265144 1.8730001
0.11355429 0.19162287 1.863
0.11710286 0.19162287 1.863
0.12129905 0.19265144 1.8730001
0.12486667 0.19265144 1.8730001
0.12843429 0.19265144 1.8730001
0.13270667 0.19368 1.8830001
0.13629334 0.19368 1.8830001
0.13988 0.19368 1.8830001
0.14346667 0.19368 1.8830001
0.14705335 0.19368 1.8830001
0.15064001 0.19368 1.8830001
0.15512763 0.19481143 1.8940001
0.15873525 0.19481143 1.8940001
0.16234286 0.19481143 1.8940001
0.16595048 0.19481143 1.8940001
0.17045334 0.19584 1.904
0.17408 0.19584 1.904
0.17770667 0.19584 1.904
0.18238096 0.19697143 1.9150001
0.18602858 0.19697143 1.9150001
0.1896762 0.19697143 1.9150001
0.19332382 0.19697143 1.9150001
0.19800001 0.19800001 1.9250001
0.20061906 0.19697143 1.9150001
0.20426667 0.19697143 1.9150001
0.20791429 0.19697143 1.9150001
0.21156192 0.19697143 1.9150001
0.21633334 0.19800001 1.9250001
0.22125715 0.19913143 1.9360001
0.22494477 0.19913143 1.9360001
0.22993144 0.20026286 1.9470001
0.23364002 0.20026286 1.9470001
0.23868953 0.20139429 1.9580001
0.24241905 0.20139429 1.9580001
0.24614859 0.20139429 1.9580001
0.24987811 0.20139429 1.9580001
0.25360763 0.20139429 1.9580001
0.25733715 0.20139429 1.9580001
0.26106668 0.20139429 1.9580001
-0.48726097 0.21612382 2.0630002
-0.48052001 0.21486667 2.0510001
-0.47661334 0.21486667 2.0510001
-0.46994096 0.21360953 2.039
-0.46605715 0.21360953 2.039
-0.46217334 0.21360953 2.039
-0.45559239 0.2123524 2.0270002
-0.44905716 0.21109524 2.0150001
-0.44256765 0.20983811 2.003
-0.43634287 0.20868573 1.9920001
-0.42755431 0.20627619 1.9690001
-0.42143622 0.20512381 1.9580001
-0.41770667 0.20512381 1.9580001
-0.41165143 0.20397143 1.9470001
-0.4056381 0.20281905 1.9360001
-0.39966667 0.20166667 1.9250001
-0.39600003 0.20166667 1.9250001
-0.39029527 0.20061906 1.9150001
-0.38442668 0.19946668 1.904
-0.37660003 0.19726667 1.8830001
-0.37301335 0.19726667 1.8830001
-0.36746478 0.19621906 1.8730001
-0.3619543 0.19517143 1.863
-0.35840574 0.19517143 1.863
-0.35485715 0.19517143 1.863
-0.34942287 0.19412382 1.853
-0.34402668 0.19307619 1.8430001
-0.33866858 0.19202858 1.8330001
-0.33353144 0.19108573 1.8240001
-0.32824764 0.1900381 1.8140001
-0.32300192 0.18899049 1.8040001
-0.31797144 0.18804763 1.7950001
-0.3145524 0.18804763 1.7950001
-0.30957335 0.18710476 1.7860001
-0.30462858 0.18616191 1.7770001
-0.29971811 0.18521905 1.7680001
-0.29484192 0.18427619 1.7590001
-0.29000002 0.18333334 1.7500001
-0.2851924 0.18239048 1.7410001
-0.28041905 0.18144763 1.7320001
-0.27568001 0.18050477 1.723
-0.27113333 0.17966667 1.715
-0.26786667 0.17966667 1.715
-0.26321143 0.17872381 1.7060001
-0.2575238 0.17704763 1.6900001
-0.25430477 0.17704763 1.6900001
-0.24974859 0.17610477 1.6810001
-0.24654667 0.17610477 1.6810001
-0.24218668 0.17526667 1.6730001
-0.23785715 0.17442858 1.6650001
-0.23468572 0.17442858 1.6650001
-0.23151429 0.17442858 1.6650001
-0.22944 0.17526667 1.6730001
-0.22733524 0.17610477 1.6810001
-0.22306667 0.17526667 1.6730001
-0.21988001 0.17526667 1.6730001
-0.21772954 0.17610477 1.6810001
-0.21452762 0.17610477 1.6810001
-0.21132572 0.17610477 1.6810001
-0.20812382 0.17610477 1.6810001
-0.20492192 0.17610477 1.6810001
-0.20172001 0.17610477 1.6810001
-0.1985181 0.17610477 1.6810001
-0.1953162 0.17610477 1.6810001
-0.19314286 0.17704763 1.6900001
-0.18992382 0.17704763 1.6900001
-0.18670477 0.17704763 1.6900001
-0.18348572 0.17704763 1.6900001
-0.18112001 0.17788573 1.6980001
-0.17872381 0.17872381 1.7060001
-0.17547429 0.17872381 1.7060001
-0.17313334 0.17966667 1.715
-0.16897525 0.17872381 1.7060001
-0.16572572 0.17872381 1.7060001
-0.16333334 0.17966667 1.715
-0.16006668 0.17966667 1.715
-0.1568 0.17966667 1.715
-0.15353334 0.17966667 1.715
-0.15026668 0.17966667 1.715
-0.147 0.17966667 1.715
-0.14373334 0.17966667 1.715
-0.14112191 0.18050477 1.723
-0.13784 0.18050477 1.723
-0.1345581 0.18050477 1.723
-0.13127619 0.18050477 1.723
-0.12799428 0.18050477 1.723
-0.12471239 0.18050477 1.723
-0.12143048 0.18050477 1.723
-0.11814857 0.18050477 1.723
-0.11486667 0.18050477 1.723
-0.11275048 0.18239048 1.7410001
-0.10943429 0.18239048 1.7410001
-0.10666667 0.18333334 1.7500001
-0.10280191 0.18239048 1.7410001
-0.1 0.18333334 1.7500001
-0.096666671 0.18333334 1.7500001
-0.093333334 0.18333334 1.7500001
-0.090000004 0.18333334 1.7500001
-0.086666673 0.18333334 1.7500001
-0.083333336 0.18333334 1.7500001
-0.080411434 0.18427619 1.7590001
-0.077060953 0.18427619 1.7590001
-0.073710479 0.18427619 1.7590001
-0.070360005 0.18427619 1.7590001
-0.067009524 0.18427619 1.7590001
-0.06365905 0.18427619 1.7590001
-0.060308572 0.18427619 1.7590001
-0.057249527 0.18521905 1.7680001
-0.053881906 0.18521905 1.7680001
-0.050514288 0.18521905 1.7680001
-0.047146667 0.18521905 1.7680001
-0.044001907 0.18616191 1.7770001
-0.040617146 0.18616191 1.7770001
-0.037420955 0.18710476 1.7860001
-0.034190476 0.18804763 1.7950001
-0.030771431 0.18804763 1.7950001
-0.027352381 0.18804763 1.7950001
-0.023933334 0.18804763 1.7950001
-0.020514287 0.18804763 1.7950001
-0.017095238 0.18804763 1.7950001
-0.013676191 0.18804763 1.7950001
-0.010257144 0.18804763 1.7950001
-0.0068380954 0.18804763 1.7950001
-0.0034190477 0.18804763 1.7950001
0 0.18804763 1.7950001
0.0034361905 0.18899049 1.8040001
0.0068723811 0.18899049 1.8040001
0.010308572 0.18899049 1.8040001
0.013744762 0.18899049 1.8040001
0.017180953 0.18899049 1.8040001
0.020731429 0.1900381 1.8140001
0.024186667 0.1900381 1.8140001
0.027641905 0.1900381 1.8140001
0.031097144 0.1900381 1.8140001
0.034742858 0.19108573 1.8240001
0.038217146 0.19108573 1.8240001
0.04169143 0.19108573 1.8240001
0.045165718 0.19108573 1.8240001
0.048880003 0.19202858 1.8330001
0.052371431 0.19202858 1.8330001
0.055862859 0.19202858 1.8330001
0.059354287 0.19202858 1.8330001
0.063188575 0.19307619 1.8430001
0.06669905 0.19307619 1.8430001
0.070209526 0.19307619 1.8430001
0.073720001 0.19307619 1.8430001
0.077230476 0.19307619 1.8430001
0.080740958 0.19307619 1.8430001
0.084251434 0.19307619 1.8430001
0.087761909 0.19307619 1.8430001
0.091272384 0.19307619 1.8430001
0.094782859 0.19307619 1.8430001
0.098826669 0.19412382 1.853
0.1023562 0.19412382 1.853
0.10588572 0.19412382 1.853
0.11000572 0.19517143 1.863
0.11355429 0.19517143 1.863
0.11710286 0.19517143 1.863
0.12129905 0.19621906 1.8730001
0.12486667 0.19621906 1.8730001
0.12843429 0.19621906 1.8730001
0.13270667 0.19726667 1.8830001
0.13629334 0.19726667 1.8830001
0.13988 0.19726667 1.8830001
0.14346667 0.19726667 1.8830001
0.14705335 0.19726667 1.8830001
0.15152 0.19841905 1.8940001
0.15512763 0.19841905 1.8940001
0.15873525 0.19841905 1.8940001
0.16234286 0.19841905 1.8940001
0.16682667 0.19946668 1.904
0.17045334 0.19946668 1.904
0.17408 0.19946668 1.904
0.17770667 0.19946668 1.904
0.18238096 0.20061906 1.9150001
0.18602858 0.20061906 1.9150001
0.1896762 0.20061906 1.9150001
0.19332382 0.20061906 1.9150001
0.19800001 0.20166667 1.9250001
0.20061906 0.20061906 1.9150001
0.20533334 0.20166667 1.9250001
0.20900001 0.20166667 1.9250001
0.21156192 0.20061906 1.9150001
0.21633334 0.20166667 1.9250001
0.22000001 0.20166667 1.9250001
0.22366667 0.20166667 1.9250001
0.22863239 0.20281905 1.9360001
0.23232001 0.20281905 1.9360001
0.23734859 0.20397143 1.9470001
0.24105716 0.20397143 1.9470001
0.24614859 0.20512381 1.9580001
0.24987811 0.20512381 1.9580001
0.25075811 0.20281905 1.9360001
0.25444573 0.20281905 1.9360001
0.25813335 0.20281905 1.9360001
-0.49033144 0.22144 2.0760002
-0.48333144 0.22005334 2.0630002
-0.47661334 0.21877334 2.0510001
-0.47270668 0.21877334 2.0510001
-0.46605715 0.21749334 2.039
-0.46217334 0.21749334 2.039
-0.45559239 0.21621335 2.0270002
-0.44905716 0.21493334 2.0150001
-0.44256765 0.21365334 2.003
-0.43875238 0.21365334 2.003
-0.42755431 0.21002668 1.9690001
-0.42143622 0.20885333 1.9580001
-0.41770667 0.20885333 1.9580001
-0.41165143 0.20768 1.9470001
-0.4056381 0.20650667 1.9360001
-0.40195048 0.20650667 1.9360001
-0.39600003 0.20533334 1.9250001
-0.39029527 0.20426667 1.9150001
-0.38664764 0.20426667 1.9150001
-0.3788 0.20202668 1.8940001
-0.37301335 0.20085335 1.8830001
-0.36746478 0.19978668 1.8730001
-0.3619543 0.19872001 1.863
-0.35840574 0.19872001 1.863
-0.35295239 0.19765334 1.853
-0.34942287 0.19765334 1.853
-0.34402668 0.19658667 1.8430001
-0.33866858 0.19552001 1.8330001
-0.33353144 0.19456001 1.8240001
-0.32824764 0.19349334 1.8140001
-0.32300192 0.19242667 1.8040001
-0.31797144 0.19146667 1.7950001
-0.31297526 0.19050667 1.7860001
-0.30957335 0.19050667 1.7860001
-0.30462858 0.18954667 1.7770001
-0.29971811 0.18858667 1.7680001
-0.29484192 0.18762667 1.7590001
-0.29000002 0.18666667 1.7500001
-0.2851924 0.18570668 1.7410001
-0.28041905 0.18474667 1.7320001
-0.27568001 0.18378668 1.723
-0.27239811 0.18378668 1.723
-0.26786667 0.18293335 1.715
-0.26460001 0.18293335 1.715
-0.2599619 0.18197334 1.7060001
-0.25430477 0.18026668 1.6900001
-0.24974859 0.17930667 1.6810001
-0.24654667 0.17930667 1.6810001
-0.24218668 0.17845334 1.6730001
-0.23900001 0.17845334 1.6730001
-0.23581333 0.17845334 1.6730001
-0.23262668 0.17845334 1.6730001
-0.22944 0.17845334 1.6730001
-0.22733524 0.17930667 1.6810001
-0.22306667 0.17845334 1.6730001
-0.21988001 0.17845334 1.6730001
-0.21772954 0.17930667 1.6810001
-0.21452762 0.17930667 1.6810001
-0.21132572 0.17930667 1.6810001
-0.20812382 0.17930667 1.6810001
-0.20492192 0.17930667 1.6810001
-0.20172001 0.17930667 1.6810001
-0.1985181 0.17930667 1.6810001
-0.1953162 0.17930667 1.6810001
-0.19314286 0.18026668 1.6900001
-0.18992382 0.18026668 1.6900001
-0.18670477 0.18026668 1.6900001
-0.18435429 0.18112001 1.6980001
-0.18112001 0.18112001 1.6980001
-0.17872381 0.18197334 1.7060001
-0.17547429 0.18197334 1.7060001
-0.17313334 0.18293335 1.715
-0.16897525 0.18197334 1.7060001
-0.1666 0.18293335 1.715
-0.16333334 0.18293335 1.715
-0.16006668 0.18293335 1.715
-0.1568 0.18293335 1.715
-0.15353334 0.18293335 1.715
-0.15026668 0.18293335 1.715
-0.147 0.18293335 1.715
-0.14373334 0.18293335 1.715
-0.14112191 0.18378668 1.723
-0.13784 0.18378668 1.723
-0.1345581 0.18378668 1.723
-0.13127619 0.18378668 1.723
-0.12799428 0.18378668 1.723
-0.12471239 0.18378668 1.723
-0.12143048 0.18378668 1.723
-0.11814857 0.18378668 1.723
-0.11546667 0.18474667 1.7320001
-0.11275048 0.18570668 1.7410001
-0.10943429 0.18570668 1.7410001
-0.10666667 0.18666667 1.7500001
-0.10280191 0.18570668 1.7410001
-0.1 0.18666667 1.7500001
-0.096666671 0.18666667 1.7500001
-0.093333334 0.18666667 1.7500001
-0.090000004 0.18666667 1.7500001
-0.086666673 0.18666667 1.7500001
-0.083333336 0.18666667 1.7500001
-0.080411434 0.18762667 1.7590001
-0.077060953 0.18762667 1.7590001
-0.073710479 0.18762667 1.7590001
-0.070360005 0.18762667 1.7590001
-0.067009524 0.18762667 1.7590001
-0.06365905 0.18762667 1.7590001
-0.060308572 0.18762667 1.7590001
-0.056958098 0.18762667 1.7590001
-0.05360762 0.18762667 1.7590001
-0.050257146 0.18762667 1.7590001
-0.046906669 0.18762667 1.7590001
-0.043779049 0.18858667 1.7680001
-0.040411431 0.18858667 1.7680001
-0.037232384 0.18954667 1.7770001
-0.033847619 0.18954667 1.7770001
-0.030617144 0.19050667 1.7860001
-0.027215239 0.19050667 1.7860001
-0.023933334 0.19146667 1.7950001
-0.020514287 0.19146667 1.7950001
-0.017095238 0.19146667 1.7950001
-0.013676191 0.19146667 1.7950001
-0.010257144 0.19146667 1.7950001
-0.0068380954 0.19146667 1.7950001
-0.0034190477 0.19146667 1.7950001
0 0.19242667 1.8040001
0.0034361905 0.19242667 1.8040001
0.0068723811 0.19242667 1.8040001
0.010308572 0.19242667 1.8040001
0.013744762 0.19242667 1.8040001
0.017180953 0.19242667 1.8040001
0.020617144 0.19242667 1.8040001
0.024186667 0.19349334 1.8140001
0.027641905 0.19349334 1.8140001
0.031268574 0.19456001 1.8240001
0.034914289 0.19552001 1.8330001
0.038405716 0.19552001 1.8330001
0.041897144 0.19552001 1.8330001
0.045388572 0.19552001 1.8330001
0.048880003 0.19552001 1.8330001
0.052114289 0.19456001 1.8240001
0.055862859 0.19552001 1.8330001
0.059354287 0.19552001 1.8330001
0.062845714 0.19552001 1.8330001
0.06669905 0.19658667 1.8430001
0.070209526 0.19658667 1.8430001
0.073720001 0.19658667 1.8430001
0.077230476 0.19658667 1.8430001
0.080740958 0.19658667 1.8430001
0.084251434 0.19658667 1.8430001
0.087761909 0.19658667 1.8430001
0.091272384 0.19658667 1.8430001
0.094782859 0.19658667 1.8430001
0.098826669 0.19765334 1.853
0.1023562 0.19765334 1.853
0.10588572 0.19765334 1.853
0.11000572 0.19872001 1.863
0.11355429 0.19872001 1.863
0.11710286 0.19872001 1.863
0.12129905 0.19978668 1.8730001
0.12486667 0.19978668 1.8730001
0.12843429 0.19978668 1.8730001
0.13270667 0.20085335 1.8830001
0.13629334 0.20085335 1.8830001
0.13988 0.20085335 1.8830001
0.14346667 0.20085335 1.8830001
0.14705335 0.20085335 1.8830001
0.15152 0.20202668 1.8940001
0.15512763 0.20202668 1.8940001
0.15873525 0.20202668 1.8940001
0.16234286 0.20202668 1.8940001
0.16595048 0.20202668 1.8940001
0.17045334 0.20309334 1.904
0.17408 0.20309334 1.904
0.17770667 0.20309334 1.904
0.18238096 0.20426667 1.9150001
0.18602858 0.20426667 1.9150001
0.1896762 0.20426667 1.9150001
0.19433334 0.20533334 1.9250001
0.19800001 0.20533334 1.9250001
0.20166667 0.20533334 1.9250001
0.20533334 0.20533334 1.9250001
0.20900001 0.20533334 1.9250001
0.21266668 0.20533334 1.9250001
0.21520953 0.20426667 1.9150001
0.22000001 0.20533334 1.9250001
0.22366667 0.20533334 1.9250001
0.22863239 0.20650667 1.9360001
0.23232001 0.20650667 1.9360001
0.23734859 0.20768 1.9470001
0.24105716 0.20768 1.9470001
0.24614859 0.20885333 1.9580001
0.24987811 0.20885333 1.9580001
0.25075811 0.20650667 1.9360001
0.25444573 0.20650667 1.9360001
0.25813335 0.20650667 1.9360001
-0.49623621 0.22810858 2.1010001
-0.48918858 0.22669715 2.0880001
-0.47661334 0.22268 2.0510001
-0.47270668 0.22268 2.0510001
-0.46605715 0.22137715 2.039
-0.46217334 0.22137715 2.039
-0.45559239 0.2200743 2.0270002
-0.44905716 0.21877144 2.0150001
-0.44256765 0.21746857 2.003
-0.43875238 0.21746857 2.003
-0.42755431 0.21377715 1.9690001
-0.42143622 0.21258287 1.9580001
-0.41536 0.21138857 1.9470001
-0.41165143 0.21138857 1.9470001
-0.4056381 0.21019429 1.9360001
-0.40195048 0.21019429 1.9360001
-0.39600003 0.20900001 1.9250001
-0.39029527 0.20791429 1.9150001
-0.38664764 0.20791429 1.9150001
-0.3788 0.2056343 1.8940001
-0.37301335 0.20444001 1.8830001
-0.36746478 0.2033543 1.8730001
-0.3619543 0.20226859 1.863
-0.35840574 0.20226859 1.863
-0.35485715 0.20226859 1.863
-0.34942287 0.20118286 1.853
-0.34402668 0.20009714 1.8430001
-0.33866858 0.19901143 1.8330001
-0.33353144 0.19803429 1.8240001
-0.32824764 0.19694857 1.8140001
-0.32300192 0.19586286 1.8040001
-0.31797144 0.19488572 1.7950001
-0.31297526 0.19390857 1.7860001
-0.30957335 0.19390857 1.7860001
-0.30462858 0.19293143 1.7770001
-0.29971811 0.1919543 1.7680001
-0.29484192 0.19097716 1.7590001
-0.29000002 0.19000001 1.7500001
-0.2851924 0.18902287 1.7410001
-0.28041905 0.18804573 1.7320001
-0.27568001 0.18706858 1.723
-0.27239811 0.18706858 1.723
-0.26786667 0.18620001 1.715
-0.26460001 0.18620001 1.715
-0.2599619 0.18522286 1.7060001
-0.25550857 0.18435429 1.6980001
-0.25108573 0.18348572 1.6900001
-0.24654667 0.18250857 1.6810001
-0.24334477 0.18250857 1.6810001
-0.23900001 0.18164001 1.6730001
-0.23581333 0.18164001 1.6730001
-0.23262668 0.18164001 1.6730001
-0.22944 0.18164001 1.6730001
-0.22733524 0.18250857 1.6810001
-0.22306667 0.18164001 1.6730001
-0.21988001 0.18164001 1.6730001
-0.21772954 0.18250857 1.6810001
-0.21452762 0.18250857 1.6810001
-0.21132572 0.18250857 1.6810001
-0.20812382 0.18250857 1.6810001
-0.20492192 0.18250857 1.6810001
-0.20172001 0.18250857 1.6810001
-0.1985181 0.18250857 1.6810001
-0.1953162 0.18250857 1.6810001
-0.19314286 0.18348572 1.6900001
-0.18992382 0.18348572 1.6900001
-0.18670477 0.18348572 1.6900001
-0.18435429 0.18435429 1.6980001
-0.18112001 0.18435429 1.6980001
-0.17872381 0.18522286 1.7060001
-0.17547429 0.18522286 1.7060001
-0.17313334 0.18620001 1.715
-0.16986667 0.18620001 1.715
-0.1666 0.18620001 1.715
-0.16333334 0.18620001 1.715
-0.16006668 0.18620001 1.715
-0.1568 0.18620001 1.715
-0.15353334 0.18620001 1.715
-0.15026668 0.18620001 1.715
-0.14768572 0.18706858 1.723
-0.14440382 0.18706858 1.723
-0.14112191 0.18706858 1.723
-0.13784 0.18706858 1.723
-0.13393334 0.18620001 1.715
-0.13127619 0.18706858 1.723
-0.12799428 0.18706858 1.723
-0.12471239 0.18706858 1.723
-0.12143048 0.18706858 1.723
-0.11814857 0.18706858 1.723
-0.11606667 0.18902287 1.7410001
-0.11275048 0.18902287 1.7410001
-0.10943429 0.18902287 1.7410001
-0.1061181 0.18902287 1.7410001
-0.10280191 0.18902287 1.7410001
-0.099485718 0.18902287 1.7410001
-0.096666671 0.19000001 1.7500001
-0.093333334 0.19000001 1.7500001
-0.090000004 0.19000001 1.7500001
-0.086666673 0.19000001 1.7500001
-0.083333336 0.19000001 1.7500001
-0.080000006 0.19000001 1.7500001
-0.077060953 0.19097716 1.7590001
-0.073710479 0.19097716 1.7590001
-0.070360005 0.19097716 1.7590001
-0.067009524 0.19097716 1.7590001
-0.06365905 0.19097716 1.7590001
-0.060308572 0.19097716 1.7590001
-0.056958098 0.19097716 1.7590001
-0.05360762 0.19097716 1.7590001
-0.050514288 0.1919543 1.7680001
-0.047146667 0.1919543 1.7680001
-0.044001907 0.19293143 1.7770001
-0.040617146 0.19293143 1.7770001
-0.037232384 0.19293143 1.7770001
-0.034019049 0.19390857 1.7860001
-0.030771431 0.19488572 1.7950001
-0.027352381 0.19488572 1.7950001
-0.023933334 0.19488572 1.7950001
-0.020514287 0.19488572 1.7950001
-0.017095238 0.19488572 1.7950001
-0.013676191 0.19488572 1.7950001
-0.010257144 0.19488572 1.7950001
-0.0068380954 0.19488572 1.7950001
-0.0034190477 0.19488572 1.7950001
0 0.19586286 1.8040001
0.0034361905 0.19586286 1.8040001
0.0068723811 0.19586286 1.8040001
0.010308572 0.19586286 1.8040001
0.013744762 0.19586286 1.8040001
0.017180953 0.19586286 1.8040001
0.020617144 0.19586286 1.8040001
0.024186667 0.19694857 1.8140001
0.027641905 0.19694857 1.8140001
0.031422857 0.19901143 1.8330001
0.034914289 0.19901143 1.8330001
0.038405716 0.19901143 1.8330001
0.041897144 0.19901143 1.8330001
0.045388572 0.19901143 1.8330001
0.048880003 0.19901143 1.8330001
0.052114289 0.19803429 1.8240001
0.055862859 0.19901143 1.8330001
0.059354287 0.19901143 1.8330001
0.062845714 0.19901143 1.8330001
0.06669905 0.20009714 1.8430001
0.070209526 0.20009714 1.8430001
0.073720001 0.20009714 1.8430001
0.077230476 0.20009714 1.8430001
0.080740958 0.20009714 1.8430001
0.084251434 0.20009714 1.8430001
0.087761909 0.20009714 1.8430001
0.091272384 0.20009714 1.8430001
0.094782859 0.20009714 1.8430001
0.098293334 0.20009714 1.8430001
0.1023562 0.20118286 1.853
0.10588572 0.20118286 1.853
0.11000572 0.20226859 1.863
0.11355429 0.20226859 1.863
0.11710286 0.20226859 1.863
0.12129905 0.2033543 1.8730001
0.12486667 0.2033543 1.8730001
0.12843429 0.2033543 1.8730001
0.13270667 0.20444001 1.8830001
0.13629334 0.20444001 1.8830001
0.13988 0.20444001 1.8830001
0.14346667 0.20444001 1.8830001
0.14705335 0.20444001 1.8830001
0.15152 0.2056343 1.8940001
0.15512763 0.2056343 1.8940001
0.15873525 0.2056343 1.8940001
0.16234286 0.2056343 1.8940001
0.16595048 0.2056343 1.8940001
0.16955811 0.2056343 1.8940001
0.17408 0.20672001 1.904
0.17770667 0.20672001 1.904
0.18238096 0.20791429 1.9150001
0.18602858 0.20791429 1.9150001
0.1896762 0.20791429 1.9150001
0.19332382 0.20791429 1.9150001
0.19800001 0.20900001 1.9250001
0.20166667 0.20900001 1.9250001
0.20533334 0.20900001 1.9250001
0.20900001 0.20900001 1.9250001
0.21156192 0.20791429 1.9150001
0.21633334 0.20900001 1.9250001
0.22000001 0.20900001 1.9250001
0.22366667 0.20900001 1.9250001
0.22863239 0.21019429 1.9360001
0.23232001 0.21019429 1.9360001
0.23600763 0.21019429 1.9360001
0.24241905 0.21258287 1.9580001
0.24614859 0.21258287 1.9580001
0.2484743 0.21138857 1.9470001
0.25075811 0.21019429 1.9360001
0.25444573 0.21019429 1.9360001
0.25813335 0.21019429 1.9360001
-0.49623621 0.23211049 2.1010001
-0.48918858 0.2306743 2.0880001
-0.47940192 0.2279124 2.0630002
-0.47270668 0.22658667 2.0510001
-0.46880001 0.22658667 2.0510001
-0.46217334 0.22526096 2.039
-0.45828953 0.22526096 2.039
-0.44905716 0.22260953 2.0150001
-0.44521907 0.22260953 2.0150001
-0.43875238 0.22128382 2.003
-0.42755431 0.21752763 1.9690001
-0.42143622 0.21631239 1.9580001
-0.41770667 0.21631239 1.9580001
-0.41165143 0.21509714 1.9470001
-0.4056381 0.21388191 1.9360001
-0.40195048 0.21388191 1.9360001
-0.39600003 0.21266668 1.9250001
-0.39029527 0.21156192 1.9150001
-0.38664764 0.21156192 1.9150001
-0.3788 0.20924191 1.8940001
-0.37301335 0.20802668 1.8830001
-0.36746478 0.20692191 1.8730001
-0.36389714 0.20692191 1.8730001
-0.35840574 0.20581715 1.863
-0.35485715 0.20581715 1.863
-0.34942287 0.20471239 1.853
-0.34402668 0.20360763 1.8430001
-0.33866858 0.20250286 1.8330001
-0.33170286 0.20040381 1.8140001
-0.3264381 0.19929905 1.8040001
-0.32139048 0.19830477 1.7950001
-0.31797144 0.19830477 1.7950001
-0.31297526 0.19731048 1.7860001
-0.30957335 0.19731048 1.7860001
-0.30462858 0.1963162 1.7770001
-0.29971811 0.19532192 1.7680001
-0.29484192 0.19432762 1.7590001
-0.29000002 0.19333334 1.7500001
-0.2851924 0.19233905 1.7410001
-0.28041905 0.19134477 1.7320001
-0.27568001 0.19035049 1.723
-0.27239811 0.19035049 1.723
-0.26786667 0.18946667 1.715
-0.26460001 0.18946667 1.715
-0.2599619 0.18847239 1.7060001
-0.25430477 0.18670477 1.6900001
-0.25108573 0.18670477 1.6900001
-0.24654667 0.18571049 1.6810001
-0.24334477 0.18571049 1.6810001
-0.24014287 0.18571049 1.6810001
-0.23581333 0.18482667 1.6730001
-0.23262668 0.18482667 1.6730001
-0.22944 0.18482667 1.6730001
-0.22733524 0.18571049 1.6810001
-0.22306667 0.18482667 1.6730001
-0.21988001 0.18482667 1.6730001
-0.21772954 0.18571049 1.6810001
-0.21452762 0.18571049 1.6810001
-0.21032001 0.18482667 1.6730001
-0.20812382 0.18571049 1.6810001
-0.20492192 0.18571049 1.6810001
-0.20172001 0.18571049 1.6810001
-0.1985181 0.18571049 1.6810001
-0.1953162 0.18571049 1.6810001
-0.19211429 0.18571049 1.6810001
-0.18992382 0.18670477 1.6900001
-0.18670477 0.18670477 1.6900001
-0.18348572 0.18670477 1.6900001
-0.18112001 0.18758857 1.6980001
-0.17872381 0.18847239 1.7060001
-0.17547429 0.18847239 1.7060001
-0.17313334 0.18946667 1.715
-0.16897525 0.18847239 1.7060001
-0.16572572 0.18847239 1.7060001
-0.16333334 0.18946667 1.715
-0.16006668 0.18946667 1.715
-0.1568 0.18946667 1.715
-0.15353334 0.18946667 1.715
-0.15026668 0.18946667 1.715
-0.147 0.18946667 1.715
-0.14440382 0.19035049 1.723
-0.14112191 0.19035049 1.723
-0.13784 0.19035049 1.723
-0.1345581 0.19035049 1.723
-0.13127619 0.19035049 1.723
-0.12799428 0.19035049 1.723
-0.12471239 0.19035049 1.723
-0.12143048 0.19035049 1.723
-0.11876572 0.19134477 1.7320001
-0.11546667 0.19134477 1.7320001
-0.11275048 0.19233905 1.7410001
-0.10943429 0.19233905 1.7410001
-0.10666667 0.19333334 1.7500001
-0.10280191 0.19233905 1.7410001
-0.1 0.19333334 1.7500001
-0.096666671 0.19333334 1.7500001
-0.093333334 0.19333334 1.7500001
-0.090000004 0.19333334 1.7500001
-0.086666673 0.19333334 1.7500001
-0.083333336 0.19333334 1.7500001
-0.080411434 0.19432762 1.7590001
-0.077060953 0.19432762 1.7590001
-0.073710479 0.19432762 1.7590001
-0.070360005 0.19432762 1.7590001
-0.067009524 0.19432762 1.7590001
-0.06365905 0.19432762 1.7590001
-0.060308572 0.19432762 1.7590001
-0.056958098 0.19432762 1.7590001
-0.053881906 0.19532192 1.7680001
-0.050514288 0.19532192 1.7680001
-0.046906669 0.19432762 1.7590001
-0.043779049 0.19532192 1.7680001
-0.040411431 0.19532192 1.7680001
-0.03704381 0.19532192 1.7680001
-0.034019049 0.19731048 1.7860001
-0.030617144 0.19731048 1.7860001
-0.027215239 0.19731048 1.7860001
-0.023933334 0.19830477 1.7950001
-0.020514287 0.19830477 1.7950001
-0.017095238 0.19830477 1.7950001
-0.013676191 0.19830477 1.7950001
-0.010257144 0.19830477 1.7950001
-0.0068380954 0.19830477 1.7950001
-0.0034190477 0.19830477 1.7950001
0 0.19929905 1.8040001
0.0034361905 0.19929905 1.8040001
0.0068723811 0.19929905 1.8040001
0.010308572 0.19929905 1.8040001
0.013744762 0.19929905 1.8040001
0.017180953 0.19929905 1.8040001
0.020731429 0.20040381 1.8140001
0.024186667 0.20040381 1.8140001
0.027641905 0.20040381 1.8140001
0.031422857 0.20250286 1.8330001
0.034914289 0.20250286 1.8330001
0.038405716 0.20250286 1.8330001
0.041897144 0.20250286 1.8330001
0.045388572 0.20250286 1.8330001
0.048880003 0.20250286 1.8330001
0.052371431 0.20250286 1.8330001
0.055862859 0.20250286 1.8330001
0.059354287 0.20250286 1.8330001
0.062845714 0.20250286 1.8330001
0.06669905 0.20360763 1.8430001
0.069828577 0.20250286 1.8330001
0.073720001 0.20360763 1.8430001
0.077230476 0.20360763 1.8430001
0.080740958 0.20360763 1.8430001
0.084251434 0.20360763 1.8430001
0.087761909 0.20360763 1.8430001
0.091272384 0.20360763 1.8430001
0.094782859 0.20360763 1.8430001
0.098826669 0.20471239 1.853
0.1023562 0.20471239 1.853
0.10588572 0.20471239 1.853
0.11000572 0.20581715 1.863
0.11416382 0.20692191 1.8730001
0.11773143 0.20692191 1.8730001
0.12129905 0.20692191 1.8730001
0.12486667 0.20692191 1.8730001
0.12843429 0.20692191 1.8730001
0.13270667 0.20802668 1.8830001
0.13629334 0.20802668 1.8830001
0.13988 0.20802668 1.8830001
0.14346667 0.20802668 1.8830001
0.14705335 0.20802668 1.8830001
0.15152 0.20924191 1.8940001
0.15512763 0.20924191 1.8940001
0.15873525 0.20924191 1.8940001
0.16234286 0.20924191 1.8940001
0.16682667 0.21034667 1.904
0.17045334 0.21034667 1.904
0.17408 0.21034667 1.904
0.17770667 0.21034667 1.904
0.18238096 0.21156192 1.9150001
0.18602858 0.21156192 1.9150001
0.1896762 0.21156192 1.9150001
0.19332382 0.21156192 1.9150001
0.19697143 0.21156192 1.9150001
0.20061906 0.21156192 1.9150001
0.20533334 0.21266668 1.9250001
0.20900001 0.21266668 1.9250001
0.21156192 0.21156192 1.9150001
0.21633334 0.21266668 1.9250001
0.22000001 0.21266668 1.9250001
0.22366667 0.21266668 1.9250001
0.22863239 0.21388191 1.9360001
0.23232001 0.21388191 1.9360001
0.23600763 0.21388191 1.9360001
0.24105716 0.21509714 1.9470001
0.24476573 0.21509714 1.9470001
0.2484743 0.21509714 1.9470001
0.25075811 0.21388191 1.9360001
0.25444573 0.21388191 1.9360001
0.25813335 0.21388191 1.9360001
-0.47940192 0.23184191 2.0630002
-0.47270668 0.23049334 2.0510001
-0.46880001 0.23049334 2.0510001
-0.46217334 0.22914477 2.039
-0.45828953 0.22914477 2.039
-0.44905716 0.22644763 2.0150001
-0.44521907 0.22644763 2.0150001
-0.43875238 0.22509906 2.003
-0.42755431 0.2212781 1.9690001
-0.42143622 0.22004192 1.9580001
-0.41770667 0.22004192 1.9580001
-0.41165143 0.21880572 1.9470001
-0.4056381 0.21756953 1.9360001
-0.40195048 0.21756953 1.9360001
-0.39600003 0.21633334 1.9250001
-0.39029527 0.21520953 1.9150001
-0.38664764 0.21520953 1.9150001
-0.38080001 0.21397334 1.904
-0.3751924 0.21284953 1.8940001
-0.36942667 0.21161334 1.8830001
-0.36389714 0.21048953 1.8730001
-0.35840574 0.20936573 1.863
-0.35485715 0.20936573 1.863
-0.34942287 0.20824191 1.853
-0.34402668 0.20711811 1.8430001
-0.33866858 0.20599429 1.8330001
-0.33170286 0.20385906 1.8140001
-0.3264381 0.20273525 1.8040001
-0.32139048 0.20172381 1.7950001
-0.31797144 0.20172381 1.7950001
-0.31297526 0.20071238 1.7860001
-0.30957335 0.20071238 1.7860001
-0.30462858 0.19970097 1.7770001
-0.29971811 0.19868954 1.7680001
-0.29484192 0.1976781 1.7590001
-0.29000002 0.19666667 1.7500001
-0.2851924 0.19565524 1.7410001
-0.28041905 0.19464381 1.7320001
-0.27568001 0.19363239 1.723
-0.27239811 0.19363239 1.723
-0.26786667 0.19273335 1.715
-0.26460001 0.19273335 1.715
-0.2599619 0.19172192 1.7060001
-0.25550857 0.19082287 1.6980001
-0.25108573 0.18992382 1.6900001
-0.24786668 0.18992382 1.6900001
-0.24334477 0.18891239 1.6810001
-0.24014287 0.18891239 1.6810001
-0.23581333 0.18801335 1.6730001
-0.23373906 0.18891239 1.6810001
-0.23053715 0.18891239 1.6810001
-0.22733524 0.18891239 1.6810001
-0.22306667 0.18801335 1.6730001
-0.21988001 0.18801335 1.6730001
-0.21772954 0.18891239 1.6810001
-0.21452762 0.18891239 1.6810001
-0.21032001 0.18801335 1.6730001
-0.20812382 0.18891239 1.6810001
-0.20492192 0.18891239 1.6810001
-0.20172001 0.18891239 1.6810001
-0.1985181 0.18891239 1.6810001
-0.1953162 0.18891239 1.6810001
-0.19211429 0.18891239 1.6810001
-0.18992382 0.18992382 1.6900001
-0.18670477 0.18992382 1.6900001
-0.18348572 0.18992382 1.6900001
-0.18112001 0.19082287 1.6980001
-0.17788573 0.19082287 1.6980001
-0.17547429 0.19172192 1.7060001
-0.17222477 0.19172192 1.7060001
-0.16986667 0.19273335 1.715
-0.1666 0.19273335 1.715
-0.16333334 0.19273335 1.715
-0.16006668 0.19273335 1.715
-0.1568 0.19273335 1.715
-0.15353334 0.19273335 1.715
-0.15026668 0.19273335 1.715
-0.14768572 0.19363239 1.723
-0.14440382 0.19363239 1.723
-0.14112191 0.19363239 1.723
-0.13784 0.19363239 1.723
-0.1345581 0.19363239 1.723
-0.13127619 0.19363239 1.723
-0.12799428 0.19363239 1.723
-0.12471239 0.19363239 1.723
-0.12206477 0.19464381 1.7320001
-0.11876572 0.19464381 1.7320001
-0.11606667 0.19565524 1.7410001
-0.11275048 0.19565524 1.7410001
-0.10943429 0.19565524 1.7410001
-0.10666667 0.19666667 1.7500001
-0.10280191 0.19565524 1.7410001
-0.1 0.19666667 1.7500001
-0.096666671 0.19666667 1.7500001
-0.093333334 0.19666667 1.7500001
-0.090000004 0.19666667 1.7500001
-0.086666673 0.19666667 1.7500001
-0.083761908 0.1976781 1.7590001
-0.080411434 0.1976781 1.7590001
-0.077060953 0.1976781 1.7590001
-0.073710479 0.1976781 1.7590001
-0.070360005 0.1976781 1.7590001
-0.067009524 0.1976781 1.7590001
-0.06365905 0.1976781 1.7590001
-0.060617145 0.19868954 1.7680001
-0.057249527 0.19868954 1.7680001
-0.053881906 0.19868954 1.7680001
-0.050514288 0.19868954 1.7680001
-0.047146667 0.19868954 1.7680001
-0.044001907 0.19970097 1.7770001
-0.040411431 0.19868954 1.7680001
-0.03704381 0.19868954 1.7680001
-0.034019049 0.20071238 1.7860001
-0.030617144 0.20071238 1.7860001
-0.027215239 0.20071238 1.7860001
-0.023933334 0.20172381 1.7950001
-0.020514287 0.20172381 1.7950001
-0.017009525 0.20071238 1.7860001
-0.013676191 0.20172381 1.7950001
-0.010257144 0.20172381 1.7950001
-0.0068380954 0.20172381 1.7950001
-0.0034190477 0.20172381 1.7950001
0 0.20273525 1.8040001
0.0034361905 0.20273525 1.8040001
0.0068723811 0.20273525 1.8040001
0.010308572 0.20273525 1.8040001
0.013744762 0.20273525 1.8040001
0.017180953 0.20273525 1.8040001
0.020617144 0.20273525 1.8040001
0.024186667 0.20385906 1.8140001
0.027794287 0.20498286 1.8240001
0.031268574 0.20498286 1.8240001
0.034914289 0.20599429 1.8330001
0.038405716 0.20599429 1.8330001
0.041897144 0.20599429 1.8330001
0.045388572 0.20599429 1.8330001
0.048880003 0.20599429 1.8330001
0.052371431 0.20599429 1.8330001
0.055862859 0.20599429 1.8330001
0.059354287 0.20599429 1.8330001
0.062845714 0.20599429 1.8330001
0.06669905 0.20711811 1.8430001
0.069828577 0.20599429 1.8330001
0.073720001 0.20711811 1.8430001
0.077230476 0.20711811 1.8430001
0.080740958 0.20711811 1.8430001
0.084251434 0.20711811 1.8430001
0.087761909 0.20711811 1.8430001
0.091272384 0.20711811 1.8430001
0.094782859 0.20711811 1.8430001
0.098293334 0.20711811 1.8430001
0.1023562 0.20824191 1.853
0.10588572 0.20824191 1.853
0.11000572 0.20936573 1.863
0.11416382 0.21048953 1.8730001
0.11773143 0.21048953 1.8730001
0.12129905 0.21048953 1.8730001
0.12486667 0.21048953 1.8730001
0.12843429 0.21048953 1.8730001
0.13200191 0.21048953 1.8730001
0.13629334 0.21161334 1.8830001
0.13988 0.21161334 1.8830001
0.14346667 0.21161334 1.8830001
