# .PCD v0.7 - Point Cloud Data file format
VERSION 0.7
FIELDS x y z
SIZE 4 4 4
TYPE F F F
COUNT 1 1 1
WIDTH 1496
HEIGHT 1
VIEWPOINT 0 0 0 1 0 0 0
POINTS 1496
DATA ascii
-0.056375239 0.27524382 1.7410001
-0.053059049 0.27524382 1.7410001
-0.049742859 0.27524382 1.7410001
-0.046186667 0.27382097 1.7320001
-0.043110479 0.27524382 1.7410001
-0.039794289 0.27524382 1.7410001
-0.036478095 0.27524382 1.7410001
-0.033161905 0.27524382 1.7410001
-0.029845715 0.27524382 1.7410001
-0.026666667 0.27666667 1.7500001
-0.023213334 0.27524382 1.7410001
-0.019897144 0.27524382 1.7410001
-0.016580952 0.27524382 1.7410001
-0.013196191 0.27382097 1.7320001
-0.0098971436 0.27382097 1.7320001
-0.0065980954 0.27382097 1.7320001
-0.0032990477 0.27382097 1.7320001
0 0.27382097 1.7320001
0.0032990477 0.27382097 1.7320001
0.0065980954 0.27382097 1.7320001
0.0098971436 0.27382097 1.7320001
0.013196191 0.27382097 1.7320001
0.016409524 0.27239811 1.723
0.01969143 0.27239811 1.723
0.022973334 0.27239811 1.723
0.026255239 0.27239811 1.723
0.029537143 0.27239811 1.723
0.032990478 0.27382097 1.7320001
0.036100954 0.27239811 1.723
0.03938286 0.27239811 1.723
0.042664763 0.27239811 1.723
0.045946669 0.27239811 1.723
0.049485717 0.27382097 1.7320001
0.052510478 0.27239811 1.723
0.055792384 0.27239811 1.723
0.059074286 0.27239811 1.723
0.062356193 0.27239811 1.723
0.065638095 0.27239811 1.723
0.068920001 0.27239811 1.723
0.071866669 0.27113333 1.715
0.075133339 0.27113333 1.715
0.07876572 0.27239811 1.723
0.081666671 0.27113333 1.715
0.084933333 0.27113333 1.715
0.088200003 0.27113333 1.715
0.091466673 0.27113333 1.715
0.094733335 0.27113333 1.715
0.098000005 0.27113333 1.715
0.10126667 0.27113333 1.715
0.10398477 0.26971048 1.7060001
0.10780001 0.27113333 1.715
0.11106667 0.27113333 1.715
0.11433334 0.27113333 1.715
0.11814857 0.27239811 1.723
0.12650476 0.28378096 1.7950001
0.12992382 0.28378096 1.7950001
0.13334286 0.28378096 1.7950001
0.14041905 0.29136953 1.8430001
0.14392953 0.29136953 1.8430001
0.14744 0.29136953 1.8430001
0.15176953 0.29295048 1.853
0.15529905 0.29295048 1.853
0.15882857 0.29295048 1.853
0.17655239 0.31856191 2.0150001
0.18146476 0.32045907 2.0270002
0.18642287 0.32235619 2.039
0.19142668 0.32425335 2.0510001
0.19533335 0.32425335 2.0510001
0.20040572 0.32615048 2.0630002
0.20433524 0.32615048 2.0630002
0.21078858 0.33010286 2.0880001
0.21476573 0.33010286 2.0880001
0.21874286 0.33010286 2.0880001
-0.43428573 0.29184002 1.8240001
-0.43081143 0.29184002 1.8240001
-0.42944574 0.29328001 1.8330001
-0.42595431 0.29328001 1.8330001
-0.42246288 0.29328001 1.8330001
-0.41691431 0.29184002 1.8240001
-0.41344002 0.29184002 1.8240001
-0.40996572 0.29184002 1.8240001
-0.40649146 0.29184002 1.8240001
-0.40301716 0.29184002 1.8240001
-0.39954287 0.29184002 1.8240001
-0.39606857 0.29184002 1.8240001
-0.39259431 0.29184002 1.8240001
-0.38698667 0.29024002 1.8140001
-0.38353145 0.29024002 1.8140001
-0.3800762 0.29024002 1.8140001
-0.37662098 0.29024002 1.8140001
-0.37316573 0.29024002 1.8140001
-0.36971048 0.29024002 1.8140001
-0.36625525 0.29024002 1.8140001
-0.36080003 0.28864002 1.8040001
-0.35736382 0.28864002 1.8040001
-0.35588953 0.29024002 1.8140001
-0.35243431 0.29024002 1.8140001
-0.34897906 0.29024002 1.8140001
-0.34361905 0.28864002 1.8040001
-0.34206858 0.29024002 1.8140001
-0.33674669 0.28864002 1.8040001
-0.33515811 0.29024002 1.8140001
-0.32987431 0.28864002 1.8040001
-0.3264381 0.28864002 1.8040001
-0.32300192 0.28864002 1.8040001
-0.31956571 0.28864002 1.8040001
-0.31612954 0.28864002 1.8040001
-0.31269336 0.28864002 1.8040001
-0.30925715 0.28864002 1.8040001
-0.30582097 0.28864002 1.8040001
-0.3008762 0.2872 1.7950001
-0.29745716 0.2872 1.7950001
-0.29403812 0.2872 1.7950001
-0.29061905 0.2872 1.7950001
-0.2872 0.2872 1.7950001
-0.28378096 0.2872 1.7950001
-0.28036192 0.2872 1.7950001
-0.27694288 0.2872 1.7950001
-0.27352381 0.2872 1.7950001
-0.27010477 0.2872 1.7950001
-0.26668572 0.2872 1.7950001
-0.26326668 0.2872 1.7950001
-0.25854477 0.28576002 1.7860001
-0.25514287 0.28576002 1.7860001
-0.25174096 0.28576002 1.7860001
-0.24833906 0.28576002 1.7860001
-0.24493715 0.28576002 1.7860001
-0.24153525 0.28576002 1.7860001
-0.23813334 0.28576002 1.7860001
-0.23473144 0.28576002 1.7860001
-0.23132953 0.28576002 1.7860001
-0.22792763 0.28576002 1.7860001
-0.22452572 0.28576002 1.7860001
-0.22112381 0.28576002 1.7860001
-0.21772191 0.28576002 1.7860001
-0.21324001 0.28432 1.7770001
-0.20985524 0.28432 1.7770001
-0.20647049 0.28432 1.7770001
-0.20411429 0.28576002 1.7860001
-0.19970097 0.28432 1.7770001
-0.1963162 0.28432 1.7770001
-0.19293143 0.28432 1.7770001
-0.18954667 0.28432 1.7770001
-0.18616191 0.28432 1.7770001
-0.18277715 0.28432 1.7770001
-0.17939238 0.28432 1.7770001
-0.17600763 0.28432 1.7770001
-0.17174858 0.28288001 1.7680001
-0.16838096 0.28288001 1.7680001
-0.16501334 0.28288001 1.7680001
-0.16164573 0.28288001 1.7680001
-0.15827811 0.28288001 1.7680001
-0.15491048 0.28288001 1.7680001
-0.15154286 0.28288001 1.7680001
-0.14817524 0.28288001 1.7680001
-0.14480762 0.28288001 1.7680001
-0.14144 0.28288001 1.7680001
-0.13807239 0.28288001 1.7680001
-0.13470477 0.28288001 1.7680001
-0.13066858 0.28144002 1.7590001
-0.1273181 0.28144002 1.7590001
-0.12396763 0.28144002 1.7590001
-0.12061714 0.28144002 1.7590001
-0.11726667 0.28144002 1.7590001
-0.1139162 0.28144002 1.7590001
-0.11056572 0.28144002 1.7590001
-0.10721524 0.28144002 1.7590001
-0.10386477 0.28144002 1.7590001
-0.10051429 0.28144002 1.7590001
-0.097163811 0.28144002 1.7590001
-0.093333334 0.28 1.7500001
-0.090462863 0.28144002 1.7590001
-0.086666673 0.28 1.7500001
-0.083333336 0.28 1.7500001
-0.080000006 0.28 1.7500001
-0.076666668 0.28 1.7500001
-0.073333338 0.28 1.7500001
-0.069640003 0.27856001 1.7410001
-0.066323809 0.27856001 1.7410001
-0.063007623 0.27856001 1.7410001
-0.059691429 0.27856001 1.7410001
-0.056375239 0.27856001 1.7410001
-0.053059049 0.27856001 1.7410001
-0.049742859 0.27856001 1.7410001
-0.046426669 0.27856001 1.7410001
-0.043110479 0.27856001 1.7410001
-0.039794289 0.27856001 1.7410001
-0.036478095 0.27856001 1.7410001
-0.033161905 0.27856001 1.7410001
-0.029845715 0.27856001 1.7410001
-0.026666667 0.28 1.7500001
-0.023333333 0.28 1.7500001
-0.019897144 0.27856001 1.7410001
-0.016580952 0.27856001 1.7410001
-0.013264762 0.27856001 1.7410001
-0.0098971436 0.27712002 1.7320001
-0.0065980954 0.27712002 1.7320001
-0.0032990477 0.27712002 1.7320001
0 0.27712002 1.7320001
0.0032990477 0.27712002 1.7320001
0.0065980954 0.27712002 1.7320001
0.0098971436 0.27712002 1.7320001
0.013196191 0.27712002 1.7320001
0.016409524 0.27568001 1.723
0.01969143 0.27568001 1.723
0.022973334 0.27568001 1.723
0.026255239 0.27568001 1.723
0.029537143 0.27568001 1.723
0.032990478 0.27712002 1.7320001
0.036100954 0.27568001 1.723
0.039588574 0.27712002 1.7320001
0.042664763 0.27568001 1.723
0.045946669 0.27568001 1.723
0.049228575 0.27568001 1.723
0.052510478 0.27568001 1.723
0.055792384 0.27568001 1.723
0.059074286 0.27568001 1.723
0.062356193 0.27568001 1.723
0.065638095 0.27568001 1.723
0.068920001 0.27568001 1.723
0.072201908 0.27568001 1.723
0.075483814 0.27568001 1.723
0.07876572 0.27568001 1.723
0.082047619 0.27568001 1.723
0.085329525 0.27568001 1.723
0.088611431 0.27568001 1.723
0.091893338 0.27568001 1.723
0.095175244 0.27568001 1.723
0.098000005 0.2744 1.715
0.10126667 0.2744 1.715
0.10453334 0.2744 1.715
0.10780001 0.2744 1.715
0.11106667 0.2744 1.715
0.11486667 0.27568001 1.723
0.11814857 0.27568001 1.723
0.12206477 0.27712002 1.7320001
0.12992382 0.2872 1.7950001
0.13401143 0.28864002 1.8040001
0.13744763 0.28864002 1.8040001
0.14392953 0.29488 1.8430001
0.14744 0.29488 1.8430001
0.15095048 0.29488 1.8430001
0.15446095 0.29488 1.8430001
0.17168573 0.32048002 2.003
0.17550096 0.32048002 2.003
0.17931619 0.32048002 2.003
0.18532573 0.32432002 2.0270002
0.19030668 0.32624 2.039
0.19533335 0.32816002 2.0510001
0.19924001 0.32816002 2.0510001
0.20433524 0.33008 2.0630002
0.20826477 0.33008 2.0630002
0.21476573 0.33408001 2.0880001
0.21874286 0.33408001 2.0880001
-0.43428573 0.29531428 1.8240001
-0.43081143 0.29531428 1.8240001
-0.42944574 0.29677144 1.8330001
-0.42595431 0.29677144 1.8330001
-0.42246288 0.29677144 1.8330001
-0.41691431 0.29531428 1.8240001
-0.41344002 0.29531428 1.8240001
-0.40996572 0.29531428 1.8240001
-0.40649146 0.29531428 1.8240001
-0.40301716 0.29531428 1.8240001
-0.39954287 0.29531428 1.8240001
-0.39606857 0.29531428 1.8240001
-0.39259431 0.29531428 1.8240001
-0.38912001 0.29531428 1.8240001
-0.38564572 0.29531428 1.8240001
-0.38217145 0.29531428 1.8240001
-0.37662098 0.29369524 1.8140001
-0.37316573 0.29369524 1.8140001
-0.36971048 0.29369524 1.8140001
-0.36625525 0.29369524 1.8140001
-0.3628 0.29369524 1.8140001
-0.35736382 0.2920762 1.8040001
-0.35588953 0.29369524 1.8140001
-0.35243431 0.29369524 1.8140001
-0.34897906 0.29369524 1.8140001
-0.34552383 0.29369524 1.8140001
-0.34206858 0.29369524 1.8140001
-0.33861333 0.29369524 1.8140001
-0.33515811 0.29369524 1.8140001
-0.32987431 0.2920762 1.8040001
-0.3264381 0.2920762 1.8040001
-0.32300192 0.2920762 1.8040001
-0.31956571 0.2920762 1.8040001
-0.31612954 0.2920762 1.8040001
-0.31113335 0.29061905 1.7950001
-0.30771428 0.29061905 1.7950001
-0.30582097 0.2920762 1.8040001
-0.3008762 0.29061905 1.7950001
-0.29745716 0.29061905 1.7950001
-0.29403812 0.29061905 1.7950001
-0.29061905 0.29061905 1.7950001
-0.2872 0.29061905 1.7950001
-0.28378096 0.29061905 1.7950001
-0.28036192 0.29061905 1.7950001
-0.27694288 0.29061905 1.7950001
-0.27352381 0.29061905 1.7950001
-0.27010477 0.29061905 1.7950001
-0.26668572 0.29061905 1.7950001
-0.26326668 0.29061905 1.7950001
-0.25854477 0.28916192 1.7860001
-0.25514287 0.28916192 1.7860001
-0.25174096 0.28916192 1.7860001
-0.24833906 0.28916192 1.7860001
-0.24493715 0.28916192 1.7860001
-0.24153525 0.28916192 1.7860001
-0.23813334 0.28916192 1.7860001
-0.23473144 0.28916192 1.7860001
-0.23132953 0.28916192 1.7860001
-0.22792763 0.28916192 1.7860001
-0.22452572 0.28916192 1.7860001
-0.22112381 0.28916192 1.7860001
-0.21772191 0.28916192 1.7860001
-0.21324001 0.28770477 1.7770001
-0.20985524 0.28770477 1.7770001
-0.20647049 0.28770477 1.7770001
-0.20308572 0.28770477 1.7770001
-0.19970097 0.28770477 1.7770001
-0.1963162 0.28770477 1.7770001
-0.19293143 0.28770477 1.7770001
-0.18954667 0.28770477 1.7770001
-0.18616191 0.28770477 1.7770001
-0.18277715 0.28770477 1.7770001
-0.17939238 0.28770477 1.7770001
-0.17600763 0.28770477 1.7770001
-0.17174858 0.28624764 1.7680001
-0.16838096 0.28624764 1.7680001
-0.16501334 0.28624764 1.7680001
-0.16246858 0.28770477 1.7770001
-0.15827811 0.28624764 1.7680001
-0.15491048 0.28624764 1.7680001
-0.15154286 0.28624764 1.7680001
-0.14892954 0.28770477 1.7770001
-0.14554477 0.28770477 1.7770001
-0.14216 0.28770477 1.7770001
-0.13807239 0.28624764 1.7680001
-0.13470477 0.28624764 1.7680001
-0.13133715 0.28624764 1.7680001
-0.1273181 0.28479049 1.7590001
-0.12396763 0.28479049 1.7590001
-0.12061714 0.28479049 1.7590001
-0.11726667 0.28479049 1.7590001
-0.1139162 0.28479049 1.7590001
-0.11056572 0.28479049 1.7590001
-0.10721524 0.28479049 1.7590001
-0.10386477 0.28479049 1.7590001
-0.10051429 0.28479049 1.7590001
-0.097163811 0.28479049 1.7590001
-0.093333334 0.28333333 1.7500001
-0.090462863 0.28479049 1.7590001
-0.087112382 0.28479049 1.7590001
-0.083333336 0.28333333 1.7500001
-0.080000006 0.28333333 1.7500001
-0.076666668 0.28333333 1.7500001
-0.073333338 0.28333333 1.7500001
-0.069640003 0.28187621 1.7410001
-0.066323809 0.28187621 1.7410001
-0.062681906 0.28041905 1.7320001
-0.059691429 0.28187621 1.7410001
-0.056375239 0.28187621 1.7410001
-0.052784763 0.28041905 1.7320001
-0.049742859 0.28187621 1.7410001
-0.046426669 0.28187621 1.7410001
-0.043110479 0.28187621 1.7410001
-0.039794289 0.28187621 1.7410001
-0.036478095 0.28187621 1.7410001
-0.033161905 0.28187621 1.7410001
-0.029845715 0.28187621 1.7410001
-0.026666667 0.28333333 1.7500001
-0.023333333 0.28333333 1.7500001
-0.020000001 0.28333333 1.7500001
-0.016580952 0.28187621 1.7410001
-0.013264762 0.28187621 1.7410001
-0.0098971436 0.28041905 1.7320001
-0.0065980954 0.28041905 1.7320001
-0.0032990477 0.28041905 1.7320001
0 0.28041905 1.7320001
0.0032990477 0.28041905 1.7320001
0.0065980954 0.28041905 1.7320001
0.0098971436 0.28041905 1.7320001
0.013196191 0.28041905 1.7320001
0.016409524 0.27896193 1.723
0.01969143 0.27896193 1.723
0.022973334 0.27896193 1.723
0.026255239 0.27896193 1.723
0.029537143 0.27896193 1.723
0.032990478 0.28041905 1.7320001
0.036100954 0.27896193 1.723
0.03938286 0.27896193 1.723
0.042664763 0.27896193 1.723
0.045946669 0.27896193 1.723
0.049228575 0.27896193 1.723
0.052510478 0.27896193 1.723
0.055792384 0.27896193 1.723
0.059074286 0.27896193 1.723
0.062356193 0.27896193 1.723
0.065638095 0.27896193 1.723
0.068920001 0.27896193 1.723
0.072201908 0.27896193 1.723
0.075133339 0.27766669 1.715
0.07876572 0.27896193 1.723
0.081666671 0.27766669 1.715
0.084933333 0.27766669 1.715
0.088611431 0.27896193 1.723
0.091466673 0.27766669 1.715
0.095175244 0.27896193 1.723
0.098000005 0.27766669 1.715
0.10126667 0.27766669 1.715
0.10453334 0.27766669 1.715
0.10780001 0.27766669 1.715
0.11106667 0.27766669 1.715
0.11486667 0.27896193 1.723
0.11814857 0.27896193 1.723
0.12206477 0.28041905 1.7320001
0.12536381 0.28041905 1.7320001
0.12866285 0.28041905 1.7320001
0.13401905 0.28479049 1.7590001
0.13736953 0.28479049 1.7590001
0.14072001 0.28479049 1.7590001
0.15095048 0.29839048 1.8430001
0.16133334 0.31166667 1.9250001
0.16782857 0.31700954 1.9580001
0.17348573 0.32057145 1.9800001
0.17931619 0.32429525 2.003
0.18422858 0.3262381 2.0150001
0.18806668 0.3262381 2.0150001
0.19419049 0.33012381 2.039
0.19924001 0.33206668 2.0510001
0.20433524 0.33400953 2.0630002
0.20826477 0.33400953 2.0630002
0.21219429 0.33400953 2.0630002
0.21612382 0.33400953 2.0630002
-0.43081143 0.29878858 1.8240001
-0.42944574 0.30026287 1.8330001
-0.42595431 0.30026287 1.8330001
-0.42246288 0.30026287 1.8330001
-0.41691431 0.29878858 1.8240001
-0.41344002 0.29878858 1.8240001
-0.40996572 0.29878858 1.8240001
-0.40649146 0.29878858 1.8240001
-0.40301716 0.29878858 1.8240001
-0.39954287 0.29878858 1.8240001
-0.39606857 0.29878858 1.8240001
-0.39259431 0.29878858 1.8240001
-0.38698667 0.29715049 1.8140001
-0.38564572 0.29878858 1.8240001
-0.3800762 0.29715049 1.8140001
-0.37662098 0.29715049 1.8140001
-0.37316573 0.29715049 1.8140001
-0.36971048 0.29715049 1.8140001
-0.36625525 0.29715049 1.8140001
-0.3628 0.29715049 1.8140001
-0.35934478 0.29715049 1.8140001
-0.35588953 0.29715049 1.8140001
-0.35243431 0.29715049 1.8140001
-0.34897906 0.29715049 1.8140001
-0.34552383 0.29715049 1.8140001
-0.34206858 0.29715049 1.8140001
-0.33861333 0.29715049 1.8140001
-0.33515811 0.29715049 1.8140001
-0.32987431 0.29551238 1.8040001
-0.3264381 0.29551238 1.8040001
-0.32300192 0.29551238 1.8040001
-0.31956571 0.29551238 1.8040001
-0.31612954 0.29551238 1.8040001
-0.31269336 0.29551238 1.8040001
-0.30925715 0.29551238 1.8040001
-0.30582097 0.29551238 1.8040001
-0.3008762 0.29403812 1.7950001
-0.29745716 0.29403812 1.7950001
-0.29403812 0.29403812 1.7950001
-0.29061905 0.29403812 1.7950001
-0.2872 0.29403812 1.7950001
-0.28378096 0.29403812 1.7950001
-0.28036192 0.29403812 1.7950001
-0.27694288 0.29403812 1.7950001
-0.27352381 0.29403812 1.7950001
-0.27010477 0.29403812 1.7950001
-0.26668572 0.29403812 1.7950001
-0.26326668 0.29403812 1.7950001
-0.25984764 0.29403812 1.7950001
-0.25514287 0.29256383 1.7860001
-0.25174096 0.29256383 1.7860001
-0.24959049 0.29403812 1.7950001
-0.24493715 0.29256383 1.7860001
-0.24153525 0.29256383 1.7860001
-0.23813334 0.29256383 1.7860001
-0.23473144 0.29256383 1.7860001
-0.23132953 0.29256383 1.7860001
-0.22792763 0.29256383 1.7860001
-0.22452572 0.29256383 1.7860001
-0.22112381 0.29256383 1.7860001
-0.21772191 0.29256383 1.7860001
-0.21432 0.29256383 1.7860001
-0.2109181 0.29256383 1.7860001
-0.20751619 0.29256383 1.7860001
-0.20411429 0.29256383 1.7860001
-0.19970097 0.29108953 1.7770001
-0.1963162 0.29108953 1.7770001
-0.19293143 0.29108953 1.7770001
-0.18954667 0.29108953 1.7770001
-0.18616191 0.29108953 1.7770001
-0.18277715 0.29108953 1.7770001
-0.17939238 0.29108953 1.7770001
-0.17600763 0.29108953 1.7770001
-0.17174858 0.28961524 1.7680001
-0.16838096 0.28961524 1.7680001
-0.16501334 0.28961524 1.7680001
-0.16246858 0.29108953 1.7770001
-0.15827811 0.28961524 1.7680001
-0.15569906 0.29108953 1.7770001
-0.15231429 0.29108953 1.7770001
-0.14892954 0.29108953 1.7770001
-0.14554477 0.29108953 1.7770001
-0.14216 0.29108953 1.7770001
-0.13877524 0.29108953 1.7770001
-0.13470477 0.28961524 1.7680001
-0.13133715 0.28961524 1.7680001
-0.12796953 0.28961524 1.7680001
-0.12396763 0.28814095 1.7590001
-0.12061714 0.28814095 1.7590001
-0.11726667 0.28814095 1.7590001
-0.1139162 0.28814095 1.7590001
-0.11000001 0.28666669 1.7500001
-0.10721524 0.28814095 1.7590001
-0.10386477 0.28814095 1.7590001
-0.1 0.28666669 1.7500001
-0.096666671 0.28666669 1.7500001
-0.093333334 0.28666669 1.7500001
-0.090000004 0.28666669 1.7500001
-0.086666673 0.28666669 1.7500001
-0.083333336 0.28666669 1.7500001
-0.080000006 0.28666669 1.7500001
-0.076666668 0.28666669 1.7500001
-0.073333338 0.28666669 1.7500001
-0.069640003 0.2851924 1.7410001
-0.066323809 0.2851924 1.7410001
-0.062681906 0.28371811 1.7320001
-0.05938286 0.28371811 1.7320001
-0.056083813 0.28371811 1.7320001
-0.052784763 0.28371811 1.7320001
-0.049485717 0.28371811 1.7320001
-0.046426669 0.2851924 1.7410001
-0.043110479 0.2851924 1.7410001
-0.039794289 0.2851924 1.7410001
-0.036478095 0.2851924 1.7410001
-0.033161905 0.2851924 1.7410001
-0.029845715 0.2851924 1.7410001
-0.026666667 0.28666669 1.7500001
-0.023333333 0.28666669 1.7500001
-0.019897144 0.2851924 1.7410001
-0.016580952 0.2851924 1.7410001
-0.013264762 0.2851924 1.7410001
-0.0098971436 0.28371811 1.7320001
-0.0065980954 0.28371811 1.7320001
-0.0032990477 0.28371811 1.7320001
0 0.28371811 1.7320001
0.0032990477 0.28371811 1.7320001
0.0065980954 0.28371811 1.7320001
0.0098971436 0.28371811 1.7320001
0.013196191 0.28371811 1.7320001
0.016409524 0.28224382 1.723
0.01969143 0.28224382 1.723
0.022973334 0.28224382 1.723
0.026255239 0.28224382 1.723
0.029537143 0.28224382 1.723
0.032990478 0.28371811 1.7320001
0.036100954 0.28224382 1.723
0.039588574 0.28371811 1.7320001
0.042664763 0.28224382 1.723
0.046186667 0.28371811 1.7320001
0.049485717 0.28371811 1.7320001
0.052510478 0.28224382 1.723
0.055792384 0.28224382 1.723
0.059074286 0.28224382 1.723
0.062356193 0.28224382 1.723
0.065638095 0.28224382 1.723
0.068920001 0.28224382 1.723
0.072201908 0.28224382 1.723
0.075483814 0.28224382 1.723
0.07876572 0.28224382 1.723
0.081666671 0.28093335 1.715
0.084933333 0.28093335 1.715
0.088611431 0.28224382 1.723
0.091466673 0.28093335 1.715
0.094733335 0.28093335 1.715
0.098000005 0.28093335 1.715
0.10126667 0.28093335 1.715
0.10453334 0.28093335 1.715
0.10780001 0.28093335 1.715
0.11158477 0.28224382 1.723
0.11486667 0.28224382 1.723
0.11814857 0.28224382 1.723
0.12269905 0.2851924 1.7410001
0.12601525 0.2851924 1.7410001
0.13066858 0.28814095 1.7590001
0.13401905 0.28814095 1.7590001
0.14955239 0.31369525 1.9150001
0.154 0.31533334 1.9250001
0.15766667 0.31533334 1.9250001
0.16133334 0.31533334 1.9250001
0.16688572 0.31893715 1.9470001
0.1725219 0.32254097 1.9690001
0.17833143 0.32630858 1.9920001
0.18313144 0.32811049 2.003
0.18806668 0.33007619 2.0150001
0.19419049 0.33400762 2.039
0.19924001 0.33597335 2.0510001
0.20433524 0.33793905 2.0630002
0.20826477 0.33793905 2.0630002
0.21219429 0.33793905 2.0630002
0.21612382 0.33793905 2.0630002
-0.43642858 0.3037543 1.8330001
-0.43293715 0.3037543 1.8330001
-0.42944574 0.3037543 1.8330001
-0.42595431 0.3037543 1.8330001
-0.42246288 0.3037543 1.8330001
-0.41691431 0.30226287 1.8240001
-0.41344002 0.30226287 1.8240001
-0.40996572 0.30226287 1.8240001
-0.40649146 0.30226287 1.8240001
-0.40301716 0.30226287 1.8240001
-0.39954287 0.30226287 1.8240001
-0.39606857 0.30226287 1.8240001
-0.39259431 0.30226287 1.8240001
-0.38698667 0.30060571 1.8140001
-0.38564572 0.30226287 1.8240001
-0.38217145 0.30226287 1.8240001
-0.37869716 0.30226287 1.8240001
-0.37316573 0.30060571 1.8140001
-0.36971048 0.30060571 1.8140001
-0.36625525 0.30060571 1.8140001
-0.3628 0.30060571 1.8140001
-0.35934478 0.30060571 1.8140001
-0.35588953 0.30060571 1.8140001
-0.35243431 0.30060571 1.8140001
-0.34897906 0.30060571 1.8140001
-0.34552383 0.30060571 1.8140001
-0.34206858 0.30060571 1.8140001
-0.33861333 0.30060571 1.8140001
-0.33515811 0.30060571 1.8140001
-0.33170286 0.30060571 1.8140001
-0.3264381 0.29894859 1.8040001
-0.32479239 0.30060571 1.8140001
-0.31956571 0.29894859 1.8040001
-0.31612954 0.29894859 1.8040001
-0.31269336 0.29894859 1.8040001
-0.30925715 0.29894859 1.8040001
-0.30582097 0.29894859 1.8040001
-0.3008762 0.29745716 1.7950001
-0.29745716 0.29745716 1.7950001
-0.29403812 0.29745716 1.7950001
-0.29061905 0.29745716 1.7950001
-0.2872 0.29745716 1.7950001
-0.28378096 0.29745716 1.7950001
-0.28036192 0.29745716 1.7950001
-0.27694288 0.29745716 1.7950001
-0.27352381 0.29745716 1.7950001
-0.27010477 0.29745716 1.7950001
-0.26668572 0.29745716 1.7950001
-0.26326668 0.29745716 1.7950001
-0.25984764 0.29745716 1.7950001
-0.25642857 0.29745716 1.7950001
-0.25174096 0.29596573 1.7860001
-0.24959049 0.29745716 1.7950001
-0.24493715 0.29596573 1.7860001
-0.24275239 0.29745716 1.7950001
-0.23813334 0.29596573 1.7860001
-0.23473144 0.29596573 1.7860001
-0.23132953 0.29596573 1.7860001
-0.22792763 0.29596573 1.7860001
-0.22452572 0.29596573 1.7860001
-0.22112381 0.29596573 1.7860001
-0.21772191 0.29596573 1.7860001
-0.21432 0.29596573 1.7860001
-0.2109181 0.29596573 1.7860001
-0.20751619 0.29596573 1.7860001
-0.20411429 0.29596573 1.7860001
-0.19970097 0.2944743 1.7770001
-0.1963162 0.2944743 1.7770001
-0.19293143 0.2944743 1.7770001
-0.18954667 0.2944743 1.7770001
-0.18616191 0.2944743 1.7770001
-0.18277715 0.2944743 1.7770001
-0.17939238 0.2944743 1.7770001
-0.17600763 0.2944743 1.7770001
-0.17174858 0.29298288 1.7680001
-0.16838096 0.29298288 1.7680001
-0.16585334 0.2944743 1.7770001
-0.16246858 0.2944743 1.7770001
-0.15908381 0.2944743 1.7770001
-0.15569906 0.2944743 1.7770001
-0.15231429 0.2944743 1.7770001
-0.14892954 0.2944743 1.7770001
-0.14554477 0.2944743 1.7770001
-0.14216 0.2944743 1.7770001
-0.13807239 0.29298288 1.7680001
-0.13470477 0.29298288 1.7680001
-0.13133715 0.29298288 1.7680001
-0.1273181 0.29149145 1.7590001
-0.12396763 0.29149145 1.7590001
-0.12061714 0.29149145 1.7590001
-0.11726667 0.29149145 1.7590001
-0.1139162 0.29149145 1.7590001
-0.11000001 0.29000002 1.7500001
-0.10721524 0.29149145 1.7590001
-0.10333334 0.29000002 1.7500001
-0.1 0.29000002 1.7500001
-0.096666671 0.29000002 1.7500001
-0.093333334 0.29000002 1.7500001
-0.090000004 0.29000002 1.7500001
-0.086666673 0.29000002 1.7500001
-0.083333336 0.29000002 1.7500001
-0.080000006 0.29000002 1.7500001
-0.076666668 0.29000002 1.7500001
-0.073333338 0.29000002 1.7500001
-0.069640003 0.28850859 1.7410001
-0.066323809 0.28850859 1.7410001
-0.062681906 0.28701717 1.7320001
-0.05938286 0.28701717 1.7320001
-0.056375239 0.28850859 1.7410001
-0.052784763 0.28701717 1.7320001
-0.049485717 0.28701717 1.7320001
-0.046426669 0.28850859 1.7410001
-0.043110479 0.28850859 1.7410001
-0.039794289 0.28850859 1.7410001
-0.036478095 0.28850859 1.7410001
-0.033161905 0.28850859 1.7410001
-0.029845715 0.28850859 1.7410001
-0.026666667 0.29000002 1.7500001
-0.023333333 0.29000002 1.7500001
-0.019897144 0.28850859 1.7410001
-0.016580952 0.28850859 1.7410001
-0.013264762 0.28850859 1.7410001
-0.0099485721 0.28850859 1.7410001
-0.0065980954 0.28701717 1.7320001
-0.0032990477 0.28701717 1.7320001
0 0.28701717 1.7320001
0.0032990477 0.28701717 1.7320001
0.0065980954 0.28701717 1.7320001
0.0098971436 0.28701717 1.7320001
0.013196191 0.28701717 1.7320001
0.016495239 0.28701717 1.7320001
0.01969143 0.28552574 1.723
0.022973334 0.28552574 1.723
0.026255239 0.28552574 1.723
0.029537143 0.28552574 1.723
0.032819048 0.28552574 1.723
0.036100954 0.28552574 1.723
0.039588574 0.28701717 1.7320001
0.042887621 0.28701717 1.7320001
0.046186667 0.28701717 1.7320001
0.049485717 0.28701717 1.7320001
0.052510478 0.28552574 1.723
0.055792384 0.28552574 1.723
0.059074286 0.28552574 1.723
0.062356193 0.28552574 1.723
0.065638095 0.28552574 1.723
0.068920001 0.28552574 1.723
0.072201908 0.28552574 1.723
0.075483814 0.28552574 1.723
0.07876572 0.28552574 1.723
0.082047619 0.28552574 1.723
0.085329525 0.28552574 1.723
0.088611431 0.28552574 1.723
0.091466673 0.28420001 1.715
0.094733335 0.28420001 1.715
0.098000005 0.28420001 1.715
0.10126667 0.28420001 1.715
0.10453334 0.28420001 1.715
0.10780001 0.28420001 1.715
0.11158477 0.28552574 1.723
0.11486667 0.28552574 1.723
0.11814857 0.28552574 1.723
0.12269905 0.28850859 1.7410001
0.12601525 0.28850859 1.7410001
0.13066858 0.29149145 1.7590001
0.13401905 0.29149145 1.7590001
0.14955239 0.31734288 1.9150001
0.1532 0.31734288 1.9150001
0.15766667 0.31900001 1.9250001
0.16133334 0.31900001 1.9250001
0.16688572 0.32264572 1.9470001
0.1715581 0.32446858 1.9580001
0.17833143 0.33010286 1.9920001
0.18313144 0.33192572 2.003
0.18806668 0.33391431 2.0150001
0.19419049 0.33789143 2.039
0.19924001 0.33988002 2.0510001
0.20314668 0.33988002 2.0510001
0.20705333 0.33988002 2.0510001
0.21219429 0.34186858 2.0630002
0.21612382 0.34186858 2.0630002
-0.43642858 0.30724573 1.8330001
-0.43293715 0.30724573 1.8330001
-0.42944574 0.30724573 1.8330001
-0.42595431 0.30724573 1.8330001
-0.42246288 0.30724573 1.8330001
-0.41691431 0.30573717 1.8240001
-0.41344002 0.30573717 1.8240001
-0.40996572 0.30573717 1.8240001
-0.40649146 0.30573717 1.8240001
-0.40301716 0.30573717 1.8240001
-0.39954287 0.30573717 1.8240001
-0.39606857 0.30573717 1.8240001
-0.39259431 0.30573717 1.8240001
-0.38912001 0.30573717 1.8240001
-0.38564572 0.30573717 1.8240001
-0.38217145 0.30573717 1.8240001
-0.37869716 0.30573717 1.8240001
-0.37316573 0.30406097 1.8140001
-0.36971048 0.30406097 1.8140001
-0.36625525 0.30406097 1.8140001
-0.3628 0.30406097 1.8140001
-0.35736382 0.30238476 1.8040001
-0.35392764 0.30238476 1.8040001
-0.35243431 0.30406097 1.8140001
-0.34897906 0.30406097 1.8140001
-0.34361905 0.30238476 1.8040001
-0.34206858 0.30406097 1.8140001
-0.33674669 0.30238476 1.8040001
-0.33515811 0.30406097 1.8140001
-0.33170286 0.30406097 1.8140001
-0.3264381 0.30238476 1.8040001
-0.32300192 0.30238476 1.8040001
-0.31956571 0.30238476 1.8040001
-0.31612954 0.30238476 1.8040001
-0.31269336 0.30238476 1.8040001
-0.30925715 0.30238476 1.8040001
-0.30429524 0.3008762 1.7950001
-0.3008762 0.3008762 1.7950001
-0.29745716 0.3008762 1.7950001
-0.29403812 0.3008762 1.7950001
-0.29061905 0.3008762 1.7950001
-0.2872 0.3008762 1.7950001
-0.28378096 0.3008762 1.7950001
-0.28036192 0.3008762 1.7950001
-0.27694288 0.3008762 1.7950001
-0.27352381 0.3008762 1.7950001
-0.27010477 0.3008762 1.7950001
-0.26668572 0.3008762 1.7950001
-0.26326668 0.3008762 1.7950001
-0.25984764 0.3008762 1.7950001
-0.25642857 0.3008762 1.7950001
-0.25174096 0.29936764 1.7860001
-0.24959049 0.3008762 1.7950001
-0.24493715 0.29936764 1.7860001
-0.24153525 0.29936764 1.7860001
-0.23813334 0.29936764 1.7860001
-0.23473144 0.29936764 1.7860001
-0.23132953 0.29936764 1.7860001
-0.22792763 0.29936764 1.7860001
-0.22452572 0.29936764 1.7860001
-0.22112381 0.29936764 1.7860001
-0.21881905 0.3008762 1.7950001
-0.21432 0.29936764 1.7860001
-0.2109181 0.29936764 1.7860001
-0.20751619 0.29936764 1.7860001
-0.20411429 0.29936764 1.7860001
-0.19970097 0.29785907 1.7770001
-0.1963162 0.29785907 1.7770001
-0.19293143 0.29785907 1.7770001
-0.18954667 0.29785907 1.7770001
-0.18616191 0.29785907 1.7770001
-0.18277715 0.29785907 1.7770001
-0.17939238 0.29785907 1.7770001
-0.17600763 0.29785907 1.7770001
-0.17262286 0.29785907 1.7770001
-0.16923811 0.29785907 1.7770001
-0.16585334 0.29785907 1.7770001
-0.16246858 0.29785907 1.7770001
-0.15908381 0.29785907 1.7770001
-0.15569906 0.29785907 1.7770001
-0.15231429 0.29785907 1.7770001
-0.14892954 0.29785907 1.7770001
-0.14554477 0.29785907 1.7770001
-0.14144 0.29635048 1.7680001
-0.13807239 0.29635048 1.7680001
-0.13470477 0.29635048 1.7680001
-0.13133715 0.29635048 1.7680001
-0.1273181 0.29484192 1.7590001
-0.12396763 0.29484192 1.7590001
-0.12061714 0.29484192 1.7590001
-0.11726667 0.29484192 1.7590001
-0.1139162 0.29484192 1.7590001
-0.11000001 0.29333335 1.7500001
-0.10721524 0.29484192 1.7590001
-0.10333334 0.29333335 1.7500001
-0.1 0.29333335 1.7500001
-0.096666671 0.29333335 1.7500001
-0.093333334 0.29333335 1.7500001
-0.090000004 0.29333335 1.7500001
-0.086666673 0.29333335 1.7500001
-0.083333336 0.29333335 1.7500001
-0.080000006 0.29333335 1.7500001
-0.076666668 0.29333335 1.7500001
-0.073333338 0.29333335 1.7500001
-0.07 0.29333335 1.7500001
-0.066323809 0.29182476 1.7410001
-0.063007623 0.29182476 1.7410001
-0.059691429 0.29182476 1.7410001
-0.056375239 0.29182476 1.7410001
-0.052784763 0.29031619 1.7320001
-0.049485717 0.29031619 1.7320001
-0.046186667 0.29031619 1.7320001
-0.043110479 0.29182476 1.7410001
-0.039794289 0.29182476 1.7410001
-0.036478095 0.29182476 1.7410001
-0.033161905 0.29182476 1.7410001
-0.029845715 0.29182476 1.7410001
-0.026666667 0.29333335 1.7500001
-0.023333333 0.29333335 1.7500001
-0.020000001 0.29333335 1.7500001
-0.016580952 0.29182476 1.7410001
-0.013264762 0.29182476 1.7410001
-0.0099485721 0.29182476 1.7410001
-0.0065980954 0.29031619 1.7320001
-0.0032990477 0.29031619 1.7320001
0 0.29031619 1.7320001
0.0032990477 0.29031619 1.7320001
0.0065980954 0.29031619 1.7320001
0.0098971436 0.29031619 1.7320001
0.013196191 0.29031619 1.7320001
0.016495239 0.29031619 1.7320001
0.019794287 0.29031619 1.7320001
0.022973334 0.28880763 1.723
0.026255239 0.28880763 1.723
0.029537143 0.28880763 1.723
0.032990478 0.29031619 1.7320001
0.036289524 0.29031619 1.7320001
0.039588574 0.29031619 1.7320001
0.042887621 0.29031619 1.7320001
0.046186667 0.29031619 1.7320001
0.049485717 0.29031619 1.7320001
0.052784763 0.29031619 1.7320001
0.055792384 0.28880763 1.723
0.059074286 0.28880763 1.723
0.062356193 0.28880763 1.723
0.065638095 0.28880763 1.723
0.068920001 0.28880763 1.723
0.072201908 0.28880763 1.723
0.075483814 0.28880763 1.723
0.07876572 0.28880763 1.723
0.082047619 0.28880763 1.723
0.085329525 0.28880763 1.723
0.088611431 0.28880763 1.723
0.091893338 0.28880763 1.723
0.095175244 0.28880763 1.723
0.098000005 0.28746668 1.715
0.10126667 0.28746668 1.715
0.10453334 0.28746668 1.715
0.10830286 0.28880763 1.723
0.11158477 0.28880763 1.723
0.11486667 0.28880763 1.723
0.11814857 0.28880763 1.723
0.12206477 0.29031619 1.7320001
0.12601525 0.29182476 1.7410001
0.13066858 0.29484192 1.7590001
0.13401905 0.29484192 1.7590001
0.14955239 0.3209905 1.9150001
0.1532 0.3209905 1.9150001
0.15766667 0.32266667 1.9250001
0.16133334 0.32266667 1.9250001
0.16688572 0.3263543 1.9470001
0.1715581 0.32819811 1.9580001
0.17833143 0.33389714 1.9920001
0.18313144 0.33574095 2.003
0.18806668 0.3377524 2.0150001
0.19419049 0.34177524 2.039
0.1980743 0.34177524 2.039
0.20314668 0.34378669 2.0510001
0.20826477 0.34579811 2.0630002
0.21219429 0.34579811 2.0630002
0.21612382 0.34579811 2.0630002
-0.43880954 0.31243238 1.8430001
-0.43293715 0.31073716 1.8330001
-0.42944574 0.31073716 1.8330001
-0.42595431 0.31073716 1.8330001
-0.42246288 0.31073716 1.8330001
-0.41897145 0.31073716 1.8330001
-0.41344002 0.30921143 1.8240001
-0.40996572 0.30921143 1.8240001
-0.40649146 0.30921143 1.8240001
-0.40301716 0.30921143 1.8240001
-0.39954287 0.30921143 1.8240001
-0.39606857 0.30921143 1.8240001
-0.39259431 0.30921143 1.8240001
-0.38912001 0.30921143 1.8240001
-0.38564572 0.30921143 1.8240001
-0.38217145 0.30921143 1.8240001
-0.37869716 0.30921143 1.8240001
-0.37522286 0.30921143 1.8240001
-0.36971048 0.30751619 1.8140001
-0.36625525 0.30751619 1.8140001
-0.3628 0.30751619 1.8140001
-0.35736382 0.30582097 1.8040001
-0.35392764 0.30582097 1.8040001
-0.35243431 0.30751619 1.8140001
-0.34705526 0.30582097 1.8040001
-0.34361905 0.30582097 1.8040001
-0.34206858 0.30751619 1.8140001
-0.33674669 0.30582097 1.8040001
-0.33515811 0.30751619 1.8140001
-0.33170286 0.30751619 1.8140001
-0.32824764 0.30751619 1.8140001
-0.32300192 0.30582097 1.8040001
-0.31956571 0.30582097 1.8040001
-0.31612954 0.30582097 1.8040001
-0.31269336 0.30582097 1.8040001
-0.30925715 0.30582097 1.8040001
-0.30429524 0.30429524 1.7950001
-0.3008762 0.30429524 1.7950001
-0.29745716 0.30429524 1.7950001
-0.29403812 0.30429524 1.7950001
-0.29061905 0.30429524 1.7950001
-0.2872 0.30429524 1.7950001
-0.28378096 0.30429524 1.7950001
-0.28036192 0.30429524 1.7950001
-0.27694288 0.30429524 1.7950001
-0.27352381 0.30429524 1.7950001
-0.27010477 0.30429524 1.7950001
-0.26668572 0.30429524 1.7950001
-0.26326668 0.30429524 1.7950001
-0.25984764 0.30429524 1.7950001
-0.25642857 0.30429524 1.7950001
-0.25300953 0.30429524 1.7950001
-0.24959049 0.30429524 1.7950001
-0.24493715 0.30276954 1.7860001
-0.24275239 0.30429524 1.7950001
-0.23813334 0.30276954 1.7860001
-0.23473144 0.30276954 1.7860001
-0.23132953 0.30276954 1.7860001
-0.22792763 0.30276954 1.7860001
-0.22452572 0.30276954 1.7860001
-0.22112381 0.30276954 1.7860001
-0.21881905 0.30429524 1.7950001
-0.21432 0.30276954 1.7860001
-0.2109181 0.30276954 1.7860001
-0.20751619 0.30276954 1.7860001
-0.20411429 0.30276954 1.7860001
-0.20071238 0.30276954 1.7860001
-0.1963162 0.30124381 1.7770001
-0.19293143 0.30124381 1.7770001
-0.18954667 0.30124381 1.7770001
-0.18616191 0.30124381 1.7770001
-0.18277715 0.30124381 1.7770001
-0.17939238 0.30124381 1.7770001
-0.17600763 0.30124381 1.7770001
-0.17262286 0.30124381 1.7770001
-0.16923811 0.30124381 1.7770001
-0.16585334 0.30124381 1.7770001
-0.16246858 0.30124381 1.7770001
-0.15908381 0.30124381 1.7770001
-0.15569906 0.30124381 1.7770001
-0.15231429 0.30124381 1.7770001
-0.14892954 0.30124381 1.7770001
-0.14554477 0.30124381 1.7770001
-0.14216 0.30124381 1.7770001
-0.13807239 0.29971811 1.7680001
-0.13470477 0.29971811 1.7680001
-0.13133715 0.29971811 1.7680001
-0.1273181 0.29819238 1.7590001
-0.12396763 0.29819238 1.7590001
-0.12061714 0.29819238 1.7590001
-0.11726667 0.29819238 1.7590001
-0.11333334 0.29666668 1.7500001
-0.11000001 0.29666668 1.7500001
-0.10666667 0.29666668 1.7500001
-0.10333334 0.29666668 1.7500001
-0.1 0.29666668 1.7500001
-0.096666671 0.29666668 1.7500001
-0.093333334 0.29666668 1.7500001
-0.090000004 0.29666668 1.7500001
-0.086666673 0.29666668 1.7500001
-0.083333336 0.29666668 1.7500001
-0.080000006 0.29666668 1.7500001
-0.076666668 0.29666668 1.7500001
-0.073333338 0.29666668 1.7500001
-0.07 0.29666668 1.7500001
-0.06666667 0.29666668 1.7500001
-0.063007623 0.29514095 1.7410001
-0.059691429 0.29514095 1.7410001
-0.056375239 0.29514095 1.7410001
-0.053059049 0.29514095 1.7410001
-0.049742859 0.29514095 1.7410001
-0.046426669 0.29514095 1.7410001
-0.043110479 0.29514095 1.7410001
-0.039794289 0.29514095 1.7410001
-0.036478095 0.29514095 1.7410001
-0.033161905 0.29514095 1.7410001
-0.029845715 0.29514095 1.7410001
-0.026529524 0.29514095 1.7410001
-0.023333333 0.29666668 1.7500001
-0.020000001 0.29666668 1.7500001
-0.016666668 0.29666668 1.7500001
-0.013264762 0.29514095 1.7410001
-0.0099485721 0.29514095 1.7410001
-0.0065980954 0.29361525 1.7320001
-0.0032990477 0.29361525 1.7320001
0 0.29361525 1.7320001
0.0032990477 0.29361525 1.7320001
0.0065980954 0.29361525 1.7320001
0.0098971436 0.29361525 1.7320001
0.013196191 0.29361525 1.7320001
0.016495239 0.29361525 1.7320001
0.019794287 0.29361525 1.7320001
0.022973334 0.29208952 1.723
0.026255239 0.29208952 1.723
0.02969143 0.29361525 1.7320001
0.032990478 0.29361525 1.7320001
0.036289524 0.29361525 1.7320001
0.039588574 0.29361525 1.7320001
0.042887621 0.29361525 1.7320001
0.046186667 0.29361525 1.7320001
0.049485717 0.29361525 1.7320001
0.052510478 0.29208952 1.723
0.055792384 0.29208952 1.723
0.059074286 0.29208952 1.723
0.062356193 0.29208952 1.723
0.065638095 0.29208952 1.723
0.068920001 0.29208952 1.723
0.072201908 0.29208952 1.723
0.075483814 0.29208952 1.723
0.07876572 0.29208952 1.723
0.082047619 0.29208952 1.723
0.085329525 0.29208952 1.723
0.088611431 0.29208952 1.723
0.091466673 0.29073334 1.715
0.094733335 0.29073334 1.715
0.098000005 0.29073334 1.715
0.10126667 0.29073334 1.715
0.10453334 0.29073334 1.715
0.10830286 0.29208952 1.723
0.11158477 0.29208952 1.723
0.11486667 0.29208952 1.723
0.11814857 0.29208952 1.723
0.12206477 0.29361525 1.7320001
0.12536381 0.29361525 1.7320001
0.12866285 0.29361525 1.7320001
0.14506668 0.32277334 1.904
0.14869334 0.32277334 1.904
0.1532 0.3246381 1.9150001
0.15766667 0.32633334 1.9250001
0.16133334 0.32633334 1.9250001
0.16594286 0.32819811 1.9360001
0.17059429 0.33006287 1.9470001
0.17725715 0.33565715 1.9800001
0.18313144 0.33955622 2.003
0.18806668 0.34159049 2.0150001
0.19304763 0.34362477 2.0270002
0.1980743 0.34565905 2.039
0.20314668 0.34769335 2.0510001
0.20826477 0.34972763 2.0630002
0.21610287 0.35616955 2.1010001
0.22010477 0.35616955 2.1010001
0.22410667 0.35616955 2.1010001
-0.43880954 0.31594288 1.8430001
-0.43293715 0.31422859 1.8330001
-0.42944574 0.31422859 1.8330001
-0.42595431 0.31422859 1.8330001
-0.42246288 0.31422859 1.8330001
-0.41691431 0.31268573 1.8240001
-0.41344002 0.31268573 1.8240001
-0.40996572 0.31268573 1.8240001
-0.40649146 0.31268573 1.8240001
-0.40301716 0.31268573 1.8240001
-0.39954287 0.31268573 1.8240001
-0.39606857 0.31268573 1.8240001
-0.39259431 0.31268573 1.8240001
-0.38912001 0.31268573 1.8240001
-0.38564572 0.31268573 1.8240001
-0.38217145 0.31268573 1.8240001
-0.37869716 0.31268573 1.8240001
-0.37522286 0.31268573 1.8240001
-0.36971048 0.31097144 1.8140001
-0.36625525 0.31097144 1.8140001
-0.3628 0.31097144 1.8140001
-0.35934478 0.31097144 1.8140001
-0.35588953 0.31097144 1.8140001
-0.35243431 0.31097144 1.8140001
-0.34705526 0.30925715 1.8040001
-0.34361905 0.30925715 1.8040001
-0.34018287 0.30925715 1.8040001
-0.33674669 0.30925715 1.8040001
-0.33331048 0.30925715 1.8040001
-0.33170286 0.31097144 1.8140001
-0.3264381 0.30925715 1.8040001
-0.32300192 0.30925715 1.8040001
-0.31956571 0.30925715 1.8040001
-0.31612954 0.30925715 1.8040001
-0.31269336 0.30925715 1.8040001
-0.30925715 0.30925715 1.8040001
-0.30429524 0.30771428 1.7950001
-0.3008762 0.30771428 1.7950001
-0.29745716 0.30771428 1.7950001
-0.29403812 0.30771428 1.7950001
-0.29061905 0.30771428 1.7950001
-0.2872 0.30771428 1.7950001
-0.28378096 0.30771428 1.7950001
-0.28036192 0.30771428 1.7950001
-0.27694288 0.30771428 1.7950001
-0.27352381 0.30771428 1.7950001
-0.27010477 0.30771428 1.7950001
-0.26668572 0.30771428 1.7950001
-0.26326668 0.30771428 1.7950001
-0.25984764 0.30771428 1.7950001
-0.25642857 0.30771428 1.7950001
-0.25300953 0.30771428 1.7950001
-0.24959049 0.30771428 1.7950001
-0.24617144 0.30771428 1.7950001
-0.24275239 0.30771428 1.7950001
-0.23933335 0.30771428 1.7950001
-0.23591429 0.30771428 1.7950001
-0.23249525 0.30771428 1.7950001
-0.22907619 0.30771428 1.7950001
-0.22565715 0.30771428 1.7950001
-0.22223811 0.30771428 1.7950001
-0.21881905 0.30771428 1.7950001
-0.21432 0.30617145 1.7860001
-0.2109181 0.30617145 1.7860001
-0.20751619 0.30617145 1.7860001
-0.20411429 0.30617145 1.7860001
-0.20071238 0.30617145 1.7860001
-0.1963162 0.30462858 1.7770001
-0.19293143 0.30462858 1.7770001
-0.18954667 0.30462858 1.7770001
-0.18616191 0.30462858 1.7770001
-0.18277715 0.30462858 1.7770001
-0.17939238 0.30462858 1.7770001
-0.17600763 0.30462858 1.7770001
-0.17262286 0.30462858 1.7770001
-0.16923811 0.30462858 1.7770001
-0.16585334 0.30462858 1.7770001
-0.16246858 0.30462858 1.7770001
-0.15908381 0.30462858 1.7770001
-0.15569906 0.30462858 1.7770001
-0.15231429 0.30462858 1.7770001
-0.14892954 0.30462858 1.7770001
-0.14554477 0.30462858 1.7770001
-0.14144 0.30308571 1.7680001
-0.13807239 0.30308571 1.7680001
-0.13470477 0.30308571 1.7680001
-0.13133715 0.30308571 1.7680001
-0.1273181 0.30154288 1.7590001
-0.12396763 0.30154288 1.7590001
-0.12061714 0.30154288 1.7590001
-0.11726667 0.30154288 1.7590001
-0.11333334 0.30000001 1.7500001
-0.11000001 0.30000001 1.7500001
-0.10666667 0.30000001 1.7500001
-0.10333334 0.30000001 1.7500001
-0.1 0.30000001 1.7500001
-0.096666671 0.30000001 1.7500001
-0.093333334 0.30000001 1.7500001
-0.090000004 0.30000001 1.7500001
-0.086666673 0.30000001 1.7500001
-0.083333336 0.30000001 1.7500001
-0.080000006 0.30000001 1.7500001
-0.076666668 0.30000001 1.7500001
-0.073333338 0.30000001 1.7500001
-0.07 0.30000001 1.7500001
-0.06666667 0.30000001 1.7500001
-0.063007623 0.29845715 1.7410001
-0.060000002 0.30000001 1.7500001
-0.056375239 0.29845715 1.7410001
-0.053059049 0.29845715 1.7410001
-0.049742859 0.29845715 1.7410001
-0.046426669 0.29845715 1.7410001
-0.043110479 0.29845715 1.7410001
-0.039794289 0.29845715 1.7410001
-0.036478095 0.29845715 1.7410001
-0.033161905 0.29845715 1.7410001
-0.029845715 0.29845715 1.7410001
-0.026666667 0.30000001 1.7500001
-0.023333333 0.30000001 1.7500001
-0.020000001 0.30000001 1.7500001
-0.016666668 0.30000001 1.7500001
-0.013264762 0.29845715 1.7410001
-0.0099485721 0.29845715 1.7410001
-0.0065980954 0.29691431 1.7320001
-0.0033161906 0.29845715 1.7410001
0 0.29691431 1.7320001
0.0032990477 0.29691431 1.7320001
0.0065980954 0.29691431 1.7320001
0.0098971436 0.29691431 1.7320001
0.013196191 0.29691431 1.7320001
0.016495239 0.29691431 1.7320001
0.019794287 0.29691431 1.7320001
0.022973334 0.29537144 1.723
0.026255239 0.29537144 1.723
0.02969143 0.29691431 1.7320001
0.032990478 0.29691431 1.7320001
0.036289524 0.29691431 1.7320001
0.039588574 0.29691431 1.7320001
0.042887621 0.29691431 1.7320001
0.046186667 0.29691431 1.7320001
0.049485717 0.29691431 1.7320001
0.052510478 0.29537144 1.723
0.055792384 0.29537144 1.723
0.059074286 0.29537144 1.723
0.062356193 0.29537144 1.723
0.065638095 0.29537144 1.723
0.068920001 0.29537144 1.723
0.072201908 0.29537144 1.723
0.075483814 0.29537144 1.723
0.07876572 0.29537144 1.723
0.082047619 0.29537144 1.723
0.085329525 0.29537144 1.723
0.088611431 0.29537144 1.723
0.091466673 0.294 1.715
0.094733335 0.294 1.715
0.098000005 0.294 1.715
0.10126667 0.294 1.715
0.10453334 0.294 1.715
0.10830286 0.29537144 1.723
0.11158477 0.29537144 1.723
0.11486667 0.29537144 1.723
0.11814857 0.29537144 1.723
0.12206477 0.29691431 1.7320001
0.12536381 0.29691431 1.7320001
0.12866285 0.29691431 1.7320001
0.14506668 0.32640001 1.904
0.14869334 0.32640001 1.904
0.1532 0.32828572 1.9150001
0.15766667 0.33000001 1.9250001
0.16133334 0.33000001 1.9250001
0.16594286 0.33188573 1.9360001
0.17059429 0.33377144 1.9470001
0.17627239 0.33754286 1.9690001
0.18313144 0.34337145 2.003
0.18806668 0.34542859 2.0150001
0.19304763 0.34748572 2.0270002
0.1980743 0.34954286 2.039
0.20562287 0.35588571 2.0760002
0.21078858 0.35794288 2.0880001
0.21610287 0.36017144 2.1010001
0.22010477 0.36017144 2.1010001
0.22410667 0.36017144 2.1010001
-0.43293715 0.31772003 1.8330001
-0.42944574 0.31772003 1.8330001
-0.42595431 0.31772003 1.8330001
-0.42246288 0.31772003 1.8330001
-0.41691431 0.31616002 1.8240001
-0.41344002 0.31616002 1.8240001
-0.40996572 0.31616002 1.8240001
-0.40649146 0.31616002 1.8240001
-0.40301716 0.31616002 1.8240001
-0.39954287 0.31616002 1.8240001
-0.39606857 0.31616002 1.8240001
-0.39259431 0.31616002 1.8240001
-0.38912001 0.31616002 1.8240001
-0.38564572 0.31616002 1.8240001
-0.38217145 0.31616002 1.8240001
-0.37869716 0.31616002 1.8240001
-0.37522286 0.31616002 1.8240001
-0.3717486 0.31616002 1.8240001
-0.36625525 0.31442669 1.8140001
-0.3628 0.31442669 1.8140001
-0.35934478 0.31442669 1.8140001
-0.35588953 0.31442669 1.8140001
-0.35243431 0.31442669 1.8140001
-0.34705526 0.31269336 1.8040001
-0.34361905 0.31269336 1.8040001
-0.34018287 0.31269336 1.8040001
-0.33674669 0.31269336 1.8040001
-0.33331048 0.31269336 1.8040001
-0.33170286 0.31442669 1.8140001
-0.3264381 0.31269336 1.8040001
-0.32300192 0.31269336 1.8040001
-0.31956571 0.31269336 1.8040001
-0.31612954 0.31269336 1.8040001
-0.31269336 0.31269336 1.8040001
-0.30925715 0.31269336 1.8040001
-0.30429524 0.31113335 1.7950001
-0.3008762 0.31113335 1.7950001
-0.29745716 0.31113335 1.7950001
-0.29403812 0.31113335 1.7950001
-0.29061905 0.31113335 1.7950001
-0.2872 0.31113335 1.7950001
-0.28378096 0.31113335 1.7950001
-0.28036192 0.31113335 1.7950001
-0.27694288 0.31113335 1.7950001
-0.27352381 0.31113335 1.7950001
-0.27010477 0.31113335 1.7950001
-0.26668572 0.31113335 1.7950001
-0.26326668 0.31113335 1.7950001
-0.25984764 0.31113335 1.7950001
-0.25642857 0.31113335 1.7950001
-0.25300953 0.31113335 1.7950001
-0.24959049 0.31113335 1.7950001
-0.24493715 0.30957335 1.7860001
-0.24275239 0.31113335 1.7950001
-0.23813334 0.30957335 1.7860001
-0.23473144 0.30957335 1.7860001
-0.23132953 0.30957335 1.7860001
-0.22792763 0.30957335 1.7860001
-0.22452572 0.30957335 1.7860001
-0.22112381 0.30957335 1.7860001
-0.21772191 0.30957335 1.7860001
-0.21432 0.30957335 1.7860001
-0.2109181 0.30957335 1.7860001
-0.20751619 0.30957335 1.7860001
-0.20411429 0.30957335 1.7860001
-0.20071238 0.30957335 1.7860001
-0.1963162 0.30801335 1.7770001
-0.19293143 0.30801335 1.7770001
-0.18954667 0.30801335 1.7770001
-0.18616191 0.30801335 1.7770001
-0.18277715 0.30801335 1.7770001
-0.17939238 0.30801335 1.7770001
-0.17600763 0.30801335 1.7770001
-0.17174858 0.30645335 1.7680001
-0.16923811 0.30801335 1.7770001
-0.16585334 0.30801335 1.7770001
-0.16246858 0.30801335 1.7770001
-0.15908381 0.30801335 1.7770001
-0.15569906 0.30801335 1.7770001
-0.15231429 0.30801335 1.7770001
-0.14892954 0.30801335 1.7770001
-0.14554477 0.30801335 1.7770001
-0.14144 0.30645335 1.7680001
-0.13807239 0.30645335 1.7680001
-0.13470477 0.30645335 1.7680001
-0.13066858 0.30489334 1.7590001
-0.1273181 0.30489334 1.7590001
-0.12396763 0.30489334 1.7590001
-0.12061714 0.30489334 1.7590001
-0.11726667 0.30489334 1.7590001
-0.1139162 0.30489334 1.7590001
-0.11000001 0.30333334 1.7500001
-0.10666667 0.30333334 1.7500001
-0.10333334 0.30333334 1.7500001
-0.1 0.30333334 1.7500001
-0.096666671 0.30333334 1.7500001
-0.093333334 0.30333334 1.7500001
-0.090000004 0.30333334 1.7500001
-0.086666673 0.30333334 1.7500001
-0.083333336 0.30333334 1.7500001
-0.080000006 0.30333334 1.7500001
-0.076666668 0.30333334 1.7500001
-0.073333338 0.30333334 1.7500001
-0.07 0.30333334 1.7500001
-0.06666667 0.30333334 1.7500001
-0.063333333 0.30333334 1.7500001
-0.060000002 0.30333334 1.7500001
-0.056666669 0.30333334 1.7500001
-0.053059049 0.30177334 1.7410001
-0.049742859 0.30177334 1.7410001
-0.046426669 0.30177334 1.7410001
-0.043110479 0.30177334 1.7410001
-0.039794289 0.30177334 1.7410001
-0.036478095 0.30177334 1.7410001
-0.033161905 0.30177334 1.7410001
-0.029845715 0.30177334 1.7410001
-0.026666667 0.30333334 1.7500001
-0.023333333 0.30333334 1.7500001
-0.020000001 0.30333334 1.7500001
-0.016580952 0.30177334 1.7410001
-0.013264762 0.30177334 1.7410001
-0.0099485721 0.30177334 1.7410001
-0.0066323811 0.30177334 1.7410001
-0.0033161906 0.30177334 1.7410001
0 0.30021334 1.7320001
0.0032990477 0.30021334 1.7320001
0.0065980954 0.30021334 1.7320001
0.0098971436 0.30021334 1.7320001
0.013196191 0.30021334 1.7320001
0.016495239 0.30021334 1.7320001
0.01969143 0.29865333 1.723
0.022973334 0.29865333 1.723
0.026392382 0.30021334 1.7320001
0.02969143 0.30021334 1.7320001
0.032990478 0.30021334 1.7320001
0.036289524 0.30021334 1.7320001
0.039588574 0.30021334 1.7320001
0.042887621 0.30021334 1.7320001
0.046186667 0.30021334 1.7320001
0.049485717 0.30021334 1.7320001
0.052510478 0.29865333 1.723
0.055792384 0.29865333 1.723
0.059074286 0.29865333 1.723
0.062356193 0.29865333 1.723
0.065638095 0.29865333 1.723
0.068920001 0.29865333 1.723
0.072201908 0.29865333 1.723
0.075483814 0.29865333 1.723
0.07876572 0.29865333 1.723
0.081666671 0.29726669 1.715
0.084933333 0.29726669 1.715
0.088200003 0.29726669 1.715
0.091466673 0.29726669 1.715
0.094733335 0.29726669 1.715
0.098000005 0.29726669 1.715
