# .PCD v0.7 - Point Cloud Data file format
VERSION 0.7
FIELDS x y z
SIZE 4 4 4
TYPE F F F
COUNT 1 1 1
WIDTH 1518
HEIGHT 1
VIEWPOINT 0 0 0 1 0 0 0
POINTS 1518
DATA ascii
-0.13128 0.25318286 1.641
-0.12760763 0.25210285 1.6340001
-0.12388572 0.25086859 1.626
-0.12019429 0.2496343 1.618
-0.11660572 0.24855429 1.6110001
-0.11297334 0.24732001 1.603
-0.10992 0.24732001 1.603
-0.10686667 0.24732001 1.603
-0.10381334 0.24732001 1.603
-0.10126286 0.24855429 1.6110001
-0.098194286 0.24855429 1.6110001
-0.095539048 0.2496343 1.618
-0.092457145 0.2496343 1.618
-0.089375243 0.2496343 1.618
-0.08629334 0.2496343 1.618
-0.083622858 0.25086859 1.626
-0.080525719 0.25086859 1.626
-0.077428572 0.25086859 1.626
-0.074331433 0.25086859 1.626
-0.071234286 0.25086859 1.626
-0.068137147 0.25086859 1.626
-0.06504 0.25086859 1.626
-0.062247623 0.25210285 1.6340001
-0.05913524 0.25210285 1.6340001
-0.05602286 0.25210285 1.6340001
-0.053137146 0.25318286 1.641
-0.05001143 0.25318286 1.641
-0.046885718 0.25318286 1.641
-0.043973334 0.25441715 1.649
-0.040832382 0.25441715 1.649
-0.037691429 0.25441715 1.649
-0.034550477 0.25441715 1.649
-0.031409524 0.25441715 1.649
-0.028405715 0.25565144 1.6570001
-0.025371429 0.25688574 1.6650001
-0.022200001 0.25688574 1.6650001
-0.019028572 0.25688574 1.6650001
-0.015857143 0.25688574 1.6650001
-0.012685714 0.25688574 1.6650001
-0.0095142862 0.25688574 1.6650001
-0.0063428571 0.25688574 1.6650001
-0.0031714286 0.25688574 1.6650001
0 0.25688574 1.6650001
0.0031714286 0.25688574 1.6650001
0.0063733337 0.25812 1.6730001
0.0095600002 0.25812 1.6730001
0.01280762 0.25935429 1.6810001
0.016009524 0.25935429 1.6810001
0.01921143 0.25935429 1.6810001
0.022533335 0.26074287 1.6900001
0.025752382 0.26074287 1.6900001
0.02897143 0.26074287 1.6900001
0.032342859 0.26197717 1.6980001
0.035577144 0.26197717 1.6980001
0.03881143 0.26197717 1.6980001
0.042045716 0.26197717 1.6980001
0.045280002 0.26197717 1.6980001
0.048742861 0.26321143 1.7060001
0.051992383 0.26321143 1.7060001
0.055241905 0.26321143 1.7060001
0.058800001 0.26460001 1.715
0.062066671 0.26460001 1.715
0.065333337 0.26460001 1.715
0.068599999 0.26460001 1.715
0.071866669 0.26460001 1.715
0.075483814 0.2658343 1.723
0.07876572 0.2658343 1.723
0.082047619 0.2658343 1.723
0.085329525 0.2658343 1.723
0.088611431 0.2658343 1.723
0.091893338 0.2658343 1.723
0.095672384 0.26722288 1.7320001
0.098971434 0.26722288 1.7320001
0.10227048 0.26722288 1.7320001
0.10556953 0.26722288 1.7320001
0.10886858 0.26722288 1.7320001
0.11216763 0.26722288 1.7320001
0.11546667 0.26722288 1.7320001
0.11938286 0.26861143 1.7410001
0.12269905 0.26861143 1.7410001
0.12601525 0.26861143 1.7410001
0.13000001 0.27000001 1.7500001
0.13333334 0.27000001 1.7500001
0.13666667 0.27000001 1.7500001
0.14072001 0.27138859 1.7590001
0.14407048 0.27138859 1.7590001
0.14742096 0.27138859 1.7590001
0.15077144 0.27138859 1.7590001
0.15412191 0.27138859 1.7590001
0.15827811 0.27277714 1.7680001
0.16164573 0.27277714 1.7680001
0.16501334 0.27277714 1.7680001
0.16838096 0.27277714 1.7680001
0.17174858 0.27277714 1.7680001
0.1751162 0.27277714 1.7680001
0.17848381 0.27277714 1.7680001
0.18185143 0.27277714 1.7680001
0.18616191 0.27416572 1.7770001
0.19050667 0.2755543 1.7860001
0.19488572 0.27694288 1.7950001
0.19830477 0.27694288 1.7950001
0.20172381 0.27694288 1.7950001
0.20514287 0.27694288 1.7950001
0.20856191 0.27694288 1.7950001
0.21198095 0.27694288 1.7950001
0.21540001 0.27694288 1.7950001
0.21881905 0.27694288 1.7950001
0.22223811 0.27694288 1.7950001
0.22565715 0.27694288 1.7950001
0.22907619 0.27694288 1.7950001
0.23366097 0.27833143 1.8040001
0.23709716 0.27833143 1.8040001
0.24186668 0.27987429 1.8140001
0.24532191 0.27987429 1.8140001
0.24877715 0.27987429 1.8140001
0.2522324 0.27987429 1.8140001
0.25568762 0.27987429 1.8140001
0.26057145 0.28141716 1.8240001
0.26404572 0.28141716 1.8240001
0.26752001 0.28141716 1.8240001
0.27099431 0.28141716 1.8240001
0.27446857 0.28141716 1.8240001
0.27794287 0.28141716 1.8240001
0.28280571 0.28280571 1.8330001
0.28629714 0.28280571 1.8330001
0.28978857 0.28280571 1.8330001
0.29328001 0.28280571 1.8330001
0.29677144 0.28280571 1.8330001
0.30026287 0.28280571 1.8330001
0.30541143 0.28434858 1.8430001
0.3089219 0.28434858 1.8430001
0.31243238 0.28434858 1.8430001
0.31594288 0.28434858 1.8430001
-0.37504002 0.32034668 2.0510001
-0.37113336 0.32034668 2.0510001
-0.36722669 0.32034668 2.0510001
-0.36119431 0.31847239 2.039
-0.35520762 0.31659812 2.0270002
-0.34926668 0.31472382 2.0150001
-0.34542859 0.31472382 2.0150001
-0.33955622 0.31284952 2.003
-0.33389714 0.31113145 1.9920001
-0.3281143 0.30925715 1.9800001
-0.32254097 0.30753905 1.9690001
-0.3187905 0.30753905 1.9690001
-0.31328002 0.30582097 1.9580001
-0.30781144 0.30410287 1.9470001
-0.30238476 0.30238476 1.9360001
-0.29700002 0.30066669 1.9250001
-0.29180953 0.29910478 1.9150001
-0.2881619 0.29910478 1.9150001
-0.28288001 0.29738668 1.904
-0.27778667 0.29582477 1.8940001
-0.27258667 0.29410669 1.8830001
-0.26757145 0.29254478 1.8730001
-0.26259428 0.29098287 1.863
-0.25765523 0.28942096 1.853
-0.2527543 0.28785905 1.8430001
-0.24789144 0.28629714 1.8330001
-0.2432 0.28489143 1.8240001
-0.23972572 0.28489143 1.8240001
-0.2349562 0.28332955 1.8140001
-0.23150097 0.28332955 1.8140001
-0.22565715 0.28036192 1.7950001
-0.22223811 0.28036192 1.7950001
-0.21772191 0.2789562 1.7860001
-0.21432 0.2789562 1.7860001
-0.20985524 0.27755049 1.7770001
-0.20437905 0.27473906 1.7590001
-0.20102859 0.27473906 1.7590001
-0.19666667 0.27333334 1.7500001
-0.19233905 0.27192762 1.7410001
-0.18902287 0.27192762 1.7410001
-0.18474667 0.27052191 1.7320001
-0.18050477 0.26911619 1.723
-0.17722286 0.26911619 1.723
-0.17222477 0.26646096 1.7060001
-0.16897525 0.26646096 1.7060001
-0.16417143 0.26396191 1.6900001
-0.16095239 0.26396191 1.6900001
-0.15689334 0.2625562 1.6810001
-0.15296 0.26130667 1.6730001
-0.14905715 0.26005715 1.6650001
-0.14518477 0.25880763 1.6570001
-0.14134286 0.25755811 1.649
-0.13820191 0.25755811 1.649
-0.13506095 0.25755811 1.649
-0.13128 0.25630859 1.641
-0.12815429 0.25630859 1.641
-0.12388572 0.25396574 1.626
-0.12019429 0.25271621 1.618
-0.11660572 0.25162286 1.6110001
-0.11297334 0.25037333 1.603
-0.10992 0.25037333 1.603
-0.10640001 0.24928001 1.5960001
-0.10381334 0.25037333 1.603
-0.10076001 0.25037333 1.603
-0.098194286 0.25162286 1.6110001
-0.09512572 0.25162286 1.6110001
-0.092457145 0.25271621 1.618
-0.089375243 0.25271621 1.618
-0.08629334 0.25271621 1.618
-0.083622858 0.25396574 1.626
-0.080129527 0.25271621 1.618
-0.077428572 0.25396574 1.626
-0.074331433 0.25396574 1.626
-0.071234286 0.25396574 1.626
-0.068137147 0.25396574 1.626
-0.06504 0.25396574 1.626
-0.062247623 0.25521526 1.6340001
-0.05913524 0.25521526 1.6340001
-0.05602286 0.25521526 1.6340001
-0.053137146 0.25630859 1.641
-0.05001143 0.25630859 1.641
-0.046885718 0.25630859 1.641
-0.043760002 0.25630859 1.641
-0.040832382 0.25755811 1.649
-0.037691429 0.25755811 1.649
-0.034550477 0.25755811 1.649
-0.031409524 0.25755811 1.649
-0.028542858 0.26005715 1.6650001
-0.025371429 0.26005715 1.6650001
-0.022200001 0.26005715 1.6650001
-0.019028572 0.26005715 1.6650001
-0.015857143 0.26005715 1.6650001
-0.012685714 0.26005715 1.6650001
-0.0095142862 0.26005715 1.6650001
-0.0063733337 0.26130667 1.6730001
-0.0031866669 0.26130667 1.6730001
0 0.26130667 1.6730001
0.0031866669 0.26130667 1.6730001
0.0064038099 0.2625562 1.6810001
0.0096057151 0.2625562 1.6810001
0.01280762 0.2625562 1.6810001
0.016009524 0.2625562 1.6810001
0.019314287 0.26396191 1.6900001
0.022533335 0.26396191 1.6900001
0.025752382 0.26396191 1.6900001
0.02897143 0.26396191 1.6900001
0.032342859 0.26521143 1.6980001
0.035577144 0.26521143 1.6980001
0.03881143 0.26521143 1.6980001
0.042045716 0.26521143 1.6980001
0.045493335 0.26646096 1.7060001
0.048742861 0.26646096 1.7060001
0.051992383 0.26646096 1.7060001
0.055533335 0.26786667 1.715
0.058800001 0.26786667 1.715
0.062066671 0.26786667 1.715
0.065333337 0.26786667 1.715
0.068599999 0.26786667 1.715
0.072201908 0.26911619 1.723
0.075483814 0.26911619 1.723
0.07876572 0.26911619 1.723
0.082047619 0.26911619 1.723
0.085329525 0.26911619 1.723
0.088611431 0.26911619 1.723
0.091893338 0.26911619 1.723
0.095672384 0.27052191 1.7320001
0.098971434 0.27052191 1.7320001
0.10227048 0.27052191 1.7320001
0.10556953 0.27052191 1.7320001
0.10886858 0.27052191 1.7320001
0.11216763 0.27052191 1.7320001
0.11546667 0.27052191 1.7320001
0.11938286 0.27192762 1.7410001
0.12269905 0.27192762 1.7410001
0.12666667 0.27333334 1.7500001
0.13000001 0.27333334 1.7500001
0.13333334 0.27333334 1.7500001
0.13736953 0.27473906 1.7590001
0.14072001 0.27473906 1.7590001
0.14407048 0.27473906 1.7590001
0.14742096 0.27473906 1.7590001
0.15077144 0.27473906 1.7590001
0.15491048 0.27614477 1.7680001
0.15827811 0.27614477 1.7680001
0.16082287 0.27473906 1.7590001
0.16501334 0.27614477 1.7680001
0.16838096 0.27614477 1.7680001
0.17174858 0.27614477 1.7680001
0.1751162 0.27614477 1.7680001
0.17848381 0.27614477 1.7680001
0.18185143 0.27614477 1.7680001
0.18616191 0.27755049 1.7770001
0.19050667 0.2789562 1.7860001
0.19390857 0.2789562 1.7860001
0.19731048 0.2789562 1.7860001
0.20172381 0.28036192 1.7950001
0.20514287 0.28036192 1.7950001
0.20856191 0.28036192 1.7950001
0.21198095 0.28036192 1.7950001
0.21540001 0.28036192 1.7950001
0.21881905 0.28036192 1.7950001
0.22223811 0.28036192 1.7950001
0.22565715 0.28036192 1.7950001
0.23022477 0.28176764 1.8040001
0.23366097 0.28176764 1.8040001
0.23709716 0.28176764 1.8040001
0.24053334 0.28176764 1.8040001
0.24396953 0.28176764 1.8040001
0.24877715 0.28332955 1.8140001
0.2522324 0.28332955 1.8140001
0.25568762 0.28332955 1.8140001
0.26057145 0.28489143 1.8240001
0.26404572 0.28489143 1.8240001
0.26605335 0.28332955 1.8140001
0.27099431 0.28489143 1.8240001
0.27446857 0.28489143 1.8240001
0.27794287 0.28489143 1.8240001
0.28141716 0.28489143 1.8240001
0.28629714 0.28629714 1.8330001
0.28978857 0.28629714 1.8330001
0.29328001 0.28629714 1.8330001
0.29677144 0.28629714 1.8330001
0.30026287 0.28629714 1.8330001
0.3037543 0.28629714 1.8330001
0.3089219 0.28785905 1.8430001
0.31243238 0.28785905 1.8430001
0.31594288 0.28785905 1.8430001
0.31945336 0.28785905 1.8430001
-0.37504002 0.32425335 2.0510001
-0.37113336 0.32425335 2.0510001
-0.36507812 0.32235619 2.039
-0.36119431 0.32235619 2.039
-0.35520762 0.32045907 2.0270002
-0.35134667 0.32045907 2.0270002
-0.34542859 0.31856191 2.0150001
-0.33955622 0.31666479 2.003
-0.33389714 0.31492573 1.9920001
-0.3281143 0.31302857 1.9800001
-0.32254097 0.31128955 1.9690001
-0.3187905 0.31128955 1.9690001
-0.31328002 0.30955049 1.9580001
-0.30781144 0.30781144 1.9470001
-0.30238476 0.30607238 1.9360001
-0.29700002 0.30433336 1.9250001
-0.29180953 0.30275241 1.9150001
-0.2881619 0.30275241 1.9150001
-0.28288001 0.30101335 1.904
-0.27778667 0.2994324 1.8940001
-0.27417907 0.2994324 1.8940001
-0.26757145 0.29611239 1.8730001
-0.26259428 0.29453143 1.863
-0.25765523 0.29295048 1.853
-0.2527543 0.29136953 1.8430001
-0.24789144 0.28978857 1.8330001
-0.2432 0.28836572 1.8240001
-0.23972572 0.28836572 1.8240001
-0.23625144 0.28836572 1.8240001
-0.23150097 0.28678477 1.8140001
-0.22565715 0.28378096 1.7950001
-0.22223811 0.28378096 1.7950001
-0.21772191 0.28235811 1.7860001
-0.21324001 0.28093526 1.7770001
-0.20985524 0.28093526 1.7770001
-0.20437905 0.27808952 1.7590001
-0.20102859 0.27808952 1.7590001
-0.19666667 0.27666667 1.7500001
-0.19233905 0.27524382 1.7410001
-0.18902287 0.27524382 1.7410001
-0.18474667 0.27382097 1.7320001
-0.18050477 0.27239811 1.723
-0.17722286 0.27239811 1.723
-0.17313334 0.27113333 1.715
-0.16897525 0.26971048 1.7060001
-0.16494858 0.26844573 1.6980001
-0.16095239 0.26718095 1.6900001
-0.15689334 0.2657581 1.6810001
-0.15296 0.26449335 1.6730001
-0.14905715 0.2632286 1.6650001
-0.14518477 0.26196381 1.6570001
-0.14202857 0.26196381 1.6570001
-0.13820191 0.26069906 1.649
-0.13506095 0.26069906 1.649
-0.13192001 0.26069906 1.649
-0.12815429 0.25943428 1.641
-0.12449525 0.25832763 1.6340001
-0.12078857 0.25706285 1.626
-0.11711238 0.2557981 1.618
-0.11353715 0.25469145 1.6110001
-0.10992 0.25342667 1.603
-0.10686667 0.25342667 1.603
-0.10381334 0.25342667 1.603
-0.10126286 0.25469145 1.6110001
-0.098194286 0.25469145 1.6110001
-0.09512572 0.25469145 1.6110001
-0.092457145 0.2557981 1.618
-0.089375243 0.2557981 1.618
-0.08629334 0.2557981 1.618
-0.083211429 0.2557981 1.618
-0.080129527 0.2557981 1.618
-0.077428572 0.25706285 1.626
-0.074331433 0.25706285 1.626
-0.071234286 0.25706285 1.626
-0.068137147 0.25706285 1.626
-0.065360002 0.25832763 1.6340001
-0.062247623 0.25832763 1.6340001
-0.05913524 0.25832763 1.6340001
-0.056262858 0.25943428 1.641
-0.053137146 0.25943428 1.641
-0.05001143 0.25943428 1.641
-0.046885718 0.25943428 1.641
-0.043760002 0.25943428 1.641
-0.040832382 0.26069906 1.649
-0.037691429 0.26069906 1.649
-0.034550477 0.26069906 1.649
-0.031409524 0.26069906 1.649
-0.028542858 0.2632286 1.6650001
-0.025371429 0.2632286 1.6650001
-0.022200001 0.2632286 1.6650001
-0.019028572 0.2632286 1.6650001
-0.015857143 0.2632286 1.6650001
-0.012685714 0.2632286 1.6650001
-0.0095142862 0.2632286 1.6650001
-0.0063428571 0.2632286 1.6650001
-0.0031714286 0.2632286 1.6650001
0 0.26449335 1.6730001
0.0031866669 0.26449335 1.6730001
0.0064038099 0.2657581 1.6810001
0.0096057151 0.2657581 1.6810001
0.01280762 0.2657581 1.6810001
0.016009524 0.2657581 1.6810001
0.01921143 0.2657581 1.6810001
0.022533335 0.26718095 1.6900001
0.025752382 0.26718095 1.6900001
0.02897143 0.26718095 1.6900001
0.032342859 0.26844573 1.6980001
0.035577144 0.26844573 1.6980001
0.03881143 0.26844573 1.6980001
0.042045716 0.26844573 1.6980001
0.045493335 0.26971048 1.7060001
0.048514288 0.26844573 1.6980001
0.051992383 0.26971048 1.7060001
0.055241905 0.26971048 1.7060001
0.058800001 0.27113333 1.715
0.062066671 0.27113333 1.715
0.065333337 0.27113333 1.715
0.068599999 0.27113333 1.715
0.072201908 0.27239811 1.723
0.075483814 0.27239811 1.723
0.07876572 0.27239811 1.723
0.082047619 0.27239811 1.723
0.085329525 0.27239811 1.723
0.088611431 0.27239811 1.723
0.092373334 0.27382097 1.7320001
0.095672384 0.27382097 1.7320001
0.098971434 0.27382097 1.7320001
0.10227048 0.27382097 1.7320001
0.10556953 0.27382097 1.7320001
0.10886858 0.27382097 1.7320001
0.11216763 0.27382097 1.7320001
0.11546667 0.27382097 1.7320001
0.11938286 0.27524382 1.7410001
0.12269905 0.27524382 1.7410001
0.12666667 0.27666667 1.7500001
0.13000001 0.27666667 1.7500001
0.13333334 0.27666667 1.7500001
0.13736953 0.27808952 1.7590001
0.14072001 0.27808952 1.7590001
0.14407048 0.27808952 1.7590001
0.14742096 0.27808952 1.7590001
0.15077144 0.27808952 1.7590001
0.15491048 0.27951241 1.7680001
0.15827811 0.27951241 1.7680001
0.16082287 0.27808952 1.7590001
0.16501334 0.27951241 1.7680001
0.16838096 0.27951241 1.7680001
0.17174858 0.27951241 1.7680001
0.1751162 0.27951241 1.7680001
0.17848381 0.27951241 1.7680001
0.18185143 0.27951241 1.7680001
0.18616191 0.28093526 1.7770001
0.18954667 0.28093526 1.7770001
0.19390857 0.28235811 1.7860001
0.19731048 0.28235811 1.7860001
0.20172381 0.28378096 1.7950001
0.20514287 0.28378096 1.7950001
0.20751619 0.28235811 1.7860001
0.2109181 0.28235811 1.7860001
0.21540001 0.28378096 1.7950001
0.21881905 0.28378096 1.7950001
0.22223811 0.28378096 1.7950001
0.22565715 0.28378096 1.7950001
0.22907619 0.28378096 1.7950001
0.23249525 0.28378096 1.7950001
0.23709716 0.28520381 1.8040001
0.24053334 0.28520381 1.8040001
0.24396953 0.28520381 1.8040001
0.24877715 0.28678477 1.8140001
0.2522324 0.28678477 1.8140001
0.25568762 0.28678477 1.8140001
0.26057145 0.28836572 1.8240001
0.26404572 0.28836572 1.8240001
0.26752001 0.28836572 1.8240001
0.27099431 0.28836572 1.8240001
0.27582288 0.28978857 1.8330001
0.27794287 0.28836572 1.8240001
0.28280571 0.28978857 1.8330001
0.28629714 0.28978857 1.8330001
0.28978857 0.28978857 1.8330001
0.29328001 0.28978857 1.8330001
0.29677144 0.28978857 1.8330001
0.30026287 0.28978857 1.8330001
0.3037543 0.28978857 1.8330001
0.30724573 0.28978857 1.8330001
0.31243238 0.29136953 1.8430001
0.31594288 0.29136953 1.8430001
0.31945336 0.29136953 1.8430001
-0.37504002 0.32816002 2.0510001
-0.36896193 0.32624 2.039
-0.36507812 0.32624 2.039
-0.36119431 0.32624 2.039
-0.35520762 0.32432002 2.0270002
-0.34926668 0.3224 2.0150001
-0.34542859 0.3224 2.0150001
-0.33955622 0.32048002 2.003
-0.33389714 0.31872001 1.9920001
-0.3281143 0.3168 1.9800001
-0.32254097 0.31504002 1.9690001
-0.31700954 0.31328002 1.9580001
-0.31152001 0.31152001 1.9470001
-0.30781144 0.31152001 1.9470001
-0.30238476 0.30976 1.9360001
-0.29700002 0.308 1.9250001
-0.29333335 0.308 1.9250001
-0.2881619 0.3064 1.9150001
-0.28288001 0.30464002 1.904
-0.27778667 0.30304 1.8940001
-0.27417907 0.30304 1.8940001
-0.26757145 0.29968002 1.8730001
-0.26259428 0.29808 1.863
-0.25765523 0.29648 1.853
-0.2527543 0.29488 1.8430001
-0.24924383 0.29488 1.8430001
-0.2432 0.29184002 1.8240001
-0.23972572 0.29184002 1.8240001
-0.23625144 0.29184002 1.8240001
-0.23150097 0.29024002 1.8140001
-0.22678858 0.28864002 1.8040001
-0.22223811 0.2872 1.7950001
-0.21772191 0.28576002 1.7860001
-0.21432 0.28576002 1.7860001
-0.20985524 0.28432 1.7770001
-0.20437905 0.28144002 1.7590001
-0.20102859 0.28144002 1.7590001
-0.19666667 0.28 1.7500001
-0.19233905 0.27856001 1.7410001
-0.18804573 0.27712002 1.7320001
-0.18474667 0.27712002 1.7320001
-0.18050477 0.27568001 1.723
-0.17722286 0.27568001 1.723
-0.17313334 0.2744 1.715
-0.16897525 0.27296001 1.7060001
-0.16494858 0.27168 1.6980001
-0.16095239 0.27040002 1.6900001
-0.15689334 0.26896 1.6810001
-0.15296 0.26768002 1.6730001
-0.14905715 0.26640001 1.6650001
-0.14588572 0.26640001 1.6650001
-0.14202857 0.26512 1.6570001
-0.13820191 0.26384002 1.649
-0.13506095 0.26384002 1.649
-0.13192001 0.26384002 1.649
-0.12815429 0.26256001 1.641
-0.12449525 0.26144001 1.6340001
-0.12078857 0.26016 1.626
-0.11711238 0.25888002 1.618
-0.11403048 0.25888002 1.618
-0.11046857 0.25776002 1.6110001
-0.10686667 0.25648001 1.603
-0.10381334 0.25648001 1.603
-0.10126286 0.25776002 1.6110001
-0.098194286 0.25776002 1.6110001
-0.095539048 0.25888002 1.618
-0.092457145 0.25888002 1.618
-0.089375243 0.25888002 1.618
-0.08629334 0.25888002 1.618
-0.083211429 0.25888002 1.618
-0.080129527 0.25888002 1.618
-0.077428572 0.26016 1.626
-0.074331433 0.26016 1.626
-0.071234286 0.26016 1.626
-0.068137147 0.26016 1.626
-0.065360002 0.26144001 1.6340001
-0.062247623 0.26144001 1.6340001
-0.05913524 0.26144001 1.6340001
-0.056262858 0.26256001 1.641
-0.053137146 0.26256001 1.641
-0.05001143 0.26256001 1.641
-0.046885718 0.26256001 1.641
-0.043760002 0.26256001 1.641
-0.040832382 0.26384002 1.649
-0.037691429 0.26384002 1.649
-0.034550477 0.26384002 1.649
-0.031409524 0.26384002 1.649
-0.028542858 0.26640001 1.6650001
-0.025371429 0.26640001 1.6650001
-0.022200001 0.26640001 1.6650001
-0.019028572 0.26640001 1.6650001
-0.015857143 0.26640001 1.6650001
-0.012685714 0.26640001 1.6650001
-0.0095142862 0.26640001 1.6650001
-0.0063428571 0.26640001 1.6650001
-0.0031714286 0.26640001 1.6650001
0 0.26768002 1.6730001
0.0031866669 0.26768002 1.6730001
0.0064038099 0.26896 1.6810001
0.0096057151 0.26896 1.6810001
0.01280762 0.26896 1.6810001
0.016009524 0.26896 1.6810001
0.019314287 0.27040002 1.6900001
0.022533335 0.27040002 1.6900001
0.025752382 0.27040002 1.6900001
0.02897143 0.27040002 1.6900001
0.032342859 0.27168 1.6980001
0.035577144 0.27168 1.6980001
0.03881143 0.27168 1.6980001
0.042045716 0.27168 1.6980001
0.045280002 0.27168 1.6980001
0.048514288 0.27168 1.6980001
0.051992383 0.27296001 1.7060001
0.055241905 0.27296001 1.7060001
0.058800001 0.2744 1.715
0.062066671 0.2744 1.715
0.065333337 0.2744 1.715
0.068599999 0.2744 1.715
0.072201908 0.27568001 1.723
0.075483814 0.27568001 1.723
0.07876572 0.27568001 1.723
0.082047619 0.27568001 1.723
0.085329525 0.27568001 1.723
0.088611431 0.27568001 1.723
0.092373334 0.27712002 1.7320001
0.095672384 0.27712002 1.7320001
0.098971434 0.27712002 1.7320001
0.10227048 0.27712002 1.7320001
0.10556953 0.27712002 1.7320001
0.10886858 0.27712002 1.7320001
0.11216763 0.27712002 1.7320001
0.11546667 0.27712002 1.7320001
0.11938286 0.27856001 1.7410001
0.12269905 0.27856001 1.7410001
0.12601525 0.27856001 1.7410001
0.13000001 0.28 1.7500001
0.13333334 0.28 1.7500001
0.13736953 0.28144002 1.7590001
0.14072001 0.28144002 1.7590001
0.14407048 0.28144002 1.7590001
0.14742096 0.28144002 1.7590001
0.15077144 0.28144002 1.7590001
0.15491048 0.28288001 1.7680001
0.15747239 0.28144002 1.7590001
0.16082287 0.28144002 1.7590001
0.16417333 0.28144002 1.7590001
0.16838096 0.28288001 1.7680001
0.17174858 0.28288001 1.7680001
0.1751162 0.28288001 1.7680001
0.17848381 0.28288001 1.7680001
0.18185143 0.28288001 1.7680001
0.18521905 0.28288001 1.7680001
0.18954667 0.28432 1.7770001
0.19293143 0.28432 1.7770001
0.1963162 0.28432 1.7770001
0.20071238 0.28576002 1.7860001
0.20411429 0.28576002 1.7860001
0.20751619 0.28576002 1.7860001
0.21198095 0.2872 1.7950001
0.21540001 0.2872 1.7950001
0.21881905 0.2872 1.7950001
0.22223811 0.2872 1.7950001
0.22565715 0.2872 1.7950001
0.23022477 0.28864002 1.8040001
0.23366097 0.28864002 1.8040001
0.23709716 0.28864002 1.8040001
0.24053334 0.28864002 1.8040001
0.24532191 0.29024002 1.8140001
0.24877715 0.29024002 1.8140001
0.2522324 0.29024002 1.8140001
0.25568762 0.29024002 1.8140001
0.26057145 0.29184002 1.8240001
0.26404572 0.29184002 1.8240001
0.26752001 0.29184002 1.8240001
0.27233145 0.29328001 1.8330001
0.27582288 0.29328001 1.8330001
0.27931431 0.29328001 1.8330001
0.28280571 0.29328001 1.8330001
0.28629714 0.29328001 1.8330001
0.28978857 0.29328001 1.8330001
0.29328001 0.29328001 1.8330001
0.29677144 0.29328001 1.8330001
0.30026287 0.29328001 1.8330001
0.3037543 0.29328001 1.8330001
0.30724573 0.29328001 1.8330001
0.31243238 0.29488 1.8430001
0.31594288 0.29488 1.8430001
0.31945336 0.29488 1.8430001
0.32296383 0.29488 1.8430001
-0.37504002 0.33206668 2.0510001
-0.37113336 0.33206668 2.0510001
-0.36507812 0.33012381 2.039
-0.36119431 0.33012381 2.039
-0.35520762 0.32818097 2.0270002
-0.35134667 0.32818097 2.0270002
-0.34542859 0.3262381 2.0150001
-0.33955622 0.32429525 2.003
-0.33574095 0.32429525 2.003
-0.3281143 0.32057145 1.9800001
-0.32254097 0.3187905 1.9690001
-0.31700954 0.31700954 1.9580001
-0.31328002 0.31700954 1.9580001
-0.30781144 0.31522858 1.9470001
-0.30238476 0.31344762 1.9360001
-0.29700002 0.31166667 1.9250001
-0.29333335 0.31166667 1.9250001
-0.2881619 0.31004763 1.9150001
-0.28288001 0.30826667 1.904
-0.27778667 0.30664763 1.8940001
-0.27258667 0.30486667 1.8830001
-0.26757145 0.30324763 1.8730001
-0.26259428 0.30162859 1.863
-0.25765523 0.30000955 1.853
-0.2527543 0.29839048 1.8430001
-0.24924383 0.29839048 1.8430001
-0.2432 0.29531428 1.8240001
-0.23972572 0.29531428 1.8240001
-0.23625144 0.29531428 1.8240001
-0.23150097 0.29369524 1.8140001
-0.22678858 0.2920762 1.8040001
-0.22223811 0.29061905 1.7950001
-0.21881905 0.29061905 1.7950001
-0.21432 0.28916192 1.7860001
-0.20985524 0.28770477 1.7770001
-0.20542477 0.28624764 1.7680001
-0.20102859 0.28479049 1.7590001
-0.19666667 0.28333333 1.7500001
-0.19233905 0.28187621 1.7410001
-0.18804573 0.28041905 1.7320001
-0.18474667 0.28041905 1.7320001
-0.18050477 0.27896193 1.723
-0.17722286 0.27896193 1.723
-0.17313334 0.27766669 1.715
-0.16897525 0.27620953 1.7060001
-0.16494858 0.27491429 1.6980001
-0.16095239 0.27361906 1.6900001
-0.15689334 0.2721619 1.6810001
-0.15296 0.27086666 1.6730001
-0.14905715 0.26957145 1.6650001
-0.14518477 0.26827621 1.6570001
-0.14202857 0.26827621 1.6570001
-0.13820191 0.26698098 1.649
-0.13506095 0.26698098 1.649
-0.13192001 0.26698098 1.649
-0.12815429 0.26568574 1.641
-0.12449525 0.26455238 1.6340001
-0.12078857 0.26325715 1.626
-0.11711238 0.26196191 1.618
-0.11403048 0.26196191 1.618
-0.11046857 0.26082858 1.6110001
-0.10740001 0.26082858 1.6110001
-0.10433143 0.26082858 1.6110001
-0.10126286 0.26082858 1.6110001
-0.098194286 0.26082858 1.6110001
-0.095539048 0.26196191 1.618
-0.092457145 0.26196191 1.618
-0.089375243 0.26196191 1.618
-0.08629334 0.26196191 1.618
-0.083211429 0.26196191 1.618
-0.080129527 0.26196191 1.618
-0.077428572 0.26325715 1.626
-0.074331433 0.26325715 1.626
-0.071234286 0.26325715 1.626
-0.068137147 0.26325715 1.626
-0.06504 0.26325715 1.626
-0.062247623 0.26455238 1.6340001
-0.05913524 0.26455238 1.6340001
-0.056262858 0.26568574 1.641
-0.053137146 0.26568574 1.641
-0.05001143 0.26568574 1.641
-0.046885718 0.26568574 1.641
-0.043760002 0.26568574 1.641
-0.040634286 0.26568574 1.641
-0.037508573 0.26568574 1.641
-0.034382857 0.26568574 1.641
-0.031409524 0.26698098 1.649
-0.028542858 0.26957145 1.6650001
-0.025371429 0.26957145 1.6650001
-0.022200001 0.26957145 1.6650001
-0.019028572 0.26957145 1.6650001
-0.015933335 0.27086666 1.6730001
-0.012685714 0.26957145 1.6650001
-0.0095600002 0.27086666 1.6730001
-0.0063733337 0.27086666 1.6730001
-0.0031866669 0.27086666 1.6730001
0 0.27086666 1.6730001
0.0031866669 0.27086666 1.6730001
0.0064038099 0.2721619 1.6810001
0.0095600002 0.27086666 1.6730001
0.01280762 0.2721619 1.6810001
0.016095238 0.27361906 1.6900001
0.019314287 0.27361906 1.6900001
0.022533335 0.27361906 1.6900001
0.025752382 0.27361906 1.6900001
0.02897143 0.27361906 1.6900001
0.032342859 0.27491429 1.6980001
0.035409525 0.27361906 1.6900001
0.03881143 0.27491429 1.6980001
0.042045716 0.27491429 1.6980001
0.045280002 0.27491429 1.6980001
0.048514288 0.27491429 1.6980001
0.051992383 0.27620953 1.7060001
0.055241905 0.27620953 1.7060001
0.058800001 0.27766669 1.715
0.062066671 0.27766669 1.715
0.065333337 0.27766669 1.715
0.068599999 0.27766669 1.715
0.072201908 0.27896193 1.723
0.075483814 0.27896193 1.723
0.07876572 0.27896193 1.723
0.082047619 0.27896193 1.723
0.085775241 0.28041905 1.7320001
0.088611431 0.27896193 1.723
0.092373334 0.28041905 1.7320001
0.095672384 0.28041905 1.7320001
0.098971434 0.28041905 1.7320001
0.10227048 0.28041905 1.7320001
0.10556953 0.28041905 1.7320001
0.10886858 0.28041905 1.7320001
0.11216763 0.28041905 1.7320001
0.11546667 0.28041905 1.7320001
0.11876572 0.28041905 1.7320001
0.12269905 0.28187621 1.7410001
0.12601525 0.28187621 1.7410001
0.13000001 0.28333333 1.7500001
0.13333334 0.28333333 1.7500001
0.13736953 0.28479049 1.7590001
0.14072001 0.28479049 1.7590001
0.14407048 0.28479049 1.7590001
0.14742096 0.28479049 1.7590001
0.15077144 0.28479049 1.7590001
0.15412191 0.28479049 1.7590001
0.15747239 0.28479049 1.7590001
0.16082287 0.28479049 1.7590001
0.16501334 0.28624764 1.7680001
0.16838096 0.28624764 1.7680001
0.17174858 0.28624764 1.7680001
0.1751162 0.28624764 1.7680001
0.17939238 0.28770477 1.7770001
0.18277715 0.28770477 1.7770001
0.18616191 0.28770477 1.7770001
0.18954667 0.28770477 1.7770001
0.19390857 0.28916192 1.7860001
0.19731048 0.28916192 1.7860001
0.20071238 0.28916192 1.7860001
0.20514287 0.29061905 1.7950001
0.20856191 0.29061905 1.7950001
0.21198095 0.29061905 1.7950001
0.21540001 0.29061905 1.7950001
0.21881905 0.29061905 1.7950001
0.22223811 0.29061905 1.7950001
0.22565715 0.29061905 1.7950001
0.23022477 0.2920762 1.8040001
0.23366097 0.2920762 1.8040001
0.23709716 0.2920762 1.8040001
0.24053334 0.2920762 1.8040001
0.24532191 0.29369524 1.8140001
0.24877715 0.29369524 1.8140001
0.2522324 0.29369524 1.8140001
0.25568762 0.29369524 1.8140001
0.26057145 0.29531428 1.8240001
0.26404572 0.29531428 1.8240001
0.26752001 0.29531428 1.8240001
0.27233145 0.29677144 1.8330001
0.27582288 0.29677144 1.8330001
0.27931431 0.29677144 1.8330001
0.28280571 0.29677144 1.8330001
0.28629714 0.29677144 1.8330001
0.28978857 0.29677144 1.8330001
0.29328001 0.29677144 1.8330001
0.29677144 0.29677144 1.8330001
0.30026287 0.29677144 1.8330001
0.3037543 0.29677144 1.8330001
0.30724573 0.29677144 1.8330001
0.31243238 0.29839048 1.8430001
0.31422859 0.29677144 1.8330001
0.31772003 0.29677144 1.8330001
0.32121143 0.29677144 1.8330001
-0.37504002 0.33597335 2.0510001
-0.37113336 0.33597335 2.0510001
-0.36507812 0.33400762 2.039
-0.36119431 0.33400762 2.039
-0.35520762 0.33204192 2.0270002
-0.34926668 0.33007619 2.0150001
-0.34337145 0.32811049 2.003
-0.33955622 0.32811049 2.003
-0.33389714 0.32630858 1.9920001
-0.33010286 0.32630858 1.9920001
-0.32254097 0.32254097 1.9690001
-0.31700954 0.32073906 1.9580001
-0.31328002 0.32073906 1.9580001
-0.30781144 0.31893715 1.9470001
-0.30238476 0.31713524 1.9360001
-0.29700002 0.31533334 1.9250001
-0.29333335 0.31533334 1.9250001
-0.2881619 0.31369525 1.9150001
-0.28288001 0.31189334 1.904
-0.27778667 0.31025526 1.8940001
-0.27258667 0.30845335 1.8830001
-0.26757145 0.30681524 1.8730001
-0.26259428 0.30517715 1.863
-0.25765523 0.30353907 1.853
-0.2527543 0.30190095 1.8430001
-0.24924383 0.30190095 1.8430001
-0.2432 0.29878858 1.8240001
-0.23972572 0.29878858 1.8240001
-0.23625144 0.29878858 1.8240001
-0.23150097 0.29715049 1.8140001
-0.22678858 0.29551238 1.8040001
-0.22223811 0.29403812 1.7950001
-0.21881905 0.29403812 1.7950001
-0.21432 0.29256383 1.7860001
-0.2109181 0.29256383 1.7860001
-0.20542477 0.28961524 1.7680001
-0.20102859 0.28814095 1.7590001
-0.19666667 0.28666669 1.7500001
-0.19233905 0.2851924 1.7410001
-0.18804573 0.28371811 1.7320001
-0.18474667 0.28371811 1.7320001
-0.18050477 0.28224382 1.723
-0.17722286 0.28224382 1.723
-0.17313334 0.28093335 1.715
-0.16897525 0.27945906 1.7060001
-0.16494858 0.27814859 1.6980001
-0.16171429 0.27814859 1.6980001
-0.15773334 0.27683809 1.6900001
-0.15296 0.27405334 1.6730001
-0.14905715 0.27274287 1.6650001
-0.14518477 0.2714324 1.6570001
-0.14202857 0.2714324 1.6570001
-0.13820191 0.2701219 1.649
-0.13506095 0.2701219 1.649
-0.13192001 0.2701219 1.649
-0.12815429 0.26881143 1.641
-0.12449525 0.26766476 1.6340001
-0.12078857 0.26635429 1.626
-0.11711238 0.26504382 1.618
-0.11353715 0.26389715 1.6110001
-0.11046857 0.26389715 1.6110001
-0.10740001 0.26389715 1.6110001
-0.10433143 0.26389715 1.6110001
-0.10126286 0.26389715 1.6110001
-0.098194286 0.26389715 1.6110001
-0.095539048 0.26504382 1.618
-0.092457145 0.26504382 1.618
-0.089375243 0.26504382 1.618
-0.08629334 0.26504382 1.618
-0.083211429 0.26504382 1.618
-0.080129527 0.26504382 1.618
-0.077428572 0.26635429 1.626
-0.074331433 0.26635429 1.626
-0.071234286 0.26635429 1.626
-0.068137147 0.26635429 1.626
-0.06504 0.26635429 1.626
-0.062247623 0.26766476 1.6340001
-0.05913524 0.26766476 1.6340001
-0.05602286 0.26766476 1.6340001
-0.053137146 0.26881143 1.641
-0.05001143 0.26881143 1.641
-0.046685714 0.26766476 1.6340001
-0.043760002 0.26881143 1.641
-0.040634286 0.26881143 1.641
-0.037508573 0.26881143 1.641
-0.034382857 0.26881143 1.641
-0.031561907 0.2714324 1.6570001
-0.028542858 0.27274287 1.6650001
-0.025371429 0.27274287 1.6650001
-0.022200001 0.27274287 1.6650001
-0.019028572 0.27274287 1.6650001
-0.015933335 0.27405334 1.6730001
-0.012685714 0.27274287 1.6650001
-0.0095600002 0.27405334 1.6730001
-0.0063733337 0.27405334 1.6730001
-0.0031866669 0.27405334 1.6730001
0 0.27405334 1.6730001
0.0031866669 0.27405334 1.6730001
0.0064038099 0.27536383 1.6810001
0.0096057151 0.27536383 1.6810001
0.01280762 0.27536383 1.6810001
0.016095238 0.27683809 1.6900001
0.019314287 0.27683809 1.6900001
0.022533335 0.27683809 1.6900001
0.025752382 0.27683809 1.6900001
0.02897143 0.27683809 1.6900001
0.032342859 0.27814859 1.6980001
0.035409525 0.27683809 1.6900001
0.03881143 0.27814859 1.6980001
0.042045716 0.27814859 1.6980001
0.045280002 0.27814859 1.6980001
0.048514288 0.27814859 1.6980001
0.051992383 0.27945906 1.7060001
0.055241905 0.27945906 1.7060001
0.058800001 0.28093335 1.715
0.062066671 0.28093335 1.715
0.065333337 0.28093335 1.715
0.068599999 0.28093335 1.715
0.072201908 0.28224382 1.723
0.075483814 0.28224382 1.723
0.07876572 0.28224382 1.723
0.082047619 0.28224382 1.723
0.085329525 0.28224382 1.723
0.088611431 0.28224382 1.723
0.092373334 0.28371811 1.7320001
0.095672384 0.28371811 1.7320001
0.098971434 0.28371811 1.7320001
0.10227048 0.28371811 1.7320001
0.10556953 0.28371811 1.7320001
0.10886858 0.28371811 1.7320001
0.11275048 0.2851924 1.7410001
0.11606667 0.2851924 1.7410001
0.11938286 0.2851924 1.7410001
0.12269905 0.2851924 1.7410001
0.12666667 0.28666669 1.7500001
0.13000001 0.28666669 1.7500001
0.13401905 0.28814095 1.7590001
0.13736953 0.28814095 1.7590001
0.14072001 0.28814095 1.7590001
0.14407048 0.28814095 1.7590001
0.14742096 0.28814095 1.7590001
0.15077144 0.28814095 1.7590001
0.15491048 0.28961524 1.7680001
0.15747239 0.28814095 1.7590001
0.16082287 0.28814095 1.7590001
0.16501334 0.28961524 1.7680001
0.16838096 0.28961524 1.7680001
0.17174858 0.28961524 1.7680001
0.1751162 0.28961524 1.7680001
0.17848381 0.28961524 1.7680001
0.18277715 0.29108953 1.7770001
0.18616191 0.29108953 1.7770001
0.18954667 0.29108953 1.7770001
0.19390857 0.29256383 1.7860001
0.19731048 0.29256383 1.7860001
0.20071238 0.29256383 1.7860001
0.20411429 0.29256383 1.7860001
0.20856191 0.29403812 1.7950001
0.21198095 0.29403812 1.7950001
0.21540001 0.29403812 1.7950001
0.21881905 0.29403812 1.7950001
0.22223811 0.29403812 1.7950001
0.22565715 0.29403812 1.7950001
0.23022477 0.29551238 1.8040001
0.23366097 0.29551238 1.8040001
0.23709716 0.29551238 1.8040001
0.24053334 0.29551238 1.8040001
0.24396953 0.29551238 1.8040001
0.24877715 0.29715049 1.8140001
0.2522324 0.29715049 1.8140001
0.25568762 0.29715049 1.8140001
0.26057145 0.29878858 1.8240001
0.26404572 0.29878858 1.8240001
0.26752001 0.29878858 1.8240001
0.27233145 0.30026287 1.8330001
0.27582288 0.30026287 1.8330001
0.27931431 0.30026287 1.8330001
0.28280571 0.30026287 1.8330001
0.28629714 0.30026287 1.8330001
0.28978857 0.30026287 1.8330001
0.29328001 0.30026287 1.8330001
0.29677144 0.30026287 1.8330001
0.30026287 0.30026287 1.8330001
0.3037543 0.30026287 1.8330001
0.30724573 0.30026287 1.8330001
0.31243238 0.30190095 1.8430001
0.31422859 0.30026287 1.8330001
0.31772003 0.30026287 1.8330001
0.32121143 0.30026287 1.8330001
-0.38752002 0.34402287 2.0760002
-0.38116384 0.34186858 2.0630002
-0.37723431 0.34186858 2.0630002
-0.37113336 0.33988002 2.0510001
-0.36507812 0.33789143 2.039
-0.36119431 0.33789143 2.039
-0.35520762 0.33590287 2.0270002
-0.34926668 0.33391431 2.0150001
-0.34337145 0.33192572 2.003
-0.33955622 0.33192572 2.003
-0.33389714 0.33010286 1.9920001
-0.33010286 0.33010286 1.9920001
-0.32254097 0.32629144 1.9690001
-0.31700954 0.32446858 1.9580001
-0.31328002 0.32446858 1.9580001
-0.30781144 0.32264572 1.9470001
-0.30238476 0.32082286 1.9360001
-0.29700002 0.31900001 1.9250001
-0.29333335 0.31900001 1.9250001
-0.2881619 0.31734288 1.9150001
-0.28288001 0.31552002 1.904
-0.27778667 0.31386286 1.8940001
-0.27258667 0.31204 1.8830001
-0.26757145 0.31038287 1.8730001
-0.26259428 0.30872571 1.863
-0.25765523 0.30706859 1.853
-0.25412571 0.30706859 1.853
-0.24924383 0.30541143 1.8430001
-0.24440001 0.3037543 1.8330001
-0.23972572 0.30226287 1.8240001
-0.23625144 0.30226287 1.8240001
-0.23150097 0.30060571 1.8140001
-0.22678858 0.29894859 1.8040001
-0.22223811 0.29745716 1.7950001
-0.21881905 0.29745716 1.7950001
-0.21432 0.29596573 1.7860001
-0.2109181 0.29596573 1.7860001
-0.20542477 0.29298288 1.7680001
-0.20102859 0.29149145 1.7590001
-0.19666667 0.29000002 1.7500001
-0.19233905 0.28850859 1.7410001
-0.18804573 0.28701717 1.7320001
-0.18474667 0.28701717 1.7320001
-0.18050477 0.28552574 1.723
-0.17722286 0.28552574 1.723
-0.17313334 0.28420001 1.715
-0.16897525 0.28270859 1.7060001
-0.16494858 0.28138286 1.6980001
-0.16171429 0.28138286 1.6980001
-0.15773334 0.28005716 1.6900001
-0.15369144 0.27856573 1.6810001
-0.14977334 0.27724001 1.6730001
-0.14588572 0.27591428 1.6650001
-0.14202857 0.27458858 1.6570001
-0.13820191 0.27326286 1.649
-0.13506095 0.27326286 1.649
-0.13192001 0.27326286 1.649
-0.12815429 0.27193716 1.641
-0.12449525 0.27077717 1.6340001
-0.12078857 0.26945144 1.626
-0.11711238 0.26812571 1.618
-0.11353715 0.26696572 1.6110001
-0.11046857 0.26696572 1.6110001
-0.10686667 0.26564002 1.603
-0.10433143 0.26696572 1.6110001
-0.10126286 0.26696572 1.6110001
-0.098194286 0.26696572 1.6110001
-0.09512572 0.26696572 1.6110001
-0.092457145 0.26812571 1.618
-0.089375243 0.26812571 1.618
-0.08629334 0.26812571 1.618
-0.083211429 0.26812571 1.618
-0.080129527 0.26812571 1.618
-0.077428572 0.26945144 1.626
-0.074331433 0.26945144 1.626
-0.071234286 0.26945144 1.626
-0.068137147 0.26945144 1.626
-0.065360002 0.27077717 1.6340001
-0.062247623 0.27077717 1.6340001
-0.05913524 0.27077717 1.6340001
-0.05602286 0.27077717 1.6340001
-0.053137146 0.27193716 1.641
-0.05001143 0.27193716 1.641
-0.046885718 0.27193716 1.641
-0.043760002 0.27193716 1.641
-0.040634286 0.27193716 1.641
-0.037508573 0.27193716 1.641
-0.034382857 0.27193716 1.641
-0.031561907 0.27458858 1.6570001
-0.028542858 0.27591428 1.6650001
-0.025371429 0.27591428 1.6650001
-0.022200001 0.27591428 1.6650001
-0.019028572 0.27591428 1.6650001
-0.015933335 0.27724001 1.6730001
-0.012746667 0.27724001 1.6730001
-0.0095600002 0.27724001 1.6730001
-0.0063733337 0.27724001 1.6730001
-0.0031866669 0.27724001 1.6730001
0 0.27724001 1.6730001
0.0031866669 0.27724001 1.6730001
0.0064038099 0.27856573 1.6810001
0.0095600002 0.27724001 1.6730001
0.01280762 0.27856573 1.6810001
0.016095238 0.28005716 1.6900001
0.019314287 0.28005716 1.6900001
0.022533335 0.28005716 1.6900001
0.025752382 0.28005716 1.6900001
0.02897143 0.28005716 1.6900001
0.032190476 0.28005716 1.6900001
0.035409525 0.28005716 1.6900001
0.03881143 0.28138286 1.6980001
0.042045716 0.28138286 1.6980001
0.045280002 0.28138286 1.6980001
0.048514288 0.28138286 1.6980001
0.051992383 0.28270859 1.7060001
0.055241905 0.28270859 1.7060001
0.058800001 0.28420001 1.715
0.062066671 0.28420001 1.715
0.065333337 0.28420001 1.715
0.068599999 0.28420001 1.715
0.072201908 0.28552574 1.723
0.075483814 0.28552574 1.723
0.07876572 0.28552574 1.723
0.082047619 0.28552574 1.723
0.085775241 0.28701717 1.7320001
0.089074291 0.28701717 1.7320001
0.092373334 0.28701717 1.7320001
0.095672384 0.28701717 1.7320001
0.098971434 0.28701717 1.7320001
0.10227048 0.28701717 1.7320001
0.10556953 0.28701717 1.7320001
0.10886858 0.28701717 1.7320001
0.11275048 0.28850859 1.7410001
0.11606667 0.28850859 1.7410001
0.11938286 0.28850859 1.7410001
0.12269905 0.28850859 1.7410001
0.12666667 0.29000002 1.7500001
0.13000001 0.29000002 1.7500001
0.13401905 0.29149145 1.7590001
0.13736953 0.29149145 1.7590001
0.14072001 0.29149145 1.7590001
0.14407048 0.29149145 1.7590001
0.14742096 0.29149145 1.7590001
0.15077144 0.29149145 1.7590001
0.15412191 0.29149145 1.7590001
0.15747239 0.29149145 1.7590001
0.16082287 0.29149145 1.7590001
0.16501334 0.29298288 1.7680001
0.16838096 0.29298288 1.7680001
0.17174858 0.29298288 1.7680001
0.1751162 0.29298288 1.7680001
0.17848381 0.29298288 1.7680001
0.18277715 0.2944743 1.7770001
0.18616191 0.2944743 1.7770001
0.19050667 0.29596573 1.7860001
0.19390857 0.29596573 1.7860001
0.19731048 0.29596573 1.7860001
0.20172381 0.29745716 1.7950001
0.20514287 0.29745716 1.7950001
0.20856191 0.29745716 1.7950001
0.21198095 0.29745716 1.7950001
0.21540001 0.29745716 1.7950001
0.21881905 0.29745716 1.7950001
0.22223811 0.29745716 1.7950001
0.22565715 0.29745716 1.7950001
0.23022477 0.29894859 1.8040001
0.23366097 0.29894859 1.8040001
0.23709716 0.29894859 1.8040001
0.24053334 0.29894859 1.8040001
0.24396953 0.29894859 1.8040001
0.24877715 0.30060571 1.8140001
0.2522324 0.30060571 1.8140001
0.25568762 0.30060571 1.8140001
0.26057145 0.30226287 1.8240001
0.26404572 0.30226287 1.8240001
0.26752001 0.30226287 1.8240001
0.27233145 0.3037543 1.8330001
0.27582288 0.3037543 1.8330001
0.27931431 0.3037543 1.8330001
0.28280571 0.3037543 1.8330001
0.28629714 0.3037543 1.8330001
0.28978857 0.3037543 1.8330001
0.29328001 0.3037543 1.8330001
0.29677144 0.3037543 1.8330001
0.30026287 0.3037543 1.8330001
0.3037543 0.3037543 1.8330001
0.30724573 0.3037543 1.8330001
0.31073716 0.3037543 1.8330001
0.31422859 0.3037543 1.8330001
0.31772003 0.3037543 1.8330001
-0.38976002 0.34998858 2.0880001
-0.38356572 0.34797716 2.0760002
-0.37961143 0.34797716 2.0760002
-0.37113336 0.34378669 2.0510001
-0.36722669 0.34378669 2.0510001
-0.36119431 0.34177524 2.039
-0.35520762 0.33976382 2.0270002
-0.34926668 0.3377524 2.0150001
-0.34337145 0.33574095 2.003
-0.33955622 0.33574095 2.003
-0.33389714 0.33389714 1.9920001
-0.3281143 0.33188573 1.9800001
-0.32254097 0.33004192 1.9690001
-0.31700954 0.32819811 1.9580001
-0.31328002 0.32819811 1.9580001
-0.30781144 0.3263543 1.9470001
-0.30238476 0.32451048 1.9360001
-0.29700002 0.32266667 1.9250001
-0.29333335 0.32266667 1.9250001
-0.2881619 0.3209905 1.9150001
-0.28288001 0.31914669 1.904
-0.27778667 0.31747049 1.8940001
-0.27258667 0.31562668 1.8830001
-0.26757145 0.31395048 1.8730001
-0.26259428 0.31227431 1.863
-0.25765523 0.31059811 1.853
-0.25412571 0.31059811 1.853
-0.24924383 0.3089219 1.8430001
-0.24440001 0.30724573 1.8330001
-0.23972572 0.30573717 1.8240001
-0.23625144 0.30573717 1.8240001
-0.23150097 0.30406097 1.8140001
-0.22804572 0.30406097 1.8140001
-0.22335239 0.30238476 1.8040001
-0.21881905 0.3008762 1.7950001
-0.21540001 0.3008762 1.7950001
-0.2109181 0.29936764 1.7860001
-0.20542477 0.29635048 1.7680001
-0.20102859 0.29484192 1.7590001
-0.19666667 0.29333335 1.7500001
-0.19233905 0.29182476 1.7410001
-0.18804573 0.29031619 1.7320001
-0.18474667 0.29031619 1.7320001
-0.18050477 0.28880763 1.723
-0.17722286 0.28880763 1.723
-0.17313334 0.28746668 1.715
-0.16897525 0.28595811 1.7060001
-0.16494858 0.28461716 1.6980001
-0.16095239 0.2832762 1.6900001
-0.15773334 0.2832762 1.6900001
-0.15369144 0.28176764 1.6810001
-0.14977334 0.28042668 1.6730001
-0.14588572 0.27908573 1.6650001
-0.14202857 0.27774477 1.6570001
-0.13820191 0.27640381 1.649
-0.13506095 0.27640381 1.649
-0.13192001 0.27640381 1.649
-0.12815429 0.27506286 1.641
-0.12449525 0.27388954 1.6340001
-0.12078857 0.27254859 1.626
-0.11711238 0.27120763 1.618
-0.11353715 0.27003428 1.6110001
-0.10992 0.26869336 1.603
-0.10686667 0.26869336 1.603
-0.10381334 0.26869336 1.603
-0.10076001 0.26869336 1.603
-0.098194286 0.27003428 1.6110001
-0.095539048 0.27120763 1.618
-0.092057146 0.27003428 1.6110001
-0.088988572 0.27003428 1.6110001
-0.08629334 0.27120763 1.618
-0.083211429 0.27120763 1.618
-0.080129527 0.27120763 1.618
-0.077428572 0.27254859 1.626
-0.074331433 0.27254859 1.626
-0.071234286 0.27254859 1.626
-0.068137147 0.27254859 1.626
-0.065360002 0.27388954 1.6340001
-0.062247623 0.27388954 1.6340001
-0.059388574 0.27506286 1.641
-0.056262858 0.27506286 1.641
-0.053137146 0.27506286 1.641
-0.05001143 0.27506286 1.641
-0.046885718 0.27506286 1.641
-0.043760002 0.27506286 1.641
-0.040634286 0.27506286 1.641
-0.037508573 0.27506286 1.641
-0.034382857 0.27506286 1.641
-0.031409524 0.27640381 1.649
-0.028542858 0.27908573 1.6650001
-0.025371429 0.27908573 1.6650001
-0.022200001 0.27908573 1.6650001
-0.019028572 0.27908573 1.6650001
-0.015933335 0.28042668 1.6730001
-0.012746667 0.28042668 1.6730001
-0.0095600002 0.28042668 1.6730001
-0.0063733337 0.28042668 1.6730001
-0.0031866669 0.28042668 1.6730001
0 0.28042668 1.6730001
0.0031866669 0.28042668 1.6730001
0.0063733337 0.28042668 1.6730001
0.0095600002 0.28042668 1.6730001
0.01280762 0.28176764 1.6810001
0.016009524 0.28176764 1.6810001
0.019314287 0.2832762 1.6900001
0.022533335 0.2832762 1.6900001
0.025752382 0.2832762 1.6900001
0.02897143 0.2832762 1.6900001
0.032190476 0.2832762 1.6900001
0.035577144 0.28461716 1.6980001
0.03881143 0.28461716 1.6980001
0.042045716 0.28461716 1.6980001
0.045280002 0.28461716 1.6980001
0.048514288 0.28461716 1.6980001
0.051992383 0.28595811 1.7060001
0.055533335 0.28746668 1.715
0.058491431 0.28595811 1.7060001
0.061740953 0.28595811 1.7060001
0.065333337 0.28746668 1.715
0.068599999 0.28746668 1.715
0.071866669 0.28746668 1.715
0.075483814 0.28880763 1.723
0.07876572 0.28880763 1.723
0.082047619 0.28880763 1.723
0.085775241 0.29031619 1.7320001
0.089074291 0.29031619 1.7320001
0.092373334 0.29031619 1.7320001
0.095672384 0.29031619 1.7320001
0.098971434 0.29031619 1.7320001
0.10227048 0.29031619 1.7320001
0.10556953 0.29031619 1.7320001
0.10943429 0.29182476 1.7410001
0.11275048 0.29182476 1.7410001
0.11666667 0.29333335 1.7500001
0.12 0.29333335 1.7500001
0.12333333 0.29333335 1.7500001
0.12666667 0.29333335 1.7500001
0.13000001 0.29333335 1.7500001
0.13401905 0.29484192 1.7590001
0.13736953 0.29484192 1.7590001
0.14072001 0.29484192 1.7590001
0.14407048 0.29484192 1.7590001
0.14742096 0.29484192 1.7590001
0.15077144 0.29484192 1.7590001
0.15412191 0.29484192 1.7590001
0.15747239 0.29484192 1.7590001
0.16082287 0.29484192 1.7590001
0.16501334 0.29635048 1.7680001
0.16838096 0.29635048 1.7680001
0.17174858 0.29635048 1.7680001
0.1751162 0.29635048 1.7680001
0.17939238 0.29785907 1.7770001
0.18277715 0.29785907 1.7770001
0.18616191 0.29785907 1.7770001
0.19050667 0.29936764 1.7860001
0.19390857 0.29936764 1.7860001
0.19731048 0.29936764 1.7860001
0.20172381 0.3008762 1.7950001
0.20514287 0.3008762 1.7950001
0.20856191 0.3008762 1.7950001
0.21198095 0.3008762 1.7950001
0.21540001 0.3008762 1.7950001
0.21881905 0.3008762 1.7950001
0.22223811 0.3008762 1.7950001
0.22565715 0.3008762 1.7950001
0.23022477 0.30238476 1.8040001
0.23366097 0.30238476 1.8040001
0.23709716 0.30238476 1.8040001
0.24053334 0.30238476 1.8040001
0.24396953 0.30238476 1.8040001
0.24877715 0.30406097 1.8140001
0.2522324 0.30406097 1.8140001
0.25568762 0.30406097 1.8140001
0.25914288 0.30406097 1.8140001
0.26404572 0.30573717 1.8240001
0.26752001 0.30573717 1.8240001
0.27099431 0.30573717 1.8240001
0.27582288 0.30724573 1.8330001
0.27931431 0.30724573 1.8330001
0.28280571 0.30724573 1.8330001
0.28629714 0.30724573 1.8330001
0.28978857 0.30724573 1.8330001
0.29328001 0.30724573 1.8330001
0.29677144 0.30724573 1.8330001
0.30026287 0.30724573 1.8330001
0.3037543 0.30724573 1.8330001
0.30724573 0.30724573 1.8330001
0.31073716 0.30724573 1.8330001
0.31422859 0.30724573 1.8330001
-0.38752002 0.35193145 2.0760002
-0.38116384 0.34972763 2.0630002
-0.37723431 0.34972763 2.0630002
-0.37113336 0.34769335 2.0510001
-0.36507812 0.34565905 2.039
-0.36119431 0.34565905 2.039
-0.35520762 0.34362477 2.0270002
-0.34926668 0.34159049 2.0150001
-0.34337145 0.33955622 2.003
-0.33769143 0.33769143 1.9920001
-0.33389714 0.33769143 1.9920001
-0.3281143 0.33565715 1.9800001
-0.32254097 0.33379239 1.9690001
-0.31700954 0.33192763 1.9580001
-0.31328002 0.33192763 1.9580001
-0.30781144 0.33006287 1.9470001
-0.30238476 0.32819811 1.9360001
-0.29700002 0.32633334 1.9250001
-0.29180953 0.3246381 1.9150001
-0.2881619 0.3246381 1.9150001
-0.28451431 0.3246381 1.9150001
-0.27778667 0.32107812 1.8940001
-0.27258667 0.31921333 1.8830001
-0.26757145 0.31751812 1.8730001
-0.26259428 0.31582287 1.863
-0.25904572 0.31582287 1.863
-0.25412571 0.31412762 1.853
-0.24924383 0.31243238 1.8430001
-0.24573334 0.31243238 1.8430001
-0.24090858 0.31073716 1.8330001
-0.23625144 0.30921143 1.8240001
-0.23150097 0.30751619 1.8140001
-0.22804572 0.30751619 1.8140001
-0.22335239 0.30582097 1.8040001
-0.21991619 0.30582097 1.8040001
-0.21540001 0.30429524 1.7950001
-0.2109181 0.30276954 1.7860001
-0.20542477 0.29971811 1.7680001
-0.20102859 0.29819238 1.7590001
-0.19666667 0.29666668 1.7500001
-0.19233905 0.29514095 1.7410001
-0.18804573 0.29361525 1.7320001
-0.18474667 0.29361525 1.7320001
-0.18050477 0.29208952 1.723
-0.17722286 0.29208952 1.723
-0.17313334 0.29073334 1.715
-0.16897525 0.28920764 1.7060001
-0.16494858 0.28785145 1.6980001
-0.16171429 0.28785145 1.6980001
-0.15773334 0.28649524 1.6900001
-0.15369144 0.28496954 1.6810001
-0.14977334 0.28361335 1.6730001
-0.14588572 0.28225714 1.6650001
-0.14202857 0.28090096 1.6570001
-0.13887239 0.28090096 1.6570001
-0.13506095 0.27954477 1.649
-0.13192001 0.27954477 1.649
-0.12815429 0.27818859 1.641
-0.12449525 0.27700192 1.6340001
-0.12078857 0.27564573 1.626
-0.11711238 0.27428955 1.618
-0.11403048 0.27428955 1.618
-0.11046857 0.27310288 1.6110001
