# .PCD v0.7 - Point Cloud Data file format
VERSION 0.7
FIELDS x y z
SIZE 4 4 4
TYPE F F F
COUNT 1 1 1
WIDTH 1497
HEIGHT 1
VIEWPOINT 0 0 0 1 0 0 0
POINTS 1497
DATA ascii
0.16955811 0.49785146 1.8940001
0.17316572 0.49785146 1.8940001
0.17677334 0.49785146 1.8940001
0.18038096 0.49785146 1.8940001
0.18496001 0.50048 1.904
0.18858667 0.50048 1.904
0.19221334 0.50048 1.904
0.19584 0.50048 1.904
0.20061906 0.50337142 1.9150001
0.20309334 0.50048 1.904
0.2056343 0.49785146 1.8940001
0.20924191 0.49785146 1.8940001
0.21284953 0.49785146 1.8940001
-0.42898288 0.58459431 2.2080002
-0.42477715 0.58459431 2.2080002
-0.41542858 0.57744575 2.181
-0.40863431 0.57373905 2.1670001
-0.40189335 0.57003242 2.1530001
-0.39539048 0.56659049 2.1400001
-0.38418287 0.55626476 2.1010001
-0.37330478 0.54620385 2.0630002
-0.36937526 0.54620385 2.0630002
-0.36119431 0.53984952 2.039
-0.35310477 0.53349525 2.0150001
-0.34718668 0.53031814 2.003
-0.33942857 0.52422857 1.9800001
-0.33192763 0.51840383 1.9580001
-0.3263543 0.51549143 1.9470001
-0.31734288 0.50701904 1.9150001
-0.31189334 0.5041067 1.904
-0.30664763 0.50145906 1.8940001
-0.29968002 0.49589905 1.8730001
-0.29295048 0.49060383 1.853
-0.28785905 0.4879562 1.8430001
-0.28280571 0.48530859 1.8330001
-0.27794287 0.48292574 1.8240001
-0.27145904 0.4776305 1.8040001
-0.26668572 0.47524765 1.7950001
-0.26194668 0.47286478 1.7860001
-0.25593907 0.46809906 1.7680001
-0.25128573 0.46571621 1.7590001
-0.24666667 0.46333334 1.7500001
-0.24208191 0.46095049 1.7410001
-0.23753144 0.45856765 1.7320001
-0.2342324 0.45856765 1.7320001
-0.23093334 0.45856765 1.7320001
-0.2276343 0.45856765 1.7320001
-0.22550096 0.46095049 1.7410001
-0.22218478 0.46095049 1.7410001
-0.21886858 0.46095049 1.7410001
-0.21555239 0.46095049 1.7410001
-0.21333334 0.46333334 1.7500001
-0.20892 0.46095049 1.7410001
-0.20666668 0.46333334 1.7500001
-0.20333335 0.46333334 1.7500001
-0.2 0.46333334 1.7500001
-0.19666667 0.46333334 1.7500001
-0.19333334 0.46333334 1.7500001
-0.19000001 0.46333334 1.7500001
-0.18666667 0.46333334 1.7500001
-0.18333334 0.46333334 1.7500001
-0.18000001 0.46333334 1.7500001
-0.17666668 0.46333334 1.7500001
-0.17333335 0.46333334 1.7500001
-0.1708743 0.46571621 1.7590001
-0.16666667 0.46333334 1.7500001
-0.16417333 0.46571621 1.7590001
-0.16082287 0.46571621 1.7590001
-0.15747239 0.46571621 1.7590001
-0.15412191 0.46571621 1.7590001
-0.15077144 0.46571621 1.7590001
-0.14742096 0.46571621 1.7590001
-0.14480762 0.46809906 1.7680001
-0.14144 0.46809906 1.7680001
-0.13807239 0.46809906 1.7680001
-0.13470477 0.46809906 1.7680001
-0.13133715 0.46809906 1.7680001
-0.12796953 0.46809906 1.7680001
-0.12460191 0.46809906 1.7680001
-0.12185143 0.47048193 1.7770001
-0.11846667 0.47048193 1.7770001
-0.11508191 0.47048193 1.7770001
-0.11169714 0.47048193 1.7770001
-0.10831238 0.47048193 1.7770001
-0.10492762 0.47048193 1.7770001
-0.10205714 0.47286478 1.7860001
-0.098655239 0.47286478 1.7860001
-0.095253333 0.47286478 1.7860001
-0.091851436 0.47286478 1.7860001
-0.08844953 0.47286478 1.7860001
-0.085047625 0.47286478 1.7860001
-0.08164572 0.47286478 1.7860001
-0.078243814 0.47286478 1.7860001
-0.07521905 0.47524765 1.7950001
-0.071800001 0.47524765 1.7950001
-0.068380952 0.47524765 1.7950001
-0.06496191 0.47524765 1.7950001
-0.061542861 0.47524765 1.7950001
-0.058123812 0.47524765 1.7950001
-0.054704763 0.47524765 1.7950001
-0.051285718 0.47524765 1.7950001
-0.047866669 0.47524765 1.7950001
-0.044447619 0.47524765 1.7950001
-0.041028574 0.47524765 1.7950001
-0.037798095 0.4776305 1.8040001
-0.034361906 0.4776305 1.8040001
-0.031097144 0.4802781 1.8140001
-0.027794287 0.48292574 1.8240001
-0.024320001 0.48292574 1.8240001
-0.020948572 0.48530859 1.8330001
-0.017457144 0.48530859 1.8330001
-0.013965715 0.48530859 1.8330001
-0.010474286 0.48530859 1.8330001
-0.0069828574 0.48530859 1.8330001
-0.0034914287 0.48530859 1.8330001
0 0.48530859 1.8330001
0.0034914287 0.48530859 1.8330001
0.0069828574 0.48530859 1.8330001
0.010474286 0.48530859 1.8330001
0.013965715 0.48530859 1.8330001
0.017457144 0.48530859 1.8330001
0.021062858 0.4879562 1.8430001
0.024573334 0.4879562 1.8430001
0.028083811 0.4879562 1.8430001
0.031594288 0.4879562 1.8430001
0.035104763 0.4879562 1.8430001
0.038824763 0.49060383 1.853
0.042354286 0.49060383 1.853
0.045883812 0.49060383 1.853
0.049413335 0.49060383 1.853
0.052942861 0.49060383 1.853
0.056472383 0.49060383 1.853
0.060001906 0.49060383 1.853
0.063531429 0.49060383 1.853
0.067060955 0.49060383 1.853
0.070971429 0.49325144 1.863
0.074519999 0.49325144 1.863
0.07848762 0.49589905 1.8730001
0.082055241 0.49589905 1.8730001
0.085622862 0.49589905 1.8730001
0.089190483 0.49589905 1.8730001
0.092758097 0.49589905 1.8730001
0.096325718 0.49589905 1.8730001
0.099893339 0.49589905 1.8730001
0.10346095 0.49589905 1.8730001
0.10702857 0.49589905 1.8730001
0.11059619 0.49589905 1.8730001
0.11416382 0.49589905 1.8730001
0.11773143 0.49589905 1.8730001
0.12129905 0.49589905 1.8730001
0.12486667 0.49589905 1.8730001
0.12912001 0.49854669 1.8830001
0.13270667 0.49854669 1.8830001
0.13629334 0.49854669 1.8830001
0.13988 0.49854669 1.8830001
0.14346667 0.49854669 1.8830001
0.14791238 0.50145906 1.8940001
0.15152 0.50145906 1.8940001
0.15512763 0.50145906 1.8940001
0.15873525 0.50145906 1.8940001
0.16234286 0.50145906 1.8940001
0.16595048 0.50145906 1.8940001
0.16955811 0.50145906 1.8940001
0.17316572 0.50145906 1.8940001
0.17677334 0.50145906 1.8940001
0.18038096 0.50145906 1.8940001
0.18398857 0.50145906 1.8940001
0.1875962 0.50145906 1.8940001
0.19221334 0.5041067 1.904
0.19584 0.5041067 1.904
0.19946668 0.5041067 1.904
0.20309334 0.5041067 1.904
0.20672001 0.5041067 1.904
0.21034667 0.5041067 1.904
0.21397334 0.5041067 1.904
-0.42626289 0.58506668 2.194
-0.42208382 0.58506668 2.194
-0.41276193 0.57786667 2.1670001
-0.4059943 0.57413334 2.1530001
-0.39946669 0.57066667 2.1400001
-0.39298859 0.56720001 2.1270001
-0.38418287 0.56026667 2.1010001
-0.37565717 0.55360001 2.0760002
-0.36937526 0.55013335 2.0630002
-0.36119431 0.54373336 2.039
-0.35310477 0.53733337 2.0150001
-0.34718668 0.53413337 2.003
-0.33942857 0.528 1.9800001
-0.33192763 0.52213335 1.9580001
-0.3263543 0.51920003 1.9470001
-0.31734288 0.51066667 1.9150001
-0.31189334 0.50773335 1.904
-0.30664763 0.50506669 1.8940001
-0.29968002 0.49946669 1.8730001
-0.29453143 0.49680001 1.863
-0.28785905 0.49146667 1.8430001
-0.28280571 0.48880002 1.8330001
-0.27489525 0.48106667 1.8040001
-0.27145904 0.48106667 1.8040001
-0.26668572 0.47866669 1.7950001
-0.26194668 0.47626668 1.7860001
-0.2572419 0.47386667 1.7770001
-0.25128573 0.46906668 1.7590001
-0.24666667 0.4666667 1.7500001
-0.24333334 0.4666667 1.7500001
-0.23753144 0.46186668 1.7320001
-0.2342324 0.46186668 1.7320001
-0.23093334 0.46186668 1.7320001
-0.2276343 0.46186668 1.7320001
-0.22550096 0.46426669 1.7410001
-0.22218478 0.46426669 1.7410001
-0.21886858 0.46426669 1.7410001
-0.21555239 0.46426669 1.7410001
-0.2122362 0.46426669 1.7410001
-0.20892 0.46426669 1.7410001
-0.20560382 0.46426669 1.7410001
-0.20333335 0.4666667 1.7500001
-0.2 0.4666667 1.7500001
-0.19666667 0.4666667 1.7500001
-0.19333334 0.4666667 1.7500001
-0.19000001 0.4666667 1.7500001
-0.18666667 0.4666667 1.7500001
-0.18333334 0.4666667 1.7500001
-0.18000001 0.4666667 1.7500001
-0.17666668 0.4666667 1.7500001
-0.17333335 0.4666667 1.7500001
-0.1708743 0.46906668 1.7590001
-0.16752382 0.46906668 1.7590001
-0.16417333 0.46906668 1.7590001
-0.16082287 0.46906668 1.7590001
-0.15747239 0.46906668 1.7590001
-0.15412191 0.46906668 1.7590001
-0.15077144 0.46906668 1.7590001
-0.14742096 0.46906668 1.7590001
-0.14407048 0.46906668 1.7590001
-0.14144 0.47146669 1.7680001
-0.13807239 0.47146669 1.7680001
-0.13470477 0.47146669 1.7680001
-0.13200572 0.47386667 1.7770001
-0.12796953 0.47146669 1.7680001
-0.1252362 0.47386667 1.7770001
-0.12185143 0.47386667 1.7770001
-0.11846667 0.47386667 1.7770001
-0.11508191 0.47386667 1.7770001
-0.11169714 0.47386667 1.7770001
-0.10831238 0.47386667 1.7770001
-0.10545905 0.47626668 1.7860001
-0.10205714 0.47626668 1.7860001
-0.098655239 0.47626668 1.7860001
-0.095253333 0.47626668 1.7860001
-0.091851436 0.47626668 1.7860001
-0.08844953 0.47626668 1.7860001
-0.085047625 0.47626668 1.7860001
-0.08164572 0.47626668 1.7860001
-0.078243814 0.47626668 1.7860001
-0.074841909 0.47626668 1.7860001
-0.071440004 0.47626668 1.7860001
-0.068380952 0.47866669 1.7950001
-0.06496191 0.47866669 1.7950001
-0.061542861 0.47866669 1.7950001
-0.058123812 0.47866669 1.7950001
-0.054704763 0.47866669 1.7950001
-0.051285718 0.47866669 1.7950001
-0.047866669 0.47866669 1.7950001
-0.044670478 0.48106667 1.8040001
-0.041234288 0.48106667 1.8040001
-0.037798095 0.48106667 1.8040001
-0.03455238 0.48373336 1.8140001
-0.031097144 0.48373336 1.8140001
-0.027794287 0.48640001 1.8240001
-0.024320001 0.48640001 1.8240001
-0.020948572 0.48880002 1.8330001
-0.017457144 0.48880002 1.8330001
-0.013965715 0.48880002 1.8330001
-0.010474286 0.48880002 1.8330001
-0.0069828574 0.48880002 1.8330001
-0.0034914287 0.48880002 1.8330001
0 0.48880002 1.8330001
0.0034914287 0.48880002 1.8330001
0.0069828574 0.48880002 1.8330001
0.010474286 0.48880002 1.8330001
0.013965715 0.48880002 1.8330001
0.017457144 0.48880002 1.8330001
0.020948572 0.48880002 1.8330001
0.024573334 0.49146667 1.8430001
0.028083811 0.49146667 1.8430001
0.031594288 0.49146667 1.8430001
0.035104763 0.49146667 1.8430001
0.038824763 0.49413335 1.853
0.042582858 0.49680001 1.863
0.045883812 0.49413335 1.853
0.049413335 0.49413335 1.853
0.052942861 0.49413335 1.853
0.056472383 0.49413335 1.853
0.060001906 0.49413335 1.853
0.063531429 0.49413335 1.853
0.067060955 0.49413335 1.853
0.070971429 0.49680001 1.863
0.074519999 0.49680001 1.863
0.07848762 0.49946669 1.8730001
0.082055241 0.49946669 1.8730001
0.085622862 0.49946669 1.8730001
0.089190483 0.49946669 1.8730001
0.092758097 0.49946669 1.8730001
0.096325718 0.49946669 1.8730001
0.099893339 0.49946669 1.8730001
0.10346095 0.49946669 1.8730001
0.10702857 0.49946669 1.8730001
0.11059619 0.49946669 1.8730001
0.11416382 0.49946669 1.8730001
0.11836001 0.50213337 1.8830001
0.12129905 0.49946669 1.8730001
0.12553334 0.50213337 1.8830001
0.12912001 0.50213337 1.8830001
0.13270667 0.50213337 1.8830001
0.13629334 0.50213337 1.8830001
0.13988 0.50213337 1.8830001
0.14430477 0.50506669 1.8940001
0.14791238 0.50506669 1.8940001
0.15152 0.50506669 1.8940001
0.15594667 0.50773335 1.904
0.15957335 0.50773335 1.904
0.16234286 0.50506669 1.8940001
0.16595048 0.50506669 1.8940001
0.16955811 0.50506669 1.8940001
0.17316572 0.50506669 1.8940001
0.17677334 0.50506669 1.8940001
0.18038096 0.50506669 1.8940001
0.18398857 0.50506669 1.8940001
0.1875962 0.50506669 1.8940001
0.19221334 0.50773335 1.904
0.19584 0.50773335 1.904
0.19946668 0.50773335 1.904
0.20309334 0.50773335 1.904
0.20791429 0.51066667 1.9150001
0.21156192 0.51066667 1.9150001
0.21520953 0.51066667 1.9150001
-0.44025144 0.60858285 2.266
-0.41958287 0.58575433 2.181
-0.41009524 0.57823431 2.1530001
-0.40354288 0.57474285 2.1400001
-0.39704001 0.57125145 2.1270001
-0.39298859 0.57125145 2.1270001
-0.38418287 0.56426859 2.1010001
-0.3778286 0.56077719 2.0880001
-0.36937526 0.5540629 2.0630002
-0.36119431 0.54761714 2.039
-0.35520762 0.54439431 2.0270002
-0.34718668 0.53794861 2.003
-0.33754286 0.52881718 1.9690001
-0.33192763 0.52586287 1.9580001
-0.3263543 0.52290857 1.9470001
-0.32082286 0.51995432 1.9360001
-0.31369525 0.51431429 1.9150001
-0.30826667 0.51135999 1.904
-0.30128002 0.50572002 1.8830001
-0.29453143 0.50034857 1.863
-0.28785905 0.49497715 1.8430001
-0.28280571 0.49229145 1.8330001
-0.27489525 0.48450288 1.8040001
-0.27145904 0.48450288 1.8040001
-0.26668572 0.48208573 1.7950001
-0.26194668 0.47966859 1.7860001
-0.2572419 0.47725144 1.7770001
-0.25128573 0.47241715 1.7590001
-0.24666667 0.47000003 1.7500001
-0.24208191 0.46758288 1.7410001
-0.23753144 0.46516573 1.7320001
-0.2342324 0.46516573 1.7320001
-0.23093334 0.46516573 1.7320001
-0.22881715 0.46758288 1.7410001
-0.22550096 0.46758288 1.7410001
-0.22218478 0.46758288 1.7410001
-0.21886858 0.46758288 1.7410001
-0.21555239 0.46758288 1.7410001
-0.2122362 0.46758288 1.7410001
-0.20892 0.46758288 1.7410001
-0.20560382 0.46758288 1.7410001
-0.20333335 0.47000003 1.7500001
-0.2 0.47000003 1.7500001
-0.19666667 0.47000003 1.7500001
-0.19333334 0.47000003 1.7500001
-0.19000001 0.47000003 1.7500001
-0.18666667 0.47000003 1.7500001
-0.18333334 0.47000003 1.7500001
-0.18000001 0.47000003 1.7500001
-0.17666668 0.47000003 1.7500001
-0.17333335 0.47000003 1.7500001
-0.17 0.47000003 1.7500001
-0.16752382 0.47241715 1.7590001
-0.16417333 0.47241715 1.7590001
-0.16082287 0.47241715 1.7590001
-0.15747239 0.47241715 1.7590001
-0.15412191 0.47241715 1.7590001
-0.15154286 0.47483429 1.7680001
-0.14817524 0.47483429 1.7680001
-0.14480762 0.47483429 1.7680001
-0.14216 0.47725144 1.7770001
-0.13877524 0.47725144 1.7770001
-0.13539048 0.47725144 1.7770001
-0.13200572 0.47725144 1.7770001
-0.12862095 0.47725144 1.7770001
-0.1252362 0.47725144 1.7770001
-0.12185143 0.47725144 1.7770001
-0.11846667 0.47725144 1.7770001
-0.11508191 0.47725144 1.7770001
-0.11169714 0.47725144 1.7770001
-0.10886095 0.47966859 1.7860001
-0.10545905 0.47966859 1.7860001
-0.10205714 0.47966859 1.7860001
-0.098655239 0.47966859 1.7860001
-0.095253333 0.47966859 1.7860001
-0.091851436 0.47966859 1.7860001
-0.08844953 0.47966859 1.7860001
-0.085047625 0.47966859 1.7860001
-0.08164572 0.47966859 1.7860001
-0.078243814 0.47966859 1.7860001
-0.074841909 0.47966859 1.7860001
-0.071440004 0.47966859 1.7860001
-0.068380952 0.48208573 1.7950001
-0.06496191 0.48208573 1.7950001
-0.061542861 0.48208573 1.7950001
-0.058123812 0.48208573 1.7950001
-0.054704763 0.48208573 1.7950001
-0.051285718 0.48208573 1.7950001
-0.048106667 0.48450288 1.8040001
-0.044670478 0.48450288 1.8040001
-0.041234288 0.48450288 1.8040001
-0.037798095 0.48450288 1.8040001
-0.03455238 0.48718858 1.8140001
-0.031097144 0.48718858 1.8140001
-0.027794287 0.4898743 1.8240001
-0.024320001 0.4898743 1.8240001
-0.020845715 0.4898743 1.8240001
-0.017457144 0.49229145 1.8330001
-0.013965715 0.49229145 1.8330001
-0.010474286 0.49229145 1.8330001
-0.0069828574 0.49229145 1.8330001
-0.0034914287 0.49229145 1.8330001
0 0.49229145 1.8330001
0.0034914287 0.49229145 1.8330001
0.0069828574 0.49229145 1.8330001
0.010474286 0.49229145 1.8330001
0.013965715 0.49229145 1.8330001
0.017457144 0.49229145 1.8330001
0.020948572 0.49229145 1.8330001
0.024573334 0.49497715 1.8430001
0.028083811 0.49497715 1.8430001
0.031594288 0.49497715 1.8430001
0.035104763 0.49497715 1.8430001
0.038824763 0.49766287 1.853
0.042582858 0.50034857 1.863
0.045883812 0.49766287 1.853
0.049680002 0.50034857 1.863
0.052942861 0.49766287 1.853
0.056472383 0.49766287 1.853
0.060001906 0.49766287 1.853
0.063531429 0.49766287 1.853
0.067060955 0.49766287 1.853
0.070971429 0.50034857 1.863
0.074519999 0.50034857 1.863
0.078068577 0.50034857 1.863
0.081617147 0.50034857 1.863
0.085622862 0.50303429 1.8730001
0.089190483 0.50303429 1.8730001
0.092758097 0.50303429 1.8730001
0.096325718 0.50303429 1.8730001
0.099893339 0.50303429 1.8730001
0.10346095 0.50303429 1.8730001
0.10702857 0.50303429 1.8730001
0.11059619 0.50303429 1.8730001
0.11416382 0.50303429 1.8730001
0.11773143 0.50303429 1.8730001
0.12129905 0.50303429 1.8730001
0.12486667 0.50303429 1.8730001
0.12843429 0.50303429 1.8730001
0.13270667 0.50572002 1.8830001
0.13629334 0.50572002 1.8830001
0.13988 0.50572002 1.8830001
0.14346667 0.50572002 1.8830001
0.14791238 0.50867432 1.8940001
0.15232001 0.51135999 1.904
0.15594667 0.51135999 1.904
0.15957335 0.51135999 1.904
0.16320001 0.51135999 1.904
0.16682667 0.51135999 1.904
0.16955811 0.50867432 1.8940001
0.17316572 0.50867432 1.8940001
0.17677334 0.50867432 1.8940001
0.18038096 0.50867432 1.8940001
0.18398857 0.50867432 1.8940001
0.1875962 0.50867432 1.8940001
0.19120382 0.50867432 1.8940001
0.19584 0.51135999 1.904
0.19946668 0.51135999 1.904
0.20426667 0.51431429 1.9150001
0.20791429 0.51431429 1.9150001
0.21156192 0.51431429 1.9150001
0.21520953 0.51431429 1.9150001
-0.44025144 0.61289907 2.266
-0.43593526 0.61289907 2.266
-0.41009524 0.58233523 2.1530001
-0.40354288 0.5788191 2.1400001
-0.39704001 0.5753029 2.1270001
-0.39298859 0.5753029 2.1270001
-0.38418287 0.5682705 2.1010001
-0.3778286 0.56475431 2.0880001
-0.37170288 0.5615086 2.0760002
-0.36332002 0.55474669 2.0510001
-0.35520762 0.54825526 2.0270002
-0.34718668 0.54176384 2.003
-0.33942857 0.53554291 1.9800001
-0.33192763 0.52959239 1.9580001
-0.32451048 0.52364194 1.9360001
-0.31900001 0.52066666 1.9250001
-0.31369525 0.51796192 1.9150001
-0.30826667 0.51498669 1.904
-0.30128002 0.50930667 1.8830001
-0.29453143 0.50389719 1.863
-0.28785905 0.49848765 1.8430001
-0.28280571 0.49578288 1.8330001
-0.27489525 0.48793906 1.8040001
-0.27145904 0.48793906 1.8040001
-0.26668572 0.48550478 1.7950001
-0.26194668 0.48307049 1.7860001
-0.2572419 0.48063621 1.7770001
-0.25128573 0.47576764 1.7590001
-0.24666667 0.47333336 1.7500001
-0.24208191 0.47089908 1.7410001
-0.23753144 0.46846479 1.7320001
-0.23544954 0.47089908 1.7410001
-0.23093334 0.46846479 1.7320001
-0.2276343 0.46846479 1.7320001
-0.22433525 0.46846479 1.7320001
-0.2210362 0.46846479 1.7320001
-0.21773715 0.46846479 1.7320001
-0.2144381 0.46846479 1.7320001
-0.21113905 0.46846479 1.7320001
-0.20784001 0.46846479 1.7320001
-0.20454095 0.46846479 1.7320001
-0.20228763 0.47089908 1.7410001
-0.19897144 0.47089908 1.7410001
-0.19666667 0.47333336 1.7500001
-0.19333334 0.47333336 1.7500001
-0.19000001 0.47333336 1.7500001
-0.18666667 0.47333336 1.7500001
-0.18427619 0.47576764 1.7590001
-0.18092573 0.47576764 1.7590001
-0.17757525 0.47576764 1.7590001
-0.17333335 0.47333336 1.7500001
-0.1708743 0.47576764 1.7590001
-0.16752382 0.47576764 1.7590001
-0.16417333 0.47576764 1.7590001
-0.16082287 0.47576764 1.7590001
-0.15747239 0.47576764 1.7590001
-0.15491048 0.47820193 1.7680001
-0.15154286 0.47820193 1.7680001
-0.14817524 0.47820193 1.7680001
-0.14480762 0.47820193 1.7680001
-0.14144 0.47820193 1.7680001
-0.13807239 0.47820193 1.7680001
-0.13470477 0.47820193 1.7680001
-0.13133715 0.47820193 1.7680001
-0.12796953 0.47820193 1.7680001
-0.12460191 0.47820193 1.7680001
-0.12123429 0.47820193 1.7680001
-0.11846667 0.48063621 1.7770001
-0.11508191 0.48063621 1.7770001
-0.11169714 0.48063621 1.7770001
-0.10886095 0.48307049 1.7860001
-0.10545905 0.48307049 1.7860001
-0.10205714 0.48307049 1.7860001
-0.098655239 0.48307049 1.7860001
-0.095253333 0.48307049 1.7860001
-0.091851436 0.48307049 1.7860001
-0.08844953 0.48307049 1.7860001
-0.085047625 0.48307049 1.7860001
-0.08164572 0.48307049 1.7860001
-0.078243814 0.48307049 1.7860001
-0.074841909 0.48307049 1.7860001
-0.071440004 0.48307049 1.7860001
-0.068380952 0.48550478 1.7950001
-0.06496191 0.48550478 1.7950001
-0.061542861 0.48550478 1.7950001
-0.058123812 0.48550478 1.7950001
-0.054704763 0.48550478 1.7950001
-0.05154286 0.48793906 1.8040001
-0.048106667 0.48793906 1.8040001
-0.044670478 0.48793906 1.8040001
-0.041234288 0.48793906 1.8040001
-0.038007621 0.49064383 1.8140001
-0.03455238 0.49064383 1.8140001
-0.031097144 0.49064383 1.8140001
-0.027931429 0.49578288 1.8330001
-0.024320001 0.4933486 1.8240001
-0.020948572 0.49578288 1.8330001
-0.017457144 0.49578288 1.8330001
-0.013897143 0.4933486 1.8240001
-0.010422857 0.4933486 1.8240001
-0.0069485717 0.4933486 1.8240001
-0.0034742858 0.4933486 1.8240001
0 0.49578288 1.8330001
0.0034914287 0.49578288 1.8330001
0.0069828574 0.49578288 1.8330001
0.010474286 0.49578288 1.8330001
0.013965715 0.49578288 1.8330001
0.017457144 0.49578288 1.8330001
0.020948572 0.49578288 1.8330001
0.024573334 0.49848765 1.8430001
0.028083811 0.49848765 1.8430001
0.031594288 0.49848765 1.8430001
0.035104763 0.49848765 1.8430001
0.038824763 0.50119239 1.853
0.042354286 0.50119239 1.853
0.045883812 0.50119239 1.853
0.049413335 0.50119239 1.853
0.052942861 0.50119239 1.853
0.056472383 0.50119239 1.853
0.060001906 0.50119239 1.853
0.063531429 0.50119239 1.853
0.067060955 0.50119239 1.853
0.070971429 0.50389719 1.863
0.074519999 0.50389719 1.863
0.078068577 0.50389719 1.863
0.081617147 0.50389719 1.863
0.085165717 0.50389719 1.863
0.089190483 0.50660193 1.8730001
0.092758097 0.50660193 1.8730001
0.096325718 0.50660193 1.8730001
0.099893339 0.50660193 1.8730001
0.10346095 0.50660193 1.8730001
0.10702857 0.50660193 1.8730001
0.11059619 0.50660193 1.8730001
0.11416382 0.50660193 1.8730001
0.11773143 0.50660193 1.8730001
0.12129905 0.50660193 1.8730001
0.12486667 0.50660193 1.8730001
0.12912001 0.50930667 1.8830001
0.13270667 0.50930667 1.8830001
0.13629334 0.50930667 1.8830001
0.13988 0.50930667 1.8830001
0.14346667 0.50930667 1.8830001
0.14791238 0.51228189 1.8940001
0.15232001 0.51498669 1.904
0.15594667 0.51498669 1.904
0.15957335 0.51498669 1.904
0.16320001 0.51498669 1.904
0.16682667 0.51498669 1.904
0.16955811 0.51228189 1.8940001
0.17316572 0.51228189 1.8940001
0.17677334 0.51228189 1.8940001
0.18038096 0.51228189 1.8940001
0.18398857 0.51228189 1.8940001
0.1875962 0.51228189 1.8940001
0.19120382 0.51228189 1.8940001
0.19481143 0.51228189 1.8940001
0.19946668 0.51498669 1.904
0.20426667 0.51796192 1.9150001
0.20791429 0.51796192 1.9150001
0.21156192 0.51796192 1.9150001
0.21520953 0.51796192 1.9150001
-0.44025144 0.61721528 2.266
-0.43593526 0.61721528 2.266
-0.41276193 0.59024954 2.1670001
-0.4059943 0.58643621 2.1530001
-0.39704001 0.57935429 2.1270001
-0.39298859 0.57935429 2.1270001
-0.38418287 0.57227242 2.1010001
-0.3778286 0.56873143 2.0880001
-0.37170288 0.56546289 2.0760002
-0.36544573 0.56192195 2.0630002
-0.3573105 0.55538476 2.039
-0.34926668 0.54884762 2.0150001
-0.34148574 0.54258287 1.9920001
-0.33379239 0.53631812 1.9690001
-0.32451048 0.52732956 1.9360001
-0.31734288 0.52160954 1.9150001
-0.31189334 0.51861334 1.904
-0.30664763 0.51588953 1.8940001
-0.29968002 0.51016957 1.8730001
-0.29453143 0.50744575 1.863
-0.28785905 0.50199813 1.8430001
-0.28280571 0.49927431 1.8330001
-0.27489525 0.49137527 1.8040001
-0.27145904 0.49137527 1.8040001
-0.26802287 0.49137527 1.8040001
-0.26194668 0.4864724 1.7860001
-0.2572419 0.48402098 1.7770001
-0.25 0.47666669 1.7500001
-0.2453981 0.47421527 1.7410001
-0.24208191 0.47421527 1.7410001
-0.23629715 0.4693124 1.723
-0.2342324 0.47176382 1.7320001
-0.23093334 0.47176382 1.7320001
-0.2276343 0.47176382 1.7320001
-0.22433525 0.47176382 1.7320001
-0.2210362 0.47176382 1.7320001
-0.21773715 0.47176382 1.7320001
-0.2144381 0.47176382 1.7320001
-0.2122362 0.47421527 1.7410001
-0.20892 0.47421527 1.7410001
-0.20560382 0.47421527 1.7410001
-0.20228763 0.47421527 1.7410001
-0.2 0.47666669 1.7500001
-0.19666667 0.47666669 1.7500001
-0.19333334 0.47666669 1.7500001
-0.19000001 0.47666669 1.7500001
-0.18666667 0.47666669 1.7500001
-0.18427619 0.47911811 1.7590001
-0.18092573 0.47911811 1.7590001
-0.17757525 0.47911811 1.7590001
-0.17333335 0.47666669 1.7500001
-0.1708743 0.47911811 1.7590001
-0.16752382 0.47911811 1.7590001
-0.16417333 0.47911811 1.7590001
-0.16082287 0.47911811 1.7590001
-0.15747239 0.47911811 1.7590001
-0.15412191 0.47911811 1.7590001
-0.15154286 0.48156953 1.7680001
-0.14817524 0.48156953 1.7680001
-0.14554477 0.48402098 1.7770001
-0.14216 0.48402098 1.7770001
-0.13877524 0.48402098 1.7770001
-0.13539048 0.48402098 1.7770001
-0.13133715 0.48156953 1.7680001
-0.12796953 0.48156953 1.7680001
-0.12460191 0.48156953 1.7680001
-0.12123429 0.48156953 1.7680001
-0.11786667 0.48156953 1.7680001
-0.11449905 0.48156953 1.7680001
-0.11169714 0.48402098 1.7770001
-0.10886095 0.4864724 1.7860001
-0.10545905 0.4864724 1.7860001
-0.10205714 0.4864724 1.7860001
-0.098655239 0.4864724 1.7860001
-0.095253333 0.4864724 1.7860001
-0.091851436 0.4864724 1.7860001
-0.08844953 0.4864724 1.7860001
-0.085047625 0.4864724 1.7860001
-0.08164572 0.4864724 1.7860001
-0.078243814 0.4864724 1.7860001
-0.074841909 0.4864724 1.7860001
-0.071440004 0.4864724 1.7860001
-0.068380952 0.48892382 1.7950001
-0.06496191 0.48892382 1.7950001
-0.061542861 0.48892382 1.7950001
-0.058123812 0.48892382 1.7950001
-0.054704763 0.48892382 1.7950001
-0.05154286 0.49137527 1.8040001
-0.048106667 0.49137527 1.8040001
-0.044670478 0.49137527 1.8040001
-0.041234288 0.49137527 1.8040001
-0.038007621 0.49409908 1.8140001
-0.03455238 0.49409908 1.8140001
-0.031097144 0.49409908 1.8140001
-0.027794287 0.49682286 1.8240001
-0.024320001 0.49682286 1.8240001
-0.020948572 0.49927431 1.8330001
-0.017457144 0.49927431 1.8330001
-0.013897143 0.49682286 1.8240001
-0.010422857 0.49682286 1.8240001
-0.0069485717 0.49682286 1.8240001
-0.0034742858 0.49682286 1.8240001
0 0.49927431 1.8330001
0.0034914287 0.49927431 1.8330001
0.0069828574 0.49927431 1.8330001
0.010474286 0.49927431 1.8330001
0.013965715 0.49927431 1.8330001
0.017457144 0.49927431 1.8330001
0.021062858 0.50199813 1.8430001
0.024573334 0.50199813 1.8430001
0.028083811 0.50199813 1.8430001
0.031594288 0.50199813 1.8430001
0.035295241 0.50472194 1.853
0.038824763 0.50472194 1.853
0.042354286 0.50472194 1.853
0.045883812 0.50472194 1.853
0.049680002 0.50744575 1.863
0.052942861 0.50472194 1.853
0.056777146 0.50744575 1.863
0.060001906 0.50472194 1.853
0.063531429 0.50472194 1.853
0.067060955 0.50472194 1.853
0.070590481 0.50472194 1.853
0.074519999 0.50744575 1.863
0.078068577 0.50744575 1.863
0.081617147 0.50744575 1.863
0.085165717 0.50744575 1.863
0.089190483 0.51016957 1.8730001
0.092758097 0.51016957 1.8730001
0.095811434 0.50744575 1.863
0.099360004 0.50744575 1.863
0.10290857 0.50744575 1.863
0.10645714 0.50744575 1.863
0.11059619 0.51016957 1.8730001
0.11416382 0.51016957 1.8730001
0.11773143 0.51016957 1.8730001
0.12129905 0.51016957 1.8730001
0.12486667 0.51016957 1.8730001
0.12843429 0.51016957 1.8730001
0.13270667 0.51289338 1.8830001
0.13629334 0.51289338 1.8830001
0.13988 0.51289338 1.8830001
0.14346667 0.51289338 1.8830001
0.14791238 0.51588953 1.8940001
0.15152 0.51588953 1.8940001
0.15512763 0.51588953 1.8940001
0.15957335 0.51861334 1.904
0.16320001 0.51861334 1.904
0.16682667 0.51861334 1.904
0.17045334 0.51861334 1.904
0.17408 0.51861334 1.904
0.17677334 0.51588953 1.8940001
0.18038096 0.51588953 1.8940001
0.18398857 0.51588953 1.8940001
0.1875962 0.51588953 1.8940001
0.19120382 0.51588953 1.8940001
0.19481143 0.51588953 1.8940001
0.19841905 0.51588953 1.8940001
0.20309334 0.51861334 1.904
0.20791429 0.52160954 1.9150001
0.21156192 0.52160954 1.9150001
0.21520953 0.52160954 1.9150001
-0.44025144 0.62153143 2.266
-0.43593526 0.62153143 2.266
-0.41276193 0.59437716 2.1670001
-0.40354288 0.58697146 2.1400001
-0.39946669 0.58697146 2.1400001
-0.39298859 0.58340573 2.1270001
-0.38418287 0.57627434 2.1010001
-0.3778286 0.57270861 2.0880001
-0.36937526 0.56585145 2.0630002
-0.36544573 0.56585145 2.0630002
-0.3573105 0.55926859 2.039
-0.34926668 0.55268574 2.0150001
-0.34337145 0.54939431 2.003
-0.33379239 0.54006857 1.9690001
-0.3263543 0.53403431 1.9470001
-0.31900001 0.528 1.9250001
-0.31025526 0.51949716 1.8940001
-0.30486667 0.51648003 1.8830001
-0.29968002 0.51373714 1.8730001
-0.29295048 0.50825143 1.853
-0.28629714 0.50276572 1.8330001
-0.28141716 0.50029719 1.8240001
-0.27352381 0.49234289 1.7950001
-0.27010477 0.49234289 1.7950001
-0.26668572 0.49234289 1.7950001
-0.26194668 0.4898743 1.7860001
-0.2572419 0.48740572 1.7770001
-0.25128573 0.48246858 1.7590001
-0.24666667 0.48000002 1.7500001
-0.24208191 0.47753143 1.7410001
-0.23753144 0.47506288 1.7320001
-0.2342324 0.47506288 1.7320001
-0.23093334 0.47506288 1.7320001
-0.2276343 0.47506288 1.7320001
-0.22433525 0.47506288 1.7320001
-0.2210362 0.47506288 1.7320001
-0.21773715 0.47506288 1.7320001
-0.21555239 0.47753143 1.7410001
-0.2122362 0.47753143 1.7410001
-0.20892 0.47753143 1.7410001
-0.20560382 0.47753143 1.7410001
-0.20228763 0.47753143 1.7410001
-0.19897144 0.47753143 1.7410001
-0.19666667 0.48000002 1.7500001
-0.19333334 0.48000002 1.7500001
-0.19000001 0.48000002 1.7500001
-0.18666667 0.48000002 1.7500001
-0.18427619 0.48246858 1.7590001
-0.18092573 0.48246858 1.7590001
-0.17757525 0.48246858 1.7590001
-0.17333335 0.48000002 1.7500001
-0.1708743 0.48246858 1.7590001
-0.16752382 0.48246858 1.7590001
-0.16417333 0.48246858 1.7590001
-0.16082287 0.48246858 1.7590001
-0.15747239 0.48246858 1.7590001
-0.15412191 0.48246858 1.7590001
-0.15154286 0.48493716 1.7680001
-0.14817524 0.48493716 1.7680001
-0.14554477 0.48740572 1.7770001
-0.14216 0.48740572 1.7770001
-0.13877524 0.48740572 1.7770001
-0.13539048 0.48740572 1.7770001
-0.13200572 0.48740572 1.7770001
-0.12862095 0.48740572 1.7770001
-0.12460191 0.48493716 1.7680001
-0.12123429 0.48493716 1.7680001
-0.11786667 0.48493716 1.7680001
-0.11449905 0.48493716 1.7680001
-0.11169714 0.48740572 1.7770001
-0.10831238 0.48740572 1.7770001
-0.10545905 0.4898743 1.7860001
-0.10205714 0.4898743 1.7860001
-0.098655239 0.4898743 1.7860001
-0.095253333 0.4898743 1.7860001
-0.091851436 0.4898743 1.7860001
-0.08844953 0.4898743 1.7860001
-0.085047625 0.4898743 1.7860001
-0.08164572 0.4898743 1.7860001
-0.078243814 0.4898743 1.7860001
-0.074841909 0.4898743 1.7860001
-0.071440004 0.4898743 1.7860001
-0.068380952 0.49234289 1.7950001
-0.06496191 0.49234289 1.7950001
-0.061542861 0.49234289 1.7950001
-0.058123812 0.49234289 1.7950001
-0.054979049 0.49481145 1.8040001
-0.05154286 0.49481145 1.8040001
-0.048373334 0.4975543 1.8140001
-0.044918098 0.4975543 1.8140001
-0.041234288 0.49481145 1.8040001
-0.038007621 0.4975543 1.8140001
-0.03455238 0.4975543 1.8140001
-0.031097144 0.4975543 1.8140001
-0.027794287 0.50029719 1.8240001
-0.024320001 0.50029719 1.8240001
-0.020845715 0.50029719 1.8240001
-0.017457144 0.50276572 1.8330001
-0.013897143 0.50029719 1.8240001
-0.010422857 0.50029719 1.8240001
-0.0069485717 0.50029719 1.8240001
-0.0034742858 0.50029719 1.8240001
0 0.50276572 1.8330001
0.0034914287 0.50276572 1.8330001
0.0069828574 0.50276572 1.8330001
0.010474286 0.50276572 1.8330001
0.013965715 0.50276572 1.8330001
0.017552381 0.5055086 1.8430001
0.021062858 0.5055086 1.8430001
0.024573334 0.5055086 1.8430001
0.028083811 0.5055086 1.8430001
0.031594288 0.5055086 1.8430001
0.035104763 0.5055086 1.8430001
0.038824763 0.50825143 1.853
0.042354286 0.50825143 1.853
0.045883812 0.50825143 1.853
0.049680002 0.51099432 1.863
0.052942861 0.50825143 1.853
0.056777146 0.51099432 1.863
0.060001906 0.50825143 1.853
0.063531429 0.50825143 1.853
0.067060955 0.50825143 1.853
0.070590481 0.50825143 1.853
0.074519999 0.51099432 1.863
0.078068577 0.51099432 1.863
0.081617147 0.51099432 1.863
0.085165717 0.51099432 1.863
0.088714287 0.51099432 1.863
0.092262864 0.51099432 1.863
0.095811434 0.51099432 1.863
0.099360004 0.51099432 1.863
0.10290857 0.51099432 1.863
0.10645714 0.51099432 1.863
0.11059619 0.51373714 1.8730001
0.11416382 0.51373714 1.8730001
0.11773143 0.51373714 1.8730001
0.12129905 0.51373714 1.8730001
0.12486667 0.51373714 1.8730001
0.12843429 0.51373714 1.8730001
0.13200191 0.51373714 1.8730001
0.13629334 0.51648003 1.8830001
0.13988 0.51648003 1.8830001
0.14346667 0.51648003 1.8830001
0.14705335 0.51648003 1.8830001
0.15064001 0.51648003 1.8830001
0.15512763 0.51949716 1.8940001
0.15873525 0.51949716 1.8940001
0.16234286 0.51949716 1.8940001
0.16682667 0.52224004 1.904
0.17045334 0.52224004 1.904
0.17316572 0.51949716 1.8940001
0.17677334 0.51949716 1.8940001
0.18038096 0.51949716 1.8940001
0.18398857 0.51949716 1.8940001
0.1875962 0.51949716 1.8940001
0.19120382 0.51949716 1.8940001
0.19481143 0.51949716 1.8940001
0.19946668 0.52224004 1.904
0.20426667 0.52525717 1.9150001
0.20791429 0.52525717 1.9150001
0.21156192 0.52525717 1.9150001
0.21520953 0.52525717 1.9150001
-0.42766288 0.61397147 2.223
-0.41542858 0.60237145 2.181
-0.4059943 0.59463811 2.1530001
-0.39946669 0.59104764 2.1400001
-0.39298859 0.58745718 2.1270001
-0.38418287 0.58027619 2.1010001
-0.3778286 0.57668573 2.0880001
-0.36937526 0.56978095 2.0630002
-0.36332002 0.56646669 2.0510001
-0.3573105 0.56315237 2.039
-0.34926668 0.55652386 2.0150001
-0.34337145 0.55320954 2.003
-0.33565715 0.54685718 1.9800001
-0.3263543 0.53774285 1.9470001
-0.31900001 0.5316667 1.9250001
-0.31189334 0.52586669 1.904
-0.30486667 0.52006668 1.8830001
-0.29968002 0.51730478 1.8730001
-0.29453143 0.51454288 1.863
-0.28785905 0.50901908 1.8430001
-0.28141716 0.50377142 1.8240001
-0.27352381 0.49576193 1.7950001
-0.27010477 0.49576193 1.7950001
-0.26668572 0.49576193 1.7950001
-0.26194668 0.49327621 1.7860001
-0.2572419 0.49079049 1.7770001
-0.25128573 0.48581907 1.7590001
-0.24666667 0.48333335 1.7500001
-0.24208191 0.48084763 1.7410001
-0.23753144 0.47836193 1.7320001
-0.2342324 0.47836193 1.7320001
-0.23213334 0.48084763 1.7410001
-0.2276343 0.47836193 1.7320001
-0.22550096 0.48084763 1.7410001
-0.2210362 0.47836193 1.7320001
-0.21773715 0.47836193 1.7320001
-0.21555239 0.48084763 1.7410001
-0.2122362 0.48084763 1.7410001
-0.20892 0.48084763 1.7410001
-0.20560382 0.48084763 1.7410001
-0.20228763 0.48084763 1.7410001
-0.19897144 0.48084763 1.7410001
-0.19666667 0.48333335 1.7500001
-0.19333334 0.48333335 1.7500001
-0.19000001 0.48333335 1.7500001
-0.18666667 0.48333335 1.7500001
-0.18427619 0.48581907 1.7590001
-0.18092573 0.48581907 1.7590001
-0.17757525 0.48581907 1.7590001
-0.17333335 0.48333335 1.7500001
-0.1708743 0.48581907 1.7590001
-0.16752382 0.48581907 1.7590001
-0.16417333 0.48581907 1.7590001
-0.16082287 0.48581907 1.7590001
-0.15747239 0.48581907 1.7590001
-0.15412191 0.48581907 1.7590001
-0.15154286 0.48830479 1.7680001
-0.14817524 0.48830479 1.7680001
-0.14554477 0.49079049 1.7770001
-0.14216 0.49079049 1.7770001
-0.13877524 0.49079049 1.7770001
-0.13539048 0.49079049 1.7770001
-0.13200572 0.49079049 1.7770001
-0.12862095 0.49079049 1.7770001
-0.12460191 0.48830479 1.7680001
-0.12185143 0.49079049 1.7770001
-0.11846667 0.49079049 1.7770001
-0.11508191 0.49079049 1.7770001
-0.11169714 0.49079049 1.7770001
-0.10886095 0.49327621 1.7860001
-0.10545905 0.49327621 1.7860001
-0.10205714 0.49327621 1.7860001
-0.098655239 0.49327621 1.7860001
-0.095253333 0.49327621 1.7860001
-0.091851436 0.49327621 1.7860001
-0.08844953 0.49327621 1.7860001
-0.085047625 0.49327621 1.7860001
-0.08164572 0.49327621 1.7860001
-0.078243814 0.49327621 1.7860001
-0.07521905 0.49576193 1.7950001
-0.071800001 0.49576193 1.7950001
-0.068380952 0.49576193 1.7950001
-0.06496191 0.49576193 1.7950001
-0.061542861 0.49576193 1.7950001
-0.058415242 0.49824762 1.8040001
-0.054979049 0.49824762 1.8040001
-0.05154286 0.49824762 1.8040001
-0.048373334 0.50100952 1.8140001
-0.044918098 0.50100952 1.8140001
-0.041462857 0.50100952 1.8140001
-0.038007621 0.50100952 1.8140001
-0.03455238 0.50100952 1.8140001
-0.031097144 0.50100952 1.8140001
-0.027794287 0.50377142 1.8240001
-0.024186667 0.50100952 1.8140001
-0.020845715 0.50377142 1.8240001
-0.017371429 0.50377142 1.8240001
-0.013897143 0.50377142 1.8240001
-0.010422857 0.50377142 1.8240001
-0.0069485717 0.50377142 1.8240001
-0.0034914287 0.50625718 1.8330001
0 0.50625718 1.8330001
0.0034914287 0.50625718 1.8330001
0.0069828574 0.50625718 1.8330001
0.010474286 0.50625718 1.8330001
0.013965715 0.50625718 1.8330001
0.017552381 0.50901908 1.8430001
0.021062858 0.50901908 1.8430001
0.024573334 0.50901908 1.8430001
0.028083811 0.50901908 1.8430001
0.031594288 0.50901908 1.8430001
0.035104763 0.50901908 1.8430001
0.038824763 0.51178098 1.853
0.042354286 0.51178098 1.853
0.045883812 0.51178098 1.853
0.049413335 0.51178098 1.853
0.052942861 0.51178098 1.853
0.056777146 0.51454288 1.863
0.060325716 0.51454288 1.863
0.063531429 0.51178098 1.853
0.067422859 0.51454288 1.863
0.070971429 0.51454288 1.863
0.074519999 0.51454288 1.863
0.078068577 0.51454288 1.863
0.081617147 0.51454288 1.863
0.085165717 0.51454288 1.863
0.088714287 0.51454288 1.863
0.092262864 0.51454288 1.863
0.095811434 0.51454288 1.863
0.099360004 0.51454288 1.863
0.10290857 0.51454288 1.863
0.10645714 0.51454288 1.863
0.11059619 0.51730478 1.8730001
0.11416382 0.51730478 1.8730001
0.11773143 0.51730478 1.8730001
0.12129905 0.51730478 1.8730001
0.12486667 0.51730478 1.8730001
0.12843429 0.51730478 1.8730001
0.13270667 0.52006668 1.8830001
0.13629334 0.52006668 1.8830001
0.13988 0.52006668 1.8830001
0.14346667 0.52006668 1.8830001
0.14705335 0.52006668 1.8830001
0.15152 0.52310479 1.8940001
0.15512763 0.52310479 1.8940001
0.15873525 0.52310479 1.8940001
0.16320001 0.52586669 1.904
0.16682667 0.52586669 1.904
0.16955811 0.52310479 1.8940001
0.17316572 0.52310479 1.8940001
0.17677334 0.52310479 1.8940001
0.18038096 0.52310479 1.8940001
0.18398857 0.52310479 1.8940001
0.1875962 0.52310479 1.8940001
0.19120382 0.52310479 1.8940001
0.19481143 0.52310479 1.8940001
0.19946668 0.52586669 1.904
0.20426667 0.5289048 1.9150001
0.20791429 0.5289048 1.9150001
0.21156192 0.5289048 1.9150001
-0.41009524 0.59873909 2.1530001
-0.4059943 0.59873909 2.1530001
-0.39946669 0.59512383 2.1400001
-0.39298859 0.59150857 2.1270001
-0.38418287 0.58427811 2.1010001
-0.3778286 0.58066291 2.0880001
-0.37170288 0.57732576 2.0760002
-0.36544573 0.5737105 2.0630002
-0.3573105 0.56703621 2.039
-0.34926668 0.56036192 2.0150001
-0.34337145 0.55702478 2.003
-0.33565715 0.5506286 1.9800001
-0.3263543 0.54145145 1.9470001
-0.31900001 0.53533334 1.9250001
-0.31189334 0.52949333 1.904
-0.30486667 0.52365333 1.8830001
-0.29968002 0.52087241 1.8730001
-0.29453143 0.51809144 1.863
-0.28785905 0.51252955 1.8430001
-0.28280571 0.50974858 1.8330001
-0.27489525 0.50168383 1.8040001
-0.27010477 0.49918097 1.7950001
-0.26668572 0.49918097 1.7950001
-0.26194668 0.49667811 1.7860001
-0.2572419 0.49417526 1.7770001
-0.25128573 0.48916954 1.7590001
-0.24666667 0.48666668 1.7500001
-0.24208191 0.48416382 1.7410001
-0.23753144 0.48166096 1.7320001
-0.2342324 0.48166096 1.7320001
-0.23213334 0.48416382 1.7410001
-0.22881715 0.48416382 1.7410001
-0.22550096 0.48416382 1.7410001
-0.2210362 0.48166096 1.7320001
-0.21773715 0.48166096 1.7320001
-0.21555239 0.48416382 1.7410001
-0.2122362 0.48416382 1.7410001
-0.20892 0.48416382 1.7410001
-0.20560382 0.48416382 1.7410001
-0.20228763 0.48416382 1.7410001
-0.19897144 0.48416382 1.7410001
-0.19666667 0.48666668 1.7500001
-0.19333334 0.48666668 1.7500001
-0.19000001 0.48666668 1.7500001
-0.18666667 0.48666668 1.7500001
-0.18427619 0.48916954 1.7590001
-0.18092573 0.48916954 1.7590001
-0.17757525 0.48916954 1.7590001
-0.17422476 0.48916954 1.7590001
-0.1708743 0.48916954 1.7590001
-0.16752382 0.48916954 1.7590001
-0.16417333 0.48916954 1.7590001
-0.16082287 0.48916954 1.7590001
-0.15747239 0.48916954 1.7590001
-0.15491048 0.4916724 1.7680001
-0.15154286 0.4916724 1.7680001
-0.14892954 0.49417526 1.7770001
-0.14554477 0.49417526 1.7770001
-0.14216 0.49417526 1.7770001
-0.13877524 0.49417526 1.7770001
-0.13539048 0.49417526 1.7770001
-0.13200572 0.49417526 1.7770001
-0.12862095 0.49417526 1.7770001
-0.1252362 0.49417526 1.7770001
-0.12185143 0.49417526 1.7770001
-0.11846667 0.49417526 1.7770001
-0.11508191 0.49417526 1.7770001
-0.11169714 0.49417526 1.7770001
-0.10886095 0.49667811 1.7860001
-0.10545905 0.49667811 1.7860001
-0.10205714 0.49667811 1.7860001
-0.098655239 0.49667811 1.7860001
-0.095253333 0.49667811 1.7860001
-0.091851436 0.49667811 1.7860001
-0.08844953 0.49667811 1.7860001
-0.085047625 0.49667811 1.7860001
-0.08164572 0.49667811 1.7860001
-0.078638099 0.49918097 1.7950001
-0.07521905 0.49918097 1.7950001
-0.071800001 0.49918097 1.7950001
-0.068380952 0.49918097 1.7950001
-0.06496191 0.49918097 1.7950001
-0.061542861 0.49918097 1.7950001
-0.058123812 0.49918097 1.7950001
-0.054979049 0.50168383 1.8040001
-0.05154286 0.50168383 1.8040001
-0.048106667 0.50168383 1.8040001
-0.044918098 0.50446481 1.8140001
-0.041234288 0.50168383 1.8040001
-0.038007621 0.50446481 1.8140001
-0.03455238 0.50446481 1.8140001
-0.031097144 0.50446481 1.8140001
-0.027794287 0.50724572 1.8240001
-0.024186667 0.50446481 1.8140001
-0.020845715 0.50724572 1.8240001
-0.017371429 0.50724572 1.8240001
-0.013897143 0.50724572 1.8240001
-0.010422857 0.50724572 1.8240001
-0.0069485717 0.50724572 1.8240001
-0.0034742858 0.50724572 1.8240001
0 0.50974858 1.8330001
0.0034914287 0.50974858 1.8330001
0.0069828574 0.50974858 1.8330001
0.010474286 0.50974858 1.8330001
0.013965715 0.50974858 1.8330001
0.017552381 0.51252955 1.8430001
0.021062858 0.51252955 1.8430001
0.024573334 0.51252955 1.8430001
0.028083811 0.51252955 1.8430001
0.031594288 0.51252955 1.8430001
0.035104763 0.51252955 1.8430001
0.038615238 0.51252955 1.8430001
0.042125717 0.51252955 1.8430001
0.045636192 0.51252955 1.8430001
0.049413335 0.51531047 1.853
0.052942861 0.51531047 1.853
0.056472383 0.51531047 1.853
0.060001906 0.51531047 1.853
0.063531429 0.51531047 1.853
0.067060955 0.51531047 1.853
0.070971429 0.51809144 1.863
0.07412 0.51531047 1.853
0.078068577 0.51809144 1.863
0.081617147 0.51809144 1.863
0.084708571 0.51531047 1.853
0.088714287 0.51809144 1.863
0.092262864 0.51809144 1.863
0.095811434 0.51809144 1.863
0.099360004 0.51809144 1.863
0.10290857 0.51809144 1.863
0.10645714 0.51809144 1.863
0.11059619 0.52087241 1.8730001
0.11416382 0.52087241 1.8730001
0.11773143 0.52087241 1.8730001
0.12129905 0.52087241 1.8730001
0.12486667 0.52087241 1.8730001
0.12843429 0.52087241 1.8730001
0.13200191 0.52087241 1.8730001
0.13629334 0.52365333 1.8830001
0.13988 0.52365333 1.8830001
0.14346667 0.52365333 1.8830001
0.14705335 0.52365333 1.8830001
0.15152 0.52671242 1.8940001
0.15512763 0.52671242 1.8940001
0.15873525 0.52671242 1.8940001
0.16320001 0.52949333 1.904
0.16682667 0.52949333 1.904
0.17045334 0.52949333 1.904
0.17316572 0.52671242 1.8940001
0.17770667 0.52949333 1.904
0.18133333 0.52949333 1.904
0.18496001 0.52949333 1.904
0.18858667 0.52949333 1.904
0.19221334 0.52949333 1.904
0.19584 0.52949333 1.904
0.20061906 0.53255242 1.9150001
0.20426667 0.53255242 1.9150001
0.20791429 0.53255242 1.9150001
-0.41009524 0.60284001 2.1530001
-0.40354288 0.59920001 2.1400001
-0.39946669 0.59920001 2.1400001
-0.39298859 0.59556001 2.1270001
-0.38418287 0.58828002 2.1010001
-0.3778286 0.58464003 2.0880001
-0.37170288 0.58127999 2.0760002
-0.36332002 0.57428002 2.0510001
-0.3573105 0.57092005 2.039
-0.35134667 0.56756002 2.0270002
-0.34337145 0.56084001 2.003
-0.33769143 0.55776 1.9920001
-0.32819811 0.54824001 1.9580001
-0.32082286 0.54208004 1.9360001
-0.31025526 0.53032005 1.8940001
-0.30486667 0.52724004 1.8830001
-0.29968002 0.52443999 1.8730001
-0.29453143 0.52164 1.863
-0.28785905 0.51604003 1.8430001
-0.28280571 0.51324004 1.8330001
-0.27489525 0.50512004 1.8040001
-0.27010477 0.50260001 1.7950001
-0.26668572 0.50260001 1.7950001
-0.26194668 0.50007999 1.7860001
-0.25593907 0.49504003 1.7680001
-0.25128573 0.49252 1.7590001
-0.24666667 0.49000001 1.7500001
-0.24208191 0.48748001 1.7410001
-0.23753144 0.48496002 1.7320001
-0.2342324 0.48496002 1.7320001
-0.23213334 0.48748001 1.7410001
-0.22881715 0.48748001 1.7410001
-0.22550096 0.48748001 1.7410001
-0.2210362 0.48496002 1.7320001
-0.21773715 0.48496002 1.7320001
-0.21555239 0.48748001 1.7410001
-0.2122362 0.48748001 1.7410001
-0.20892 0.48748001 1.7410001
-0.20560382 0.48748001 1.7410001
-0.20228763 0.48748001 1.7410001
-0.19897144 0.48748001 1.7410001
-0.19666667 0.49000001 1.7500001
-0.19333334 0.49000001 1.7500001
-0.19000001 0.49000001 1.7500001
-0.18666667 0.49000001 1.7500001
-0.18427619 0.49252 1.7590001
-0.18092573 0.49252 1.7590001
-0.17757525 0.49252 1.7590001
-0.17422476 0.49252 1.7590001
-0.1708743 0.49252 1.7590001
-0.16752382 0.49252 1.7590001
-0.16417333 0.49252 1.7590001
-0.16082287 0.49252 1.7590001
-0.15747239 0.49252 1.7590001
-0.15412191 0.49252 1.7590001
-0.15154286 0.49504003 1.7680001
-0.14817524 0.49504003 1.7680001
-0.14480762 0.49504003 1.7680001
-0.14216 0.49756002 1.7770001
-0.13877524 0.49756002 1.7770001
-0.13539048 0.49756002 1.7770001
-0.13200572 0.49756002 1.7770001
-0.12862095 0.49756002 1.7770001
-0.1252362 0.49756002 1.7770001
-0.12185143 0.49756002 1.7770001
-0.11846667 0.49756002 1.7770001
-0.11508191 0.49756002 1.7770001
-0.11169714 0.49756002 1.7770001
-0.10886095 0.50007999 1.7860001
-0.10545905 0.50007999 1.7860001
-0.10205714 0.50007999 1.7860001
-0.098655239 0.50007999 1.7860001
-0.095253333 0.50007999 1.7860001
-0.091851436 0.50007999 1.7860001
-0.08844953 0.50007999 1.7860001
-0.085047625 0.50007999 1.7860001
-0.08164572 0.50007999 1.7860001
-0.078638099 0.50260001 1.7950001
-0.07521905 0.50260001 1.7950001
-0.071800001 0.50260001 1.7950001
-0.068380952 0.50260001 1.7950001
-0.06528762 0.50512004 1.8040001
-0.061542861 0.50260001 1.7950001
-0.058415242 0.50512004 1.8040001
-0.054979049 0.50512004 1.8040001
-0.05154286 0.50512004 1.8040001
-0.048106667 0.50512004 1.8040001
-0.044670478 0.50512004 1.8040001
-0.041234288 0.50512004 1.8040001
-0.038007621 0.50792003 1.8140001
-0.03455238 0.50792003 1.8140001
-0.031097144 0.50792003 1.8140001
-0.027794287 0.51072001 1.8240001
-0.024320001 0.51072001 1.8240001
-0.020845715 0.51072001 1.8240001
-0.017371429 0.51072001 1.8240001
-0.013897143 0.51072001 1.8240001
-0.010422857 0.51072001 1.8240001
-0.0069485717 0.51072001 1.8240001
-0.0034742858 0.51072001 1.8240001
0 0.51072001 1.8240001
0.0034742858 0.51072001 1.8240001
0.0069828574 0.51324004 1.8330001
0.010474286 0.51324004 1.8330001
0.013965715 0.51324004 1.8330001
0.017457144 0.51324004 1.8330001
0.021062858 0.51604003 1.8430001
0.024573334 0.51604003 1.8430001
0.028083811 0.51604003 1.8430001
0.031594288 0.51604003 1.8430001
0.035104763 0.51604003 1.8430001
0.038615238 0.51604003 1.8430001
0.042125717 0.51604003 1.8430001
0.045883812 0.51884001 1.853
0.049413335 0.51884001 1.853
0.052942861 0.51884001 1.853
0.056472383 0.51884001 1.853
0.060001906 0.51884001 1.853
0.063874289 0.52164 1.863
0.067422859 0.52164 1.863
0.070971429 0.52164 1.863
0.074519999 0.52164 1.863
0.078068577 0.52164 1.863
0.081617147 0.52164 1.863
0.085165717 0.52164 1.863
0.088714287 0.52164 1.863
0.092262864 0.52164 1.863
0.095811434 0.52164 1.863
0.099360004 0.52164 1.863
0.10290857 0.52164 1.863
0.10645714 0.52164 1.863
0.11059619 0.52443999 1.8730001
0.11416382 0.52443999 1.8730001
0.11773143 0.52443999 1.8730001
0.12129905 0.52443999 1.8730001
0.12486667 0.52443999 1.8730001
0.12843429 0.52443999 1.8730001
0.13270667 0.52724004 1.8830001
0.13629334 0.52724004 1.8830001
0.13988 0.52724004 1.8830001
0.14346667 0.52724004 1.8830001
0.14791238 0.53032005 1.8940001
0.15152 0.53032005 1.8940001
0.15512763 0.53032005 1.8940001
0.15873525 0.53032005 1.8940001
0.16234286 0.53032005 1.8940001
0.16682667 0.53312004 1.904
0.16955811 0.53032005 1.8940001
0.17316572 0.53032005 1.8940001
0.17770667 0.53312004 1.904
0.18133333 0.53312004 1.904
0.18496001 0.53312004 1.904
0.18858667 0.53312004 1.904
0.19221334 0.53312004 1.904
0.19481143 0.53032005 1.8940001
0.19946668 0.53312004 1.904
0.20309334 0.53312004 1.904
0.20672001 0.53312004 1.904
-0.40761906 0.60327619 2.1400001
-0.40354288 0.60327619 2.1400001
-0.39704001 0.59961146 2.1270001
-0.39058667 0.59594667 2.1140001
-0.38418287 0.59228194 2.1010001
-0.3778286 0.58861715 2.0880001
-0.36937526 0.58156955 2.0630002
-0.36332002 0.57818669 2.0510001
-0.3573105 0.57480383 2.039
-0.35134667 0.57142097 2.0270002
-0.34542859 0.56803811 2.0150001
-0.33769143 0.56155431 1.9920001
-0.32819811 0.55196953 1.9580001
-0.31900001 0.54266667 1.9250001
-0.31025526 0.53392762 1.8940001
-0.30486667 0.53082669 1.8830001
-0.29968002 0.52800763 1.8730001
-0.29453143 0.52518857 1.863
-0.28942096 0.52236956 1.853
-0.28280571 0.51673144 1.8330001
-0.27489525 0.50855619 1.8040001
-0.27010477 0.50601906 1.7950001
-0.26668572 0.50601906 1.7950001
-0.26194668 0.50348192 1.7860001
-0.2572419 0.50094479 1.7770001
-0.25128573 0.4958705 1.7590001
-0.24666667 0.49333334 1.7500001
-0.24333334 0.49333334 1.7500001
-0.23753144 0.48825908 1.7320001
-0.2342324 0.48825908 1.7320001
-0.23213334 0.49079621 1.7410001
-0.22881715 0.49079621 1.7410001
-0.22550096 0.49079621 1.7410001
-0.2210362 0.48825908 1.7320001
-0.21773715 0.48825908 1.7320001
-0.2144381 0.48825908 1.7320001
