# .PCD v0.7 - Point Cloud Data file format
VERSION 0.7
FIELDS x y z
SIZE 4 4 4
TYPE F F F
COUNT 1 1 1
WIDTH 1505
HEIGHT 1
VIEWPOINT 0 0 0 1 0 0 0
POINTS 1505
DATA ascii
0.21248001 0.27318859 1.9920001
0.21627429 0.27318859 1.9920001
0.2279124 0.28292572 2.0630002
0.23184191 0.28292572 2.0630002
0.2401143 0.28813717 2.1010001
0.2441162 0.28813717 2.1010001
-0.34186098 0.24708763 1.7770001
-0.3401905 0.24833906 1.7860001
-0.33509144 0.24708763 1.7770001
-0.33170667 0.24708763 1.7770001
-0.3283219 0.24708763 1.7770001
-0.32493716 0.24708763 1.7770001
-0.3215524 0.24708763 1.7770001
-0.31655622 0.2458362 1.7680001
-0.31318858 0.2458362 1.7680001
-0.30982095 0.2458362 1.7680001
-0.30645335 0.2458362 1.7680001
-0.30308571 0.2458362 1.7680001
-0.29971811 0.2458362 1.7680001
-0.29635048 0.2458362 1.7680001
-0.2944743 0.24708763 1.7770001
-0.29108953 0.24708763 1.7770001
-0.28770477 0.24708763 1.7770001
-0.28432 0.24708763 1.7770001
-0.28093526 0.24708763 1.7770001
-0.27755049 0.24708763 1.7770001
-0.27416572 0.24708763 1.7770001
-0.27078095 0.24708763 1.7770001
-0.2660419 0.2458362 1.7680001
-0.2626743 0.2458362 1.7680001
-0.26194668 0.24833906 1.7860001
-0.25854477 0.24833906 1.7860001
-0.25128573 0.24458477 1.7590001
-0.24920382 0.2458362 1.7680001
-0.24458477 0.24458477 1.7590001
-0.24123429 0.24458477 1.7590001
-0.23788382 0.24458477 1.7590001
-0.23453334 0.24458477 1.7590001
-0.23118286 0.24458477 1.7590001
-0.22783239 0.24458477 1.7590001
-0.22448191 0.24458477 1.7590001
-0.22113144 0.24458477 1.7590001
-0.21778096 0.24458477 1.7590001
-0.21443048 0.24458477 1.7590001
-0.21108001 0.24458477 1.7590001
-0.20772953 0.24458477 1.7590001
-0.20437905 0.24458477 1.7590001
-0.20102859 0.24458477 1.7590001
-0.19666667 0.24333334 1.7500001
-0.19333334 0.24333334 1.7500001
-0.19000001 0.24333334 1.7500001
-0.18666667 0.24333334 1.7500001
-0.18333334 0.24333334 1.7500001
-0.18000001 0.24333334 1.7500001
-0.17666668 0.24333334 1.7500001
-0.17333335 0.24333334 1.7500001
-0.17 0.24333334 1.7500001
-0.16666667 0.24333334 1.7500001
-0.16333334 0.24333334 1.7500001
-0.16000001 0.24333334 1.7500001
-0.15666667 0.24333334 1.7500001
-0.15333334 0.24333334 1.7500001
-0.15000001 0.24333334 1.7500001
-0.14666668 0.24333334 1.7500001
-0.14333335 0.24333334 1.7500001
-0.14 0.24333334 1.7500001
-0.13596381 0.24208191 1.7410001
-0.13264762 0.24208191 1.7410001
-0.12933144 0.24208191 1.7410001
-0.12536381 0.24083048 1.7320001
-0.12206477 0.24083048 1.7320001
-0.11876572 0.24083048 1.7320001
-0.11546667 0.24083048 1.7320001
-0.11216763 0.24083048 1.7320001
-0.10886858 0.24083048 1.7320001
-0.10556953 0.24083048 1.7320001
-0.10227048 0.24083048 1.7320001
-0.098971434 0.24083048 1.7320001
-0.095175244 0.23957905 1.723
-0.091893338 0.23957905 1.723
-0.088611431 0.23957905 1.723
-0.085329525 0.23957905 1.723
-0.082047619 0.23957905 1.723
-0.07876572 0.23957905 1.723
-0.075483814 0.23957905 1.723
-0.072201908 0.23957905 1.723
-0.068920001 0.23957905 1.723
-0.065638095 0.23957905 1.723
-0.062356193 0.23957905 1.723
-0.059074286 0.23957905 1.723
-0.055533335 0.23846668 1.715
-0.052266669 0.23846668 1.715
-0.049000002 0.23846668 1.715
-0.045733336 0.23846668 1.715
-0.042466667 0.23846668 1.715
-0.0392 0.23846668 1.715
-0.035933334 0.23846668 1.715
-0.032666668 0.23846668 1.715
-0.0294 0.23846668 1.715
-0.026255239 0.23957905 1.723
-0.022973334 0.23957905 1.723
-0.01969143 0.23957905 1.723
-0.016333334 0.23846668 1.715
-0.013066667 0.23846668 1.715
-0.0098000001 0.23846668 1.715
-0.0065333336 0.23846668 1.715
-0.0032495239 0.23721525 1.7060001
0 0.23721525 1.7060001
0.0032495239 0.23721525 1.7060001
0.0064990479 0.23721525 1.7060001
0.0097485716 0.23721525 1.7060001
0.012998096 0.23721525 1.7060001
0.016247619 0.23721525 1.7060001
0.0196 0.23846668 1.715
0.022746667 0.23721525 1.7060001
0.025996191 0.23721525 1.7060001
0.029245716 0.23721525 1.7060001
0.032495238 0.23721525 1.7060001
0.035577144 0.23610286 1.6980001
0.03881143 0.23610286 1.6980001
0.042045716 0.23610286 1.6980001
0.045280002 0.23610286 1.6980001
0.048514288 0.23610286 1.6980001
0.051748574 0.23610286 1.6980001
0.05498286 0.23610286 1.6980001
0.058217146 0.23610286 1.6980001
0.061451431 0.23610286 1.6980001
0.064685717 0.23610286 1.6980001
0.067919999 0.23610286 1.6980001
0.071154289 0.23610286 1.6980001
0.074388571 0.23610286 1.6980001
0.077257149 0.23499048 1.6900001
0.080476195 0.23499048 1.6900001
0.08369524 0.23499048 1.6900001
0.086914286 0.23499048 1.6900001
0.090133339 0.23499048 1.6900001
0.092855245 0.23373906 1.6810001
0.096057147 0.23373906 1.6810001
0.099790476 0.23499048 1.6900001
0.10300953 0.23499048 1.6900001
0.10566286 0.23373906 1.6810001
0.10944762 0.23499048 1.6900001
0.11206667 0.23373906 1.6810001
0.11526857 0.23373906 1.6810001
0.11847048 0.23373906 1.6810001
0.12109334 0.23262668 1.6730001
0.12428001 0.23262668 1.6730001
0.12746668 0.23262668 1.6730001
0.13065334 0.23262668 1.6730001
0.13448 0.23373906 1.6810001
0.1390743 0.23610286 1.6980001
0.14230858 0.23610286 1.6980001
0.14768572 0.23957905 1.723
0.15806477 0.25084192 1.8040001
0.16239619 0.2522324 1.8140001
0.16676572 0.25362286 1.8240001
0.17201334 0.25626478 1.8430001
0.17552382 0.25626478 1.8430001
0.18000571 0.25765523 1.853
0.18353525 0.25765523 1.853
0.19120382 0.26335621 1.8940001
0.20026286 0.27072573 1.9470001
0.20742857 0.2753143 1.9800001
0.21248001 0.27698287 1.9920001
0.21627429 0.27698287 1.9920001
0.2279124 0.28685525 2.0630002
0.23330286 0.28866288 2.0760002
0.23862858 0.29033145 2.0880001
0.24260572 0.29033145 2.0880001
-0.34186098 0.2504724 1.7770001
-0.3401905 0.25174096 1.7860001
-0.33509144 0.2504724 1.7770001
-0.33170667 0.2504724 1.7770001
-0.3283219 0.2504724 1.7770001
-0.32493716 0.2504724 1.7770001
-0.31992382 0.24920382 1.7680001
-0.31655622 0.24920382 1.7680001
-0.31318858 0.24920382 1.7680001
-0.30982095 0.24920382 1.7680001
-0.30645335 0.24920382 1.7680001
-0.30308571 0.24920382 1.7680001
-0.29971811 0.24920382 1.7680001
-0.29785907 0.2504724 1.7770001
-0.2944743 0.2504724 1.7770001
-0.29108953 0.2504724 1.7770001
-0.28770477 0.2504724 1.7770001
-0.28432 0.2504724 1.7770001
-0.28093526 0.2504724 1.7770001
-0.27755049 0.2504724 1.7770001
-0.27277714 0.24920382 1.7680001
-0.27078095 0.2504724 1.7770001
-0.2660419 0.24920382 1.7680001
-0.2626743 0.24920382 1.7680001
-0.26062667 0.2504724 1.7770001
-0.25593907 0.24920382 1.7680001
-0.25257143 0.24920382 1.7680001
-0.24920382 0.24920382 1.7680001
-0.24458477 0.24793525 1.7590001
-0.24123429 0.24793525 1.7590001
-0.23788382 0.24793525 1.7590001
-0.23453334 0.24793525 1.7590001
-0.23118286 0.24793525 1.7590001
-0.22783239 0.24793525 1.7590001
-0.22448191 0.24793525 1.7590001
-0.22113144 0.24793525 1.7590001
-0.21778096 0.24793525 1.7590001
-0.21443048 0.24793525 1.7590001
-0.21108001 0.24793525 1.7590001
-0.20772953 0.24793525 1.7590001
-0.20437905 0.24793525 1.7590001
-0.2 0.24666667 1.7500001
-0.19666667 0.24666667 1.7500001
-0.19333334 0.24666667 1.7500001
-0.19000001 0.24666667 1.7500001
-0.18666667 0.24666667 1.7500001
-0.18333334 0.24666667 1.7500001
-0.18000001 0.24666667 1.7500001
-0.17666668 0.24666667 1.7500001
-0.17333335 0.24666667 1.7500001
-0.17 0.24666667 1.7500001
-0.16666667 0.24666667 1.7500001
-0.16333334 0.24666667 1.7500001
-0.16000001 0.24666667 1.7500001
-0.15666667 0.24666667 1.7500001
-0.15333334 0.24666667 1.7500001
-0.15000001 0.24666667 1.7500001
-0.14666668 0.24666667 1.7500001
-0.14333335 0.24666667 1.7500001
-0.14 0.24666667 1.7500001
-0.13596381 0.2453981 1.7410001
-0.13264762 0.2453981 1.7410001
-0.12933144 0.2453981 1.7410001
-0.12471239 0.24286096 1.723
-0.12206477 0.24412954 1.7320001
-0.11876572 0.24412954 1.7320001
-0.11546667 0.24412954 1.7320001
-0.11275048 0.2453981 1.7410001
-0.10886858 0.24412954 1.7320001
-0.1061181 0.2453981 1.7410001
-0.10227048 0.24412954 1.7320001
-0.098971434 0.24412954 1.7320001
-0.095672384 0.24412954 1.7320001
-0.092373334 0.24412954 1.7320001
-0.089074291 0.24412954 1.7320001
-0.085329525 0.24286096 1.723
-0.082047619 0.24286096 1.723
-0.07876572 0.24286096 1.723
-0.075483814 0.24286096 1.723
-0.072201908 0.24286096 1.723
-0.068920001 0.24286096 1.723
-0.065638095 0.24286096 1.723
-0.062356193 0.24286096 1.723
-0.059074286 0.24286096 1.723
-0.055792384 0.24286096 1.723
-0.052510478 0.24286096 1.723
-0.049000002 0.24173334 1.715
-0.045733336 0.24173334 1.715
-0.042466667 0.24173334 1.715
-0.0392 0.24173334 1.715
-0.035933334 0.24173334 1.715
-0.032666668 0.24173334 1.715
-0.0294 0.24173334 1.715
-0.026255239 0.24286096 1.723
-0.022973334 0.24286096 1.723
-0.0196 0.24173334 1.715
-0.016333334 0.24173334 1.715
-0.013066667 0.24173334 1.715
-0.0098000001 0.24173334 1.715
-0.0064990479 0.24046478 1.7060001
-0.0032495239 0.24046478 1.7060001
0 0.24046478 1.7060001
0.0032495239 0.24046478 1.7060001
0.0064990479 0.24046478 1.7060001
0.0097485716 0.24046478 1.7060001
0.012998096 0.24046478 1.7060001
0.016247619 0.24046478 1.7060001
0.019497143 0.24046478 1.7060001
0.022746667 0.24046478 1.7060001
0.025996191 0.24046478 1.7060001
0.029108573 0.23933715 1.6980001
0.032495238 0.24046478 1.7060001
0.035577144 0.23933715 1.6980001
0.03881143 0.23933715 1.6980001
0.042045716 0.23933715 1.6980001
0.045280002 0.23933715 1.6980001
0.048514288 0.23933715 1.6980001
0.051748574 0.23933715 1.6980001
0.05498286 0.23933715 1.6980001
0.058217146 0.23933715 1.6980001
0.061451431 0.23933715 1.6980001
0.064685717 0.23933715 1.6980001
0.067919999 0.23933715 1.6980001
0.071154289 0.23933715 1.6980001
0.074388571 0.23933715 1.6980001
0.077257149 0.23820953 1.6900001
0.080476195 0.23820953 1.6900001
0.083249524 0.23694097 1.6810001
0.086451434 0.23694097 1.6810001
0.090133339 0.23820953 1.6900001
0.092855245 0.23694097 1.6810001
0.096057147 0.23694097 1.6810001
0.099259049 0.23694097 1.6810001
0.10246096 0.23694097 1.6810001
0.10566286 0.23694097 1.6810001
0.10886477 0.23694097 1.6810001
0.11206667 0.23694097 1.6810001
0.11526857 0.23694097 1.6810001
0.11847048 0.23694097 1.6810001
0.12109334 0.23581333 1.6730001
0.12428001 0.23581333 1.6730001
0.12746668 0.23581333 1.6730001
0.1312781 0.23694097 1.6810001
0.13520001 0.23820953 1.6900001
0.13841905 0.23820953 1.6900001
0.14297906 0.24046478 1.7060001
0.14768572 0.24286096 1.723
0.1572762 0.25300953 1.7950001
0.16150096 0.25427809 1.8040001
0.16676572 0.25709715 1.8240001
0.17201334 0.25977525 1.8430001
0.1764762 0.26118478 1.853
0.18000571 0.26118478 1.853
0.18650667 0.26541334 1.8830001
0.19332382 0.26992381 1.9150001
0.19800001 0.27133334 1.9250001
0.20512381 0.27598476 1.9580001
0.21002668 0.27753526 1.9690001
0.21377715 0.27753526 1.9690001
0.22934859 0.29261714 2.0760002
0.23330286 0.29261714 2.0760002
0.23725715 0.29261714 2.0760002
0.24260572 0.29430857 2.0880001
-0.3401905 0.25514287 1.7860001
-0.33678859 0.25514287 1.7860001
-0.33170667 0.25385717 1.7770001
-0.3283219 0.25385717 1.7770001
-0.32493716 0.25385717 1.7770001
-0.3215524 0.25385717 1.7770001
-0.31655622 0.25257143 1.7680001
-0.31318858 0.25257143 1.7680001
-0.31139812 0.25385717 1.7770001
-0.30801335 0.25385717 1.7770001
-0.30462858 0.25385717 1.7770001
-0.30124381 0.25385717 1.7770001
-0.29785907 0.25385717 1.7770001
-0.2944743 0.25385717 1.7770001
-0.29108953 0.25385717 1.7770001
-0.28770477 0.25385717 1.7770001
-0.28432 0.25385717 1.7770001
-0.28093526 0.25385717 1.7770001
-0.27755049 0.25385717 1.7770001
-0.27277714 0.25257143 1.7680001
-0.26940954 0.25257143 1.7680001
-0.2660419 0.25257143 1.7680001
-0.2626743 0.25257143 1.7680001
-0.25930667 0.25257143 1.7680001
-0.25593907 0.25257143 1.7680001
-0.25128573 0.25128573 1.7590001
-0.24793525 0.25128573 1.7590001
-0.24458477 0.25128573 1.7590001
-0.24123429 0.25128573 1.7590001
-0.23788382 0.25128573 1.7590001
-0.23453334 0.25128573 1.7590001
-0.23118286 0.25128573 1.7590001
-0.22783239 0.25128573 1.7590001
-0.22448191 0.25128573 1.7590001
-0.22113144 0.25128573 1.7590001
-0.21778096 0.25128573 1.7590001
-0.21443048 0.25128573 1.7590001
-0.21108001 0.25128573 1.7590001
-0.20772953 0.25128573 1.7590001
-0.20437905 0.25128573 1.7590001
-0.2 0.25 1.7500001
-0.19666667 0.25 1.7500001
-0.19333334 0.25 1.7500001
-0.19000001 0.25 1.7500001
-0.18666667 0.25 1.7500001
-0.18333334 0.25 1.7500001
-0.18000001 0.25 1.7500001
-0.17666668 0.25 1.7500001
-0.17333335 0.25 1.7500001
-0.17 0.25 1.7500001
-0.16666667 0.25 1.7500001
-0.16333334 0.25 1.7500001
-0.16000001 0.25 1.7500001
-0.15666667 0.25 1.7500001
-0.15333334 0.25 1.7500001
-0.15000001 0.25 1.7500001
-0.14666668 0.25 1.7500001
-0.14333335 0.25 1.7500001
-0.14 0.25 1.7500001
-0.13596381 0.2487143 1.7410001
-0.13264762 0.2487143 1.7410001
-0.12933144 0.2487143 1.7410001
-0.12601525 0.2487143 1.7410001
-0.12269905 0.2487143 1.7410001
-0.11938286 0.2487143 1.7410001
-0.11546667 0.24742858 1.7320001
-0.11275048 0.2487143 1.7410001
-0.10943429 0.2487143 1.7410001
-0.10556953 0.24742858 1.7320001
-0.10227048 0.24742858 1.7320001
-0.098971434 0.24742858 1.7320001
-0.095672384 0.24742858 1.7320001
-0.092373334 0.24742858 1.7320001
-0.089074291 0.24742858 1.7320001
-0.085775241 0.24742858 1.7320001
-0.082047619 0.24614286 1.723
-0.07876572 0.24614286 1.723
-0.075483814 0.24614286 1.723
-0.072201908 0.24614286 1.723
-0.068920001 0.24614286 1.723
-0.065638095 0.24614286 1.723
-0.062356193 0.24614286 1.723
-0.059074286 0.24614286 1.723
-0.055792384 0.24614286 1.723
-0.052510478 0.24614286 1.723
-0.049000002 0.245 1.715
-0.045733336 0.245 1.715
-0.042466667 0.245 1.715
-0.0392 0.245 1.715
-0.035933334 0.245 1.715
-0.032666668 0.245 1.715
-0.0294 0.245 1.715
-0.026255239 0.24614286 1.723
-0.022973334 0.24614286 1.723
-0.01969143 0.24614286 1.723
-0.016333334 0.245 1.715
-0.013066667 0.245 1.715
-0.0098000001 0.245 1.715
-0.0065333336 0.245 1.715
-0.0032495239 0.24371429 1.7060001
0 0.24371429 1.7060001
0.0032495239 0.24371429 1.7060001
0.0064990479 0.24371429 1.7060001
0.0097485716 0.24371429 1.7060001
0.012998096 0.24371429 1.7060001
0.016247619 0.24371429 1.7060001
0.019497143 0.24371429 1.7060001
0.022746667 0.24371429 1.7060001
0.025996191 0.24371429 1.7060001
0.029108573 0.24257144 1.6980001
0.032495238 0.24371429 1.7060001
0.035577144 0.24257144 1.6980001
0.03881143 0.24257144 1.6980001
0.042045716 0.24257144 1.6980001
0.045280002 0.24257144 1.6980001
0.048514288 0.24257144 1.6980001
0.051748574 0.24257144 1.6980001
0.05498286 0.24257144 1.6980001
0.058217146 0.24257144 1.6980001
0.061451431 0.24257144 1.6980001
0.064685717 0.24257144 1.6980001
0.067919999 0.24257144 1.6980001
0.071154289 0.24257144 1.6980001
0.074388571 0.24257144 1.6980001
0.077622861 0.24257144 1.6980001
0.080476195 0.24142858 1.6900001
0.08369524 0.24142858 1.6900001
0.086914286 0.24142858 1.6900001
0.090133339 0.24142858 1.6900001
0.093352385 0.24142858 1.6900001
0.096057147 0.24014287 1.6810001
0.099259049 0.24014287 1.6810001
0.10300953 0.24142858 1.6900001
0.10622858 0.24142858 1.6900001
0.10944762 0.24142858 1.6900001
0.11206667 0.24014287 1.6810001
0.11526857 0.24014287 1.6810001
0.11847048 0.24014287 1.6810001
0.12167238 0.24014287 1.6810001
0.12487429 0.24014287 1.6810001
0.1280762 0.24014287 1.6810001
0.1312781 0.24014287 1.6810001
0.13520001 0.24142858 1.6900001
0.1390743 0.24257144 1.6980001
0.14230858 0.24257144 1.6980001
0.14768572 0.24614286 1.723
0.1572762 0.25642857 1.7950001
0.16069524 0.25642857 1.7950001
0.16585143 0.25914288 1.8140001
0.17201334 0.26328573 1.8430001
0.1764762 0.2647143 1.853
0.18000571 0.2647143 1.853
0.1875962 0.27057144 1.8940001
0.19221334 0.27200001 1.904
0.19584 0.27200001 1.904
0.20627619 0.28128573 1.9690001
0.21120001 0.28285715 1.9800001
0.21497144 0.28285715 1.9800001
0.22934859 0.29657143 2.0760002
0.23330286 0.29657143 2.0760002
0.23725715 0.29657143 2.0760002
0.24121144 0.29657143 2.0760002
-0.34190479 0.25984764 1.7950001
-0.33678859 0.25854477 1.7860001
-0.33338669 0.25854477 1.7860001
-0.3283219 0.2572419 1.7770001
-0.32493716 0.2572419 1.7770001
-0.3215524 0.2572419 1.7770001
-0.31655622 0.25593907 1.7680001
-0.31478286 0.2572419 1.7770001
-0.31139812 0.2572419 1.7770001
-0.30801335 0.2572419 1.7770001
-0.30462858 0.2572419 1.7770001
-0.30124381 0.2572419 1.7770001
-0.29785907 0.2572419 1.7770001
-0.2944743 0.2572419 1.7770001
-0.29108953 0.2572419 1.7770001
-0.28770477 0.2572419 1.7770001
-0.28288001 0.25593907 1.7680001
-0.28093526 0.2572419 1.7770001
-0.27755049 0.2572419 1.7770001
-0.27277714 0.25593907 1.7680001
-0.26940954 0.25593907 1.7680001
-0.2660419 0.25593907 1.7680001
-0.26133716 0.2546362 1.7590001
-0.25798666 0.2546362 1.7590001
-0.2546362 0.2546362 1.7590001
-0.25128573 0.2546362 1.7590001
-0.24793525 0.2546362 1.7590001
-0.24458477 0.2546362 1.7590001
-0.24123429 0.2546362 1.7590001
-0.23788382 0.2546362 1.7590001
-0.23453334 0.2546362 1.7590001
-0.23118286 0.2546362 1.7590001
-0.22783239 0.2546362 1.7590001
-0.22448191 0.2546362 1.7590001
-0.22000001 0.25333333 1.7500001
-0.21778096 0.2546362 1.7590001
-0.21443048 0.2546362 1.7590001
-0.21108001 0.2546362 1.7590001
-0.20772953 0.2546362 1.7590001
-0.20437905 0.2546362 1.7590001
-0.2 0.25333333 1.7500001
-0.19666667 0.25333333 1.7500001
-0.19333334 0.25333333 1.7500001
-0.19000001 0.25333333 1.7500001
-0.18666667 0.25333333 1.7500001
-0.18333334 0.25333333 1.7500001
-0.18000001 0.25333333 1.7500001
-0.17666668 0.25333333 1.7500001
-0.17333335 0.25333333 1.7500001
-0.17 0.25333333 1.7500001
-0.16666667 0.25333333 1.7500001
-0.16333334 0.25333333 1.7500001
-0.16000001 0.25333333 1.7500001
-0.15666667 0.25333333 1.7500001
-0.15333334 0.25333333 1.7500001
-0.15000001 0.25333333 1.7500001
-0.14666668 0.25333333 1.7500001
-0.14333335 0.25333333 1.7500001
-0.13928001 0.25203049 1.7410001
-0.13596381 0.25203049 1.7410001
-0.13264762 0.25203049 1.7410001
-0.12933144 0.25203049 1.7410001
-0.12601525 0.25203049 1.7410001
-0.12206477 0.25072762 1.7320001
-0.11938286 0.25203049 1.7410001
-0.11606667 0.25203049 1.7410001
-0.11275048 0.25203049 1.7410001
-0.10943429 0.25203049 1.7410001
-0.1061181 0.25203049 1.7410001
-0.10227048 0.25072762 1.7320001
-0.098971434 0.25072762 1.7320001
-0.095672384 0.25072762 1.7320001
-0.092373334 0.25072762 1.7320001
-0.089074291 0.25072762 1.7320001
-0.085775241 0.25072762 1.7320001
-0.082047619 0.24942477 1.723
-0.07876572 0.24942477 1.723
-0.075483814 0.24942477 1.723
-0.072201908 0.24942477 1.723
-0.068920001 0.24942477 1.723
-0.065638095 0.24942477 1.723
-0.062356193 0.24942477 1.723
-0.059074286 0.24942477 1.723
-0.055792384 0.24942477 1.723
-0.052510478 0.24942477 1.723
-0.049000002 0.24826668 1.715
-0.045946669 0.24942477 1.723
-0.042664763 0.24942477 1.723
-0.0392 0.24826668 1.715
-0.035933334 0.24826668 1.715
-0.032666668 0.24826668 1.715
-0.0294 0.24826668 1.715
-0.026255239 0.24942477 1.723
-0.022973334 0.24942477 1.723
-0.01969143 0.24942477 1.723
-0.016409524 0.24942477 1.723
-0.013066667 0.24826668 1.715
-0.0098000001 0.24826668 1.715
-0.0065333336 0.24826668 1.715
-0.0032495239 0.24696381 1.7060001
0 0.24696381 1.7060001
0.0032495239 0.24696381 1.7060001
0.0064990479 0.24696381 1.7060001
0.0097485716 0.24696381 1.7060001
0.012998096 0.24696381 1.7060001
0.016247619 0.24696381 1.7060001
0.019497143 0.24696381 1.7060001
0.022746667 0.24696381 1.7060001
0.025874287 0.24580573 1.6980001
0.029108573 0.24580573 1.6980001
0.032342859 0.24580573 1.6980001
0.035577144 0.24580573 1.6980001
0.03881143 0.24580573 1.6980001
0.042045716 0.24580573 1.6980001
0.045280002 0.24580573 1.6980001
0.048514288 0.24580573 1.6980001
0.051748574 0.24580573 1.6980001
0.05498286 0.24580573 1.6980001
0.058217146 0.24580573 1.6980001
0.061451431 0.24580573 1.6980001
0.064685717 0.24580573 1.6980001
0.067919999 0.24580573 1.6980001
0.071154289 0.24580573 1.6980001
0.074388571 0.24580573 1.6980001
0.077622861 0.24580573 1.6980001
0.080476195 0.24464762 1.6900001
0.08369524 0.24464762 1.6900001
0.086914286 0.24464762 1.6900001
0.090133339 0.24464762 1.6900001
0.093352385 0.24464762 1.6900001
0.096057147 0.24334477 1.6810001
0.099259049 0.24334477 1.6810001
0.10300953 0.24464762 1.6900001
0.10566286 0.24334477 1.6810001
0.10886477 0.24334477 1.6810001
0.11206667 0.24334477 1.6810001
0.11526857 0.24334477 1.6810001
0.11847048 0.24334477 1.6810001
0.12167238 0.24334477 1.6810001
0.12487429 0.24334477 1.6810001
0.1280762 0.24334477 1.6810001
0.13198096 0.24464762 1.6900001
0.13520001 0.24464762 1.6900001
0.1390743 0.24580573 1.6980001
0.14297906 0.24696381 1.7060001
0.14845715 0.25072762 1.7320001
0.15648763 0.25854477 1.7860001
0.16150096 0.26115048 1.8040001
0.16758858 0.26534858 1.8330001
0.17201334 0.2667962 1.8430001
0.1764762 0.26824382 1.853
0.18000571 0.26824382 1.853
0.18551619 0.27113906 1.8730001
0.19009334 0.27258667 1.8830001
0.19481143 0.27417907 1.8940001
0.20742857 0.28662857 1.9800001
0.21120001 0.28662857 1.9800001
0.21497144 0.28662857 1.9800001
0.22934859 0.30052572 2.0760002
0.23330286 0.30052572 2.0760002
0.23725715 0.30052572 2.0760002
0.24260572 0.30226287 2.0880001
0.24658287 0.30226287 2.0880001
-0.34359241 0.26194668 1.7860001
-0.34190479 0.26326668 1.7950001
-0.33678859 0.26194668 1.7860001
-0.33338669 0.26194668 1.7860001
-0.32998478 0.26194668 1.7860001
-0.32493716 0.26062667 1.7770001
-0.3215524 0.26062667 1.7770001
-0.31816763 0.26062667 1.7770001
-0.31478286 0.26062667 1.7770001
-0.31139812 0.26062667 1.7770001
-0.30957335 0.26194668 1.7860001
-0.30617145 0.26194668 1.7860001
-0.30276954 0.26194668 1.7860001
-0.29936764 0.26194668 1.7860001
-0.29596573 0.26194668 1.7860001
-0.29108953 0.26062667 1.7770001
-0.28770477 0.26062667 1.7770001
-0.28288001 0.25930667 1.7680001
-0.28093526 0.26062667 1.7770001
-0.27755049 0.26062667 1.7770001
-0.27277714 0.25930667 1.7680001
-0.26940954 0.25930667 1.7680001
-0.26468763 0.25798666 1.7590001
-0.26133716 0.25798666 1.7590001
-0.25798666 0.25798666 1.7590001
-0.2546362 0.25798666 1.7590001
-0.25128573 0.25798666 1.7590001
-0.24793525 0.25798666 1.7590001
-0.24458477 0.25798666 1.7590001
-0.24123429 0.25798666 1.7590001
-0.23788382 0.25798666 1.7590001
-0.23453334 0.25798666 1.7590001
-0.23118286 0.25798666 1.7590001
-0.22783239 0.25798666 1.7590001
-0.22448191 0.25798666 1.7590001
-0.22113144 0.25798666 1.7590001
-0.21778096 0.25798666 1.7590001
-0.21443048 0.25798666 1.7590001
-0.21108001 0.25798666 1.7590001
-0.20772953 0.25798666 1.7590001
-0.20437905 0.25798666 1.7590001
-0.2 0.25666669 1.7500001
-0.19666667 0.25666669 1.7500001
-0.19333334 0.25666669 1.7500001
-0.19000001 0.25666669 1.7500001
-0.18666667 0.25666669 1.7500001
-0.18333334 0.25666669 1.7500001
-0.18000001 0.25666669 1.7500001
-0.17666668 0.25666669 1.7500001
-0.17333335 0.25666669 1.7500001
-0.17 0.25666669 1.7500001
-0.16666667 0.25666669 1.7500001
-0.16333334 0.25666669 1.7500001
-0.16000001 0.25666669 1.7500001
-0.15666667 0.25666669 1.7500001
-0.15333334 0.25666669 1.7500001
-0.15000001 0.25666669 1.7500001
-0.14666668 0.25666669 1.7500001
-0.14333335 0.25666669 1.7500001
-0.14 0.25666669 1.7500001
-0.13596381 0.25534669 1.7410001
-0.13264762 0.25534669 1.7410001
-0.12933144 0.25534669 1.7410001
-0.12601525 0.25534669 1.7410001
-0.12206477 0.25402668 1.7320001
-0.11938286 0.25534669 1.7410001
-0.11546667 0.25402668 1.7320001
-0.11275048 0.25534669 1.7410001
-0.10886858 0.25402668 1.7320001
-0.10556953 0.25402668 1.7320001
-0.10227048 0.25402668 1.7320001
-0.098971434 0.25402668 1.7320001
-0.095672384 0.25402668 1.7320001
-0.092373334 0.25402668 1.7320001
-0.088611431 0.25270668 1.723
-0.085329525 0.25270668 1.723
-0.082047619 0.25270668 1.723
-0.07876572 0.25270668 1.723
-0.075483814 0.25270668 1.723
-0.072201908 0.25270668 1.723
-0.068920001 0.25270668 1.723
-0.065638095 0.25270668 1.723
-0.062356193 0.25270668 1.723
-0.059074286 0.25270668 1.723
-0.055792384 0.25270668 1.723
-0.052510478 0.25270668 1.723
-0.049000002 0.25153333 1.715
-0.045946669 0.25270668 1.723
-0.042664763 0.25270668 1.723
-0.03938286 0.25270668 1.723
-0.035933334 0.25153333 1.715
-0.032666668 0.25153333 1.715
-0.0294 0.25153333 1.715
-0.026255239 0.25270668 1.723
-0.022973334 0.25270668 1.723
-0.01969143 0.25270668 1.723
-0.016333334 0.25153333 1.715
-0.013066667 0.25153333 1.715
-0.0098000001 0.25153333 1.715
-0.0064990479 0.25021335 1.7060001
-0.0032495239 0.25021335 1.7060001
0 0.25021335 1.7060001
0.0032495239 0.25021335 1.7060001
0.0064990479 0.25021335 1.7060001
0.0097485716 0.25021335 1.7060001
0.012998096 0.25021335 1.7060001
0.016247619 0.25021335 1.7060001
0.019497143 0.25021335 1.7060001
0.022640001 0.24904001 1.6980001
0.025874287 0.24904001 1.6980001
0.029108573 0.24904001 1.6980001
0.032342859 0.24904001 1.6980001
0.035577144 0.24904001 1.6980001
0.03881143 0.24904001 1.6980001
0.042045716 0.24904001 1.6980001
0.045280002 0.24904001 1.6980001
0.048514288 0.24904001 1.6980001
0.051748574 0.24904001 1.6980001
0.05498286 0.24904001 1.6980001
0.058217146 0.24904001 1.6980001
0.061451431 0.24904001 1.6980001
0.064685717 0.24904001 1.6980001
0.067919999 0.24904001 1.6980001
0.071154289 0.24904001 1.6980001
0.074388571 0.24904001 1.6980001
0.077622861 0.24904001 1.6980001
0.080476195 0.24786668 1.6900001
0.08369524 0.24786668 1.6900001
0.086914286 0.24786668 1.6900001
0.090133339 0.24786668 1.6900001
0.093352385 0.24786668 1.6900001
0.096571431 0.24786668 1.6900001
0.099259049 0.24654667 1.6810001
0.10300953 0.24786668 1.6900001
0.10622858 0.24786668 1.6900001
0.10944762 0.24786668 1.6900001
0.11266667 0.24786668 1.6900001
0.11588572 0.24786668 1.6900001
0.11910477 0.24786668 1.6900001
0.12232381 0.24786668 1.6900001
0.12487429 0.24654667 1.6810001
0.1280762 0.24654667 1.6810001
0.13198096 0.24786668 1.6900001
0.13520001 0.24786668 1.6900001
0.1390743 0.24904001 1.6980001
0.14230858 0.24904001 1.6980001
0.147 0.25153333 1.715
0.15806477 0.26458669 1.8040001
0.16239619 0.26605335 1.8140001
0.16758858 0.26884001 1.8330001
0.17201334 0.27030668 1.8430001
0.1764762 0.27177334 1.853
0.18000571 0.27177334 1.853
0.18551619 0.27470669 1.8730001
0.19009334 0.27617335 1.8830001
0.19368 0.27617335 1.8830001
0.20983811 0.29377335 2.003
0.21493334 0.29553336 2.0150001
0.22268 0.30081335 2.0510001
0.2279124 0.30257335 2.0630002
0.23184191 0.30257335 2.0630002
0.23862858 0.30624002 2.0880001
0.2441162 0.30814669 2.1010001
0.2481181 0.30814669 2.1010001
-0.34359241 0.26534858 1.7860001
-0.34190479 0.26668572 1.7950001
-0.33678859 0.26534858 1.7860001
-0.33338669 0.26534858 1.7860001
-0.32998478 0.26534858 1.7860001
-0.32658288 0.26534858 1.7860001
-0.3215524 0.26401144 1.7770001
-0.31816763 0.26401144 1.7770001
-0.31478286 0.26401144 1.7770001
-0.31297526 0.26534858 1.7860001
-0.30957335 0.26534858 1.7860001
-0.30617145 0.26534858 1.7860001
-0.30276954 0.26534858 1.7860001
-0.29936764 0.26534858 1.7860001
-0.29596573 0.26534858 1.7860001
-0.29256383 0.26534858 1.7860001
-0.28770477 0.26401144 1.7770001
-0.28432 0.26401144 1.7770001
-0.28093526 0.26401144 1.7770001
-0.27755049 0.26401144 1.7770001
-0.27277714 0.2626743 1.7680001
-0.26940954 0.2626743 1.7680001
-0.26468763 0.26133716 1.7590001
-0.26133716 0.26133716 1.7590001
-0.25930667 0.2626743 1.7680001
-0.2546362 0.26133716 1.7590001
-0.25128573 0.26133716 1.7590001
-0.24793525 0.26133716 1.7590001
-0.24458477 0.26133716 1.7590001
-0.24123429 0.26133716 1.7590001
-0.23788382 0.26133716 1.7590001
-0.23453334 0.26133716 1.7590001
-0.23118286 0.26133716 1.7590001
-0.22783239 0.26133716 1.7590001
-0.22448191 0.26133716 1.7590001
-0.22113144 0.26133716 1.7590001
-0.21778096 0.26133716 1.7590001
-0.21443048 0.26133716 1.7590001
-0.21108001 0.26133716 1.7590001
-0.20772953 0.26133716 1.7590001
-0.20437905 0.26133716 1.7590001
-0.20102859 0.26133716 1.7590001
-0.1976781 0.26133716 1.7590001
-0.19333334 0.26000002 1.7500001
-0.19000001 0.26000002 1.7500001
-0.18666667 0.26000002 1.7500001
-0.18333334 0.26000002 1.7500001
-0.18000001 0.26000002 1.7500001
-0.17666668 0.26000002 1.7500001
-0.17333335 0.26000002 1.7500001
-0.17 0.26000002 1.7500001
-0.16666667 0.26000002 1.7500001
-0.16333334 0.26000002 1.7500001
-0.16000001 0.26000002 1.7500001
-0.15666667 0.26000002 1.7500001
-0.15333334 0.26000002 1.7500001
-0.15000001 0.26000002 1.7500001
-0.14666668 0.26000002 1.7500001
-0.14333335 0.26000002 1.7500001
-0.14 0.26000002 1.7500001
-0.13596381 0.25866288 1.7410001
-0.13264762 0.25866288 1.7410001
-0.12933144 0.25866288 1.7410001
-0.12601525 0.25866288 1.7410001
-0.12206477 0.25732571 1.7320001
-0.11876572 0.25732571 1.7320001
-0.11546667 0.25732571 1.7320001
-0.11275048 0.25866288 1.7410001
-0.10886858 0.25732571 1.7320001
-0.10502096 0.25598857 1.723
-0.10227048 0.25732571 1.7320001
-0.098971434 0.25732571 1.7320001
-0.095672384 0.25732571 1.7320001
-0.092373334 0.25732571 1.7320001
-0.088611431 0.25598857 1.723
-0.085329525 0.25598857 1.723
-0.082047619 0.25598857 1.723
-0.07876572 0.25598857 1.723
-0.075483814 0.25598857 1.723
-0.072201908 0.25598857 1.723
-0.068920001 0.25598857 1.723
-0.065638095 0.25598857 1.723
-0.062356193 0.25598857 1.723
-0.059074286 0.25598857 1.723
-0.055792384 0.25598857 1.723
-0.052510478 0.25598857 1.723
-0.049000002 0.25480002 1.715
-0.045733336 0.25480002 1.715
-0.042466667 0.25480002 1.715
-0.0392 0.25480002 1.715
-0.035933334 0.25480002 1.715
-0.032666668 0.25480002 1.715
-0.0294 0.25480002 1.715
-0.026133334 0.25480002 1.715
-0.022973334 0.25598857 1.723
-0.01969143 0.25598857 1.723
-0.016333334 0.25480002 1.715
-0.013066667 0.25480002 1.715
-0.0097485716 0.25346288 1.7060001
-0.0064990479 0.25346288 1.7060001
-0.0032666668 0.25480002 1.715
0 0.25346288 1.7060001
0.0032666668 0.25480002 1.715
0.0064990479 0.25346288 1.7060001
0.0097485716 0.25346288 1.7060001
0.012998096 0.25346288 1.7060001
0.016247619 0.25346288 1.7060001
0.019497143 0.25346288 1.7060001
0.022746667 0.25346288 1.7060001
0.025874287 0.2522743 1.6980001
0.029108573 0.2522743 1.6980001
0.032342859 0.2522743 1.6980001
0.035577144 0.2522743 1.6980001
0.03881143 0.2522743 1.6980001
0.042045716 0.2522743 1.6980001
0.045280002 0.2522743 1.6980001
0.048514288 0.2522743 1.6980001
0.051748574 0.2522743 1.6980001
0.05498286 0.2522743 1.6980001
0.058217146 0.2522743 1.6980001
0.061451431 0.2522743 1.6980001
0.064685717 0.2522743 1.6980001
0.067919999 0.2522743 1.6980001
0.071154289 0.2522743 1.6980001
0.074388571 0.2522743 1.6980001
0.077622861 0.2522743 1.6980001
0.080857143 0.2522743 1.6980001
0.08369524 0.25108573 1.6900001
0.086914286 0.25108573 1.6900001
0.090133339 0.25108573 1.6900001
0.093352385 0.25108573 1.6900001
0.096571431 0.25108573 1.6900001
0.099790476 0.25108573 1.6900001
0.10300953 0.25108573 1.6900001
0.10622858 0.25108573 1.6900001
0.10944762 0.25108573 1.6900001
0.11266667 0.25108573 1.6900001
0.11588572 0.25108573 1.6900001
0.11910477 0.25108573 1.6900001
0.12232381 0.25108573 1.6900001
0.12487429 0.24974859 1.6810001
0.1280762 0.24974859 1.6810001
0.13198096 0.25108573 1.6900001
0.13520001 0.25108573 1.6900001
0.13841905 0.25108573 1.6900001
0.14230858 0.2522743 1.6980001
0.14622858 0.25346288 1.7060001
0.15806477 0.26802287 1.8040001
0.16150096 0.26802287 1.8040001
0.16676572 0.27099431 1.8240001
0.17201334 0.27381715 1.8430001
0.17552382 0.27381715 1.8430001
0.18000571 0.27530286 1.853
0.18551619 0.2782743 1.8730001
0.19009334 0.27976 1.8830001
0.19481143 0.2813943 1.8940001
0.19946668 0.28288001 1.904
0.21621335 0.30115429 2.0270002
0.22268 0.30472001 2.0510001
0.2279124 0.30650288 2.0630002
0.23330286 0.30843431 2.0760002
0.23725715 0.30843431 2.0760002
0.24121144 0.30843431 2.0760002
0.2481181 0.31214857 2.1010001
-0.34532383 0.27010477 1.7950001
-0.34190479 0.27010477 1.7950001
-0.33678859 0.26875049 1.7860001
-0.33338669 0.26875049 1.7860001
-0.32998478 0.26875049 1.7860001
-0.32658288 0.26875049 1.7860001
-0.32318097 0.26875049 1.7860001
-0.31977907 0.26875049 1.7860001
-0.31637716 0.26875049 1.7860001
-0.31297526 0.26875049 1.7860001
-0.30957335 0.26875049 1.7860001
-0.30617145 0.26875049 1.7860001
-0.30276954 0.26875049 1.7860001
-0.29936764 0.26875049 1.7860001
-0.29596573 0.26875049 1.7860001
-0.29108953 0.26739621 1.7770001
-0.28770477 0.26739621 1.7770001
-0.28288001 0.2660419 1.7680001
-0.27951241 0.2660419 1.7680001
-0.27614477 0.2660419 1.7680001
-0.27277714 0.2660419 1.7680001
-0.26940954 0.2660419 1.7680001
-0.26468763 0.26468763 1.7590001
-0.26133716 0.26468763 1.7590001
-0.25930667 0.2660419 1.7680001
-0.25593907 0.2660419 1.7680001
-0.25257143 0.2660419 1.7680001
-0.24793525 0.26468763 1.7590001
-0.24458477 0.26468763 1.7590001
-0.24123429 0.26468763 1.7590001
-0.23788382 0.26468763 1.7590001
-0.23453334 0.26468763 1.7590001
-0.23118286 0.26468763 1.7590001
-0.22783239 0.26468763 1.7590001
-0.22448191 0.26468763 1.7590001
-0.22113144 0.26468763 1.7590001
-0.21778096 0.26468763 1.7590001
-0.21443048 0.26468763 1.7590001
-0.21108001 0.26468763 1.7590001
-0.20772953 0.26468763 1.7590001
-0.20437905 0.26468763 1.7590001
-0.20102859 0.26468763 1.7590001
-0.1976781 0.26468763 1.7590001
-0.19432762 0.26468763 1.7590001
-0.19000001 0.26333335 1.7500001
-0.18666667 0.26333335 1.7500001
-0.18333334 0.26333335 1.7500001
-0.18000001 0.26333335 1.7500001
-0.17666668 0.26333335 1.7500001
-0.17333335 0.26333335 1.7500001
-0.17 0.26333335 1.7500001
-0.16666667 0.26333335 1.7500001
-0.16333334 0.26333335 1.7500001
-0.16000001 0.26333335 1.7500001
-0.15666667 0.26333335 1.7500001
-0.15333334 0.26333335 1.7500001
-0.15000001 0.26333335 1.7500001
-0.14666668 0.26333335 1.7500001
-0.14333335 0.26333335 1.7500001
-0.14 0.26333335 1.7500001
-0.13596381 0.26197904 1.7410001
-0.13264762 0.26197904 1.7410001
-0.12933144 0.26197904 1.7410001
-0.12601525 0.26197904 1.7410001
-0.12206477 0.26062477 1.7320001
-0.11876572 0.26062477 1.7320001
-0.11546667 0.26062477 1.7320001
-0.11275048 0.26197904 1.7410001
-0.10943429 0.26197904 1.7410001
-0.1061181 0.26197904 1.7410001
-0.10280191 0.26197904 1.7410001
-0.098971434 0.26062477 1.7320001
-0.095672384 0.26062477 1.7320001
-0.092373334 0.26062477 1.7320001
-0.088611431 0.25927049 1.723
-0.085329525 0.25927049 1.723
-0.082047619 0.25927049 1.723
-0.079177149 0.26062477 1.7320001
-0.075483814 0.25927049 1.723
-0.072201908 0.25927049 1.723
-0.068920001 0.25927049 1.723
-0.065638095 0.25927049 1.723
-0.062356193 0.25927049 1.723
-0.059074286 0.25927049 1.723
-0.055792384 0.25927049 1.723
-0.052510478 0.25927049 1.723
-0.049228575 0.25927049 1.723
-0.045946669 0.25927049 1.723
-0.042664763 0.25927049 1.723
-0.03938286 0.25927049 1.723
-0.035933334 0.25806668 1.715
-0.032666668 0.25806668 1.715
-0.0294 0.25806668 1.715
-0.026255239 0.25927049 1.723
-0.022973334 0.25927049 1.723
-0.01969143 0.25927049 1.723
-0.016333334 0.25806668 1.715
-0.013127619 0.25927049 1.723
-0.0097485716 0.25671238 1.7060001
-0.0064990479 0.25671238 1.7060001
-0.0032666668 0.25806668 1.715
0 0.25806668 1.715
0.0032666668 0.25806668 1.715
0.0065333336 0.25806668 1.715
0.0098000001 0.25806668 1.715
0.012998096 0.25671238 1.7060001
0.016247619 0.25671238 1.7060001
0.019497143 0.25671238 1.7060001
0.022746667 0.25671238 1.7060001
0.025874287 0.25550857 1.6980001
0.029108573 0.25550857 1.6980001
0.032342859 0.25550857 1.6980001
0.035577144 0.25550857 1.6980001
0.03881143 0.25550857 1.6980001
0.042045716 0.25550857 1.6980001
0.045280002 0.25550857 1.6980001
0.048514288 0.25550857 1.6980001
0.051748574 0.25550857 1.6980001
0.05498286 0.25550857 1.6980001
0.058217146 0.25550857 1.6980001
0.061451431 0.25550857 1.6980001
0.064685717 0.25550857 1.6980001
0.067919999 0.25550857 1.6980001
0.071154289 0.25550857 1.6980001
0.074388571 0.25550857 1.6980001
0.077622861 0.25550857 1.6980001
0.080857143 0.25550857 1.6980001
0.08369524 0.25430477 1.6900001
0.086914286 0.25430477 1.6900001
0.090133339 0.25430477 1.6900001
0.093352385 0.25430477 1.6900001
0.096571431 0.25430477 1.6900001
0.099790476 0.25430477 1.6900001
0.10300953 0.25430477 1.6900001
0.10622858 0.25430477 1.6900001
0.10944762 0.25430477 1.6900001
0.11266667 0.25430477 1.6900001
0.11588572 0.25430477 1.6900001
0.11910477 0.25430477 1.6900001
0.12232381 0.25430477 1.6900001
0.12487429 0.25295049 1.6810001
0.1280762 0.25295049 1.6810001
0.13198096 0.25430477 1.6900001
0.13520001 0.25430477 1.6900001
0.13841905 0.25430477 1.6900001
0.1416381 0.25430477 1.6900001
0.14554286 0.25550857 1.6980001
0.15806477 0.27145904 1.8040001
0.16150096 0.27145904 1.8040001
0.16676572 0.27446857 1.8240001
0.17201334 0.27732763 1.8430001
0.17552382 0.27732763 1.8430001
0.18097715 0.28033715 1.863
0.18650667 0.28334668 1.8830001
0.19120382 0.2850019 1.8940001
0.19584 0.28650668 1.904
0.20061906 0.2881619 1.9150001
0.21621335 0.30501524 2.0270002
0.22268 0.30862668 2.0510001
0.2279124 0.3104324 2.0630002
0.23330286 0.31238857 2.0760002
0.23725715 0.31238857 2.0760002
0.24121144 0.31238857 2.0760002
-0.34532383 0.27352381 1.7950001
-0.34190479 0.27352381 1.7950001
-0.33848572 0.27352381 1.7950001
-0.33338669 0.27215239 1.7860001
-0.32998478 0.27215239 1.7860001
-0.32658288 0.27215239 1.7860001
-0.32318097 0.27215239 1.7860001
-0.31977907 0.27215239 1.7860001
-0.31478286 0.27078095 1.7770001
-0.31297526 0.27215239 1.7860001
-0.30957335 0.27215239 1.7860001
-0.30617145 0.27215239 1.7860001
-0.30276954 0.27215239 1.7860001
-0.29936764 0.27215239 1.7860001
-0.29596573 0.27215239 1.7860001
-0.29256383 0.27215239 1.7860001
-0.28770477 0.27078095 1.7770001
-0.28288001 0.26940954 1.7680001
-0.27951241 0.26940954 1.7680001
-0.27614477 0.26940954 1.7680001
-0.27277714 0.26940954 1.7680001
-0.26940954 0.26940954 1.7680001
-0.2660419 0.26940954 1.7680001
-0.2626743 0.26940954 1.7680001
-0.25930667 0.26940954 1.7680001
-0.25593907 0.26940954 1.7680001
-0.25257143 0.26940954 1.7680001
-0.24793525 0.26803809 1.7590001
-0.24458477 0.26803809 1.7590001
-0.24246858 0.26940954 1.7680001
-0.23788382 0.26803809 1.7590001
-0.23453334 0.26803809 1.7590001
-0.23118286 0.26803809 1.7590001
-0.22783239 0.26803809 1.7590001
-0.22448191 0.26803809 1.7590001
-0.22113144 0.26803809 1.7590001
-0.21778096 0.26803809 1.7590001
-0.21443048 0.26803809 1.7590001
-0.21108001 0.26803809 1.7590001
-0.20772953 0.26803809 1.7590001
-0.20437905 0.26803809 1.7590001
-0.20102859 0.26803809 1.7590001
-0.1976781 0.26803809 1.7590001
-0.19432762 0.26803809 1.7590001
-0.19097716 0.26803809 1.7590001
-0.18666667 0.26666668 1.7500001
-0.18427619 0.26803809 1.7590001
-0.18092573 0.26803809 1.7590001
-0.17666668 0.26666668 1.7500001
-0.17333335 0.26666668 1.7500001
-0.17 0.26666668 1.7500001
-0.16666667 0.26666668 1.7500001
-0.16333334 0.26666668 1.7500001
-0.16000001 0.26666668 1.7500001
-0.15666667 0.26666668 1.7500001
-0.15333334 0.26666668 1.7500001
-0.15000001 0.26666668 1.7500001
-0.14666668 0.26666668 1.7500001
-0.14333335 0.26666668 1.7500001
-0.14 0.26666668 1.7500001
-0.13596381 0.26529524 1.7410001
-0.13264762 0.26529524 1.7410001
-0.12933144 0.26529524 1.7410001
-0.12601525 0.26529524 1.7410001
-0.12269905 0.26529524 1.7410001
-0.11938286 0.26529524 1.7410001
-0.11606667 0.26529524 1.7410001
-0.11275048 0.26529524 1.7410001
-0.10943429 0.26529524 1.7410001
-0.1061181 0.26529524 1.7410001
-0.10280191 0.26529524 1.7410001
-0.099485718 0.26529524 1.7410001
-0.095672384 0.26392382 1.7320001
-0.092373334 0.26392382 1.7320001
-0.089074291 0.26392382 1.7320001
-0.085775241 0.26392382 1.7320001
-0.082047619 0.26255238 1.723
-0.07876572 0.26255238 1.723
-0.075483814 0.26255238 1.723
-0.072201908 0.26255238 1.723
-0.068920001 0.26255238 1.723
-0.065638095 0.26255238 1.723
-0.062356193 0.26255238 1.723
-0.059074286 0.26255238 1.723
-0.055792384 0.26255238 1.723
-0.052510478 0.26255238 1.723
-0.049228575 0.26255238 1.723
-0.045733336 0.26133335 1.715
-0.042466667 0.26133335 1.715
-0.0392 0.26133335 1.715
-0.035933334 0.26133335 1.715
-0.032666668 0.26133335 1.715
-0.0294 0.26133335 1.715
-0.026255239 0.26255238 1.723
-0.022973334 0.26255238 1.723
-0.01969143 0.26255238 1.723
-0.016333334 0.26133335 1.715
-0.013066667 0.26133335 1.715
-0.0097485716 0.2599619 1.7060001
-0.0064990479 0.2599619 1.7060001
-0.0032666668 0.26133335 1.715
0 0.2599619 1.7060001
0.0032495239 0.2599619 1.7060001
0.0065333336 0.26133335 1.715
0.0098000001 0.26133335 1.715
0.013066667 0.26133335 1.715
0.016247619 0.2599619 1.7060001
0.019497143 0.2599619 1.7060001
0.022746667 0.2599619 1.7060001
0.025996191 0.2599619 1.7060001
0.029108573 0.25874287 1.6980001
0.032342859 0.25874287 1.6980001
0.035577144 0.25874287 1.6980001
0.03881143 0.25874287 1.6980001
0.042045716 0.25874287 1.6980001
0.045280002 0.25874287 1.6980001
0.048514288 0.25874287 1.6980001
0.051748574 0.25874287 1.6980001
0.05498286 0.25874287 1.6980001
0.058217146 0.25874287 1.6980001
0.061451431 0.25874287 1.6980001
0.064685717 0.25874287 1.6980001
0.067919999 0.25874287 1.6980001
0.071154289 0.25874287 1.6980001
0.074388571 0.25874287 1.6980001
0.077622861 0.25874287 1.6980001
0.080857143 0.25874287 1.6980001
0.084091432 0.25874287 1.6980001
0.087325715 0.25874287 1.6980001
0.090560004 0.25874287 1.6980001
0.093352385 0.2575238 1.6900001
0.096571431 0.2575238 1.6900001
0.099790476 0.2575238 1.6900001
0.10300953 0.2575238 1.6900001
0.10622858 0.2575238 1.6900001
0.10944762 0.2575238 1.6900001
0.11266667 0.2575238 1.6900001
0.11588572 0.2575238 1.6900001
0.11910477 0.2575238 1.6900001
0.12232381 0.2575238 1.6900001
0.12554286 0.2575238 1.6900001
0.1287619 0.2575238 1.6900001
0.13198096 0.2575238 1.6900001
0.13520001 0.2575238 1.6900001
0.13841905 0.2575238 1.6900001
0.1416381 0.2575238 1.6900001
0.14554286 0.25874287 1.6980001
0.1572762 0.27352381 1.7950001
0.16069524 0.27352381 1.7950001
0.16758858 0.27931431 1.8330001
0.17201334 0.2808381 1.8430001
0.1764762 0.28236192 1.853
0.18000571 0.28236192 1.853
0.18858667 0.29013336 1.904
0.19221334 0.29013336 1.904
0.19697143 0.29180953 1.9150001
0.20281905 0.29500952 1.9360001
0.21621335 0.30887622 2.0270002
0.22137715 0.31070477 2.039
0.2279124 0.31436193 2.0630002
0.23330286 0.31634286 2.0760002
0.23725715 0.31634286 2.0760002
0.2441162 0.3201524 2.1010001
0.2481181 0.3201524 2.1010001
-0.34532383 0.27694288 1.7950001
-0.34190479 0.27694288 1.7950001
-0.33848572 0.27694288 1.7950001
-0.33338669 0.2755543 1.7860001
-0.32998478 0.2755543 1.7860001
-0.32658288 0.2755543 1.7860001
-0.32318097 0.2755543 1.7860001
-0.31977907 0.2755543 1.7860001
-0.31637716 0.2755543 1.7860001
-0.31297526 0.2755543 1.7860001
-0.30957335 0.2755543 1.7860001
-0.30617145 0.2755543 1.7860001
-0.30276954 0.2755543 1.7860001
-0.29936764 0.2755543 1.7860001
-0.2944743 0.27416572 1.7770001
-0.29108953 0.27416572 1.7770001
-0.28624764 0.27277714 1.7680001
-0.28288001 0.27277714 1.7680001
-0.27951241 0.27277714 1.7680001
-0.27614477 0.27277714 1.7680001
-0.27277714 0.27277714 1.7680001
-0.26940954 0.27277714 1.7680001
-0.2660419 0.27277714 1.7680001
-0.2626743 0.27277714 1.7680001
-0.25930667 0.27277714 1.7680001
-0.25593907 0.27277714 1.7680001
-0.25257143 0.27277714 1.7680001
-0.24793525 0.27138859 1.7590001
-0.24458477 0.27138859 1.7590001
-0.24123429 0.27138859 1.7590001
-0.23788382 0.27138859 1.7590001
-0.23453334 0.27138859 1.7590001
-0.23118286 0.27138859 1.7590001
-0.22783239 0.27138859 1.7590001
-0.22448191 0.27138859 1.7590001
-0.22113144 0.27138859 1.7590001
-0.21778096 0.27138859 1.7590001
-0.21443048 0.27138859 1.7590001
-0.21108001 0.27138859 1.7590001
-0.20772953 0.27138859 1.7590001
-0.20437905 0.27138859 1.7590001
-0.20102859 0.27138859 1.7590001
-0.1976781 0.27138859 1.7590001
-0.19432762 0.27138859 1.7590001
-0.19097716 0.27138859 1.7590001
-0.18762667 0.27138859 1.7590001
-0.18427619 0.27138859 1.7590001
-0.18092573 0.27138859 1.7590001
-0.17666668 0.27000001 1.7500001
-0.17333335 0.27000001 1.7500001
-0.17 0.27000001 1.7500001
-0.16666667 0.27000001 1.7500001
-0.16333334 0.27000001 1.7500001
-0.16000001 0.27000001 1.7500001
-0.15666667 0.27000001 1.7500001
-0.15333334 0.27000001 1.7500001
-0.15000001 0.27000001 1.7500001
-0.14666668 0.27000001 1.7500001
-0.14333335 0.27000001 1.7500001
-0.14 0.27000001 1.7500001
-0.13596381 0.26861143 1.7410001
-0.13264762 0.26861143 1.7410001
-0.12933144 0.26861143 1.7410001
-0.12601525 0.26861143 1.7410001
-0.12269905 0.26861143 1.7410001
-0.11938286 0.26861143 1.7410001
-0.11606667 0.26861143 1.7410001
-0.11275048 0.26861143 1.7410001
-0.10943429 0.26861143 1.7410001
-0.1061181 0.26861143 1.7410001
-0.10227048 0.26722288 1.7320001
-0.098971434 0.26722288 1.7320001
-0.095672384 0.26722288 1.7320001
-0.092373334 0.26722288 1.7320001
-0.089074291 0.26722288 1.7320001
-0.085775241 0.26722288 1.7320001
-0.082476191 0.26722288 1.7320001
-0.07876572 0.2658343 1.723
-0.075483814 0.2658343 1.723
-0.072201908 0.2658343 1.723
-0.068920001 0.2658343 1.723
-0.065638095 0.2658343 1.723
-0.062356193 0.2658343 1.723
-0.059074286 0.2658343 1.723
-0.055792384 0.2658343 1.723
-0.052510478 0.2658343 1.723
-0.049228575 0.2658343 1.723
-0.045733336 0.26460001 1.715
-0.042466667 0.26460001 1.715
-0.0392 0.26460001 1.715
-0.035933334 0.26460001 1.715
-0.032666668 0.26460001 1.715
-0.0294 0.26460001 1.715
-0.026255239 0.2658343 1.723
-0.022973334 0.2658343 1.723
-0.01969143 0.2658343 1.723
-0.016409524 0.2658343 1.723
-0.013127619 0.2658343 1.723
-0.0098000001 0.26460001 1.715
-0.0065333336 0.26460001 1.715
-0.0032666668 0.26460001 1.715
0 0.26460001 1.715
0.0032666668 0.26460001 1.715
0.0065333336 0.26460001 1.715
0.0097485716 0.26321143 1.7060001
0.013066667 0.26460001 1.715
0.016247619 0.26321143 1.7060001
0.019497143 0.26321143 1.7060001
0.022746667 0.26321143 1.7060001
0.025996191 0.26321143 1.7060001
0.029108573 0.26197717 1.6980001
0.032342859 0.26197717 1.6980001
0.035577144 0.26197717 1.6980001
0.03881143 0.26197717 1.6980001
0.042045716 0.26197717 1.6980001
0.045280002 0.26197717 1.6980001
0.048514288 0.26197717 1.6980001
0.051748574 0.26197717 1.6980001
0.05498286 0.26197717 1.6980001
0.058491431 0.26321143 1.7060001
0.061451431 0.26197717 1.6980001
0.064685717 0.26197717 1.6980001
0.067919999 0.26197717 1.6980001
0.071154289 0.26197717 1.6980001
0.074388571 0.26197717 1.6980001
0.077622861 0.26197717 1.6980001
0.080857143 0.26197717 1.6980001
0.084091432 0.26197717 1.6980001
0.087325715 0.26197717 1.6980001
0.090560004 0.26197717 1.6980001
0.093352385 0.26074287 1.6900001
0.096571431 0.26074287 1.6900001
0.099790476 0.26074287 1.6900001
0.10300953 0.26074287 1.6900001
0.10622858 0.26074287 1.6900001
0.10944762 0.26074287 1.6900001
0.11266667 0.26074287 1.6900001
0.11588572 0.26074287 1.6900001
0.11910477 0.26074287 1.6900001
0.12232381 0.26074287 1.6900001
0.12554286 0.26074287 1.6900001
0.1287619 0.26074287 1.6900001
0.13198096 0.26074287 1.6900001
0.13520001 0.26074287 1.6900001
0.13768192 0.25935429 1.6810001
0.1416381 0.26074287 1.6900001
0.14554286 0.26197717 1.6980001
0.15806477 0.27833143 1.8040001
0.16150096 0.27833143 1.8040001
0.16585143 0.27987429 1.8140001
0.17201334 0.28434858 1.8430001
0.17742857 0.28743431 1.863
0.18194857 0.28897715 1.8730001
0.1875962 0.29221717 1.8940001
0.19221334 0.29376 1.904
0.19584 0.29376 1.904
0.20281905 0.29869714 1.9360001
0.21749334 0.31458858 2.039
0.22268 0.31644002 2.0510001
0.2279124 0.31829143 2.0630002
0.23184191 0.31829143 2.0630002
0.23725715 0.32029715 2.0760002
0.24713716 0.32816574 2.1270001
0.25118858 0.32816574 2.1270001
-0.34532383 0.28036192 1.7950001
-0.34190479 0.28036192 1.7950001
-0.33848572 0.28036192 1.7950001
-0.33338669 0.2789562 1.7860001
-0.32998478 0.2789562 1.7860001
-0.32658288 0.2789562 1.7860001
-0.32318097 0.2789562 1.7860001
-0.31977907 0.2789562 1.7860001
-0.31637716 0.2789562 1.7860001
-0.31139812 0.27755049 1.7770001
-0.30801335 0.27755049 1.7770001
-0.30462858 0.27755049 1.7770001
-0.30124381 0.27755049 1.7770001
-0.29785907 0.27755049 1.7770001
-0.2944743 0.27755049 1.7770001
-0.29108953 0.27755049 1.7770001
-0.28624764 0.27614477 1.7680001
-0.28288001 0.27614477 1.7680001
-0.27951241 0.27614477 1.7680001
-0.27614477 0.27614477 1.7680001
-0.27277714 0.27614477 1.7680001
-0.26940954 0.27614477 1.7680001
-0.2660419 0.27614477 1.7680001
-0.2626743 0.27614477 1.7680001
-0.26062667 0.27755049 1.7770001
-0.25593907 0.27614477 1.7680001
-0.25257143 0.27614477 1.7680001
-0.24793525 0.27473906 1.7590001
-0.24458477 0.27473906 1.7590001
