# .PCD v0.7 - Point Cloud Data file format
VERSION 0.7
FIELDS x y z
SIZE 4 4 4
TYPE F F F
COUNT 1 1 1
WIDTH 1468
HEIGHT 1
VIEWPOINT 0 0 0 1 0 0 0
POINTS 1468
DATA ascii
0.081588574 0.14278001 1.9470001
-0.2225143 0.15390572 1.9470001
-0.21658058 0.15724345 1.9470001
-0.20397146 0.15576002 1.9470003
-0.19470002 0.15205143 1.9470001
0.053156193 0.15328763 1.9470003
0.065518104 0.15328763 1.9470003
0.073553339 0.15514193 1.9470003
-0.28556001 0.16688572 1.9470001
-0.2237505 0.16564953 1.9470003
-0.21602429 0.1641043 1.9470001
-0.20768 0.16503143 1.9470001
-0.28277859 0.17430288 1.9470001
-0.2762886 0.17801145 1.9470001
-0.20026287 0.17059429 1.9470001
-0.19408193 0.17553906 1.9470003
-0.18913715 0.17801145 1.9470001
-0.27072573 0.18172002 1.9470001
-0.26330858 0.18913715 1.9470001
-0.24291146 0.18913715 1.9470001
-0.18357429 0.18172002 1.9470001
-0.17430288 0.18172002 1.9470001
-0.26516289 0.1947 1.9470001
-0.25589144 0.19470002 1.9470001
-0.2484743 0.19284573 1.9470001
-0.22436857 0.20211717 1.9470001
-0.26330858 0.21509716 1.9470001
-0.26330858 0.22993144 1.9470001
-0.26330858 0.23364002 1.9470001
-0.26701719 0.24476574 1.9470003
-0.26701716 0.25218287 1.9470001
-0.29297718 0.51920003 1.9470001
-0.28481829 0.51771665 1.9470001
-0.2769067 0.51301908 1.9470003
-0.013907144 0.51549149 1.9470001
-0.0061809532 0.51796389 1.9470003
0.0037085719 0.51920003 1.9470003
-0.014092572 0.52513373 1.9470001
-0.0055628577 0.52290857 1.9470001
0.0018542858 0.52290857 1.9470001
-0.30039433 0.53774291 1.9470001
-0.29668573 0.53774291 1.9470001
-0.022251431 0.53218007 1.9470001
-0.018542858 0.53032577 1.9470001
-0.30357307 0.54621971 1.9470003
-0.29483145 0.54516006 1.9470003
-0.28926858 0.54330575 1.9470001
-0.27814287 0.54516 1.9470001
-0.26516289 0.54886866 1.9470001
-0.022251433 0.54516006 1.9470003
-0.017615715 0.54608721 1.9470001
-0.30039433 0.55443144 1.9470001
-0.29483145 0.5544315 1.9470001
-0.28602362 0.55674934 1.9470003
-0.27814287 0.55814004 1.9470001
-0.022251431 0.5525772 1.9470001
-0.018542858 0.5525772 1.9470001
-0.3022486 0.57853717 1.9470001
-0.29483145 0.57668293 1.9470001
-0.28648716 0.57761002 1.9470001
-0.27814287 0.57853717 1.9470001
-0.31337431 0.58595437 1.9470001
-0.30363929 0.58549082 1.9470003
-0.29483145 0.58595437 1.9470003
-0.28556001 0.58595431 1.9470003
-0.32446858 -0.26293141 1.9580001
-0.32446858 -0.25547236 1.9580001
-0.3259604 -0.24540268 1.9580001
-0.32726571 -0.23589239 1.9580001
-0.32633334 -0.22377144 1.9580001
-0.32446858 -0.21444762 1.9580001
-0.32446858 -0.17155811 1.9580001
-0.33192763 -0.16223428 1.9580001
-0.32726571 -0.16503142 1.9580001
-0.33192763 -0.15663999 1.9580001
-0.32819811 -0.15477523 1.9580001
-0.33192763 -0.1417219 1.9580001
-0.32819813 -0.14545143 1.9580001
-0.32571179 -0.13550603 1.9580001
-0.32446858 -0.12493904 1.9580001
-0.33192763 -0.11188572 1.9580001
-0.32446858 -0.11561524 1.9580001
-0.33192763 -0.10442667 1.9580001
-0.32340303 -0.10442667 1.9580002
-0.31700954 -0.10069714 1.9580001
-0.32260382 -0.095102854 1.9580001
-0.31700954 -0.093238093 1.9580001
-0.33192763 -0.082049526 1.9580001
-0.32372269 -0.086524956 1.9580001
-0.31700954 -0.08764381 1.9580001
-0.33192763 -0.074590474 1.9580001
-0.32670629 -0.073844574 1.9580001
-0.32633334 -0.041024763 1.9580001
-0.32633334 -0.035430476 1.9580001
-0.32819813 -0.026106667 1.9580001
-0.32726574 -0.014918095 1.9580001
-0.32372269 -0.0059672385 1.9580001
-0.31700954 -0.0037295239 1.9580001
-0.32073903 0 1.9580001
-0.31452319 0.0037295239 1.9580001
-0.31327999 0.014918095 1.9580001
-0.32446858 0.037295237 1.9580001
-0.32446858 0.041024763 1.9580001
-0.34435937 0.058429208 1.9580001
-0.33938667 0.057807621 1.9580001
-0.35057524 0.06713143 1.9580001
-0.34498096 0.0634019 1.9580001
-0.33938667 0.0634019 1.9580001
-0.31327999 0.072725713 1.9580001
-0.19580001 0.096967623 1.9580001
0.057807621 0.095102862 1.9580001
0.0634019 0.095102862 1.9580001
-0.2647962 0.10815619 1.9580001
-0.20139429 0.10442667 1.9580001
-0.19617295 0.10517257 1.9580001
0.057807621 0.10442667 1.9580001
0.066199049 0.10535904 1.9580001
0.071793333 0.10535905 1.9580001
-0.2640503 0.11412343 1.9580001
-0.25733715 0.11934476 1.9580001
-0.20450222 0.11561524 1.9580001
-0.19642159 0.11312889 1.9580001
0.06713143 0.11188572 1.9580001
0.075522855 0.1128181 1.9580001
0.085246272 0.11668082 1.9580002
0.094481274 0.11810159 1.9580001
-0.26106665 0.12307428 1.9580001
-0.25609398 0.12556063 1.9580001
-0.24987811 0.1268038 1.9580001
-0.21258286 0.12493904 1.9580001
-0.20698857 0.12493904 1.9580001
0.089508571 0.12493904 1.9580001
0.095102854 0.12493904 1.9580001
0.10069714 0.12493904 1.9580001
-0.2442838 0.13053332 1.9580001
-0.23247366 0.13550603 1.9580001
-0.22323865 0.13532844 1.9580002
-0.21444762 0.13426286 1.9580001
-0.20559001 0.13472906 1.9580001
0.088016763 0.13426286 1.9580001
0.094481274 0.13177651 1.9580001
-0.21444765 0.14545143 1.9580001
0.084846668 0.14638381 1.9580001
-0.21444762 0.15477523 1.9580001
0.058429208 0.15539682 1.9580001
0.0634019 0.15663999 1.9580001
0.078319997 0.15291047 1.9580001
0.083914287 0.15291047 1.9580001
-0.29090285 0.16782857 1.9580001
-0.21444762 0.16782857 1.9580001
0.055942863 0.16463183 1.9580002
0.065266669 0.16036952 1.9580001
0.070860952 0.16036952 1.9580001
-0.29416621 0.17528762 1.9580001
-0.28717333 0.17528762 1.9580001
-0.20512381 0.17342286 1.9580001
-0.30209145 0.18274666 1.9580001
-0.29463241 0.18461142 1.9580001
-0.28530857 0.18461142 1.9580001
-0.27673069 0.18498437 1.9580001
-0.23682477 0.18647619 1.9580001
-0.19207048 0.18274666 1.9580001
-0.18461142 0.18647619 1.9580001
-0.17342286 0.18461142 1.9580001
-0.16409905 0.1864762 1.9580001
-0.29090285 0.19393525 1.9580001
-0.2853086 0.19393526 1.9580001
-0.27598476 0.19393523 1.9579999
-0.26852572 0.19020571 1.9580001
-0.25547236 0.19766477 1.9580001
-0.24521621 0.19580001 1.9580001
-0.23868953 0.19020571 1.9580001
-0.22377144 0.19766477 1.9580001
-0.16036952 0.19020571 1.9580001
-0.28530857 0.20325905 1.9580001
-0.27598476 0.20325905 1.9580001
-0.2647962 0.20450222 1.9580001
-0.25584534 0.20512383 1.9580001
-0.24689451 0.20437792 1.9580001
-0.23389442 0.20459102 1.9580002
-0.22004192 0.20325905 1.9580001
-0.26230985 0.21382603 1.9580001
-0.25547236 0.21444762 1.9580001
-0.24614857 0.21444762 1.9580001
-0.23496 0.21444762 1.9580001
-0.26293144 0.22377144 1.9580001
-0.25547239 0.22377144 1.9580001
-0.24614857 0.22190666 1.9580001
-0.2357059 0.22153373 1.9580001
-0.26230985 0.23496 1.9580001
-0.25547236 0.23309524 1.9580001
-0.26330438 0.24689448 1.9580001
-0.26603937 0.25609398 1.9580001
-0.26666099 0.2647962 1.9580001
-0.26852572 0.27225524 1.9580001
-0.2536076 0.27225524 1.9580001
-0.24987811 0.27225524 1.9580001
-0.27349842 0.51716065 1.9580001
-0.022377143 0.5165391 1.9580001
-0.015539683 0.51343119 1.9580001
-0.0055942857 0.51467431 1.9580001
0.0037295239 0.5165391 1.9580001
0.012431746 0.51716065 1.9580001
-0.2983619 0.52959239 1.9580001
-0.28530857 0.5277276 1.9580001
-0.27598476 0.52586293 1.9579999
-0.26759332 0.52679521 1.9580001
-0.2209743 0.52586287 1.9580001
-0.21506922 0.52710605 1.9580001
-0.022377143 0.52399808 1.9580001
-0.01616127 0.52337646 1.9580001
0.013053333 0.52213329 1.9580001
-0.29463241 0.53518665 1.9580001
-0.28530857 0.53518665 1.9580001
-0.27673069 0.53481376 1.9580001
-0.29276764 0.54078096 1.9580001
-0.28530857 0.54451048 1.9580001
-0.27660638 0.54451048 1.9580001
-0.2647962 0.54451054 1.9579999
-0.25733715 0.54637527 1.9580001
-0.30768573 0.55756384 1.9580001
-0.29090285 0.55196953 1.9580001
-0.28468698 0.55321276 1.9580001
-0.27551857 0.55523282 1.9580001
-0.26426342 0.55676466 1.9580002
-0.31327999 0.56502289 1.9580001
-0.305821 0.56502295 1.9580001
-0.2953783 0.56539583 1.9580001
-0.28530857 0.56688762 1.9580001
-0.27971429 0.56688762 1.9580001
-0.31477183 0.57360077 1.9580001
-0.30582097 0.57434666 1.9579999
-0.29463241 0.57248187 1.9580001
-0.28530857 0.57434672 1.9580001
-0.27971429 0.57434666 1.9580001
-0.31327999 0.5836705 1.9580001
-0.30955049 0.58180571 1.9580001
-0.27784953 0.58926481 1.9580001
-0.33097953 -0.25409478 1.9690001
-0.33566767 -0.24378097 1.9690001
-0.33566764 -0.23440477 1.9690001
-0.33379239 -0.17252192 1.9690001
-0.33629271 -0.16502097 1.9690002
-0.33566764 -0.15376952 1.9690001
-0.3315421 -0.12301563 1.9690001
-0.33129209 -0.11501461 1.9690002
-0.33191717 -0.10501333 1.9690001
-0.3315421 -0.093761913 1.9690001
-0.33191717 -0.08626096 1.9690001
-0.33379239 -0.011251429 1.9690001
-0.33191717 -0.0056257145 1.9690001
-0.33004192 0 1.9690001
-0.32441622 0.0037504763 1.9690001
-0.3187905 0.0056257145 1.9690001
-0.32254097 0.011251429 1.9690001
-0.3187905 0.015001906 1.9690002
-0.32441622 0.033754285 1.9690001
-0.33004192 0.041255239 1.9690001
0.067508571 0.097512387 1.9690001
0.073134288 0.097512387 1.9690001
-0.20627621 0.10501334 1.9690002
0.077259809 0.10426324 1.9690001
0.084385723 0.10876381 1.9690001
-0.26253334 0.11626476 1.9690001
-0.25878286 0.11626476 1.9690001
-0.21127686 0.11501461 1.9690002
0.08626096 0.11251429 1.9690001
0.094699532 0.11345191 1.9690001
0.10407572 0.11532714 1.9690001
0.11376445 0.11501461 1.9690002
0.12001524 0.11626476 1.9690001
-0.25378224 0.12251556 1.9690002
-0.24753144 0.1275162 1.9690001
-0.22252826 0.12626605 1.9690002
-0.21659002 0.1228281 1.9690001
0.10608491 0.12322995 1.9690001
0.11401448 0.12301562 1.9690001
0.12189048 0.12189049 1.9690001
-0.24003048 0.13126667 1.9690001
-0.23440477 0.13126667 1.9690001
-0.22690383 0.13126667 1.9690001
0.096262231 0.13751747 1.9690002
0.10501335 0.13501714 1.9690001
0.093761913 0.14439335 1.9690001
0.10126286 0.1425181 1.9690001
0.091886669 0.15001905 1.9690001
0.064508192 0.16652115 1.9690001
0.071259052 0.16502096 1.9690001
-0.3000381 0.17627239 1.9690001
-0.21377715 0.17252192 1.9690001
-0.3037886 0.18752381 1.9690001
-0.20440096 0.1818981 1.9690001
-0.19596238 0.18471096 1.9690001
-0.18002287 0.18752381 1.9690001
-0.17627239 0.18752381 1.9690001
-0.3000381 0.19502477 1.9690002
-0.29535002 0.19502477 1.9690001
-0.24253081 0.19752508 1.9690002
-0.23477982 0.19502477 1.9690001
-0.22502857 0.19877525 1.9690001
-0.1912743 0.1912743 1.9690001
-0.18564858 0.1912743 1.9690001
-0.16689619 0.1912743 1.9690001
-0.29441237 0.20440096 1.9690001
-0.26440859 0.20627619 1.9690001
-0.25503239 0.20627619 1.9690001
-0.24503112 0.20502603 1.9690002
-0.21471477 0.20346333 1.9690001
-0.24378097 0.21002668 1.9690002
-0.25128192 0.22877906 1.9690001
-0.24378097 0.22877906 1.9690002
-0.2337797 0.22752891 1.9690002
-0.22877906 0.22502859 1.9690001
-0.25128192 0.23440477 1.9690001
-0.24378097 0.23440477 1.9690001
-0.23440477 0.23628001 1.9690001
-0.22690383 0.23628001 1.9690001
-0.26253334 0.24190572 1.9690001
-0.25610396 0.2432452 1.9690001
-0.24253081 0.24128065 1.9690002
-0.23628001 0.24190572 1.9690001
-0.22690383 0.24378097 1.9690001
-0.26253334 0.25690764 1.9690001
-0.25503239 0.25503239 1.9690001
-0.24096811 0.25503239 1.9690001
-0.23440477 0.25690764 1.9690001
-0.22690383 0.25690764 1.9690001
-0.26253334 0.26440859 1.9690001
-0.25503242 0.26440859 1.9690001
-0.24003048 0.26440859 1.9690001
-0.23440477 0.26440859 1.9690001
-0.26378351 0.27253461 1.9690002
-0.25503239 0.2722846 1.9690001
-0.24753144 0.27753526 1.9690001
-0.016877143 0.50631428 1.9690001
-0.27003428 0.51756573 1.9690001
-0.26378351 0.51381528 1.9690002
-0.024378097 0.51569051 1.9690001
-0.015001906 0.51006478 1.9690002
-0.0037504763 0.51381528 1.9690001
0.0037504765 0.51381528 1.9690002
0.011251429 0.51381528 1.9690001
-0.29441237 0.52881718 1.9690001
-0.27003428 0.52131623 1.9690001
-0.26440859 0.5269419 1.9690001
-0.2212781 0.52131623 1.9690001
-0.21565239 0.52506667 1.9690001
-0.026253335 0.52319145 1.9690001
-0.29441237 0.53256768 1.9690001
-0.27003428 0.53631812 1.9690001
-0.26378351 0.53506798 1.9690002
-0.25878286 0.53256768 1.9690001
-0.27284715 0.54288143 1.9690001
-0.26440859 0.54006857 1.9690001
-0.2812857 0.58882481 1.9690001
-0.33754289 -0.26022857 1.9800001
-0.35074288 -0.25268573 1.9800001
-0.34445715 -0.25394288 1.9800003
-0.33817148 -0.25520003 1.9800003
-0.35074291 -0.24514288 1.9800003
-0.34470859 -0.24589716 1.9800001
-0.35074288 -0.23760001 1.9800001
-0.3432 -0.2357143 1.9800001
-0.34508574 -0.16405715 1.9800001
-0.3394286 -0.1697143 1.9800001
-0.34414285 -0.15557143 1.9800001
-0.3394286 -0.15085715 1.9800001
-0.33754289 -0.14708573 1.9800001
-0.33377144 -0.13388571 1.9800001
-0.33817148 -0.12445715 1.9800003
-0.3394286 -0.11502858 1.9800001
-0.34414285 -0.10560001 1.9800001
-0.3394286 -0.10560001 1.9800003
-0.3432 -0.096171439 1.9800001
-0.33848572 -0.094285727 1.9800001
-0.3394286 -0.086742863 1.9800001
-0.33817148 -0.0050285719 1.9800003
-0.33314288 0.0037714287 1.9800003
-0.3281143 0.0075428574 1.9800001
-0.33188573 0.011314287 1.9800001
-0.32685718 0.013828572 1.9800003
-0.32622859 0.024514288 1.9800001
-0.21245717 0.1081143 1.9800003
0.082971431 0.10371429 1.9800001
0.095228583 0.10842858 1.9800001
0.10465715 0.10842858 1.9800001
0.11502858 0.10748573 1.9800001
-0.25457144 0.11691429 1.9800001
-0.2225143 0.11691429 1.9800001
-0.21748576 0.11440001 1.9800003
0.10748573 0.11314286 1.9800001
0.11691429 0.11314286 1.9800001
0.12445715 0.11565715 1.9800003
-0.25268573 0.12068572 1.9800001
-0.24514288 0.12445714 1.9800003
-0.23307431 0.12672001 1.9800001
-0.2250286 0.12194287 1.9800003
0.11691429 0.12822859 1.9800001
0.12540001 0.12540002 1.9800001
0.132 0.12068572 1.9800001
0.11465143 0.13501714 1.9800001
0.12068572 0.13577144 1.9800003
0.1063543 0.14557716 1.9800001
0.095040016 0.15462859 1.9800001
0.10560001 0.15312003 1.9800001
-0.23194286 0.17348573 1.9800001
-0.22440001 0.17348573 1.9800001
-0.21497145 0.176 1.9800003
-0.23257145 0.1873143 1.9800003
-0.21120001 0.18291429 1.9800001
-0.20554286 0.18857144 1.9800001
-0.19988573 0.18857144 1.9800001
-0.30548573 0.19234286 1.9800001
-0.2313143 0.19485717 1.9800003
-0.21120001 0.19988573 1.9800001
-0.20554286 0.19988573 1.9800001
-0.19360003 0.1961143 1.9800003
-0.18574287 0.1961143 1.9800001
-0.17474286 0.19360003 1.9800003
-0.16782859 0.1961143 1.9800001
-0.3017143 0.20554286 1.9800001
-0.21308573 0.20742859 1.9800001
-0.20554286 0.20554286 1.9800001
-0.19800001 0.20365715 1.9800001
-0.21389391 0.21551022 1.9800003
-0.20592001 0.21572573 1.9800001
-0.21874288 0.2225143 1.9800001
-0.23288572 0.23288573 1.9800001
-0.22402287 0.23307429 1.9800001
-0.21685717 0.23760001 1.9800001
-0.25268573 0.24702859 1.9800001
-0.24577145 0.24640004 1.9800003
-0.23320001 0.24577145 1.9800003
-0.22440001 0.24420002 1.9800001
-0.21874288 0.24137144 1.9800001
-0.24765716 0.25394288 1.9800003
-0.23382859 0.25268573 1.9800003
-0.075428575 0.25645718 1.9800003
-0.24702859 0.26400003 1.9800003
-0.071657151 0.26022857 1.9800001
-0.24608573 0.27248573 1.9800001
-0.23760001 0.27154288 1.9800001
-0.03394286 0.4865143 1.9800001
-0.03394286 0.49405715 1.9800001
-0.035828575 0.50914288 1.9800001
-0.024514288 0.50914288 1.9800001
-0.015085716 0.50725716 1.9800001
-0.0075428574 0.50914288 1.9800001
-0.032057144 0.51668572 1.9800001
-0.02514286 0.51417154 1.9800003
-0.005657143 0.51291436 1.9800001
-0.264 0.52422857 1.9800001
-0.25645718 0.528 1.9800001
-0.23005715 0.528 1.9800001
-0.22628573 0.528 1.9800001
-0.032057144 0.52234292 1.9800001
-0.26022857 0.53554291 1.9800001
-0.25494859 0.53629726 1.9800001
-0.23533717 0.53554291 1.9800001
-0.22628573 0.53554291 1.9800001
-0.26022857 0.54497147 1.9800001
-0.25457147 0.54497147 1.9800001
-0.34717715 -0.26370287 1.9920001
-0.35476574 -0.25421715 1.9920001
-0.3490743 -0.25801143 1.9920001
-0.3566629 -0.24473144 1.9920001
-0.3490743 -0.2428343 1.9920001
-0.3566629 -0.23904002 1.9920001
-0.3490743 -0.23904002 1.9920001
-0.34717715 -0.17453715 1.9920003
-0.35286859 -0.16505143 1.9920001
-0.35286862 -0.15556572 1.9920001
-0.3490743 -0.15366858 1.9920001
-0.36172193 -0.14418286 1.9920001
-0.35476574 -0.14608002 1.9920001
-0.3457543 -0.14370859 1.9920003
-0.33769146 -0.14038858 1.9920001
-0.36425143 -0.1365943 1.9920001
-0.34148574 -0.1328 1.9920001
-0.35286859 -0.12141715 1.9920001
-0.34636411 -0.12575349 1.9920003
-0.35286859 -0.11762286 1.9920001
-0.34755659 -0.11458743 1.9920002
-0.3490743 -0.10244572 1.9920001
-0.34812576 -0.093908571 1.9920001
-0.34717715 -0.087268576 1.9920001
-0.34275049 0.002529524 1.9920001
-0.33769146 0.0056914287 1.9920001
-0.33516192 0.016441908 1.9920003
-0.32630858 0.01897143 1.9920001
-0.33516192 0.024030477 1.9920001
-0.21437715 0.10434286 1.9920001
0.087268576 0.10624 1.9920001
0.094857149 0.10497525 1.9920001
0.10434286 0.10434286 1.9920001
0.11288 0.10339429 1.9920001
0.12426287 0.10529143 1.9920001
-0.26180574 0.11193143 1.9920001
-0.25421715 0.11319619 1.9920003
-0.24536383 0.1163581 1.9920001
-0.23448686 0.11610515 1.9920002
-0.22462173 0.11306971 1.9920002
0.12597029 0.111552 1.9920002
0.1328 0.11762286 1.9920001
-0.2428343 0.12141715 1.9920001
-0.2361943 0.12236573 1.9920001
0.12900572 0.12900572 1.9920001
0.13406476 0.1264762 1.9920001
0.12710857 0.13469714 1.9920001
0.1328 0.13469714 1.9920001
0.11610515 0.14494172 1.9920002
0.12445258 0.14342402 1.9920002
0.098651432 0.15936001 1.9920001
0.10497525 0.15683049 1.9920001
0.11458743 0.15480687 1.9920002
0.12141715 0.15366858 1.9920001
-0.30354288 0.17074287 1.9920001
-0.2997486 0.17074287 1.9920001
-0.23334858 0.17833145 1.9920001
-0.22386287 0.17833146 1.9920001
-0.2327162 0.18339048 1.9920001
-0.22386286 0.18592 1.9920003
-0.21532571 0.18686858 1.9920001
-0.31113145 0.19540572 1.9920001
-0.30733714 0.19730286 1.9920001
-0.22386287 0.19540572 1.9920003
-0.21437714 0.19540572 1.9920001
-0.20489143 0.19540572 1.9920003
-0.19730286 0.19730286 1.9920001
-0.18212572 0.19730286 1.9920001
-0.17833145 0.19730286 1.9920001
-0.30733714 0.20109715 1.9920001
-0.22006857 0.20109715 1.9920001
-0.21627429 0.20109715 1.9920001
-0.20109715 0.20489144 1.9920001
-0.19477335 0.20489144 1.9920001
-0.18592 0.20299429 1.9920001
-0.17453717 0.20109716 1.9920001
-0.20236191 0.21374476 1.9920001
-0.19477335 0.21500954 1.9920001
-0.21437714 0.22576001 1.9920001
-0.20434941 0.22494698 1.9920003
-0.22006857 0.23524572 1.9920001
-0.21399772 0.23448686 1.9920002
-0.20536573 0.23572001 1.9920003
-0.19540572 0.23904002 1.9920001
-0.21437714 0.24473144 1.9920001
-0.20489144 0.24473143 1.9920003
-0.22512764 0.25548193 1.9920001
-0.083474293 0.25421715 1.9920001
-0.079680003 0.25231999 1.9920001
-0.24473144 0.27698284 1.9920001
-0.23651049 0.27571809 1.9920001
-0.03794286 0.48946288 1.9920001
-0.035097145 0.49515432 1.9920001
-0.026560001 0.49515432 1.9920001
-0.01897143 0.49705148 1.9920001
-0.25421715 0.50653714 1.9920003
-0.056914292 0.50464004 1.9920001
-0.044582859 0.50179428 1.9920001
-0.036045715 0.50464004 1.9920003
-0.025295239 0.50590479 1.9920001
-0.017074287 0.50463998 1.9920001
-0.26180574 0.51602292 1.9920001
-0.2554819 0.51539052 1.9920003
-0.22386287 0.51981717 1.9920001
-0.034148574 0.51602292 1.9920002
0.001897143 0.51602286 1.9920001
-0.26180574 0.52550864 1.9920001
-0.2561143 0.52550864 1.9920001
-0.24473144 0.52740574 1.9920001
-0.23524573 0.52740574 1.9920001
-0.22386287 0.52512926 1.9920002
-0.21627429 0.52740574 1.9920001
-0.25194058 0.53423542 1.9920002
-0.24473146 0.5349943 1.9920003
-0.23524572 0.53309715 1.9920001
-0.21248001 0.53119999 1.9920001
-0.20868573 0.53119999 1.9920001
-0.25042287 0.54448003 1.9920001
-0.24473144 0.54448003 1.9920001
-0.23524572 0.54448003 1.9920001
-0.22765715 0.54258287 1.9920001
-0.25042287 0.55017149 1.9920001
-0.24473144 0.55017149 1.9920001
-0.35481715 -0.26515907 2.003
-0.35863239 -0.25752857 2.003
-0.35481715 -0.17359333 2.003
-0.36244762 -0.16023999 2.003
-0.35863239 -0.16023999 2.003
-0.36244762 -0.15451714 2.003
-0.35863239 -0.15451714 2.003
-0.36244762 -0.14116381 2.003
-0.35672477 -0.14116381 2.003
-0.36244762 -0.13734858 2.003
-0.35481715 -0.13544098 2.0030003
-0.34591493 -0.13607684 2.003
-0.3571063 -0.12666591 2.003
-0.35863239 -0.11827239 2.003
-0.35481715 -0.095380954 2.003
-0.34591493 0.0050869845 2.003
-0.34527907 0.015260953 2.0030003
-0.34527904 0.022891428 2.003
-0.21365333 0.099196188 2.003
-0.20983809 0.099196188 2.003
0.099196188 0.099196188 2.003
0.10491905 0.099196188 2.003
0.11445715 0.09824238 2.003
0.12399524 0.099196188 2.003
-0.23272952 0.10682666 2.003
-0.22414523 0.10587285 2.003
-0.21746856 0.10301143 2.003
0.09347333 0.10301143 2.003
0.10682666 0.10301143 2.003
0.12781048 0.10301143 2.003
0.13353334 0.10682666 2.003
-0.25180572 0.1106419 2.003
-0.24341221 0.11216801 2.003
-0.23463714 0.1106419 2.003
-0.22891429 0.1106419 2.003
0.13544096 0.11445715 2.003
0.14307143 0.11827239 2.003
0.13734858 0.12590286 2.003
0.143889 0.12590286 2.0030003
0.13734858 0.13544096 2.003
0.14307143 0.13544096 2.003
0.12844636 0.14752255 2.003
0.13544098 0.14497906 2.0030003
0.143889 0.1455241 2.0030003
0.15260953 0.14879429 2.003
0.12781048 0.15451714 2.003
0.13544096 0.15451714 2.003
0.14497906 0.15451714 2.003
0.15260953 0.15451714 2.003
0.12590286 0.16023999 2.003
0.13544096 0.16023999 2.003
-0.19457714 0.20983809 2.003
-0.18440318 0.20856635 2.003
-0.17550096 0.20793048 2.0030003
-0.16596285 0.20602286 2.0030003
-0.1933054 0.21492508 2.003
-0.18503904 0.21556094 2.003
-0.17550096 0.21556096 2.0030003
-0.16787048 0.21556094 2.003
-0.19457716 0.22509906 2.003
-0.18503904 0.22319143 2.003
-0.17502405 0.22462216 2.003
-0.16787048 0.22128381 2.003
-0.20220762 0.23272952 2.003
-0.19457714 0.23463717 2.0030003
-0.17550096 0.23272952 2.003
-0.19403212 0.24526532 2.0030003
-0.18542059 0.24341221 2.003
-0.082027614 0.24608287 2.003
-0.082027614 0.26325142 2.003
-0.076304764 0.26325142 2.003
-0.04387524 0.48835048 2.003
-0.038152382 0.48835048 2.003
-0.25180572 0.49979618 2.003
-0.24363023 0.49707106 2.0030003
-0.23463716 0.49598092 2.003
-0.22557595 0.49598095 2.003
-0.21556094 0.49979618 2.003
-0.20983809 0.49979618 2.003
-0.055320952 0.49788857 2.003
-0.04578286 0.49598095 2.003
-0.030521905 0.49407333 2.003
-0.023845237 0.49502712 2.003
-0.017168572 0.49598095 2.003
-0.25371334 0.50361145 2.003
-0.24417526 0.50551909 2.0030003
-0.23463714 0.50551909 2.003
-0.22509906 0.50551909 2.0030003
-0.21556094 0.50551909 2.003
-0.20983809 0.50361145 2.003
-0.053413332 0.50551903 2.003
-0.047690473 0.50742668 2.003
-0.030521905 0.50551903 2.003
-0.024163175 0.50615495 2.003
-0.016532701 0.50615495 2.003
-0.25371334 0.51887238 2.003
-0.24417523 0.51505709 2.003
-0.23463717 0.51505715 2.0030003
-0.22509906 0.51505715 2.003
-0.21556096 0.51505709 2.0030003
-0.053413332 0.5131495 2.003
-0.045782857 0.51505709 2.003
-0.030521905 0.51124191 2.003
-0.011445714 0.51124191 2.003
-0.0076304763 0.51124191 2.003
-0.25180572 0.52459526 2.003
-0.24417526 0.52459526 2.0030003
-0.23463714 0.52459526 2.003
-0.22509906 0.52268761 2.003
-0.21619682 0.52523112 2.003
-0.041967619 0.52268761 2.003
-0.25180572 0.53031808 2.003
-0.21365333 0.53031808 2.003
-0.20793048 0.53222573 2.003
-0.35310477 0.019190477 2.0150001
-0.35310477 0.023028571 2.0150001
-0.22260952 0.099790484 2.0150001
-0.21877143 0.099790484 2.0150001
0.097871438 0.097871438 2.0150001
0.10554762 0.095952384 2.0150001
0.11514286 0.095952384 2.0150001
0.1247381 0.095952384 2.0150001
0.13049524 0.097871438 2.0150001
-0.26290953 0.10746667 2.0150001
-0.25523335 0.10746667 2.0150001
-0.24487047 0.10593144 2.0150001
-0.23508334 0.1045881 2.0150001
-0.22644764 0.10362858 2.0150001
0.13689207 0.10490795 2.0150001
0.14584765 0.10746667 2.0150001
0.13817143 0.11130476 2.0150001
0.14639592 0.11404628 2.0150003
0.15505905 0.11591049 2.0150001
0.16311905 0.11706191 2.0150001
0.14968573 0.12281905 2.0150001
0.15544286 0.1247381 2.0150001
0.1612 0.1247381 2.0150001
0.14968573 0.13433334 2.0150001
0.15544286 0.13433334 2.0150003
0.14968573 0.14392859 2.0150001
0.15544286 0.1448881 2.0150001
0.14584762 0.15544286 2.0150001
0.15736191 0.15352382 2.0150001
-0.18470834 0.23412384 2.0150001
-0.17655239 0.23796192 2.0150001
-0.18039048 0.24180001 2.0150001
-0.17655239 0.24180001 2.0150001
-0.092114285 0.25331429 2.0150001
-0.088276193 0.25523335 2.0150001
-0.088276193 0.26099047 2.0150001
-0.044138096 0.48743811 2.0150001
-0.036461905 0.48743811 2.0150001
-0.23604287 0.49895239 2.0150001
-0.22260952 0.49895239 2.0150001
-0.21493337 0.49703336 2.0150003
-0.20725715 0.49703336 2.0150001
-0.063328572 0.49703336 2.0150001
-0.056292068 0.49383497 2.0150001
-0.049895242 0.4912762 2.0150001
-0.032623813 0.4912762 2.0150001
-0.20725715 0.50470954 2.0150001
-0.011514286 0.50662857 2.0150001
-0.0076761907 0.50662857 2.0150001
-0.21109526 0.51430476 2.0150001
-0.011514286 0.51046669 2.0150001
-0.0076761907 0.51046669 2.0150001
-0.21205476 0.52581906 2.0150001
-0.20533811 0.53541428 2.0150001
-0.3590686 0.019304764 2.0270002
-0.3590686 0.023165716 2.0270002
0.096523814 0.096523814 2.0270002
0.13513334 0.096523814 2.0270002
-0.25482285 0.10424572 2.0270002
0.088801913 0.10424572 2.0270002
0.092662863 0.10038476 2.0270002
0.13706383 0.10038476 2.0270002
0.14478573 0.10424572 2.0270002
0.15443811 0.10681969 2.0270002
0.1640905 0.10810667 2.0270002
0.15829906 0.11196762 2.0270002
0.16756536 0.1142842 2.0270002
0.17374288 0.11582857 2.0270002
0.16795145 0.12548096 2.0270002
0.17502986 0.12612447 2.0270002
0.16370441 0.13436115 2.0270002
0.17374288 0.13320287 2.0270002
0.15829906 0.14671621 2.0270002
0.16216002 0.14285526 2.0270002
0.16216002 0.15057716 2.0270002
-0.092662863 0.25868383 2.0270002
-0.088801913 0.2509619 2.0270002
-0.042470481 0.48648003 2.0270002
-0.20270002 0.49806291 2.0270002
-0.17374288 0.49806291 2.0270002
-0.16988192 0.49806291 2.0270002
-0.073358104 0.49420196 2.0270002
-0.06660144 0.49323672 2.0270002
-0.054053336 0.49130622 2.0270002
-0.20308612 0.50655699 2.0270002
-0.19690858 0.50964576 2.0270002
-0.17374288 0.50578475 2.0270002
-0.16988192 0.5019238 2.0270002
-0.011582858 0.50385427 2.0270002
-0.0077219056 0.50385427 2.0270002
-0.20559573 0.51447195 2.0270002
-0.19690858 0.51350671 2.0270002
-0.20849144 0.52508962 2.0270002
-0.16216002 0.52895051 2.0270002
-0.15540335 0.5260548 2.0270002
-0.14671621 0.52508956 2.0270002
-0.20463049 0.53538549 2.0270002
-0.18146478 0.53667241 2.0270002
-0.17567335 0.53667241 2.0270002
-0.36507809 -0.0038838095 2.039
-0.37284571 0.0038838095 2.039
-0.36459264 0.0033983332 2.0389998
-0.35731047 0.0038838095 2.039
-0.36443079 0.015535237 2.039
-0.35731047 0.013593333 2.039
-0.36702001 0.023302857 2.039
-0.24468002 0.097095244 2.039
-0.23497048 0.097095244 2.039
0.13981713 0.097095244 2.039
0.14758477 0.097095244 2.039
-0.26604098 0.10486286 2.039
-0.24468002 0.10097905 2.039
-0.23497048 0.10097905 2.039
-0.22914477 0.10097905 2.039
0.089327618 0.10097905 2.039
0.14564286 0.10097905 2.039
0.15612914 0.10253258 2.039
0.16506191 0.10292096 2.039
0.17399466 0.10641638 2.039
0.18448095 0.11457238 2.039
0.17865524 0.1203981 2.039
0.18351001 0.12525287 2.039
0.16700381 0.13981713 2.039
0.17477144 0.13648817 2.039
0.18383364 0.13463873 2.039
0.16570921 0.14629017 2.039
0.17606604 0.14499557 2.039
0.16700381 0.15146858 2.039
0.17671335 0.15146858 2.039
-0.093211427 0.25244763 2.039
-0.093211427 0.26409906 2.039
-0.089327618 0.26798287 2.039
-0.073792383 0.48936 2.039
-0.064915106 0.48603109 2.039
-0.054373335 0.48780647 2.039
-0.046605714 0.48741812 2.039
-0.19160128 0.49583304 2.039
-0.18448095 0.4951857 2.039
-0.17282954 0.49518573 2.039
-0.16506191 0.49518573 2.039
-0.15632333 0.49615669 2.039
-0.081560001 0.49518573 2.039
-0.076381586 0.49453843 2.039
-0.064082861 0.49324381 2.039
-0.20195809 0.50489527 2.039
-0.19419047 0.50489521 2.0389998
-0.18448095 0.50489521 2.039
-0.17671332 0.50586617 2.039
-0.16545029 0.50567198 2.039
-0.15826523 0.50392431 2.039
-0.081560001 0.50295335 2.039
-0.075734288 0.50489527 2.039
-0.069908574 0.50489521 2.039
-0.19224858 0.51460481 2.039
-0.18448095 0.51460481 2.039
-0.17477143 0.51499313 2.039
-0.16506191 0.51266289 2.039
-0.15923619 0.51266289 2.039
-0.20390001 0.52431434 2.039
-0.19419047 0.52431434 2.0389998
-0.18448095 0.52431434 2.039
-0.17428595 0.52431434 2.0389998
-0.16506191 0.52819812 2.039
-0.15535238 0.52431428 2.039
-0.14758477 0.52431428 2.039
-0.20389999 0.53402388 2.039
-0.19419047 0.53596574 2.0389998
-0.18486933 0.53518903 2.039
-0.17477143 0.53402388 2.039
-0.16570921 0.53467119 2.039
-0.15535238 0.53337657 2.039
-0.2032527 0.54632252 2.039
-0.19807428 0.54567522 2.039
-0.37504002 -0.0039066668 2.0510001
-0.37582135 0.0039066668 2.0510004
-0.37308669 0.013673333 2.0510001
-0.25002667 0.089853339 2.0510001
-0.24612002 0.089853339 2.0510001
-0.25198001 0.095713332 2.0510001
-0.24416669 0.093760006 2.0510001
-0.23342335 0.094736665 2.0510001
-0.22658668 0.093760006 2.0510001
-0.21682 0.097666666 2.0510001
0.095713332 0.095713332 2.0510001
0.10352667 0.093760006 2.0510001
0.14454667 0.097666666 2.0510001
0.15431334 0.095713332 2.0510001
0.16329868 0.096104003 2.0510004
0.17189334 0.097666666 2.0510001
-0.25588667 0.10157334 2.0510001
0.083993338 0.10157334 2.0510001
0.17580001 0.10417779 2.0510001
0.18361333 0.10938667 2.0510001
0.17970668 0.11524667 2.0510001
0.17970668 0.12501334 2.0510001
0.18752001 0.12306 2.0510001
0.19142668 0.12501334 2.0510001
0.18752001 0.13282667 2.0510001
0.19142668 0.13478 2.0510001
0.17449778 0.14715111 2.0510001
0.18556666 0.14454669 2.0510004
0.17189334 0.15236001 2.0510001
0.18361333 0.15236001 2.0510001
-0.097666666 0.25588667 2.0510001
-0.096364439 0.26565334 2.0510001
-0.085946672 0.27346668 2.0510001
-0.078133337 0.27346668 2.0510001
-0.17580001 0.48833331 2.0510001
-0.15626667 0.48833331 2.0510001
-0.05339111 0.48572892 2.0510001
-0.046880003 0.48442671 2.0510001
-0.19728667 0.49614671 2.0510001
-0.18361333 0.49224004 2.0510001
-0.17580001 0.49354228 2.0510001
-0.16408001 0.49224004 2.0510001
-0.15431334 0.49419338 2.0510001
-0.14715111 0.4948445 2.0510001
-0.085946672 0.49419338 2.0510001
-0.078133337 0.49224004 2.0510001
-0.20314668 0.50005335 2.0510001
-0.19924001 0.50005335 2.0510001
-0.17970668 0.50005335 2.0510001
-0.16408001 0.50396001 2.0510001
-0.15366223 0.5065645 2.0510001
-0.14650001 0.50005335 2.0510001
-0.087900005 0.50396007 2.0510004
-0.16408001 0.51958668 2.0510001
-0.15496445 0.51307559 2.0510001
-0.083342224 0.51698226 2.0510001
-0.17970668 0.52740002 2.0510001
-0.16486135 0.525056 2.0510004
-0.15626667 0.52349335 2.0510001
-0.087900005 0.52544665 2.0510001
-0.085946672 0.53130668 2.0510001
-0.19338 0.54693335 2.0510001
-0.18556666 0.54693335 2.0510001
-0.2436305 0.086449534 2.0630002
-0.23577146 0.086449534 2.0630002
-0.2632781 0.098238103 2.0630002
-0.25672892 0.094308585 2.0630002
-0.2436305 0.090379059 2.0630002
-0.23577146 0.090379059 2.0630002
-0.22660258 0.095618427 2.0630002
0.04518953 0.094308577 2.0630002
0.051083814 0.094308577 2.0630002
0.086449534 0.098238103 2.0630002
0.091688901 0.095618419 2.0630002
-0.26524287 0.10216763 2.0630002
-0.092343822 0.25148955 2.0630002
-0.098238103 0.27113718 2.0630002
-0.072696194 0.28489047 2.0630002
-0.1552162 0.487261 2.0630002
-0.14932191 0.487261 2.0630002
-0.090379059 0.487261 2.0630002
-0.086449534 0.487261 2.0630002
-0.06483715 0.48333147 2.0630002
-0.18075812 0.49315527 2.0630002
-0.16111049 0.49119052 2.0630002
-0.15325144 0.49119052 2.0630002
-0.1453924 0.49512005 2.0630002
-0.092343822 0.49512005 2.0630002
-0.086449534 0.49119052 2.0630002
-0.14146286 0.5029791 2.0630002
-0.13753335 0.5029791 2.0630002
-0.10216763 0.5029791 2.0630002
-0.09627334 0.50494385 2.0630002
-0.15325144 0.5186972 2.0630002
-0.14932191 0.51673245 2.0630002
-0.091688901 0.51476771 2.0630002
-0.084484771 0.51476765 2.0630002
-0.15456128 0.52393651 2.0630002
-0.14932191 0.52459145 2.0630002
-0.092343822 0.52459145 2.0630002
-0.086449534 0.5226267 2.0630002
-0.093522683 0.5344153 2.0630002
-0.26296002 0.094902866 2.0760002
0.08699429 0.094902866 2.0760002
-0.092925727 0.24714287 2.0760002
-0.085017145 0.24912001 2.0760002
-0.10478858 0.25505146 2.0760002
-0.098857149 0.25307432 2.0760002
-0.10478859 0.26493716 2.0760002
-0.10412954 0.27416384 2.0760002
-0.096880004 0.27680001 2.0760002
-0.073154293 0.27680001 2.0760002
-0.094902866 0.2807543 2.0760002
-0.084358096 0.2820724 2.0760002
-0.076713152 0.28312689 2.0760002
-0.073154293 0.29459432 2.0760002
-0.073154293 0.30052575 2.0760002
-0.12653716 0.36774862 2.0760002
-0.13049145 0.3855429 2.0760002
-0.077108577 0.46660575 2.0760002
-0.16212574 0.48637718 2.0760002
-0.15421717 0.48440003 2.0760002
-0.092266679 0.48505911 2.0760002
-0.085017145 0.48440003 2.0760002
-0.17135239 0.49296769 2.0760002
-0.16476193 0.49164957 2.0760002
-0.14367239 0.49560389 2.0760002
-0.10478859 0.49428576 2.0760002
-0.097275436 0.4934949 2.0760002
-0.083040006 0.49033144 2.0760002
-0.1384 0.50219434 2.0760002
-0.10544764 0.5035125 2.0760002
-0.098857149 0.50219434 2.0760002
-0.15026288 0.51208007 2.0760002
-0.14433144 0.51801145 2.0760002
-0.10478859 0.51208001 2.0760002
-0.09753906 0.51669341 2.0760002
-0.14433144 0.52394295 2.0760002
-0.10281144 0.52987432 2.0760002
-0.097275436 0.52512926 2.0760002
-0.10281144 0.53778291 2.0760002
-0.098857149 0.53382862 2.0760002
0.075565718 0.099428579 2.0880001
0.083519995 0.097440004 2.0880001
-0.084845714 0.23730287 2.0880001
-0.077554286 0.23664001 2.0880001
-0.095451429 0.24260572 2.0880001
-0.08550857 0.24658287 2.0880001
-0.076361142 0.24419656 2.0880001
-0.11136 0.2565257 2.0880001
-0.07954286 0.25056002 2.0880001
-0.11401143 0.26381716 2.0880001
-0.11295086 0.27521831 2.0880001
-0.10738286 0.2784 2.0880001
-0.11268573 0.28370285 2.0880001
-0.10539428 0.28436571 2.0880001
-0.095451437 0.28635427 2.0880001
-0.087497145 0.28635427 2.0880001
-0.10473143 0.29165718 2.0880001
-0.095948569 0.29381144 2.0880001
-0.084514283 0.29331431 2.0880001
-0.07954286 0.29629713 2.0880001
-0.097440004 0.30226287 2.0880001
-0.083519995 0.30226287 2.0880001
-0.076560006 0.30524573 2.0880001
-0.11533716 0.35794288 2.0880001
-0.10738286 0.35794285 2.0880001
-0.08550857 0.35794285 2.0880001
-0.12329143 0.36390859 2.0880001
-0.11590531 0.36476085 2.0880003
-0.10738286 0.36589715 2.0880001
-0.09412571 0.3685486 2.0880001
-0.086171433 0.36854857 2.0880001
-0.07954286 0.3698743 2.0880001
-0.12726857 0.37385142 2.0880001
-0.11931429 0.37385142 2.0880001
-0.093462855 0.37584001 2.0880001
-0.08550857 0.37584001 2.0880001
-0.07954286 0.37584001 2.0880001
-0.1256777 0.38657829 2.0880001
-0.11798858 0.38445717 2.0880001
-0.091474287 0.38578287 2.0880001
-0.08550857 0.38578284 2.0880003
-0.07954286 0.3857829 2.0880001
-0.13124572 0.39572573 2.0880001
-0.12726857 0.39572573 2.0880001
-0.10340571 0.39373714 2.0880001
-0.095451437 0.39373717 2.0880001
-0.08550857 0.39373714 2.0880001
-0.075565718 0.39373717 2.0880001
-0.067611434 0.39373714 2.0880001
-0.13124572 0.40368003 2.0880001
-0.12627429 0.40566862 2.0880001
-0.12726857 0.41561145 2.0880001
-0.12726857 0.42157716 2.0880001
-0.077554286 0.45737144 2.0880001
-0.11613258 0.46771201 2.0880001
-0.08550857 0.46731427 2.0880001
-0.077554286 0.46333712 2.0880001
-0.12527999 0.47725716 2.0880001
-0.11732572 0.47526857 2.0880001
-0.10738286 0.47725716 2.0880001
-0.09445715 0.47626287 2.0880001
-0.08550857 0.47526857 2.0880001
-0.077554286 0.47526857 2.0880001
-0.17234287 0.48786288 2.0880001
-0.16571429 0.48653716 2.0880001
-0.15312001 0.48123431 2.0880001
-0.14516571 0.48719999 2.0880001
-0.1392 0.48918858 2.0880001
-0.12488228 0.48441601 2.0880001
-0.11533715 0.48521143 2.0880001
-0.10539429 0.48521143 2.0880003
-0.096777141 0.48388574 2.0880003
-0.08550857 0.48123431 2.0880001
-0.07954286 0.48322287 2.0880001
-0.047725715 0.48918858 2.0880001
-0.17698285 0.49316573 2.0880001
-0.14516571 0.49316573 2.0880001
-0.13787429 0.49581715 2.0880001
-0.12527999 0.49515429 2.0880001
-0.11533716 0.49515426 2.0880003
-0.13456002 0.50509715 2.0880003
-0.12488228 0.50589257 2.0880001
-0.11533715 0.50509721 2.0880001
-0.14516571 0.51504004 2.0880001
-0.13522288 0.51504004 2.0880003
-0.12527999 0.51504004 2.0880001
-0.11533715 0.51504004 2.0880003
-0.13522287 0.52498287 2.0880001
-0.12527999 0.52498287 2.0880003
-0.11454171 0.52418751 2.0880001
-0.10539429 0.52498293 2.0880003
-0.14516571 0.53293717 2.0880001
-0.1392 0.53293717 2.0880001
-0.11136 0.5349257 2.0880001
-0.10605714 0.53558862 2.0880001
-0.11136 0.54089147 2.0880001
-0.10340571 0.54486859 2.0880001
-0.097440004 0.54486859 2.0880001
0.076036192 0.096045718 2.1010001
0.084040001 0.09404476 2.1010001
0.09204381 0.09204381 2.1010001
-0.09204381 0.24211524 2.1010001
-0.086040951 0.2441162 2.1010001
-0.12005714 0.26812762 2.1010001
-0.11605524 0.26612666 2.1010001
-0.1220581 0.27413049 2.1010001
-0.11605524 0.27212954 2.1010001
-0.12205811 0.28413528 2.1010001
-0.11605524 0.28813714 2.1010001
-0.12005714 0.29213905 2.1010001
-0.11405428 0.29413998 2.1010001
-0.10805143 0.29614094 2.1010001
-0.088041902 0.29614094 2.1010001
-0.11205333 0.3041448 2.1010003
-0.10519292 0.3047165 2.1010001
-0.093044288 0.30514526 2.1010001
-0.087041423 0.30514526 2.1010001
-0.10404953 0.31414956 2.1010001
-0.09404476 0.31414953 2.1010001
-0.084040008 0.31414956 2.1010001
-0.074035242 0.31414953 2.1010001
-0.068032384 0.31414953 2.1010001
-0.12505953 0.32515475 2.1010001
-0.11305381 0.32415429 2.1010001
-0.10404953 0.32415429 2.1010001
-0.095045239 0.32315382 2.1010001
-0.083239615 0.32175311 2.1010001
-0.074035242 0.32015237 2.1010001
-0.068032384 0.32215333 2.1010001
-0.12606001 0.33215812 2.1010001
-0.1133873 0.3334921 2.1010003
-0.10404953 0.33415908 2.1010001
-0.096045718 0.33616 2.1010001
-0.11405428 0.34616476 2.1010001
-0.10404953 0.34416384 2.1010001
-0.094444953 0.34496424 2.1010001
-0.08484038 0.34656498 2.1010001
-0.074035242 0.34816572 2.1010001
-0.12005714 0.35416859 2.1010001
-0.11405428 0.35416859 2.1010001
-0.10404953 0.35416859 2.1010001
-0.09404476 0.35416859 2.1010001
-0.084040001 0.35416859 2.1010001
-0.074035242 0.35416859 2.1010001
-0.10290613 0.36417338 2.1010001
-0.093644574 0.36337301 2.1010001
-0.082706034 0.36484033 2.1010001
-0.074435428 0.36417335 2.1010001
-0.066698417 0.36550733 2.1010003
-0.12405905 0.37417811 2.1010001
-0.11405428 0.37417811 2.1010001
-0.10404953 0.37417811 2.1010001
-0.074035242 0.37417811 2.1010001
-0.066031426 0.37417808 2.1010001
-0.12405905 0.38118142 2.1010001
-0.11365409 0.38338253 2.1010001
-0.10404953 0.38418287 2.1010001
-0.094711743 0.38551685 2.1010003
-0.074035242 0.3841829 2.1010001
-0.066031426 0.38618386 2.1010001
-0.12139111 0.39485464 2.1010003
-0.11405428 0.39418763 2.1010001
-0.10505 0.39318717 2.1010001
-0.09404476 0.39218667 2.1010001
-0.074035242 0.39218667 2.1010001
-0.06536445 0.39352065 2.1010003
-0.12165791 0.40339205 2.1010001
-0.11405428 0.40419239 2.1010001
-0.10404953 0.40419236 2.1010001
-0.094044767 0.40419239 2.1010001
-0.084039994 0.40419239 2.1010001
-0.074035235 0.40419239 2.1010001
-0.068032384 0.40419239 2.1010003
-0.12205809 0.41419715 2.1010001
-0.11405428 0.41419715 2.1010001
-0.10404953 0.41419715 2.1010001
-0.09404476 0.41419715 2.1010001
-0.084040008 0.41419715 2.1010001
-0.074035235 0.41419715 2.1010001
-0.13206285 0.42820382 2.1010001
-0.12291565 0.42477363 2.1010001
-0.11405428 0.42420197 2.1010001
-0.10404953 0.42420194 2.1010001
-0.094044767 0.42420197 2.1010001
-0.08484038 0.42180076 2.1010001
-0.073635049 0.42340156 2.1010001
-0.13206285 0.43420666 2.1010001
-0.12405907 0.43420666 2.1010001
-0.11405428 0.43420666 2.1010001
-0.10404953 0.43420666 2.1010001
-0.09404476 0.43420666 2.1010001
-0.088041902 0.43420666 2.1010001
-0.12355881 0.44371122 2.1010001
-0.11405428 0.44421142 2.1010001
-0.10404953 0.44421142 2.1010001
-0.094044767 0.44421142 2.1010001
-0.088041902 0.44421145 2.1010003
-0.12005714 0.45221525 2.1010001
-0.1133873 0.45354924 2.1010003
-0.10404953 0.45421621 2.1010001
-0.09404476 0.45421621 2.1010001
-0.084040001 0.45621714 2.1010003
-0.076036192 0.45621714 2.1010001
-0.12405905 0.46822286 2.1010001
-0.11205333 0.46422097 2.1010003
-0.10404953 0.464221 2.1010001
-0.094044767 0.46422097 2.1010001
-0.086040944 0.46222001 2.1010001
-0.14006667 0.47422573 2.1010001
-0.13406381 0.47422573 2.1010001
-0.12606001 0.47422573 2.1010001
-0.11205333 0.47622669 2.1010001
-0.10404953 0.4742257 2.1010001
-0.094711743 0.47355875 2.1010003
-0.1760838 0.4882324 2.1010001
-0.14273462 0.48356351 2.1010001
-0.13406381 0.48423049 2.1010001
-0.11205333 0.48022857 2.1010001
-0.10404953 0.48022857 2.1010001
-0.13406381 0.49423525 2.1010001
-0.12806095 0.49223429 2.1010001
-0.044020951 0.49223429 2.1010001
-0.13206285 0.50223905 2.1010001
-0.12806095 0.50424004 2.1010001
-0.11605524 0.52625048 2.1010001
-0.13406381 0.53625524 2.1010001
-0.12305857 0.53525478 2.1010001
-0.11605524 0.53425431 2.1010001
-0.13206285 0.54025716 2.1010001
-0.12325867 0.54185796 2.1010001
-0.11472127 0.54425907 2.1010003
-0.10805143 0.54626 2.1010001
0.072480001 0.096639998 2.1140001
0.082546666 0.092613332 2.1140001
-0.12348446 0.29663113 2.1140001
-0.12281334 0.30401334 2.1140001
-0.11677334 0.30401334 2.1140001
-0.13288 0.31206667 2.1140001
-0.12482667 0.31408003 2.1140001
-0.11516266 0.31488535 2.1140001
-0.12482667 0.32213336 2.1140001
-0.11677334 0.32213336 2.1140001
-0.092613332 0.32616001 2.1140001
-0.088586673 0.32616001 2.1140001
-0.074493334 0.32616001 2.1140001
-0.13288 0.33421335 2.1140001
-0.12348446 0.33488446 2.1140003
-0.11677334 0.33421332 2.1140001
-0.093620002 0.33421335 2.1140001
-0.084560007 0.33421332 2.1140001
-0.075500004 0.33320665 2.1140001
-0.13288 0.34428 2.1140001
-0.12482667 0.34428 2.1140003
-0.11476 0.34226668 2.1140001
-0.092613332 0.34226668 2.1140001
-0.083553329 0.34327334 2.1140001
-0.075164452 0.34495112 2.1140001
-0.125632 0.35193068 2.1140001
-0.072480001 0.36642668 2.1140001
-0.066440001 0.36642668 2.1140001
-0.066440001 0.38253334 2.1140001
-0.080533341 0.42682669 2.1140001
-0.083409533 0.4343048 2.1140003
-0.076506667 0.43488002 2.1140001
-0.14496 0.47917333 2.1140001
-0.13489333 0.47112003 2.1140001
-0.14898667 0.48320001 2.1140001
-0.048319999 0.48722667 2.1140001
-0.044293337 0.49528003 2.1140001
-0.042280003 0.50333333 2.1140001
-0.03624 0.50333333 2.1140001
-0.014093334 0.51944005 2.1140001
-0.0040266667 0.51944005 2.1140001
0.0020133334 0.51944005 2.1140001
0.083054289 0.08913143 2.1270001
0.056720003 0.097234294 2.1270001
0.064822853 0.097234294 2.1270003
0.074951433 0.093182862 2.1270001
-0.13572286 0.32816571 2.1270001
-0.13774857 0.33626857 2.1270001
-0.13774857 0.34234571 2.1270001
-0.14450096 0.47536764 2.1270003
-0.048617147 0.47806859 2.1270001
-0.14990287 0.48212001 2.1270001
-0.048617147 0.48617142 2.1270001
-0.040514287 0.49630001 2.1270001
-0.034437142 0.49832571 2.1270001
-0.012154287 0.49022287 2.1270001
-0.033761907 0.50372767 2.1270003
-0.040514287 0.51048005 2.1270001
-0.033761904 0.51183057 2.1270003
-0.0040514288 0.51858288 2.1270001
-0.0081028575 0.52263433 2.1270001
0.075409524 0.089676194 2.1400001
0.040761907 0.097828574 2.1400001
0.069295242 0.093752384 2.1400001
-0.040761907 0.10598096 2.1400001
-0.035326988 0.10462223 2.1400001
-0.022419048 0.10598096 2.1400001
-0.016304763 0.10598096 2.1400001
0.0020380954 0.10394286 2.1400001
0.026495239 0.10190476 2.1400001
0.034647621 0.10190476 2.1400001
-0.077447623 0.11209525 2.1400001
-0.069295242 0.11005715 2.1400001
-0.040761907 0.11209525 2.1400001
-0.036685713 0.11413334 2.1400001
-0.022419048 0.11005715 2.1400001
-0.014266668 0.11413334 2.1400003
-0.13859048 0.31794289 2.1400001
-0.13655239 0.32405716 2.1400001
-0.13859048 0.33424765 2.1400001
-0.15081905 0.4809905 2.1400001
-0.052990478 0.48506674 2.1400001
-0.044838097 0.48588195 2.1400001
-0.034647621 0.4871048 2.1400001
-0.013587303 0.48778415 2.1400001
-0.0040761908 0.48914289 2.1400001
-0.042800002 0.49321905 2.1400001
-0.034647621 0.49525717 2.1400001
-0.022419048 0.49525714 2.1400001
-0.014946034 0.49593651 2.1400001
-0.0061142859 0.49525714 2.1400001
-0.023777779 0.50476825 2.1400003
-0.014266668 0.50544763 2.1400003
-0.0061142864 0.5034095 2.1400001
0 0.50544763 2.1400001
-0.014946034 0.51631749 2.1400001
-0.0061142864 0.51767617 2.1400001
0.0020380954 0.51767617 2.1400001
-0.014266668 0.52175242 2.1400001
-0.0081523815 0.52175242 2.1400001
0.0020380954 0.52175242 2.1400001
0.036908574 0.098422863 2.1530001
0.065615237 0.092954926 2.1530004
-0.082019046 0.10662477 2.1530001
-0.075867623 0.10662477 2.1530001
-0.069716193 0.10662477 2.1530001
-0.045110475 0.10662477 2.1530001
-0.032807622 0.10252382 2.1530001
-0.025630953 0.10354905 2.1530001
-0.013669843 0.1038908 2.1530004
-0.0061514294 0.10457429 2.1530001
0.0041009528 0.10252382 2.1530001
0.012302858 0.10252382 2.1530001
-0.082019046 0.1127762 2.1530001
-0.073817149 0.11072572 2.1530001
-0.061514288 0.11072572 2.1530001
-0.057413336 0.11072572 2.1530001
-0.046477463 0.1120927 2.1530004
-0.032807626 0.11482668 2.1530004
-0.025191566 0.11599839 2.1530001
-0.0068349219 0.1120927 2.1530004
-0.049211431 0.47981146 2.1530001
-0.041009523 0.48596287 2.1530001
-0.0348581 0.48391241 2.1530001
-0.022555239 0.48801333 2.1530001
-0.016403811 0.48801333 2.1530001
-0.0054679373 0.48664635 2.1530004
0.0049211434 0.48637301 2.1530001
0.073817149 0.48801333 2.1530001
-0.025630953 0.49313954 2.1530001
-0.0082019055 0.49211431 2.1530001
0.0041009532 0.49416479 2.1530001
0.014353334 0.49416476 2.1530001
0.023580477 0.49518999 2.1530001
0.032807622 0.49621522 2.1530001
0.075184137 0.49484825 2.1530004
-0.027339686 0.50578415 2.1530004
0.0046135718 0.50390446 2.1530001
0.014353334 0.50441718 2.1530001
0.024605716 0.50441718 2.1530001
0.033832859 0.50544238 2.1530001
0.069716193 0.5003162 2.1530001
0.075867623 0.50441718 2.1530001
-0.024605716 0.5156948 2.1530001
-0.012302858 0.51672 2.1530001
-0.0061514294 0.51466954 2.1530001
0.0041009532 0.51466954 2.1530001
0.014353334 0.51466954 2.1530001
0.024605714 0.51466954 2.1530001
0.0348581 0.51466954 2.1530001
0.045110475 0.51672 2.1530004
0.053312384 0.51466954 2.1530001
0.090220951 0.51672 2.1530001
-0.024605718 0.52287149 2.1530001
0.0082019055 0.52287149 2.1530001
0.014353334 0.52287149 2.1530001
0.025118336 0.52440935 2.1530001
0.0348581 0.52492201 2.1530001
0.045110475 0.52492201 2.1530001
0.055362858 0.52082098 2.1530001
0.069716193 0.52082098 2.1530001
0.076551117 0.52628899 2.1530004
0.08406952 0.52492195 2.1530001
0.09373606 0.52375031 2.1530001
0.10252382 0.52082098 2.1530001
0.11892763 0.52082098 2.1530001
0.19479525 0.54952765 2.1530001
0.18556811 0.55465388 2.1530001
0.19479524 0.55567908 2.1530001
0.20094669 0.55362862 2.1530001
0.18864381 0.56593144 2.1530001
0.19479524 0.56388098 2.1530001
0.20094669 0.56593144 2.1530001
-0.13208382 0.096999049 2.1670001
0.024765715 0.09906286 2.1670003
0.035084762 0.094935238 2.1670001
0.044371903 0.093903333 2.1670001
0.055722859 0.094935238 2.1670001
-0.13208382 0.10319048 2.1670001
-0.090807617 0.1073181 2.1670001
-0.084616192 0.10525429 2.1670001
-0.074297145 0.10319048 2.1670003
-0.066041909 0.10319048 2.1670001
-0.045403808 0.10456636 2.1670003
-0.090807617 0.11144572 2.1670001
-0.086680003 0.11144572 2.1670001
-0.066041909 0.11144572 2.1670001
-0.043339998 0.48293144 2.1670001
-0.026829526 0.48705906 2.1670001
-0.016510477 0.48705906 2.1670001
0.0041276193 0.48430729 2.1670003
0.013758732 0.4856832 2.1670003
0.020638095 0.48705906 2.1670001
0.074297145 0.48705906 2.1670003
0.082552381 0.48705906 2.1670001
-0.028893335 0.49118668 2.1670001
0.014446668 0.49118668 2.1670001
0.024765715 0.49325049 2.1670001
0.035084762 0.4953143 2.1670001
0.044578284 0.49779087 2.1670001
0.056135621 0.49613982 2.1670001
0.063978106 0.4953143 2.1670001
0.073471621 0.49448878 2.1670001
0.084616199 0.49531433 2.1670001
0.094935238 0.49531427 2.1670001
0.10525429 0.4953143 2.1670001
0.11557334 0.49531427 2.1670001
0.12520446 0.49806604 2.1670003
0.13414761 0.49944189 2.1670001
0.037148573 0.50563335 2.1670001
0.045403808 0.50563335 2.1670001
0.055722859 0.50563329 2.1670001
0.063978098 0.50563335 2.1670001
0.070169523 0.50769717 2.1670001
0.084616192 0.50563329 2.1670001
0.094935238 0.50563329 2.1670001
0.10525429 0.50563335 2.1670001
0.11557334 0.50563335 2.1670001
0.12589239 0.50563329 2.1670001
0.13414761 0.50563335 2.1670001
0.14171493 0.50632131 2.1670003
0.045403808 0.5138886 2.1670001
