# .PCD v0.7 - Point Cloud Data file format
VERSION 0.7
FIELDS x y z
SIZE 4 4 4
TYPE F F F
COUNT 1 1 1
WIDTH 1494
HEIGHT 1
VIEWPOINT 0 0 0 1 0 0 0
POINTS 1494
DATA ascii
-0.15446097 0.1628861 1.8430001
-0.14392954 0.16398939 1.8430002
-0.13515334 0.16499239 1.8430002
-0.12848344 0.16429029 1.8430001
-0.11654782 0.1628861 1.8430001
-0.10391009 0.1635882 1.8430001
-0.094782859 0.16499238 1.8430002
-0.084251434 0.16499239 1.8430002
-0.071964771 0.16674763 1.8430001
-0.064943805 0.16674763 1.8430001
-0.056167625 0.16674763 1.8430002
-0.045197383 0.16543119 1.8430002
-0.035104763 0.16499239 1.8430002
-0.024573334 0.16499238 1.8430002
-0.014041905 0.16499238 1.8430002
-0.0070209526 0.1614819 1.8430001
-0.084251434 0.17201333 1.8430002
-0.073720008 0.17376858 1.8430002
-0.065294854 0.17482172 1.8430001
-0.055289999 0.17289096 1.8430001
-0.046513811 0.17289095 1.8430001
-0.03422714 0.17289095 1.8430001
-0.026328571 0.17201333 1.8430001
-0.065528892 0.1872254 1.8430002
-0.052657142 0.18605524 1.8430001
-0.045636192 0.18781048 1.8430002
-0.035104759 0.18781048 1.8430001
-0.028083811 0.18605524 1.8430001
-0.063188568 0.19307619 1.8430001
-0.056167617 0.19307619 1.8430001
-0.042125717 0.19307619 1.8430001
-0.038615238 0.19307619 1.8430001
-0.11294477 0.10941524 1.853
-0.10941524 0.10941524 1.853
-0.093532383 0.10765047 1.853
-0.10588571 0.11294477 1.853
-0.095297143 0.11294477 1.853
-0.13059239 0.13765143 1.853
-0.12118032 0.13647494 1.853
-0.11412128 0.13647494 1.853
-0.10588571 0.13765143 1.853
-0.095297143 0.13765143 1.853
-0.084708571 0.13765143 1.853
-0.07412 0.13765143 1.853
-0.065296188 0.13765143 1.853
-0.028236192 0.13765143 1.853
-0.2453019 0.14824 1.853
-0.20118286 0.14824 1.853
-0.1941238 0.14824 1.853
-0.18353525 0.14824 1.853
-0.17471144 0.14647524 1.853
-0.16588764 0.1468282 1.853
-0.15479484 0.14571892 1.853
-0.14521471 0.1457189 1.853
-0.13412192 0.1447105 1.853
-0.12412159 0.14471048 1.853
-0.11647429 0.14118096 1.853
-0.10588571 0.14118096 1.853
-0.094288714 0.14420626 1.853
-0.084708571 0.14294574 1.853
-0.07500238 0.14206335 1.853
-0.060001906 0.14118096 1.853
-0.05470762 0.14118096 1.853
-0.045001429 0.14206335 1.853
-0.035295241 0.1447105 1.853
-0.024706667 0.1447105 1.853
-0.015000477 0.14559287 1.853
-0.0070590479 0.14824 1.853
-0.2453019 0.15176952 1.853
-0.2042712 0.15529905 1.8529999
-0.19412382 0.15529905 1.853
-0.18309407 0.15529904 1.8529999
-0.17559381 0.15441667 1.853
-0.16659354 0.15388724 1.853
-0.15529905 0.15353428 1.853
-0.14294572 0.15176952 1.853
-0.13412192 0.15176952 1.853
-0.1252981 0.15176952 1.853
-0.010588571 0.15176952 1.853
-0.0044119051 0.15441667 1.853
0.028236192 0.15176952 1.853
0.031765714 0.15176952 1.853
-0.20294762 0.16235809 1.853
-0.19412383 0.16235809 1.853
-0.18235874 0.1647111 1.853
-0.17471144 0.16588762 1.853
-0.16706412 0.16706413 1.853
-0.15529905 0.16853476 1.853
-0.14471048 0.16941714 1.853
-0.12353335 0.16729943 1.853
-0.11412128 0.16824064 1.853
-0.10765047 0.16765238 1.853
-0.0049413336 0.16659352 1.853
-0.16518171 0.17435849 1.853
-0.15529905 0.17471144 1.853
-0.14471048 0.17471144 1.853
-0.13412192 0.17471144 1.853
-0.12353333 0.17471144 1.853
-0.11529779 0.1741232 1.853
-0.10588571 0.17294668 1.853
-0.094591245 0.17435849 1.853
-0.084708571 0.17647621 1.853
-0.060001906 0.1764762 1.853
-0.056472383 0.1764762 1.853
-0.044119049 0.1764762 1.853
-0.03706 0.1764762 1.853
-0.023824286 0.17559381 1.853
-0.014118096 0.17471144 1.853
-0.0070590479 0.17294668 1.853
-0.13412192 0.18000573 1.853
-0.082943812 0.18000573 1.853
-0.073531747 0.18235874 1.853
-0.062354922 0.18294698 1.853
-0.055060573 0.18282934 1.853
-0.045883816 0.18177049 1.853
-0.03573643 0.18309405 1.8529999
-0.024706669 0.18303104 1.853
-0.011470953 0.18265286 1.853
-0.13235715 0.19412382 1.853
-0.07412 0.1941238 1.853
-0.061766669 0.19059429 1.853
-0.055295877 0.19177079 1.853
-0.035295241 0.19235905 1.853
-0.022941906 0.19059429 1.853
-0.13588667 0.20118286 1.853
0.049413335 0.55413526 1.853
0.052942857 0.55413526 1.853
-0.083391428 0.10645714 1.863
-0.11000571 0.11355428 1.863
-0.10468285 0.11710285 1.863
-0.095811427 0.11710285 1.8630002
-0.085165717 0.11177999 1.863
-0.13307142 0.12774858 1.863
-0.12420001 0.12774858 1.8630002
-0.11355428 0.12774858 1.8630002
-0.10468285 0.12597428 1.863
-0.095811442 0.12774858 1.8630002
-0.085165724 0.12774858 1.8630002
-0.24485144 0.13839428 1.8630002
-0.23420572 0.13585959 1.8630002
-0.22356002 0.1348457 1.863
-0.21528 0.13721143 1.8630002
-0.20581715 0.13662 1.8630002
-0.19517145 0.13662 1.8630002
-0.18503265 0.13585959 1.8630002
-0.17388001 0.13662001 1.8630002
-0.16536343 0.13555542 1.8630002
-0.15613715 0.13484572 1.863
-0.14549144 0.13484572 1.863
-0.13528928 0.13440214 1.863
-0.12538287 0.13366285 1.8630002
-0.11355428 0.13271657 1.8630002
-0.10468285 0.13307142 1.863
-0.095811442 0.13307142 1.8630002
-0.085165724 0.13307142 1.8630002
-0.074520007 0.13307142 1.8630002
-0.063874289 0.13484572 1.8630002
-0.055002857 0.13662 1.863
-0.046131428 0.13662001 1.8630002
-0.035485715 0.1348457 1.863
-0.024396431 0.13440214 1.863
-0.014194286 0.13484572 1.863
-0.0053228568 0.1348457 1.8630002
-0.26614285 0.14726572 1.8630002
-0.25549716 0.14549144 1.863
-0.2443445 0.14447756 1.8630002
-0.23420572 0.14549144 1.863
-0.22356002 0.14549144 1.863
-0.21468858 0.14549142 1.8630002
-0.20626071 0.14504786 1.863
-0.19517145 0.14371714 1.8630002
-0.18452571 0.14371715 1.8630002
-0.17388001 0.14194286 1.8630002
-0.1656 0.14312571 1.8630002
-0.15791142 0.14194286 1.863
-0.14371714 0.14194286 1.863
-0.13839428 0.14194286 1.863
-0.12774858 0.14194286 1.863
-0.021291429 0.14194286 1.863
-0.01242 0.14371714 1.863
-0.0049680001 0.14478171 1.8630002
0.014194285 0.14904 1.863
0.024840003 0.14726572 1.8630002
0.03371143 0.14904 1.863
-0.29098287 0.15436286 1.863
-0.28625143 0.15732001 1.8630002
-0.27324 0.15258858 1.863
-0.26614285 0.15613715 1.863
-0.25549719 0.15613715 1.863
-0.2443445 0.15715103 1.8630002
-0.23420569 0.15613715 1.863
-0.22355999 0.15613715 1.863
-0.21468858 0.15613715 1.8630002
-0.20936571 0.15613714 1.863
-0.18807428 0.15613714 1.863
0.0035485714 0.15613714 1.863
0.014194286 0.15613714 1.863
0.024396429 0.15658072 1.863
0.035929285 0.15658072 1.863
0.042582858 0.15258858 1.863
-0.28566 0.16500857 1.863
-0.26685259 0.1646537 1.8630002
-0.25549716 0.16323428 1.8630002
-0.24485144 0.16323428 1.8630002
-0.23243143 0.16323428 1.863
-0.22356001 0.16500857 1.8630002
-0.21468857 0.16500857 1.863
-0.20670429 0.16589573 1.863
-0.19517145 0.16678289 1.8630002
-0.18807428 0.16678287 1.863
0.0035485716 0.16536345 1.8630002
0.013307142 0.16500857 1.863
0.024840001 0.16500859 1.8630002
0.03371143 0.16323428 1.863
-0.26969141 0.17033143 1.863
-0.23065715 0.17565429 1.863
-0.22356002 0.17388001 1.863
-0.21468858 0.17388001 1.8630002
-0.20581715 0.17388003 1.863
-0.19517143 0.17388003 1.863
-0.18496928 0.17432359 1.863
-0.17506287 0.17506287 1.8630002
-0.11177999 0.17742857 1.863
-0.10468285 0.17742857 1.863
-0.099360004 0.17742857 1.863
-0.0047314288 0.17624572 1.8630002
0.0044357143 0.17121857 1.863
0.013307142 0.17121857 1.863
0.023952857 0.17121857 1.863
-0.23243143 0.18097714 1.863
-0.22311644 0.18408214 1.863
-0.21468858 0.18452571 1.8630002
-0.20581715 0.1845257 1.863
-0.19517143 0.1845257 1.863
-0.1845257 0.1845257 1.863
-0.17388001 0.1845257 1.863
-0.16500857 0.18452571 1.8630002
-0.15613715 0.1845257 1.863
-0.14549144 0.18452571 1.863
-0.1348457 0.18630001 1.8630002
-0.1242 0.1845257 1.863
-0.11473714 0.18334286 1.8630002
-0.10468285 0.18275142 1.863
-0.095811427 0.18452568 1.863
-0.085672662 0.18553959 1.8630002
-0.075702861 0.18689142 1.8630002
-0.021291429 0.18452571 1.863
-0.016323429 0.18523543 1.8630002
-0.0053228578 0.1845257 1.8630002
0.0023657144 0.18570857 1.8630002
0.014194285 0.18452571 1.8630002
-0.22178572 0.19162287 1.863
-0.21646287 0.19162287 1.863
-0.19466451 0.19415757 1.8630002
-0.18401878 0.19517145 1.8630002
-0.17438695 0.19415757 1.8630002
-0.15258858 0.19517145 1.8630002
-0.14504786 0.19517143 1.863
-0.13626514 0.19517143 1.8630002
-0.1259743 0.19339715 1.863
-0.085165717 0.19517143 1.863
-0.074519999 0.19517143 1.8630002
-0.067422852 0.19872001 1.863
-0.014194286 0.19339715 1.8630002
-0.0059142858 0.19280574 1.8630002
-0.19162287 0.20226857 1.863
-0.18097714 0.20226857 1.863
-0.14430857 0.20640856 1.8630002
-0.13661999 0.20759143 1.863
-0.14312571 0.21409714 1.8630002
-0.13661999 0.21468858 1.863
0.049680002 0.54648 1.863
0.053228572 0.54648 1.863
0.049680002 0.55002862 1.863
0.053228572 0.55002862 1.863
-0.0035676192 0.099893339 1.8730001
-0.089190483 0.10702857 1.8730001
-0.0053514289 0.10346096 1.8730001
0.0053514289 0.10346096 1.8730001
-0.11297461 0.11654224 1.8730001
-0.088298574 0.11505572 1.8730001
-0.24438193 0.1284343 1.8730001
-0.23546287 0.1284343 1.8730001
-0.22565192 0.12754239 1.8730001
-0.21405715 0.1284343 1.8730001
-0.20513812 0.1284343 1.8730001
-0.19621906 0.12665048 1.8730001
-0.18551621 0.12665048 1.8730001
-0.17409983 0.12700725 1.8730001
-0.16321857 0.12754239 1.8730001
-0.15519144 0.12665048 1.8730001
-0.14627239 0.12665048 1.8730001
-0.13646144 0.12575859 1.8730001
-0.12486668 0.12486669 1.8730001
-0.11327191 0.12397477 1.8730001
-0.10524476 0.12129906 1.8730001
-0.096325725 0.12308286 1.8730001
-0.085622869 0.12308288 1.8730001
-0.074919999 0.12700725 1.8730001
-0.066000953 0.1284343 1.8730001
-0.055298097 0.1284343 1.8730001
-0.045487143 0.12754239 1.8730001
-0.035676196 0.12665048 1.8730001
-0.024973333 0.1284343 1.8730001
-0.014270477 0.1284343 1.8730001
-0.0053514289 0.12665048 1.8730001
-0.28184193 0.13735333 1.8730001
-0.27515265 0.13601547 1.8730001
-0.26400384 0.13556953 1.8730003
-0.25508481 0.13556953 1.8730001
-0.24616572 0.13378572 1.8730001
-0.23546287 0.13200191 1.8730001
-0.21405715 0.13289382 1.8730001
-0.20513812 0.13200191 1.8730001
-0.19621906 0.13200191 1.8730001
-0.18373239 0.13200191 1.8730001
-0.17481336 0.13200191 1.8730001
-0.16411048 0.13200191 1.8730001
-0.06243334 0.13200191 1.8730001
-0.055298097 0.13200191 1.8730001
-0.046379052 0.13200191 1.8730001
0.0035676195 0.13556953 1.8730003
0.014270478 0.13556953 1.8730003
0.024527382 0.13601547 1.8730001
0.035676196 0.13735333 1.8730001
0.046825003 0.13601547 1.8730001
0.055298101 0.13556953 1.8730001
0.061838739 0.13794795 1.8730001
-0.29254478 0.14805621 1.8730001
-0.28496361 0.14671834 1.8730001
-0.27572602 0.14576274 1.8730003
-0.26578763 0.14270477 1.8730001
0.0035676195 0.14627238 1.8730003
0.014270477 0.14582644 1.8730001
0.024973333 0.14270477 1.8730001
0.036185853 0.14525309 1.8730003
0.046379048 0.14627239 1.8730003
0.055298097 0.14627239 1.8730001
0.064217143 0.14627239 1.8730003
0.073730797 0.14746161 1.8730001
-0.28469604 0.1555482 1.8730001
-0.27708513 0.15578604 1.8730001
0.0035676192 0.15697524 1.8730001
0.047092576 0.1555482 1.8730001
0.055298097 0.15519144 1.8730001
0.06421715 0.15519145 1.8730001
0.073136196 0.15519144 1.8730001
-0.28184193 0.16411048 1.8730001
-0.27649051 0.16411048 1.8730001
-0.26222003 0.1676781 1.8730001
-0.25508481 0.1676781 1.8730001
-0.24616574 0.1676781 1.8730001
-0.23635478 0.16678619 1.8730001
0.0035676192 0.16411048 1.8730001
0.016054288 0.1658943 1.8730001
0.036568098 0.16678619 1.8730001
0.046379048 0.1641105 1.8730003
0.055298097 0.16411048 1.8730001
0.064726815 0.16309117 1.8730003
0.072779439 0.16339695 1.8730001
0.10524476 0.1676781 1.8730001
-0.27470669 0.17481335 1.8730003
-0.26444978 0.1743674 1.8730001
-0.25508481 0.17481336 1.8730001
-0.24616575 0.17481335 1.8730003
-0.2364822 0.1743037 1.8730003
0.0028540955 0.17695391 1.8730001
0.014984001 0.17695391 1.8730001
0.02568686 0.17695391 1.8730001
0.035676196 0.17481335 1.8730003
0.047806095 0.17338629 1.8730001
0.055654861 0.17409982 1.8730001
0.063707493 0.17583267 1.8730003
0.071352385 0.17481336 1.8730001
0.099893339 0.17124572 1.8730001
0.10524476 0.17124572 1.8730001
-0.25330099 0.18194859 1.8730001
-0.24349003 0.1846243 1.8730001
-0.23597254 0.18653554 1.8730003
-0.22832763 0.18908381 1.8730001
-0.1117854 0.18789463 1.8730001
-0.10524476 0.18908381 1.8730001
0.0035676192 0.18408917 1.8730001
0.014270477 0.18194859 1.8730001
0.024973337 0.18373242 1.8730001
0.035676196 0.18373239 1.8730001
0.048162863 0.18373239 1.8730001
0.055298097 0.18373241 1.8730001
0.063503623 0.18337564 1.8730001
-0.22832763 0.19265144 1.8730001
-0.21227334 0.19265144 1.8730001
-0.20513812 0.19621907 1.8730001
-0.19978668 0.19978668 1.8730001
-0.18730001 0.19621906 1.8730001
-0.17481335 0.19978668 1.8730001
-0.16360083 0.19519976 1.8730003
-0.15697524 0.19621907 1.8730001
-0.14984001 0.19621906 1.8730001
-0.12129906 0.19443524 1.8730001
-0.11594763 0.19443525 1.8730001
-0.10583936 0.19384065 1.8730001
-0.095816061 0.19519976 1.8730003
-0.18551621 0.20454352 1.8730001
-0.16232666 0.20513812 1.8730001
-0.15519144 0.20513812 1.8730001
-0.14865081 0.20573273 1.8730001
-0.15340763 0.21048954 1.8730001
0.048162863 0.53692675 1.8730001
0.048757464 0.54346734 1.8730001
0.049946669 0.5565486 1.8730001
0.053514287 0.5565486 1.8730001
0.049946669 0.5761705 1.8730001
0.055298097 0.5761705 1.8730001
0.049946669 0.58865714 1.8730001
0.054941334 0.58508956 1.8730001
0.060649529 0.58152193 1.8730001
0.055298097 0.59222484 1.8730001
0.0071733338 0.096840009 1.8830001
0.01076 0.096840009 1.8830001
0.0028693336 0.10257866 1.8830003
0.01076 0.10042667 1.8830001
-0.12553334 0.11746334 1.8830001
-0.11836001 0.11477335 1.8830001
-0.082493335 0.11836001 1.8830001
-0.07890667 0.11836001 1.8830001
-0.28514004 0.12912001 1.8830001
-0.27617335 0.12912002 1.8830001
-0.26541337 0.12732667 1.8830003
-0.25525111 0.12672891 1.8830003
-0.24389336 0.12374001 1.8830003
-0.23552446 0.12433778 1.8830001
-0.22596002 0.12374 1.8830001
-0.21878667 0.12553334 1.8830001
-0.17933334 0.12553334 1.8830001
-0.16678001 0.12553334 1.8830001
-0.14526001 0.12194667 1.8830001
-0.13808668 0.12194667 1.8830001
-0.12553334 0.12194668 1.8830001
-0.11656667 0.12194667 1.8830001
-0.075320005 0.12284333 1.8830001
-0.064560004 0.12553334 1.8830003
-0.053082671 0.12409867 1.8830003
-0.045431115 0.12314223 1.8830001
-0.03586667 0.12194668 1.8830001
-0.025106668 0.12553334 1.8830001
-0.01345 0.12463667 1.8830001
-0.0053800005 0.12194667 1.8830001
0.0035866669 0.12553336 1.8830003
0.013898334 0.12598167 1.8830003
0.025106668 0.12732667 1.8830003
0.03586667 0.12732667 1.8830003
0.044833336 0.12732667 1.8830001
0.053082671 0.12768534 1.8830003
0.064560011 0.12912002 1.8830001
-0.30128002 0.13988 1.8830001
-0.29321003 0.13898334 1.8830001
-0.2860367 0.13539667 1.8830001
-0.2725867 0.13270667 1.8830001
0.028693335 0.13270667 1.8830001
0.03586667 0.13270667 1.8830001
0.04304 0.13270667 1.8830001
0.065755561 0.13509779 1.8830003
0.074871674 0.13674167 1.8830003
0.0836889 0.13868445 1.8830001
-0.30128002 0.14346668 1.8830001
-0.29500335 0.14436334 1.8830001
0.07771112 0.14466223 1.8830001
0.085362665 0.14561868 1.8830003
0.094448894 0.14585778 1.8830001
0.07890667 0.15602002 1.8830001
0.086080007 0.15422668 1.8830003
0.095046669 0.15422668 1.8830003
0.10580668 0.15602002 1.8830001
0.11477335 0.15602002 1.8830003
0.12194667 0.15602002 1.8830001
0.062766671 0.16857335 1.8830001
0.078010008 0.16588335 1.8830001
0.086080007 0.16498668 1.8830003
0.095046669 0.16498667 1.8830003
0.10401335 0.1643889 1.8830003
0.11426097 0.16396193 1.8830004
0.12194667 0.16319335 1.8830001
-0.26182669 0.17933334 1.8830001
0.044833336 0.17754 1.8830001
0.053800005 0.17933334 1.8830001
0.066353336 0.17216 1.8830001
0.076754674 0.17502935 1.8830003
0.085362665 0.1735947 1.8830003
0.095046669 0.17216 1.8830001
-0.26541334 0.18292002 1.8830001
-0.25465333 0.18507199 1.8830003
-0.24748001 0.18650667 1.8830001
0.04304 0.18471333 1.8830001
-0.21161334 0.19726668 1.8830001
-0.11118668 0.19368002 1.8830001
-0.10401334 0.19726668 1.8830001
-0.19009334 0.20802668 1.8830001
-0.18650667 0.20802668 1.8830001
-0.17574668 0.20324445 1.8830001
-0.16498667 0.20085335 1.8830001
0.039453335 0.54517341 1.8830001
0.04393667 0.54607004 1.8830001
0.039453335 0.55593336 1.8830001
0.044833332 0.55593342 1.8830003
0.017933335 0.56669337 1.8830001
0.025106668 0.56490004 1.8830003
0.03497 0.56400335 1.8830001
0.044833332 0.56310666 1.8830001
0.026302224 0.5744645 1.8830003
0.035354286 0.57489151 1.8830004
0.044833336 0.57566005 1.8830001
0.050213337 0.57386672 1.8830001
0.028693335 0.58462667 1.8830001
0.035866667 0.58462667 1.8830003
0.04483334 0.58462667 1.8830003
0.052604448 0.58701777 1.8830001
0.034671113 0.59419119 1.8830003
0.044833332 0.59180003 1.8830001
-0.17316572 0.10462096 1.8940001
-0.12265905 0.10822857 1.8940001
-0.11905143 0.10822857 1.8940001
-0.26335621 0.11905143 1.8940001
-0.25974858 0.11905143 1.8940001
-0.2471219 0.11905143 1.8940001
-0.14430477 0.11905143 1.8940001
-0.13708952 0.11905143 1.8940001
-0.12265905 0.11364 1.8940001
-0.082975239 0.11364 1.8940001
-0.075038478 0.11688685 1.8940001
-0.06854476 0.11905143 1.8940001
-0.0054114284 0.11905143 1.8940001
0.0054114284 0.11905143 1.8940001
0.021645715 0.11905143 1.8940001
-0.29221714 0.12807047 1.8940001
-0.28500193 0.12536477 1.8940001
-0.27508098 0.12446286 1.8940001
-0.26516002 0.12265905 1.8940001
-0.25493842 0.1238616 1.8940001
-0.23449524 0.12265905 1.8940001
-0.22186857 0.12265905 1.8940001
-0.21465334 0.12626667 1.8940001
-0.2056343 0.12506413 1.8940001
-0.19481145 0.12265905 1.8940001
-0.18398857 0.12265905 1.8940001
-0.17677332 0.12265905 1.8940001
-0.16234286 0.12265905 1.8940001
-0.15512761 0.12265905 1.8940001
-0.1334819 0.12265905 1.8940001
-0.063133337 0.12265905 1.8940001
-0.057721905 0.12265905 1.8940001
-0.025253337 0.12265905 1.8940001
-0.016234286 0.12265905 1.8940001
0.018038096 0.12265905 1.8940001
0.025253333 0.12265905 1.8940001
0.036076192 0.12265905 1.8940001
0.045095243 0.12265905 1.8940001
0.05501619 0.12356095 1.8940001
0.064937145 0.12626669 1.8940001
0.074557461 0.12746921 1.8940001
0.084177785 0.12867175 1.8940001
0.093798101 0.12987429 1.8940001
-0.30304 0.13708952 1.8940001
-0.29582477 0.13528571 1.8940001
0.079367615 0.1334819 1.8940001
0.085380331 0.13468444 1.8940001
0.093798101 0.13618761 1.8940001
0.10101333 0.13708952 1.8940001
0.093798093 0.14214019 1.8940001
0.10410558 0.14533553 1.8940002
0.11183619 0.14791238 1.8940001
0.10317791 0.15368459 1.8940001
0.11544381 0.15152 1.8940001
0.12506413 0.15272254 1.8940001
0.10101333 0.16234286 1.8940001
-0.26516002 0.1875962 1.8940001
-0.18038096 0.20924191 1.8940001
-0.17496952 0.2074381 1.8940001
-0.16955811 0.20383048 1.8940001
-0.19120382 0.21465334 1.8940001
-0.18639366 0.21405208 1.8940001
-0.17677332 0.21284953 1.8940001
0.045095243 0.53753519 1.8940001
0.028860953 0.54835808 1.8940001
0.036076192 0.54535174 1.8940001
0.043291431 0.54114288 1.8940001
0.025974859 0.55773795 1.8940001
0.035625238 0.55557334 1.8940001
0.018038096 0.56639618 1.8940001
0.025253333 0.56278861 1.8940001
0.03427238 0.56278861 1.8940001
0.018038096 0.57361144 1.8940001
0.023449525 0.57361144 1.8940001
0.03788 0.57180762 1.8940001
0.045095243 0.57180762 1.8940001
0.050506666 0.57180762 1.8940001
0.02453181 0.58515579 1.8940001
0.063133337 0.59164953 1.8940001
-0.18133333 0.10517333 1.904
-0.17649779 0.10759111 1.904
-0.02176 0.10698666 1.904
-0.015413335 0.10789333 1.904
-0.00544 0.1088 1.904
-0.29194668 0.11968 1.904
-0.28469333 0.11968 1.904
-0.27472001 0.11877334 1.904
-0.26547199 0.11605334 1.9040002
-0.25386667 0.11786667 1.904
-0.2448 0.11786667 1.904
-0.23573333 0.11968001 1.904
-0.22666667 0.11968 1.904
-0.21397334 0.11968 1.904
-0.20490667 0.11968 1.904
-0.19584 0.11786668 1.9040002
-0.18496001 0.11968001 1.904
-0.17770667 0.11968 1.904
-0.16320001 0.11968 1.904
-0.15594667 0.11968001 1.904
-0.14506668 0.11605334 1.904
-0.13600001 0.11786667 1.904
-0.076159999 0.11242667 1.904
-0.064761899 0.11605334 1.9040003
-0.054400001 0.11605333 1.9040002
-0.045333333 0.11786667 1.904
-0.03626667 0.11708953 1.9040003
-0.024868572 0.11708953 1.9040003
-0.014506668 0.11605333 1.9040002
-0.00544 0.11424001 1.904
0.0043520001 0.11532801 1.9040002
0.014506668 0.11968001 1.904
0.0272 0.11968 1.904
0.036266666 0.11968001 1.904
0.04352 0.11968 1.904
0.056213334 0.11968 1.904
0.065280005 0.11968 1.904
0.076160006 0.11968001 1.904
0.08522667 0.11968 1.904
0.090666667 0.11968 1.904
-0.30282664 0.12512 1.904
-0.29466668 0.12421333 1.904
-0.28288001 0.12330666 1.904
-0.27562669 0.12330666 1.904
-0.21397333 0.12330666 1.904
-0.20671999 0.12330666 1.904
-0.17226666 0.12330666 1.904
-0.16682667 0.12330666 1.904
0.065280005 0.12330666 1.904
0.078577779 0.12451556 1.904
0.085831121 0.12451556 1.904
0.094293341 0.12512001 1.9040002
0.10336 0.12693334 1.904
-0.30282664 0.13237333 1.904
-0.29738668 0.13056 1.904
0.094293334 0.13237333 1.904
0.10517333 0.13418667 1.9040003
0.11242667 0.13781334 1.904
0.10698666 0.14144 1.904
0.11544889 0.14506668 1.9040002
0.13237333 0.15413333 1.904
-0.11242667 0.19946666 1.904
-0.11242667 0.20309334 1.904
-0.10517334 0.20490667 1.9040002
-0.097920001 0.20490667 1.904
-0.18254223 0.21639113 1.904
-0.17304382 0.21449146 1.9040003
-0.16501334 0.21397334 1.904
-0.15957333 0.21397334 1.904
0.025386667 0.53674662 1.904
0.036266666 0.53674662 1.904
0.04352 0.53674662 1.904
0.026422856 0.54451817 1.9040003
0.035541337 0.54182404 1.9040002
0.018133335 0.55488008 1.904
0.024177779 0.55427563 1.9040002
-0.30101332 0.56938666 1.904
0.0072533335 0.56213331 1.904
0.014506668 0.56394666 1.9040002
-0.20244287 0.10942857 1.9150001
-0.19514762 0.10578096 1.9150002
-0.18707076 0.10630205 1.9150002
-0.043771431 0.10942857 1.9150002
-0.034652382 0.10942857 1.9150001
-0.027357144 0.10942857 1.9150001
0.0036476192 0.10942857 1.9150001
-0.29545718 0.11672382 1.9150002
-0.28378475 0.11526477 1.9150002
-0.27600318 0.11429208 1.9150002
-0.26627618 0.1130762 1.9150001
-0.25624526 0.11398811 1.9150001
-0.24439049 0.11550795 1.9150002
-0.23527144 0.11672381 1.9150001
-0.22615239 0.11672382 1.9150002
-0.21520953 0.11672382 1.9150002
-0.20499621 0.11453525 1.9150002
-0.19514762 0.1130762 1.9150001
-0.18602858 0.11490001 1.9150002
-0.17508572 0.11490002 1.9150002
-0.16487239 0.11526477 1.9150002
-0.15502381 0.11672381 1.9150001
-0.14772858 0.1130762 1.9150001
-0.13313809 0.11672381 1.9150001
-0.065657146 0.1130762 1.9150001
-0.043771427 0.1130762 1.9150002
-0.032828573 0.1130762 1.9150001
-0.027357144 0.1130762 1.9150001
0 0.11490001 1.9150001
0.014590478 0.11672382 1.9150002
0.025533333 0.11672382 1.9150002
0.036476191 0.11490001 1.9150001
0.041339684 0.11550795 1.9150002
0.085719049 0.11672381 1.9150001
-0.31004763 0.12584285 1.9150001
-0.30457622 0.12037143 1.9150001
-0.29910478 0.12037143 1.9150001
-0.22250476 0.12037143 1.9150001
-0.21520953 0.12037143 1.9150001
-0.17326191 0.12037143 1.9150001
-0.16779049 0.12037143 1.9150001
0.047419049 0.12037143 1.9150001
0.051066671 0.12037143 1.9150001
0.065657146 0.12037143 1.9150001
0.09666191 0.12037143 1.9150001
0.10630205 0.12297687 1.9150002
0.11429208 0.12645081 1.9150002
-0.31004763 0.13313809 1.9150001
0.10942857 0.13131429 1.9150001
0.11526477 0.13423239 1.9150002
0.12280317 0.13617778 1.9150002
0.13374603 0.13617778 1.9150002
0.12447499 0.14544882 1.9150001
0.13391973 0.14642587 1.9150002
-0.0036476192 0.53255242 1.9150001
0.01532 0.53838861 1.9150002
0.02480381 0.53474098 1.9150002
0.034652382 0.53619999 1.9150001
0.041947618 0.53619999 1.9150001
0.0072952383 0.54714286 1.9150001
0.014590478 0.54531908 1.9150002
0.021885715 0.54531908 1.9150001
0.0054714289 0.55443811 1.9150002
0.013548301 0.55391705 1.9150002
-0.29910478 0.56902862 1.9150001
0.0072952383 0.56173331 1.9150001
0.012766667 0.56173331 1.9150001
-0.29728097 0.57267618 1.9150001
-0.26262859 0.57997143 1.9150001
-0.25898096 0.58361906 1.9150001
-0.27539524 0.59456199 1.9150002
-0.26627621 0.59456187 1.9150001
-0.25898096 0.59456193 1.9150002
-0.20716667 0.10633333 1.9250001
-0.15033334 0.10633333 1.9250001
-0.14483333 0.10633333 1.9250001
0.036666665 0.10633333 1.9250001
0.040333334 0.10633333 1.9250001
-0.30433336 0.11733334 1.9250001
-0.29516667 0.11366667 1.9250001
-0.28783333 0.11183333 1.9250001
-0.27500004 0.11000001 1.9250001
-0.26766667 0.11000001 1.9250001
-0.24383333 0.11366667 1.9250001
-0.23650001 0.11366667 1.9250001
-0.22000001 0.11366667 1.9250001
-0.21450001 0.11183333 1.9250001
-0.20900001 0.11000001 1.9250001
-0.17233334 0.11000001 1.9250001
-0.16133334 0.11183333 1.9250001
-0.15491667 0.11183333 1.9250001
-0.14422223 0.11122223 1.9250001
-0.13933334 0.11366667 1.9250001
0.013933334 0.1122 1.9250001
0.025666667 0.11366668 1.9250001
0.033916667 0.11275001 1.9250001
0.044733334 0.11293334 1.9250001
0.054266669 0.11586668 1.9250001
0.066 0.11733334 1.9250001
0.075166672 0.1155 1.9250001
0.083416671 0.11458334 1.9250001
0.094600007 0.11586668 1.9250001
0.1045 0.11733334 1.9250001
-0.31533334 0.12833333 1.9250001
0.11611112 0.12222223 1.9250001
0.12466667 0.12466668 1.9250001
0.13461906 0.12519048 1.9250002
0.14300001 0.12833333 1.9250001
-0.31533334 0.132 1.9250001
0.12711112 0.13322224 1.9250001
0.13627778 0.13505557 1.9250001
0.14300001 0.13566667 1.9250001
0.13933334 0.14483333 1.9250001
0.14300001 0.14483333 1.9250001
0.14300001 0.15033334 1.9250001
-0.0051333336 0.52506667 1.9250001
0.0058666668 0.52506667 1.9250001
0.014142858 0.52538097 1.9250002
0.025666669 0.52616668 1.9250001
-0.0048888894 0.53411114 1.9250001
0.0036666666 0.53533334 1.9250001
0.014142858 0.53428572 1.9250002
0.026583333 0.5325833 1.9250001
0.034222223 0.53411114 1.9250001
0.040333334 0.53533334 1.9250001
-0.0036666668 0.54450005 1.9250001
0.0055000004 0.54450005 1.9250001
-0.28600001 0.55366671 1.9250001
0.0012222223 0.55366671 1.9250001
-0.29516664 0.56283337 1.9250001
-0.28966668 0.56100005 1.9250001
-0.30250001 0.57933336 1.9250001
-0.28600001 0.58574998 1.9250001
-0.27500004 0.58483332 1.9250001
-0.26644444 0.58544445 1.9250001
-0.28600001 0.59216666 1.9250001
-0.27500004 0.59033334 1.9250001
-0.264 0.59033334 1.9250001
-0.25666666 0.59400004 1.9250001
-0.21388192 0.10694096 1.9360001
-0.20281905 0.10509715 1.9360001
-0.15488 0.10694096 1.9360001
0.014750477 0.10694097 1.9360002
0.025813334 0.10601906 1.9360001
0.033188574 0.10694096 1.9360001
0.046095241 0.10694096 1.9360001
-0.31344765 0.11800382 1.9360001
-0.30607241 0.11554541 1.9360002
-0.29500955 0.11062859 1.9360002
-0.28394666 0.11062858 1.9360001
-0.26366478 0.11062858 1.9360001
-0.25444573 0.11062859 1.9360002
-0.24522668 0.11062858 1.9360001
-0.23600763 0.11247239 1.9360001
-0.22494477 0.113087 1.9360002
-0.15488 0.11062858 1.9360001
-0.13459811 0.1143162 1.9360001
0.018438095 0.11062858 1.9360001
0.025813337 0.11062859 1.9360002
0.047939051 0.11062858 1.9360001
0.055314288 0.11247239 1.9360001
0.064533338 0.1143162 1.9360001
0.072830476 0.11155049 1.9360001
0.084815249 0.11062859 1.9360002
0.095878102 0.11247239 1.9360001
0.10325334 0.1143162 1.9360001
0.11247239 0.11800382 1.9360001
-0.32082286 0.12537906 1.9360001
-0.31529146 0.12353525 1.9360001
-0.29255116 0.51872516 1.9360002
-0.0055314288 0.51995432 1.9360001
0.0061460324 0.51872516 1.9360002
0.014750477 0.51995432 1.9360002
-0.29500955 0.52364194 1.9360001
-0.0073752385 0.52364194 1.9360001
0.0012292064 0.52487117 1.9360002
0.016594287 0.52364194 1.9360001
0.023969525 0.52364194 1.9360001
0 0.53101718 1.9360001
-0.28394669 0.54945529 1.9360002
-0.27472764 0.54945529 1.9360001
-0.26489401 0.54638231 1.9360001
-0.25813335 0.54392385 1.9360001
0 0.54761147 1.9360001
-0.28320915 0.554618 1.9360001
-0.27472764 0.55498672 1.9360001
-0.26735237 0.55498672 1.9360001
0 0.55314291 1.9360001
-0.29132193 0.56420571 1.9360001
-0.28763431 0.56420577 1.9360002
-0.27472764 0.56051809 1.9360001
-0.29224384 0.57619053 1.9360001
-0.28763431 0.57526863 1.9360001
-0.27288383 0.57711244 1.9360001
-0.26919618 0.57711244 1.9360001
-0.3042286 0.58633143 1.9360001
-0.29427201 0.58411896 1.9360001
-0.28394666 0.58356577 1.9360001
-0.27472764 0.58264387 1.9360001
-0.26919618 0.58264387 1.9360001
-0.30361402 0.5924775 1.9360002
-0.29648456 0.59370667 1.9360001
-0.3016305 0.10631239 1.9470003
-0.29483145 0.10569429 1.9470001
-0.28556001 0.10754858 1.9470003
-0.27814287 0.10754858 1.9470001
-0.14092572 0.10754858 1.9470001
-0.13721716 0.10754858 1.9470001
-0.31522861 0.11682001 1.9470001
-0.30410287 0.11125715 1.9470001
-0.2354943 0.11125715 1.9470001
-0.22807716 0.11125715 1.9470001
-0.14092572 0.11125715 1.9470001
-0.13721716 0.11125715 1.9470001
-0.12980001 0.11311144 1.9470001
0.057482861 0.11125715 1.9470001
0.064900003 0.11125715 1.9470001
0.096422866 0.11125715 1.9470001
0.10384002 0.11249334 1.9470003
0.11496572 0.11682001 1.9470001
0.12423715 0.11867429 1.9470001
-0.31893718 0.12238287 1.9470001
-0.011125715 0.51549149 1.9470001
-0.0055628577 0.51549149 1.9470003
0.0037085717 0.51920003 1.9470001
0.014834288 0.51920003 1.9470003
0.022251431 0.51920003 1.9470001
-0.29668573 0.52661717 1.9470001
-0.25403717 0.52661717 1.9470001
-0.2484743 0.52661717 1.9470001
-0.011125715 0.52290857 1.9470001
0 0.52290857 1.9470001
0.024105716 0.52290857 1.9470001
-0.30039433 0.53032577 1.9470001
-0.29421338 0.53279817 1.9470003
-0.27072573 0.53774291 1.9470001
-0.26516289 0.53774291 1.9470001
-0.2554279 0.53403437 1.9470003
-0.2484743 0.53032577 1.9470001
-0.29446062 0.54441833 1.9470001
-0.28503022 0.54621971 1.9470003
-0.27489787 0.54516006 1.9470003
-0.26609001 0.5442329 1.9470001
-0.25712764 0.54268765 1.9470003
-0.29297718 0.5525772 1.9470001
-0.28370571 0.56555718 1.9470001
-0.27350718 0.56648433 1.9470001
-0.26701716 0.56555718 1.9470001
-0.30039433 0.57668293 1.9470001
-0.29668573 0.57668293 1.9470001
-0.28450042 0.57535839 1.9470003
-0.27496409 0.57376903 1.9470003
-0.30039433 0.58966291 1.9470001
-0.28370571 0.58224577 1.9470001
-0.27814287 0.58224577 1.9470001
-0.30582094 0.10349428 1.9580001
-0.29463241 0.10194032 1.9580001
-0.28530857 0.10442667 1.9580001
-0.27598476 0.10815619 1.9580001
-0.2647962 0.10815619 1.9580001
-0.2536076 0.10815619 1.9580001
-0.24614857 0.10815619 1.9580001
-0.23496 0.10815619 1.9580001
-0.2256362 0.10815619 1.9580001
-0.1323981 0.10815619 1.9580001
0.048483811 0.10442667 1.9580001
0.054078095 0.10815619 1.9580001
0.065266669 0.10815619 1.9580001
0.076455235 0.10815619 1.9580001
0.085779056 0.10815619 1.9580001
0.095102862 0.10815619 1.9580001
-0.32322541 0.11685842 1.9580001
-0.31514478 0.11375048 1.9580001
-0.30955049 0.11188572 1.9580001
-0.13426286 0.11188572 1.9580001
0.10815619 0.11188572 1.9580001
0.11561524 0.11437207 1.9580001
0.12493904 0.11561524 1.9580001
0.13426286 0.11748 1.9580001
0.1417219 0.11934476 1.9580001
-0.32446858 0.12307428 1.9580001
0.1417219 0.12307428 1.9580001
-0.022377143 0.50535047 1.9580001
-0.018647619 0.50535047 1.9580001
-0.28344381 0.5165391 1.9580001
-0.27784953 0.5165391 1.9580001
-0.014918096 0.51414156 1.9580002
-0.0055942857 0.51094478 1.9580001
0.0037295239 0.51747143 1.9580001
0.013053333 0.51840383 1.9580001
-0.29090285 0.52586287 1.9580001
-0.28568155 0.52586287 1.9580001
-0.27598476 0.52710605 1.9580001
-0.2640503 0.52810061 1.9580001
-0.25547236 0.52399808 1.9580001
-0.24739175 0.52710605 1.9580001
-0.014918095 0.52213329 1.9580001
0 0.52213329 1.9580001
-0.30395621 0.53705144 1.9580001
-0.29370001 0.53611904 1.9580001
-0.28530857 0.53518665 1.9580001
-0.27598476 0.53518665 1.9580001
-0.26554212 0.53555959 1.9580001
-0.30209145 0.54078096 1.9580001
-0.2933892 0.54202414 1.9580001
-0.28593016 0.54202414 1.9580001
-0.27784953 0.54078096 1.9580001
-0.30566382 0.097512387 1.9690001
-0.32441622 0.10876381 1.9690001
-0.31691527 0.10876381 1.9690001
-0.29253715 0.10126286 1.9690001
-0.28503621 0.10251302 1.9690002
-0.27378479 0.10876381 1.9690001
-0.25878286 0.10876381 1.9690001
-0.24003048 0.10501334 1.9690001
0.05250667 0.10501334 1.9690001
0.060007621 0.10876381 1.9690001
0.071259052 0.10876381 1.9690001
0.10501333 0.10876381 1.9690002
0.11251429 0.10876381 1.9690001
-0.32441622 0.11251429 1.9690001
-0.3187905 0.11251429 1.9690001
0.11626476 0.11251429 1.9690001
0.12376573 0.11251429 1.9690002
0.13501716 0.11251429 1.9690002
-0.030003812 0.49506292 1.9690002
-0.024753144 0.49581298 1.9690001
-0.018752381 0.49881336 1.9690001
-0.024378097 0.50256383 1.9690001
-0.015001906 0.50506413 1.9690002
-0.013126668 0.51006478 1.9690001
-0.0056257145 0.51006478 1.9690001
0.0028128573 0.51569051 1.9690001
0.015001906 0.51756573 1.9690002
-0.28316095 0.52881718 1.9690001
-0.27378479 0.5269419 1.9690001
-0.26253334 0.52506667 1.9690001
-0.25503239 0.52319145 1.9690001
-0.24315588 0.52569175 1.9690001
0.018752381 0.52131623 1.9690001
0.022502858 0.52131623 1.9690001
-0.2812857 0.53256768 1.9690001
-0.3130286 0.096171439 1.9800001
-0.30925718 0.094285719 1.9800001
-0.31428573 0.10434287 1.9800003
-0.2753143 0.10560001 1.9800003
-0.26588571 0.10560001 1.9800001
-0.25268573 0.10560001 1.9800001
-0.24514288 0.10560001 1.9800001
-0.23760001 0.10560001 1.9800001
0.056571431 0.10560001 1.9800001
0.064114295 0.10560001 1.9800003
0.075428575 0.10560001 1.9800003
0.084857151 0.10560001 1.9800001
0.094285727 0.10560001 1.9800003
0.10560001 0.10560001 1.9800003
0.11565715 0.10685715 1.9800003
0.12370286 0.10786287 1.9800001
0.13388571 0.10748573 1.9800001
-0.032685719 0.49154291 1.9800003
-0.024514288 0.49217147 1.9800001
-0.01697143 0.4978286 1.9800001
-0.013200001 0.50348574 1.9800001
-0.0066 0.50631428 1.9800001
-0.20742859 0.51668572 1.9800001
-0.2753143 0.52422863 1.9800001
-0.26494288 0.52422857 1.9800001
-0.25457144 0.52234286 1.9800001
-0.24608573 0.52234286 1.9800001
-0.23760001 0.52611434 1.9800001
-0.21308574 0.52422857 1.9800003
-0.20648572 0.52422857 1.9800001
-0.19988573 0.52422863 1.9800001
-0.32441145 0.10434286 1.9920001
-0.28267431 0.10244572 1.9920001
-0.27508572 0.10244572 1.9920001
-0.26560003 0.10434286 1.9920001
-0.25421715 0.10624 1.9920001
-0.23524572 0.10624 1.9920001
0.09675429 0.10244572 1.9920001
0.10434286 0.10244572 1.9920001
0.11382858 0.10244572 1.9920001
0.12900572 0.10624 1.9920001
-0.032630861 0.48718628 1.9920002
-0.026560001 0.4856686 1.9920001
-0.03794286 0.49515432 1.9920001
-0.022765715 0.49325716 1.9920001
-0.015177144 0.49705148 1.9920001
-0.0075885719 0.49705148 1.9920001
-0.22006857 0.5084343 1.9920001
-0.21437715 0.5084343 1.9920001
-0.011382857 0.50084573 1.9920001
-0.0056914287 0.50463998 1.9920001
0 0.5084343 1.9920001
-0.27445334 0.51855242 1.9920001
-0.26560003 0.51792002 1.9920003
-0.25421715 0.51792002 1.9920003
-0.24536383 0.51855242 1.9920001
-0.23904002 0.51981717 1.9920001
-0.22259812 0.51665533 1.9920003
-0.21437714 0.5141257 1.9920001
-0.20489146 0.51602292 1.9920003
0.0037942859 0.51792002 1.9920001
0.015177144 0.51981723 1.9920001
-0.27445334 0.52487624 1.9920001
-0.26749715 0.52361149 1.9920001
-0.2428343 0.52361149 1.9920001
-0.23448686 0.5251292 1.9920002
-0.22386287 0.52550864 1.9920003
-0.20299429 0.52361149 1.9920001
-0.19603811 0.52614105 1.9920001
-0.1897143 0.52740574 1.9920001
-0.2327162 0.53246474 1.9920001
-0.22481143 0.53214854 1.9920001
-0.20109715 0.53309715 1.9920001
-0.19540572 0.53119999 1.9920001
-0.32047999 0.10301143 2.003
-0.26706669 0.10301143 2.003
0.068674289 0.10301143 2.003
0.083935231 0.10301143 2.003
0.091565713 0.10301143 2.003
0.11445715 0.10301143 2.003
0.12399524 0.10301143 2.003
-0.082027614 0.21746856 2.003
-0.076304764 0.21746856 2.003
-0.12208762 0.22509906 2.003
-0.11493404 0.22462213 2.003
-0.082027614 0.22128381 2.003
-0.076304764 0.22128381 2.003
-0.064859048 0.22509904 2.003
-0.055956826 0.2263708 2.003
-0.11636477 0.23272952 2.003
-0.035608891 0.48707876 2.003
-0.022891428 0.49216568 2.003
-0.015260953 0.49598098 2.003
-0.22255556 0.50615495 2.003
-0.21556094 0.50742668 2.003
-0.20602286 0.50742668 2.003
-0.25562096 0.51505721 2.003
-0.24308519 0.51505715 2.0030003
-0.23463717 0.51505721 2.0030003
-0.22738819 0.51505715 2.003
-0.20506905 0.51219571 2.003
-0.19584888 0.51569295 2.0030003
-0.18503904 0.51124191 2.003
0.0025434922 0.51632893 2.003
-0.23463714 0.52268761 2.003
-0.21556094 0.52268761 2.003
-0.1938141 0.52421373 2.003
-0.18503906 0.52459526 2.003
-0.17931619 0.52459526 2.003
-0.19076191 0.53413337 2.003
-0.18503906 0.53222573 2.003
-0.17931619 0.53031808 2.003
-0.28210002 0.099790484 2.0150001
-0.27634287 0.099790484 2.0150001
0.097871438 0.099790484 2.0150001
0.10554762 0.097871438 2.0150001
0.11418334 0.098830961 2.0150001
0.1247381 0.099790484 2.0150001
-0.26290953 0.10362858 2.0150001
-0.2456381 0.10362858 2.0150001
0.063328572 0.10362858 2.0150001
0.13433334 0.10362859 2.0150001
-0.062688887 0.21621272 2.0150001
-0.056292068 0.21749207 2.0150001
-0.049895242 0.21877143 2.0150001
-0.10554762 0.22644764 2.0150001
-0.095952384 0.22644764 2.0150001
-0.082519054 0.22644764 2.0150001
-0.074842863 0.22644764 2.0150001
-0.063968256 0.22516827 2.0150001
-0.055652384 0.22260952 2.0150001
-0.049895242 0.22260952 2.0150001
-0.11130476 0.23028573 2.0150001
-0.10554762 0.23028573 2.0150001
-0.095952384 0.23028573 2.0150001
-0.082519054 0.23028573 2.0150001
-0.074842863 0.23028573 2.0150001
-0.065247625 0.23220478 2.0150003
-0.22452858 0.49895239 2.0150001
-0.21237461 0.49767303 2.0150001
-0.20725715 0.49703336 2.0150001
-0.22516827 0.50406992 2.0150001
-0.21416573 0.50509334 2.0150001
-0.20533811 0.50470954 2.0150001
-0.2456381 0.51174605 2.0150001
-0.23412383 0.51046669 2.0150001
-0.21109524 0.51046669 2.0150001
-0.20341906 0.51046669 2.0150001
-0.19497524 0.51430476 2.0150001
-0.1851881 0.51622379 2.0150001
-0.18422858 0.52198094 2.0150001
0.0076761907 0.52198094 2.0150001
0.013433333 0.52198094 2.0150001
0.10231524 0.094593339 2.0270002
0.11775906 0.096523814 2.0270002
0.12548096 0.096523814 2.0270002
-0.28957143 0.10038476 2.0270002
-0.25482285 0.10424572 2.0270002
0.075288579 0.10424572 2.0270002
0.088801913 0.10038476 2.0270002
0.092662863 0.10038476 2.0270002
0.13320287 0.10038476 2.0270002
-0.069497153 0.21621335 2.0270002
-0.06756667 0.22200477 2.0270002
-0.11196762 0.23744859 2.0270002
-0.10810667 0.23551811 2.0270002
-0.073358104 0.23551811 2.0270002
-0.20270002 0.49806291 2.0270002
-0.1949781 0.49613243 2.0270002
-0.18822144 0.4951672 2.0270002
-0.24324001 0.50964576 2.0270002
-0.23397374 0.50732917 2.0270002
-0.2200743 0.50578481 2.0270002
-0.20173477 0.50481951 2.0270002
-0.1949781 0.50578481 2.0270004
-0.18822144 0.50675005 2.0270002
-0.19304763 0.51350671 2.0270002
-0.18275176 0.51479375 2.0270002
-0.17760383 0.51543719 2.0270002
-0.31070474 0.097095244 2.039
-0.29128572 0.097095244 2.039
0.095153332 0.097095244 2.039
0.10486286 0.093211427 2.039
0.11457238 0.093211427 2.039
-0.31070474 0.10097905 2.039
-0.30487907 0.10097905 2.039
-0.29711145 0.10097905 2.039
-0.27575046 0.10097905 2.039
0.058257144 0.10486286 2.039
0.066024765 0.10097905 2.039
0.075734288 0.10097905 2.039
0.083501905 0.10097905 2.039
-0.073792383 0.22331905 2.039
-0.10292096 0.23691238 2.039
-0.097095244 0.23691238 2.039
-0.081560001 0.23691238 2.039
-0.077676184 0.23691238 2.039
-0.10874667 0.24079619 2.039
-0.077676184 0.24079619 2.039
-0.19224858 0.48936 2.039
-0.18448095 0.48936 2.039
-0.17477143 0.48936003 2.039
-0.20195809 0.49518573 2.039
-0.19613239 0.49324381 2.039
-0.18448095 0.49518573 2.039
-0.1755482 0.49479732 2.039
-0.24079619 0.50877905 2.039
-0.23691238 0.50683713 2.039
-0.18409257 0.50567204 2.039
-0.17532627 0.50378555 2.039
-0.18253905 0.51266289 2.039
-0.17865524 0.51266289 2.039
-0.30472001 0.097666666 2.0510001
-0.29495335 0.095713332 2.0510001
-0.28909335 0.097666666 2.0510001
0.087900005 0.097666666 2.0510001
0.095713332 0.093760006 2.0510001
0.12306 0.093760006 2.0510001
0.13478 0.097666666 2.0510001
-0.27346668 0.10157334 2.0510001
-0.11329334 0.10938667 2.0510001
0.044926669 0.10938667 2.0510001
0.054693334 0.10548 2.0510001
-0.11329334 0.11329334 2.0510001
-0.093760006 0.23830667 2.0510001
-0.087900005 0.23830667 2.0510001
-0.10548 0.24221335 2.0510001
-0.082040004 0.24221335 2.0510001
-0.16798668 0.49614671 2.0510001
-0.17189334 0.50005335 2.0510001
-0.16798668 0.50200665 2.0510001
-0.31436193 0.094308577 2.0630002
-0.30453813 0.094308577 2.0630002
-0.29471433 0.092998743 2.0630002
-0.28685525 0.098238103 2.0630002
0.066801913 0.098238103 2.0630002
0.074660957 0.098238103 2.0630002
0.084484771 0.09627334 2.0630002
0.093326204 0.091361441 2.0630002
0.10413238 0.090379059 2.0630002
-0.27113718 0.10216763 2.0630002
-0.2632781 0.10216763 2.0630002
-0.25738382 0.10216763 2.0630002
-0.24559525 0.10609715 2.0630002
0.035365716 0.10609715 2.0630002
0.04518953 0.10609715 2.0630002
0.054030959 0.10315001 2.0630002
-0.12378001 0.11788572 2.0630002
-0.11788573 0.11395621 2.0630002
0.035365716 0.11002668 2.0630002
-0.10216763 0.2436305 2.0630002
-0.09627334 0.2436305 2.0630002
-0.086449534 0.2436305 2.0630002
-0.10216763 0.487261 2.0630002
-0.094308585 0.487261 2.0630002
-0.086449534 0.487261 2.0630002
-0.16307525 0.4970848 2.0630002
-0.1552162 0.4970848 2.0630002
-0.1041324 0.49512005 2.0630002
-0.094308577 0.49512005 2.063
-0.086449534 0.49512005 2.0630002
-0.037985399 0.49642989 2.0630002
-0.16307525 0.50494385 2.0630002
-0.1552162 0.5029791 2.0630002
-0.10216763 0.5029791 2.0630002
-0.09627334 0.5029791 2.0630002
-0.084484771 0.5069086 2.0630002
-0.084484778 0.51476765 2.0630002
-0.077018671 0.51555359 2.0630002
-0.078590482 0.5226267 2.0630002
-0.30645716 0.08699429 2.0760002
-0.31436574 0.090948582 2.0760002
-0.30448005 0.090948582 2.0760002
-0.29261717 0.090948582 2.0760002
-0.28391775 0.096484579 2.0760002
-0.27482289 0.098857149 2.0760002
-0.26493716 0.098857149 2.0760002
0.055360004 0.098857149 2.0760002
0.06326858 0.098857149 2.0760002
0.077108577 0.094902866 2.0760002
0.085017145 0.092925727 2.0760002
-0.26889145 0.10281144 2.0760002
-0.25307432 0.10281144 2.0760002
0.027680002 0.10676572 2.0760002
-0.10676572 0.1146743 2.0760002
-0.096880004 0.1146743 2.0760002
-0.092925727 0.24714287 2.0760002
-0.085017145 0.24912001 2.0760002
-0.077108577 0.24912001 2.0760002
-0.075131439 0.29261717 2.0760002
-0.10478858 0.47846863 2.0760002
-0.094902866 0.47846863 2.0760002
-0.08699429 0.47846863 2.0760002
-0.11072001 0.48637718 2.0760002
-0.10412954 0.48505911 2.0760002
-0.096880004 0.48637718 2.0760002
-0.08699429 0.48440003 2.0760002
-0.14235429 0.49824002 2.0760002
-0.1384 0.49824002 2.0760002
-0.11418001 0.49478003 2.0760002
-0.10676572 0.49033144 2.0760002
-0.067222863 0.49230862 2.0760002
-0.039542861 0.49428576 2.0760002
-0.11388344 0.50377607 2.0760002
-0.10676572 0.50614864 2.0760002
-0.090948582 0.50614864 2.0760002
-0.085017145 0.50614864 2.0760002
-0.10478858 0.51208001 2.0760002
-0.094902873 0.51405716 2.0760002
-0.13049145 0.52394295 2.0760002
-0.094112009 0.52354747 2.0760002
-0.085017145 0.52789718 2.0760002
-0.079085723 0.52987432 2.0760002
-0.079085723 0.53382862 2.0760002
-0.30226287 0.087497145 2.0880001
-0.29629713 0.087497145 2.0880001
-0.28635427 0.087497145 2.0880001
-0.29033145 0.091474287 2.0880001
-0.28436571 0.091474287 2.0880001
-0.27442288 0.095451429 2.0880001
-0.26249143 0.099428572 2.0880001
-0.2565257 0.099428572 2.0880001
0.067611434 0.095451429 2.0880001
0.071588568 0.095451429 2.0880001
0.083519995 0.091474287 2.0880001
-0.25056002 0.10340571 2.0880001
-0.24658287 0.10340571 2.0880001
0.017897144 0.10738286 2.0880001
0.023862857 0.10738286 2.0880001
0.035794284 0.10340571 2.0880001
0.045737144 0.10340571 2.0880001
-0.12329143 0.11334857 2.0880001
-0.11136 0.11533715 2.0880001
-0.10340571 0.11533715 2.0880001
0.017897144 0.11136 2.0880001
0.023862857 0.11136 2.0880001
-0.11136 0.25254858 2.0880001
-0.10499656 0.25374171 2.0880001
-0.095451429 0.25503427 2.0880001
-0.08550857 0.2565257 2.0880001
-0.075565726 0.2565257 2.0880003
-0.067611434 0.25851429 2.0880001
-0.10473143 0.26381716 2.0880001
-0.095451437 0.26447999 2.0880003
-0.08550857 0.26448002 2.0880001
-0.07954286 0.26646858 2.0880001
-0.10340571 0.27442285 2.0880001
-0.095451429 0.27442285 2.0880001
-0.08550857 0.27442285 2.0880003
-0.07954286 0.2784 2.0880001
-0.11136 0.28635427 2.0880001
-0.10539428 0.28436571 2.0880001
-0.095451429 0.28436571 2.0880003
-0.08550857 0.28436571 2.0880001
-0.075565718 0.28436571 2.0880003
-0.11235428 0.29530287 2.0880001
-0.10539427 0.2943086 2.0880003
-0.095451437 0.29430857 2.0880001
-0.08550857 0.2943086 2.0880003
-0.075565718 0.2943086 2.0880003
-0.11454172 0.30464914 2.0880001
-0.10539428 0.30425143 2.0880001
-0.095451429 0.30425143 2.0880003
-0.08550857 0.30425143 2.0880001
-0.075565718 0.30425143 2.0880003
-0.11533715 0.31419429 2.0880001
-0.10539427 0.31419432 2.0880003
-0.095451437 0.31419426 2.0880001
-0.08550857 0.31419432 2.0880003
-0.07954286 0.31021714 2.0880001
-0.11334857 0.32214859 2.0880001
-0.10539428 0.32214859 2.0880001
-0.095451429 0.32214862 2.0880001
-0.10340571 0.35794285 2.0880001
-0.096445717 0.35694855 2.0880001
-0.087497145 0.35794285 2.0880001
-0.065622859 0.35794285 2.0880001
-0.10439999 0.36490288 2.0880001
-0.095451437 0.36589718 2.0880001
-0.086171433 0.36854857 2.0880001
-0.076361142 0.36828342 2.0880001
-0.065622859 0.36589715 2.0880003
-0.10340571 0.37584001 2.0880001
-0.095451429 0.37584001 2.0880003
-0.08550857 0.37584001 2.0880001
-0.075565726 0.37584004 2.0880003
-0.065622859 0.37584001 2.0880001
-0.12329143 0.38777143 2.0880001
-0.11533715 0.38777143 2.0880001
-0.10340571 0.38379431 2.0880001
-0.095451437 0.38180575 2.0880001
-0.087497145 0.38180572 2.0880001
-0.076228581 0.38578284 2.0880003
-0.065622859 0.3857829 2.0880003
-0.12329143 0.39572573 2.0880001
-0.11334857 0.39373714 2.0880001
-0.10340571 0.39373714 2.0880001
-0.099428572 0.39572573 2.0880001
-0.071588568 0.39373714 2.0880001
-0.10738286 0.40566859 2.0880001
-0.099428572 0.40368003 2.0880001
-0.071588568 0.40566859 2.0880001
-0.067611434 0.40566859 2.0880001
-0.075565718 0.41362286 2.0880001
-0.083519995 0.42953146 2.0880001
-0.075565718 0.42953146 2.0880001
-0.092800006 0.43616003 2.0880001
-0.08550857 0.43549713 2.0880001
-0.076891437 0.43616003 2.0880001
-0.10340571 0.44544002 2.0880001
-0.095451429 0.44544002 2.0880001
-0.08550857 0.44544002 2.0880003
-0.077952005 0.44464454 2.0880001
-0.095451437 0.45538288 2.0880003
-0.08550857 0.45538288 2.0880001
-0.077554286 0.45538288 2.0880001
-0.10340571 0.46134859 2.0880001
-0.094125718 0.46400005 2.0880003
-0.08550857 0.46532571 2.0880003
-0.076702043 0.46532571 2.0880003
-0.11334857 0.47725716 2.0880001
-0.10473143 0.47593147 2.0880001
-0.095451437 0.4752686 2.0880003
-0.08550857 0.47526857 2.0880001
-0.075565726 0.47526857 2.0880003
-0.067611434 0.47526857 2.0880001
-0.13389716 0.48786288 2.0880001
-0.12527999 0.48521143 2.0880003
-0.11583429 0.4847143 2.0880001
-0.10738286 0.48521143 2.0880001
-0.09445715 0.4862057 2.0880001
-0.083519995 0.48521146 2.0880001
-0.075565718 0.48521143 2.0880001
-0.065622859 0.48521146 2.0880003
-0.13124572 0.49515429 2.0880001
-0.12527999 0.49515426 2.0880001
-0.11931429 0.49316573 2.0880001
-0.083519995 0.49316573 2.0880001
-0.075565718 0.49515426 2.0880003
-0.063634284 0.49515429 2.0880001
-0.057668574 0.49515426 2.0880001
-0.037782855 0.49515429 2.0880001
-0.14516571 0.50708568 2.0880001
-0.1347257 0.50559431 2.0880001
-0.12527999 0.50509715 2.0880003
-0.11931429 0.50907427 2.0880001
-0.14317714 0.51305145 2.0880001
-0.13522287 0.51504004 2.0880001
-0.12527999 0.51504004 2.0880001
-0.11533715 0.51504004 2.0880003
-0.13124572 0.52100575 2.0880001
-0.1256777 0.52418745 2.0880001
-0.11533715 0.52299434 2.0880003
-0.10539429 0.52498287 2.0880003
-0.099428572 0.52895999 2.0880001
-0.10539428 0.5349257 2.0880001
-0.094656006 0.53452802 2.0880001
-0.08550857 0.53691429 2.0880001
-0.11334857 0.54288006 2.0880001
-0.10539428 0.54288 2.0880001
-0.093462855 0.54089147 2.0880001
-0.084845714 0.5422172 2.0880001
-0.30214381 0.084040001 2.1010001
-0.29347301 0.085373968 2.1010003
-0.28333488 0.085640751 2.1010001
0.084040001 0.088041902 2.1010003
0.09204381 0.088041902 2.1010001
-0.27413049 0.09204381 2.1010001
-0.26679367 0.094711743 2.1010003
0.062029526 0.096045718 2.1010001
0.076036192 0.09204381 2.1010001
0.080038093 0.09204381 2.1010001
-0.25212002 0.10004762 2.1010001
-0.24211524 0.10404953 2.1010001
-0.12205809 0.10805143 2.1010001
-0.11605524 0.10805143 2.1010001
