# .PCD v0.7 - Point Cloud Data file format
VERSION 0.7
FIELDS x y z
SIZE 4 4 4
TYPE F F F
COUNT 1 1 1
WIDTH 1466
HEIGHT 1
VIEWPOINT 0 0 0 1 0 0 0
POINTS 1466
DATA ascii
-0.31514478 0.1268038 1.9580001
-0.30656686 0.12456609 1.9580001
-0.29463241 0.12307428 1.9580001
-0.28530857 0.12307428 1.9580001
-0.27784953 0.12307428 1.9580001
0.085779049 0.12493904 1.9580001
-0.33317083 0.13674921 1.9580001
-0.32540095 0.13333048 1.9580001
-0.31514478 0.13053332 1.9580001
-0.30768573 0.13053332 1.9580001
0.076455235 0.13612762 1.9580001
0.082049526 0.13053332 1.9580001
-0.33379242 0.14545143 1.9580001
-0.32819813 0.14545143 1.9580001
0.073658094 0.14638381 1.9580001
-0.33192763 0.15477523 1.9580001
-0.32540095 0.15570761 1.9580001
0.06713143 0.15477523 1.9580001
0.072725713 0.15477523 1.9580001
-0.33472475 0.16503142 1.9580001
-0.32446858 0.16409905 1.9579999
-0.31514478 0.16596381 1.9580001
0.059672382 0.16036952 1.9580001
0.065266669 0.16036952 1.9580001
-0.32446855 0.1715581 1.9580001
-0.31514478 0.1715581 1.9580001
-0.30706415 0.17528763 1.9580001
-0.30395621 0.18274666 1.9580001
-0.012680381 0.5154202 1.9580001
-0.0055942861 0.51467431 1.9580001
0.0041957144 0.51514047 1.9580001
0.01367492 0.51591748 1.9580001
-0.30209145 0.52959239 1.9580001
-0.29463238 0.52959239 1.9580001
-0.27412 0.52959239 1.9580001
-0.26666096 0.52959239 1.9580001
-0.013985715 0.52493048 1.9580001
0.014918095 0.52213329 1.9580001
-0.30333465 0.53580827 1.9580001
-0.29463241 0.53518671 1.9580001
-0.28593016 0.53580827 1.9580001
-0.27412 0.53705144 1.9580001
-0.2647962 0.53518671 1.9580001
-0.31327999 0.54824001 1.9580001
-0.30432916 0.54600233 1.9580001
-0.29649717 0.54451048 1.9580001
-0.28530857 0.54451054 1.9580001
-0.27598473 0.54451054 1.9579999
-0.26586178 0.54397768 1.9580002
-0.25609398 0.54575366 1.9580001
-0.24801333 0.54824001 1.9580001
-0.32073903 0.55756378 1.9580001
-0.31551775 0.55495322 1.9580001
-0.30675337 0.55290192 1.9580001
-0.29649717 0.55196953 1.9580001
-0.28468698 0.55321276 1.9580001
-0.27598476 0.55569905 1.9579999
-0.2647962 0.55569905 1.9579999
-0.25609398 0.55321276 1.9580001
-0.31514478 0.56502289 1.9580001
-0.30955049 0.56502289 1.9580001
-0.29649717 0.56502289 1.9580001
-0.28468698 0.5656445 1.9580001
-0.27598476 0.56502289 1.9580001
-0.26852572 0.56315815 1.9580001
-0.31421238 0.57341433 1.9580001
-0.30731279 0.57285494 1.9580001
-0.29388651 0.57210892 1.9580001
-0.28530857 0.57434672 1.9580001
-0.27784953 0.57248187 1.9580001
-0.29276764 0.58180571 1.9580001
-0.28530857 0.5836705 1.9580001
-0.27673069 0.58777303 1.9580001
0.048756193 0.097512387 1.9690001
0.05250667 0.097512387 1.9690001
-0.2212781 0.10876381 1.9690001
-0.21377715 0.10751366 1.9690002
-0.20627619 0.10501334 1.9690001
0.048756193 0.10126286 1.9690001
0.054381907 0.10126286 1.9690001
0.063758098 0.1031381 1.9690001
0.075009525 0.10876381 1.9690002
-0.27190953 0.11626476 1.9690001
-0.26440859 0.11626476 1.9690001
-0.25690764 0.11626476 1.9690001
-0.24378097 0.11626476 1.9690002
-0.23252952 0.11251429 1.9690001
-0.22690383 0.11251429 1.9690001
0.085010797 0.11376445 1.9690002
-0.33004192 0.1275162 1.9690001
-0.32379115 0.12626605 1.9690002
-0.31503999 0.12189049 1.9690001
-0.3037886 0.12001525 1.9690002
-0.29441237 0.12001524 1.9690001
-0.28691143 0.12001524 1.9690001
0.08626096 0.12001524 1.9690001
-0.34129336 0.13689238 1.9690001
-0.33473 0.13220428 1.9690001
0.078760006 0.13876763 1.9690001
0.083760642 0.13501716 1.9690002
-0.34129336 0.14439334 1.9690001
0.078760006 0.14439334 1.9690001
0.082510479 0.14439334 1.9690001
-0.34129336 0.15001905 1.9690001
-0.33754286 0.15564477 1.9690001
0.078760006 0.15189429 1.9690001
0.084385723 0.15376952 1.9690001
-0.33629271 0.16502097 1.9690002
-0.32441622 0.17439716 1.9690001
-0.31504002 0.17627239 1.9690002
-0.31316477 0.18002287 1.9690001
-0.015939524 0.51381528 1.9690001
-0.0075009526 0.51006478 1.9690001
0 0.51381528 1.9690001
-0.29441237 0.52881718 1.9690001
-0.28428611 0.52731699 1.9690001
-0.27453488 0.52731699 1.9690001
-0.018752381 0.52506673 1.9690002
-0.29628763 0.53256768 1.9690001
-0.28428611 0.53406787 1.9690001
-0.27566004 0.53631812 1.9690001
-0.25315714 0.53631812 1.9690001
-0.24753144 0.53631812 1.9690001
-0.2812857 0.54006857 1.9690001
-0.26253334 0.54756957 1.9690001
-0.25503242 0.54381907 1.9690001
-0.26253334 0.55132002 1.9690001
-0.32254097 0.57757336 1.9690001
-0.3187905 0.57757336 1.9690001
-0.3187905 0.5813238 1.9690001
-0.28503621 0.58507431 1.9690001
-0.23194286 0.10937144 1.9800001
-0.22628573 0.10937144 1.9800001
0.066000007 0.10182858 1.9800001
0.071657151 0.10560001 1.9800001
0.082971431 0.10937144 1.9800001
-0.32434291 0.11691429 1.9800003
-0.31491429 0.11691429 1.9800001
-0.30548573 0.11691429 1.9800003
-0.29417145 0.11691429 1.9800003
-0.28474289 0.11691429 1.9800001
-0.2753143 0.11440001 1.9800003
-0.26777145 0.11314286 1.9800001
-0.25457144 0.11314286 1.9800001
-0.24514288 0.11314287 1.9800003
-0.23760001 0.11314286 1.9800001
0.090514295 0.11502858 1.9800001
-0.3432 0.12634286 1.9800001
-0.33565718 0.12508573 1.9800003
-0.32528573 0.12162858 1.9800001
0.092400007 0.12351429 1.9800001
-0.3432 0.132 1.9800001
0.086742863 0.13577144 1.9800001
0.090514295 0.132 1.9800001
-0.34697145 0.14520001 1.9800001
0.086742863 0.14520001 1.9800001
0.084857151 0.15085715 1.9800001
-0.34571433 0.16720001 1.9800003
-0.3281143 0.17725715 1.9800001
-0.32057145 0.18102859 1.9800001
-0.011314287 0.50914288 1.9800001
-0.0037714287 0.50914288 1.9800001
0 0.50914288 1.9800001
-0.01697143 0.51291436 1.9800001
-0.0037714287 0.51291436 1.9800001
0.0018857144 0.51291436 1.9800001
-0.2753143 0.52422863 1.9800001
-0.24514288 0.528 1.9800003
-0.25457144 0.53365719 1.9800001
-0.24514288 0.53554291 1.9800003
-0.24608573 0.54402858 1.9800001
-0.32057145 0.58834291 1.9800001
-0.28285718 0.58645719 1.9800001
-0.27908573 0.58645719 1.9800001
0.056914289 0.098651432 1.9920001
0.060708575 0.098651432 1.9920001
-0.22386287 0.10624 1.9920001
0.075885728 0.10497525 1.9920001
-0.34338287 0.11762286 1.9920001
-0.33465603 0.11534629 1.9920002
-0.32441145 0.11382858 1.9920001
-0.31492573 0.11288 1.9920001
-0.30480763 0.11256381 1.9920001
-0.29595432 0.11193144 1.9920003
-0.2853303 0.11231086 1.9920002
-0.27508572 0.11003429 1.9920001
-0.26560003 0.11256381 1.9920001
-0.25231999 0.11003429 1.9920001
-0.24473144 0.11003429 1.9920001
-0.23904002 0.11003429 1.9920001
0.087268576 0.11003429 1.9920001
0.09359239 0.11382858 1.9920001
-0.35286859 0.12710857 1.9920001
-0.3462286 0.12426287 1.9920001
-0.33769146 0.12141715 1.9920001
0.097386673 0.12521145 1.9920001
-0.35413337 0.13532953 1.9920001
-0.3490743 0.13469714 1.9920001
0.09296 0.13469714 1.9920001
-0.37184 0.14608002 1.9920001
-0.3543863 0.14494172 1.9920002
-0.3490743 0.14038858 1.9920001
0.087268576 0.14038858 1.9920001
0.091062866 0.14418288 1.9920001
-0.37184 0.15177144 1.9920001
-0.35381716 0.15651429 1.9920001
-0.34755659 0.15632458 1.9920002
0.091062859 0.15556572 1.9920001
-0.35413337 0.16441905 1.9920001
-0.34717715 0.16315429 1.9920001
-0.041737143 0.48756576 1.9920001
-0.043634284 0.49515432 1.9920001
-0.01897143 0.49515432 1.9920001
-0.22006857 0.5084343 1.9920001
-0.043634288 0.50084573 1.9920001
-0.016441908 0.50590479 1.9920001
-0.0075885719 0.5084343 1.9920001
-0.28077716 0.51981717 1.9920001
-0.27508572 0.51981717 1.9920001
-0.25421715 0.51981723 1.9920001
-0.24473144 0.51981717 1.9920001
-0.22006857 0.51222861 1.9920001
-0.024662858 0.51602286 1.9920003
-0.017074287 0.51222861 1.9920001
-0.0075885719 0.51222861 1.9920001
-0.28204191 0.5248763 1.9920001
-0.27445334 0.52487624 1.9920001
-0.26560003 0.52645719 1.9920001
-0.25421715 0.52550864 1.9920003
-0.24473144 0.52550864 1.9920001
-0.23524573 0.52740574 1.9920001
-0.22006857 0.52550864 1.9920001
-0.21627429 0.52740574 1.9920001
-0.022765715 0.52361149 1.9920001
-0.27318859 0.53119999 1.9920001
-0.26560003 0.53309715 1.9920003
-0.2561143 0.53119999 1.9920001
-0.2428343 0.5349943 1.9920001
-0.23632981 0.53553641 1.9920003
-0.22386287 0.53878868 1.9920001
-0.21437715 0.53878862 1.9920001
-0.20868573 0.53878862 1.9920001
-0.23524573 0.54448003 1.9920003
-0.22386287 0.54353142 1.9920001
-0.21437715 0.54258287 1.9920001
-0.24473144 0.55017149 1.9920001
-0.23714286 0.55017149 1.9920001
0.068674289 0.099196188 2.003
-0.34337142 0.10682666 2.003
-0.33574098 0.10682666 2.003
-0.32429525 0.10682666 2.003
-0.31475717 0.10682666 2.003
-0.30521905 0.10682666 2.003
-0.29568094 0.10682666 2.003
-0.28614289 0.10682666 2.003
-0.27469715 0.10682666 2.003
-0.26706669 0.10682666 2.003
-0.25371334 0.10682666 2.003
-0.24417526 0.10682666 2.003
-0.23400128 0.10555492 2.003
-0.22891429 0.10301143 2.003
-0.21746856 0.10682666 2.003
0.076304764 0.10301143 2.003
0.085842855 0.10682666 2.003
-0.35386333 0.11731858 2.003
-0.34527904 0.11254953 2.003
-0.33574098 0.1106419 2.003
-0.32429525 0.1106419 2.003
-0.31284952 0.1106419 2.003
-0.30903429 0.1106419 2.003
-0.28232762 0.1106419 2.003
-0.26515907 0.1106419 2.003
-0.25943619 0.1106419 2.003
0.097924441 0.11445715 2.003
0.10301143 0.11827239 2.003
-0.36435524 0.12781048 2.003
-0.35634324 0.12437677 2.003
0.099196188 0.1297181 2.003
0.10428318 0.12463112 2.003
-0.38152382 0.13544096 2.003
-0.37198573 0.13544096 2.003
-0.36435527 0.13544096 2.003
-0.35863239 0.13353334 2.003
0.097924441 0.13607684 2.003
-0.38152382 0.14307143 2.003
-0.37389335 0.14443403 2.0030003
-0.36435527 0.14497906 2.0030003
-0.35863239 0.14116381 2.003
0.095380954 0.14497906 2.003
-0.37007809 0.15260953 2.003
-0.36435524 0.15451714 2.003
-0.35863239 0.15451714 2.003
0.094109207 0.15388128 2.003
-0.3637194 0.16151175 2.003
-0.11700064 0.2238273 2.003
-0.04451111 0.485807 2.003
-0.034337148 0.48644286 2.0030003
-0.024799047 0.48835048 2.003
-0.24417524 0.49788857 2.003
-0.22509904 0.49216568 2.003
-0.053413332 0.49788857 2.003
-0.048644286 0.49502712 2.003
-0.034337144 0.49598095 2.003
-0.024799049 0.49598095 2.0030003
-0.013353335 0.49788857 2.003
-0.0076304763 0.49788857 2.003
-0.25562096 0.50742668 2.003
-0.24417526 0.50742668 2.003
-0.23463714 0.50742668 2.003
-0.22433601 0.50590056 2.003
-0.21746856 0.50742668 2.003
-0.049598094 0.50361145 2.003
-0.034337144 0.50551909 2.0030003
-0.024799049 0.50551909 2.003
-0.014497906 0.50590056 2.003
-0.0076304763 0.50551903 2.003
-0.27469715 0.51696479 2.0030003
-0.26515907 0.51696479 2.003
-0.25562096 0.51505709 2.003
-0.24417523 0.51505715 2.003
-0.23463717 0.51505721 2.0030003
-0.22618914 0.51560223 2.0030003
-0.21651475 0.51410335 2.003
-0.033792108 0.51396704 2.0030003
-0.024799047 0.51124191 2.003
-0.015260953 0.51124191 2.003
-0.27088189 0.52459526 2.003
-0.26452321 0.5239594 2.003
-0.24036001 0.52459526 2.003
-0.23463716 0.52459526 2.003
-0.2258621 0.52421373 2.003
-0.21556094 0.52459526 2.003
-0.20856635 0.52523112 2.003
-0.23272952 0.53604096 2.003
-0.22557595 0.53461021 2.003
-0.21517943 0.53489637 2.003
-0.20729463 0.53286159 2.0030003
-0.22509906 0.54939431 2.003
-0.21746856 0.54939431 2.003
-0.23400128 0.55575299 2.003
-0.22605285 0.55416328 2.003
-0.34542859 0.099790484 2.0150001
0.065247618 0.099790484 2.0150001
0.074842863 0.099790484 2.0150001
-0.3550238 0.10746667 2.0150001
-0.34542859 0.10490795 2.0150001
-0.33391434 0.10362859 2.0150001
-0.32431906 0.10362858 2.0150001
-0.31472385 0.10362859 2.0150001
-0.30512857 0.10362858 2.0150001
-0.29553336 0.10362859 2.0150001
-0.28401905 0.10362859 2.0150001
-0.27442384 0.10362858 2.0150001
-0.26482856 0.10554762 2.0150001
-0.25331429 0.10362858 2.0150001
-0.2456381 0.10362859 2.0150001
-0.23796192 0.10362858 2.0150001
0.084438108 0.10362859 2.0150001
0.095952392 0.10554763 2.0150003
-0.36461908 0.11770159 2.0150001
-0.35566351 0.11258414 2.0150001
0.099790484 0.11130476 2.0150001
0.10490794 0.11514287 2.0150001
-0.37421429 0.12665714 2.0150001
-0.36653811 0.12281905 2.0150001
0.10746667 0.12281905 2.0150001
0.11258414 0.12537777 2.0150001
-0.38380954 0.13049524 2.0150001
-0.37766862 0.13279811 2.0150001
0.10554763 0.13433334 2.0150003
0.11459456 0.13542993 2.0150003
0.099790484 0.14392859 2.0150001
0.10554762 0.14200953 2.0150001
0.11514287 0.14296906 2.0150001
0.099790484 0.15544286 2.0150001
0.10554763 0.15544286 2.0150001
-0.11130476 0.21877143 2.0150001
-0.10554762 0.21493337 2.0150003
-0.099790484 0.21877143 2.0150001
-0.11418334 0.22548811 2.0150001
-0.10554762 0.22260952 2.0150001
-0.099790484 0.22260952 2.0150001
-0.11770159 0.23412383 2.0150001
-0.2456381 0.49895239 2.0150001
-0.2315651 0.49767303 2.0150001
-0.2238889 0.49767303 2.0150001
-0.21877143 0.49511433 2.0150001
-0.049895242 0.4912762 2.0150001
-0.25459367 0.50534928 2.0150001
-0.24563812 0.50509334 2.0150001
-0.23412383 0.50470954 2.0150003
-0.22452858 0.50279051 2.0150001
-0.21493334 0.50566906 2.0150001
-0.20725715 0.50662857 2.0150001
-0.2126305 0.51430476 2.0150001
-0.20725715 0.51430476 2.0150001
-0.21301429 0.52198094 2.0150001
-0.20533812 0.52581906 2.0150001
-0.19958097 0.52965713 2.0150001
-0.19574288 0.53349531 2.0150001
-0.18422858 0.53349531 2.0150001
-0.17655239 0.53349525 2.0150001
0.065636203 0.096523814 2.0270002
0.077219054 0.096523814 2.0270002
0.092662863 0.096523814 2.0270002
-0.3667905 0.10038476 2.0270002
-0.35520765 0.10424572 2.0270002
-0.3436248 0.10038476 2.0270002
-0.26254478 0.10424572 2.0270002
-0.25868383 0.10424572 2.0270002
0.084940962 0.10038476 2.0270002
0.094593339 0.10038476 2.0270002
0.10295874 0.10424572 2.0270002
-0.38223431 0.11968953 2.0270002
-0.3745124 0.11840256 2.0270002
-0.36550352 0.11325461 2.0270002
0.10810667 0.1138981 2.0270002
0.11196762 0.11968953 2.0270002
-0.38352129 0.12612447 2.0270002
-0.37644288 0.12355049 2.0270002
0.11775906 0.12548096 2.0270002
0.12355049 0.12741144 2.0270002
0.11775906 0.13127239 2.0270002
0.12355049 0.13320287 2.0270002
0.1061762 0.14671621 2.0270002
0.11196762 0.14671621 2.0270002
0.10424572 0.15057716 2.0270002
0.11196762 0.15057716 2.0270002
-0.10810667 0.22779621 2.0270002
-0.09523683 0.22136128 2.0270002
-0.088801913 0.2200743 2.0270002
-0.1138981 0.23358764 2.0270002
-0.23744859 0.49806291 2.0270002
-0.20849144 0.49806291 2.0270002
-0.17374288 0.49420196 2.0270002
-0.16988192 0.49420196 2.0270002
-0.050192382 0.49034098 2.0270002
-0.23937906 0.5019238 2.0270002
-0.2200743 0.50385427 2.0270002
-0.21363938 0.50321078 2.0270002
-0.20720446 0.50578475 2.0270002
-0.20463049 0.51640242 2.0270002
-0.19304763 0.51736766 2.0270002
-0.18532573 0.51543719 2.0270004
-0.20231393 0.52431738 2.0270002
-0.19401287 0.5260548 2.0270002
-0.18642886 0.52564114 2.0270004
-0.17760383 0.52895051 2.0270002
-0.1949781 0.53281146 2.0270002
-0.18532573 0.53281152 2.0270002
-0.17567335 0.53281146 2.0270002
-0.16988192 0.53281146 2.0270002
-0.19304763 0.54053336 2.0270002
-0.18532573 0.54053336 2.0270002
-0.34565905 0.097095244 2.039
0.066024765 0.097095244 2.039
0.073792383 0.097095244 2.039
0.085443817 0.097095244 2.039
0.095153332 0.095153332 2.039
0.10097905 0.097095244 2.039
-0.39226478 0.10874667 2.039
-0.38643909 0.10874667 2.039
-0.37284571 0.10874667 2.039
-0.36702001 0.10680477 2.039
-0.35536855 0.10097905 2.039
-0.34177524 0.10097905 2.039
-0.33789143 0.10097905 2.039
0.10745206 0.10486286 2.039
0.11263048 0.10874667 2.039
-0.39226478 0.11457238 2.039
-0.38449717 0.11457238 2.039
-0.37543494 0.11392508 2.039
0.11263048 0.11457238 2.039
-0.39226478 0.12428191 2.039
-0.38838097 0.12234001 2.039
0.11651429 0.1203981 2.039
0.12525287 0.12525287 2.039
-0.10486286 0.22914477 2.039
-0.093211427 0.22526096 2.039
-0.089327618 0.22526096 2.039
-0.11263048 0.23691238 2.039
-0.19030666 0.48936 2.039
-0.18448095 0.48936 2.039
-0.17865524 0.48936 2.039
-0.19030666 0.49518573 2.039
-0.18448095 0.49518573 2.039
-0.17865524 0.49518573 2.039
-0.15341046 0.49324381 2.039
-0.20428836 0.50489527 2.039
-0.1918602 0.50567198 2.039
-0.18448095 0.50489521 2.039
-0.17428595 0.50538075 2.0389998
-0.16570921 0.5023061 2.039
-0.073792383 0.50683713 2.039
-0.06796667 0.50683713 2.039
-0.20195809 0.51460481 2.039
-0.19496725 0.51421642 2.039
-0.18448095 0.51266289 2.039
-0.06796667 0.51460481 2.039
-0.19807428 0.52431428 2.039
-0.18253905 0.5262562 2.039
-0.1755482 0.52664465 2.039
-0.16506191 0.52819812 2.039
-0.15535238 0.52625626 2.039
-0.14758477 0.5262562 2.039
-0.075734288 0.52819812 2.039
-0.06796667 0.52431434 2.039
-0.17282954 0.53208196 2.039
-0.16506191 0.53208196 2.039
-0.15923619 0.53208196 2.039
-0.073792383 0.53208196 2.039
-0.06796667 0.53208196 2.039
-0.20389999 0.5437333 2.039
-0.19419047 0.5437333 2.039
0.089853339 0.089853339 2.0510001
0.093760006 0.089853339 2.0510001
-0.35550672 0.097666666 2.0510001
-0.34378669 0.097666666 2.0510001
0.07422667 0.093760006 2.0510001
0.085946672 0.093760006 2.0510001
0.097666666 0.093760006 2.0510001
0.10548 0.095713332 2.0510001
0.11329334 0.097666666 2.0510001
-0.38285336 0.10938667 2.0510001
-0.37699336 0.10743333 2.0510001
-0.36332002 0.10157334 2.0510001
-0.33402002 0.10157334 2.0510001
-0.32425338 0.10157334 2.0510001
-0.31448668 0.10157334 2.0510001
-0.29300001 0.10157334 2.0510001
-0.28518671 0.10157334 2.0510001
-0.27542001 0.10157334 2.0510001
0.027346667 0.10548 2.0510001
0.10938667 0.10157334 2.0510001
0.11589777 0.10678222 2.0510001
0.12110668 0.10938667 2.0510001
0.1172 0.11524667 2.0510001
0.12110668 0.11329334 2.0510001
0.12306 0.12110668 2.0510001
-0.10678222 0.2344 2.0510001
-0.095713332 0.23049335 2.0510001
-0.1172 0.24221335 2.0510001
-0.076180004 0.30081335 2.0510001
-0.19533333 0.49614671 2.0510001
-0.095713332 0.49614671 2.0510001
-0.20314668 0.50396001 2.0510001
-0.19767736 0.50317872 2.0510004
-0.17970668 0.50396001 2.0510001
-0.16408001 0.50786668 2.0510001
-0.15626667 0.50005335 2.0510001
-0.10352667 0.50005335 2.0510001
-0.095062226 0.50396001 2.0510001
-0.085946672 0.50591338 2.0510004
-0.07552889 0.50526226 2.0510001
-0.066413336 0.50396001 2.0510001
-0.19924001 0.51177341 2.0510001
-0.17580001 0.51763338 2.0510004
-0.16408001 0.51568002 2.0510004
-0.15431334 0.51568002 2.0510001
-0.085458338 0.51519167 2.0510004
-0.076570675 0.51646131 2.0510004
-0.17482334 0.52447003 2.0510001
-0.16408001 0.52544665 2.0510001
-0.15431334 0.52349335 2.0510001
-0.093760006 0.52740002 2.0510001
-0.085946672 0.52544665 2.0510004
-0.076180004 0.52544665 2.0510001
-0.095713332 0.53130668 2.0510001
-0.085946672 0.53130668 2.0510001
0.084484771 0.086449534 2.0630002
-0.34186861 0.098238103 2.0630002
-0.33204478 0.098238103 2.0630002
-0.29274958 0.098238103 2.0630002
-0.28489047 0.098238103 2.0630002
0.078590482 0.090379059 2.0630002
0.084484771 0.090379059 2.0630002
-0.38116384 0.10609715 2.0630002
-0.36937526 0.10216763 2.0630002
-0.3104324 0.10216763 2.0630002
-0.30453813 0.10216763 2.0630002
-0.29864383 0.10216763 2.0630002
-0.27113718 0.10216763 2.0630002
-0.26720765 0.10216763 2.0630002
0.019647621 0.10609715 2.0630002
0.023577144 0.10609715 2.0630002
0.11592097 0.10216763 2.0630002
0.12378001 0.11788572 2.0630002
-0.10609715 0.23773621 2.0630002
-0.11395621 0.2436305 2.0630002
-0.072696194 0.29864383 2.0630002
-0.070731431 0.30257335 2.0630002
-0.14146286 0.49119052 2.0630002
-0.11788572 0.4990496 2.0630002
-0.10413238 0.49512002 2.0630002
-0.094308577 0.49446511 2.0630002
-0.11788572 0.50494385 2.0630002
-0.10413238 0.5069086 2.0630002
-0.094308585 0.50428891 2.0630002
-0.16111049 0.51083815 2.0630002
-0.10413238 0.51083815 2.0630002
-0.096666299 0.51555359 2.0630002
-0.16896954 0.52655619 2.0630002
-0.1552162 0.5226267 2.0630002
-0.095094495 0.52419847 2.0630002
-0.10347747 0.53310549 2.0630002
-0.098238103 0.53048575 2.0630002
0.16608001 -0.11269715 2.0760002
0.17003429 -0.11269715 2.0760002
0.075131431 0.08699429 2.0760002
-0.3430343 0.095891431 2.0760002
-0.33413717 0.094902866 2.0760002
-0.32425147 0.098857149 2.0760002
-0.3123886 0.098857149 2.0760002
-0.30448002 0.098857149 2.0760002
-0.28470859 0.096880004 2.0760002
0.067222863 0.092925727 2.0760002
0.073154293 0.090948582 2.0760002
-0.26296002 0.10281144 2.0760002
-0.25702861 0.10281144 2.0760002
0.027680002 0.10281144 2.0760002
-0.10281144 0.23725717 2.0760002
-0.094902866 0.23593907 2.0760002
-0.08699429 0.23330288 2.0760002
-0.11072001 0.24516572 2.0760002
-0.10478858 0.24318859 2.0760002
-0.096880004 0.24121146 2.0760002
-0.075131439 0.29657146 2.0760002
-0.077767633 0.30579811 2.0760002
-0.10281144 0.47846863 2.0760002
-0.098857149 0.47846863 2.0760002
-0.10281144 0.48440003 2.0760002
-0.094902873 0.48440003 2.0760002
-0.085017145 0.48637718 2.0760002
-0.074340582 0.48479548 2.0760002
-0.14499049 0.49692196 2.0760002
-0.1384 0.49626291 2.0760002
-0.12258286 0.49626291 2.0760002
-0.11467429 0.49478003 2.0760002
-0.10478858 0.49033144 2.0760002
-0.093914293 0.49132001 2.0760002
-0.085017145 0.49033144 2.0760002
-0.079085723 0.49033144 2.0760002
-0.15224001 0.50614864 2.0760002
-0.14433144 0.50417149 2.0760002
-0.1384 0.50614864 2.0760002
-0.12258286 0.50417149 2.0760002
-0.11269715 0.50417149 2.0760002
-0.16212574 0.51010287 2.0760002
-0.15421715 0.51405716 2.0760002
-0.14235429 0.51010287 2.0760002
-0.13049147 0.51405722 2.0760002
-0.12456001 0.51405716 2.0760002
-0.1146743 0.51405716 2.0760002
-0.10478858 0.51801145 2.0760002
-0.15026288 0.5219658 2.0760002
-0.13049145 0.52394295 2.0760002
-0.12456001 0.52394295 2.0760002
-0.116256 0.5251292 2.0760002
-0.10478859 0.52592003 2.0760002
-0.12258286 0.53580576 2.0760002
-0.11467429 0.53580582 2.0760002
-0.10676572 0.53382862 2.0760002
0.16703999 -0.10738286 2.0880001
0.17101716 -0.10738286 2.0880001
0.16505143 -0.075565726 2.0880003
0.17101716 -0.073577143 2.0880001
0.14317714 -0.063634284 2.0880001
0.16505143 -0.065622859 2.0880001
0.17101716 -0.065622859 2.0880001
0.14450286 -0.054354288 2.0880001
0.14317714 -0.047725715 2.0880001
-0.33407998 0.087497145 2.0880001
0.075565718 0.087497145 2.0880001
-0.34203431 0.091474287 2.0880001
-0.33308572 0.092468575 2.0880001
-0.32413715 0.095451429 2.0880001
-0.31817144 0.099428572 2.0880001
-0.30623999 0.099428572 2.0880001
-0.29629713 0.095451429 2.0880001
-0.28635427 0.095451429 2.0880001
-0.2784 0.099428572 2.0880001
0.045737144 0.099428572 2.0880001
0.055679999 0.099428572 2.0880001
0.063634284 0.095451429 2.0880001
-0.25453714 0.10340571 2.0880001
-0.20482287 0.10738286 2.0880001
0.035794288 0.10340571 2.0880001
0.045737144 0.10340571 2.0880001
-0.091474287 0.23862858 2.0880001
-0.08550857 0.23862858 2.0880001
-0.10340571 0.24658287 2.0880001
-0.094457142 0.24558857 2.0880001
-0.086171433 0.24393144 2.0880001
-0.07954286 0.24260572 2.0880001
-0.11401144 0.25321144 2.0880003
-0.10539427 0.25453717 2.0880003
-0.096587762 0.25510532 2.0880003
-0.11136 0.26447999 2.0880001
-0.10539428 0.26448002 2.0880001
-0.095451429 0.26448002 2.0880003
-0.08550857 0.26448002 2.0880001
-0.07954286 0.26447999 2.0880001
-0.13124572 0.27641141 2.0880001
-0.12527999 0.27641144 2.0880001
-0.11533715 0.27492002 2.0880001
-0.10539427 0.27442288 2.0880003
-0.095451437 0.27442285 2.0880001
-0.08550857 0.27442285 2.0880003
-0.07954286 0.27442288 2.0880001
-0.13124572 0.28237715 2.0880001
-0.12527999 0.28436571 2.0880001
-0.11533715 0.28436571 2.0880003
-0.10539428 0.28436571 2.0880001
-0.095451437 0.28436571 2.0880003
-0.08550857 0.28436571 2.0880001
-0.076361142 0.283968 2.0880001
-0.10340571 0.2943086 2.0880001
-0.095451437 0.29430857 2.0880001
-0.08550857 0.2943086 2.0880003
-0.075565726 0.29232001 2.0880003
-0.10340571 0.30425143 2.0880001
-0.095451437 0.30425143 2.0880003
-0.08550857 0.30425143 2.0880001
-0.10439999 0.31419429 2.0880001
-0.095451437 0.31419432 2.0880001
-0.08550857 0.31419429 2.0880003
-0.077554286 0.31618285 2.0880001
-0.091474287 0.32612571 2.0880001
-0.084845714 0.32347429 2.0880001
-0.077554286 0.32413715 2.0880001
-0.091474287 0.33209142 2.0880001
-0.085110858 0.33487543 2.0880001
-0.11334857 0.34998858 2.0880001
-0.099428572 0.34998858 2.0880001
-0.11334857 0.3539657 2.0880001
-0.10539428 0.3539657 2.0880001
-0.096445717 0.35495996 2.0880001
-0.086171433 0.35661715 2.0880001
-0.095451437 0.36987433 2.0880001
-0.087497145 0.36788571 2.0880001
-0.092800006 0.37517715 2.0880001
-0.087497145 0.37584001 2.0880001
-0.092800006 0.39638859 2.0880001
-0.087497145 0.39771429 2.0880001
-0.091474287 0.40566859 2.0880001
-0.087497145 0.40566859 2.0880001
-0.091474287 0.41362286 2.0880001
-0.087497145 0.41362286 2.0880001
-0.073577143 0.41561145 2.0880001
-0.067611434 0.41561145 2.0880001
-0.091474287 0.45538288 2.0880001
-0.10340571 0.46532571 2.0880001
-0.094954289 0.46582285 2.0880001
-0.08550857 0.46930286 2.0880001
-0.07954286 0.46930286 2.0880001
-0.11334857 0.47725716 2.0880001
-0.10539428 0.47526857 2.0880001
-0.095451437 0.47526857 2.0880003
-0.08550857 0.47526857 2.0880001
-0.076361142 0.47566628 2.0880001
-0.12329143 0.48720002 2.0880001
-0.11484001 0.48570859 2.0880001
-0.10738286 0.48521146 2.0880001
-0.093462855 0.48123431 2.0880001
-0.08550857 0.48322287 2.0880001
-0.076560006 0.48222858 2.0880001
-0.065622859 0.48322287 2.0880001
-0.059657145 0.48322287 2.0880001
-0.13323429 0.49714285 2.0880001
-0.12594286 0.49449143 2.0880001
-0.11533715 0.49316573 2.0880001
-0.13408655 0.50509715 2.0880003
-0.12726858 0.50509715 2.0880001
-0.14582857 0.5157029 2.0880001
-0.13721144 0.51504004 2.0880001
-0.14516571 0.52299428 2.0880001
-0.13721144 0.52299428 2.0880001
-0.11136 0.52498287 2.0880001
-0.13124572 0.5349257 2.0880001
-0.12594286 0.5342629 2.0880001
-0.11533715 0.53293717 2.0880001
0.14406857 -0.13206285 2.1010001
0.13606477 -0.12005714 2.1010001
0.14506903 -0.12305857 2.1010001
0.15340635 -0.12672698 2.1010003
0.16457833 -0.12355882 2.1010001
0.1720819 -0.12606001 2.1010001
0.12806095 -0.11205333 2.1010001
0.13606477 -0.11405428 2.1010001
0.14406857 -0.11405428 2.1010001
0.15207238 -0.11405428 2.1010001
0.16207714 -0.11405428 2.1010001
0.12806097 -0.10404953 2.1010003
0.13406381 -0.10404953 2.1010001
0.14406855 -0.10404953 2.1010001
0.1640781 -0.10404953 2.1010001
0.1720819 -0.10204858 2.1010001
0.12606001 -0.09404476 2.1010001
0.13406381 -0.094044767 2.1010001
0.14406858 -0.094044767 2.1010001
0.16674602 -0.093377784 2.1010003
0.1720819 -0.09404476 2.1010001
0.12646019 -0.083239622 2.1010001
0.13406381 -0.084040001 2.1010001
0.14406855 -0.084040001 2.1010001
0.15507381 -0.08504048 2.1010001
0.16350639 -0.085183404 2.1010001
0.1720819 -0.086040951 2.1010001
0.12485943 -0.073635049 2.1010001
0.13406381 -0.074035242 2.1010001
0.14406858 -0.074035242 2.1010001
0.15407333 -0.074035242 2.1010001
0.16007619 -0.074035242 2.1010001
0.11605524 -0.064030476 2.1010003
0.12405906 -0.064030476 2.1010001
0.13406381 -0.064030476 2.1010001
0.14406858 -0.064602181 2.1010001
0.15407333 -0.064030483 2.1010001
0.16247734 -0.062429715 2.1010001
0.11605524 -0.054025717 2.1010001
0.12405905 -0.054025717 2.1010001
0.13406381 -0.054025717 2.1010001
0.14306809 -0.055026192 2.1010001
0.15407333 -0.054025717 2.1010001
0.1640781 -0.054025717 2.1010001
0.11605524 -0.044020951 2.1010003
0.12405906 -0.044020951 2.1010001
0.13406381 -0.044020951 2.1010001
0.14406857 -0.043520711 2.1010001
0.15407333 -0.044020958 2.1010001
0.16007619 -0.044020951 2.1010003
0.12485944 -0.034416385 2.1010001
0.13406381 -0.034016192 2.1010001
0.14406857 -0.034016192 2.1010001
0.15407333 -0.034016192 2.1010001
0.12405906 -0.024011429 2.1010001
0.13406381 -0.024011429 2.1010001
0.14356834 -0.024511665 2.1010001
0.15407333 -0.028013334 2.1010001
0.12405905 -0.014006667 2.1010001
0.13406381 -0.014006667 2.1010001
0.14326818 -0.014406857 2.1010001
0.12606001 -0.0060028573 2.1010001
0.13606477 -0.0060028573 2.1010001
-0.34016192 0.088041902 2.1010001
-0.33415908 0.086040951 2.1010001
-0.32615525 0.088041902 2.1010001
0.062029526 0.088041902 2.1010001
-0.32315382 0.093044281 2.1010001
-0.31414953 0.09404476 2.1010001
-0.30614573 0.096045718 2.1010001
-0.29413998 0.09204381 2.1010001
-0.28413525 0.096045718 2.1010001
0.046688892 0.094711743 2.1010003
0.054025717 0.09404476 2.1010001
0.061362542 0.093377784 2.1010003
-0.27413049 0.10004762 2.1010001
-0.26612666 0.10004762 2.1010001
-0.25412095 0.10204858 2.1010001
-0.24411619 0.10404953 2.1010001
-0.22410667 0.10805143 2.1010001
-0.12005714 0.10805143 2.1010001
0.024011429 0.10271557 2.1010003
0.034016192 0.10004762 2.1010001
0.040019047 0.10004762 2.1010001
0.056026667 0.10004762 2.1010001
-0.19409239 0.11605524 2.1010001
-0.18608856 0.11605524 2.1010001
0.0026679365 0.11472127 2.1010003
-0.12005714 0.12005714 2.1010001
-0.082039043 0.2481181 2.1010001
-0.076036192 0.2481181 2.1010001
-0.12205809 0.2561219 2.1010001
-0.09204381 0.25412095 2.1010001
-0.084040001 0.25412095 2.1010001
-0.076036192 0.25412095 2.1010001
-0.12205811 0.2641257 2.1010001
-0.11605524 0.26412573 2.1010003
-0.084040001 0.26012382 2.1010003
-0.074035242 0.26412576 2.1010001
-0.068032384 0.26812762 2.1010001
-0.12606001 0.27212954 2.1010001
-0.11605524 0.27212954 2.1010001
-0.074035242 0.27413049 2.1010001
-0.068032384 0.27413049 2.1010001
-0.073368259 0.28280127 2.1010003
-0.068032384 0.28413528 2.1010003
-0.12405904 0.29413998 2.1010001
-0.11405428 0.29413998 2.1010001
-0.10805143 0.29413998 2.1010001
-0.12105762 0.30314431 2.1010001
-0.11405428 0.3041448 2.1010001
-0.10805143 0.3041448 2.1010003
-0.13206285 0.31615049 2.1010001
-0.12405905 0.3141495 2.1010001
-0.11405428 0.31414953 2.1010001
-0.10805143 0.31214857 2.1010001
-0.13206285 0.32415429 2.1010001
-0.1245593 0.32365406 2.1010001
-0.11405428 0.32215333 2.1010001
-0.10462122 0.32529771 2.1010001
-0.094711743 0.32548827 2.1010003
-0.088041902 0.3281562 2.1010001
-0.12485943 0.33455926 2.1010001
-0.11605524 0.33415908 2.1010001
-0.10404953 0.33415908 2.1010001
-0.096045718 0.33415908 2.1010001
-0.082706034 0.3334921 2.1010003
-0.076036192 0.33415908 2.1010001
-0.12245829 0.34496421 2.1010001
-0.11445447 0.34496421 2.1010001
-0.10404953 0.34416384 2.1010001
-0.094044767 0.34416384 2.1010001
-0.083468296 0.34530723 2.1010001
-0.075035721 0.3451643 2.1010001
-0.12325867 0.35456878 2.1010001
-0.10605048 0.35216761 2.1010001
-0.09404476 0.35216761 2.1010001
-0.083239622 0.35376841 2.1010001
-0.074035242 0.35416859 2.1010001
-0.068032384 0.35616955 2.1010001
-0.12105762 0.36317286 2.1010001
-0.11405428 0.36417335 2.1010001
-0.10454977 0.36467361 2.1010001
-0.094044767 0.36417338 2.1010001
-0.082706034 0.36484036 2.1010001
-0.074035242 0.36417335 2.1010001
-0.066031426 0.36417335 2.1010001
-0.12005714 0.37217715 2.1010001
-0.1133873 0.37351114 2.1010003
-0.10484991 0.3745783 2.1010001
-0.082039051 0.37417811 2.1010001
-0.074035242 0.37417811 2.1010001
-0.11305381 0.38418287 2.1010001
-0.10404951 0.3841829 2.1010001
-0.094444953 0.38498327 2.1010001
-0.083539754 0.38468313 2.1010001
-0.076036192 0.38018095 2.1010001
-0.11205333 0.39218667 2.1010001
-0.10404953 0.39418763 2.1010001
-0.094711743 0.39352065 2.1010003
-0.086040944 0.39418763 2.1010001
-0.11205333 0.40219143 2.1010001
-0.10404953 0.40419239 2.1010001
-0.096045718 0.40619332 2.1010001
-0.082439236 0.40499279 2.1010001
-0.074035242 0.40819427 2.1010001
-0.10404953 0.41419715 2.1010001
-0.096045718 0.41419715 2.1010001
-0.082039043 0.41419715 2.1010001
-0.074035242 0.41219619 2.1010001
-0.1133873 0.42286795 2.1010003
-0.10404953 0.42420194 2.1010001
-0.094044767 0.42420194 2.1010001
-0.084040001 0.42420194 2.1010001
-0.074035242 0.42620286 2.1010001
-0.066031426 0.42620289 2.1010001
-0.10404953 0.43420669 2.1010001
-0.09404476 0.43420666 2.1010001
-0.08484038 0.43380648 2.1010001
-0.074035242 0.43220571 2.1010001
-0.066031426 0.43420666 2.1010001
-0.12005714 0.4422105 2.1010001
-0.11405428 0.44421145 2.1010001
-0.10404954 0.44421142 2.1010001
-0.094044767 0.44421145 2.1010001
-0.085183404 0.44363979 2.1010001
-0.076036192 0.44020951 2.1010001
-0.066031426 0.4422105 2.1010001
-0.12005714 0.45621714 2.1010001
-0.1133873 0.45488319 2.1010003
-0.10404953 0.45421618 2.1010001
-0.094711751 0.45354924 2.1010003
-0.084040001 0.45421618 2.1010001
-0.12005714 0.4662219 2.1010001
-0.11405428 0.464221 2.1010001
-0.1047165 0.46288702 2.1010001
-0.096045718 0.46021906 2.1010001
-0.084039994 0.46422094 2.1010001
-0.0760362 0.46422097 2.1010003
-0.13606477 0.47622669 2.1010001
-0.12005714 0.47622669 2.1010001
-0.11405428 0.47422573 2.1010001
-0.10805143 0.47222477 2.1010001
-0.073368251 0.47355875 2.1010003
-0.066031426 0.47622669 2.1010001
-0.13406381 0.48423049 2.1010001
-0.12405905 0.48356351 2.1010001
-0.064030476 0.4802286 2.1010003
-0.13206285 0.49423525 2.1010001
-0.12806095 0.49223429 2.1010001
0.14697334 -0.18120001 2.1140001
0.15569779 -0.18254223 2.1140001
0.16509335 -0.18321334 2.1140003
0.14697334 -0.17516001 2.1140001
0.15502667 -0.17516001 2.1140001
0.1624089 -0.1744889 2.1140001
0.13690667 -0.16509333 2.1140001
0.14496002 -0.16509333 2.1140001
0.15502667 -0.16509335 2.1140003
0.16458999 -0.16458999 2.1140001
0.12751111 -0.15435557 2.1140001
0.13489334 -0.15502667 2.1140001
0.14496002 -0.15502667 2.1140003
0.15502667 -0.15502667 2.1140001
0.16308001 -0.15502667 2.1140001
0.11677334 -0.14093335 2.1140001
0.12533 -0.14445668 2.1140001
0.13489334 -0.14496002 2.1140003
0.14496 -0.14496002 2.1140001
0.15502667 -0.14294668 2.1140001
0.16408667 -0.14395334 2.1140001
0.11677334 -0.13489333 2.1140001
0.12482667 -0.13489333 2.1140003
0.13489333 -0.13489334 2.1140001
0.14496002 -0.135296 2.1140001
0.15502667 -0.13489334 2.1140001
0.16509333 -0.13489334 2.1140003
0.10872 -0.1208 2.1140001
0.11516266 -0.12402134 2.1140001
0.12482667 -0.12482667 2.1140001
0.13449067 -0.125632 2.1140001
0.14415468 -0.125632 2.1140001
0.15569779 -0.12214223 2.1140001
0.16106668 -0.12885334 2.1140001
0.10872 -0.11476 2.1140001
0.11476 -0.11476 2.1140001
0.12402134 -0.11516266 2.1140001
0.13288 -0.11476 2.1140001
0.15704001 -0.11476 2.1140001
0.10710933 -0.103888 2.1140001
0.11476 -0.10469335 2.1140003
0.12281334 -0.10469335 2.1140003
0.15502667 -0.10469334 2.1140003
0.16308001 -0.10268 2.1140001
0.10549867 -0.094223998 2.1140001
0.11476 -0.094626665 2.1140001
0.1208 -0.094626665 2.1140001
0.15502667 -0.094626665 2.1140001
0.1624089 -0.095297776 2.1140001
0.088586673 -0.080533341 2.1140001
0.094626665 -0.084560007 2.1140003
0.10469333 -0.084560007 2.1140001
0.11476 -0.084560007 2.1140003
0.12180667 -0.085566677 2.1140001
0.15301333 -0.082546666 2.1140001
0.088586673 -0.074493334 2.1140001
0.094626665 -0.074493334 2.1140001
0.10469334 -0.074493334 2.1140003
0.11476 -0.074493334 2.1140001
0.1208 -0.076506667 2.1140001
0.086976007 -0.064426668 2.1140001
0.094626665 -0.064426675 2.1140003
0.10469334 -0.064426675 2.1140001
0.11274668 -0.064426675 2.1140001
0.088586673 -0.054360002 2.1140001
0.094626665 -0.054359999 2.1140001
0.10469335 -0.054360002 2.1140003
0.11274667 -0.054360002 2.1140001
0.17314667 -0.052346665 2.1140001
0.087580003 -0.043286666 2.1140001
0.094626665 -0.044293337 2.1140003
0.10469334 -0.044293333 2.1140001
0.11274668 -0.044293337 2.1140001
0.16710666 -0.044293337 2.1140003
0.17314667 -0.044293337 2.1140001
0.08657334 -0.034226667 2.1140001
0.094626665 -0.034226667 2.1140001
0.10469334 -0.034226667 2.1140003
0.11476 -0.034226667 2.1140001
0.1208 -0.032213334 2.1140001
0.16509335 -0.034226667 2.1140003
0.17314667 -0.034226667 2.1140001
0.088586673 -0.024160001 2.1140001
0.095633335 -0.025166668 2.1140001
0.10469333 -0.02416 2.1140001
0.11476 -0.024160001 2.1140003
0.14898667 -0.020133335 2.1140001
0.15502667 -0.022146668 2.1140001
0.16509333 -0.02416 2.1140001
0.17516002 -0.026173335 2.1140001
0.10469334 -0.014093334 2.1140003
0.11476 -0.014093334 2.1140001
0.14898667 -0.01208 2.1140001
0.15502667 -0.014093333 2.1140001
0.16509335 -0.014093334 2.1140003
0.17516002 -0.014093333 2.1140001
0.10469334 -0.0060400004 2.1140003
0.11476 -0.0060400004 2.1140001
0.1208 -0.0060400004 2.1140001
0.13288 -0.0060400004 2.1140001
0.14496002 -0.0060400004 2.1140003
0.15502667 -0.0060400004 2.1140001
0.16509333 -0.0060400004 2.1140003
0.17516001 -0.0060400004 2.1140001
0.10526858 0.0028761909 2.1140003
0.11476 0.0040266672 2.1140003
0.12482667 0.0040266667 2.1140001
0.13489333 0.0040266672 2.1140003
0.14496002 0.0040266667 2.1140001
0.15502667 0.0040266672 2.1140003
0.16442223 0.0053688893 2.1140003
0.17516002 0.0040266672 2.1140003
0.125632 0.013690667 2.1140001
0.13489333 0.014093334 2.1140001
0.14496002 0.014093334 2.1140003
0.15502667 0.014093333 2.1140001
0.16509335 0.014093334 2.1140003
0.17516002 0.014093334 2.1140001
0.13556445 0.021475557 2.1140001
0.14697333 0.022146668 2.1140001
0.15502667 0.020133335 2.1140001
0.16509333 0.020133335 2.1140001
0.1744889 0.021475559 2.1140001
-0.33219999 0.084559999 2.1140001
-0.32414669 0.086573333 2.1140001
-0.31408 0.088586673 2.1140001
-0.30602667 0.088586673 2.1140001
-0.29596001 0.088586673 2.1140001
0.04630667 0.088586673 2.1140001
0.056373335 0.088586673 2.1140001
-0.31005332 0.092613332 2.1140001
-0.30401334 0.092613332 2.1140001
-0.28992 0.092613332 2.1140001
-0.27381334 0.096639998 2.1140001
0.03624 0.096639998 2.1140001
0.041608892 0.093955562 2.1140001
-0.26173332 0.10066667 2.1140001
-0.24562669 0.10469333 2.1140001
-0.23354667 0.10670666 2.1140001
-0.22951999 0.10469333 2.1140001
-0.20737334 0.10469333 2.1140001
-0.18925333 0.10872 2.1140001
-0.12482667 0.10872 2.1140001
-0.11677334 0.10872 2.1140001
0.0060400004 0.10670666 2.1140001
0.014093334 0.10670666 2.1140001
0.022146668 0.10066667 2.1140001
-0.19328 0.11274667 2.1140001
-0.18522668 0.11408889 2.1140001
-0.17516001 0.11677334 2.1140001
-0.12402134 0.11516267 2.1140001
-0.11677334 0.11476 2.1140001
0.0040266667 0.11274667 2.1140001
-0.12684 0.1208 2.1140001
-0.11677334 0.1208 2.1140001
-0.10268 0.12482667 2.1140001
-0.12684 0.30602667 2.1140001
-0.12684 0.31005332 2.1140001
-0.13288 0.32616001 2.1140001
-0.13489333 0.33421335 2.1140001
-0.1208 0.33219999 2.1140001
-0.11375333 0.33320665 2.1140001
-0.12616889 0.34360892 2.1140001
-0.11274667 0.34226668 2.1140001
-0.12885334 0.35233337 2.1140001
-0.12751111 0.36508447 2.1140001
-0.12597714 0.37505525 2.1140003
-0.11677334 0.37850666 2.1140001
-0.066440001 0.37649333 2.1140001
-0.12402134 0.38414401 2.1140001
-0.11677334 0.38253334 2.1140001
-0.073822223 0.38521779 2.1140001
-0.066440001 0.38454667 2.1140001
-0.12214223 0.39192891 2.1140001
-0.11576667 0.39561999 2.1140001
-0.080533341 0.39662668 2.1140001
-0.074896 0.39380798 2.1140001
-0.11677334 0.40468001 2.1140001
-0.080533341 0.40266669 2.1140001
-0.076506667 0.40468001 2.1140001
-0.11435733 0.41474667 2.1140001
-0.1208 0.42682669 2.1140001
-0.11677334 0.4228 2.1140001
-0.11476 0.43488002 2.1140003
-0.080533341 0.43890667 2.1140001
-0.074493334 0.43890667 2.1140001
-0.080533341 0.44696 2.1140001
-0.073822223 0.44561779 2.1140001
-0.13489333 0.45903999 2.1140001
-0.12482667 0.45568442 2.1140003
-0.11677334 0.45501333 2.1140001
-0.080533341 0.45098668 2.1140001
-0.074896 0.45420799 2.1140001
-0.13690667 0.46709335 2.1140001
-0.12281334 0.46508002 2.1140001
-0.072480001 0.46709335 2.1140001
-0.13422222 0.47648892 2.1140001
-0.12597714 0.47514671 2.1140003
-0.072480001 0.47112003 2.1140001
-0.065232001 0.4727307 2.1140001
-0.13288 0.48320001 2.1140001
-0.12885334 0.48320001 2.1140001
0.16408285 -0.20257144 2.1270001
0.12964572 -0.19041714 2.1270001
0.13774857 -0.19244286 2.1270001
0.14585143 -0.19041714 2.1270003
0.16408285 -0.19041714 2.1270001
0.13774857 -0.18434 2.1270001
0.14483857 -0.18535286 2.1270001
0.1539543 -0.18636572 2.1270001
0.12762001 -0.17218573 2.1270001
0.13572286 -0.17421144 2.1270001
0.1418 -0.17623715 2.1270001
0.16610858 -0.17826286 2.1270001
0.17016001 -0.17623715 2.1270001
0.12762001 -0.16408285 2.1270001
0.13369715 -0.16408285 2.1270001
0.12289335 -0.15665525 2.1270003
0.10938857 -0.1418 2.1270001
0.11546572 -0.14585143 2.1270001
0.12154286 -0.14990287 2.1270001
0.15598001 -0.14990287 2.1270001
0.1647581 -0.14720193 2.1270003
0.17016001 -0.1418 2.1270001
0.10803809 -0.13504763 2.1270003
0.11344001 -0.13572286 2.1270001
0.10601239 -0.1255943 2.1270001
0.11344001 -0.12964572 2.1270001
0.10398667 -0.11614095 2.1270003
0.095208578 -0.10331143 2.1270001
0.10229857 -0.10635 2.1270001
0.08913143 -0.093182862 2.1270001
0.095208585 -0.095208585 2.1270001
0.10128572 -0.097234294 2.1270001
0.085080013 -0.084404767 2.1270001
0.083054289 -0.074951433 2.1270001
0.074951433 -0.06482286 2.1270001
0.082041435 -0.06482286 2.1270001
0.076977149 -0.054694287 2.1270001
0.083054289 -0.054694287 2.1270001
0.076977149 -0.044565719 2.1270003
0.082649149 -0.045376003 2.1270001
0.076977149 -0.034437142 2.1270001
0.081028573 -0.034437142 2.1270001
0.083054289 -0.024308575 2.1270001
0.093182862 -0.022282857 2.1270001
0.17623715 -0.020257143 2.1270001
0.085080013 -0.014180001 2.1270001
0.095208578 -0.014180001 2.1270001
0.087780952 -0.006752382 2.1270003
0.095208585 -0.0060771434 2.1270001
0.08913143 0 2.1270001
0.095613718 0.003241143 2.1270001
0.10331143 0.0081028575 2.1270001
0.16610858 0.0020257144 2.1270001
0.17016001 0 2.1270001
0.097234294 0.012154287 2.1270001
0.10533714 0.014180001 2.1270001
0.11546572 0.014180001 2.1270001
0.12154286 0.016205715 2.1270001
0.10533714 0.020257143 2.1270001
0.11546572 0.022282857 2.1270001
0.12559429 0.024308575 2.1270001
0.13504763 0.027009528 2.1270003
0.14483857 0.025321431 2.1270001
0.15598001 0.026334288 2.1270001
0.16408285 0.026334289 2.1270001
0.17016001 0.024308573 2.1270001
0.12559429 0.032411434 2.1270003
0.13369715 0.03241143 2.1270001
0.14585143 0.03241143 2.1270001
-0.3220886 0.085080005 2.1270001
-0.31398571 0.085080005 2.1270001
-0.30520764 0.086430483 2.1270003
-0.29575431 0.085080005 2.1270001
-0.28765145 0.08913143 2.1270001
0.044565719 0.086430483 2.1270003
-0.28495049 0.094533347 2.1270003
-0.27549717 0.095883816 2.1270003
-0.26536858 0.097234294 2.1270001
-0.25929144 0.097234294 2.1270001
0.03241143 0.097234294 2.1270001
-0.2532143 0.10128572 2.1270001
-0.24511144 0.10128572 2.1270001
-0.2390343 0.10736285 2.1270001
-0.22552954 0.10668762 2.1270003
-0.21472572 0.10668762 2.1270003
-0.20257144 0.10736285 2.1270001
-0.19446859 0.10668762 2.1270003
-0.18636572 0.10736285 2.1270001
-0.16610858 0.10938857 2.1270001
-0.12964572 0.10938857 2.1270001
0.0030385717 0.10432429 2.1270001
0.014180001 0.10128572 2.1270001
-0.20257144 0.11344001 2.1270001
-0.19852 0.11344001 2.1270001
-0.18231429 0.11344001 2.1270001
-0.17421143 0.11344001 2.1270003
-0.16408285 0.11344001 2.1270001
-0.1418 0.11749143 2.1270001
-0.13572286 0.11749143 2.1270001
-0.12964572 0.11344001 2.1270001
-0.11344001 0.11749143 2.1270001
-0.10533714 0.11749143 2.1270001
-0.11344001 0.12154286 2.1270001
-0.10533714 0.12154286 2.1270003
-0.065633141 0.39541945 2.1270001
-0.12154286 0.40311718 2.1270001
-0.072925717 0.40514287 2.1270003
-0.068874285 0.40109146 2.1270001
-0.11749143 0.41729715 2.1270001
-0.12289335 0.43620381 2.1270003
-0.12640457 0.44322631 2.1270001
-0.1418 0.46794003 2.1270001
-0.13504763 0.46726477 2.1270003
-0.12829524 0.46726477 2.1270003
-0.072925717 0.46388859 2.1270001
-0.066848576 0.46591431 2.1270001
-0.1418 0.47604287 2.1270001
-0.13572286 0.47401714 2.1270001
-0.14382571 0.4841457 2.1270001
-0.060771428 0.48212001 2.1270001
-0.044565715 0.49832571 2.1270001
-0.044565715 0.50237715 2.1270001
-0.0040514288 0.51858288 2.1270001
-0.0040514288 0.52263433 2.1270001
0.0040514288 0.52263433 2.1270001
0.14266667 -0.24049525 2.1400001
0.13859048 -0.23438096 2.1400001
0.14266667 -0.23438096 2.1400001
0.13757144 -0.22520952 2.1400001
0.14368571 -0.22317143 2.1400001
0.15081905 -0.22419047 2.1400001
0.13532953 -0.2135924 2.1400001
0.14470476 -0.21400002 2.1400001
0.15353653 -0.21332066 2.1400001
0.12500319 -0.20516828 2.1400001
0.13451429 -0.20584762 2.1400003
0.14470476 -0.20584762 2.1400001
0.15489525 -0.20544 2.1400001
0.16508573 -0.20788573 2.1400001
0.11685081 -0.19293968 2.1400001
0.12432382 -0.19565716 2.1400003
0.13383493 -0.19701588 2.1400003
0.14470476 -0.19769526 2.1400001
0.15540478 -0.19616669 2.1400001
0.16508573 -0.19769526 2.1400001
0.11617143 -0.18546668 2.1400001
0.12432382 -0.18546668 2.1400001
0.1324762 -0.18546668 2.1400001
0.11617144 -0.1752762 2.1400003
0.12330477 -0.17629525 2.1400001
0.1324762 -0.17935239 2.1400001
0.10598096 -0.16304763 2.1400001
0.11494859 -0.1646781 2.1400001
0.12228572 -0.16508573 2.1400001
0.10496191 -0.1538762 2.1400001
0.11362383 -0.15540478 2.1400001
0.10462223 -0.1440254 2.1400001
0.11005715 -0.14674285 2.1400001
0.097828582 -0.1345143 2.1400001
0.10292381 -0.13553333 2.1400001
0.096469842 -0.12364446 2.1400001
0.10190476 -0.12636191 2.1400001
0.089676194 -0.11005715 2.1400001
0.095790476 -0.11413335 2.1400003
0.10190476 -0.11413334 2.1400001
0.086619057 -0.10292381 2.1400001
0.085600004 -0.095111117 2.1400001
0.075409524 -0.083561905 2.1400001
0.083561912 -0.089676194 2.1400001
0.075409524 -0.075409524 2.1400001
0.069295242 -0.065219052 2.1400001
0.073371425 -0.055028573 2.1400001
0.073371425 -0.044838097 2.1400001
0.073371425 -0.034647621 2.1400001
0.075409532 -0.024457145 2.1400003
0.069295242 -0.012228572 2.1400001
0.075409524 -0.014266667 2.1400001
0.06793651 -0.0067936517 2.1400001
0.075409524 -0.0061142864 2.1400001
0.082882546 -0.005434921 2.1400001
0.076428577 0.0030571432 2.1400001
0.085090481 0.0045857145 2.1400001
0.093752384 0.0081523815 2.1400001
0.087638095 0.012228572 2.1400001
0.095111117 0.014946034 2.1400001
0.095790476 0.024457145 2.1400003
0.10435048 0.025272382 2.1400001
0.1131143 0.027514286 2.1400001
0.14266667 0.028533334 2.1400001
0.10462223 0.033968255 2.1400001
0.11413335 0.034647621 2.1400003
0.12432382 0.036685713 2.1400001
0.13553333 0.035666667 2.1400001
0.14470476 0.034647621 2.1400001
0.15489525 0.03260953 2.1400001
0.16304763 0.032609526 2.1400001
0.11413334 0.04076191 2.1400001
0.12473144 0.044022858 2.1400001
0.13451429 0.044838101 2.1400001
0.14511238 0.045653339 2.1400001
0.15081905 0.042800002 2.1400001
0.13723177 0.05434921 2.1400001
0.14266667 0.052990478 2.1400001
-0.33017144 0.081523813 2.1400001
-0.32405716 0.081523813 2.1400001
-0.31794289 0.081523813 2.1400001
-0.3077524 0.081523813 2.1400001
-0.29552382 0.081523813 2.1400001
-0.28614858 0.086415246 2.1400001
-0.27718097 0.089676194 2.1400001
0.036685713 0.089676194 2.1400001
0.040761907 0.085600004 2.1400001
-0.28125715 0.093752384 2.1400001
-0.27310476 0.093752384 2.1400001
-0.25476193 0.097828574 2.1400001
0.026495239 0.097828574 2.1400001
0.034647621 0.093752384 2.1400001
-0.24049525 0.10190476 2.1400001
-0.23641905 0.10190476 2.1400001
-0.22011429 0.10394286 2.1400001
-0.21603811 0.10394286 2.1400001
-0.20584762 0.10190476 2.1400001
-0.19769526 0.10394286 2.1400001
0 0.10190476 2.1400001
-0.19973335 0.11005715 2.1400001
-0.18342857 0.11005715 2.1400001
-0.1752762 0.11005716 2.1400001
-0.16304763 0.11005715 2.1400001
-0.15761271 0.11277461 2.1400001
-0.13451429 0.11413334 2.1400001
-0.11168762 0.11331811 2.1400001
-0.10394286 0.11413334 2.1400001
-0.095790476 0.11617143 2.1400001
-0.089676194 0.11820953 2.1400001
-0.095790476 0.12228572 2.1400001
-0.089676194 0.12228572 2.1400001
-0.077447623 0.12636191 2.1400001
-0.061142862 0.12228572 2.1400001
-0.055028573 0.12228572 2.1400001
-0.065219052 0.40558094 2.1400001
-0.12228572 0.41373336 2.1400001
-0.067936517 0.41305399 2.1400001
-0.12228572 0.42596191 2.1400001
-0.13315557 0.4415873 2.1400001
-0.14674285 0.47691429 2.1400001
-0.15081905 0.48506671 2.1400001
-0.14674285 0.4809905 2.1400001
-0.061142862 0.4809905 2.1400001
-0.055436194 0.48588189 2.1400001
-0.046876192 0.4871048 2.1400001
-0.036685713 0.48914289 2.1400001
-0.024457145 0.48710483 2.1400003
-0.014266668 0.4871048 2.1400001
-0.0040761908 0.48914289 2.1400001
-0.052990478 0.49321905 2.1400001
-0.045653336 0.49566481 2.1400001
-0.036685713 0.49525714 2.1400001
-0.021739684 0.49457783 2.1400001
-0.014266668 0.49525717 2.1400001
-0.0061142864 0.49729526 2.1400001
0 0.49729526 2.1400001
-0.040761907 0.5034095 2.1400001
-0.036685713 0.5034095 2.1400001
-0.020380953 0.50137144 2.1400001
-0.012228572 0.50137144 2.1400001
-0.0040761908 0.50137144 2.1400001
-0.0040761908 0.51767617 2.1400001
0.0040761912 0.51767623 2.1400001
0.036685713 0.51767617 2.1400001
0.044838097 0.51767623 2.1400001
0.052990478 0.51767617 2.1400001
-0.012228572 0.52379048 2.1400001
-0.0081523815 0.52379048 2.1400001
