# .PCD v0.7 - Point Cloud Data file format
VERSION 0.7
FIELDS x y z
SIZE 4 4 4
TYPE F F F
COUNT 1 1 1
WIDTH 1455
HEIGHT 1
VIEWPOINT 0 0 0 1 0 0 0
POINTS 1455
DATA ascii
-0.29390433 0.54608721 1.9470001
-0.28556004 0.54516006 1.9470003
-0.27443433 0.54516006 1.9470003
-0.29483145 0.5562858 1.9470003
-0.28778517 0.55554408 1.9470001
-0.27072573 0.55443144 1.9470001
-0.26516286 0.55443144 1.9470001
-0.30336115 0.56592804 1.9470001
-0.29483145 0.56370288 1.9470001
-0.31337431 0.57853717 1.9470001
-0.30304331 0.5742988 1.9470003
-0.29483145 0.57853717 1.9470001
-0.28741431 0.57853717 1.9470001
-0.31244719 0.58502722 1.9470001
-0.30533907 0.58471823 1.9470003
-0.29421338 0.58348197 1.9470003
-0.28741431 0.58224577 1.9470001
0.16223428 -0.26106665 1.9580001
0.14918095 -0.2536076 1.9580001
0.15415365 -0.25609398 1.9580001
0.16223428 -0.25733715 1.9580001
0.14793777 -0.24863493 1.9580001
0.15440229 -0.24614859 1.9580001
0.16036952 -0.24241905 1.9580001
0.14793777 -0.23371683 1.9580001
0.15477523 -0.23496 1.9580001
0.16036952 -0.23309524 1.9580001
0.1268038 -0.22004192 1.9580001
0.1323981 -0.22004192 1.9580001
0.14731619 -0.22190668 1.9580001
0.15477523 -0.22377144 1.9580001
0.16409905 -0.22377144 1.9579999
0.11934476 -0.21258286 1.9580001
0.12556063 -0.21382603 1.9580001
0.13351695 -0.21407466 1.9580001
0.14545143 -0.21444762 1.9580001
0.15477523 -0.21444762 1.9580001
0.16409904 -0.21444762 1.9580001
0.11748 -0.20512383 1.9580001
0.12493905 -0.20512383 1.9580001
0.13426286 -0.20512383 1.9579999
0.14545144 -0.20512383 1.9579999
0.15477523 -0.20512383 1.9580001
0.16260724 -0.20661561 1.9580001
0.11748 -0.19393526 1.9580001
0.12493905 -0.19393525 1.9580001
0.13426287 -0.19393523 1.9579999
0.14545141 -0.19393523 1.9579999
0.15477523 -0.19393525 1.9580001
0.16260724 -0.19244342 1.9580001
0.11636114 -0.18423848 1.9580001
0.12493904 -0.18461142 1.9580001
0.13351695 -0.18423848 1.9580001
0.14545143 -0.18461142 1.9580001
0.15477523 -0.18461142 1.9580001
0.16409905 -0.18461142 1.9580001
0.10666438 -0.17454171 1.9580001
0.11514905 -0.17575382 1.9580001
0.12307428 -0.17901714 1.9580001
0.13426286 -0.17901714 1.9580001
0.14731619 -0.17901714 1.9580001
0.15384285 -0.17622 1.9580001
0.16782857 -0.17901714 1.9580001
0.10442667 -0.16409905 1.9579999
0.15291047 -0.16782857 1.9580001
0.096967623 -0.15291047 1.9580001
0.10442667 -0.15477523 1.9580001
0.096967623 -0.14545143 1.9580001
0.10218896 -0.14619733 1.9580001
0.095102862 -0.13426286 1.9580001
0.10069714 -0.13426286 1.9580001
0.14793777 -0.13550603 1.9580001
0.15477523 -0.13426286 1.9580001
0.16036952 -0.13612762 1.9580001
0.08764381 -0.12493904 1.9580001
0.094481274 -0.12556063 1.9580001
0.1466946 -0.12431745 1.9580001
0.15477523 -0.12493904 1.9580001
0.086400643 -0.11561524 1.9580001
0.093238093 -0.11561524 1.9580001
0.14768915 -0.11486933 1.9580001
0.15477523 -0.11561524 1.9580001
0.082049534 -0.10442667 1.9580001
0.14793777 -0.10691302 1.9580001
0.15477523 -0.10629143 1.9580001
0.078319997 -0.095102862 1.9580001
0.082049526 -0.095102862 1.9580001
0.075522855 -0.086711429 1.9580001
0.072725713 -0.074590474 1.9580001
0.065888256 -0.064645082 1.9580001
0.070860952 -0.065266669 1.9580001
0.059672382 -0.057807621 1.9580001
0.065266669 -0.05594286 1.9580001
0.065639623 -0.045500189 1.9580001
0.06713143 -0.037295237 1.9580001
0.070860952 -0.035430476 1.9580001
0.06713143 -0.029836191 1.9580001
0.070860952 -0.026106667 1.9580001
0.06713143 -0.011188571 1.9580001
0.071793333 -0.014918095 1.9580001
0.06713143 -0.0074590477 1.9580001
0.070860952 -0.0055942857 1.9580001
0.073524907 0.0042623132 1.9580002
0.075833648 0.013674921 1.9580001
0.082049526 0.016782857 1.9580001
0.078319997 0.024241906 1.9580001
0.085246272 0.027172247 1.9580002
0.093238093 0.029836191 1.9580001
0.13674921 0.024863493 1.9580001
0.14545143 0.024241906 1.9580001
0.15514819 0.025360763 1.9580001
0.16223428 0.026106669 1.9580001
0.08764381 0.035430476 1.9580001
0.094481274 0.036052063 1.9580001
0.10069714 0.037295237 1.9580001
0.14545143 0.037295237 1.9580001
0.15415365 0.034808889 1.9580001
0.16223428 0.035430476 1.9580001
0.088265404 0.042267941 1.9580001
0.095102862 0.044754289 1.9580001
0.10396048 0.045220479 1.9580001
0.11188572 0.04661905 1.9580001
0.14694324 0.045500197 1.9580001
0.15477523 0.044754289 1.9580001
0.16223428 0.044754289 1.9580001
0.095724449 0.053456508 1.9580001
0.10566985 0.054699685 1.9580001
0.11508246 0.057008438 1.9580002
0.12307428 0.059672382 1.9580001
0.15291047 0.052213334 1.9580001
0.16223428 0.054078098 1.9580001
0.11748 0.065266669 1.9580001
0.12307428 0.065266669 1.9580001
0.11748 0.072725713 1.9580001
0.12307428 0.070860952 1.9580001
0.029836191 0.095102862 1.9580001
0.029836191 0.10069714 1.9580001
0.037295237 0.10629143 1.9580001
0.04568667 0.10722381 1.9580001
-0.30209145 0.11934476 1.9580001
-0.29463241 0.11810159 1.9580001
-0.28530857 0.11561524 1.9580001
-0.27598476 0.11188572 1.9580001
-0.23682477 0.11188572 1.9580001
0.056688763 0.11337753 1.9580001
0.065266669 0.11748 1.9580001
0.070860952 0.11934476 1.9580001
-0.30768573 0.12493904 1.9580001
0.06713143 0.1268038 1.9580001
0.074590474 0.12493905 1.9580001
0.082049526 0.12307428 1.9580001
-0.32073903 0.13799238 1.9580001
-0.31452319 0.13301969 1.9580001
0.075212061 0.13301969 1.9580001
-0.33192763 0.14918095 1.9580001
-0.32521448 0.14470552 1.9580001
0.066199049 0.14545143 1.9580001
0.072725713 0.14545143 1.9580001
-0.33192763 0.15477523 1.9580001
-0.32819811 0.15477523 1.9580001
0.059672382 0.15663999 1.9580001
0.065266669 0.15477523 1.9580001
-0.33192763 0.16036952 1.9580001
-0.32670629 0.16484496 1.9580001
0.065266669 0.16223428 1.9580001
-0.28468698 0.51716065 1.9580001
-0.27705038 0.5141415 1.9580002
-0.014451906 0.51514047 1.9580001
-0.0059672385 0.5154202 1.9580001
0.0029836192 0.51616615 1.9580001
0.013053333 0.51467431 1.9580001
-0.2923947 0.52660882 1.9580001
-0.28530857 0.52586293 1.9580001
-0.27598476 0.52399814 1.9580001
-0.2647962 0.52524132 1.9580001
-0.25733715 0.52959239 1.9580001
-0.22004192 0.5277276 1.9580001
-0.21506922 0.52710605 1.9580001
-0.024241906 0.52959239 1.9580001
-0.01616127 0.5246197 1.9580001
-0.29276764 0.53518665 1.9580001
-0.2548508 0.53456509 1.9580001
-0.24801333 0.53705144 1.9580001
-0.024241904 0.53518665 1.9580001
-0.015664002 0.53555959 1.9580001
-0.29463241 0.54078096 1.9580001
-0.25547236 0.54078096 1.9580001
-0.24540268 0.54227275 1.9580001
-0.23744635 0.54202414 1.9580001
-0.025485082 0.54326737 1.9580001
-0.015664 0.54227275 1.9580001
-0.28344381 0.55756378 1.9580001
-0.27784953 0.55756378 1.9580001
-0.29090285 0.56688762 1.9580001
-0.28530857 0.56502289 1.9580001
-0.27598476 0.56502289 1.9580001
-0.31327999 0.57807624 1.9580001
-0.30955049 0.57807624 1.9580001
-0.29463241 0.57434666 1.9579999
-0.28530857 0.57434672 1.9580001
-0.27971429 0.57621145 1.9580001
-0.32073903 0.58926481 1.9580001
-0.31700954 0.58926481 1.9580001
-0.30955049 0.58180571 1.9580001
0.13689238 -0.26253334 1.9690001
0.14439334 -0.26253334 1.9690001
0.13501716 -0.25503242 1.9690001
0.14401829 -0.25578249 1.9690001
0.15001905 -0.25878286 1.9690001
0.16689619 -0.25128192 1.9690001
0.13548596 -0.24331215 1.969
0.14439335 -0.24378097 1.9690001
0.15001905 -0.24378097 1.9690001
0.16689619 -0.24565619 1.9690001
0.1275162 -0.23252952 1.9690001
0.13501716 -0.23440477 1.9690001
0.14376827 -0.23502986 1.9690002
0.15001905 -0.23628001 1.9690001
0.11626476 -0.2212781 1.9690001
0.12376573 -0.2244035 1.9690001
0.13555294 -0.22610016 1.9690001
0.14345571 -0.22596622 1.9690001
0.15001905 -0.22877906 1.9690001
0.11501461 -0.21377715 1.9690002
0.12189049 -0.21752763 1.9690001
0.13876763 -0.21752763 1.9690001
0.11251429 -0.20440096 1.9690001
0.16689619 -0.20440096 1.9690001
0.10726362 -0.19427469 1.9690001
0.11251429 -0.19502477 1.9690002
0.16689619 -0.19690001 1.9690001
0.10501334 -0.18377334 1.9690001
0.11251429 -0.18752381 1.9690001
0.097512387 -0.17252192 1.9690001
0.10126286 -0.17439716 1.9690001
0.096012197 -0.16502097 1.9690001
0.094699532 -0.15470715 1.9690001
0.091886669 -0.14439334 1.9690001
0.085010812 -0.13376699 1.9690002
0.09001144 -0.13501716 1.9690002
0.078760006 -0.12376572 1.9690001
0.082510486 -0.12376573 1.9690002
0.076884761 -0.11251429 1.9690001
0.082510479 -0.11626476 1.9690001
0.067508571 -0.1031381 1.9690001
0.075009525 -0.10501334 1.9690001
0.067508571 -0.093761906 1.9690001
0.072759241 -0.094512001 1.9690001
0.066258416 -0.083760642 1.9690002
0.071259052 -0.084385723 1.9690001
0.065633342 -0.075009525 1.9690001
0.06125778 -0.066258416 1.9690002
0.060007621 -0.05250667 1.9690001
0.060945243 -0.044068094 1.9690001
0.06268654 -0.033754289 1.9690001
0.064508192 -0.024753144 1.9690001
0.064383179 -0.015001906 1.9690001
0.063008003 -0.0052506668 1.9690001
0.063758105 0.0037504763 1.9690001
0.06482967 0.014466124 1.9690001
0.072509214 0.017502222 1.9690002
0.066258416 0.023753017 1.9690002
0.073134288 0.024378095 1.9690001
0.067508571 0.03000381 1.9690001
0.075478338 0.033285476 1.969
0.082510479 0.035629526 1.9690001
0.077259816 0.044255622 1.9690001
0.084010676 0.045755815 1.9690001
0.090011433 0.048756193 1.9690001
0.078760006 0.05250667 1.9690001
0.085010812 0.053756829 1.9690002
0.091261588 0.055006988 1.9690002
0.10126286 0.056257147 1.9690001
0.15626985 0.055006988 1.9690002
0.08626096 0.060007621 1.9690001
0.094833471 0.063222319 1.9690001
0.10454454 0.06422691 1.969
0.11251429 0.065633334 1.9690001
0.15564477 0.060007621 1.9690001
0.16127048 0.060007621 1.9690001
0.097512387 0.071259052 1.9690001
0.10501333 0.071259052 1.9690002
0.11251429 0.073134288 1.9690001
0.035629526 0.095637143 1.9690001
0.046255879 0.096262231 1.9690002
0.05250667 0.097512387 1.9690001
-0.23440477 0.10876381 1.9690001
0.035629526 0.10126286 1.9690001
0.044255622 0.10276306 1.9690001
0.054381907 0.10501334 1.9690001
0.063758105 0.10554913 1.9690001
-0.29628763 0.11626476 1.9690001
-0.28503621 0.11251429 1.9690001
-0.25128192 0.11251429 1.9690001
0.065633334 0.11251429 1.9690001
0.07425943 0.11476457 1.9690001
-0.31503999 0.12626605 1.9690002
-0.30753905 0.12001524 1.9690001
0.076884761 0.12001524 1.9690001
0.084385723 0.12470335 1.9690001
0.090011433 0.12376572 1.9690001
-0.32441622 0.13689238 1.9690001
-0.3187905 0.13126667 1.9690001
0.078760006 0.13876763 1.9690001
0.084385723 0.13501716 1.9690001
0.091886669 0.13501714 1.9690001
-0.33191717 0.14439334 1.9690001
0.078760006 0.14439334 1.9690001
0.084385723 0.14439334 1.9690001
-0.34129339 0.15376952 1.9690002
-0.33754286 0.15376954 1.9690002
0.075545311 0.1548411 1.9690001
0.083760642 0.15251938 1.9690002
0.091886669 0.15376952 1.9690001
0.075009525 0.16314572 1.9690001
0.084385715 0.16314572 1.9690001
0.091886669 0.16314572 1.9690001
-0.011251429 0.50631428 1.9690001
-0.27190953 0.51756573 1.9690001
-0.022502858 0.51756573 1.9690001
-0.015939524 0.51100242 1.9690001
-0.0056257145 0.51194 1.9690001
0.0037504765 0.51381528 1.9690002
0.013126668 0.51381528 1.9690001
-0.27190953 0.52131623 1.9690001
-0.26440859 0.52319145 1.9690001
-0.25578249 0.52656692 1.9690001
-0.23252952 0.52881718 1.9690001
-0.22690383 0.52881718 1.9690001
-0.02250286 0.52506673 1.9690002
-0.25253209 0.53381789 1.9690002
-0.24453107 0.53481793 1.9690001
-0.23440477 0.5344429 1.9690001
-0.22577868 0.53481793 1.9690001
-0.24190572 0.54006857 1.9690001
-0.23440477 0.54006857 1.9690001
-0.22877906 0.54006857 1.9690001
-0.032504126 0.54631943 1.9690002
-0.03000381 0.55132002 1.9690001
-0.022502858 0.55319524 1.9690001
-0.018752381 0.55319524 1.9690001
-0.2812857 0.57382292 1.9690001
-0.27566004 0.57382292 1.9690001
0.12634286 -0.26022857 1.9800001
0.132 -0.264 1.9800001
0.1433143 -0.26777145 1.9800001
0.15462857 -0.264 1.9800003
0.12634286 -0.25457144 1.9800001
0.1257143 -0.24451432 1.9800003
0.132 -0.2489143 1.9800001
0.11691429 -0.23005715 1.9800001
0.1233796 -0.23436737 1.9800003
0.11691429 -0.22628573 1.9800001
0.10937144 -0.21120001 1.9800001
0.11314286 -0.21497144 1.9800001
0.1081143 -0.2049143 1.9800003
0.10371429 -0.19800001 1.9800001
0.098057151 -0.18102859 1.9800001
0.10182858 -0.18857144 1.9800001
0.098057151 -0.17725715 1.9800001
0.094285719 -0.16594286 1.9800001
0.090514295 -0.15085715 1.9800001
0.086742863 -0.1433143 1.9800001
0.086742863 -0.13577144 1.9800001
0.0792 -0.11691429 1.9800001
0.066000007 -0.092400007 1.9800001
0.064114295 -0.086742863 1.9800001
0.060342859 -0.073542863 1.9800001
0.056571431 -0.041485716 1.9800001
0.056571435 -0.033942863 1.9800003
0.056571431 -0.024514288 1.9800001
0.060342859 -0.022628574 1.9800001
0.056571435 -0.015085716 1.9800003
0.060342859 -0.01697143 1.9800001
0.056571431 -0.005657143 1.9800001
0.056571435 0.0037714287 1.9800003
0.056571431 0.011314287 1.9800001
0.060342859 0.01697143 1.9800001
0.062228575 0.024514288 1.9800001
0.066000007 0.03394286 1.9800001
0.071657151 0.037714288 1.9800001
0.067885719 0.043371432 1.9800001
0.072600007 0.046200003 1.9800001
0.076685719 0.055314295 1.9800003
0.082971431 0.056571431 1.9800001
0.0792 0.060342859 1.9800001
0.085485719 0.064114295 1.9800003
0.090514295 0.066000007 1.9800001
0.086742863 0.071657151 1.9800001
0.093028575 0.072914295 1.9800003
0.10748573 0.077314287 1.9800001
0.044 0.09554287 1.9800003
0.054685719 0.096171439 1.9800001
0.060342859 0.098057151 1.9800001
0.064114295 0.10371429 1.9800001
0.073920004 0.1063543 1.9800001
0.092400007 0.10937144 1.9800001
-0.30360001 0.11691429 1.9800001
-0.29228574 0.11314286 1.9800001
-0.28285718 0.11314286 1.9800001
-0.24702859 0.11314286 1.9800001
0.0792 0.11314286 1.9800001
0.084857143 0.11502858 1.9800001
0.090514295 0.11691429 1.9800001
-0.31491429 0.12257144 1.9800001
0.086742863 0.12068572 1.9800001
0.094285727 0.1257143 1.9800003
-0.33188573 0.13954286 1.9800001
-0.32434288 0.132 1.9800001
0.092400007 0.13577144 1.9800001
-0.33754289 0.14520001 1.9800001
0.091771439 0.14582859 1.9800003
0.085485719 0.15588573 1.9800003
-0.037714288 0.50725716 1.9800001
-0.022628574 0.50914288 1.9800001
-0.015085716 0.50788575 1.9800003
-0.005657143 0.50914288 1.9800001
-0.27154288 0.51480007 1.9800001
-0.2665143 0.51542866 1.9800003
-0.25645718 0.51668572 1.9800001
-0.03017143 0.51668572 1.9800001
-0.023885718 0.51542866 1.9800003
-0.0037714287 0.51291436 1.9800001
0.0037714287 0.51291436 1.9800003
-0.26324573 0.52196568 1.9800001
-0.25520003 0.52297151 1.9800003
-0.24514286 0.52611434 1.9800003
-0.23382859 0.52611434 1.9800003
-0.22440001 0.52611428 1.9800001
-0.21572573 0.52573723 1.9800001
-0.03017143 0.52045715 1.9800001
-0.026400002 0.52045715 1.9800001
-0.25268573 0.53177148 1.9800001
-0.24420002 0.53271437 1.9800001
-0.23760001 0.53177148 1.9800001
0.1365943 -0.27508572 1.9920001
0.14418286 -0.27413714 1.9920001
0.12616 -0.2656 1.9920001
0.13469714 -0.26939431 1.9920001
0.14418286 -0.26939431 1.9920001
0.15366858 -0.26939431 1.9920001
0.12141715 -0.25421715 1.9920001
0.11762286 -0.2428343 1.9920001
0.12331429 -0.24662858 1.9920001
0.11762286 -0.23904002 1.9920001
0.11256381 -0.22133335 1.9920001
0.10624 -0.21437715 1.9920001
0.11003429 -0.21627429 1.9920001
0.10371049 -0.20489144 1.9920001
0.10244572 -0.19350858 1.9920001
0.098651432 -0.18592 1.9920001
0.094857149 -0.17643431 1.9920001
0.091062859 -0.15556572 1.9920001
0.087268576 -0.14797714 1.9920001
0.053120002 -0.034148574 1.9920001
0.053120002 -0.026560001 1.9920001
0.053120002 -0.011382857 1.9920001
0.053120002 -0.0056914287 1.9920001
0.053120002 0.001897143 1.9920001
0.056914289 0.017074287 1.9920001
0.060708575 0.026560001 1.9920001
0.061973333 0.034148574 1.9920001
0.065767623 0.045531433 1.9920001
0.072091438 0.055017143 1.9920001
0.073988579 0.060708575 1.9920001
0.083474286 0.066400006 1.9920001
0.098651432 0.077782862 1.9920001
0.10244572 0.077782862 1.9920001
0.056914289 0.094857149 1.9920001
0.064502865 0.09675429 1.9920001
0.075885721 0.10434286 1.9920001
0.085371435 0.10624 1.9920001
0.091062859 0.10624 1.9920001
-0.2997486 0.11382858 1.9920001
-0.28836575 0.11003429 1.9920001
0.079680003 0.11003429 1.9920001
0.085371435 0.11003429 1.9920001
0.094857149 0.1163581 1.9920001
-0.32441145 0.12710857 1.9920001
-0.31872001 0.12141715 1.9920001
0.09675429 0.12141715 1.9920001
-0.33010289 0.13469714 1.9920001
-0.34528002 0.14671239 1.9920001
-0.33769146 0.14038858 1.9920001
0.097386673 0.14544764 1.9920001
0.095805719 0.1565143 1.9920001
-0.035413336 0.49452195 1.9920001
-0.025295239 0.49452195 1.9920001
-0.01897143 0.49515432 1.9920001
-0.26180574 0.5084343 1.9920001
-0.2561143 0.5084343 1.9920001
-0.041737143 0.5084343 1.9920001
-0.035097145 0.50558853 1.9920001
-0.025042284 0.50539887 1.9920002
-0.015651429 0.50416571 1.9920003
-0.0066400003 0.50558859 1.9920001
-0.26275432 0.51602286 1.9920001
-0.25374287 0.51554859 1.9920003
-0.24536383 0.51855242 1.9920001
-0.23714286 0.51981717 1.9920001
-0.22006857 0.51792002 1.9920001
-0.21437715 0.51602292 1.9920003
-0.20678858 0.51981717 1.9920001
-0.041737147 0.51602292 1.9920001
-0.034148574 0.51602286 1.9920003
-0.026560001 0.5141257 1.9920001
0.001897143 0.51222861 1.9920001
-0.25231999 0.52361149 1.9920001
-0.24473144 0.52361149 1.9920001
-0.23524573 0.52361149 1.9920001
-0.22386287 0.52361149 1.9920001
-0.21437715 0.52361149 1.9920001
-0.20489144 0.52550864 1.9920003
-0.041737143 0.52550864 1.9920001
-0.036678098 0.5248763 1.9920001
-0.21248001 0.53119999 1.9920001
-0.20489144 0.53120005 1.9920001
-0.19730286 0.53119999 1.9920001
0.13544096 -0.28232762 2.003
0.14497906 -0.28232762 2.003
0.15642476 -0.28232762 2.003
0.16214761 -0.28423524 2.003
0.12590286 -0.27469715 2.0030003
0.13353334 -0.27660477 2.003
0.14497906 -0.27851236 2.003
0.15451714 -0.27660477 2.003
0.16214761 -0.27469715 2.0030003
0.12208762 -0.26706669 2.003
0.11827239 -0.25562096 2.003
0.11445715 -0.24417524 2.003
0.11369409 -0.23501869 2.003
0.10587285 -0.22414523 2.003
0.11191365 -0.22764254 2.003
0.10301143 -0.21556094 2.003
0.10301143 -0.20983809 2.003
0.099196188 -0.19457714 2.003
0.095380954 -0.18313143 2.003
0.091565713 -0.16023999 2.003
0.080119997 -0.12208762 2.003
0.053413332 -0.022891428 2.003
0.053413332 -0.017168572 2.003
0.053413332 0.0076304763 2.003
0.053413332 0.011445714 2.003
0.057228573 0.022891428 2.003
0.06104381 0.038152382 2.003
0.068674289 0.055320952 2.003
0.080119997 0.064859048 2.003
0.045782857 0.091565713 2.003
0.055320952 0.091565713 2.003
0.066766664 0.097288571 2.003
0.074397147 0.099196188 2.003
-0.28995809 0.10682666 2.003
0.083935231 0.10301143 2.003
-0.31284952 0.11827239 2.003
-0.30331141 0.11254953 2.003
-0.29568094 0.1106419 2.003
-0.28614286 0.1106419 2.003
-0.25562096 0.1106419 2.003
-0.24417524 0.1106419 2.003
0.097288571 0.11445715 2.003
-0.33192572 0.1297181 2.003
-0.32620287 0.12399524 2.003
-0.34337142 0.13734858 2.003
-0.33764857 0.13734858 2.003
-0.34337142 0.14116381 2.003
-0.24799049 0.49979618 2.003
-0.033065401 0.49852443 2.003
-0.022891428 0.49979618 2.003
-0.013353335 0.49788857 2.003
-0.0076304763 0.49788857 2.003
-0.25466716 0.50647283 2.003
-0.24608287 0.50551903 2.003
-0.21365333 0.50742668 2.003
-0.045019813 0.50590056 2.003
-0.032429524 0.50551903 2.003
-0.022891428 0.50361145 2.003
-0.25180572 0.51124191 2.003
-0.24417524 0.51505721 2.0030003
-0.23463714 0.51696473 2.003
-0.22433601 0.51582021 2.003
-0.21556094 0.51124191 2.003
-0.20602287 0.51505715 2.003
-0.053413332 0.5131495 2.003
-0.047690477 0.51505709 2.0030003
-0.23272952 0.52268761 2.003
-0.22700667 0.52268761 2.003
-0.20220762 0.52268761 2.003
-0.19839238 0.52650285 2.003
-0.19648476 0.53031808 2.003
0.14584763 -0.29361433 2.0150001
0.15544286 -0.29361433 2.0150001
0.1612 -0.29361433 2.0150001
0.1247381 -0.28210002 2.0150001
0.13337381 -0.28689766 2.0150001
0.14584765 -0.28785717 2.0150001
0.15480319 -0.28657782 2.0150001
0.11706191 -0.26290953 2.0150001
0.11322382 -0.25523335 2.0150001
0.10746667 -0.24371906 2.0150001
0.11130476 -0.24755715 2.0150001
0.10554763 -0.23412383 2.0150001
0.099790484 -0.22452858 2.0150001
0.10362858 -0.22644764 2.0150001
0.099790484 -0.21493334 2.0150001
0.099790484 -0.20533811 2.0150001
0.095952384 -0.18806668 2.0150001
0.092114285 -0.17271429 2.0150001
0.092114285 -0.16695715 2.0150001
0.057571433 0.026866667 2.0150001
0.076761909 0.065247618 2.0150001
0.0844381 0.072923817 2.0150001
0.049895242 0.092114285 2.0150001
0.063328572 0.094033331 2.0150001
0.074842863 0.095952384 2.0150001
0.080600001 0.095952384 2.0150001
-0.29553339 0.10618731 2.0150001
-0.28785717 0.10746667 2.0150001
-0.24180001 0.10746667 2.0150001
-0.3224 0.11898096 2.0150001
-0.31472382 0.11706191 2.0150001
-0.30704764 0.11130476 2.0150001
-0.28401905 0.11130476 2.0150001
-0.27250478 0.11130476 2.0150001
-0.26482856 0.11130476 2.0150001
-0.25331429 0.11130476 2.0150001
-0.24947619 0.11130476 2.0150001
-0.33199525 0.1247381 2.0150001
-0.3377524 0.13241428 2.0150001
-0.35310477 0.14584763 2.0150001
-0.34926668 0.14584763 2.0150001
-0.24691747 0.49767303 2.0150001
-0.23412383 0.49511433 2.0150001
-0.22644764 0.49511433 2.0150001
-0.21365397 0.49767303 2.0150001
-0.25331429 0.50279051 2.0150001
-0.24307939 0.50406992 2.0150001
-0.23412383 0.50470954 2.0150001
-0.22452858 0.50662857 2.0150001
-0.21416573 0.50509334 2.0150001
-0.20533811 0.50662857 2.0150001
-0.24180001 0.51238573 2.0150001
-0.23412383 0.51366508 2.0150003
-0.22516827 0.51174605 2.0150001
-0.21493334 0.51046669 2.0150001
-0.20533811 0.51046669 2.0150001
-0.19622263 0.513825 2.0150001
-0.18806668 0.51430476 2.0150001
-0.053733334 0.51046669 2.0150001
-0.19574289 0.52658671 2.0150001
-0.19190477 0.53349525 2.0150001
-0.18422858 0.53349531 2.0150001
0.13513336 -0.29343241 2.0270002
0.14285526 -0.29343241 2.0270002
0.15057716 -0.29536289 2.0270002
0.12741144 -0.28957143 2.0270002
0.11968954 -0.27412766 2.0270002
0.1138981 -0.26447526 2.0270002
0.10810667 -0.25289237 2.0270002
0.10424572 -0.2451705 2.0270002
0.10167175 -0.23551813 2.0270002
0.096523814 -0.22393525 2.0270002
0.096523814 -0.21428287 2.0270002
0.096523814 -0.19304763 2.0270002
0.092662863 -0.18146478 2.0270002
0.092662863 -0.17760383 2.0270002
0.083010487 -0.13513336 2.0270002
0.057914291 0.030887622 2.0270002
0.067566678 0.092662863 2.0270002
0.075288579 0.092662863 2.0270002
-0.30501527 0.10681969 2.0270002
-0.29729334 0.10424572 2.0270002
-0.28957143 0.10424572 2.0270002
-0.27412763 0.10810667 2.0270002
-0.25482285 0.10810667 2.0270002
-0.24710098 0.10810667 2.0270002
0.081080012 0.10038476 2.0270002
-0.32432002 0.11775906 2.0270002
-0.31466764 0.1138981 2.0270002
-0.28184953 0.11196762 2.0270002
-0.27798861 0.11196762 2.0270002
-0.26640573 0.11196762 2.0270002
-0.33590287 0.12355049 2.0270002
-0.3436248 0.13320287 2.0270002
-0.3513467 0.14285526 2.0270002
-0.24324001 0.49806291 2.0270002
-0.23551811 0.49806291 2.0270002
-0.22200477 0.49806291 2.0270002
-0.2123524 0.49806291 2.0270002
-0.20849144 0.49806291 2.0270002
-0.24324001 0.5019238 2.0270002
-0.23551813 0.50523323 2.0270004
-0.22393525 0.50385433 2.0270004
-0.20463049 0.50514132 2.0270004
-0.1949781 0.50964576 2.0270002
-0.23165716 0.51350671 2.0270002
-0.1949781 0.52508956 2.0270002
-0.18661271 0.52573305 2.0270004
-0.18532573 0.53281152 2.0270002
-0.17502986 0.53538549 2.0270002
-0.16988192 0.53281146 2.0270002
-0.18532573 0.54053342 2.0270002
0.12622382 -0.29322761 2.039
0.12234001 -0.28546 2.039
0.11651429 -0.27575049 2.039
0.10874667 -0.26215714 2.039
0.11263048 -0.26798287 2.039
0.10486286 -0.25244763 2.039
0.10097905 -0.24079619 2.039
0.097095244 -0.23302858 2.039
0.093211427 -0.22526096 2.039
0.097095244 -0.2058419 2.039
0.095153332 -0.19419047 2.039
0.093211427 -0.18642285 2.039
0.08544381 -0.14370096 2.039
0.081560001 -0.13787523 2.039
0.077676192 -0.12428191 2.039
0.077676184 0.069908567 2.039
0.081560001 0.069908567 2.039
-0.32235619 0.10874667 2.039
-0.31458855 0.10745206 2.039
-0.30682096 0.10486286 2.039
-0.28546 0.10874667 2.039
-0.27575046 0.10874667 2.039
-0.26409909 0.10745206 2.039
-0.25438952 0.10486286 2.039
-0.24856381 0.10486286 2.039
0.08544381 0.10097905 2.039
-0.3320657 0.11651429 2.039
-0.32494539 0.11392508 2.039
-0.31847239 0.11263048 2.039
-0.34306988 0.12687112 2.039
-0.33594954 0.1203981 2.039
-0.35342667 0.13787523 2.039
-0.34954289 0.13399142 2.039
-0.35731047 0.14370096 2.039
-0.2032527 0.5023061 2.039
-0.19419047 0.50489521 2.0389998
-0.19030666 0.51266289 2.039
-0.18383364 0.52690351 2.039
-0.17477143 0.52625626 2.039
-0.16700381 0.5262562 2.039
-0.17574239 0.53305292 2.039
-0.16700381 0.53402388 2.039
-0.17671335 0.5437333 2.039
0.1224089 -0.29560447 2.0510001
0.11589777 -0.28518671 2.0510001
0.12110668 -0.28909335 2.0510001
0.10938667 -0.27346668 2.0510001
0.11329334 -0.27542001 2.0510001
0.10743333 -0.26565334 2.0510001
0.10352667 -0.25393334 2.0510001
0.10157334 -0.24612002 2.0510001
0.095062226 -0.2344 2.0510001
0.093760006 -0.22268 2.0510001
0.093760006 -0.21486668 2.0510001
0.093760006 -0.2051 2.0510001
0.093760006 -0.19728667 2.0510001
0.089853339 -0.17189334 2.0510001
0.089853339 -0.16408001 2.0510001
0.087900005 -0.15431334 2.0510001
0.083993338 -0.14650001 2.0510001
0.078133337 -0.13282667 2.0510001
0.07422667 -0.12306 2.0510001
0.075008005 0.07578934 2.0510004
0.084970005 0.07715667 2.0510001
0.093760006 0.078133337 2.0510001
0.073575564 0.084644452 2.0510004
0.087248892 0.083342224 2.0510001
0.093760006 0.083993338 2.0510001
-0.33206668 0.10938667 2.0510001
-0.32503471 0.10548001 2.0510004
-0.31644002 0.10548 2.0510001
-0.28518671 0.10548 2.0510001
-0.27542001 0.10548 2.0510001
-0.26760668 0.10548 2.0510001
0.089853339 0.10157334 2.0510001
0.093760006 0.10352667 2.0510001
-0.33597335 0.11459556 2.0510001
-0.34378669 0.12110668 2.0510001
-0.35746002 0.13478 2.0510001
-0.11524667 0.19728667 2.0510001
-0.10352667 0.19533333 2.0510001
-0.095713332 0.19142668 2.0510001
-0.17580001 0.20705335 2.0510001
-0.16798668 0.20705333 2.0510001
-0.17189334 0.22658668 2.0510001
-0.17189334 0.23049335 2.0510001
-0.16603334 0.23049335 2.0510001
-0.070320003 0.48833331 2.0510001
-0.064460002 0.48833331 2.0510001
-0.058600001 0.48833331 2.0510001
-0.073445342 0.49458405 2.0510004
-0.064460002 0.49419338 2.0510001
-0.058600001 0.49224004 2.0510001
-0.20314668 0.50005335 2.0510001
-0.19924001 0.50005335 2.0510001
-0.085946672 0.50005335 2.0510001
-0.074226677 0.50200671 2.0510004
-0.066413336 0.50005335 2.0510001
0.11657589 -0.29471433 2.0630002
0.11199145 -0.28489047 2.0630002
0.10609715 -0.2750667 2.0630002
0.11002668 -0.2789962 2.0630002
0.10609715 -0.26720765 2.0630002
0.10216763 -0.25738382 2.0630002
0.098238103 -0.24559525 2.0630002
0.090379059 -0.19451144 2.0630002
0.090379059 -0.18468764 2.0630002
0.090379059 -0.17682858 2.0630002
0.086449534 -0.16307525 2.0630002
0.086449534 -0.15718096 2.0630002
0.078590482 -0.14342764 2.0630002
0.082520008 -0.14932191 2.0630002
0.07662572 -0.13556859 2.0630002
0.074660957 -0.1296743 2.0630002
0.074660957 0.066801913 2.0630002
0.072696194 0.074660957 2.0630002
0.078590482 0.086449534 2.0630002
0.085139692 0.085139692 2.0630002
0.078590482 0.090379059 2.0630002
0.082520008 0.094308577 2.0630002
-0.33400953 0.10609715 2.0630002
-0.24756001 0.10609715 2.0630002
-0.34579813 0.11657589 2.0630002
-0.33793908 0.11002668 2.0630002
-0.35562193 0.1296743 2.0630002
-0.34972766 0.12378001 2.0630002
-0.094308577 0.18861715 2.0630002
-0.16307525 0.19647621 2.0630002
-0.12181525 0.19647621 2.0630002
-0.094308585 0.19516638 2.0630002
-0.17289907 0.20433526 2.0630002
-0.1639173 0.20433526 2.0630002
-0.15718096 0.20826478 2.0630002
-0.12279764 0.20335287 2.0630002
-0.11339484 0.20545799 2.0630002
-0.10452534 0.20433526 2.0630002
-0.09627334 0.20040573 2.0630002
-0.18206796 0.21350414 2.0630002
-0.17486382 0.21415907 2.0630002
-0.16504002 0.21415907 2.0630002
-0.12378001 0.21415907 2.0630002
-0.11395621 0.21415907 2.0630002
-0.18468763 0.22398289 2.0630002
-0.17525677 0.22319698 2.0630002
-0.16661182 0.2255547 2.0630002
-0.12378001 0.22005336 2.0630002
-0.11788572 0.22005336 2.0630002
-0.18075812 0.23184192 2.0630002
-0.17682858 0.23184192 2.0630002
-0.16111049 0.23184192 2.0630002
-0.13556859 0.23577145 2.0630002
-0.12443493 0.23839113 2.0630002
-0.094308577 0.487261 2.0630002
-0.082520008 0.487261 2.0630002
-0.074660957 0.487261 2.0630002
-0.06483715 0.487261 2.0630002
-0.092343822 0.4990496 2.0630002
-0.083502389 0.49610245 2.0630002
-0.077280641 0.49250036 2.0630002
-0.09627334 0.5029791 2.0630002
-0.090379059 0.51476765 2.0630002
-0.084484778 0.51476771 2.0630002
-0.084484771 0.52459145 2.0630002
-0.082520008 0.53048575 2.0630002
0.1146743 -0.30052575 2.0760002
0.10676572 -0.29261717 2.0760002
0.11203811 -0.29525337 2.0760002
0.10478858 -0.28273144 2.0760002
0.11072001 -0.28866288 2.0760002
0.10281144 -0.27482289 2.0760002
0.098857149 -0.2609829 2.0760002
0.10281144 -0.26691431 2.0760002
0.098857149 -0.25505146 2.0760002
0.08699429 -0.20166858 2.0760002
0.090948582 -0.20562288 2.0760002
0.08699429 -0.19573715 2.0760002
0.086005718 -0.18585144 2.0760002
0.08699429 -0.17398858 2.0760002
0.083040006 -0.16410288 2.0760002
0.079085723 -0.15026288 2.0760002
0.083040006 -0.1561943 2.0760002
0.075131439 -0.14433144 2.0760002
0.075131439 -0.1384 2.0760002
0.071177147 -0.12456001 2.0760002
0.085676193 0.092266679 2.0760002
-0.35193148 0.10676572 2.0760002
-0.33216003 0.10281144 2.0760002
-0.28470859 0.10281144 2.0760002
-0.27680001 0.10281144 2.0760002
-0.26691431 0.10281144 2.0760002
-0.35193148 0.11269715 2.0760002
-0.34665906 0.11203811 2.0760002
-0.35588577 0.12653716 2.0760002
-0.090948582 0.18980573 2.0760002
-0.053382862 0.18980573 2.0760002
-0.13365488 0.19613259 2.0760002
-0.12653716 0.1977143 2.0760002
-0.090948582 0.1977143 2.0760002
-0.085017145 0.19573715 2.0760002
-0.079085723 0.19573715 2.0760002
-0.054041915 0.19507812 2.0760002
-0.1534263 0.20720461 2.0760002
-0.14499049 0.20825908 2.0760002
-0.13444573 0.2056229 2.0760002
-0.12653716 0.20760003 2.0760002
-0.10281144 0.20562288 2.0760002
-0.094337977 0.20675269 2.0760002
-0.086005718 0.20661144 2.0760002
-0.053382862 0.20166858 2.0760002
-0.035588577 0.20562288 2.0760002
-0.18585144 0.21748573 2.0760002
-0.15421715 0.21550861 2.0760002
-0.14630859 0.21550858 2.0760002
-0.13444573 0.21550861 2.0760002
-0.10478859 0.21550858 2.0760002
-0.094902866 0.21353145 2.0760002
-0.08699429 0.21353145 2.0760002
-0.18321526 0.22671241 2.0760002
-0.16410288 0.22341716 2.0760002
-0.1561943 0.22144002 2.0760002
-0.13207315 0.22539429 2.0760002
-0.12456001 0.22737145 2.0760002
-0.11467429 0.22275811 2.0760002
-0.13246858 0.23528002 2.0760002
-0.12390096 0.23462097 2.0760002
-0.13345715 0.24220002 2.0760002
-0.12521908 0.24648383 2.0760002
-0.096880004 0.2807543 2.0760002
-0.12653716 0.4586972 2.0760002
-0.13049145 0.46265149 2.0760002
-0.12653716 0.46265149 2.0760002
-0.079085723 0.46660575 2.0760002
-0.10281144 0.47846863 2.0760002
-0.098857149 0.47846863 2.0760002
-0.083040006 0.47846863 2.0760002
-0.07809715 0.47550291 2.0760002
-0.10281144 0.48440003 2.0760002
-0.094902873 0.48440009 2.0760002
-0.085017145 0.48440006 2.0760002
-0.075131439 0.48440003 2.0760002
-0.067222863 0.48637718 2.0760002
-0.12258286 0.49033144 2.0760002
-0.11625601 0.492704 2.0760002
-0.10380001 0.49329716 2.0760002
-0.094902873 0.49478003 2.0760002
-0.08699429 0.49428576 2.0760002
-0.11665144 0.50417149 2.0760002
-0.10412954 0.50483054 2.0760002
-0.098857149 0.50219434 2.0760002
-0.14235429 0.51801145 2.0760002
-0.095397152 0.51405716 2.0760002
-0.085017145 0.51010287 2.0760002
-0.14235429 0.52394295 2.0760002
-0.10281144 0.52592003 2.0760002
-0.094902866 0.52526104 2.0760002
-0.12258286 0.53382862 2.0760002
-0.11467429 0.53580576 2.0760002
0.10738286 -0.30226287 2.0880001
0.11533715 -0.3049143 2.0880001
0.10738286 -0.2943086 2.0880001
0.099428572 -0.28237715 2.0880001
0.10340571 -0.28635427 2.0880001
0.095451429 -0.25056002 2.0880001
0.095451429 -0.24459429 2.0880001
0.091474287 -0.21675429 2.0880001
0.084845714 -0.20548573 2.0880001
0.083519995 -0.19488001 2.0880001
0.07954286 -0.18493715 2.0880001
0.083519995 -0.18294857 2.0880001
0.07954286 -0.17300573 2.0880001
0.083519995 -0.17499429 2.0880001
0.07954286 -0.16505143 2.0880001
0.078217149 -0.15510857 2.0880001
0.071588568 -0.13323429 2.0880001
0.067611434 -0.12329143 2.0880001
0.067611434 -0.11533715 2.0880001
0.072914287 -0.11798858 2.0880001
0.059657149 -0.055679999 2.0880001
0.059657145 -0.047725715 2.0880001
0.051702857 -0.023862857 2.0880001
0.071588568 0.091474287 2.0880001
-0.34601146 0.10738286 2.0880001
-0.29629713 0.10340571 2.0880001
-0.28635427 0.10340571 2.0880001
-0.27442285 0.10340571 2.0880001
-0.26249143 0.10340571 2.0880001
-0.2565257 0.10340571 2.0880001
-0.35794288 0.11533715 2.0880001
-0.22272 0.11533715 2.0880001
-0.21476573 0.11136 2.0880001
-0.20681143 0.11136 2.0880001
-0.16505143 0.11732572 2.0880001
-0.15908572 0.11533715 2.0880001
-0.36192003 0.12726857 2.0880001
-0.35794285 0.12329143 2.0880001
-0.087497145 0.18692571 2.0880001
-0.043748572 0.18692571 2.0880001
-0.0348 0.18593143 2.0880001
-0.026514288 0.18427429 2.0880001
-0.08550857 0.19090286 2.0880001
-0.074429385 0.19431184 2.0880003
-0.065622859 0.19487999 2.0880003
-0.05766857 0.19587429 2.0880001
-0.045737144 0.19487999 2.0880003
-0.038180571 0.19408457 2.0880001
0 0.19488001 2.0880001
0.077554286 0.19090286 2.0880001
-0.14317714 0.20681143 2.0880001
-0.083519995 0.20482287 2.0880001
-0.075565718 0.20482287 2.0880003
-0.065622859 0.20482287 2.0880001
-0.056674287 0.20581715 2.0880001
-0.045737144 0.20482287 2.0880001
-0.037782855 0.20283429 2.0880001
-0.14317714 0.21675429 2.0880001
-0.095451429 0.217152 2.0880001
-0.084845714 0.21741717 2.0880001
-0.075565718 0.21476573 2.0880001
-0.065622859 0.21476571 2.0880003
-0.055680003 0.21476574 2.0880001
-0.045737147 0.21476573 2.0880003
-0.038180571 0.21397029 2.0880001
-0.19090286 0.22669715 2.0880001
-0.15411429 0.22570285 2.0880001
-0.14516571 0.22470859 2.0880001
-0.13787429 0.22537145 2.0880001
-0.11334857 0.22669715 2.0880001
-0.10539428 0.22470859 2.0880001
-0.095451437 0.22470859 2.0880003
-0.08550857 0.22470859 2.0880001
-0.077554286 0.22470857 2.0880001
-0.045737144 0.22470859 2.0880001
-0.035794288 0.22470859 2.0880003
-0.025851429 0.22470857 2.0880001
-0.15510857 0.2306743 2.0880001
-0.14450286 0.23199999 2.0880001
-0.13654858 0.23332572 2.0880001
-0.11832 0.23465145 2.0880001
-0.10340571 0.23266286 2.0880001
-0.073577143 0.2306743 2.0880001
-0.043748572 0.2306743 2.0880001
-0.036589716 0.23226514 2.0880001
-0.11732572 0.24459428 2.0880001
-0.12329143 0.25453717 2.0880001
-0.1158343 0.25503427 2.0880001
-0.10340571 0.25851429 2.0880001
-0.094656006 0.25692341 2.0880001
-0.08550857 0.25851429 2.0880001
-0.077554293 0.25453717 2.0880003
-0.12329143 0.26249143 2.0880001
-0.11401143 0.26514286 2.0880001
-0.10340571 0.26447999 2.0880001
-0.095451429 0.26448002 2.0880003
-0.08550857 0.26447999 2.0880001
-0.076361142 0.26487771 2.0880001
-0.12329143 0.27243429 2.0880001
-0.11334857 0.27044573 2.0880001
-0.10499656 0.27521831 2.0880001
-0.095451437 0.27442285 2.0880001
-0.08550857 0.27442288 2.0880003
-0.077156581 0.27283201 2.0880001
-0.11334857 0.28436571 2.0880001
-0.10539428 0.28436571 2.0880001
-0.09445715 0.28536001 2.0880001
-0.08550857 0.28436571 2.0880001
-0.078217149 0.28370285 2.0880001
-0.10539427 0.2943086 2.0880003
-0.095451437 0.29430857 2.0880001
-0.08550857 0.2943086 2.0880003
-0.075565718 0.29430857 2.0880001
-0.11136 0.30623999 2.0880001
-0.10473143 0.3049143 2.0880001
-0.095451437 0.30425143 2.0880003
-0.08550857 0.30425143 2.0880001
-0.075565718 0.30425143 2.0880003
-0.10340571 0.31419429 2.0880001
-0.095451437 0.31419432 2.0880001
-0.085110858 0.31419429 2.0880001
-0.077554286 0.31817144 2.0880001
-0.10340571 0.32214859 2.0880001
-0.09445715 0.32314289 2.0880001
-0.08550857 0.32214859 2.0880001
-0.12329143 0.33805716 2.0880001
-0.091474287 0.33010286 2.0880001
-0.12329143 0.34203431 2.0880001
-0.11732572 0.34998858 2.0880001
-0.11931429 0.3539657 2.0880001
-0.10340571 0.35794285 2.0880001
-0.099428572 0.35794285 2.0880001
-0.11136 0.36192003 2.0880001
-0.10539428 0.36192003 2.0880001
-0.097439997 0.36589715 2.0880001
-0.094656006 0.3754423 2.0880001
-0.087497145 0.37584001 2.0880001
-0.12594286 0.38313144 2.0880001
-0.093462855 0.38578284 2.0880001
-0.087497145 0.38976002 2.0880001
-0.12527999 0.39771429 2.0880001
-0.11136 0.39771429 2.0880001
-0.10738286 0.39771429 2.0880001
-0.12726857 0.40169144 2.0880001
-0.11136 0.40368003 2.0880001
-0.10738286 0.40368003 2.0880001
-0.11136 0.41362286 2.0880001
-0.10738286 0.41362286 2.0880001
-0.12329143 0.42157716 2.0880001
-0.11334857 0.42157716 2.0880001
-0.10738286 0.42157716 2.0880001
-0.096445717 0.42853716 2.0880001
-0.097440004 0.43549713 2.0880001
-0.11931429 0.44742858 2.0880001
-0.12329143 0.45538288 2.0880001
-0.11732572 0.45538288 2.0880001
-0.13456 0.46598861 2.0880003
-0.12428571 0.46632001 2.0880001
-0.11647348 0.46475759 2.0880003
-0.10340571 0.46532571 2.0880001
-0.095451437 0.46930286 2.0880001
-0.08550857 0.46930286 2.0880001
-0.073577143 0.46930286 2.0880001
-0.12329143 0.47725716 2.0880001
-0.11401143 0.47593147 2.0880001
-0.10539428 0.47526857 2.0880001
-0.095451437 0.47526857 2.0880003
-0.08550857 0.47526857 2.0880001
-0.074239999 0.47593147 2.0880001
-0.067611434 0.47725716 2.0880001
-0.12527999 0.48521146 2.0880003
-0.11533715 0.48521143 2.0880001
-0.10738286 0.48521146 2.0880001
-0.093462855 0.48123431 2.0880001
-0.087497145 0.48123431 2.0880001
-0.071588568 0.48123431 2.0880001
-0.065622859 0.48521143 2.0880001
-0.12594286 0.49581715 2.0880001
-0.11334857 0.49714285 2.0880001
-0.10738286 0.49714285 2.0880001
-0.14516571 0.50708568 2.0880001
-0.13363202 0.50668806 2.0880001
-0.12527999 0.50509715 2.0880003
-0.11401144 0.50509715 2.0880003
-0.10738286 0.50310862 2.0880001
-0.14450286 0.51437724 2.0880001
-0.13522285 0.51504004 2.0880003
-0.12527999 0.51504004 2.0880001
-0.11533716 0.51504004 2.0880003
-0.10539428 0.51504004 2.0880001
-0.13522287 0.52498287 2.0880001
-0.12527999 0.52498293 2.0880003
-0.11533715 0.52498287 2.0880001
-0.105792 0.52418751 2.0880001
-0.13257144 0.5342629 2.0880001
-0.12527999 0.53293717 2.0880001
-0.11434285 0.53393149 2.0880001
-0.10539428 0.5349257 2.0880001
-0.096246853 0.53532344 2.0880001
-0.087497145 0.53691429 2.0880001
-0.11136 0.54486859 2.0880001
-0.10539428 0.54288 2.0880001
-0.096445717 0.54188573 2.0880001
-0.087497145 0.54089147 2.0880001
0.1053835 -0.3041448 2.1010003
0.11205333 -0.30814669 2.1010001
0.10404953 -0.29413998 2.1010001
0.10004762 -0.28013334 2.1010001
0.10004762 -0.27413049 2.1010001
0.096045718 -0.26212478 2.1010001
0.10004762 -0.26812762 2.1010001
0.09404476 -0.25412095 2.1010001
0.09204381 -0.24411619 2.1010003
0.09204381 -0.23411143 2.1010001
0.088041902 -0.22010475 2.1010001
0.09204381 -0.22610763 2.1010001
0.086040951 -0.21410191 2.1010001
0.080038093 -0.20409715 2.1010003
0.080038093 -0.19409239 2.1010001
0.080038093 -0.18008572 2.1010001
0.076036192 -0.17408285 2.1010001
0.074435435 -0.16327773 2.1010001
0.073368259 -0.15474032 2.1010003
0.072034284 -0.14406857 2.1010003
0.068032384 -0.13406381 2.1010001
0.068032384 -0.12405905 2.1010001
0.060028572 -0.080038093 2.1010001
0.056026667 -0.072034284 2.1010001
0.060028572 -0.074035242 2.1010001
0.056026667 -0.060028572 2.1010001
0.060028572 -0.066031426 2.1010001
0.056026667 -0.054025717 2.1010001
0.056026667 -0.046021905 2.1010001
0.052024763 -0.020009523 2.1010001
0.052024763 -0.012005715 2.1010001
0.052024763 -0.0080038095 2.1010001
0.056026667 0.016007619 2.1010001
0.056026667 0.020009523 2.1010001
0.060028572 0.036017142 2.1010001
0.060028572 0.040019047 2.1010001
-0.29213905 0.096045718 2.1010001
-0.28413525 0.096045718 2.1010001
-0.34416381 0.10404953 2.1010001
-0.30614573 0.10404953 2.1010001
-0.29413998 0.10004762 2.1010001
-0.28413525 0.10004762 2.1010003
-0.27413049 0.10004762 2.1010001
-0.26812762 0.10004762 2.1010001
-0.25212002 0.10404953 2.1010001
-0.24678414 0.10671746 2.1010003
-0.23211047 0.10605048 2.1010001
-0.22510715 0.10705096 2.1010001
-0.21410191 0.10805143 2.1010001
-0.20809905 0.10805143 2.1010001
-0.18808952 0.10805143 2.1010001
0.0060028573 0.10404953 2.1010001
-0.2481181 0.11205333 2.1010001
-0.22677462 0.1133873 2.1010003
-0.20209619 0.11405428 2.1010001
-0.19342542 0.11472127 2.1010003
-0.18488801 0.11445447 2.1010001
-0.17408285 0.11605524 2.1010001
-0.1640781 0.1133873 2.1010003
-0.15407333 0.11605524 2.1010001
-0.1432682 0.11445447 2.1010001
0 0.11205333 2.1010001
-0.36417335 0.12405905 2.1010001
-0.19209144 0.12005714 2.1010001
-0.18408762 0.12005715 2.1010003
-0.17408285 0.12005714 2.1010001
-0.14006667 0.12005714 2.1010001
-0.13606477 0.12005714 2.1010001
-0.10404953 0.12405905 2.1010001
-0.022010475 0.18808952 2.1010001
0.0048022862 0.18648878 2.1010001
0.068032384 0.18808952 2.1010001
0.072034284 0.18808952 2.1010001
-0.032015238 0.19409239 2.1010001
-0.024011429 0.19409239 2.1010001
-0.016007619 0.19409239 2.1010001
0.0048022862 0.19369219 2.1010001
0.068032384 0.19209144 2.1010001
0.074035242 0.19409239 2.1010001
-0.033349209 0.20142922 2.1010003
-0.024011429 0.20409714 2.1010001
-0.013339683 0.20676509 2.1010003
-0.0056026666 0.20489752 2.1010001
0.0040019047 0.20409715 2.1010001
0.013339683 0.20676509 2.1010003
0.074702226 0.2054311 2.1010003
-0.020009523 0.21210095 2.1010001
-0.016007619 0.21210095 2.1010001
-0.0040019047 0.21210095 2.1010001
0.0020009524 0.21210095 2.1010001
-0.072034284 0.22610763 2.1010001
-0.064030483 0.22610763 2.1010001
-0.054025717 0.22610763 2.1010001
-0.1133873 0.23344445 2.1010003
-0.10404952 0.23411143 2.1010001
-0.09404476 0.23411143 2.1010001
-0.084040001 0.23411146 2.1010001
-0.074035242 0.23611239 2.1010001
-0.064830862 0.23371124 2.1010001
-0.053358734 0.23344445 2.1010003
-0.046688892 0.2347784 2.1010003
-0.11305381 0.24311572 2.1010001
-0.10404953 0.2441162 2.1010001
-0.094044767 0.24411619 2.1010001
-0.084039994 0.2441162 2.1010001
-0.074435435 0.24331582 2.1010001
-0.068032384 0.24211524 2.1010001
-0.11205333 0.25212002 2.1010001
-0.10404953 0.25412095 2.1010001
-0.09404476 0.25212002 2.1010001
-0.086040951 0.25412095 2.1010001
-0.12005714 0.26612666 2.1010001
-0.11205333 0.2641257 2.1010001
-0.10805143 0.26412573 2.1010003
-0.12005714 0.27413049 2.1010001
-0.11405428 0.27613145 2.1010001
-0.10805143 0.27212954 2.1010001
-0.074035242 0.27613145 2.1010001
-0.12005714 0.28213429 2.1010001
-0.11405428 0.28013334 2.1010001
-0.073635057 0.28413525 2.1010001
-0.12005714 0.29614094 2.1010001
-0.11405428 0.29413998 2.1010001
-0.12005715 0.3041448 2.1010003
-0.11445447 0.3033444 2.1010001
-0.10805143 0.30414477 2.1010001
-0.1133873 0.31348255 2.1010003
-0.10671747 0.31481653 2.1010003
-0.082706034 0.31481653 2.1010003
-0.076036192 0.31414953 2.1010001
-0.13206285 0.3281562 2.1010001
-0.12405904 0.32615525 2.1010001
-0.11405428 0.32415432 2.1010001
-0.10565028 0.32575506 2.1010001
-0.096045718 0.3281562 2.1010001
-0.083039522 0.32715571 2.1010001
-0.076036192 0.32615525 2.1010001
-0.13206285 0.33415908 2.1010001
-0.12405905 0.33415908 2.1010001
-0.11405428 0.33415905 2.1010001
-0.10404953 0.33415908 2.1010001
-0.094711743 0.33482608 2.1010003
-0.084040001 0.33415908 2.1010001
-0.076036192 0.33415908 2.1010001
-0.12325867 0.34336343 2.1010001
-0.11405428 0.34416384 2.1010001
-0.10404953 0.34416381 2.1010001
-0.094044767 0.34416384 2.1010001
-0.084039994 0.34416381 2.1010001
-0.074435435 0.34496421 2.1010001
-0.1133873 0.3548356 2.1010003
-0.10404953 0.35416859 2.1010001
-0.09404476 0.35416859 2.1010001
-0.08484038 0.35376841 2.1010001
-0.074035242 0.35616955 2.1010001
-0.12005714 0.36617428 2.1010001
-0.11445447 0.36417338 2.1010001
-0.10505 0.36617428 2.1010001
-0.093644574 0.36417335 2.1010001
-0.084040001 0.36417335 2.1010001
-0.075035721 0.36517382 2.1010001
-0.066031426 0.36817524 2.1010001
-0.12005714 0.37417811 2.1010001
-0.11405428 0.37417811 2.1010001
-0.10605048 0.37417811 2.1010001
-0.09204381 0.37217715 2.1010001
-0.084040001 0.37417808 2.1010001
-0.076036192 0.37417811 2.1010001
-0.12205809 0.38518333 2.1010001
-0.11365409 0.38498327 2.1010001
-0.10404953 0.38418284 2.1010001
-0.09204381 0.38418287 2.1010001
-0.084040001 0.3847546 2.1010001
-0.076036192 0.38018095 2.1010001
-0.12405905 0.39418766 2.1010001
-0.11405428 0.39418763 2.1010001
-0.10404953 0.39418763 2.1010001
-0.094711743 0.39485464 2.1010003
-0.083239615 0.39458784 2.1010001
-0.074035242 0.39418763 2.1010001
-0.066031426 0.39418763 2.1010001
-0.13206285 0.40619332 2.1010001
-0.12272508 0.40552637 2.1010001
-0.11605524 0.40419239 2.1010003
-0.10204858 0.40419239 2.1010001
-0.094044767 0.40419242 2.1010001
-0.085183404 0.40362069 2.1010001
-0.072034284 0.40419239 2.1010001
-0.066031426 0.40419239 2.1010001
-0.13206285 0.41219619 2.1010001
-0.12405904 0.41419715 2.1010001
-0.11472127 0.41353017 2.1010003
-0.10324915 0.41379696 2.1010001
-0.09404476 0.41419715 2.1010001
-0.08484038 0.41379696 2.1010001
-0.073368259 0.41353017 2.1010003
-0.066031426 0.41419715 2.1010001
-0.12348736 0.42363027 2.1010001
-0.11405428 0.42420191 2.1010001
-0.10404953 0.42363021 2.1010001
-0.094044767 0.42420194 2.1010001
-0.086040944 0.42420194 2.1010001
-0.072034284 0.42020002 2.1010001
-0.066031426 0.42020002 2.1010001
-0.12139112 0.43353969 2.1010003
-0.11405428 0.43420666 2.1010001
-0.10605048 0.43420666 2.1010001
-0.09204381 0.43620762 2.1010001
-0.084040008 0.43420669 2.1010001
-0.074035242 0.43420666 2.1010001
-0.068032384 0.43420666 2.1010001
-0.12005714 0.4422105 2.1010001
-0.11405428 0.44421145 2.1010001
-0.10454977 0.44471169 2.1010001
-0.093644574 0.44501182 2.1010001
-0.084540233 0.44421142 2.1010001
-0.074035242 0.44421142 2.1010001
-0.068032384 0.44020951 2.1010001
-0.1133873 0.45354924 2.1010003
-0.10404953 0.45421621 2.1010001
-0.09404476 0.45421618 2.1010001
-0.084040001 0.45421618 2.1010001
-0.074035242 0.45421618 2.1010001
-0.13406381 0.46021906 2.1010001
-0.12806095 0.46021906 2.1010001
-0.11205333 0.46422094 2.1010001
-0.10404952 0.46422097 2.1010001
-0.094044767 0.464221 2.1010001
-0.084039986 0.464221 2.1010001
-0.074035242 0.464221 2.1010001
-0.068032384 0.4662219 2.1010001
-0.14406857 0.47422573 2.1010001
-0.13206285 0.47622669 2.1010001
-0.12405905 0.47622669 2.1010003
-0.11205333 0.47422573 2.1010001
-0.10805143 0.47222477 2.1010001
-0.072034284 0.47622669 2.1010001
-0.068032384 0.47422573 2.1010001
-0.12405905 0.48022857 2.1010001
-0.14006667 0.50824189 2.1010001
-0.13606477 0.50824189 2.1010001
0.0040019047 0.52024764 2.1010001
-0.09404476 0.54826099 2.1010001
-0.088041902 0.54826099 2.1010001
0.10066667 -0.30401334 2.1140001
0.10066667 -0.29596001 2.1140001
0.095297776 -0.28320894 2.1140001
0.10066667 -0.28992 2.1140001
0.094626665 -0.27582669 2.1140001
0.093620002 -0.26676667 2.1140001
0.088586673 -0.25368002 2.1140001
0.092613332 -0.25770667 2.1140001
0.088586673 -0.24562669 2.1140001
0.088586673 -0.23556 2.1140001
0.08523111 -0.22549334 2.1140003
0.080533341 -0.21542668 2.1140001
0.076506667 -0.20536 2.1140001
0.076506667 -0.19529334 2.1140001
0.074493334 -0.18522668 2.1140003
0.072480001 -0.17516001 2.1140001
0.068453334 -0.16106668 2.1140001
0.072480001 -0.16912 2.1140001
0.068453334 -0.15502667 2.1140001
0.068453334 -0.14496002 2.1140001
0.068453334 -0.11274667 2.1140001
0.068453334 -0.10469334 2.1140001
0.062413335 -0.092613332 2.1140001
0.056373335 -0.082546666 2.1140001
0.062413335 -0.08657334 2.1140001
0.053688891 -0.075164452 2.1140001
0.048319999 -0.060400002 2.1140001
0.053957339 -0.065232001 2.1140001
0.048319999 -0.054360002 2.1140001
0.052346665 -0.054360002 2.1140001
0.048320003 -0.044293337 2.1140001
0.052346669 -0.044293337 2.1140001
0.048319999 -0.034226667 2.1140001
0.052346665 -0.034226667 2.1140001
0.048320003 -0.024160001 2.1140001
0.052346665 -0.028186668 2.1140001
0.048319999 -0.014093334 2.1140001
0.052346665 -0.016106667 2.1140001
0.056373335 0.026173335 2.1140001
0.056373335 0.034226667 2.1140001
0.062413335 0.044293337 2.1140001
-0.29797333 0.096639998 2.1140001
-0.28589335 0.096639998 2.1140001
-0.34226668 0.10469333 2.1140001
-0.33018667 0.10469333 2.1140001
-0.30401334 0.10066667 2.1140001
-0.26374668 0.10066667 2.1140001
-0.25569335 0.10066667 2.1140001
-0.24462001 0.10469333 2.1140001
