# .PCD v0.7 - Point Cloud Data file format
VERSION 0.7
FIELDS x y z
SIZE 4 4 4
TYPE F F F
COUNT 1 1 1
WIDTH 1459
HEIGHT 1
VIEWPOINT 0 0 0 1 0 0 0
POINTS 1459
DATA ascii
0.026162541 -0.08324445 1.8730001
0.033892386 -0.085622869 1.8730001
0.049946669 -0.089190483 1.8730001
0.026757143 -0.07848762 1.8730001
0.035676192 -0.074410349 1.8730003
0.046379052 -0.073136196 1.8730001
0.053514287 -0.074920006 1.8730001
0.026757143 -0.06243334 1.8730001
0.035676192 -0.06421715 1.8730003
0.046379048 -0.064217143 1.8730003
-0.2782743 -0.055298097 1.8730001
0.025686858 -0.055654861 1.8730001
0.035676192 -0.055298097 1.8730001
0.046379052 -0.055298101 1.8730001
-0.2782743 -0.042811431 1.8730001
0.025992656 -0.046379048 1.8730003
0.035676192 -0.046379048 1.8730003
0.046379048 -0.046379048 1.8730003
-0.28184193 -0.033892386 1.8730001
-0.27470669 -0.035676196 1.8730003
-0.26638225 -0.033297785 1.8730001
0.016946191 -0.034784287 1.8730001
0.024973335 -0.035676196 1.8730003
0.035230242 -0.036122147 1.8730001
0.044595242 -0.037459999 1.8730001
-0.28184193 -0.021405715 1.8730001
-0.27292287 -0.024973337 1.8730001
-0.26502314 -0.024973335 1.8730003
0.016411049 -0.024973337 1.8730001
0.024973335 -0.024973335 1.8730003
0.035230242 -0.024527382 1.8730001
0.042811431 -0.023189526 1.8730001
-0.27292287 -0.014270477 1.8730001
-0.26757145 -0.016054288 1.8730001
0.014270477 -0.016054288 1.8730001
0.025482995 -0.015289798 1.8730003
0.034656875 -0.013760817 1.8730003
0.042811431 -0.010702858 1.8730001
-0.27292287 -0.0053514289 1.8730001
-0.26757145 -0.0071352385 1.8730001
0.0053514289 -0.0035676192 1.8730001
0.013556953 -0.0049946671 1.8730001
0.02568686 -0.0049946671 1.8730001
0.035676192 -0.0053514293 1.8730001
-0.27470669 0.002378413 1.8730001
0.0040135719 0.0031216668 1.8730001
0.014270478 0.0035676195 1.8730003
0.023954015 0.0030579595 1.8730003
0.035676192 0.0035676192 1.8730001
0.042811431 0.0071352385 1.8730001
-0.27113909 0.014270477 1.8730001
0.0057081911 0.013556953 1.8730001
0.014780138 0.014270478 1.8730003
0.023189526 0.014270477 1.8730001
0.037460003 0.014270477 1.8730001
0.044238478 0.014270477 1.8730001
-0.27113906 0.021405715 1.8730001
-0.26614437 0.025686858 1.8730001
0.0071352385 0.021405715 1.8730001
0.01471643 0.024527382 1.8730001
0.024973335 0.024973335 1.8730003
0.035676192 0.024973333 1.8730003
0.045933098 0.024973335 1.8730001
-0.26667953 0.034784287 1.8730001
0.016054288 0.035676196 1.8730001
0.024973335 0.035676196 1.8730003
0.035676192 0.035676196 1.8730003
0.045359734 0.035166532 1.8730003
0.014270476 0.046379052 1.8730003
0.024973333 0.046379048 1.8730003
0.035676196 0.046379048 1.8730003
0.044238478 0.045665529 1.8730001
0.0071352385 0.055298097 1.8730001
0.014270477 0.055298101 1.8730001
0.024973333 0.055298101 1.8730001
0.034962673 0.054941334 1.8730001
0.042811431 0.053514287 1.8730001
0.0045869397 0.064726807 1.8730003
0.014270476 0.06421715 1.8730003
0.024973335 0.06421715 1.8730003
0.034656875 0.064217143 1.8730003
0.049946669 0.066000953 1.8730001
-0.23367906 0.074920006 1.8730001
-0.17481335 0.07848762 1.8730001
-0.16411048 0.07848762 1.8730001
0.0035676195 0.074920006 1.8730003
0.014270477 0.074920006 1.8730001
0.024463676 0.073900685 1.8730003
0.060649529 0.07848762 1.8730001
-0.22119239 0.082055241 1.8730001
-0.21405718 0.082055241 1.8730001
-0.20573273 0.08443366 1.8730001
-0.19711097 0.08294715 1.8730001
-0.18551621 0.082055241 1.8730001
-0.17481336 0.082055241 1.8730001
-0.16339695 0.083482288 1.8730001
0.0044595241 0.08294715 1.8730001
0.013675874 0.08443366 1.8730001
0.021405715 0.085622862 1.8730001
-0.092758104 0.098109528 1.8730001
-0.092758104 0.10524476 1.8730001
-0.03448699 0.10465016 1.8730001
-0.088298574 0.11505572 1.8730001
-0.03924381 0.11416382 1.8730001
-0.092758104 0.12665048 1.8730001
-0.089190483 0.12308287 1.8730001
-0.03924381 0.12665048 1.8730001
-0.092758104 0.13556953 1.8730001
-0.03924381 0.13378572 1.8730001
-0.092758104 0.14627241 1.8730001
-0.042811435 0.14627239 1.8730001
-0.03924381 0.14984001 1.8730001
-0.092758104 0.15519144 1.8730001
-0.038054608 0.15578604 1.8730001
-0.0035676192 0.15519144 1.8730001
0 0.15340763 1.8730001
-0.089190483 0.16411048 1.8730001
-0.032108575 0.16054286 1.8730001
-0.004756826 0.16411048 1.8730001
0.0035676192 0.16411048 1.8730001
-0.085622862 0.17659715 1.8730001
-0.085622869 0.18602587 1.8730003
-0.07848762 0.18551621 1.8730001
-0.044595242 0.18908381 1.8730001
-0.086642183 0.19570941 1.8730003
-0.054703496 0.19384065 1.8730001
-0.045665529 0.19407849 1.8730001
-0.037103243 0.19550554 1.8730001
-0.092758104 0.2033543 1.8730001
-0.087406665 0.20513812 1.8730001
-0.026757143 0.20692192 1.8730001
-0.092758104 0.21405715 1.8730001
-0.087406665 0.21405715 1.8730001
-0.024973335 0.21048954 1.8730001
-0.092758104 0.22297621 1.8730001
-0.086812072 0.22476 1.8730001
-0.076703817 0.22832763 1.8730001
-0.066595562 0.22713843 1.8730001
-0.092758104 0.23724669 1.8730001
-0.085622869 0.23189525 1.8730001
-0.076703817 0.23367907 1.8730001
-0.066000953 0.23546287 1.8730001
-0.095136516 0.24378733 1.8730001
-0.055298097 0.24973336 1.8730001
-0.060649529 0.2568686 1.8730001
-0.054703496 0.25567943 1.8730001
-0.046379052 0.25508481 1.8730001
-0.03924381 0.25508481 1.8730001
-0.060649529 0.26400384 1.8730001
-0.055298097 0.26400381 1.8730001
-0.046888713 0.26298451 1.8730003
-0.03924381 0.26043621 1.8730001
-0.063325241 0.27203095 1.8730001
-0.054703496 0.27232826 1.8730001
-0.047270954 0.2738148 1.8730001
0.049946669 0.58865714 1.8730001
0.054703496 0.58746797 1.8730001
0.062790096 0.59507889 1.8730001
0.071352385 0.59222484 1.8730001
0.08608 -0.26362002 1.8830003
0.088471115 -0.25584891 1.8830001
0.093253337 -0.25465333 1.8830001
0.060973335 -0.22954668 1.8830001
0.096840009 -0.22954668 1.8830001
0.10162222 -0.22715557 1.8830001
0.096840009 -0.21161334 1.8830001
0.095046684 -0.20444 1.8830003
0.08787334 -0.19368002 1.8830003
0.095046669 -0.19368003 1.8830003
0.10311667 -0.19099 1.8830001
0.095046669 -0.18471333 1.8830001
0.10473068 -0.18507199 1.8830003
0.089666672 -0.17574668 1.8830001
0.095405348 -0.17646401 1.8830003
0.10350097 -0.17472193 1.8830004
0.11262134 -0.17502934 1.8830003
0.08966668 -0.16498668 1.8830001
0.095943347 -0.16409001 1.8830001
0.10281779 -0.16558447 1.8830003
0.11298001 -0.16498667 1.8830001
0.076216668 -0.15153667 1.8830001
0.086528338 -0.15377834 1.8830003
0.095046669 -0.15422669 1.8830003
0.10356501 -0.15467501 1.8830003
0.11432501 -0.15467501 1.8830003
0.068146676 -0.14705333 1.8830001
0.075320005 -0.14526002 1.8830003
0.086080007 -0.14526002 1.8830003
0.095046669 -0.14526001 1.8830001
0.10162222 -0.14585778 1.8830001
0.11298001 -0.14705333 1.8830001
0.068146676 -0.13629335 1.8830001
0.075320005 -0.13629334 1.8830003
0.085183337 -0.13808668 1.8830001
0.068146676 -0.12553334 1.8830001
0.075320005 -0.12553334 1.8830003
0.086080007 -0.12553334 1.8830003
0.093253337 -0.12912001 1.8830001
0.068146676 -0.11477334 1.8830001
0.075320005 -0.11477336 1.8830003
0.085482225 -0.1135778 1.8830003
0.094448894 -0.11238223 1.8830001
0.065584771 -0.10350095 1.8830004
0.074871674 -0.10446167 1.8830003
0.082493335 -0.10760001 1.8830001
0.05738667 -0.095046669 1.8830001
0.064560004 -0.095046684 1.8830003
0.071733341 -0.095046669 1.8830001
0.039453335 -0.08608 1.8830001
0.04483334 -0.086080007 1.8830003
0.054248337 -0.085631669 1.8830003
0.064111672 -0.086528338 1.8830003
0.071733341 -0.089666672 1.8830001
0.039453335 -0.07890667 1.8830001
0.044833332 -0.07890667 1.8830001
0.054995563 -0.075917795 1.8830003
0.063364454 -0.07591778 1.8830003
0.055593338 -0.064560004 1.8830003
0.064111672 -0.064111672 1.8830003
0.055593342 -0.053800002 1.8830003
0.064560011 -0.053800005 1.8830003
0.071733341 -0.053800005 1.8830001
0.055593338 -0.044833332 1.8830001
0.064560004 -0.044833332 1.8830003
0.071733341 -0.04304 1.8830001
-0.27976 -0.032280002 1.8830001
0.039453335 -0.032280002 1.8830001
0.044833332 -0.032280002 1.8830001
0.053351671 -0.036315002 1.8830003
0.062766671 -0.037660003 1.8830001
-0.27976 -0.025106668 1.8830001
0.039453335 -0.028693335 1.8830001
0.045730002 -0.026003335 1.8830001
0.053351671 -0.025106668 1.8830003
-0.28334668 -0.016140001 1.8830001
-0.27976 -0.014346667 1.8830001
0.039453335 -0.016140001 1.8830001
0.045192 -0.015064003 1.8830003
0.053351671 -0.013898334 1.8830003
0.064560011 -0.01076 1.8830001
-0.27976 -0.0053800005 1.8830001
0.044833336 -0.0053800005 1.8830001
0.053800002 -0.0053800005 1.8830003
0.064560004 -0.0053800005 1.8830003
-0.28334668 0 1.8830001
-0.2773689 0.0047822227 1.8830001
0.028693335 0.0053800005 1.8830001
0.03586667 0.0035866671 1.8830004
0.045192 0.0028693336 1.8830003
0.053800005 0.0035866669 1.8830003
0.064560004 0.0035866669 1.8830003
0.072928898 0.0023911113 1.8830001
-0.27796668 0.014346668 1.8830001
0.012553334 0.014346668 1.8830001
0.028693337 0.014346668 1.8830001
0.032280006 0.014346668 1.8830001
0.046626668 0.014346668 1.8830001
0.053800005 0.014346669 1.8830003
0.064047627 0.013321905 1.8830004
-0.2725867 0.026900001 1.8830001
0.054824773 0.02510667 1.8830004
0.061870001 0.024210002 1.8830001
-0.2725867 0.032280002 1.8830001
0.05424834 0.036315002 1.8830003
0.060973339 0.03586667 1.8830001
0.053800009 0.04483334 1.8830003
0.063842677 0.045192003 1.8830003
0.039453335 0.05738667 1.8830001
0.045730002 0.054696668 1.8830001
0.053800005 0.053800005 1.8830003
0.064560011 0.053800005 1.8830003
0.075320005 0.055593338 1.8830003
0.08488445 0.056191117 1.8830001
0.039453335 0.064560004 1.8830001
0.044833332 0.064560011 1.8830003
0.054824773 0.064047627 1.8830004
0.064560004 0.064560018 1.8830003
0.071733341 0.060973335 1.8830001
-0.23492669 0.07890667 1.8830001
0.014346668 0.075320005 1.8830001
0.026900001 0.07890667 1.8830001
0.035418335 0.074871674 1.8830003
0.045730002 0.074423343 1.8830001
0.052604448 0.074124448 1.8830003
0.060973335 0.073526673 1.8830001
0.077113338 0.075320005 1.8830001
0.082493335 0.075320005 1.8830001
-0.23492669 0.082493335 1.8830001
-0.21340668 0.08608 1.8830001
-0.19368002 0.08608 1.8830001
-0.18471333 0.08608 1.8830001
-0.17574668 0.08608 1.8830001
-0.16857335 0.08608 1.8830001
0.014346668 0.08608 1.8830001
0.025106668 0.082493335 1.8830001
-0.093253337 0.11477335 1.8830001
-0.03586667 0.11477335 1.8830001
-0.093253337 0.12194667 1.8830001
-0.03586667 0.12553334 1.8830001
-0.037062228 0.13629335 1.8830001
-0.096840009 0.14346668 1.8830001
-0.039453335 0.14526001 1.8830001
-0.0053800005 0.14705333 1.8830001
-0.096840009 0.15422669 1.8830001
-0.034671117 0.15422669 1.8830001
-0.013321905 0.15422669 1.8830004
-0.0062766671 0.15333001 1.8830001
0.0017933334 0.15422668 1.8830001
-0.028693335 0.16857335 1.8830001
-0.013898335 0.16498667 1.8830003
-0.0071733338 0.16319335 1.8830001
0.0062766671 0.16409001 1.8830001
-0.08966668 0.17574668 1.8830001
-0.028693335 0.17216 1.8830001
-0.01076 0.17216 1.8830001
-0.0059777787 0.17694223 1.8830001
-0.093253337 0.18650667 1.8830001
-0.089666672 0.18292001 1.8830001
-0.093253337 0.19368002 1.8830001
-0.093253337 0.20444001 1.8830001
-0.093253337 0.21520002 1.8830001
-0.095046669 0.22775334 1.8830001
-0.093253337 0.23313336 1.8830001
-0.096840009 0.24030669 1.8830001
0.025106668 0.54876006 1.8830001
0.033475559 0.54636896 1.8830001
0.026900001 0.55593336 1.8830003
0.035354286 0.55695814 1.8830004
0.044833332 0.55593336 1.8830003
0.017933335 0.56490004 1.8830001
0.025106668 0.56454134 1.8830003
0.035149336 0.56454134 1.8830003
0.044833332 0.56310666 1.8830001
0.028693335 0.5720734 1.8830001
0.033176668 0.57386672 1.8830001
0.04483334 0.57386672 1.8830003
0.052006669 0.57745337 1.8830001
0.028693335 0.58821332 1.8830001
0.035354286 0.58462662 1.8830004
0.044833332 0.58462667 1.8830003
0.053800002 0.58417833 1.8830003
0.064560004 0.58462667 1.8830001
0.025106668 0.59478897 1.8830003
0.03586667 0.59359342 1.8830003
0.044833332 0.59359336 1.8830001
0.10822857 -0.16955811 1.8940001
0.11364 -0.16955811 1.8940001
0.10822857 -0.15152 1.8940001
0.095601909 -0.14069715 1.8940001
0.10582349 -0.14430478 1.8940001
0.11424126 -0.14310223 1.8940001
0.085380331 -0.135887 1.8940001
0.093798101 -0.13528572 1.8940001
0.10341841 -0.13468444 1.8940001
0.11183619 -0.1334819 1.8940001
0.095962681 -0.12554514 1.8940001
0.10101333 -0.12626667 1.8940001
0.086582862 -0.11724762 1.8940001
0.094700001 -0.11814953 1.8940001
0.10101333 -0.11544381 1.8940001
0.079367615 -0.10101333 1.8940001
0.084177785 -0.10462096 1.8940001
0.093798101 -0.10822858 1.8940001
0.10101333 -0.10822857 1.8940001
0.077563807 -0.093798101 1.8940001
0.06854476 -0.082975239 1.8940001
0.073354922 -0.085380331 1.8940001
0.067342222 -0.074557468 1.8940001
0.072152384 -0.079367615 1.8940001
0.06854476 -0.06854476 1.8940001
0.072152391 -0.064937145 1.8940001
0.076210953 -0.054114282 1.8940001
0.082975239 -0.050506666 1.8940001
0.076481521 -0.045456003 1.8940001
0.084177785 -0.044493973 1.8940001
0.057721905 -0.032468572 1.8940001
0.066380195 -0.034633141 1.8940001
0.076275371 -0.037106939 1.8940002
0.082975239 -0.03788 1.8940001
0.057721905 -0.025253333 1.8940001
0.064937145 -0.025253331 1.8940002
-0.2850019 -0.010822858 1.8940001
0.057721905 -0.018038096 1.8940001
0.064937145 -0.016234286 1.8940001
0.073956192 -0.010822858 1.8940001
0.12987429 -0.016234286 1.8940001
0.1334819 -0.014430477 1.8940001
-0.2850019 -0.0054114284 1.8940001
0.073956192 -0.0054114284 1.8940001
-0.2850019 0.0054114284 1.8940001
0.076481521 0.0050506666 1.8940001
0.082975239 0.0072152382 1.8940001
-0.28355888 0.013708954 1.8940001
-0.27778667 0.016234286 1.8940001
0.066740952 0.018038096 1.8940001
0.075759999 0.014430475 1.8940002
0.082975239 0.010822858 1.8940001
-0.28319812 0.023449525 1.8940001
-0.27778667 0.023449525 1.8940001
0.067101717 0.025974859 1.8940001
0.075759999 0.024802383 1.8940001
0.082975239 0.021645715 1.8940001
0.06674096 0.036076188 1.8940001
0.075244628 0.037106942 1.8940002
0.082975239 0.039683808 1.8940001
0.06854476 0.043291431 1.8940001
0.075759999 0.045095246 1.8940001
0.082975239 0.045095243 1.8940001
0.075759999 0.050506666 1.8940001
0.085380331 0.054114282 1.8940001
0.091994286 0.054114286 1.8940001
0.075759999 0.064335875 1.8940001
0.084177785 0.062532067 1.8940001
0.093798101 0.061329525 1.8940001
0.10101333 0.063133337 1.8940001
0.039683808 0.079367615 1.8940001
0.043291431 0.075759999 1.8940001
0.055918097 0.077563807 1.8940001
0.066740952 0.072152384 1.8940001
0.074316956 0.077203043 1.8940001
0.025253333 0.082975239 1.8940001
0.032468572 0.082975239 1.8940001
-0.097405717 0.11364 1.8940001
-0.097405717 0.12626667 1.8940001
-0.097405717 0.13528571 1.8940001
-0.097405717 0.14430477 1.8940001
-0.036076196 0.14430478 1.8940001
-0.012025397 0.14670984 1.8940001
-0.032468572 0.1533238 1.8940001
-0.023810288 0.15512763 1.8940001
-0.018038096 0.15512761 1.8940001
0.0036076191 0.15512761 1.8940001
-0.093798101 0.16595048 1.8940001
-0.024737962 0.16491973 1.8940002
-0.018038096 0.16595048 1.8940001
-0.093798101 0.17496952 1.8940001
-0.014430477 0.17436826 1.8940001
-0.0054114284 0.17677332 1.8940001
-0.093798101 0.18218476 1.8940001
-0.010822858 0.18038096 1.8940001
-0.097405717 0.20924191 1.8940001
-0.097405717 0.21284953 1.8940001
0.018038096 0.54835808 1.8940001
0.025253331 0.54655433 1.8940001
0.03427238 0.54475051 1.8940001
0.01713619 0.55467141 1.8940001
0.021645715 0.55737716 1.8940001
0.03788 0.55376953 1.8940001
0.043291431 0.55196571 1.8940001
0.015633017 0.56399119 1.8940001
0.021645715 0.56278861 1.8940001
0.018038096 0.57541525 1.8940001
0.023810288 0.57433301 1.8940001
0.038781904 0.57361144 1.8940001
0.045095243 0.57000381 1.8940001
0.018038096 0.58263052 1.8940001
0.025253335 0.58443427 1.8940002
0.03788 0.58443427 1.8940001
0.025253333 0.59164953 1.8940001
0.065658666 0.59309262 1.8940001
0.072152384 0.59345335 1.8940001
0.10638222 -0.14264891 1.904
0.11242667 -0.14144 1.904
0.10608 -0.13327999 1.904
0.11605334 -0.13056001 1.904
0.10698666 -0.12512 1.904
0.11605334 -0.12330666 1.904
0.10698666 -0.11605334 1.9040002
0.11605334 -0.11786667 1.9040002
0.08704 -0.10336 1.904
0.094293341 -0.10335999 1.9040002
0.10275556 -0.10517333 1.904
0.083413333 -0.094293341 1.904
0.078577779 -0.084622227 1.904
0.083413333 -0.08704 1.904
0.076613337 -0.075706668 1.9040002
0.084864005 -0.076160006 1.9040002
0.077973336 -0.065280005 1.9040002
0.08522667 -0.063466668 1.904
0.085589334 -0.055125333 1.9040002
0.08704 -0.047146667 1.904
0.090666667 -0.045333333 1.904
0.074346669 -0.032639999 1.904
0.086133331 -0.035359997 1.904
0.092479996 -0.038079999 1.904
0.076159991 -0.025386665 1.9040002
0.085226662 -0.0272 1.904
0.076160006 -0.014506668 1.9040002
0.084622227 -0.012088889 1.904
0.12693334 -0.016320001 1.904
0.079786666 -0.00544 1.904
0.083413333 -0.00544 1.904
0.090666667 -0.0036266667 1.904
-0.29013336 0.0072533335 1.904
0.079786666 0 1.904
0.08522667 0.0036266667 1.904
0.093084447 0.0048355558 1.9040002
0.10589867 0.0058026668 1.9040002
-0.29013336 0.01088 1.904
0.085589334 0.015232001 1.9040002
0.093257152 0.014506669 1.9040003
0.10589867 0.013056 1.9040002
-0.27925333 0.029013334 1.904
0.076159999 0.029013334 1.904
0.085589342 0.026112 1.9040002
0.091573328 0.02448 1.904
0.11968 0.025386667 1.904
0.12330666 0.02176 1.904
-0.27925333 0.032639999 1.904
0.077973336 0.032639999 1.904
0.085589334 0.035541337 1.9040002
0.093568005 0.038442668 1.9040002
0.11968 0.032639999 1.904
0.12330666 0.034453332 1.904
0.08704 0.045333333 1.904
0.094293341 0.045333337 1.9040002
0.08704 0.050773334 1.904
0.095018663 0.054400004 1.9040002
0.10154667 0.058026668 1.904
0.077973336 0.068906672 1.904
0.085831106 0.067697786 1.904
0.094293341 0.067093335 1.9040002
0.04352 0.079786666 1.904
0.067093335 0.076159999 1.904
0.077973336 0.072533339 1.904
0.08522667 0.072533339 1.904
0.050773334 0.083413333 1.904
-0.20309334 0.092480004 1.904
-0.19946666 0.092480004 1.904
-0.032639999 0.1088 1.904
-0.029013334 0.1088 1.904
-0.10517333 0.12693334 1.904
-0.032639999 0.12693334 1.904
-0.10517333 0.13418666 1.9040002
-0.032640003 0.13418667 1.904
-0.10471999 0.14506668 1.9040002
-0.032640003 0.14506668 1.904
-0.023573333 0.14869334 1.904
-0.016924446 0.14627557 1.904
-0.00544 0.14506668 1.904
0 0.14869334 1.904
-0.10396445 0.1547378 1.9040002
-0.0272 0.15594667 1.904
0.00544 0.15594667 1.904
-0.10154667 0.16320001 1.904
-0.097920001 0.16320001 1.904
-0.024177779 0.17287111 1.904
-0.016320001 0.17770667 1.904
-0.14264891 0.18254223 1.904
-0.10154667 0.18858667 1.904
-0.097920001 0.18858667 1.904
-0.016320001 0.18133333 1.904
-0.10154667 0.19221334 1.904
-0.097920001 0.19584 1.904
-0.097920001 0.20490667 1.904
-0.097920001 0.2176 1.904
-0.097920001 0.22304001 1.904
-0.097920001 0.23573333 1.904
0.00544 0.53493327 1.904
0.014506668 0.53674662 1.904
0.025386667 0.53674662 1.904
0.034453332 0.53674662 1.904
-0.0036266667 0.54037333 1.904
0.0036266667 0.54128003 1.904
0.014506668 0.54400003 1.9040002
0.025386667 0.54218674 1.9040002
0.034453332 0.54218668 1.904
0.012330667 0.55488008 1.9040002
0.012693333 0.56213331 1.904
0.10942857 -0.13860953 1.9150001
0.1130762 -0.13860953 1.9150001
0.11490001 -0.12766667 1.9150001
0.12037143 -0.12766667 1.9150001
0.11490001 -0.1130762 1.9150001
0.10796952 -0.10505144 1.9150002
0.087542862 -0.094838105 1.9150002
0.094838098 -0.09483809 1.9150001
0.10213335 -0.094838105 1.9150002
0.086326987 -0.085111111 1.9150002
0.09483809 -0.083895244 1.9150001
0.10473879 -0.083374158 1.9150002
0.087542862 -0.0766 1.9150001
0.094838098 -0.074776195 1.9150002
0.10395715 -0.074776188 1.9150001
0.085719049 -0.069304764 1.9150001
0.09483809 -0.065657146 1.9150001
0.10334921 -0.068088889 1.9150002
0.09483809 -0.054714289 1.9150001
0.097026668 -0.044500954 1.9150002
0.10359239 -0.043771427 1.9150002
0.095750004 -0.033740476 1.9150001
0.10505144 -0.035017144 1.9150002
0.085719049 -0.021885715 1.9150001
0.09483809 -0.025533333 1.9150001
0.10578096 -0.025533337 1.9150001
0.11490001 -0.023709524 1.9150001
0.12401905 -0.023709526 1.9150002
0.13131429 -0.021885715 1.9150001
0.0766 -0.018238096 1.9150001
0.084807143 -0.017326191 1.9150001
0.09483809 -0.014590477 1.9150001
0.10578096 -0.014590477 1.9150001
0.11490002 -0.014590478 1.9150002
0.12297687 -0.01406939 1.9150002
0.13131429 -0.010942858 1.9150001
0.087542862 -0.0054714289 1.9150001
0.095567629 -0.0058361907 1.9150002
0.10578096 -0.0054714289 1.9150002
0.11490001 -0.0054714289 1.9150001
0.12401906 -0.0054714289 1.9150002
0.13131429 -0.0054714289 1.9150001
0.087542862 0 1.9150001
0.097269848 0.0012158731 1.9150002
0.10486905 0.00091190479 1.9150001
0.11490002 0.0036476194 1.9150002
0.12401904 0.0036476192 1.9150001
0.098485716 0.014590477 1.9150001
0.10486905 0.016414285 1.9150001
0.11490001 0.014590478 1.9150002
0.12401904 0.014590477 1.9150001
0.097026668 0.026262859 1.9150002
0.10578096 0.025533333 1.9150001
0.11490002 0.025533333 1.9150002
0.12493096 0.02644524 1.9150001
0.095750004 0.033740476 1.9150001
0.10578095 0.034652382 1.9150002
0.11490001 0.034652382 1.9150001
0.12401905 0.034652382 1.9150001
0.10578096 0.043771431 1.9150001
0.11490002 0.043771431 1.9150002
0.12037143 0.043771431 1.9150002
0.098485716 0.051066671 1.9150001
0.10630205 0.053672113 1.9150002
0.11490002 0.054714289 1.9150002
0.12037143 0.051066671 1.9150001
0.058361907 0.080247618 1.9150001
0.069304764 0.080247618 1.9150001
-0.21156192 0.093014285 1.9150001
-0.20791429 0.093014285 1.9150001
-0.19514762 0.09119048 1.9150001
-0.1896762 0.09119048 1.9150001
-0.032828573 0.1130762 1.9150001
-0.15502381 0.12766667 1.9150001
-0.14590478 0.12584285 1.9150002
-0.13587381 0.12675476 1.9150001
-0.12401905 0.12766668 1.9150002
-0.11490001 0.12766667 1.9150001
-0.10578096 0.12219524 1.9150002
-0.098485716 0.12037143 1.9150001
-0.16049525 0.1349619 1.9150002
-0.15502381 0.13496192 1.9150002
-0.14590476 0.1349619 1.9150001
-0.1349619 0.13496192 1.9150001
-0.12401906 0.13496192 1.9150001
-0.11490002 0.1349619 1.9150002
-0.15502381 0.14225715 1.9150001
-0.14486259 0.14538369 1.9150002
-0.1349619 0.14590476 1.9150001
-0.12401906 0.14590476 1.9150001
-0.11490002 0.14590478 1.9150002
-0.10942857 0.14590476 1.9150001
-0.026054423 0.14486261 1.9150002
-0.014590478 0.14225715 1.9150002
-0.0054714289 0.14225715 1.9150001
0.0018238096 0.14590478 1.9150001
-0.20061906 0.1532 1.9150001
-0.1446889 0.15441588 1.9150002
-0.1349619 0.15502381 1.9150002
-0.12401905 0.15502381 1.9150002
-0.11490001 0.15502381 1.9150001
-0.10942857 0.15684763 1.9150001
0.0072952383 0.15502381 1.9150001
-0.20061906 0.16596667 1.9150001
-0.19478285 0.16487239 1.9150002
-0.18707077 0.16466396 1.9150002
-0.14529684 0.1647508 1.9150002
-0.1349619 0.16414288 1.9150001
-0.12401904 0.16414288 1.9150001
-0.11490002 0.16414286 1.9150002
-0.10682314 0.16466396 1.9150002
-0.098485716 0.16779049 1.9150001
0.012766667 0.16779049 1.9150001
-0.18785238 0.1714381 1.9150001
-0.15502381 0.17326191 1.9150001
-0.14544882 0.17462978 1.9150001
-0.13496192 0.17326193 1.9150002
-0.12474857 0.17289715 1.9150002
-0.11429208 0.17265397 1.9150002
-0.10578096 0.17508574 1.9150001
-0.098485723 0.17508572 1.9150002
-0.023709524 0.17873335 1.9150001
0.010942858 0.1714381 1.9150001
-0.13678572 0.18420476 1.9150001
-0.10334921 0.18359683 1.9150002
-0.098485716 0.18420476 1.9150001
-0.021885715 0.18238096 1.9150001
-0.10213335 0.21520953 1.9150002
-0.10213334 0.22432858 1.9150001
0.0054714289 0.5289048 1.9150001
0.014590478 0.5289048 1.9150002
0.021885715 0.5289048 1.9150001
0.0054714289 0.53255242 1.9150001
0.014590478 0.53437626 1.9150002
0.02480381 0.53474098 1.9150002
0.032828573 0.53619999 1.9150001
-0.0036476192 0.54714286 1.9150001
0.0036476192 0.54714286 1.9150001
-0.0036476192 0.55079049 1.9150001
0.0041035716 0.5539822 1.9150001
0.0072952383 0.56173331 1.9150001
0.1155 -0.11000001 1.9250001
0.121 -0.11183333 1.9250001
0.1155 -0.1045 1.9250001
0.12375 -0.10358334 1.9250001
0.10633334 -0.095333338 1.9250001
0.11366667 -0.095333338 1.9250001
0.12466668 -0.095333338 1.9250001
0.13291667 -0.094416671 1.9250001
0.11412501 -0.084791668 1.9250001
0.12344445 -0.085555553 1.9250001
0.13383335 -0.088 1.9250001
0.11366668 -0.075166665 1.9250001
0.12222223 -0.074555561 1.9250001
0.10511111 -0.063555561 1.9250001
0.11366667 -0.066 1.9250001
0.12420834 -0.06554167 1.9250001
0.132 -0.064166665 1.9250001
0.1045 -0.055000003 1.9250001
0.11366667 -0.055000003 1.9250001
0.12466667 -0.055000003 1.9250001
0.132 -0.055000003 1.9250001
0.10633333 -0.044 1.9250001
0.11366667 -0.044 1.9250001
0.12466668 -0.044 1.9250001
0.132 -0.044 1.9250001
0.11440001 -0.034466665 1.9250001
0.12466668 -0.034833334 1.9250001
0.132 -0.036666665 1.9250001
0.1155 -0.029333334 1.9250001
0.12466668 -0.029333334 1.9250001
0.12650001 0.025666667 1.9250001
0.10633333 0.058666669 1.9250001
0.10633333 0.062333338 1.9250001
0.047666669 0.084333338 1.9250001
0.066 0.080666669 1.9250001
-0.17783333 0.11733334 1.9250001
-0.15400001 0.11733334 1.9250001
-0.14483333 0.11733334 1.9250001
-0.13566667 0.11733334 1.9250001
-0.11244445 0.11488889 1.9250001
-0.10413333 0.11439999 1.9250001
-0.099000007 0.11000001 1.9250001
-0.1925 0.12833333 1.9250001
-0.18516669 0.12466668 1.9250001
-0.17704763 0.12519048 1.9250002
-0.16426666 0.12686668 1.9250001
-0.15473334 0.12246668 1.9250001
-0.14483333 0.121 1.9250001
-0.13493335 0.12246668 1.9250001
-0.12466668 0.12283334 1.9250001
-0.1155 0.12283334 1.9250001
-0.033 0.12466668 1.9250001
-0.029333334 0.12650001 1.9250001
-0.2035 0.13750002 1.9250001
-0.19433334 0.13566668 1.9250001
-0.18516669 0.13566667 1.9250001
-0.176 0.13566668 1.9250001
-0.16683334 0.13566667 1.9250001
-0.02688889 0.13688891 1.9250001
-0.014666667 0.13841668 1.9250001
-0.0055 0.13933334 1.9250001
0.0018333334 0.13933334 1.9250001
-0.2035 0.14483333 1.9250001
-0.19433334 0.14483333 1.9250001
-0.18516669 0.14483333 1.9250001
-0.176 0.14483333 1.9250001
-0.16500001 0.14483334 1.9250001
-0.15400001 0.14666668 1.9250001
0.0055 0.14483333 1.9250001
-0.22000001 0.15400001 1.9250001
-0.21450001 0.15400001 1.9250001
-0.20533337 0.15452382 1.9250002
-0.19433334 0.15400001 1.9250001
-0.18516669 0.15400003 1.9250001
-0.17783332 0.15216668 1.9250001
-0.16499999 0.15354168 1.9250001
-0.15400001 0.15400001 1.9250001
-0.14300001 0.15766667 1.9250001
0.0073333336 0.15033334 1.9250001
0.011 0.15583333 1.9250001
-0.21388888 0.16377778 1.9250001
-0.20638098 0.1644762 1.9250002
-0.19800001 0.16133334 1.9250001
-0.18333334 0.16316667 1.9250001
-0.17722222 0.1643889 1.9250001
-0.16499999 0.16500001 1.9250001
-0.15445834 0.16454166 1.9250001
-0.14300001 0.16499999 1.9250001
0.01375 0.16499999 1.9250001
-0.176 0.17233334 1.9250001
-0.16426666 0.17380001 1.9250001
-0.13566668 0.17966668 1.9250001
-0.12466668 0.17844445 1.9250001
-0.1155 0.17783333 1.9250001
-0.029333334 0.17966667 1.9250001
0.018333333 0.17233334 1.9250001
0.023833334 0.17233334 1.9250001
-0.132 0.18516667 1.9250001
-0.12650001 0.18516669 1.9250001
-0.11000001 0.18516667 1.9250001
-0.10633333 0.18700001 1.9250001
-0.028111111 0.18455558 1.9250001
-0.1045 0.19433334 1.9250001
-0.10266667 0.20533335 1.9250001
-0.11366667 0.21450001 1.9250001
-0.10633333 0.21450001 1.9250001
-0.10633333 0.22000001 1.9250001
0.0048888894 0.52555555 1.9250001
0.013619049 0.52485716 1.9250002
0 0.53533334 1.9250001
-0.28783333 0.58666664 1.9250001
-0.27133337 0.58666664 1.9250001
-0.264 0.5866667 1.9250001
-0.28722224 0.59277785 1.9250001
-0.27500001 0.59399998 1.9250001
0.12722287 -0.11247239 1.9360001
0.12722287 -0.10694096 1.9360001
0.1327543 -0.10509715 1.9360001
0.12783748 -0.082356833 1.9360002
0.13459811 -0.084815241 1.9360001
0.12722287 -0.073752381 1.9360001
0.1327543 -0.070064761 1.9360001
-0.21756953 0.094034292 1.9360001
-0.19544384 0.095878109 1.9360002
-0.18438098 0.094648898 1.9360002
-0.18253715 0.10509715 1.9360001
-0.17577653 0.10571176 1.9360002
-0.16225524 0.10509715 1.9360001
-0.15610921 0.10571176 1.9360002
-0.14566097 0.10694096 1.9360001
-0.19544384 0.11800383 1.9360002
-0.18438098 0.11493081 1.9360001
-0.17516191 0.1143162 1.9360001
-0.16446781 0.11579125 1.9360001
-0.15488 0.11326261 1.9360001
-0.14381716 0.1124724 1.9360001
-0.13496688 0.11357868 1.9360001
-0.12485227 0.11536982 1.9360001
-0.11677462 0.11185779 1.9360002
-0.10694096 0.11062858 1.9360001
-0.033188574 0.11800382 1.9360001
-0.22125715 0.12906668 1.9360001
-0.2120381 0.12906668 1.9360001
-0.20527747 0.12783748 1.9360002
-0.19597064 0.12432547 1.9360001
-0.1733181 0.12353525 1.9360001
-0.16686477 0.12261334 1.9360001
-0.033188574 0.12169144 1.9360001
-0.025813336 0.12906668 1.9360001
-0.23354922 0.13398351 1.9360002
-0.2249448 0.13459812 1.9360001
-0.21388194 0.13459812 1.9360001
-0.20466286 0.1327543 1.9360001
-0.023969525 0.13459811 1.9360001
-0.014750477 0.13644192 1.9360001
-0.0049168258 0.13521272 1.9360002
0.0024584129 0.13521272 1.9360002
-0.23600762 0.14381714 1.936
-0.2249448 0.14381714 1.936
-0.21388194 0.14381716 1.936
0.0073752385 0.14197335 1.9360001
0.011062859 0.14381716 1.9360002
-0.23232001 0.15303621 1.9360001
-0.22540575 0.15488 1.936
-0.21461944 0.15414248 1.9360001
-0.18069334 0.15856762 1.9360001
-0.17424001 0.15580191 1.9360001
-0.16594286 0.15856762 1.9360001
0.014750478 0.15488002 1.9360001
0.023969525 0.15672381 1.9360001
-0.22420727 0.16446781 1.9360001
-0.21756953 0.16225524 1.9360001
-0.17454731 0.16717207 1.9360002
-0.16594288 0.16594288 1.9360002
0.017208889 0.16348445 1.9360002
0.023969527 0.16594286 1.9360001
-0.1733181 0.1733181 1.9360001
-0.12169144 0.18069334 1.9360001
-0.11554541 0.18438098 1.9360002
-0.11062858 0.20466286 1.9360001
-0.10694096 0.20466286 1.9360001
-0.11062859 0.21388191 1.9360002
-0.10694096 0.21019429 1.9360001
-0.11062858 0.22125715 1.9360001
0.0055314288 0.51995432 1.9360001
0.012906667 0.51995432 1.9360001
-0.0036876192 0.52732956 1.9360001
0.0012292064 0.52487117 1.9360002
-0.0036876192 0.53286099 1.9360001
-0.26366478 0.54945529 1.9360001
-0.25444573 0.54945529 1.9360002
-0.31344765 0.55683053 1.9360001
-0.30791619 0.55683053 1.9360001
-0.26366478 0.55314291 1.9360001
-0.25813335 0.55314291 1.9360001
-0.3042286 0.57526863 1.9360001
-0.30238479 0.58448768 1.9360001
-0.29574704 0.58485639 1.9360001
-0.28763431 0.58633143 1.9360001
-0.29722211 0.59296912 1.9360001
-0.28210285 0.59001905 1.9360001
-0.27657145 0.59001905 1.9360001
0.13536286 -0.081588574 1.9470001
0.12980001 -0.076025724 1.9470001
0.13573372 -0.074913152 1.9470001
0.037085716 0.085297145 1.9470001
-0.18450144 0.095495723 1.9470001
-0.17504458 0.094197713 1.9470001
0.016070478 0.09395048 1.9470003
-0.2017463 0.10384001 1.9470001
-0.19470003 0.10384001 1.9470003
-0.18821 0.10291287 1.9470001
-0.17356114 0.1030983 1.9470001
-0.16688572 0.10569429 1.9470001
-0.15452383 0.10507619 1.9470003
-0.14370716 0.10476714 1.9470001
-0.13536286 0.10569429 1.9470001
-0.12534973 0.10606515 1.9470001
-0.11682001 0.10754858 1.9470001
0.011125715 0.10013144 1.9470001
-0.2225143 0.11867429 1.9470001
-0.21324287 0.11867429 1.9470001
-0.20397145 0.11496572 1.9470003
-0.19470002 0.11311144 1.9470001
-0.18728286 0.11125715 1.9470001
-0.17183051 0.11249334 1.9470003
-0.16688572 0.11311144 1.9470001
-0.12794572 0.11125715 1.9470001
-0.025960002 0.11682001 1.9470003
-0.017306669 0.1174381 1.9470003
-0.25774574 0.12794572 1.9470001
-0.24370615 0.12662123 1.9470003
-0.2354943 0.12609145 1.9470003
-0.22668645 0.12562788 1.9470003
-0.21562697 0.12503186 1.9470003
-0.20520763 0.12361906 1.9470003
-0.024723811 0.12485525 1.9470003
-0.014834287 0.12609144 1.9470003
-0.0055628577 0.12609145 1.9470003
0.0037085717 0.12609145 1.9470003
0.011125715 0.12794572 1.9470001
-0.25589144 0.13536286 1.9470003
-0.24476573 0.13536286 1.9470003
-0.23734859 0.13721716 1.9470001
-0.022251431 0.13350858 1.9470001
-0.014834288 0.13350859 1.9470003
-0.0074171433 0.13350858 1.9470001
0.0049447622 0.13474476 1.9470003
0.012980001 0.13536286 1.9470001
-0.25589144 0.14463431 1.9470003
-0.24662003 0.14463429 1.9470003
0.016688572 0.14463431 1.9470003
0.024723811 0.14710668 1.9470003
0.033377144 0.14834286 1.9470001
-0.26330858 0.15761431 1.9470001
-0.25589147 0.15576002 1.9470003
-0.24476573 0.15576002 1.9470003
-0.23642145 0.15668716 1.9470001
0.018542858 0.15390572 1.9470001
0.026887145 0.15483287 1.9470001
0.033377148 0.15576002 1.9470003
-0.26516289 0.16317715 1.9470001
-0.25589144 0.16317716 1.9470003
-0.24402404 0.16466057 1.9470001
-0.23549429 0.16503143 1.9470001
-0.22993144 0.16317715 1.9470001
0.029668573 0.16503143 1.9470001
0.033377144 0.16317715 1.9470001
-0.2225143 0.17059429 1.9470001
-0.21880573 0.17059429 1.9470001
0.029668573 0.17059429 1.9470001
-0.12238287 0.18728286 1.9470001
-0.11867429 0.18728286 1.9470001
0.0055628577 0.51734579 1.9470001
0.012980001 0.51920003 1.9470001
-0.0055628577 0.52476287 1.9470001
0 0.52290857 1.9470001
-0.0074171433 0.53218007 1.9470001
-0.2756705 0.54763246 1.9470003
-0.26516289 0.54701436 1.9470001
-0.25589144 0.54886866 1.9470003
-0.31152004 0.55443144 1.9470001
-0.30363932 0.55582213 1.9470003
-0.29668573 0.55999428 1.9470001
-0.28608984 0.5562858 1.9470003
-0.27443433 0.55443144 1.9470003
-0.31275624 0.56493914 1.9470003
-0.30410287 0.56592804 1.9470001
-0.3035731 0.57376903 1.9470003
-0.29575861 0.57390147 1.9470001
-0.28926858 0.57853717 1.9470001
-0.31275624 0.58842671 1.9470003
-0.30558631 0.58447093 1.9470001
-0.29421338 0.58348197 1.9470003
-0.28648716 0.58688152 1.9470001
-0.27443433 0.58966291 1.9470003
-0.23371683 0.088265404 1.9580001
-0.22750096 0.089508571 1.9580001
0.027971428 0.089508571 1.9580001
0.041024763 0.085779049 1.9580001
0.059672382 0.085779049 1.9580001
-0.23309524 0.093238093 1.9580001
-0.2256362 0.095102862 1.9580001
-0.1715581 0.096967623 1.9580001
-0.16596381 0.096967623 1.9580001
0.018647619 0.096967623 1.9580001
0.024241906 0.093238093 1.9580001
-0.22377144 0.10566984 1.9580001
-0.21407466 0.10442667 1.9580001
-0.20792097 0.10442667 1.9580001
-0.1715581 0.10069714 1.9580001
-0.16596381 0.10069714 1.9580001
-0.13053332 0.10442667 1.9580001
-0.011188571 0.10815619 1.9580001
-0.0055942857 0.10815619 1.9580001
0.0046619046 0.10722381 1.9580001
0.013426286 0.10517257 1.9580001
-0.2647962 0.11748 1.9580001
-0.25547236 0.11748 1.9580001
-0.24568239 0.11608143 1.9580001
-0.23449381 0.11608143 1.9580001
-0.22377142 0.11514905 1.9580001
-0.21444762 0.11375048 1.9580001
-0.20885333 0.11188572 1.9580001
-0.013674921 0.11437207 1.9580001
-0.0055942861 0.11561524 1.9580001
0.0037295239 0.11561523 1.9579999
0.014918095 0.11561523 1.9579999
-0.27225524 0.1268038 1.9580001
-0.26554212 0.12456609 1.9580001
-0.2548508 0.12431745 1.9580001
-0.24987811 0.12493904 1.9580001
0.015664002 0.12456609 1.9580001
0.026106667 0.1268038 1.9580001
0.035430476 0.1268038 1.9580001
-0.29463241 0.13799238 1.9580001
-0.27225524 0.13426286 1.9580001
-0.26666096 0.13426286 1.9580001
-0.2536076 0.13053332 1.9580001
0.017715238 0.13333046 1.9580001
0.026106669 0.13426286 1.9579999
0.035430476 0.13426286 1.9580001
0.045220479 0.13472904 1.9580001
0.052213334 0.13426286 1.9580001
0.065639623 0.13426286 1.9580001
0.072104126 0.13550603 1.9580001
-0.29090285 0.14545143 1.9580001
-0.28344381 0.14545143 1.9580001
-0.27318764 0.14545143 1.9580001
-0.26666099 0.14545143 1.9580001
0.026728256 0.14420825 1.9580001
0.03580343 0.14470552 1.9580001
0.044754289 0.14545141 1.9579999
0.053145714 0.14638381 1.9580001
0.065266669 0.1417219 1.9580001
0.070860952 0.1417219 1.9580001
-0.27225524 0.15291047 1.9580001
-0.26728255 0.15415365 1.9580001
0.029836191 0.15291047 1.9580001
0.037295237 0.15477523 1.9580001
0.044754293 0.15477523 1.9580001
0.052213334 0.15291047 1.9580001
-0.26852572 0.16036952 1.9580001
0.036362857 0.16503142 1.9580001
0.044288099 0.16363285 1.9580001
0.052213334 0.16036952 1.9580001
0.033565715 0.1715581 1.9580001
-0.037295237 0.50535047 1.9580001
-0.28530857 0.51840383 1.9580001
-0.27784953 0.51840383 1.9580001
-0.035430476 0.51280951 1.9580001
-0.029836191 0.51094478 1.9580001
-0.014451905 0.51514047 1.9580001
-0.0059672385 0.5154202 1.9580001
0.0012431747 0.51591754 1.9580001
0.013053333 0.51840383 1.9580001
-0.28468698 0.52710605 1.9580001
-0.27971429 0.52586281 1.9580001
-0.014918095 0.52586287 1.9579999
-0.0055942857 0.52213329 1.9580001
0 0.52213329 1.9580001
-0.29090285 0.53518665 1.9580001
-0.28530857 0.53518665 1.9580001
-0.27847111 0.53456509 1.9580001
-0.013053333 0.53518665 1.9580001
-0.30507508 0.54674816 1.9580001
-0.29463238 0.54451042 1.9579999
-0.28530857 0.54451048 1.9580001
-0.27598476 0.54451054 1.9580002
-0.2647962 0.54388893 1.9580001
-0.25609398 0.54699683 1.9580001
-0.30582097 0.55196953 1.9580001
-0.29569799 0.55516624 1.9580002
-0.28593016 0.55321276 1.9580001
-0.27598476 0.55196953 1.9580001
-0.30582094 0.56688762 1.9580001
-0.29463241 0.56595528 1.9580001
-0.28468698 0.5656445 1.9580001
-0.27784953 0.56502289 1.9580001
-0.29338923 0.57372516 1.9580001
-0.28568155 0.57360077 1.9580001
-0.29463241 0.58180571 1.9580001
-0.28624094 0.58646762 1.9580001
-0.27784953 0.58926481 1.9580001
0.045005716 0.08626096 1.9690001
0.056257147 0.08626096 1.9690001
0.067508571 0.08626096 1.9690001
-0.24003048 0.097512387 1.9690001
-0.23440477 0.097512387 1.9690001
0.024378097 0.097512387 1.9690001
0.031879049 0.093761906 1.9690001
0.048756193 0.090011433 1.9690001
-0.25315714 0.10876381 1.9690001
-0.24378099 0.10554913 1.9690001
-0.23402973 0.10501333 1.9690001
-0.2250286 0.10438826 1.9690001
-0.21752763 0.10501334 1.9690001
0.0037504763 0.10501334 1.9690001
0.018752381 0.10501333 1.9690002
0.024378097 0.10501333 1.9690001
0.03000381 0.10876381 1.9690001
-0.27190953 0.11438952 1.9690001
-0.26440859 0.11251429 1.9690001
-0.25503239 0.11251429 1.9690002
-0.24003048 0.11251429 1.9690001
0.024378097 0.11438952 1.9690001
0.033754289 0.11438952 1.9690001
0.045005716 0.11626476 1.9690002
0.054381907 0.11626476 1.9690001
0.060007621 0.11626476 1.9690001
-0.27503496 0.12376572 1.9690002
0.024378097 0.12189049 1.9690001
0.033754289 0.12189048 1.9690001
0.045005716 0.12376572 1.9690001
0.054381907 0.12376573 1.9690001
0.063758105 0.12376572 1.9690001
0.075009525 0.12564096 1.9690001
-0.29378733 0.1362673 1.9690002
-0.28396463 0.13501716 1.9690001
-0.27753526 0.13501716 1.9690002
0.041255239 0.13126667 1.9690001
0.056257151 0.13501716 1.9690002
0.060945239 0.13501714 1.9690001
0.076259688 0.13439207 1.9690001
0.084385723 0.13501716 1.9690001
-0.29503748 0.14376827 1.9690002
-0.28503618 0.14401829 1.9690001
-0.27753526 0.1425181 1.9690001
0.056257147 0.14439334 1.9690001
0.062820479 0.14533097 1.9690001
0.075759619 0.14476839 1.9690001
0.084385723 0.1425181 1.9690001
-0.29441237 0.15001905 1.9690001
-0.28378606 0.15126921 1.9690002
-0.27628511 0.15376954 1.9690002
0.055006988 0.15626985 1.9690002
0.063758105 0.15376954 1.9690001
0.074473754 0.15376954 1.9690001
-0.27378479 0.16127048 1.9690001
0.048756193 0.16877143 1.9690001
0.054756958 0.16577105 1.9690001
0.062686533 0.16448519 1.9690001
-0.23440477 0.17252192 1.9690001
-0.22877906 0.17252192 1.9690001
0.036254607 0.17502224 1.9690002
0.04500572 0.17252192 1.9690002
0.054381907 0.17252192 1.9690001
0.061882861 0.17252192 1.9690001
-0.037504762 0.49506289 1.9690001
-0.041255239 0.50443906 1.9690001
-0.035004448 0.50381398 1.9690002
-0.023753017 0.50506413 1.9690002
-0.017502222 0.50506413 1.9690002
-0.041255239 0.51194 1.9690001
-0.031879049 0.51381528 1.9690001
-0.024378097 0.51381528 1.9690001
-0.015939524 0.51100242 1.9690001
-0.0037504763 0.51381528 1.9690001
0.0046880953 0.51475286 1.9690001
0.012501588 0.51631558 1.9690002
-0.3000381 0.52881718 1.9690001
-0.29441237 0.5269419 1.9690001
-0.28597382 0.52787954 1.9690001
-0.27628511 0.52631682 1.9690002
-0.03000381 0.52131623 1.9690001
-0.023440477 0.52412909 1.9690001
-0.30128828 0.53506798 1.9690002
-0.29503748 0.53381789 1.9690002
-0.27303466 0.53406787 1.9690001
-0.26440859 0.5344429 1.9690001
-0.3000381 0.54006857 1.9690001
-0.29628763 0.54006857 1.9690001
-0.27378479 0.54100621 1.9690001
-0.26378351 0.54131877 1.9690002
-0.25315714 0.54756957 1.9690001
-0.28316095 0.58694959 1.9690001
-0.27753526 0.58882481 1.9690001
-0.24514288 0.098057151 1.9800001
0.035200004 0.094914302 1.9800003
0.046200003 0.095228583 1.9800001
0.05374286 0.09334287 1.9800001
0.060342859 0.090514295 1.9800001
-0.27154288 0.10937144 1.9800001
-0.26346126 0.10667756 1.9800003
-0.25457144 0.10371429 1.9800001
-0.24514288 0.10371429 1.9800001
-0.23760001 0.10560001 1.9800001
0.033188574 0.1063543 1.9800001
0.046765719 0.10710859 1.9800001
0.05374286 0.10654287 1.9800001
0.060342859 0.10937144 1.9800001
-0.27720001 0.11502858 1.9800001
0.045257147 0.11314287 1.9800003
0.054685719 0.11314286 1.9800001
0.064868577 0.11465143 1.9800001
0.073542863 0.11691429 1.9800001
-0.29417145 0.12822859 1.9800003
-0.28474289 0.12634286 1.9800001
-0.27908573 0.12257144 1.9800001
0.073542863 0.12068572 1.9800001
0.084857151 0.12634286 1.9800001
-0.3017143 0.13577144 1.9800003
-0.2932286 0.13388571 1.9800001
0.090514295 0.13577144 1.9800003
0.084857151 0.14708573 1.9800001
0.090514295 0.14520001 1.9800001
-0.29134288 0.15462857 1.9800001
-0.28411433 0.15714286 1.9800003
-0.27908573 0.1584 1.9800001
0.077314287 0.15462859 1.9800001
0.084857143 0.15462857 1.9800001
0.091771439 0.15588573 1.9800003
-0.27908573 0.16217144 1.9800001
0.067885719 0.16782859 1.9800001
0.071657151 0.16594288 1.9800003
0.090514295 0.16217144 1.9800001
0.045257147 0.17725715 1.9800001
0.056571431 0.17725715 1.9800001
0.064114287 0.17537144 1.9800001
-0.041485716 0.4978286 1.9800001
-0.035200007 0.49657148 1.9800003
-0.024137145 0.49330291 1.9800001
-0.018857144 0.49217147 1.9800001
-0.041485716 0.50160003 1.9800001
-0.031428576 0.50537145 1.9800003
-0.024514288 0.50348574 1.9800001
-0.015085716 0.50537145 1.9800003
-0.264 0.51480007 1.9800001
-0.03017143 0.51291436 1.9800001
-0.005657143 0.51291436 1.9800001
-0.27280003 0.52548575 1.9800003
-0.26525718 0.52485722 1.9800003
-0.24640003 0.52674294 1.9800003
-0.27342859 0.53177148 1.9800001
-0.264 0.53428578 1.9800003
-0.2489143 0.53554291 1.9800001
-0.26022857 0.54497147 1.9800001
-0.25457144 0.54685718 1.9800001
-0.2489143 0.54685718 1.9800001
-0.2489143 0.5506286 1.9800001
0.064502858 0.087268576 1.9920001
-0.26180574 0.098651432 1.9920001
-0.25421715 0.098651432 1.9920001
0.043634288 0.094857149 1.9920001
0.056914289 0.09675429 1.9920001
0.06504491 0.094857149 1.9920003
-0.27508572 0.10624 1.9920001
-0.26749715 0.10244572 1.9920001
0.036678098 0.10371049 1.9920001
0.043634288 0.10434286 1.9920001
0.056914289 0.10434286 1.9920001
0.064502865 0.10434286 1.9920003
-0.29216 0.11762286 1.9920001
-0.28457144 0.11382858 1.9920003
-0.27698284 0.11003429 1.9920001
0.066400006 0.11003429 1.9920001
0.075885721 0.11319619 1.9920003
0.085371435 0.11762286 1.9920001
0.091062859 0.11762286 1.9920001
-0.30354288 0.12710857 1.9920001
-0.29595432 0.12331431 1.9920003
-0.2864686 0.12141715 1.9920001
0.079680003 0.12141715 1.9920001
0.085371435 0.12141715 1.9920001
0.092011422 0.12521143 1.9920001
0.09675429 0.1365943 1.9920001
0.10624 0.1365943 1.9920001
0.11382858 0.1365943 1.9920001
0.095805719 0.14513144 1.9920001
0.10497525 0.14544763 1.9920001
0.11382857 0.14133716 1.9920001
0.095805719 0.15556572 1.9920001
0.10434286 0.15177144 1.9920001
0.077782862 0.16315429 1.9920001
0.049325716 0.17833145 1.9920001
0.053120002 0.17833145 1.9920001
-0.033200003 0.49420574 1.9920001
-0.2561143 0.5084343 1.9920001
-0.030354287 0.50274289 1.9920001
-0.026560001 0.50274289 1.9920001
-0.01897143 0.50084573 1.9920001
-0.26180574 0.51602292 1.9920001
-0.25530124 0.51656497 1.9920003
0.001897143 0.51602286 1.9920001
-0.26307052 0.52614105 1.9920001
-0.25421715 0.52550864 1.9920003
-0.2428343 0.52740574 1.9920001
-0.23524573 0.52740574 1.9920001
-0.26180574 0.53689146 1.9920001
-0.25530124 0.5349943 1.9920003
-0.24435201 0.53575319 1.9920002
-0.23632982 0.53445226 1.9920003
-0.25421715 0.54448003 1.9920003
-0.24473146 0.54448003 1.9920001
-0.23714286 0.54448003 1.9920001
-0.26325142 0.087750472 2.003
-0.25943619 0.087750472 2.003
-0.27088189 0.097288571 2.003
-0.26706669 0.097288571 2.003
-0.25943619 0.091565713 2.003
0.064859048 0.099196188 2.003
0.072489522 0.095380954 2.003
-0.28614289 0.10682666 2.003
-0.27660477 0.10301143 2.003
0.074397147 0.10491905 2.003
0.080119997 0.10682666 2.003
-0.30267555 0.11700064 2.003
-0.29606247 0.11369409 2.003
-0.28995809 0.1106419 2.003
0.084698282 0.11216801 2.003
0.094617903 0.11522019 2.003
0.10301143 0.11827239 2.003
-0.30776256 0.12335937 2.003
0.097670101 0.12590286 2.003
0.10453752 0.12666591 2.003
0.1106419 0.12590286 2.003
0.097288571 0.13353334 2.003
0.10428318 0.13480508 2.003
0.1106419 0.13353334 2.003
0.099196188 0.14307143 2.003
0.10428318 0.14370731 2.003
0.1106419 0.14688668 2.003
0.085842855 0.15642476 2.003
0.097288571 0.15451714 2.003
0.10491905 0.15642476 2.003
0.076304764 0.16787048 2.003
0.083935231 0.16596285 2.003
0.076304764 0.17168571 2.003
-0.22700667 0.49216568 2.003
-0.015260953 0.49788857 2.003
-0.25371334 0.50742668 2.003
-0.055320952 0.50742668 2.003
-0.047690473 0.50551903 2.003
-0.013989208 0.50615495 2.003
-0.0076304763 0.50742668 2.003
-0.25180572 0.51505721 2.003
-0.2464644 0.51582021 2.003
-0.22128381 0.51696479 2.003
-0.21746856 0.51505715 2.003
-0.055320952 0.51124191 2.003
-0.047690473 0.5131495 2.003
-0.011445714 0.51124191 2.003
-0.0063587306 0.51378542 2.003
-0.24417526 0.52459526 2.0030003
-0.23463714 0.52650285 2.003
-0.22128381 0.52268761 2.003
0.074842863 0.088276193 2.0150001
-0.28018096 0.099790484 2.0150001
-0.27634287 0.097871438 2.0150001
0.076761916 0.095952384 2.0150001
0.080600001 0.099790484 2.0150001
-0.29553336 0.10554763 2.0150001
-0.28593811 0.10362858 2.0150001
0.085205726 0.10516381 2.0150001
0.095184766 0.10593144 2.0150001
-0.31088573 0.11898096 2.0150001
-0.30576828 0.11258414 2.0150001
0.098511122 0.11258414 2.0150001
0.10554762 0.11514287 2.0150001
0.11130476 0.11898096 2.0150001
0.10746667 0.12281905 2.0150001
0.11514287 0.12537777 2.0150001
0.11514287 0.13305396 2.0150001
0.12281905 0.13625237 2.0150001
-0.23220478 0.49895239 2.0150001
-0.2238889 0.49767303 2.0150001
-0.21685238 0.49703336 2.0150001
-0.011514286 0.49895239 2.0150001
-0.0076761907 0.49895239 2.0150001
-0.25331429 0.50662857 2.0150001
-0.24819684 0.50406992 2.0150001
-0.2315651 0.50406992 2.0150001
-0.22452858 0.50470954 2.0150001
-0.21877143 0.50279051 2.0150001
-0.011514286 0.50470954 2.0150001
-0.0076761907 0.50470954 2.0150001
-0.24487047 0.51353711 2.0150001
-0.23508334 0.51718336 2.0150001
-0.22491241 0.51353711 2.0150001
-0.21621272 0.51558411 2.0150001
-0.24180001 0.52198094 2.0150001
-0.23508334 0.52294052 2.0150001
-0.22644764 0.52390003 2.0150001
-0.2168524 0.52390003 2.0150001
-0.18039048 0.52581906 2.0150001
-0.17501716 0.52658671 2.0150001
-0.1688762 0.52965713 2.0150001
-0.18230952 0.53349525 2.0150001
-0.17655239 0.53349525 2.0150001
0.081080012 0.088801913 2.0270002
0.083975725 0.095558576 2.0270002
-0.30501527 0.10810667 2.0270002
-0.28764099 0.10038476 2.0270002
0.086871438 0.10038476 2.0270002
0.094593339 0.10038476 2.0270002
0.10347352 0.10501792 2.0270002
-0.31466764 0.11582858 2.0270002
0.10810667 0.11196762 2.0270002
0.1138981 0.11775906 2.0270002
0.11775906 0.12355049 2.0270002
0.12355049 0.12548096 2.0270002
0.11775906 0.13127239 2.0270002
0.12355049 0.13127239 2.0270002
-0.24324001 0.49806291 2.0270002
-0.23744859 0.49806291 2.0270002
-0.2123524 0.49806291 2.0270002
-0.20849144 0.49806291 2.0270002
-0.081080012 0.49613243 2.0270002
-0.077219054 0.49613243 2.0270002
-0.2509619 0.5019238 2.0270002
-0.2447844 0.50578475 2.0270002
-0.23841383 0.50674999 2.0270002
-0.2200743 0.50964576 2.0270002
-0.21389678 0.50655699 2.0270002
-0.20849144 0.50964576 2.0270002
-0.081080012 0.50578481 2.0270002
-0.073358104 0.50771528 2.0270002
-0.069497153 0.50578481 2.0270002
-0.24324001 0.51350671 2.0270002
-0.23474593 0.51505107 2.0270002
-0.2200743 0.51350671 2.0270002
-0.21363938 0.51479375 2.0270002
-0.20656097 0.51736766 2.0270002
-0.073358104 0.51543719 2.0270002
-0.23358764 0.52895051 2.0270002
-0.2123524 0.52315909 2.0270002
-0.20656097 0.52508956 2.0270004
-0.19304763 0.52895051 2.0270002
-0.18532573 0.52702004 2.0270002
