# .PCD v0.7 - Point Cloud Data file format
VERSION 0.7
FIELDS x y z
SIZE 4 4 4
TYPE F F F
COUNT 1 1 1
WIDTH 1473
HEIGHT 1
VIEWPOINT 0 0 0 1 0 0 0
POINTS 1473
DATA ascii
-0.21405718 0.1260559 1.8730001
-0.20513812 0.1284343 1.8730001
-0.19550554 0.12629373 1.8730001
-0.18480268 0.12629373 1.8730001
-0.17481336 0.12665048 1.8730001
-0.16411048 0.12665048 1.8730001
-0.15519144 0.12486668 1.8730001
-0.14627239 0.12308287 1.8730001
-0.13913715 0.12129906 1.8730001
-0.12486668 0.12486669 1.8730001
-0.11327191 0.12575857 1.8730001
-0.10583936 0.12367748 1.8730001
-0.095136516 0.12546128 1.8730001
-0.085622862 0.12486668 1.8730003
-0.074919999 0.1266505 1.8730001
-0.06421715 0.1284343 1.8730001
-0.055298097 0.1284343 1.8730001
-0.046379052 0.1284343 1.8730001
-0.035676196 0.12665048 1.8730001
-0.026162541 0.1272451 1.8730001
-0.27470669 0.13556953 1.8730003
-0.06243334 0.13200191 1.8730001
-0.055298097 0.13200191 1.8730001
-0.046379052 0.13200191 1.8730001
-0.03924381 0.13200191 1.8730001
-0.021405717 0.13556953 1.8730001
-0.014780138 0.13658886 1.8730003
-0.0059460322 0.13794795 1.8730001
0.0017838096 0.13913715 1.8730001
-0.28326902 0.14698592 1.8730001
-0.27649051 0.14627239 1.8730001
-0.021405717 0.14627241 1.8730001
-0.014270478 0.14627238 1.8730003
-0.0053514293 0.14627241 1.8730001
0.0035676195 0.14627238 1.8730003
0.013824524 0.14671834 1.8730001
0.02568686 0.14841297 1.8730001
0.033297785 0.14865081 1.8730001
-0.28362572 0.15340763 1.8730001
-0.2782743 0.15340763 1.8730001
-0.0035676192 0.15519144 1.8730001
0.0035676192 0.15519145 1.8730001
0.014270477 0.15519145 1.8730001
0.024973333 0.15519145 1.8730001
0.034784287 0.15429953 1.8730001
-0.0053514293 0.16411048 1.8730001
0.0035676195 0.16411048 1.8730003
0.014270476 0.16411048 1.8730003
0.024527382 0.16366452 1.8730001
0.032108575 0.16232666 1.8730001
-0.021405715 0.17659715 1.8730001
-0.014270477 0.17659716 1.8730001
-0.0071352385 0.17302954 1.8730001
0.0071352385 0.17302954 1.8730001
0.014984001 0.17267278 1.8730001
0.021405715 0.17302954 1.8730001
-0.24497655 0.18670541 1.8730001
-0.23546287 0.18730001 1.8730001
-0.21405718 0.18908381 1.8730001
-0.035676192 0.18908381 1.8730001
-0.021405715 0.18194859 1.8730001
-0.014270476 0.18551619 1.8730003
-0.0053514289 0.18551621 1.8730001
0.0035676192 0.1864081 1.8730001
-0.22476003 0.19265144 1.8730001
-0.21405715 0.19265144 1.8730001
-0.20513812 0.19265144 1.8730001
-0.11059619 0.19443524 1.8730001
-0.10435286 0.19532716 1.8730001
-0.046379052 0.19723839 1.8730003
-0.033892386 0.19800287 1.8730001
-0.026757143 0.19800286 1.8730001
-0.016054288 0.19265144 1.8730001
0.026162541 0.59579241 1.8730001
0.055298097 0.59579241 1.8730001
-0.26469603 0.11692535 1.8830003
-0.25824001 0.11656667 1.8830001
-0.15243334 0.11836001 1.8830001
-0.14526001 0.11836001 1.8830001
-0.13808668 0.11836001 1.8830001
-0.11118668 0.11836001 1.8830001
-0.082493335 0.11656667 1.8830001
-0.076216668 0.11746334 1.8830001
-0.2768907 0.12481602 1.8830003
-0.25286001 0.12194667 1.8830001
-0.24389336 0.12194668 1.8830001
-0.23492669 0.12194667 1.8830001
-0.22596002 0.12194668 1.8830001
-0.21520001 0.12374 1.8830001
-0.20623335 0.12553334 1.8830001
-0.19368002 0.12194668 1.8830001
-0.18471333 0.12194667 1.8830001
-0.17754 0.12194667 1.8830001
-0.16140002 0.12194667 1.8830001
-0.15422669 0.12194668 1.8830001
-0.13450001 0.12194667 1.8830001
-0.12732667 0.12194667 1.8830001
-0.11118668 0.12194667 1.8830001
-0.10222 0.12194667 1.8830001
-0.096840009 0.12194667 1.8830001
-0.082493335 0.12194667 1.8830001
-0.075320005 0.12194668 1.8830001
-0.065456674 0.12463667 1.8830001
-0.053800002 0.12553334 1.8830001
-0.044235557 0.12433778 1.8830001
-0.037660003 0.12194667 1.8830001
-0.025106668 0.12732667 1.8830001
-0.014346667 0.12912002 1.8830001
-0.0071733338 0.12912001 1.8830001
0 0.12912001 1.8830001
0.01076 0.12912001 1.8830001
-0.29052001 0.13988 1.8830001
-0.28478137 0.13701068 1.8830003
-0.27976 0.13270667 1.8830001
-0.012553334 0.13270667 1.8830001
-0.0047822227 0.13390224 1.8830001
0.0040990482 0.13526858 1.8830004
0.014346668 0.13629334 1.8830003
0.024594288 0.1373181 1.8830004
0.03586667 0.13808668 1.8830003
0.044833336 0.13808668 1.8830001
0.053800009 0.13808668 1.8830003
0.062766671 0.13808668 1.8830001
-0.29231334 0.14526001 1.8830001
-0.28693336 0.14346668 1.8830001
0.017933335 0.14346668 1.8830001
0.024210002 0.14436334 1.8830001
0.036584001 0.14490135 1.8830003
0.044833332 0.14526001 1.8830001
0.053800009 0.14526002 1.8830003
0.064560004 0.14526002 1.8830003
0.071733341 0.14705333 1.8830001
-0.29231334 0.15064001 1.8830001
0.038257781 0.15542224 1.8830001
0.04483334 0.15422668 1.8830003
0.053800005 0.15422668 1.8830003
0.064560011 0.15422666 1.8830003
0.072630003 0.15333001 1.8830001
0.028693335 0.16857335 1.8830001
0.036891431 0.16549906 1.8830004
0.044235557 0.16259557 1.8830001
0.050213337 0.16140002 1.8830001
0.065277338 0.16355202 1.8830003
0.071733341 0.16498667 1.8830001
-0.0044833338 0.17664334 1.8830001
0.0025619052 0.17625907 1.8830004
0.01345 0.17843667 1.8830001
0.026131431 0.17625907 1.8830004
0.03484191 0.1752343 1.8830004
-0.0053800005 0.18292001 1.8830001
0.0035866671 0.18292002 1.8830001
0.014346668 0.18471335 1.8830003
0.025106668 0.18292001 1.8830001
0.032280002 0.18292001 1.8830001
-0.21520002 0.19368002 1.8830001
-0.10760001 0.19726668 1.8830001
-0.10760001 0.20085335 1.8830001
0.036584001 0.5566507 1.8830003
0.02152 0.56669337 1.8830001
0.034073338 0.56310666 1.8830001
0.0053800005 0.57386672 1.8830003
0.01076 0.57386672 1.8830001
0.052006669 0.57745337 1.8830001
0.0017933334 0.58104002 1.8830001
0.015542224 0.58343112 1.8830001
0.025106668 0.58821332 1.8830001
0.034970004 0.58731663 1.8830001
0.045431115 0.58701777 1.8830001
0.052775245 0.58411431 1.8830004
0.062766671 0.58821332 1.8830001
0.017036669 0.59449005 1.8830001
0.023672003 0.59395212 1.8830003
0.036584001 0.59323472 1.8830003
0.044833336 0.59359336 1.8830001
0.053082671 0.59323472 1.8830003
0.063663341 0.59359336 1.8830001
-0.18398857 0.10462096 1.8940001
-0.17496952 0.10642476 1.8940001
-0.082975239 0.10822857 1.8940001
-0.079367615 0.10822857 1.8940001
-0.27417907 0.1178489 1.8940001
-0.25493842 0.1178489 1.8940001
-0.2471219 0.11905143 1.8940001
-0.23449525 0.11905143 1.8940001
-0.22547619 0.11905143 1.8940001
-0.19481145 0.11905143 1.8940001
-0.18308666 0.11814952 1.8940001
-0.17557079 0.1178489 1.8940001
-0.16234286 0.11905143 1.8940001
-0.15873523 0.11724762 1.8940001
-0.14610857 0.11544381 1.8940001
-0.1334819 0.11905143 1.8940001
-0.12807047 0.11905143 1.8940001
-0.11724762 0.11905143 1.8940001
-0.082975239 0.11183619 1.8940001
-0.075038478 0.11327924 1.8940001
-0.06854476 0.11905143 1.8940001
-0.2856032 0.12626667 1.8940001
-0.21465334 0.12265905 1.8940001
-0.2056343 0.12265905 1.8940001
-0.17316572 0.12265905 1.8940001
-0.16775429 0.12265905 1.8940001
-0.12265905 0.12265905 1.8940001
-0.11724762 0.12265905 1.8940001
-0.063133337 0.12265905 1.8940001
-0.05411429 0.12265905 1.8940001
-0.04689905 0.12265905 1.8940001
-0.032468572 0.12265905 1.8940001
-0.025253337 0.1238616 1.8940001
-0.014430476 0.12626669 1.8940001
-0.0048101591 0.12746921 1.8940001
0.0054114284 0.12987429 1.8940001
0.014430476 0.12867175 1.8940001
0.025253333 0.12987429 1.8940001
0.036076188 0.12987429 1.8940001
0.04689905 0.12987429 1.8940001
0.054114286 0.12987429 1.8940001
0.063133337 0.12987429 1.8940001
-0.29492286 0.13618761 1.8940001
-0.28860953 0.1334819 1.8940001
0.027057143 0.1334819 1.8940001
0.036076188 0.1334819 1.8940001
0.045095243 0.1334819 1.8940001
0.05411429 0.1334819 1.8940001
0.065839045 0.13438381 1.8940001
0.073354922 0.135887 1.8940001
-0.29822987 0.1418997 1.8940001
0.06854476 0.14069715 1.8940001
0.07515873 0.14430478 1.8940001
0.082975239 0.14791238 1.8940001
0.077924572 0.15584914 1.8940001
0.084779054 0.15152 1.8940001
0.045696512 0.16835557 1.8940001
0.054565236 0.16640145 1.8940001
0.064035237 0.16775429 1.8940001
0.076210953 0.16595048 1.8940001
0.039683808 0.17677332 1.8940001
0.045095243 0.17496952 1.8940001
0.05411429 0.17460877 1.8940001
0.064215623 0.17460877 1.8940001
0.025253335 0.18669429 1.8940001
0.037278727 0.18519112 1.8940001
0.045997147 0.18489048 1.8940001
0.052911751 0.18278603 1.8940001
0.065658666 0.181824 1.8940001
0.025253333 0.53392762 1.8940002
0.032468572 0.53392762 1.8940001
0.025253333 0.54475051 1.8940002
0.033911619 0.54547209 1.8940001
0.024737962 0.55660415 1.8940002
0.034873649 0.55617464 1.8940001
0.0072152382 0.56639618 1.8940001
0.015633017 0.56519365 1.8940001
0.025253333 0.56459242 1.8940001
0.039683808 0.56639618 1.8940001
0.043291431 0.56639618 1.8940001
0.0072152382 0.57000381 1.8940001
0.015461226 0.57309604 1.8940002
0.025704287 0.57406241 1.8940001
0.035045441 0.5730961 1.8940002
0.044493973 0.57481402 1.8940001
0.050506666 0.57721907 1.8940001
0.0060126982 0.58683938 1.8940001
0.015031747 0.58503556 1.8940001
0.025253335 0.58443433 1.8940002
0.036527142 0.58398342 1.8940001
0.044734482 0.58371276 1.8940001
0.057721905 0.5880419 1.8940001
0.061329525 0.5880419 1.8940001
0.0072152382 0.59164953 1.8940001
-0.19402668 0.10698666 1.904
-0.18496001 0.10880001 1.904
-0.17045332 0.1088 1.904
-0.16501334 0.1088 1.904
-0.11605334 0.10698666 1.9040002
-0.29013336 0.11968 1.904
-0.28408891 0.11847112 1.904
-0.27562672 0.11484446 1.904
-0.26474667 0.11242667 1.904
-0.25386667 0.11484446 1.904
-0.24419557 0.11726223 1.904
-0.23573333 0.11605334 1.904
-0.22304001 0.11786667 1.904
-0.21306667 0.11877334 1.904
-0.20454402 0.11677867 1.9040002
-0.19584 0.11424001 1.9040002
-0.18568532 0.11387735 1.9040002
-0.1728711 0.11484444 1.9040002
-0.16537601 0.11532801 1.9040002
-0.15594667 0.11424001 1.904
-0.14144 0.11605334 1.904
-0.13418667 0.11605334 1.904
-0.12512 0.11605334 1.904
-0.11605334 0.11424001 1.9040002
-0.1088 0.11424001 1.904
-0.064826667 0.1156 1.9040002
-0.054399997 0.11605334 1.9040002
-0.045333333 0.11968 1.904
-0.035360001 0.11877334 1.904
-0.029013334 0.11968 1.904
-0.29376 0.12512 1.904
-0.02176 0.12330666 1.904
-0.014506668 0.12330666 1.904
-0.00544 0.12330666 1.904
0.0036266667 0.12512001 1.9040002
0.015232001 0.12475734 1.9040002
0.025386667 0.12511998 1.9040002
0.036266666 0.12511998 1.9040002
0.045333333 0.12512 1.904
0.054400004 0.12693334 1.904
0.063466668 0.12693334 1.904
-0.30343109 0.13539556 1.904
-0.2961778 0.13176888 1.904
0.03626667 0.13056 1.904
0.04352 0.13056 1.904
0.054400001 0.13056 1.904
0.068906672 0.13056 1.904
0.077368885 0.13297777 1.9040002
0.083413333 0.13781334 1.904
0.079786666 0.14325334 1.904
0.085589342 0.14434133 1.9040002
0.090666667 0.14688 1.904
0.08522667 0.15775999 1.904
0.092480004 0.15232 1.904
0.08522667 0.16501334 1.904
0.054400001 0.17770667 1.904
0.068906672 0.17770667 1.904
0.076159999 0.17589335 1.9040002
0.083413333 0.17045332 1.904
0.04352 0.18314667 1.904
0.054400001 0.18405333 1.904
0.061653331 0.18496001 1.904
0.072533339 0.18133333 1.904
-0.0048355558 0.53553778 1.904
0.0036266667 0.53493327 1.9040002
0.014506668 0.53493333 1.9040002
-0.0050773337 0.5432747 1.9040002
0.0036266665 0.54400003 1.9040002
0.014506666 0.54400003 1.9040002
0.0036266667 0.55125338 1.904
0.016320001 0.55488002 1.9040002
0.0272 0.55488002 1.904
0.00544 0.56576002 1.904
0.014506668 0.56503469 1.9040002
0.039893333 0.57663995 1.904
0.045333333 0.57663995 1.904
0.039893333 0.58026671 1.904
-0.27357143 0.10942857 1.9150001
-0.26627621 0.10942857 1.9150002
-0.25715715 0.10942857 1.9150001
-0.21338573 0.10942857 1.9150001
-0.20335476 0.10851666 1.9150001
-0.16049524 0.10942857 1.9150001
-0.14590476 0.10942857 1.9150001
-0.12401905 0.10760476 1.9150001
-0.034652382 0.10942857 1.9150001
-0.029180953 0.10942857 1.9150001
-0.29363334 0.11672381 1.9150001
-0.28542617 0.1139881 1.9150001
-0.27721906 0.1130762 1.9150001
-0.25350952 0.1130762 1.9150001
-0.2462143 0.1130762 1.9150001
-0.23709525 0.11672381 1.9150001
-0.22615239 0.11672381 1.9150001
-0.21593907 0.11453525 1.9150002
-0.20791429 0.1130762 1.9150001
-0.1532 0.1130762 1.9150001
-0.14590478 0.1130762 1.9150002
-0.1349619 0.1130762 1.9150002
-0.12401905 0.1130762 1.9150001
-0.043771427 0.11526477 1.9150002
-0.03526032 0.11429208 1.9150002
-0.027357144 0.11490001 1.9150001
0.0036476192 0.11672381 1.9150001
-0.30457622 0.12584285 1.9150001
-0.29788893 0.12158731 1.9150002
-0.023709524 0.12037143 1.9150001
-0.014590478 0.12037143 1.9150002
-0.0054714289 0.12037143 1.9150001
0.0036476194 0.12037143 1.9150002
0.010942858 0.12037143 1.9150001
0.054714289 0.12401905 1.9150002
0.066178232 0.12297688 1.9150002
0.074776195 0.12401905 1.9150002
0.083895244 0.12401906 1.9150001
0.094838098 0.12584285 1.9150002
0.10578096 0.12766668 1.9150002
-0.30457622 0.13131429 1.9150001
0.086083815 0.13423239 1.9150002
0.094838098 0.13496192 1.9150001
0.10578096 0.13496192 1.9150001
0.1130762 0.1349619 1.9150002
0.095880277 0.1453837 1.9150002
0.10578096 0.14590476 1.9150001
0.11453525 0.14663431 1.9150002
0.12158731 0.14833651 1.9150002
0.095750004 0.15593572 1.9150001
0.10505144 0.15465906 1.9150002
0.11490001 0.15502381 1.9150001
0.12401905 0.15502381 1.9150002
0.13313809 0.15502381 1.9150001
0.09483809 0.16414288 1.9150001
0.10304524 0.16323096 1.9150001
0.11490001 0.16049524 1.9150001
0.12493095 0.16140714 1.9150001
0.13131429 0.16049524 1.9150001
0.086326987 0.17386985 1.9150002
0.094838098 0.17404357 1.9150002
0.10395715 0.17508572 1.9150001
0.056538098 0.1896762 1.9150001
-0.29363334 0.51613808 1.9150001
0.014590478 0.5289048 1.9150002
-0.010942858 0.5343762 1.9150001
-0.0060793655 0.5337683 1.9150002
0.0036476194 0.53255242 1.9150002
0.014590478 0.53255242 1.9150002
0.021885715 0.53255242 1.9150001
-0.0060793655 0.5532223 1.9150002
0.0036476192 0.55662668 1.9150002
0.010942858 0.5562619 1.9150001
0.004377143 0.56319243 1.9150002
0.010942858 0.56355715 1.9150001
-0.26033333 0.10633333 1.9250001
-0.15033334 0.10633333 1.9250001
-0.14666666 0.10633333 1.9250001
-0.13383335 0.10633333 1.9250001
-0.12833333 0.10633333 1.9250001
0.014666667 0.10633333 1.9250001
-0.30250001 0.11733334 1.9250001
-0.29516667 0.11366667 1.9250001
-0.28600001 0.11000001 1.9250001
-0.27866668 0.11000001 1.9250001
-0.25300002 0.11000001 1.9250001
-0.24566668 0.11183333 1.9250001
-0.23466668 0.11366668 1.9250001
-0.2255 0.11366667 1.9250001
-0.15400001 0.11000001 1.9250001
-0.14300001 0.11000001 1.9250001
-0.13566668 0.11000001 1.9250001
-0.12833333 0.11000001 1.9250001
-0.042166665 0.11183333 1.9250001
-0.022916667 0.11275001 1.9250001
-0.014666666 0.11366667 1.9250001
-0.0055 0.11366668 1.9250001
0.0036666668 0.11261906 1.9250002
0.013933334 0.11586666 1.9250001
0.026583333 0.11641666 1.9250001
0.036666665 0.11733334 1.9250001
0.040333334 0.11733334 1.9250001
-0.31166667 0.12833333 1.9250001
-0.30433336 0.121 1.9250001
0.0165 0.121 1.9250001
0.025666669 0.12100001 1.9250001
0.034833334 0.121 1.9250001
0.044 0.12100001 1.9250001
0.055000003 0.12100001 1.9250001
0.095333338 0.12100001 1.9250001
0.1045 0.12283334 1.9250001
0.11412501 0.12420834 1.9250001
0.12283334 0.12833333 1.9250001
-0.31166667 0.132 1.9250001
0.11733334 0.13566668 1.9250001
0.12466668 0.13566668 1.9250001
0.13383335 0.13566667 1.9250001
0.11733334 0.14300001 1.9250001
0.12540001 0.14446667 1.9250001
0.13566667 0.14483334 1.9250001
0.14300001 0.14483333 1.9250001
0.11000001 0.15766667 1.9250001
0.12833333 0.15033334 1.9250001
0.13658334 0.15125 1.9250001
0.14300001 0.15033334 1.9250001
0.10633333 0.16683334 1.9250001
0.11314287 0.16604762 1.9250002
0.12283334 0.16683334 1.9250001
0.086166665 0.17966667 1.9250001
0.1045 0.17233334 1.9250001
0.11275001 0.17325002 1.9250001
0.121 0.17233334 1.9250001
-0.0036666668 0.528 1.9250001
0.0036666668 0.528 1.9250001
0.014666667 0.528 1.9250001
-0.0055 0.53166664 1.9250001
0.0036666668 0.53166664 1.9250001
-0.0051333336 0.56393337 1.9250001
-0.29333332 0.57566667 1.9250001
-0.28966668 0.57566667 1.9250001
-0.30387506 0.59354168 1.9250001
-0.29699999 0.59399998 1.9250001
-0.27472764 0.10694096 1.9360001
-0.2673524 0.10694096 1.9360001
-0.25628954 0.10694096 1.9360001
-0.15488 0.10694096 1.9360001
-0.30238479 0.1143162 1.9360001
-0.29316574 0.11062858 1.9360001
-0.28394666 0.11062858 1.9360001
-0.24522668 0.11062858 1.9360001
-0.23969524 0.11062858 1.9360001
-0.22678858 0.11062858 1.9360001
-0.044251431 0.11062858 1.9360001
0.014750476 0.11185779 1.9360002
0.025813337 0.113087 1.9360002
0.034417782 0.11554541 1.9360002
0.044988956 0.11579125 1.9360001
0.055314288 0.11800383 1.9360002
0.06391874 0.11677462 1.9360002
0.074489906 0.11652877 1.9360001
0.084815249 0.11800383 1.9360002
0.095878109 0.11800383 1.9360002
0.10509715 0.11800382 1.9360001
0.11062858 0.11800382 1.9360001
-0.31344765 0.12537906 1.9360001
-0.30976 0.12169144 1.9360001
0.12590587 0.12432547 1.9360001
0.13459812 0.12537907 1.9360001
0.14197335 0.12537907 1.9360001
0.14197335 0.13459811 1.9360001
0.14473905 0.14105143 1.9360001
0.0036876192 0.51995432 1.9360001
-0.29408765 0.52640766 1.9360001
-0.0049168258 0.5261004 1.9360002
0.0036876192 0.52548575 1.9360001
0.011062858 0.52548575 1.9360001
-0.0073752385 0.53101718 1.9360001
-0.30238479 0.57895625 1.9360001
-0.29500955 0.57649785 1.9360002
-0.28763431 0.57711244 1.9360001
-0.30238479 0.58448768 1.9360001
-0.29500955 0.58448768 1.9360001
-0.28394669 0.58448762 1.9360001
-0.30238479 0.59001905 1.9360001
-0.29483145 0.10754858 1.9470001
-0.28556001 0.10754858 1.9470003
-0.25218287 0.10754858 1.9470001
-0.2484743 0.10754858 1.9470001
-0.14278001 0.10754858 1.9470001
-0.31399241 0.1174381 1.9470003
-0.3022486 0.11125715 1.9470001
-0.2354943 0.11125715 1.9470001
0.024105716 0.11125715 1.9470001
0.03523143 0.11125715 1.9470001
0.044502866 0.11125716 1.9470003
0.055628579 0.11496572 1.9470003
0.064900003 0.11311144 1.9470001
0.072317146 0.11311144 1.9470001
0.085297152 0.11496572 1.9470003
0.09456858 0.11496572 1.9470001
0.10384001 0.11496572 1.9470003
0.11496572 0.1174381 1.9470003
0.14278001 0.11867429 1.9470001
-0.31770098 0.12361906 1.9470003
-0.28370571 0.51734579 1.9470001
-0.27814287 0.51920003 1.9470001
-0.023734858 0.51623321 1.9470001
-0.0055628573 0.51734579 1.9470001
0.0037085717 0.51827288 1.9470001
0.012980001 0.51920003 1.9470001
-0.29297718 0.52290857 1.9470001
-0.28556001 0.52476287 1.9470003
-0.2762886 0.52476287 1.9470001
-0.022251431 0.52476287 1.9470001
-0.014092572 0.52513373 1.9470001
-0.0061809532 0.52414477 1.9470003
0.0037085717 0.52290857 1.9470001
0.012980001 0.52290857 1.9470001
-0.3022486 0.53403431 1.9470001
-0.29483145 0.53588861 1.9470001
-0.28556001 0.53403437 1.9470003
-0.2769067 0.53156197 1.9470003
-0.014092572 0.53180927 1.9470001
-0.30039436 0.54516006 1.9470003
-0.29297718 0.54330575 1.9470001
-0.2866196 0.54463029 1.9470003
-0.30039433 0.5525772 1.9470001
-0.28556004 0.55628574 1.9470003
-0.27072573 0.5525772 1.9470001
-0.26701716 0.55443144 1.9470001
-0.31893718 0.56741148 1.9470001
-0.30410287 0.56741154 1.9470003
-0.28679621 0.56493914 1.9470003
-0.31152004 0.57668293 1.9470001
-0.30363932 0.57529217 1.9470003
-0.29483145 0.57297432 1.9470001
-0.28926858 0.57297432 1.9470001
-0.31244719 0.58595437 1.9470001
-0.30781144 0.58595437 1.9470003
-0.2769067 0.58719057 1.9470003
-0.30302384 0.10535905 1.9580001
-0.29556477 0.10349429 1.9580001
-0.28530857 0.10442667 1.9580001
-0.27971429 0.10442667 1.9580001
-0.24614857 0.10691302 1.9580001
-0.23496 0.10815619 1.9580001
0.027971428 0.10815619 1.9580001
0.048483811 0.10815619 1.9580001
-0.3229768 0.11636114 1.9580001
-0.30955049 0.11375048 1.9580001
0.018647619 0.11188572 1.9580001
0.05594286 0.11188572 1.9580001
0.06713143 0.11188572 1.9580001
0.074590474 0.11188572 1.9580001
0.085779056 0.11188572 1.9580001
0.095102862 0.11188572 1.9580001
0.11561524 0.11437207 1.9580001
0.12493904 0.11748 1.9580001
0.13426286 0.11748 1.9580001
-0.035057526 0.51392841 1.9580001
-0.027349843 0.51343119 1.9580001
-0.014918095 0.51467431 1.9579999
-0.0055942857 0.51280957 1.9580001
0.0037295241 0.51467437 1.9580002
0.011188572 0.51467437 1.9580001
-0.27349842 0.52586287 1.9580001
-0.26666096 0.52959239 1.9580001
-0.015850477 0.52306569 1.9580001
-0.27349842 0.53580827 1.9580001
-0.2647962 0.53332198 1.9580001
-0.30582094 0.54451054 1.9580001
-0.2983619 0.54637527 1.9580001
-0.28344381 0.54824001 1.9580001
-0.27598476 0.54451048 1.9579999
-0.26852572 0.54824001 1.9580001
-0.32446858 0.55942857 1.9580001
-0.30644256 0.55694222 1.9580001
-0.29649717 0.55569905 1.9580001
-0.28344381 0.55196953 1.9580001
-0.27645096 0.55569905 1.9580001
-0.26852572 0.55196953 1.9580001
-0.32372269 0.56539583 1.9580001
-0.31514478 0.56502289 1.9580001
-0.30582097 0.56502289 1.9580001
-0.29649717 0.56502289 1.9580001
-0.27598476 0.56315815 1.9580001
-0.32493478 0.57481283 1.9580001
-0.31551775 0.57360077 1.9580001
-0.30955049 0.57434666 1.9580001
-0.29463241 0.57061714 1.9580001
-0.32322541 0.58429211 1.9580001
-0.31700954 0.5836705 1.9580001
-0.31128952 0.10876381 1.9690001
-0.30753905 0.10501334 1.9690001
-0.29441237 0.10126286 1.9690001
-0.28691143 0.10126286 1.9690001
-0.27003428 0.10501334 1.9690001
-0.26628384 0.10501334 1.9690001
-0.25503239 0.10501334 1.9690001
-0.24378097 0.10501334 1.9690002
-0.23440477 0.10501334 1.9690001
0.022502858 0.10876381 1.9690001
0.035629526 0.10876381 1.9690001
0.046880953 0.10688858 1.9690001
0.054381907 0.10876381 1.9690001
0.063758098 0.10876381 1.9690002
0.075009525 0.10876381 1.9690002
0.084385723 0.10876381 1.9690001
0.093761913 0.10876381 1.9690002
-0.31504002 0.11626476 1.9690001
0.10501334 0.11251429 1.9690002
0.11626476 0.11251429 1.9690001
0.12376572 0.11251429 1.9690001
0.13501716 0.11251429 1.9690002
-0.024378097 0.48756194 1.9690001
-0.023440477 0.49412525 1.9690001
-0.022502858 0.50631428 1.9690001
-0.041255239 0.51194 1.9690001
-0.033754289 0.51006478 1.9690002
-0.024378097 0.51006478 1.9690001
0.0037504763 0.51381528 1.9690001
-0.27128446 0.52631682 1.9690002
-0.26503369 0.52756703 1.9690002
-0.25878286 0.52881718 1.9690001
-0.26253334 0.53256768 1.9690001
-0.25878286 0.53256768 1.9690001
-0.27003428 0.54381907 1.9690002
-0.26478365 0.54306901 1.9690001
-0.32254097 0.55882096 1.9690001
-0.31410241 0.5560081 1.9690001
-0.26628384 0.55132002 1.9690001
-0.32254097 0.56257141 1.9690001
-0.31691527 0.56257141 1.9690001
-0.3130286 0.10560001 1.9800001
-0.28285718 0.10182858 1.9800001
-0.27720001 0.10560001 1.9800001
-0.264 0.10560001 1.9800001
0.045257147 0.10560001 1.9800001
0.054685719 0.10560001 1.9800001
0.064114295 0.10560001 1.9800003
0.075428575 0.10560001 1.9800001
0.10560001 0.10937145 1.9800003
0.11502858 0.10937144 1.9800001
0.12445715 0.10937144 1.9800001
0.13388573 0.10748573 1.9800001
-0.32057145 0.11314286 1.9800001
-0.3168 0.11314286 1.9800001
0.12445715 0.11314286 1.9800001
-0.032434288 0.49556574 1.9800001
-0.026400002 0.4978286 1.9800001
-0.016028572 0.49122861 1.9800001
-0.26588571 0.50725716 1.9800001
-0.25645718 0.50725716 1.9800001
-0.2489143 0.50914288 1.9800001
-0.041485719 0.50537145 1.9800003
-0.03394286 0.50537151 1.9800001
-0.025457146 0.50537145 1.9800001
-0.25457144 0.51480007 1.9800001
-0.24702859 0.51480007 1.9800001
-0.015085716 0.51291436 1.9800003
-0.28285718 0.52234292 1.9800001
-0.27720001 0.52422863 1.9800001
-0.26211429 0.528 1.9800001
-0.25457144 0.52422857 1.9800003
-0.24514286 0.52422857 1.9800001
-0.23760001 0.528 1.9800001
-0.25457144 0.53365719 1.9800001
-0.24460408 0.53446537 1.9800003
-0.23760001 0.53554291 1.9800001
-0.22440001 0.53365719 1.9800001
-0.3168 0.55817145 1.9800001
-0.31492573 0.10434286 1.9920001
-0.28077716 0.10244572 1.9920001
-0.27508572 0.10244572 1.9920001
0.056914289 0.10244572 1.9920001
0.060708575 0.10244572 1.9920001
0.075885721 0.10624 1.9920001
0.085371435 0.10624 1.9920001
0.094857149 0.10624 1.9920001
0.10434286 0.10624 1.9920001
0.11382857 0.10624 1.9920001
0.12521145 0.10624 1.9920001
-0.32441145 0.11193143 1.9920001
-0.31872001 0.11003429 1.9920001
0.12521143 0.11003429 1.9920001
-0.11437062 0.22277881 1.9920003
-0.10497525 0.22259812 1.9920001
-0.030354287 0.48946288 1.9920001
-0.026560001 0.48946288 1.9920001
-0.035413336 0.49578673 1.9920001
-0.26370287 0.5084343 1.9920001
-0.25345829 0.5061577 1.9920002
-0.24662858 0.50653714 1.9920001
-0.041737143 0.50084573 1.9920001
-0.018971432 0.50464004 1.9920001
-0.28077716 0.51981717 1.9920001
-0.27470627 0.51678175 1.9920002
-0.26560003 0.51649714 1.9920003
-0.25421715 0.51222861 1.9920001
-0.24378288 0.51507431 1.9920001
-0.23904002 0.51792002 1.9920001
-0.017074287 0.51222861 1.9920001
-0.0056914287 0.51602286 1.9920001
-0.28077716 0.52361149 1.9920001
-0.27445334 0.52487624 1.9920001
-0.26560003 0.52550864 1.9920003
-0.23904002 0.52550864 1.9920001
-0.23461334 0.53562671 1.9920003
-0.22386287 0.53372955 1.9920001
-0.23524573 0.54448009 1.9920003
-0.22765715 0.54258287 1.9920001
-0.3225143 0.55586284 1.9920001
-0.31872001 0.55586284 1.9920001
-0.23334858 0.55017149 1.9920001
-0.3225143 0.56155431 1.9920001
-0.32238764 0.099196188 2.003
-0.3230235 0.10428318 2.003
-0.31666479 0.10301143 2.003
-0.27088189 0.10301143 2.003
-0.24608287 0.10301143 2.003
0.015260953 0.10682666 2.003
0.026706666 0.10682666 2.003
0.053413332 0.10301143 2.003
0.066766664 0.10301143 2.003
0.095380954 0.10301143 2.003
0.10491905 0.10301143 2.003
0.11445715 0.10301143 2.003
0.12208762 0.10301143 2.003
-0.32811046 0.1106419 2.003
0.019076191 0.1106419 2.003
-0.11254953 0.22891429 2.003
-0.10491905 0.22891429 2.003
-0.11445715 0.23463714 2.003
-0.24512906 0.49884236 2.003
-0.041967619 0.49979618 2.003
-0.036244765 0.49407333 2.003
-0.013353334 0.49979618 2.003
-0.25180572 0.50361145 2.003
-0.24341221 0.50513756 2.003
-0.013353334 0.50551903 2.003
-0.24163175 0.51251364 2.003
-0.23527303 0.51760066 2.003
-0.22414523 0.51791859 2.003
-0.21556094 0.51887238 2.003
-0.20602286 0.51887238 2.003
-0.072489522 0.51887238 2.003
-0.068674289 0.51887238 2.003
-0.012717461 0.51251364 2.003
-0.0076304763 0.5131495 2.003
-0.23654477 0.52459526 2.003
-0.22414523 0.52554905 2.003
-0.21556094 0.52459526 2.003
-0.20678592 0.52421373 2.003
-0.19839238 0.52268761 2.003
-0.072489522 0.52268761 2.003
-0.066766664 0.52459526 2.003
-0.23400128 0.53158987 2.003
-0.22357295 0.53260726 2.003
-0.21517943 0.53413337 2.003
-0.20602286 0.53222579 2.0030003
-0.19839238 0.53222573 2.003
-0.21556094 0.54176378 2.003
0.057571433 0.099790484 2.0150001
0.061409526 0.099790484 2.0150001
0.097871438 0.099790484 2.0150001
0.10618731 0.098511122 2.0150001
0.11514287 0.099790484 2.0150001
0.1247381 0.099790484 2.0150001
-0.33007622 0.10746667 2.0150001
-0.26866665 0.10362858 2.0150001
-0.25331429 0.10362858 2.0150001
0.019190477 0.10362858 2.0150001
0.030704763 0.10746667 2.0150001
0.074842863 0.10362858 2.0150001
0.084438108 0.10362859 2.0150001
0.12665714 0.10362858 2.0150001
0.13241428 0.10362858 2.0150001
-0.11130476 0.23604287 2.0150001
-0.10554762 0.23412383 2.0150001
-0.099790484 0.23412383 2.0150001
-0.24307939 0.49767303 2.0150001
-0.23796192 0.49511433 2.0150001
-0.22452858 0.49703336 2.0150001
-0.04221905 0.49895239 2.0150001
-0.038380954 0.49511433 2.0150001
-0.23412383 0.50470954 2.0150003
-0.22452858 0.50470954 2.0150001
-0.23364407 0.513825 2.0150001
-0.22491241 0.51353717 2.0150001
-0.21493335 0.51485312 2.0150003
-0.072923817 0.51814288 2.0150001
-0.069085717 0.51814288 2.0150001
-0.23284447 0.52709842 2.0150001
-0.22644764 0.52581906 2.0150001
-0.20341906 0.52965713 2.0150001
-0.19958097 0.52965713 2.0150001
-0.18230951 0.52773809 2.0150001
-0.17527303 0.52837777 2.0150001
-0.1688762 0.52965713 2.0150001
-0.080600001 0.52581906 2.0150001
-0.076761909 0.52390003 2.0150001
0.0019190477 0.52198094 2.0150001
-0.21877143 0.53733331 2.0150001
-0.18039048 0.53349525 2.0150001
-0.17463334 0.53349525 2.0150001
-0.1688762 0.53349525 2.0150001
0.10424572 0.094593339 2.0270002
0.11582857 0.096523814 2.0270002
-0.30501527 0.10038476 2.0270002
-0.29343241 0.10038476 2.0270002
-0.26447526 0.1061762 2.0270002
0.017374288 0.1061762 2.0270002
0.023165716 0.10810667 2.0270002
0.067566678 0.10038476 2.0270002
0.092662863 0.10038476 2.0270002
0.13320287 0.10038476 2.0270002
0.042470481 0.11196762 2.0270002
-0.23358764 0.49806291 2.0270002
-0.2200743 0.49806291 2.0270002
-0.21428287 0.49806291 2.0270002
-0.20463049 0.49613243 2.0270004
-0.23551813 0.5019238 2.0270002
-0.2200743 0.50578481 2.0270002
-0.21331763 0.50675005 2.0270002
-0.20849144 0.5019238 2.0270002
-0.21621335 0.51543719 2.0270002
-0.20463049 0.51543719 2.0270004
-0.18532573 0.51350671 2.0270002
-0.075288579 0.51736766 2.0270002
-0.20366526 0.52219385 2.0270002
-0.18146478 0.52508956 2.0270002
-0.17374288 0.52702004 2.0270002
-0.16795145 0.52702004 2.0270002
-0.081080012 0.52315909 2.0270002
-0.077219054 0.52122861 2.0270002
-0.32235619 0.097095244 2.039
-0.31847239 0.097095244 2.039
-0.29516953 0.097095244 2.039
0.097095244 0.097095244 2.039
0.10097905 0.093211427 2.039
-0.32235619 0.10097905 2.039
-0.31458855 0.10097905 2.039
-0.30293715 0.10097905 2.039
-0.29516953 0.10097905 2.039
-0.28546 0.10097905 2.039
-0.27963427 0.10097905 2.039
-0.26409906 0.10486286 2.039
0.025244761 0.10486286 2.039
0.034954287 0.10745206 2.039
0.044663809 0.10680477 2.039
0.052431427 0.10292096 2.039
0.075734288 0.10097905 2.039
0.087385714 0.10097905 2.039
-0.095153332 0.23691238 2.039
-0.19613239 0.49712762 2.039
-0.18253905 0.49712762 2.039
-0.16312 0.49712762 2.039
-0.21749334 0.50683713 2.039
-0.20506513 0.50722551 2.039
-0.19370499 0.50440973 2.0389998
-0.18486932 0.50567198 2.039
-0.17477143 0.50877905 2.039
-0.16700381 0.50877905 2.039
-0.073792383 0.50683713 2.039
-0.069908567 0.50683713 2.039
-0.2058419 0.51266289 2.039
-0.19341372 0.51499319 2.039
-0.18383364 0.5139575 2.039
-0.17477143 0.51460481 2.039
-0.16506191 0.51460481 2.039
-0.081560001 0.51654667 2.039
-0.075734288 0.51460481 2.039
-0.06796667 0.51460481 2.039
-0.19370501 0.52382886 2.0389998
-0.18486933 0.52353758 2.039
-0.17532627 0.52320468 2.039
-0.16700381 0.52237236 2.039
-0.093211427 0.52819812 2.039
-0.086220577 0.52509111 2.039
-0.069908567 0.52043051 2.039
-0.093211427 0.53208196 2.039
-0.087385714 0.53208196 2.039
-0.31448668 0.095713332 2.0510001
-0.30569667 0.096689999 2.0510001
-0.29300001 0.097666666 2.0510001
-0.28518671 0.097666666 2.0510001
0.058600001 0.097666666 2.0510001
0.093760006 0.097666666 2.0510001
-0.27542001 0.10157334 2.0510001
0.037113335 0.10548 2.0510001
0.042973336 0.10548 2.0510001
0.05078667 0.10157334 2.0510001
0.082040004 0.10157334 2.0510001
0.0078133335 0.11329334 2.0510001
0.011720001 0.11329334 2.0510001
-0.10157334 0.24221335 2.0510001
-0.15626667 0.48833331 2.0510001
-0.19533335 0.49517003 2.0510001
-0.18556666 0.49419338 2.0510001
-0.17580001 0.4941934 2.0510004
-0.16408001 0.49458405 2.0510004
-0.15626667 0.49419338 2.0510001
-0.19142668 0.50005335 2.0510001
-0.18556666 0.50200665 2.0510001
-0.17580001 0.50396001 2.0510004
-0.16408001 0.50444835 2.0510004
-0.15529001 0.50298333 2.0510001
-0.14389557 0.50396001 2.0510004
-0.083342224 0.5065645 2.0510001
-0.07422667 0.50396001 2.0510004
-0.066413336 0.50396007 2.0510001
-0.19924001 0.51372671 2.0510001
-0.16147557 0.51307559 2.0510001
-0.15626667 0.51372671 2.0510001
-0.14259334 0.51177341 2.0510001
-0.086435005 0.51519173 2.0510004
-0.078133337 0.51177341 2.0510001
-0.093760006 0.52544665 2.0510001
-0.087900005 0.52349335 2.0510001
-0.097666666 0.53130668 2.0510001
-0.3104324 0.090379059 2.0630002
-0.30519304 0.092998743 2.0630002
-0.29471433 0.094308577 2.0630002
-0.28685525 0.094308577 2.0630002
-0.2750667 0.098238103 2.0630002
0.035365716 0.098238103 2.0630002
0.053048577 0.098238103 2.0630002
0.06483715 0.098238103 2.0630002
0.072696194 0.098238103 2.0630002
0.086449534 0.098238103 2.0630002
0.094308577 0.095618419 2.0630002
-0.27113718 0.10216763 2.0630002
-0.26524287 0.10216763 2.0630002
0.035365716 0.10216763 2.0630002
0.04518953 0.10216763 2.0630002
0.0039295242 0.11395621 2.0630002
-0.11002668 0.2436305 2.0630002
-0.10609715 0.2436305 2.0630002
-0.098238103 0.2436305 2.0630002
-0.072696194 0.36937526 2.0630002
-0.062872387 0.47940195 2.0630002
-0.086449534 0.487261 2.0630002
-0.074660957 0.487261 2.0630002
-0.066801913 0.487261 2.0630002
-0.1925467 0.49512002 2.0630002
-0.18468764 0.49119052 2.0630002
-0.15325144 0.4970848 2.0630002
-0.1453924 0.4990496 2.0630002
-0.086449534 0.49119052 2.0630002
-0.074660964 0.49512005 2.063
-0.06483715 0.49512005 2.0630002
-0.058942866 0.49512005 2.0630002
-0.15325144 0.5069086 2.0630002
-0.14539239 0.50494385 2.0630002
-0.13753335 0.50494385 2.0630002
-0.082520008 0.5029791 2.0630002
-0.07662572 0.5029791 2.0630002
-0.062872387 0.50494385 2.0630002
-0.058942862 0.5029791 2.0630002
-0.15325144 0.5128029 2.0630002
-0.14932191 0.5128029 2.0630002
-0.094963506 0.51476765 2.0630002
-0.096928261 0.52393651 2.0630002
-0.10216763 0.53638005 2.0630002
-0.098238103 0.5344153 2.0630002
-0.30843431 0.08699429 2.0760002
-0.32227433 0.090948582 2.0760002
-0.31634289 0.090948582 2.0760002
-0.3025029 0.090948582 2.0760002
-0.29459432 0.090948582 2.0760002
-0.28470859 0.092925727 2.0760002
-0.27680001 0.094902866 2.0760002
-0.26889145 0.098857149 2.0760002
0.039542861 0.098857149 2.0760002
0.045474291 0.098857149 2.0760002
0.079085723 0.098857149 2.0760002
0.083040006 0.098857149 2.0760002
0.094902866 0.092266679 2.0760002
0.10478858 0.090948582 2.0760002
0.11665144 0.094902866 2.0760002
-0.2609829 0.10281144 2.0760002
0.023725716 0.10281144 2.0760002
-0.092266679 0.24648383 2.0760002
-0.08699429 0.24912001 2.0760002
-0.090948582 0.27284575 2.0760002
-0.08699429 0.27284575 2.0760002
-0.071177147 0.38356575 2.0760002
-0.067222863 0.38356575 2.0760002
-0.10478858 0.47846863 2.0760002
-0.096880004 0.47846863 2.0760002
-0.072495244 0.47715053 2.0760002
-0.065245718 0.47649148 2.0760002
-0.059314292 0.47846863 2.0760002
-0.10281144 0.48242292 2.0760002
-0.09569373 0.48479548 2.0760002
-0.085017145 0.48440003 2.0760002
-0.075131439 0.48440003 2.0760002
-0.065904766 0.48505911 2.0760002
-0.057996195 0.48374102 2.0760002
-0.19376002 0.49428576 2.0760002
-0.15289907 0.49428576 2.0760002
-0.14433144 0.49824002 2.0760002
-0.10281144 0.49428576 2.0760002
-0.094902873 0.49428573 2.0760002
-0.084028572 0.49527431 2.0760002
-0.06326858 0.49033144 2.0760002
-0.059314292 0.49033144 2.0760002
-0.15026288 0.50219434 2.0760002
-0.14235429 0.50219434 2.0760002
-0.13642287 0.50417149 2.0760002
-0.092266679 0.50483054 2.0760002
-0.085676193 0.5035125 2.0760002
-0.13444573 0.51010287 2.0760002
-0.10478858 0.51801145 2.0760002
-0.095891431 0.51109147 2.0760002
-0.08699429 0.51010287 2.0760002
-0.10380001 0.52493149 2.0760002
-0.10478858 0.53580576 2.0760002
-0.30425143 0.087497145 2.0880001
-0.29331431 0.086502858 2.0880001
-0.28635427 0.08550857 2.0880001
-0.28237715 0.091474287 2.0880001
-0.27442288 0.09412571 2.0880001
-0.26447999 0.099428572 2.0880001
0.031817142 0.099428572 2.0880001
0.075565718 0.095451437 2.0880001
0.08550857 0.095451429 2.0880001
0.091474287 0.091474287 2.0880001
-0.25453717 0.10473143 2.0880001
-0.24658287 0.10738286 2.0880001
0.0059657143 0.10738286 2.0880001
0.015908573 0.10473143 2.0880001
0.02784 0.10340571 2.0880001
0.0039771432 0.11268573 2.0880001
0.011931429 0.11136 2.0880001
-0.11295086 0.25374171 2.0880001
-0.10539429 0.25453717 2.0880003
-0.095948577 0.25503427 2.0880001
-0.08550857 0.2565257 2.0880001
-0.07954286 0.25851429 2.0880001
-0.11136 0.26249143 2.0880001
-0.10539428 0.26447999 2.0880001
-0.095451437 0.26447999 2.0880003
-0.08550857 0.26448002 2.0880001
-0.07954286 0.26447999 2.0880001
-0.11136 0.2784 2.0880001
-0.10539427 0.27442288 2.0880003
-0.095948569 0.27442285 2.0880001
-0.085110858 0.27442285 2.0880001
-0.07954286 0.27442288 2.0880001
-0.10473143 0.28370285 2.0880001
-0.095451437 0.28436571 2.0880003
-0.08550857 0.28436571 2.0880001
-0.07954286 0.28436571 2.0880001
-0.10340571 0.29033145 2.0880001
-0.095451429 0.2943086 2.0880001
-0.08550857 0.2943086 2.0880003
-0.077952005 0.295104 2.0880001
-0.10340571 0.30623999 2.0880001
-0.095451429 0.30425143 2.0880003
-0.08550857 0.30425143 2.0880001
-0.077554286 0.30425143 2.0880001
-0.075565718 0.31021714 2.0880001
-0.12726857 0.32413715 2.0880001
-0.11136 0.35794285 2.0880001
-0.10539428 0.35794285 2.0880001
-0.095451429 0.35794288 2.0880001
-0.08550857 0.35595429 2.0880001
-0.073577143 0.35794285 2.0880001
-0.067611434 0.35794285 2.0880001
-0.11136 0.36192003 2.0880001
-0.095451429 0.3698743 2.0880001
-0.08590629 0.3666926 2.0880001
-0.075565718 0.36788571 2.0880003
-0.10340571 0.37385142 2.0880001
-0.08550857 0.37385142 2.0880001
-0.075565718 0.37650287 2.0880001
-0.067611434 0.37782857 2.0880001
-0.13257144 0.38843429 2.0880001
-0.11931429 0.38976002 2.0880001
-0.071588568 0.38180572 2.0880001
-0.067611434 0.38180572 2.0880001
-0.13124572 0.39572573 2.0880001
-0.099428572 0.40964574 2.0880001
-0.099428572 0.42953146 2.0880001
-0.10340571 0.43549716 2.0880001
-0.096246861 0.43589488 2.0880001
-0.08550857 0.43748572 2.0880001
-0.10340571 0.44543999 2.0880001
-0.095948577 0.44593716 2.0880001
-0.08550857 0.44742855 2.0880001
-0.07954286 0.44742858 2.0880001
-0.08550857 0.45339429 2.0880001
-0.077554286 0.45538288 2.0880001
-0.11533716 0.46930286 2.0880001
-0.091474287 0.46930286 2.0880001
-0.08550857 0.46930286 2.0880001
-0.075565718 0.46930286 2.0880001
-0.12329143 0.47526857 2.0880001
-0.11533715 0.47526857 2.0880003
-0.10539428 0.47526857 2.0880001
-0.095451437 0.47526857 2.0880003
-0.08550857 0.47526857 2.0880001
-0.076361142 0.47487089 2.0880001
-0.067611434 0.47327998 2.0880001
-0.059657145 0.47725716 2.0880001
-0.15113144 0.48918858 2.0880001
-0.12527999 0.48521143 2.0880003
-0.11533715 0.48521143 2.0880001
-0.10605714 0.48786288 2.0880001
-0.091474287 0.48322287 2.0880001
-0.08550857 0.48123431 2.0880001
-0.07954286 0.48123431 2.0880001
-0.055679999 0.48521143 2.0880001
-0.19090286 0.49316573 2.0880001
-0.18692571 0.49316573 2.0880001
-0.15113144 0.49515429 2.0880001
-0.14516571 0.49515426 2.0880001
-0.13522288 0.49515426 2.0880003
-0.12527999 0.49515426 2.0880001
-0.11533715 0.49515426 2.0880003
-0.10605714 0.49449143 2.0880001
-0.055679999 0.49316573 2.0880001
-0.13389716 0.50377148 2.0880003
-0.12527999 0.50509715 2.0880003
-0.1158343 0.50459999 2.0880001
-0.10539429 0.50509715 2.0880003
-0.09810286 0.50642288 2.0880001
-0.13124572 0.51305145 2.0880001
-0.12461714 0.51437724 2.0880001
-0.11613258 0.51543778 2.0880001
-0.10539428 0.51504004 2.0880001
-0.12329143 0.52498293 2.0880001
-0.11533716 0.52299428 2.0880003
-0.10738286 0.52895999 2.0880001
-0.11136 0.5349257 2.0880001
-0.10738286 0.5349257 2.0880001
-0.11136 0.54486859 2.0880001
-0.10738286 0.54486859 2.0880001
-0.3041448 0.084040008 2.1010003
-0.29480696 0.081372067 2.1010003
-0.28333485 0.08484038 2.1010001
0.09404476 0.088041902 2.1010001
-0.27413049 0.09204381 2.1010001
-0.26812762 0.096045718 2.1010001
0.064030483 0.096045718 2.1010003
0.084040001 0.09204381 2.1010003
-0.26012382 0.10004762 2.1010001
-0.25412095 0.10204858 2.1010001
-0.2481181 0.10404953 2.1010001
-0.12005714 0.10805143 2.1010001
0.0040019052 0.1053835 2.1010003
0.012005715 0.10404953 2.1010001
0.026012382 0.10004762 2.1010001
-0.0040019047 0.11605524 2.1010001
0 0.11205333 2.1010001
-0.12005714 0.25412095 2.1010001
-0.11505476 0.2651262 2.1010001
-0.11205333 0.27413049 2.1010001
-0.12105761 0.28513572 2.1010001
-0.11405428 0.28613621 2.1010001
-0.10805143 0.28813714 2.1010001
-0.12139111 0.29347301 2.1010003
-0.11405428 0.29413998 2.1010001
-0.10671747 0.29480696 2.1010003
-0.12348735 0.3052882 2.1010001
-0.11405428 0.3041448 2.1010001
-0.10645067 0.3033444 2.1010001
-0.12405905 0.31414956 2.1010001
-0.11405428 0.31414953 2.1010001
-0.10404953 0.31414956 2.1010001
-0.09404476 0.31414953 2.1010001
-0.084040001 0.31414956 2.1010001
-0.12291566 0.32358259 2.1010001
-0.11405428 0.32215333 2.1010001
-0.1053835 0.32282034 2.1010001
-0.09404476 0.32015237 2.1010001
-0.086040951 0.32015237 2.1010001
-0.12205809 0.34616476 2.1010001
-0.11365409 0.34496421 2.1010001
-0.10565028 0.34576461 2.1010001
-0.096045718 0.34816572 2.1010001
-0.088041902 0.34816572 2.1010001
-0.12325867 0.35376841 2.1010001
-0.11405428 0.35416859 2.1010001
-0.10404953 0.35416859 2.1010001
-0.09404476 0.35416859 2.1010001
-0.084040001 0.35416859 2.1010001
-0.074035242 0.35616955 2.1010001
-0.13339683 0.36684129 2.1010003
-0.12405904 0.36417335 2.1010001
-0.11505476 0.36517382 2.1010001
-0.10404953 0.36617431 2.1010001
-0.09404476 0.36617428 2.1010001
-0.081372067 0.3628394 2.1010003
-0.074035242 0.36417335 2.1010001
-0.14006667 0.37617904 2.1010001
-0.13339683 0.37484509 2.1010003
-0.12405904 0.37417811 2.1010001
-0.11405428 0.37417811 2.1010001
-0.10404952 0.37377793 2.1010001
-0.093377784 0.37484509 2.1010003
-0.14006667 0.38418287 2.1010003
-0.13406381 0.38418287 2.1010001
-0.12405904 0.38418287 2.1010001
-0.11405428 0.3841829 2.1010001
-0.10404953 0.38418287 2.1010001
-0.094444953 0.3841829 2.1010001
-0.084040001 0.38018095 2.1010003
-0.076036192 0.38618383 2.1010001
-0.12485943 0.39458784 2.1010001
-0.11405428 0.39418763 2.1010001
-0.10404953 0.39418763 2.1010001
-0.09404476 0.39418763 2.1010001
-0.083239615 0.39458784 2.1010001
-0.074035242 0.39418763 2.1010001
-0.068032384 0.39418763 2.1010001
-0.12520246 0.40362066 2.1010001
-0.11405428 0.40419239 2.1010001
-0.10404953 0.40419239 2.1010001
-0.094044767 0.40419239 2.1010001
-0.084039994 0.40419236 2.1010001
-0.076036192 0.40619332 2.1010001
-0.12672698 0.41353017 2.1010003
-0.11405428 0.41419715 2.1010001
-0.10484991 0.41459733 2.1010001
-0.09404476 0.41419715 2.1010001
-0.084040008 0.41419715 2.1010001
-0.074035242 0.41419715 2.1010001
-0.068032384 0.4161981 2.1010001
-0.12606001 0.42220098 2.1010001
-0.11405428 0.42420194 2.1010001
-0.10404953 0.42420194 2.1010001
-0.094044767 0.42420194 2.1010001
-0.085183404 0.424202 2.1010001
-0.074035242 0.42620289 2.1010001
-0.12325867 0.43460688 2.1010001
-0.11405428 0.43420666 2.1010001
-0.10671746 0.43353969 2.1010003
-0.093377784 0.43353969 2.1010003
-0.084040001 0.43420666 2.1010001
-0.074035242 0.43420666 2.1010001
-0.066031426 0.43420666 2.1010001
-0.12205811 0.44421142 2.1010001
-0.11405428 0.44421145 2.1010001
-0.10805143 0.44421145 2.1010003
-0.09204381 0.44421145 2.1010001
-0.083039522 0.44321099 2.1010001
-0.074702226 0.44154352 2.1010003
-0.13206285 0.45621714 2.1010001
-0.12405904 0.45421621 2.1010001
-0.11405428 0.45421618 2.1010001
-0.10505001 0.45521668 2.1010001
-0.09404476 0.45621714 2.1010001
-0.13206285 0.46422097 2.1010003
-0.12405904 0.464221 2.1010001
-0.11405428 0.46422097 2.1010001
-0.10404953 0.464221 2.1010001
-0.094044767 0.46422097 2.1010001
-0.084540233 0.4647212 2.1010001
-0.074702226 0.4668889 2.1010003
-0.13339683 0.47489271 2.1010003
-0.12672698 0.47355875 2.1010003
-0.10404953 0.4722248 2.1010003
-0.096045718 0.47222477 2.1010001
-0.15207238 0.4882324 2.1010001
-0.14246781 0.48583126 2.1010001
-0.13406381 0.48423052 2.1010001
-0.12806095 0.48022857 2.1010001
-0.054025717 0.48222953 2.1010001
-0.19209144 0.49223429 2.1010001
-0.18808952 0.49223429 2.1010001
-0.14406858 0.49223432 2.1010003
-0.13406381 0.49223429 2.1010001
-0.052024763 0.49423525 2.1010001
-0.048022859 0.49623621 2.1010001
-0.048022859 0.50023806 2.1010001
-0.11205333 0.51424479 2.1010001
-0.12005714 0.53425431 2.1010001
-0.11472127 0.53358734 2.1010003
-0.12005714 0.54225814 2.1010001
-0.11472127 0.54292512 2.1010003
-0.30200002 0.080533341 2.1140001
-0.27649781 0.087244451 2.1140001
0.084559999 0.088586673 2.1140001
-0.26576 0.095297776 2.1140001
-0.25770667 0.096639998 2.1140001
0.074493334 0.092613332 2.1140001
-0.25368002 0.10066667 2.1140001
-0.24482135 0.10549867 2.1140001
0.0020133334 0.10268 2.1140001
0.020133335 0.10066667 2.1140001
-0.22549334 0.11677334 2.1140001
-0.20536001 0.11274667 2.1140001
-0.12180667 0.26475334 2.1140001
-0.1208 0.27582669 2.1140001
-0.11677334 0.27582669 2.1140001
-0.12482667 0.28388003 2.1140001
-0.11677334 0.2818667 2.1140001
-0.12482667 0.29797333 2.1140001
-0.12482667 0.30200002 2.1140001
-0.10066667 0.32616001 2.1140001
-0.094626665 0.32616001 2.1140001
-0.083553344 0.32515335 2.1140001
-0.076506667 0.32414669 2.1140001
-0.12281334 0.33622667 2.1140001
-0.11476 0.33421335 2.1140003
-0.1041181 0.33421335 2.1140003
-0.096639998 0.33421332 2.1140001
-0.084560007 0.33018667 2.1140001
-0.076506667 0.33018667 2.1140001
-0.12281334 0.34226668 2.1140001
-0.11677334 0.34226668 2.1140001
-0.10268 0.34428 2.1140001
-0.094626665 0.34428 2.1140001
-0.084560007 0.34428 2.1140003
-0.076506667 0.34629333 2.1140001
-0.12885334 0.35837334 2.1140001
-0.092613332 0.35032001 2.1140001
-0.082546674 0.35233334 2.1140001
-0.074493334 0.35233337 2.1140001
-0.14093335 0.37246668 2.1140001
-0.13690667 0.37448001 2.1140001
-0.13690667 0.38253334 2.1140001
-0.092613332 0.38655999 2.1140001
-0.084559999 0.38656002 2.1140001
-0.085566677 0.39159334 2.1140001
-0.1208 0.40669334 2.1140001
-0.073822223 0.40400892 2.1140001
-0.12180667 0.41575333 2.1140001
-0.1208 0.42481333 2.1140001
-0.080533341 0.4228 2.1140001
-0.074493334 0.4228 2.1140001
-0.068453334 0.4228 2.1140001
-0.12583333 0.43186003 2.1140001
-0.080533341 0.43085337 2.1140001
-0.12885334 0.44494668 2.1140001
-0.13288 0.45501333 2.1140001
-0.12885334 0.45098668 2.1140001
-0.14093335 0.47917333 2.1140001
-0.14697334 0.48521334 2.1140001
-0.052346665 0.48320001 2.1140001
-0.052346665 0.49125338 2.1140001
-0.04630667 0.49528003 2.1140001
-0.044293337 0.50534666 2.1140001
0.0040266672 0.51944005 2.1140001
0.01208 0.51944005 2.1140001
-0.27347142 0.087105721 2.1270001
0.074951433 0.08913143 2.1270001
0.083054289 0.085080005 2.1270001
-0.26536858 0.093182862 2.1270001
-0.25524002 0.095883816 2.1270003
0.048617147 0.097234294 2.1270001
0.052668571 0.097234294 2.1270001
0.068874285 0.093182862 2.1270001
-0.24511144 0.10128572 2.1270001
-0.23498285 0.10736286 2.1270001
-0.22552954 0.10803809 2.1270003
-0.21371287 0.10837571 2.1270001
-0.20662287 0.10736285 2.1270001
-0.11749143 0.10938857 2.1270001
0.0081028575 0.10128572 2.1270001
0.014180001 0.10128572 2.1270001
-0.24308571 0.11344001 2.1270001
-0.23295715 0.11546572 2.1270001
-0.22485429 0.11344001 2.1270001
-0.21472572 0.11344001 2.1270001
-0.19176762 0.11479048 2.1270003
-0.18636572 0.11749143 2.1270001
-0.11749143 0.11344001 2.1270001
-0.10331143 0.11749143 2.1270001
-0.095208578 0.11749143 2.1270001
-0.012154287 0.11344001 2.1270001
-0.0040514288 0.11344001 2.1270001
-0.12559429 0.2673943 2.1270001
-0.12559429 0.27549717 2.1270003
-0.094533347 0.33491811 2.1270003
-0.085080013 0.3362686 2.1270003
-0.10533714 0.34032002 2.1270001
-0.093182862 0.34032002 2.1270001
-0.085080013 0.34032005 2.1270003
-0.13369715 0.44363147 2.1270001
-0.14585143 0.48212001 2.1270001
-0.052668571 0.48212001 2.1270001
-0.046591431 0.48414573 2.1270001
-0.045916192 0.49157333 2.1270003
-0.040514287 0.50440288 2.1270001
-0.040514287 0.51250577 2.1270001
0.0040514288 0.51858288 2.1270001
-0.27310476 0.085600004 2.1400001
-0.26699048 0.089676194 2.1400001
0.069295242 0.089676194 2.1400001
0.077447623 0.085600004 2.1400001
-0.25476193 0.093752384 2.1400001
-0.24457145 0.095790491 2.1400003
-0.23641905 0.097828574 2.1400001
0.044838097 0.097828574 2.1400001
0.057066668 0.097828574 2.1400001
0.063180953 0.093752384 2.1400001
-0.24049525 0.10190476 2.1400001
-0.23438096 0.10190476 2.1400001
-0.22337523 0.10353525 2.1400001
-0.21467939 0.1032635 2.1400001
-0.20516825 0.10326349 2.1400001
-0.19647239 0.10435047 2.1400001
-0.18750477 0.10598096 2.1400001
0 0.10190476 2.1400001
-0.2435524 0.11617143 2.1400001
-0.21603811 0.11413334 2.1400001
-0.20380953 0.11209525 2.1400001
-0.19667619 0.11107621 2.1400001
-0.18750477 0.11209525 2.1400001
-0.17527619 0.11820953 2.1400001
-0.1304381 0.11413334 2.1400001
-0.12432382 0.11413334 2.1400001
-0.11345398 0.11549208 2.1400003
-0.10394286 0.11413334 2.1400001
-0.095111117 0.11277461 2.1400001
-0.088317469 0.11685081 2.1400001
-0.069295242 0.11617143 2.1400001
-0.012228572 0.11413334 2.1400001
-0.0071333339 0.1131143 2.1400001
-0.073371425 0.12228572 2.1400001
-0.06521906 0.12228572 2.1400001
-0.055028573 0.12228572 2.1400001
-0.13757144 0.4432857 2.1400001
