# .PCD v0.7 - Point Cloud Data file format
VERSION 0.7
FIELDS x y z
SIZE 4 4 4
TYPE F F F
COUNT 1 1 1
WIDTH 1476
HEIGHT 1
VIEWPOINT 0 0 0 1 0 0 0
POINTS 1476
DATA ascii
-0.10404458 0.10613944 1.8330001
-0.095432386 0.10707048 1.8330001
-0.10299715 0.11347143 1.8330001
-0.097759999 0.11172572 1.8330001
-0.17108002 0.12569144 1.8330001
-0.16409716 0.12743714 1.8330001
-0.15362287 0.12743714 1.8330001
-0.14489429 0.12394571 1.8330001
-0.13666448 0.12469388 1.8330002
-0.12569144 0.12510952 1.8330001
-0.11521714 0.12778629 1.8330001
-0.10430642 0.12612785 1.8330001
-0.094268583 0.12743714 1.8330001
-0.083794288 0.12918286 1.8330001
-0.174135 0.13660213 1.8330001
-0.16409716 0.13267428 1.8330001
-0.15711428 0.13267428 1.8330001
-0.11521715 0.13267428 1.8330001
-0.10474285 0.13267428 1.8330001
-0.094268583 0.13267428 1.8330001
-0.08292143 0.13354713 1.8330001
-0.074716575 0.13546744 1.8330001
-0.066835918 0.13716327 1.8330002
-0.055862859 0.13965714 1.8330001
-0.04888 0.13965714 1.8330001
-0.18155429 0.14489429 1.8330001
-0.17631713 0.14489429 1.8330001
-0.062845714 0.14314857 1.8330001
-0.055862866 0.14489429 1.8330001
-0.045388576 0.14489429 1.8330001
-0.18295085 0.15432113 1.8330001
-0.17718999 0.15275 1.8330001
-0.044952147 0.15405928 1.8330001
-0.038405713 0.15013143 1.8330001
-0.18295085 0.16339885 1.8330001
-0.17806286 0.16060571 1.8330001
-0.064591423 0.16758858 1.8330001
-0.054990001 0.16671573 1.8330001
-0.045388576 0.16409715 1.8329999
-0.18155429 0.17108001 1.8330001
-0.17806286 0.17457144 1.8330001
-0.073320001 0.17631714 1.8330001
-0.065900713 0.17500785 1.8330001
-0.055862859 0.17282572 1.8330001
-0.045388576 0.17282572 1.8330001
-0.090777144 0.18853715 1.8330001
-0.082048573 0.18853715 1.8330001
-0.075938575 0.18417287 1.8330001
-0.081699431 0.1948217 1.8330001
-0.075065717 0.19551998 1.8330001
-0.06982857 0.19726571 1.8330001
-0.14041905 0.10706952 1.8430001
-0.13690856 0.10706952 1.8430001
-0.11584572 0.10882477 1.8430001
-0.10882477 0.10882477 1.8430001
-0.091272384 0.10706952 1.8430001
-0.082496196 0.10706952 1.8430001
-0.14252536 0.11724991 1.8430001
-0.13603094 0.11672334 1.8430001
-0.10648444 0.11584571 1.8430002
-0.094782859 0.11526065 1.8430002
-0.083081275 0.11350539 1.8430002
-0.18254477 0.12813237 1.8430001
-0.17692801 0.12707925 1.8430001
-0.16499239 0.12286668 1.8430002
-0.15446097 0.12286668 1.8430002
-0.12286668 0.12286668 1.8430001
-0.11584571 0.1237443 1.8430001
-0.10882477 0.12286668 1.8430001
-0.094782859 0.12286668 1.8430002
-0.084953532 0.12497295 1.8430001
-0.073720008 0.12988763 1.8430002
-0.06669905 0.12988763 1.8430001
-0.18254477 0.13515332 1.8430001
-0.17903429 0.1333981 1.8430001
-0.064943805 0.1333981 1.8430001
-0.056167625 0.13690856 1.8430002
-0.04739143 0.13690856 1.8430001
-0.18488508 0.14392954 1.8430002
-0.043880954 0.14041905 1.8430001
-0.035806861 0.14603584 1.8430001
-0.028083811 0.14744002 1.8430001
-0.19307619 0.15797144 1.8430001
-0.1886881 0.15358335 1.8430001
-0.034665953 0.15489976 1.8430002
-0.025743492 0.15504605 1.8430002
-0.19307619 0.16499239 1.8430002
-0.1886881 0.16587001 1.8430001
-0.035104763 0.16499239 1.8430002
-0.19307619 0.17201333 1.8430001
-0.18547016 0.17552382 1.8430002
-0.056167625 0.17903429 1.8430002
-0.045636192 0.17903429 1.8430002
-0.035806861 0.17341754 1.8430001
-0.071964771 0.18605524 1.8430001
-0.064943805 0.18254477 1.8430001
-0.057922859 0.18254477 1.8430001
-0.044466034 0.18488508 1.8430002
-0.038615238 0.18430001 1.8430001
-0.12353334 0.10941524 1.853
-0.11647429 0.10941524 1.853
-0.088238098 0.10765047 1.853
-0.15176952 0.11647429 1.853
-0.14647524 0.11470953 1.853
-0.13412191 0.11647429 1.853
-0.12176858 0.11294477 1.853
-0.11412128 0.11412128 1.853
-0.088238098 0.11470953 1.853
-0.18441762 0.12441572 1.853
-0.16941714 0.12000381 1.853
-0.15529905 0.12000381 1.853
-0.13059239 0.12000381 1.853
-0.1252981 0.12000381 1.853
-0.11294477 0.12000381 1.853
-0.10765047 0.12000381 1.853
-0.093532383 0.12000381 1.853
-0.084708571 0.12118033 1.853
-0.075002387 0.12618047 1.853
-0.067060955 0.12706286 1.853
-0.19059429 0.13235715 1.853
-0.18706475 0.13412192 1.853
-0.061178416 0.13176891 1.853
-0.05470762 0.13412191 1.853
-0.045001429 0.13500428 1.853
-0.033530477 0.13765143 1.853
-0.028236192 0.13765143 1.853
-0.19235905 0.14647524 1.853
-0.18706475 0.14118096 1.853
-0.034412857 0.14206335 1.853
-0.024265476 0.14426929 1.8529999
-0.015000477 0.14735761 1.853
-0.1941238 0.15353429 1.853
-0.022353653 0.15412255 1.853
-0.014118095 0.15529904 1.853
-0.0061766673 0.15441667 1.853
-0.19765334 0.16412285 1.853
-0.024706667 0.16588762 1.853
-0.014118095 0.16588762 1.853
-0.19235905 0.1764762 1.853
-0.031765714 0.1764762 1.853
-0.024706669 0.17471144 1.853
-0.01764762 0.17294668 1.853
-0.19235905 0.18000573 1.853
-0.063531429 0.18706475 1.853
-0.054119371 0.18588826 1.853
-0.049413335 0.18706475 1.853
-0.034286808 0.18303105 1.853
-0.021177143 0.18000573 1.853
-0.070590481 0.1941238 1.853
-0.067060955 0.19588858 1.853
-0.17269716 0.10527428 1.8630002
-0.15258858 0.10645714 1.863
-0.14726572 0.10645714 1.863
-0.18097714 0.11710285 1.863
-0.17317028 0.11568343 1.8630002
-0.16500857 0.11710285 1.863
-0.15613715 0.11414571 1.8630002
-0.14726572 0.11000571 1.863
-0.13307142 0.11355428 1.863
-0.12508714 0.1162157 1.863
-0.11710285 0.11710285 1.863
-0.081617139 0.11710285 1.863
-0.20226857 0.12774858 1.863
-0.19517145 0.1259743 1.8630002
-0.18275142 0.12065143 1.863
-0.17565429 0.12065143 1.863
-0.16500857 0.12065143 1.863
-0.12065143 0.12065143 1.863
-0.11710285 0.12065143 1.863
-0.081617139 0.12065143 1.863
-0.073810287 0.12207086 1.8630002
-0.063874289 0.12656572 1.8630002
-0.055002857 0.12774858 1.863
-0.046131432 0.12774858 1.8630002
-0.20226857 0.13307142 1.863
-0.19618532 0.13535266 1.8630002
-0.055002857 0.13129714 1.863
-0.046131428 0.13129714 1.8630002
-0.035485715 0.13484572 1.8630002
-0.024130287 0.13626514 1.8630002
-0.015081428 0.13750714 1.863
-0.0035485714 0.13839428 1.863
0 0.13839428 1.863
-0.19659086 0.144072 1.8630002
-0.01348457 0.14336228 1.8630002
-0.0053228568 0.14549142 1.8630002
0 0.14549142 1.8630002
-0.19872002 0.15613714 1.8630002
-0.0035485714 0.15791142 1.863
0.00088714284 0.15525 1.863
-0.0070971427 0.16500857 1.863
-0.19872001 0.17210571 1.863
-0.01348457 0.17600913 1.8630002
-0.0070971427 0.17210571 1.863
-0.025283571 0.18496928 1.863
-0.016559999 0.18216 1.8630002
-0.070971429 0.19162287 1.863
-0.062860414 0.19466451 1.8630002
-0.055002857 0.19339715 1.863
-0.047905713 0.19339715 1.863
-0.18373241 0.10524476 1.8730001
-0.17600255 0.10465016 1.8730001
-0.16411048 0.10524477 1.8730001
-0.15697524 0.10702857 1.8730001
-0.19621906 0.11594763 1.8730001
-0.18551621 0.11416382 1.8730003
-0.17570525 0.1114881 1.8730001
-0.16482401 0.11202325 1.8730001
-0.15697524 0.11059619 1.8730001
-0.13200191 0.11059619 1.8730001
-0.1284343 0.11059619 1.8730001
-0.074920014 0.11773144 1.8730001
-0.22119239 0.12665048 1.8730001
-0.21334362 0.12700725 1.8730001
-0.20549488 0.12415315 1.8730001
-0.19621907 0.12129906 1.8730001
-0.18908381 0.12129906 1.8730001
-0.063503623 0.12272611 1.8730001
-0.055298097 0.12308286 1.8730001
-0.047092576 0.12343963 1.8730001
-0.035676192 0.1284343 1.8730001
-0.028540954 0.1284343 1.8730001
-0.2211924 0.13556954 1.8730001
-0.21405715 0.13556953 1.8730003
-0.20603001 0.13646144 1.8730001
-0.037459999 0.13200191 1.8730001
-0.024973337 0.13200191 1.8730001
-0.013556953 0.13342896 1.8730001
-0.0057081911 0.134856 1.8730001
0.0017838096 0.13556953 1.8730001
-0.22119239 0.14984001 1.8730001
-0.21286795 0.14508319 1.8730001
-0.20513812 0.14627241 1.8730001
0.0053514293 0.14627241 1.8730001
0.012843429 0.14769943 1.8730001
-0.22119239 0.15340763 1.8730001
-0.21584097 0.15340763 1.8730001
-0.20692192 0.15340763 1.8730001
0.0059460322 0.15578604 1.8730001
0.013556953 0.15483467 1.8730001
0.023189526 0.15340763 1.8730001
-0.20692192 0.16054286 1.8730001
-0.0035676192 0.1658943 1.8730001
0.0035676192 0.16351588 1.8730001
0.012486667 0.16054286 1.8730001
-0.0044595241 0.17570525 1.8730001
0 0.17302954 1.8730001
-0.012129906 0.18622974 1.8730001
-0.0071352385 0.18194859 1.8730001
0.016411049 0.56297034 1.8730001
0.021405715 0.56011623 1.8730001
0.017838096 0.57081908 1.8730001
-0.20085335 0.10760001 1.8830001
-0.19296269 0.10616534 1.8830003
-0.20515735 0.11549067 1.8830003
-0.19368002 0.11118668 1.8830001
-0.07890667 0.11477334 1.8830001
-0.064560004 0.11836001 1.8830001
-0.22596002 0.12553334 1.8830001
-0.21609667 0.12284334 1.8830001
-0.04304 0.12194667 1.8830001
-0.03586667 0.12553334 1.8830001
-0.02421 0.12732667 1.8830001
-0.015243335 0.12822333 1.8830001
-0.0053800005 0.12912001 1.8830001
0.0017933334 0.12912001 1.8830001
-0.22596 0.13450001 1.8830001
0.0062766671 0.13539667 1.8830001
0.013151113 0.1374889 1.8830003
0.025106668 0.13988 1.8830001
0.034073338 0.13988 1.8830001
-0.22237335 0.14346668 1.8830001
-0.21878667 0.14705333 1.8830001
0.016140001 0.14526001 1.8830001
0.025106668 0.14526002 1.8830003
0.03586667 0.14526002 1.8830003
-0.21520001 0.15183556 1.8830001
-0.20563558 0.15661779 1.8830001
0.017933335 0.15781334 1.8830001
0.02561905 0.15422666 1.8830004
0.03586667 0.15422668 1.8830003
0.04304 0.15422668 1.8830001
-0.20444001 0.16319335 1.8830001
0.0053800005 0.16857335 1.8830001
0.014859049 0.16601145 1.8830004
0.025106668 0.16498667 1.8830003
0.035418335 0.16453835 1.8830003
0.0043040006 0.17502935 1.8830003
0.014346668 0.17216 1.8830001
0.025106668 0.17216 1.8830001
-0.0047822227 0.18531112 1.8830001
0 0.18292001 1.8830001
-0.0071733338 0.19009334 1.8830001
0.037660003 0.54696673 1.8830001
0.04304 0.54696673 1.8830001
0.015243335 0.55862331 1.8830001
0.023313334 0.55772668 1.8830001
0.035418335 0.55548501 1.8830003
0.04304 0.55414003 1.8830001
0.025824001 0.56525868 1.8830003
0.03586667 0.56490004 1.8830003
0.044235557 0.56549782 1.8830001
0.013321905 0.57437915 1.8830004
0.025106668 0.57386672 1.8830003
0.035418335 0.57341838 1.8830003
0.045192 0.57314938 1.8830003
0.050213337 0.57745337 1.8830001
0.014859049 0.58360195 1.8830004
0.025106668 0.58462673 1.8830003
0.035866667 0.58462667 1.8830003
0.04483334 0.58462667 1.8830003
0.053800005 0.58462667 1.8830003
0.063842677 0.58677864 1.8830003
0.035418335 0.5949384 1.8830003
0.044833336 0.59359336 1.8830001
0.053800009 0.59359336 1.8830003
0.065072387 0.59436196 1.8830004
-0.20563428 0.10702604 1.8940001
-0.19841905 0.10462096 1.8940001
-0.23088762 0.11905143 1.8940001
-0.22367239 0.11905143 1.8940001
-0.21465333 0.11724762 1.8940001
-0.2074381 0.11183619 1.8940001
-0.073354922 0.11424126 1.8940001
-0.066740952 0.11544381 1.8940001
-0.054114282 0.11905143 1.8940001
-0.04689905 0.11905143 1.8940001
-0.23269144 0.12716857 1.8940001
-0.22728001 0.12265905 1.8940001
-0.03788 0.12265905 1.8940001
-0.025253333 0.12626667 1.8940001
-0.012626667 0.12626667 1.8940001
-0.0054114284 0.12626667 1.8940001
0.0036076191 0.12807047 1.8940001
0.010822858 0.12987429 1.8940001
-0.23269144 0.13528571 1.8940001
0.016835555 0.13468444 1.8940001
0.025253331 0.13564646 1.8940001
0.035174284 0.13618761 1.8940001
0.043291431 0.13708952 1.8940001
-0.23088762 0.14069715 1.8940001
-0.2263781 0.14520667 1.8940001
0.025253333 0.14069715 1.8940001
0.039683808 0.14069715 1.8940001
0.045095243 0.14430477 1.8940001
0.050506666 0.14430477 1.8940001
-0.22006477 0.15873523 1.8940001
-0.21465334 0.15873523 1.8940001
0.045456003 0.15512763 1.8940001
0.051709205 0.15633015 1.8940001
-0.22006477 0.16414666 1.8940001
-0.21465334 0.16414666 1.8940001
-0.2074381 0.16775429 1.8940001
0.039683808 0.16955811 1.8940001
0.044493973 0.1635454 1.8940001
0.050506666 0.16234286 1.8940001
-0.20563428 0.17496952 1.8940001
0.014430477 0.17677334 1.8940001
0.025253333 0.17677334 1.8940001
0.036076192 0.17496954 1.8940001
0.0046383678 0.18450396 1.8940002
0.014430476 0.18295783 1.8940002
0.025253335 0.18182401 1.8940001
0.03427238 0.18218476 1.8940001
0.023449525 0.54835808 1.8940001
0.032468572 0.54835808 1.8940001
0.016234286 0.55557334 1.8940001
0.02576871 0.55454266 1.8940002
0.032468572 0.55196571 1.8940001
0.028860953 0.56278861 1.8940001
0.039683808 0.56278861 1.8940001
0.045095243 0.56278861 1.8940001
0.039683808 0.5808267 1.8940001
0.043291431 0.5808267 1.8940001
-0.21397334 0.1088 1.904
-0.052586667 0.1088 1.904
-0.23210667 0.11605334 1.904
-0.22485334 0.11605334 1.904
-0.21578667 0.11242667 1.904
-0.077973336 0.11242667 1.904
-0.064373329 0.11333334 1.904
-0.054400004 0.11424001 1.9040002
-0.045333333 0.11786667 1.904
-0.24298666 0.12512 1.904
-0.23815112 0.12451556 1.904
-0.032639999 0.12330666 1.904
-0.025386667 0.12330666 1.904
-0.014506668 0.12330666 1.904
-0.00544 0.12330666 1.904
0.0043520001 0.12475734 1.9040002
0.012088889 0.12451556 1.904
-0.24298666 0.13418666 1.904
-0.23936002 0.13418667 1.904
0.016320001 0.13056 1.904
0.025386667 0.13176888 1.904
0.036266666 0.13237333 1.904
0.045937777 0.13539556 1.904
0.050773334 0.13781334 1.904
-0.23573335 0.14506668 1.9040003
0.052949335 0.14506666 1.9040002
-0.23301333 0.15504 1.904
-0.22757334 0.15685333 1.904
0.055125333 0.15594666 1.9040002
0.061653331 0.15594667 1.904
-0.23210667 0.16501334 1.904
-0.22666666 0.16501334 1.904
0.047146667 0.16682667 1.904
0.05319111 0.16561779 1.904
-0.23210667 0.17045332 1.904
-0.22666667 0.17045332 1.904
-0.21179734 0.17480533 1.9040002
0.045333337 0.17408 1.9040002
0.050773334 0.17408 1.904
0.014506668 0.18858667 1.904
0.024177779 0.18737778 1.904
0.039893333 0.18314667 1.904
0.047146667 0.18677333 1.904
0.050773334 0.18496001 1.904
0.034453332 0.53674662 1.904
0.0018133334 0.54400003 1.9040002
0.018133335 0.54762667 1.904
0.024177779 0.54641783 1.904
0.036266666 0.54762667 1.904
0.0036266667 0.55125338 1.904
0.013781334 0.55415475 1.9040002
0.029013334 0.55125338 1.904
0.01088 0.56213331 1.904
-0.22250476 0.10942857 1.9150001
-0.21520953 0.10699683 1.9150002
-0.014590477 0.10942857 1.9150001
0 0.10578096 1.9150001
-0.23527144 0.11490001 1.9150001
-0.22615239 0.1130762 1.9150002
-0.044987302 0.11429208 1.9150002
-0.013860953 0.11526477 1.9150002
-0.0054714289 0.11672381 1.9150001
0 0.11672381 1.9150001
-0.25168574 0.12584285 1.9150001
-0.24530239 0.12310715 1.9150001
-0.23709525 0.12037143 1.9150001
-0.040123809 0.12037143 1.9150001
-0.034652382 0.12037143 1.9150001
-0.025533333 0.12037143 1.9150002
-0.014590478 0.12037143 1.9150002
-0.0054714289 0.12037143 1.9150001
0.0036476194 0.12037143 1.9150002
0.017022222 0.12645081 1.9150002
0.025533333 0.12584287 1.9150002
0.034652382 0.12584285 1.9150001
0.043041904 0.12620762 1.9150002
0.051066671 0.12766667 1.9150001
-0.25168574 0.1349619 1.9150002
-0.24657908 0.1349619 1.9150002
0.025533335 0.13131429 1.9150001
0.043771431 0.13131431 1.9150002
0.054714292 0.1349619 1.9150002
0.064927623 0.13715048 1.9150002
-0.25168574 0.14225715 1.9150001
-0.24499843 0.14590478 1.9150002
0.05836191 0.14590478 1.9150002
0.065657146 0.14590476 1.9150001
0.074776188 0.14772858 1.9150001
-0.24256667 0.15502381 1.9150001
-0.23709525 0.15684763 1.9150001
0.058361907 0.1532 1.9150001
0.06638667 0.15465906 1.9150002
0.074776188 0.15502381 1.9150001
0.080247618 0.1532 1.9150001
-0.24074286 0.16049524 1.9150001
-0.23709527 0.16414288 1.9150002
0.058361907 0.16596667 1.9150001
0.065657139 0.16414288 1.9150001
0.073864289 0.16323096 1.9150001
-0.21764128 0.17265397 1.9150002
0.056538098 0.17508572 1.9150002
0.065657146 0.1714381 1.9150001
0.036476191 0.1896762 1.9150001
0.043771427 0.18602858 1.9150002
0.05593016 0.18359683 1.9150002
0.0036476192 0.5289048 1.9150001
0.01532 0.52744579 1.9150002
0.021885715 0.52525717 1.9150001
-0.0045595239 0.53528816 1.9150001
0.0036476192 0.53619999 1.9150001
0.014590477 0.53619999 1.9150001
0.025533333 0.53619999 1.9150001
0.032828573 0.53619999 1.9150001
-0.0036476192 0.54531908 1.9150001
0.0072952383 0.54531908 1.9150001
0.014590479 0.54531908 1.9150002
0.025533333 0.5449543 1.9150002
0.034652382 0.54531908 1.9150001
0.040123809 0.54531908 1.9150001
-0.0036476192 0.55079049 1.9150001
0.0072952388 0.55443811 1.9150002
0.012158731 0.55200642 1.9150002
0.029180953 0.55079049 1.9150001
0.0072952383 0.56173331 1.9150001
-0.22000001 0.10633333 1.9250001
-0.24566667 0.11733334 1.9250001
-0.23466668 0.11122223 1.9250001
-0.22733334 0.11000001 1.9250001
-0.044 0.11366667 1.9250001
-0.034833334 0.11366668 1.9250001
-0.025666667 0.11366667 1.9250001
-0.015888888 0.11122223 1.9250001
-0.0055000004 0.11183333 1.9250001
0.0041250004 0.11320834 1.9250001
0.012222223 0.11611112 1.9250001
0.025666667 0.11733334 1.9250001
-0.26033333 0.12650001 1.9250001
-0.25575 0.12375 1.9250001
-0.24933335 0.121 1.9250001
0.014666667 0.12100001 1.9250001
0.025666669 0.12100001 1.9250001
0.033 0.121 1.9250001
0.047666669 0.12466668 1.9250001
0.055000003 0.12650001 1.9250001
0.065266669 0.12686668 1.9250001
-0.26033333 0.13383335 1.9250001
-0.25666666 0.13566667 1.9250001
0.058666669 0.132 1.9250001
0.066916667 0.13291667 1.9250001
0.075166672 0.13566667 1.9250001
0.080666669 0.13750002 1.9250001
-0.25544447 0.14544444 1.9250001
0.075166672 0.14300001 1.9250001
0.081888899 0.14544444 1.9250001
-0.25300002 0.15400001 1.9250001
-0.24933335 0.15400001 1.9250001
0.084791675 0.15400001 1.9250001
0.092583336 0.15400001 1.9250001
0.077000007 0.16683334 1.9250001
0.082500003 0.16499999 1.9250001
0.091666669 0.16133334 1.9250001
0.066000007 0.17704764 1.9250002
0.074555561 0.17355558 1.9250001
0.080666669 0.17233334 1.9250001
0.058666669 0.18700001 1.9250001
0.065266669 0.18480001 1.9250001
0.055000003 0.19066668 1.9250001
-0.0048888894 0.5267778 1.9250001
0.0041904766 0.52538097 1.9250002
0.014666667 0.52372229 1.9250001
-0.011 0.53349996 1.9250001
-0.0061111115 0.53411114 1.9250001
0.0036666668 0.53166664 1.9250001
0.023833334 0.53166664 1.9250001
-0.0073333336 0.54266673 1.9250001
-0.23232001 0.10694096 1.9360001
-0.22494477 0.10694096 1.9360001
-0.042407621 0.10694096 1.9360001
0.029500954 0.10694096 1.9360001
-0.26182097 0.11616001 1.9360001
-0.25518328 0.11579125 1.9360001
-0.24522668 0.1143162 1.9360001
-0.23969524 0.11062858 1.9360001
-0.042407621 0.11247239 1.9360001
0.015487999 0.11357868 1.9360001
0.025813336 0.11523811 1.9360001
0.035032384 0.11800382 1.9360001
-0.26550862 0.12464154 1.9360001
0.03687619 0.12169144 1.9360001
0.044251435 0.12169145 1.9360002
0.057772703 0.12292065 1.9360002
0.064533338 0.12169144 1.9360001
0.073014855 0.12611659 1.9360001
0.081127621 0.12906668 1.9360001
-0.26550859 0.13459811 1.9360001
0.083586037 0.13398351 1.9360002
-0.26274288 0.14381716 1.9360001
0.087027811 0.14307962 1.9360001
0.095140576 0.14602971 1.9360001
-0.26366478 0.15856762 1.9360001
-0.25813335 0.15488002 1.9360002
0.098090671 0.15488003 1.9360001
0.10417525 0.15488002 1.9360001
0.088502869 0.16594288 1.9360002
0.096339062 0.16640382 1.936
0.10325335 0.16594288 1.9360002
0.077440001 0.17700572 1.9360001
0.084815241 0.17516191 1.9360001
0.094648898 0.17577653 1.9360002
0.10448255 0.17577653 1.9360002
0.073752381 0.18069334 1.9360001
0.10694096 0.18069334 1.9360001
0.0044251434 0.51847929 1.9360001
0.012906667 0.51811051 1.9360001
-0.011062858 0.52732956 1.9360001
-0.0061460324 0.52487117 1.9360002
0.0018438096 0.52364194 1.9360001
0.011062858 0.52364194 1.9360001
-0.022125715 0.53839236 1.9360001
-0.015365082 0.5347048 1.9360001
-0.022125715 0.54207999 1.9360001
-0.016594287 0.54207999 1.9360001
-0.26182097 0.55314291 1.9360001
-0.25813335 0.55314291 1.9360001
-0.31344765 0.57895625 1.9360001
-0.30976 0.57895625 1.9360001
-0.2484743 0.10754858 1.9470001
-0.23734859 0.10754858 1.9470001
-0.22993144 0.10754858 1.9470001
0.012980001 0.10754858 1.9470001
-0.27072573 0.11682001 1.9470001
-0.26609001 0.11403859 1.9470001
-0.25589144 0.11125716 1.9470003
-0.24662003 0.11125715 1.9470001
-0.040794287 0.11125715 1.9470001
0.018542858 0.11125715 1.9470001
0.025960004 0.11125716 1.9470003
0.03523143 0.11496572 1.9470001
0.044502862 0.11682002 1.9470003
0.055628575 0.11867429 1.9470001
0.063045718 0.11867429 1.9470001
-0.27196193 0.12609145 1.9470003
0.05192 0.12238287 1.9470001
0.076643825 0.12361906 1.9470003
0.085297145 0.12609145 1.9470003
0.09456858 0.12794572 1.9470001
-0.27072573 0.13536286 1.9470001
0.089005724 0.13536286 1.9470001
0.094568573 0.13536286 1.9470001
0.10013144 0.13721716 1.9470001
-0.27072573 0.14092572 1.9470001
-0.26701716 0.14463429 1.9470001
0.09456858 0.14092572 1.9470001
0.1030983 0.14537601 1.9470001
-0.26330858 0.15390572 1.9470001
0.10754858 0.15576002 1.9470001
0.11125715 0.15390572 1.9470001
0.10754858 0.16503143 1.9470001
0.089005724 0.17801145 1.9470001
0.096422866 0.17615716 1.9470001
0.10384001 0.17244858 1.9470001
0.07788001 0.18172002 1.9470001
0.085297152 0.18172002 1.9470003
0.09456858 0.18172002 1.9470001
0.10198572 0.18172002 1.9470001
-0.0055628577 0.51920003 1.9470001
0.0037085719 0.51672769 1.9470003
0.011125715 0.51549149 1.9470001
-0.014092572 0.52513373 1.9470001
-0.0055628577 0.52290857 1.9470001
-0.28556001 0.53774291 1.9470001
-0.27443433 0.53774297 1.9470003
-0.26330858 0.53403437 1.9470003
-0.25960001 0.53403437 1.9470003
-0.023487624 0.53650677 1.9470003
-0.017306669 0.53156197 1.9470003
-0.31152004 0.54886866 1.9470001
-0.3028667 0.54763246 1.9470003
-0.29483145 0.54330575 1.9470001
-0.28556001 0.54516006 1.9470003
-0.2748979 0.5456236 1.9470003
-0.26454479 0.54763246 1.9470003
-0.25589144 0.54886866 1.9470003
-0.02596 0.54330575 1.9470001
-0.31275624 0.55752194 1.9470003
-0.3041029 0.55535865 1.9470001
-0.28602359 0.55582219 1.9470003
-0.27443433 0.5544315 1.9470003
-0.26578099 0.5538134 1.9470003
-0.25589144 0.5525772 1.9470003
-0.31152004 0.57853717 1.9470001
-0.30595714 0.57853717 1.9470001
-0.31275624 0.58719057 1.9470003
-0.3041029 0.58595443 1.9470003
-0.29544955 0.58842671 1.9470003
-0.2638638 0.10722381 1.9580001
-0.25547236 0.10815619 1.9580001
-0.24614857 0.10691302 1.9580001
-0.23309524 0.10442667 1.9580001
-0.2256362 0.10442667 1.9580001
0.017404445 0.10566984 1.9580001
0.025360761 0.10591848 1.9580001
0.033565715 0.10815619 1.9580001
0.048483811 0.10815619 1.9580001
-0.28344381 0.11934476 1.9580001
-0.27660638 0.11561524 1.9580001
0.035430476 0.11188572 1.9580001
0.044754289 0.11188572 1.9580001
0.055196952 0.11561524 1.9580001
0.065888256 0.11685842 1.9580001
0.073844574 0.11785295 1.9580001
0.082049526 0.11934476 1.9580001
-0.28344381 0.12493904 1.9580001
-0.27847111 0.12431745 1.9580001
0.089508571 0.12307428 1.9580001
0.095102862 0.12307428 1.9580001
0.10442667 0.12493905 1.9580001
0.11188572 0.12493904 1.9580001
-0.28344381 0.1323981 1.9580001
-0.27784953 0.13426286 1.9580001
0.10489286 0.13379666 1.9580001
0.11514905 0.13472904 1.9580001
-0.27598476 0.14545143 1.9580002
0.10691302 0.14296508 1.9580001
0.11561523 0.14545141 1.9579999
-0.27225524 0.15477523 1.9580001
-0.26852572 0.15477523 1.9580001
0.11748 0.15477523 1.9580001
0.12307428 0.15663999 1.9580001
0.11454967 0.16356626 1.9580002
0.10815619 0.17528762 1.9580001
0.11188572 0.17528763 1.9580001
-0.014172191 0.51691198 1.9580001
-0.0055942857 0.51653904 1.9580001
0.0027971428 0.5156067 1.9580001
0.011188571 0.51467431 1.9580001
-0.29276764 0.5277276 1.9580001
-0.28530857 0.52959239 1.9580001
-0.27598476 0.52959239 1.9580001
-0.2640503 0.52810061 1.9580001
-0.25547236 0.52959239 1.9580001
-0.023620319 0.52834922 1.9580001
-0.015850477 0.52306569 1.9580001
-0.29276764 0.53518665 1.9580001
-0.28530857 0.53518665 1.9580001
-0.27598476 0.53518665 1.9580001
-0.26852572 0.53518665 1.9580001
-0.25547236 0.53518665 1.9580001
-0.026106667 0.53518665 1.9580001
-0.29463241 0.54078096 1.9580001
-0.28717333 0.54078096 1.9580001
-0.27225524 0.54451048 1.9580001
-0.26541778 0.5451321 1.9580001
-0.25547239 0.54451054 1.9580001
-0.24987811 0.54824001 1.9580001
-0.036052063 0.54202414 1.9580001
-0.029836191 0.54451054 1.9580001
-0.31327999 0.55942857 1.9580001
-0.30675334 0.55663145 1.9580001
-0.29649717 0.55569911 1.9580001
-0.31514478 0.56688762 1.9580001
-0.30507508 0.56539583 1.9580001
-0.2953783 0.56539583 1.9580001
-0.28468698 0.5656445 1.9580001
-0.27598476 0.56502289 1.9580001
-0.26852572 0.56315815 1.9580001
-0.31514478 0.57434672 1.9580001
-0.30644256 0.5755899 1.9580001
-0.2983619 0.57434666 1.9580001
-0.31700954 0.58180571 1.9580001
-0.30209145 0.58180571 1.9580001
-0.2953783 0.58628118 1.9580001
-0.28717333 0.58926481 1.9580001
-0.2812857 0.10876381 1.9690001
-0.27378479 0.10688858 1.9690001
-0.26503369 0.10251303 1.9690002
-0.25503239 0.1031381 1.9690001
-0.24378097 0.10501334 1.9690002
0.037504762 0.10876381 1.9690001
0.045005716 0.10876381 1.9690001
0.05250667 0.10876381 1.9690001
0.067508571 0.10876381 1.9690001
-0.28378606 0.11376445 1.9690002
0.056257147 0.11251429 1.9690001
0.063758098 0.11251429 1.9690002
0.075947151 0.11345191 1.9690001
0.084385723 0.11626476 1.9690001
0.093761906 0.11626476 1.9690002
-0.29253715 0.12564096 1.9690001
-0.28878671 0.12376573 1.9690002
0.08626096 0.12001524 1.9690001
0.093761906 0.12001525 1.9690002
0.10126286 0.12001524 1.9690001
0.11626476 0.12564096 1.9690001
0.12376573 0.12564096 1.9690001
0.13126667 0.1275162 1.9690001
-0.29253715 0.13501716 1.9690002
-0.28784907 0.13595477 1.9690001
0.12483729 0.13448137 1.9690001
0.13376698 0.13564223 1.9690001
0.1425181 0.13501716 1.9690002
-0.29253715 0.14439334 1.9690001
-0.28503621 0.14439334 1.9690001
0.12564096 0.14439334 1.9690001
0.13314191 0.14439334 1.9690001
-0.3000381 0.15189429 1.9690001
-0.29503748 0.15126921 1.9690002
-0.28253588 0.15126921 1.9690002
-0.27753526 0.15564477 1.9690001
0.12601601 0.15301943 1.9690001
0.13314191 0.15376954 1.9690001
0.1212654 0.16502097 1.9690002
0.11626476 0.17252192 1.9690001
0.12001524 0.17252192 1.9690001
-0.022502858 0.51756573 1.9690001
-0.015939524 0.51475286 1.9690001
-0.0056257145 0.51381528 1.9690001
0.0037504765 0.51381528 1.9690002
0.011251429 0.51381528 1.9690001
-0.28503621 0.5269419 1.9690001
-0.27378482 0.5269419 1.9690001
-0.26440859 0.52506667 1.9690001
-0.25597 0.52787954 1.9690001
-0.03000381 0.52881718 1.9690001
-0.024753144 0.52431661 1.9690001
-0.25128192 0.5344429 1.9690001
-0.24753144 0.53631812 1.9690001
-0.033754289 0.5344429 1.9690001
-0.25128192 0.54381907 1.9690002
-0.24431676 0.54489064 1.9690001
-0.23628001 0.54381907 1.9690001
-0.035004448 0.54256892 1.9690002
-0.033754285 0.55132002 1.9690001
-0.3062889 0.57507312 1.9690002
-0.29441237 0.57569814 1.9690001
-0.28878668 0.57569814 1.9690001
-0.29403734 0.58432424 1.9690001
-0.28878671 0.58507431 1.9690002
-0.2904 0.10937144 1.9800001
-0.28474289 0.10748573 1.9800001
-0.2753143 0.10308573 1.9800003
-0.26022857 0.10182858 1.9800001
-0.24514288 0.10182859 1.9800003
0.041485716 0.10937144 1.9800001
0.056571431 0.10937144 1.9800001
0.064114295 0.1081143 1.9800003
0.075428575 0.10937145 1.9800003
-0.29165718 0.11565715 1.9800003
0.084857151 0.11314286 1.9800001
0.092400007 0.11314286 1.9800001
0.10560001 0.11691429 1.9800003
0.11502858 0.11691429 1.9800001
-0.29668576 0.12445717 1.9800003
0.10748573 0.12068572 1.9800001
0.11502858 0.12068572 1.9800001
0.12257144 0.12068572 1.9800001
0.13652574 0.12596571 1.9800001
0.1433143 0.12634286 1.9800001
-0.29794288 0.13577144 1.9800003
0.13828573 0.13451429 1.9800003
0.14708573 0.13577144 1.9800003
0.15085715 0.13577144 1.9800003
-0.29417145 0.14520001 1.9800001
0.13954286 0.14520001 1.9800001
0.14457145 0.14582859 1.9800003
0.15085715 0.14708573 1.9800001
-0.29228574 0.15462857 1.9800001
-0.2866286 0.15462859 1.9800001
0.13954286 0.15462857 1.9800003
0.14425716 0.15557143 1.9800001
0.12672001 0.16669716 1.9800001
0.13325715 0.16342859 1.9800003
0.11691429 0.17725715 1.9800001
0.12521146 0.17574859 1.9800001
0.132 0.17348573 1.9800001
-0.041485716 0.51480007 1.9800001
-0.034885716 0.5157429 1.9800001
-0.023885718 0.51542866 1.9800003
-0.015085715 0.51291436 1.9800003
-0.005657143 0.51291436 1.9800001
-0.2753143 0.52422863 1.9800001
-0.25457144 0.528 1.9800001
-0.24514288 0.52611434 1.9800001
-0.23194286 0.528 1.9800001
-0.22440001 0.528 1.9800001
-0.21685717 0.528 1.9800001
-0.041485719 0.52422863 1.9800003
-0.033471432 0.52469999 1.9800003
-0.026400002 0.52045715 1.9800001
-0.24514288 0.53554291 1.9800003
-0.23382859 0.53478861 1.9800001
-0.22628573 0.53177148 1.9800001
-0.21497144 0.53177148 1.9800001
-0.035828575 0.53177148 1.9800001
-0.24325716 0.54308575 1.9800001
-0.29216 0.10624 1.9920001
-0.28457147 0.10371049 1.9920001
-0.23904002 0.10244572 1.9920001
0.049325716 0.10624 1.9920001
0.062605716 0.10624 1.9920001
-0.29785144 0.11382857 1.9920001
0.085371435 0.11003429 1.9920001
0.094857141 0.11193143 1.9920001
0.10244572 0.11382858 1.9920001
0.11382858 0.11382858 1.9920001
0.12521145 0.11762287 1.9920001
0.1328 0.11762286 1.9920001
-0.3050606 0.12597029 1.9920002
-0.2997486 0.12141715 1.9920001
0.12900572 0.12141715 1.9920001
0.13469714 0.12141715 1.9920001
0.14671239 0.12521145 1.9920001
0.15366858 0.12710857 1.9920001
-0.30544001 0.13469714 1.9920001
0.15556572 0.13469714 1.9920001
-0.30354291 0.14418288 1.9920001
0.14797714 0.14418288 1.9920001
0.15461716 0.14418286 1.9920001
0.14797714 0.15366858 1.9920001
0.15448165 0.15610777 1.9920003
0.16315429 0.15936001 1.9920001
0.1365943 0.16694857 1.9920001
0.14418286 0.16505143 1.9920003
0.15480687 0.164672 1.9920002
0.16315429 0.16315429 1.9920001
0.15177144 0.17074287 1.9920001
-0.030354287 0.49705148 1.9920001
-0.2561143 0.5084343 1.9920001
-0.041737143 0.50653714 1.9920001
-0.032630861 0.50312227 1.9920002
-0.025042286 0.50539887 1.9920002
-0.016125714 0.50748575 1.9920001
-0.27413714 0.51697147 1.9920001
-0.26560003 0.51602286 1.9920003
-0.25421715 0.51602286 1.9920003
-0.24662858 0.51981717 1.9920001
-0.23145144 0.51981717 1.9920001
-0.22386289 0.51656497 1.9920003
-0.21627431 0.51602292 1.9920001
-0.053120002 0.51981717 1.9920001
-0.045531433 0.51602286 1.9920002
-0.033389717 0.51374632 1.9920002
-0.025295239 0.51349336 1.9920001
-0.015177144 0.51222861 1.9920001
-0.0037942859 0.51222861 1.9920001
0.001897143 0.51602286 1.9920001
-0.27445334 0.5248763 1.9920001
-0.26560003 0.52550864 1.9920003
-0.25421715 0.52550864 1.9920003
-0.24662858 0.52361149 1.9920001
-0.23524573 0.52740574 1.9920001
-0.22386287 0.52588809 1.9920002
-0.21627429 0.52740574 1.9920001
-0.053120002 0.52361149 1.9920001
-0.046796195 0.52487624 1.9920001
-0.03794286 0.52361149 1.9920001
-0.2428343 0.53309715 1.9920001
-0.2365105 0.5349943 1.9920001
-0.223104 0.5372709 1.9920002
-0.2361943 0.54448003 1.9920001
-0.22576001 0.54258287 1.9920001
-0.28504574 0.58479428 1.9920003
-0.27278954 0.099196188 2.003
-0.26706669 0.099196188 2.003
-0.30140379 0.10682666 2.003
-0.29568094 0.10491905 2.003
-0.28995809 0.10301143 2.003
0.055320952 0.10682666 2.003
0.074397147 0.10682666 2.003
0.083935238 0.10682666 2.003
-0.30426523 0.11350334 2.003
0.097288571 0.1106419 2.003
0.10555492 0.11191365 2.003
0.11350334 0.11254953 2.003
0.12590286 0.11445715 2.003
0.13544096 0.11636477 2.003
0.14497906 0.11827239 2.003
-0.31284952 0.12590286 2.003
-0.30903429 0.12208762 2.003
0.14497906 0.12208762 2.003
0.15451714 0.12208762 2.003
0.16351019 0.12699293 2.0030003
0.17168571 0.12590286 2.003
-0.31284952 0.13544096 2.003
0.16405523 0.13544098 2.0030003
-0.31284952 0.14116381 2.003
-0.30903429 0.14497906 2.003
0.16296516 0.1455241 2.0030003
0.16405523 0.15451714 2.0030003
0.17168571 0.15642476 2.003
0.16787048 0.16023999 2.003
0.17168571 0.16023999 2.003
0.13607684 0.17295747 2.003
0.14497906 0.17168573 2.003
-0.036244765 0.49979618 2.003
-0.024799047 0.49979618 2.003
-0.014497906 0.49827009 2.003
-0.0076304763 0.49788857 2.003
-0.25562096 0.50647289 2.003
-0.24799049 0.50742668 2.003
-0.23272952 0.50742668 2.003
-0.22509906 0.50742668 2.003
-0.21746856 0.50742668 2.003
-0.047690473 0.50742668 2.003
-0.036244765 0.50742668 2.003
-0.022891428 0.50361145 2.003
-0.014497906 0.50513756 2.003
-0.0076304763 0.50551903 2.003
-0.25180572 0.51124191 2.003
-0.24417523 0.51505715 2.003
-0.23463714 0.51505721 2.0030003
-0.22509904 0.51353109 2.003
-0.21460713 0.51410335 2.003
-0.20656791 0.51614726 2.0030003
-0.048326351 0.51251364 2.003
-0.036244765 0.51124191 2.003
-0.0063587306 0.51251364 2.003
0.0019076191 0.51505715 2.003
-0.24226762 0.52459526 2.003
-0.23527303 0.52523112 2.003
-0.22509904 0.52650285 2.003
-0.21492508 0.52523112 2.003
-0.20856635 0.5239594 2.003
-0.057228573 0.52459526 2.003
-0.21365333 0.53222573 2.003
-0.20983809 0.53222573 2.003
-0.23272952 0.54939431 2.003
-0.22700667 0.54939431 2.003
-0.23463714 0.55320948 2.003
-0.28401908 0.099790484 2.0150001
-0.27442384 0.095952384 2.0150001
-0.26559618 0.096720003 2.0150001
-0.25331429 0.099790484 2.0150001
-0.30512857 0.10554762 2.0150001
-0.29937145 0.10362858 2.0150001
0.046057142 0.10746667 2.0150001
0.0844381 0.10746667 2.0150001
0.095952384 0.10746667 2.0150001
0.10554762 0.10746667 2.0150001
0.11514287 0.10746667 2.0150001
0.14968573 0.10746667 2.0150001
0.15544286 0.10746667 2.0150001
0.16375874 0.10618731 2.0150001
-0.31216508 0.11770159 2.0150001
0.11898096 0.11130476 2.0150001
0.1247381 0.11130476 2.0150001
0.13561271 0.11258414 2.0150001
0.14584763 0.11322382 2.0150003
0.15544286 0.11514287 2.0150003
0.16503811 0.11514286 2.0150001
0.17399368 0.11770159 2.0150001
0.18230952 0.11706191 2.0150001
0.16695715 0.12281905 2.0150001
0.17527303 0.12409842 2.0150001
0.18326904 0.12569761 2.0150001
0.17463335 0.13433334 2.0150003
0.18422858 0.13433333 2.0150001
0.1688762 0.14392859 2.0150001
0.17271429 0.14200953 2.0150001
0.17527303 0.15480319 2.0150001
-0.2456381 0.49895239 2.0150001
-0.23220478 0.49703336 2.0150001
-0.22452858 0.49703336 2.0150001
-0.21493337 0.49703336 2.0150003
-0.25331429 0.50662857 2.0150001
-0.24640572 0.50509334 2.0150001
-0.23335622 0.50509334 2.0150001
-0.22452858 0.50470954 2.0150001
-0.21493334 0.50470954 2.0150003
-0.24371906 0.51046669 2.0150001
-0.23796192 0.51046669 2.0150001
-0.22644764 0.51046669 2.0150001
-0.21301429 0.51046669 2.0150001
-0.20533811 0.51238573 2.0150001
-0.19574288 0.51814288 2.0150001
-0.1688762 0.51430476 2.0150001
-0.20469843 0.52837777 2.0150001
-0.19420764 0.52428383 2.0150001
-0.1851881 0.52869761 2.0150001
-0.15480319 0.52453971 2.0150001
-0.14840637 0.52326035 2.0150001
-0.20533812 0.53541428 2.0150001
-0.19190477 0.53349525 2.0150001
-0.18422858 0.53349531 2.0150001
-0.28378004 0.096523814 2.0270002
-0.27605814 0.092662863 2.0270002
-0.31273717 0.10810667 2.0270002
-0.29343241 0.10038476 2.0270002
-0.25868383 0.10038476 2.0270002
-0.24710098 0.10038476 2.0270002
0.054053336 0.10424572 2.0270002
0.065636203 0.10424572 2.0270002
0.10424572 0.10424572 2.0270002
0.11582857 0.10424572 2.0270002
0.12483748 0.10681969 2.0270002
0.13513336 0.10810667 2.0270002
0.14478573 0.10810667 2.0270002
0.15540335 0.10328048 2.0270002
0.16666448 0.10295873 2.0270004
0.17502986 0.10681969 2.0270002
-0.31531113 0.11325461 2.0270002
0.13513334 0.11196762 2.0270002
0.17631684 0.11325461 2.0270002
0.1872562 0.12355049 2.0270002
0.17631684 0.14542922 2.0270002
0.18532573 0.14478575 2.0270004
0.17567335 0.15057716 2.0270002
0.18275176 0.15186414 2.0270002
-0.23937906 0.49806291 2.0270002
-0.20656097 0.49806291 2.0270002
-0.24324001 0.50578481 2.0270002
-0.23937906 0.50385427 2.0270002
-0.20656097 0.50578475 2.0270004
-0.20076953 0.51736766 2.0270002
-0.19690858 0.51736766 2.0270002
-0.15443811 0.51736766 2.0270002
-0.20076953 0.52895051 2.0270002
-0.19690858 0.52895051 2.0270002
-0.16602099 0.52573305 2.0270004
-0.15540335 0.52219385 2.0270002
-0.14671621 0.52122861 2.0270002
-0.20076953 0.53474194 2.0270002
-0.19690858 0.53474194 2.0270002
-0.1640905 0.53281146 2.0270002
-0.20076953 0.54053336 2.0270002
-0.28546 0.089327618 2.039
-0.27730399 0.08699733 2.039
-0.26798287 0.089327618 2.039
-0.29419857 0.096124291 2.039
-0.28546 0.093211427 2.039
-0.26409906 0.095800638 2.039
-0.31458855 0.10680477 2.039
-0.30487907 0.10097905 2.039
-0.29905334 0.10097905 2.039
-0.25244763 0.10097905 2.039
0.036896188 0.10874667 2.039
0.042721905 0.10874667 2.039
0.054373331 0.10486286 2.039
0.066024765 0.10486286 2.039
0.073792383 0.10486286 2.039
0.087385714 0.10486286 2.039
0.095153332 0.10486286 2.039
0.10680477 0.10097905 2.039
0.11457238 0.10097905 2.039
0.12428191 0.10227366 2.039
0.13593334 0.10486286 2.039
0.14564286 0.10486286 2.039
0.15341046 0.10097905 2.039
-0.32235619 0.11457238 2.039
-0.32235619 0.1203981 2.039
-0.20195809 0.50489521 2.039
-0.19419047 0.50101143 2.039
-0.15535238 0.50877905 2.039
-0.14564286 0.50877905 2.039
-0.20195809 0.51460481 2.039
-0.19613239 0.51654667 2.039
-0.17088762 0.51460481 2.039
-0.16506191 0.51460481 2.039
-0.15729427 0.51460481 2.039
-0.19419049 0.52043051 2.039
-0.16506191 0.52237242 2.039
-0.15535238 0.52043051 2.039
-0.14564286 0.52043051 2.039
-0.29495335 0.089853339 2.0510001
-0.28648889 0.084644452 2.0510001
-0.27542001 0.083993338 2.0510001
-0.26956001 0.083993338 2.0510001
-0.30550134 0.095322669 2.0510004
-0.29690668 0.093760006 2.0510001
-0.26565334 0.093760006 2.0510001
-0.25784001 0.097666666 2.0510001
0.12696667 0.097666666 2.0510001
0.15431334 0.097666666 2.0510001
0.16017334 0.097666666 2.0510001
-0.33206668 0.10743333 2.0510001
-0.32503471 0.10704267 2.0510004
-0.31448668 0.10352667 2.0510001
0.044926669 0.10548 2.0510001
0.058600001 0.10157334 2.0510001
0.064460002 0.10157334 2.0510001
0.078133337 0.10548 2.0510001
0.082040004 0.10548 2.0510001
0.10157334 0.10157334 2.0510001
0.12892 0.10157334 2.0510001
0.13478 0.10157334 2.0510001
0.14454667 0.10157334 2.0510001
-0.33206668 0.11329334 2.0510001
-0.32816002 0.11524667 2.0510001
-0.14454667 0.38676006 2.0510001
-0.14454667 0.39066666 2.0510001
-0.18361333 0.49419338 2.0510001
-0.17970668 0.49419338 2.0510001
-0.20314668 0.50786668 2.0510001
-0.19533335 0.50396007 2.0510004
-0.185176 0.50474137 2.0510004
-0.17580001 0.50591338 2.0510004
-0.16798668 0.50591338 2.0510001
-0.19477525 0.51456386 2.0510004
-0.18752001 0.51372671 2.0510001
-0.17384668 0.51177341 2.0510001
-0.16603334 0.51177341 2.0510001
-0.15236001 0.51763332 2.0510001
-0.14650001 0.51763332 2.0510001
-0.34186861 -0.090379059 2.0630002
-0.33466446 -0.094963506 2.0630002
-0.32484066 -0.092998743 2.0630002
-0.34383339 -0.086449534 2.0630002
-0.33400956 -0.084877722 2.0630002
-0.32418573 -0.086449534 2.0630002
-0.31829146 -0.062872387 2.0630002
-0.34186861 -0.05501334 2.0630002
-0.32353082 -0.053703498 2.0630002
-0.31829146 -0.053048577 2.0630002
-0.32615051 -0.043224767 2.0630002
-0.31829146 -0.043224767 2.0630002
-0.29471433 0.086449534 2.0630002
-0.32615051 0.098238103 2.0630002
-0.31436193 0.098238103 2.0630002
-0.30453813 0.090379059 2.0630002
-0.26524287 0.092343822 2.0630002
-0.25345433 0.098238103 2.0630002
0.10609715 0.098238103 2.0630002
0.11395621 0.098238103 2.0630002
0.12574479 0.095618419 2.0630002
0.13491367 0.096928261 2.0630002
0.1446065 0.096666299 2.0630002
-0.33008003 0.10216763 2.0630002
-0.32418573 0.10216763 2.0630002
-0.31829146 0.10216763 2.0630002
-0.24756001 0.10216763 2.0630002
0.039295241 0.10609715 2.0630002
0.05501334 0.10216763 2.0630002
0.074660957 0.10216763 2.0630002
0.084484771 0.10216763 2.0630002
0.094308585 0.10216763 2.0630002
-0.14408258 0.38247371 2.0630002
-0.19451144 0.4990496 2.0630002
-0.18468764 0.5029791 2.0630002
-0.17682858 0.5029791 2.0630002
-0.18272287 0.51673245 2.0630002
-0.34204572 -0.11072001 2.0760002
-0.33413717 -0.11072001 2.0760002
-0.32820573 -0.11072001 2.0760002
-0.34402287 -0.10478859 2.0760002
-0.33413717 -0.10478859 2.0760002
-0.32504234 -0.10439315 2.0760002
-0.35193151 -0.094902866 2.0760002
-0.34639546 -0.09569373 2.0760002
-0.33479625 -0.093584776 2.0760002
-0.32293338 -0.095561922 2.0760002
-0.31535432 -0.093914293 2.0760002
-0.30843431 -0.090948582 2.0760002
-0.35588574 -0.085017145 2.0760002
-0.34600002 -0.083040006 2.0760002
-0.33611432 -0.083040006 2.0760002
-0.3232629 -0.084028579 2.0760002
-0.31436574 -0.085017145 2.0760002
-0.35390863 -0.075131439 2.0760002
-0.3440229 -0.075131431 2.0760002
-0.33413717 -0.075131439 2.0760002
-0.3242515 -0.075131431 2.0760002
-0.31436574 -0.075131431 2.0760002
-0.30843431 -0.075131439 2.0760002
-0.35509488 -0.06564115 2.0760002
-0.34402287 -0.065245725 2.0760002
-0.33413717 -0.065245718 2.0760002
-0.32504234 -0.06564115 2.0760002
-0.31436574 -0.065245718 2.0760002
-0.35193151 -0.055360004 2.0760002
-0.34402287 -0.055360008 2.0760002
-0.33413717 -0.055360012 2.0760002
-0.32524002 -0.05733715 2.0760002
-0.31436574 -0.055360004 2.0760002
-0.35193148 -0.047451433 2.0760002
-0.34402287 -0.045474291 2.0760002
-0.33413717 -0.045474291 2.0760002
-0.32425147 -0.046462864 2.0760002
-0.31436574 -0.045474291 2.0760002
-0.34289309 -0.035588574 2.0760002
-0.33413717 -0.035588577 2.0760002
-0.32425147 -0.035588577 2.0760002
-0.31535432 -0.036577147 2.0760002
-0.34204572 -0.02570286 2.0760002
-0.33413717 -0.02570286 2.0760002
-0.32425147 -0.02570286 2.0760002
-0.36774862 -0.015817147 2.0760002
-0.35193148 -0.011862858 2.0760002
-0.3435286 -0.015322858 2.0760002
-0.33413717 -0.015817143 2.0760002
-0.32474574 -0.015817145 2.0760002
-0.34204572 -0.0059314296 2.0760002
-0.33413717 -0.0059314296 2.0760002
-0.32425147 -0.0059314296 2.0760002
-0.34138668 0.0013180955 2.0760002
-0.33413717 0.0019771431 2.0760002
-0.32524005 0.00098857156 2.0760002
-0.33216003 0.067222863 2.0760002
-0.32820573 0.071177147 2.0760002
-0.26889145 0.085017145 2.0760002
-0.32227433 0.098857149 2.0760002
-0.262301 0.092266679 2.0760002
-0.24912001 0.098857149 2.0760002
0.075131439 0.098857149 2.0760002
0.094902866 0.098857149 2.0760002
0.10281144 0.098857149 2.0760002
0.11862858 0.094902866 2.0760002
0.12258286 0.094902866 2.0760002
0.1384 0.094902866 2.0760002
0.035588574 0.10676572 2.0760002
0.05140572 0.10281144 2.0760002
-0.14235429 0.38752005 2.0760002
-0.056678101 0.48505911 2.0760002
-0.18980573 0.49824002 2.0760002
-0.15421715 0.49824002 2.0760002
-0.10281144 0.49626291 2.0760002
-0.09753906 0.49692196 2.0760002
-0.077767633 0.49692196 2.0760002
-0.065245718 0.49626291 2.0760002
-0.057732582 0.49507663 2.0760002
-0.18980573 0.50219434 2.0760002
-0.15289907 0.50483054 2.0760002
-0.075131439 0.50219434 2.0760002
-0.06326858 0.50417149 2.0760002
-0.057996199 0.5035125 2.0760002
-0.34203431 -0.18493715 2.0880001
-0.33606857 -0.18493715 2.0880001
-0.34487513 -0.17499429 2.0880003
-0.33407998 -0.17499427 2.0880001
-0.32513145 -0.17499429 2.0880001
-0.34521601 -0.16544914 2.0880001
-0.33408004 -0.16505143 2.0880003
-0.32413715 -0.16505143 2.0880001
-0.3539657 -0.15510857 2.0880001
-0.34487516 -0.15454042 2.0880003
-0.33408001 -0.15510856 2.0880001
-0.32453486 -0.15431315 2.0880001
-0.31817144 -0.15312001 2.0880001
-0.34601146 -0.14516571 2.0880003
-0.33408004 -0.14516571 2.0880003
-0.32413715 -0.14516571 2.0880001
-0.3539657 -0.13323429 2.0880001
-0.34601146 -0.13522287 2.0880001
-0.33408001 -0.13522287 2.0880001
-0.32413715 -0.13522285 2.0880003
-0.31618285 -0.13323429 2.0880001
-0.3539657 -0.12527999 2.0880001
-0.34601146 -0.12527999 2.0880003
-0.33407998 -0.12527999 2.0880003
-0.32413715 -0.12527999 2.0880001
-0.31618288 -0.12527999 2.0880001
-0.3539657 -0.11533716 2.0880001
-0.34657964 -0.11647347 2.0880003
-0.33407998 -0.11732572 2.0880003
-0.32413715 -0.11533716 2.0880003
-0.31533062 -0.11476899 2.0880003
-0.30425143 -0.11136 2.0880001
-0.29828572 -0.11136 2.0880001
-0.3539657 -0.10539428 2.0880001
-0.32214859 -0.10738286 2.0880001
-0.31419432 -0.10539427 2.0880003
-0.30425143 -0.10539428 2.0880001
-0.29828572 -0.10340571 2.0880001
-0.36192003 -0.091474287 2.0880001
-0.35794285 -0.093462855 2.0880001
-0.31220573 -0.097439997 2.0880001
-0.30425143 -0.095451429 2.0880003
-0.29828572 -0.095451437 2.0880001
-0.31021714 -0.08550857 2.0880001
-0.30425143 -0.08550857 2.0880001
-0.29828572 -0.08550857 2.0880001
-0.36532906 -0.074429393 2.0880003
-0.31021714 -0.075565711 2.0880001
-0.30425143 -0.075565726 2.0880003
-0.2956343 -0.074902862 2.0880003
-0.3666926 -0.065225147 2.0880001
-0.31021714 -0.065622859 2.0880001
-0.30425143 -0.065622859 2.0880001
-0.29828572 -0.065622859 2.0880001
-0.36589718 -0.055680003 2.0880001
-0.35794288 -0.055680003 2.0880001
-0.31021714 -0.055680003 2.0880001
-0.30425143 -0.055680003 2.0880003
-0.2956343 -0.054354291 2.0880003
-0.36589718 -0.045737147 2.0880003
-0.35661715 -0.045074284 2.0880001
-0.31021714 -0.045737144 2.0880001
-0.30425143 -0.04573714 2.0880001
-0.29828572 -0.047725715 2.0880001
-0.37385142 -0.033805713 2.0880001
-0.36589718 -0.035794284 2.0880001
-0.35595429 -0.035794288 2.0880003
-0.34998858 -0.035794288 2.0880001
-0.31180802 -0.034998856 2.0880001
-0.30425143 -0.035794288 2.0880003
-0.29828572 -0.03977143 2.0880001
-0.36589718 -0.025851429 2.0880003
-0.35595429 -0.025851429 2.0880001
-0.34998858 -0.025851429 2.0880001
-0.31419429 -0.025851432 2.0880003
-0.30623999 -0.025851429 2.0880001
-0.36390859 -0.015908573 2.0880003
-0.356352 -0.016704001 2.0880001
-0.34998858 -0.019885715 2.0880001
-0.32214859 -0.015908571 2.0880001
-0.31419432 -0.015908573 2.0880001
-0.30226287 -0.01392 2.0880001
-0.36589718 -0.0059657143 2.0880003
-0.35595429 -0.0059657143 2.0880001
-0.34998858 -0.0059657143 2.0880001
-0.31419432 -0.0059657143 2.0880003
-0.30226287 -0.0079542855 2.0880001
-0.37385142 0 2.0880001
-0.36490288 0.00099428569 2.0880001
-0.35555655 0.0031817143 2.0880001
-0.34733713 0.0053028571 2.0880003
-0.33407998 0.0079542864 2.0880001
-0.32413715 0.0059657139 2.0880001
-0.31419432 0.0039771427 2.0880001
-0.30623999 0 2.0880001
-0.34601143 0.015908571 2.0880001
-0.33408001 0.015908571 2.0880001
-0.32413715 0.015908573 2.0880003
-0.31369716 0.015411429 2.0880001
-0.34501716 0.024857145 2.0880001
-0.33407998 0.025851427 2.0880003
-0.32413715 0.025851429 2.0880001
-0.31220573 0.023862857 2.0880001
-0.34799999 0.035794284 2.0880001
-0.33275431 0.033142857 2.0880001
-0.34203431 0.055679999 2.0880001
-0.33606857 0.059657145 2.0880001
-0.33407998 0.063634284 2.0880001
-0.26514289 0.086171433 2.0880001
-0.2565257 0.093462862 2.0880001
0.059657145 0.099428572 2.0880001
0.065622859 0.099428572 2.0880001
0.075565711 0.099428572 2.0880001
0.08550857 0.099428572 2.0880001
0.095451429 0.095451437 2.0880001
0.10539428 0.095451429 2.0880001
0.11334857 0.095451429 2.0880001
-0.24525714 0.10605714 2.0880001
0.025851429 0.10738286 2.0880001
0.031817142 0.10738286 2.0880001
0.045737144 0.10340571 2.0880001
0.0059657143 0.11533715 2.0880001
-0.11136 0.24658287 2.0880001
-0.10539428 0.24459428 2.0880001
-0.096246861 0.244992 2.0880001
-0.08550857 0.24658287 2.0880001
-0.12329143 0.25851429 2.0880001
-0.11295086 0.25533256 2.0880001
-0.10539427 0.25453717 2.0880003
-0.095451437 0.25453714 2.0880001
-0.08550857 0.25453717 2.0880003
-0.078217149 0.25586283 2.0880001
-0.12594286 0.26381716 2.0880001
-0.11454172 0.26408228 2.0880001
-0.10539428 0.26447999 2.0880001
-0.095451429 0.26448005 2.0880003
-0.086171433 0.26514289 2.0880001
-0.11334857 0.27243429 2.0880001
-0.10539427 0.27442285 2.0880003
-0.095451437 0.27442285 2.0880001
-0.08550857 0.27442285 2.0880003
-0.07954286 0.27641141 2.0880001
-0.10473143 0.28370285 2.0880001
-0.095451437 0.28436571 2.0880003
-0.08550857 0.28436571 2.0880001
-0.078217149 0.28502858 2.0880001
-0.10340571 0.29033145 2.0880001
-0.094954289 0.29381144 2.0880001
-0.08590629 0.2943086 2.0880001
-0.077554293 0.2943086 2.0880003
-0.093462855 0.30226287 2.0880001
-0.08550857 0.30425143 2.0880001
-0.076361142 0.30385372 2.0880001
-0.077554286 0.31021714 2.0880001
-0.10539428 0.35794285 2.0880001
-0.095451429 0.35794288 2.0880001
-0.08550857 0.35794285 2.0880001
-0.10439999 0.36490288 2.0880001
-0.095451437 0.36589712 2.0880001
-0.08550857 0.36589715 2.0880003
-0.075565718 0.36788577 2.0880003
-0.067611434 0.36788571 2.0880001
-0.10340571 0.37385142 2.0880001
-0.094655998 0.3754423 2.0880001
-0.08550857 0.37584001 2.0880001
-0.075565718 0.37584001 2.0880003
-0.067611434 0.37385142 2.0880001
-0.1392 0.38976002 2.0880001
-0.092800006 0.38313144 2.0880001
-0.08550857 0.38578284 2.0880003
-0.076133884 0.38464653 2.0880003
-0.1392 0.39572573 2.0880001
-0.14450286 0.40301716 2.0880001
-0.13681373 0.40487319 2.0880001
-0.13522287 0.41362286 2.0880001
-0.093462855 0.42953146 2.0880001
-0.09412571 0.43616003 2.0880001
-0.12527999 0.47725716 2.0880001
