# .PCD v0.7 - Point Cloud Data file format
VERSION 0.7
FIELDS x y z
SIZE 4 4 4
TYPE F F F
COUNT 1 1 1
WIDTH 1457
HEIGHT 1
VIEWPOINT 0 0 0 1 0 0 0
POINTS 1457
DATA ascii
-0.25578928 0.025989287 1.9150001
-0.33193335 0.032828573 1.9150001
-0.32099047 0.032828573 1.9150001
-0.31734288 0.032828573 1.9150001
-0.29454526 0.033740476 1.9150001
-0.28451428 0.034652386 1.9150002
-0.27539524 0.034652382 1.9150001
-0.26627621 0.034652382 1.9150002
-0.25898096 0.034652382 1.9150001
-0.29180953 0.040123809 1.9150001
-0.28451428 0.041947618 1.9150002
-0.27503046 0.043041904 1.9150002
-0.20061906 0.098485716 1.9150001
-0.19697143 0.098485716 1.9150001
-0.2020781 0.10651048 1.9150002
-0.19514762 0.10578096 1.9150002
-0.1532 0.10213334 1.9150001
-0.14955239 0.10213334 1.9150001
0.014590478 0.10213335 1.9150002
0.025533333 0.10699683 1.9150002
0.05289048 0.10942857 1.9150001
-0.21156192 0.11672381 1.9150001
-0.20426667 0.11490001 1.9150001
0.063833334 0.1130762 1.9150001
0.074776188 0.11672381 1.9150001
0.082071431 0.11672381 1.9150001
-0.23344763 0.12766667 1.9150001
-0.22542286 0.12620762 1.9150002
-0.2147536 0.124475 1.9150001
-0.20791429 0.12401905 1.9150002
0.095750004 0.12401904 1.9150001
-0.23344764 0.1349619 1.9150002
-0.22615239 0.13496192 1.9150001
-0.21520953 0.13496192 1.9150001
-0.20609049 0.1349619 1.9150002
0.10395715 0.1349619 1.9150001
-0.22569643 0.14544882 1.9150001
-0.21520954 0.14590475 1.9150001
-0.20472264 0.14590478 1.9150001
0.10760476 0.14225715 1.9150001
0.1130762 0.14772858 1.9150001
-0.22432858 0.1532 1.9150001
-0.21703334 0.1532 1.9150001
-0.20335476 0.15411191 1.9150001
0.11672381 0.1532 1.9150001
0.12037143 0.1532 1.9150001
-0.22250476 0.16779049 1.9150001
-0.21429762 0.16687858 1.9150001
-0.20374559 0.16518505 1.9150002
-0.19697143 0.16231905 1.9150001
-0.21338573 0.1714381 1.9150001
-0.20609048 0.1714381 1.9150001
0.0036476192 0.5289048 1.9150001
0.0054714289 0.5343762 1.9150001
0.015111567 0.53620005 1.9150002
0.024621429 0.5352881 1.9150001
-0.25898096 0.59456193 1.9150002
-0.31900001 -0.24566668 1.9250001
-0.34283334 -0.23283336 1.9250001
-0.31585717 -0.23361906 1.9250002
-0.30800003 -0.23100001 1.9250001
-0.34283337 -0.22366667 1.9250001
-0.3355 -0.22183335 1.9250001
-0.32633334 -0.22000001 1.9250001
-0.31533334 -0.22366667 1.9250001
-0.30479169 -0.22320834 1.9250001
-0.34466669 -0.21633334 1.9250001
-0.33488891 -0.21511112 1.9250001
-0.32633334 -0.2145 1.9250001
-0.31777781 -0.21511112 1.9250001
-0.30525002 -0.21541667 1.9250001
-0.29516667 -0.21450001 1.9250001
-0.28966668 -0.21266666 1.9250001
-0.34100002 -0.20533334 1.9250001
-0.33733335 -0.2035 1.9250001
-0.32587498 -0.20487502 1.9250001
-0.31777781 -0.20288889 1.9250001
-0.28600001 -0.2035 1.9250001
-0.34100002 -0.19433333 1.9250001
-0.33488891 -0.19677779 1.9250001
-0.32633334 -0.19800001 1.9250001
-0.31625003 -0.19525 1.9250001
-0.28416669 -0.19433336 1.9250001
-0.27866668 -0.1925 1.9250001
-0.31533334 -0.18516667 1.9250001
-0.28233334 -0.18700001 1.9250001
-0.2759167 -0.18608335 1.9250001
-0.31533334 -0.17966667 1.9250001
-0.3238889 -0.16255556 1.9250001
-0.31808335 -0.16591667 1.9250001
-0.32587498 -0.15354168 1.9250001
-0.31900001 -0.15766667 1.9250001
-0.32633334 -0.14544444 1.9250001
-0.32358333 -0.13658334 1.9250001
-0.31625 -0.13291667 1.9250001
-0.32266667 -0.12466666 1.9250001
-0.31579167 -0.12512501 1.9250001
-0.26033333 -0.12283334 1.9250001
-0.25666666 -0.121 1.9250001
-0.33366668 -0.11000001 1.9250001
-0.32633334 -0.11183333 1.9250001
-0.31777781 -0.11611112 1.9250001
-0.30066669 -0.11733334 1.9250001
-0.26033333 -0.11733334 1.9250001
-0.25666666 -0.11733334 1.9250001
-0.33366668 -0.1045 1.9250001
-0.32633334 -0.1045 1.9250001
-0.32816666 -0.099000007 1.9250001
-0.3238889 -0.08433333 1.9250001
-0.32266667 -0.077000007 1.9250001
-0.31900001 -0.07333333 1.9250001
-0.31625003 -0.066916667 1.9250001
-0.24566668 -0.062333338 1.9250001
-0.23833334 -0.062333338 1.9250001
-0.31900001 -0.056833334 1.9250001
-0.24671432 -0.055523816 1.9250002
-0.23650002 -0.055000003 1.9250001
-0.32358333 -0.043083332 1.9250001
-0.24612501 -0.043541666 1.9250001
-0.23650001 -0.042166665 1.9250001
-0.242 -0.033 1.9250001
-0.23833334 -0.034833334 1.9250001
-0.242 -0.029333334 1.9250001
-0.23833334 -0.025666669 1.9250001
-0.24383335 -0.014666667 1.9250001
-0.23833334 -0.014666667 1.9250001
-0.24383335 -0.0055000004 1.9250001
-0.23833334 -0.0055 1.9250001
-0.32633334 0.0073333336 1.9250001
-0.25300002 0.0036666668 1.9250001
-0.24566668 0.0036666668 1.9250001
-0.32755557 0.012222223 1.9250001
-0.30555558 0.01588889 1.9250001
-0.25300002 0.014666666 1.9250001
-0.24933335 0.014666667 1.9250001
-0.32780001 0.024933336 1.9250001
-0.31441665 0.026583336 1.9250001
-0.30555558 0.024444446 1.9250001
-0.25300002 0.022 1.9250001
-0.24786668 0.0264 1.9250001
-0.32725 0.034833334 1.9250001
-0.31533334 0.034222223 1.9250001
-0.30506667 0.0352 1.9250001
-0.29699999 0.036666665 1.9250001
-0.25483334 0.034833334 1.9250001
-0.31900001 0.040333334 1.9250001
-0.30479172 0.043541666 1.9250001
-0.29553333 0.044733334 1.9250001
-0.28600001 0.047666669 1.9250001
-0.27316669 0.044916667 1.9250001
-0.26522225 0.042777777 1.9250001
-0.25666666 0.040333334 1.9250001
-0.29333332 0.051333334 1.9250001
-0.28600001 0.051333334 1.9250001
-0.27500004 0.051333334 1.9250001
0.0275 0.099000007 1.9250001
0.033 0.099000007 1.9250001
-0.20716667 0.1045 1.9250001
0.026583333 0.10358334 1.9250001
0.033 0.1045 1.9250001
-0.22275001 0.11641668 1.9250001
-0.2145 0.11366667 1.9250001
-0.20900001 0.11183333 1.9250001
0.058666669 0.11000001 1.9250001
0.066 0.11183333 1.9250001
0.075166672 0.11366667 1.9250001
0.083416671 0.11366667 1.9250001
-0.23283334 0.12283334 1.9250001
-0.22366667 0.12100001 1.9250001
0.097166672 0.121 1.9250001
0.1045 0.12833333 1.9250001
-0.23833334 0.13933334 1.9250001
0.10633333 0.132 1.9250001
0.11183333 0.13750002 1.9250001
-0.23466668 0.14483333 1.9250001
0.1155 0.14483333 1.9250001
-0.23222224 0.15155557 1.9250001
-0.22366667 0.15766667 1.9250001
-0.21388888 0.15644446 1.9250001
-0.20716667 0.15766667 1.9250001
0.11733334 0.15033334 1.9250001
-0.22000001 0.16316667 1.9250001
-0.21511112 0.16255556 1.9250001
-0.20716667 0.16133334 1.9250001
0.0044 0.52653331 1.9250001
0.013933334 0.52653331 1.9250001
0.0024444447 0.53288889 1.9250001
0.014666667 0.5325833 1.9250001
-0.27133337 0.58666664 1.9250001
-0.264 0.58666664 1.9250001
-0.30066669 0.59399998 1.9250001
-0.29516667 0.59400004 1.9250001
-0.28704762 0.59347618 1.9250002
-0.27426669 0.59180003 1.9250001
-0.26400003 0.59277779 1.9250001
-0.32404956 -0.25398481 1.936
-0.31621334 -0.25352383 1.9360001
-0.34294859 -0.24338287 1.9360001
-0.33372954 -0.24522668 1.9360001
-0.32524803 -0.24485794 1.9360001
-0.31529143 -0.24522668 1.9360001
-0.30976 -0.24522668 1.9360001
-0.3447924 -0.23969524 1.9360001
-0.33557338 -0.23600765 1.936
-0.32635432 -0.23600766 1.9360001
-0.31529146 -0.23969524 1.9360001
-0.30607241 -0.23600763 1.9360001
-0.33465144 -0.22771049 1.9360001
-0.32672307 -0.2256823 1.9360001
-0.30238479 -0.22863239 1.9360001
-0.29722211 -0.22420727 1.9360001
-0.29132193 -0.21756953 1.9360001
-0.3447924 -0.1917562 1.9360001
-0.33557335 -0.19323125 1.9360001
-0.32451051 -0.19360003 1.9360001
-0.28025904 -0.19913144 1.9360001
-0.32082286 -0.18253715 1.9360001
-0.27472764 -0.18438096 1.9360001
-0.32266667 -0.17516191 1.9360001
-0.33483583 -0.16373029 1.9360001
-0.32696891 -0.16840129 1.9360002
-0.33618796 -0.15488002 1.9360001
-0.33372954 -0.14473905 1.9360001
-0.33188573 -0.13644192 1.9360001
-0.32819813 -0.13459811 1.9360001
-0.33280763 -0.12445715 1.9360001
-0.32727623 -0.12537906 1.9360001
-0.33434415 -0.11677462 1.9360002
-0.32635432 -0.11800382 1.9360001
-0.32819813 -0.082971431 1.9360001
-0.32451048 -0.071908571 1.9360001
-0.32082286 -0.064533338 1.9360001
-0.32451048 -0.051626671 1.9360001
-0.24338287 -0.053470477 1.9360001
-0.24338287 -0.047939051 1.9360001
-0.23785144 -0.047939051 1.9360001
-0.23600763 -0.035032384 1.9360001
-0.23508573 -0.024891431 1.9360001
-0.23416385 -0.014750476 1.9360001
-0.23416382 -0.0055314288 1.9360001
-0.25075811 0.0036876192 1.9360001
-0.24614859 0.0036876192 1.9360001
-0.24522671 0.014750477 1.9360001
-0.23785143 0.014750479 1.9360001
-0.24430478 0.024891429 1.9360001
-0.23969524 0.025813337 1.9360002
-0.32819813 0.03687619 1.9360001
-0.31529146 0.03687619 1.9360001
-0.25075811 0.035032384 1.9360001
-0.24522668 0.035032384 1.9360001
-0.23969524 0.033188574 1.9360001
-0.32451048 0.044778239 1.9360001
-0.31529146 0.044251435 1.9360001
-0.30238479 0.047939051 1.9360001
-0.2630502 0.046709847 1.9360002
-0.25444576 0.043636829 1.9360001
-0.24584129 0.043022227 1.9360002
-0.23723684 0.045480639 1.9360002
-0.32082286 0.051626671 1.9360001
-0.31529146 0.051626671 1.9360001
-0.30607238 0.053839244 1.9360001
-0.29574704 0.055314291 1.9360001
-0.28468418 0.056789339 1.9360001
-0.27472764 0.055314288 1.9360001
-0.2673524 0.051626671 1.9360001
-0.32082286 0.066377148 1.9360001
-0.31529146 0.066377148 1.9360001
-0.30607241 0.066377148 1.9360002
-0.29685333 0.066377148 1.9360001
-0.32082286 0.070064761 1.9360001
-0.31529146 0.070064761 1.9360001
-0.30791619 0.070064761 1.9360001
-0.29746795 0.072523177 1.9360002
-0.20650668 0.099565722 1.9360001
-0.21388191 0.10571176 1.9360002
-0.23354922 0.11677462 1.9360002
-0.2256823 0.11210363 1.9360001
-0.21756953 0.11062858 1.9360001
0.066377148 0.11062858 1.9360001
0.073752388 0.11062859 1.9360002
0.092190482 0.11800382 1.9360001
-0.24522668 0.12906668 1.9360001
-0.23969524 0.12537906 1.9360002
0.10325334 0.12353525 1.9360001
0.11062858 0.12906668 1.9360001
-0.24522668 0.13459811 1.9360001
-0.23969524 0.13459811 1.9360001
0.11431621 0.13398351 1.9360002
-0.24522671 0.14381716 1.9360001
-0.23969524 0.14566097 1.9360001
0.11800382 0.14197335 1.9360001
0.12169144 0.14750476 1.9360001
-0.24338287 0.15488 1.9360001
-0.23723684 0.15610921 1.9360001
0.12630096 0.15488002 1.9360001
-0.25075811 0.16963048 1.9360001
-0.24522668 0.16963048 1.9360001
-0.23453259 0.16741791 1.9360001
-0.22678858 0.16409905 1.9360001
-0.25075811 0.1733181 1.9360001
-0.24522668 0.1733181 1.9360001
-0.23969524 0.1733181 1.9360001
0.0055314288 0.51995432 1.9360001
-0.0036876192 0.52732956 1.9360001
0.0036876192 0.52487117 1.9360002
0.012906667 0.52364194 1.9360001
-0.0036876192 0.53101718 1.9360001
-0.28025904 0.58633143 1.9360001
-0.29500955 0.59001911 1.9360002
-0.28394669 0.59001911 1.9360002
-0.27657145 0.59001905 1.9360001
-0.32264572 -0.28556001 1.9470001
-0.32450002 -0.27072573 1.9470001
-0.31893718 -0.27072573 1.9470001
-0.3300629 -0.26330858 1.9470001
-0.32450002 -0.26516289 1.9470001
-0.31893718 -0.26516289 1.9470001
-0.34242481 -0.2534191 1.9470003
-0.33438954 -0.25589144 1.9470003
-0.31337431 -0.25589144 1.9470001
-0.35231429 -0.24291146 1.9470001
-0.34489715 -0.24699087 1.9470001
-0.30472097 -0.24476574 1.9470003
-0.30039433 -0.2354943 1.9470001
-0.29668573 -0.23364002 1.9470001
-0.29421338 -0.22622287 1.9470003
-0.28556001 -0.20397145 1.9470001
-0.35231432 -0.18542859 1.9470003
-0.34489715 -0.18728286 1.9470003
-0.33377147 -0.18542859 1.9470003
-0.32542714 -0.18635572 1.9470001
-0.34542698 -0.1732433 1.9470003
-0.33423504 -0.17476645 1.9470003
-0.34366101 -0.16564953 1.9470003
-0.34366101 -0.15823241 1.9470003
-0.34118861 -0.14463429 1.9470003
-0.33748004 -0.14092572 1.9470001
-0.33624384 -0.13474476 1.9470003
-0.33748004 -0.12794572 1.9470001
-0.33006293 -0.074171439 1.9470003
-0.3263543 -0.063045718 1.9470001
-0.3300629 -0.055628575 1.9470001
-0.3263543 -0.057482861 1.9470001
-0.33377144 -0.040794287 1.9470001
-0.33377144 -0.037085716 1.9470001
-0.23642145 0.026887145 1.9470001
-0.24105716 0.037085716 1.9470001
-0.23734859 0.03523143 1.9470001
-0.33377144 0.048211433 1.9470001
-0.25403717 0.048211433 1.9470001
-0.24402404 0.045244575 1.9470001
-0.23734859 0.040794287 1.9470001
-0.33228803 0.054145146 1.9470001
-0.32487088 0.056370288 1.9470001
-0.31522861 0.057482861 1.9470003
-0.3028667 0.058100961 1.9470003
-0.29297718 0.059337147 1.9470001
-0.28185144 0.059337147 1.9470001
-0.27350718 0.058410004 1.9470001
-0.26479203 0.056370288 1.9470001
-0.25589147 0.055628572 1.9470003
-0.24582534 0.055098779 1.9470003
-0.33191717 0.064900003 1.9470001
-0.32511812 0.064281911 1.9470003
-0.31522861 0.063045725 1.9470003
-0.30410287 0.063045725 1.9470003
-0.29421338 0.064281911 1.9470003
-0.28556001 0.064900003 1.9470003
-0.27443433 0.064900003 1.9470003
-0.26516286 0.064900003 1.9470001
-0.25589144 0.064900003 1.9470003
-0.24723813 0.064281911 1.9470003
-0.30410287 0.07046286 1.9470001
-0.29446062 0.074171439 1.9470001
-0.28556001 0.074171439 1.9470003
-0.27443433 0.074171439 1.9470003
-0.26516289 0.074171439 1.9470003
-0.25737488 0.072688006 1.9470001
-0.29297718 0.081588574 1.9470001
-0.28556001 0.081588581 1.9470003
-0.27443433 0.081588581 1.9470003
-0.26516289 0.081588574 1.9470001
-0.23364002 0.10754858 1.9470001
-0.22622287 0.10754858 1.9470003
-0.21695144 0.10384 1.9470001
-0.24402404 0.11719088 1.9470001
-0.2361124 0.11249334 1.9470003
0.089005724 0.11496572 1.9470001
0.096422866 0.11867429 1.9470001
-0.25311002 0.12701859 1.9470001
-0.24662001 0.12423715 1.9470001
0.10754858 0.12423715 1.9470001
0.11682001 0.12980001 1.9470001
-0.25403717 0.13536286 1.9470001
0.11867429 0.13350858 1.9470001
-0.26330858 0.14648858 1.9470001
-0.25542787 0.14509787 1.9470003
0.12238287 0.14278001 1.9470001
-0.26330858 0.15576002 1.9470003
-0.25589147 0.15576002 1.9470003
-0.24699087 0.15576002 1.9470001
0.12609144 0.15205143 1.9470001
-0.26330858 0.16317715 1.9470001
-0.25514972 0.16466057 1.9470001
-0.24476574 0.16503143 1.9470003
-0.23734859 0.16503143 1.9470001
-0.25589147 0.17059429 1.9470001
-0.28370571 0.51734579 1.9470001
-0.27814287 0.51920003 1.9470001
-0.011125715 0.51734579 1.9470001
-0.0074171438 0.51549149 1.9470003
0.0044502863 0.51771659 1.9470001
0.012980001 0.51920003 1.9470001
-0.28556001 0.52661717 1.9470001
-0.27814287 0.52661717 1.9470001
-0.0055628577 0.52476287 1.9470001
0 0.52476287 1.9470001
0.012980001 0.52290857 1.9470001
-0.28556001 0.53588861 1.9470001
-0.27814287 0.53588861 1.9470001
-0.0074171433 0.53032577 1.9470001
-0.30039433 0.54886866 1.9470001
-0.28679621 0.54268765 1.9470003
-0.26330858 0.54701436 1.9470001
-0.2581166 0.54441833 1.9470001
-0.30039433 0.55443144 1.9470001
-0.28741431 0.55628574 1.9470001
-0.26330858 0.55443144 1.9470001
-0.25960001 0.5525772 1.9470001
-0.30039433 0.57853717 1.9470001
-0.29668573 0.57853717 1.9470001
-0.30187774 0.58669609 1.9470001
-0.29520231 0.58669609 1.9470001
-0.32198223 -0.28468698 1.9580001
-0.31576639 -0.28593016 1.9580001
-0.32446858 -0.27784956 1.9580001
-0.31700954 -0.27598476 1.9580001
-0.31477183 -0.26554212 1.9580001
-0.30955049 -0.26106665 1.9580001
-0.30955049 -0.25547236 1.9580001
-0.30209145 -0.24801333 1.9580001
-0.2983619 -0.2442838 1.9580001
-0.29556477 -0.23589239 1.9580001
-0.29090285 -0.22377144 1.9580001
-0.29090285 -0.21631238 1.9580001
-0.28717333 -0.21258286 1.9580001
-0.28530857 -0.20698857 1.9580001
-0.27784953 -0.19580001 1.9580001
-0.35057524 -0.18274666 1.9580001
-0.34498096 -0.18274666 1.9580001
-0.34498096 -0.17901714 1.9580001
-0.34684572 -0.14731619 1.9580001
-0.33565715 -0.074590474 1.9580001
-0.33192763 -0.065266669 1.9580001
-0.32819811 -0.06713143 1.9580001
-0.33192763 -0.059672382 1.9580001
-0.33379239 -0.044754285 1.9580001
-0.34311619 0.059672382 1.9580001
-0.33752191 0.057807621 1.9580001
-0.34311619 0.065266669 1.9580001
-0.33938667 0.065266669 1.9580001
-0.22190668 0.096967623 1.9580001
0.013053333 0.096967623 1.9580001
-0.24241905 0.10815619 1.9580001
-0.2342141 0.10368075 1.9580001
-0.22451735 0.10218894 1.9580001
-0.21444762 0.10069714 1.9580001
0.014918095 0.10069714 1.9580001
0.06713143 0.10815619 1.9580001
-0.26106665 0.11748 1.9580001
-0.25547236 0.11748 1.9580001
-0.24708097 0.1128181 1.9580001
0.085779049 0.11188572 1.9580001
-0.26293144 0.12493904 1.9580001
-0.25733715 0.12493904 1.9580001
0.11561524 0.12493905 1.9580001
-0.27474159 0.13674921 1.9580001
-0.2647962 0.13426286 1.9579999
0.12307428 0.13426286 1.9580001
-0.27412003 0.14545143 1.9580001
-0.26628801 0.14395963 1.9580001
0.1268038 0.14545143 1.9580001
-0.27225524 0.15291047 1.9580001
-0.26852572 0.15477523 1.9580001
-0.26572856 0.16689619 1.9580001
-0.26106665 0.1715581 1.9580001
-0.27691716 0.5156067 1.9580001
-0.0049726986 0.51467437 1.9580001
0.0027971428 0.5156067 1.9580001
0.013053333 0.51840383 1.9580001
-0.29214606 0.52834922 1.9580001
-0.28468698 0.52710605 1.9580001
-0.27491918 0.52586287 1.9580002
-0.26603937 0.52710605 1.9580001
-0.25733715 0.52959239 1.9580001
-0.0037295239 0.52213329 1.9580001
-0.29276764 0.53518665 1.9580001
-0.28530857 0.53332192 1.9580001
-0.27523884 0.5348137 1.9580001
-0.2647962 0.53518665 1.9580001
-0.29463241 0.54600233 1.9580001
-0.28344381 0.54451054 1.9580001
-0.27551857 0.54497665 1.9580001
-0.2660394 0.54326737 1.9580001
-0.30706415 0.5581854 1.9580001
-0.2950986 0.55523288 1.9580001
-0.28493562 0.55495316 1.9580001
-0.27598476 0.55569905 1.9579999
-0.26852572 0.55569905 1.9580001
-0.30209145 0.56502289 1.9580001
-0.29463241 0.56502289 1.9580001
-0.28593016 0.56440133 1.9580001
-0.27598476 0.56539583 1.9580001
-0.26852572 0.56315815 1.9580001
-0.30302382 0.57527906 1.9580001
-0.29370001 0.57621145 1.9580001
-0.2853086 0.57434672 1.9580001
-0.27878189 0.57341433 1.9580001
-0.31327999 0.58553529 1.9580001
-0.30805871 0.5847894 1.9580001
-0.2923947 0.58478934 1.9580001
-0.28624094 0.58646768 1.9580001
-0.31504002 -0.2812857 1.9690001
-0.31378984 -0.27378482 1.9690002
-0.31128952 -0.26628384 1.9690001
-0.30503875 -0.25503239 1.9690002
-0.29628763 -0.24565621 1.9690001
-0.29253715 -0.23252952 1.9690001
-0.33754286 -0.075009525 1.9690001
-0.33754286 -0.063758098 1.9690002
-0.33629271 -0.053756829 1.9690002
-0.33566761 -0.048756193 1.9690001
-0.26253334 0.10876381 1.9690001
-0.25128192 0.10876381 1.9690001
-0.24378097 0.10501333 1.9690001
0.063758098 0.10688858 1.9690001
0.072509214 0.10751366 1.9690002
-0.27003428 0.11626476 1.9690001
-0.26503369 0.11376445 1.9690002
-0.25690764 0.11251429 1.9690001
0.093761906 0.11626476 1.9690001
-0.27097192 0.12470333 1.9690001
-0.26628384 0.12001524 1.9690001
0.10126286 0.12001524 1.9690001
0.12376572 0.12564096 1.9690001
-0.27378479 0.13314191 1.9690001
0.1275162 0.13501714 1.9690002
0.13126667 0.13876763 1.9690001
0.13314191 0.14439334 1.9690001
0.13501714 0.15269798 1.9690001
0.14439334 0.15001905 1.9690001
0.13501714 0.16127048 1.9690001
-0.27190953 0.51756573 1.9690001
-0.011251429 0.51569051 1.9690001
-0.0037504763 0.51381528 1.9690001
0.0037504765 0.51381528 1.9690002
0.013126667 0.51569051 1.9690001
-0.27378479 0.52131623 1.9690001
-0.26378351 0.52631682 1.9690002
-0.25503242 0.5269419 1.9690001
-0.24440604 0.52506673 1.9690001
-0.2542823 0.53481793 1.9690001
-0.25597 0.54100621 1.9690001
-0.31128952 0.56632191 1.9690001
-0.30753905 0.56632191 1.9690001
-0.27753526 0.56632191 1.9690001
-0.31128952 0.57382286 1.9690001
-0.3045387 0.57457298 1.9690001
-0.29503748 0.57632321 1.9690002
-0.28503621 0.57007241 1.9690001
-0.31378984 0.58382416 1.9690002
-0.3168 -0.2866286 1.9800001
-0.3130286 -0.2753143 1.9800001
-0.30800003 -0.26400003 1.9800003
-0.30548573 -0.25645718 1.9800001
-0.29794288 -0.25268573 1.9800001
-0.29417145 -0.23760001 1.9800001
-0.28285718 -0.20365715 1.9800001
-0.264 0.10937144 1.9800001
-0.25457144 0.10748573 1.9800001
-0.24702859 0.10182858 1.9800001
0.054685719 0.10748573 1.9800001
0.060342859 0.10560001 1.9800001
0.0792 0.10937144 1.9800001
-0.27154288 0.11314286 1.9800001
0.090514295 0.11314286 1.9800001
-0.27657145 0.12445717 1.9800003
0.10748573 0.12068572 1.9800001
0.11502858 0.12068572 1.9800001
0.12822859 0.12634286 1.9800001
0.13325715 0.12697145 1.9800003
-0.28285718 0.13765715 1.9800001
-0.27908573 0.132 1.9800001
0.13577144 0.13577145 1.9800003
0.13954286 0.14520001 1.9800001
0.14457145 0.14582859 1.9800003
0.13954286 0.1584 1.9800001
0.14520001 0.15651429 1.9800001
-0.27154288 0.50914288 1.9800001
-0.26777145 0.50725716 1.9800001
-0.27342859 0.51480007 1.9800001
-0.26588571 0.51480007 1.9800001
-0.25457144 0.51668572 1.9800001
-0.2489143 0.51668572 1.9800001
-0.022628574 0.51480007 1.9800001
-0.01584 0.51442295 1.9800001
-0.27154288 0.52422863 1.9800001
-0.26400003 0.52234286 1.9800003
-0.25457144 0.52234292 1.9800001
-0.24608573 0.52328575 1.9800001
-0.23634288 0.52548575 1.9800003
-0.01697143 0.52045715 1.9800001
-0.24460408 0.5366205 1.9800003
-0.23760001 0.53365719 1.9800001
-0.25457144 0.54685718 1.9800001
-0.24514286 0.54497147 1.9800003
-0.23760001 0.54497147 1.9800001
-0.25457144 0.5506286 1.9800001
-0.24702859 0.5506286 1.9800001
-0.3218286 0.5682286 1.9800003
-0.3168 0.56760001 1.9800001
-0.31554288 0.57577151 1.9800003
-0.32057145 0.58834291 1.9800001
-0.3168 0.5808 1.9800001
-0.31302857 -0.29216 1.9920001
-0.31397715 -0.28552002 1.9920001
-0.31113145 -0.27318859 1.9920001
-0.30733714 -0.2656 1.9920001
-0.30354288 -0.25801143 1.9920001
-0.29595429 -0.2428343 1.9920001
-0.2428343 0.098651432 1.9920001
-0.26370287 0.10624 1.9920001
-0.25801143 0.10624 1.9920001
0.098651432 0.11762286 1.9920001
0.10624 0.11762286 1.9920001
0.11193143 0.11762286 1.9920001
-0.28077716 0.12521143 1.9920001
0.12331429 0.12141715 1.9920001
-0.28457144 0.1328 1.9920001
0.14494173 0.13431773 1.9920002
0.15177144 0.1365943 1.9920001
0.14671239 0.14165336 1.9920001
0.15177146 0.14418286 1.9920001
-0.26370287 0.5084343 1.9920001
-0.25801143 0.5084343 1.9920001
-0.030354287 0.50464004 1.9920001
-0.025295239 0.50716954 1.9920001
-0.26275432 0.51507431 1.9920001
-0.254976 0.51450515 1.9920002
-0.24473146 0.51792002 1.9920001
-0.23524573 0.51792008 1.9920003
-0.030354287 0.51222861 1.9920001
-0.025295239 0.51349342 1.9920001
-0.017074287 0.51222861 1.9920001
-0.0056914287 0.51602286 1.9920001
0.001897143 0.51602286 1.9920001
-0.2428343 0.52361149 1.9920001
-0.23524573 0.5248763 1.9920001
-0.22765715 0.52740574 1.9920001
-0.23334858 0.5349943 1.9920003
-0.22613943 0.53575319 1.9920002
-0.23524572 0.54448003 1.9920001
-0.223104 0.54485953 1.9920002
-0.33010289 0.5767315 1.9920001
-0.32441145 0.5767315 1.9920001
-0.33010289 0.5805257 1.9920001
-0.32346287 0.5833714 1.9920001
-0.31284952 -0.27851236 2.003
-0.30903429 -0.27088189 2.003
-0.30521905 -0.26325142 2.003
-0.30140379 -0.25943619 2.003
-0.29758859 -0.25180572 2.003
-0.29758859 -0.24799049 2.003
-0.24036001 0.099196188 2.003
-0.27088189 0.10491905 2.003
-0.25752857 0.10301143 2.003
0.083935238 0.1106419 2.003
0.097288571 0.11445715 2.003
0.10491905 0.11636477 2.003
0.11636477 0.11636477 2.003
0.12208762 0.11827239 2.003
0.1297181 0.12208762 2.003
0.13734858 0.12590286 2.003
0.14497906 0.1297181 2.003
-0.22462215 0.49550402 2.003
-0.21556094 0.49598095 2.003
-0.022891428 0.49979618 2.003
-0.25562096 0.50742668 2.003
-0.24417524 0.50742668 2.003
-0.23272952 0.50742668 2.003
-0.22128381 0.50742668 2.003
-0.024163175 0.50488323 2.003
-0.017168572 0.50742668 2.003
-0.25307748 0.51251364 2.003
-0.24417526 0.5131495 2.0030003
-0.23463714 0.5131495 2.003
-0.22509904 0.51505715 2.003
-0.21619682 0.51760066 2.003
-0.015260953 0.51251364 2.003
-0.0057228571 0.51505715 2.003
-0.23272952 0.52650285 2.003
-0.22509906 0.52459526 2.0030003
-0.21619682 0.5239594 2.003
-0.22509904 0.53222573 2.003
-0.23272952 0.54557908 2.003
-0.22891429 0.54557908 2.003
-0.32811046 0.58754665 2.003
-0.31472382 -0.28593811 2.0150001
-0.31088573 -0.27634287 2.0150001
-0.30704764 -0.27250478 2.0150001
-0.30512857 -0.26674759 2.0150001
-0.29937145 -0.26290953 2.0150001
-0.29937145 -0.25715238 2.0150001
-0.25331429 0.099790484 2.0150001
-0.24947619 0.099790484 2.0150001
-0.23604287 0.099790484 2.0150001
-0.26674759 0.10362858 2.0150001
0.069085717 0.10362858 2.0150001
0.088276193 0.11130476 2.0150001
0.097871438 0.11130476 2.0150001
0.10362858 0.11322381 2.0150001
0.11514286 0.11514287 2.0150001
0.12665714 0.11898096 2.0150001
0.13241428 0.11898096 2.0150001
0.13433333 0.12281905 2.0150001
0.14584765 0.12665716 2.0150001
-0.24180001 0.49895239 2.0150001
-0.23540318 0.49767303 2.0150001
-0.21365397 0.49639368 2.0150001
-0.20725715 0.49703336 2.0150001
-0.017271429 0.49895239 2.0150001
-0.25523335 0.50662857 2.0150001
-0.2456381 0.50470954 2.0150003
-0.23412383 0.50470954 2.0150003
-0.22452858 0.50662857 2.0150001
-0.21416572 0.50509334 2.0150001
-0.20725715 0.50470954 2.0150001
-0.01612 0.50509334 2.0150001
-0.0076761907 0.50662857 2.0150001
-0.23412383 0.51046669 2.0150001
-0.22644764 0.51046669 2.0150001
-0.21445358 0.51382494 2.0150001
-0.20469843 0.51558411 2.0150001
-0.011514286 0.51238573 2.0150001
-0.0076761907 0.51238573 2.0150001
-0.21109524 0.52198094 2.0150001
-0.20341906 0.52198094 2.0150001
-0.17271429 0.52965713 2.0150001
-0.31273717 -0.28571051 2.0270002
-0.30308479 -0.27026668 2.0270002
-0.29729334 -0.25482288 2.0270002
-0.29729334 -0.24324001 2.0270002
-0.29729334 -0.23358764 2.0270002
-0.29729334 -0.22393525 2.0270002
-0.29343241 -0.21621335 2.0270002
-0.28957143 -0.21428287 2.0270002
-0.2451705 0.096523814 2.0270002
-0.23358764 0.096523814 2.0270002
-0.25868383 0.10038476 2.0270002
0.023165716 0.10424572 2.0270002
0.061775245 0.10424572 2.0270002
0.10038476 0.10810667 2.0270002
0.092662863 0.11196762 2.0270002
0.10810667 0.11196762 2.0270002
0.11582857 0.11196762 2.0270002
0.12548096 0.11582858 2.0270002
-0.23937906 0.49806291 2.0270002
-0.20463049 0.49806291 2.0270002
-0.20366526 0.50481951 2.0270002
-0.011582858 0.50385427 2.0270002
-0.0077219056 0.50385427 2.0270002
-0.20366526 0.51447195 2.0270002
-0.19690858 0.51736766 2.0270002
-0.20463049 0.52315909 2.0270002
-0.1949781 0.52508956 2.0270002
-0.18146478 0.52702004 2.0270002
-0.17374288 0.52895051 2.0270002
-0.16988192 0.52895051 2.0270002
-0.1949781 0.53474194 2.0270002
-0.18436049 0.53570718 2.0270002
-0.17760383 0.53474194 2.0270002
-0.18918668 0.54053336 2.0270002
-0.31070474 -0.28546 2.039
-0.31070474 -0.27963427 2.039
-0.30423176 -0.27704507 2.039
-0.29905337 -0.26409909 2.039
-0.29905334 -0.25244763 2.039
-0.29905334 -0.24468 2.039
-0.29516953 -0.22396635 2.039
-0.28740191 -0.22137713 2.039
-0.26021525 0.095153332 2.039
-0.25438952 0.097095244 2.039
-0.24079619 0.097095244 2.039
-0.26604098 0.10097905 2.039
0.058257144 0.10292096 2.039
0.062140953 0.10097905 2.039
0.077676184 0.10874667 2.039
0.085443817 0.10874667 2.039
0.095153332 0.10874667 2.039
0.10486286 0.10680477 2.039
0.11457238 0.10874667 2.039
0.12428191 0.11263048 2.039
0.13204953 0.11651429 2.039
0.13981713 0.12428191 2.039
0.14370096 0.12428191 2.039
-0.20195809 0.50489521 2.039
-0.19419049 0.50378555 2.039
-0.18642285 0.50295335 2.039
-0.20195809 0.51266289 2.039
-0.19613239 0.51460481 2.039
-0.19289589 0.52366704 2.039
-0.18448094 0.52431428 2.039
-0.17282954 0.5262562 2.039
-0.19321953 0.53305292 2.039
-0.18642285 0.53402388 2.039
-0.17865524 0.53208196 2.039
-0.31448668 -0.30081335 2.0510001
-0.31383559 -0.29560447 2.0510001
-0.30602223 -0.28518671 2.0510004
-0.30081335 -0.27542001 2.0510001
-0.29690668 -0.27346668 2.0510001
-0.29690668 -0.26565334 2.0510001
-0.29690668 -0.25002667 2.0510001
-0.29560447 -0.24351558 2.0510001
-0.29534402 -0.23361869 2.0510004
-0.29495335 -0.22658668 2.0510001
-0.28909335 -0.21682 2.0510001
-0.26565334 0.097666666 2.0510001
-0.25002667 0.093760006 2.0510001
0.066413336 0.10548 2.0510001
0.076180004 0.10548 2.0510001
0.085946672 0.10548 2.0510001
0.095713332 0.10548 2.0510001
0.10938667 0.10548 2.0510001
0.11329334 0.10548 2.0510001
0.12306 0.10938667 2.0510001
0.12892 0.11329334 2.0510001
0.13673334 0.1172 2.0510001
-0.35160002 0.12892 2.0510001
0.14552334 0.12208334 2.0510001
0.15236001 0.12501334 2.0510001
-0.35160002 0.13478 2.0510001
-0.34769335 0.13673334 2.0510001
-0.35160002 0.14454667 2.0510001
-0.34671667 0.14454667 2.0510001
-0.35160002 0.15236001 2.0510001
-0.34574002 0.15431334 2.0510001
-0.28128001 0.17970668 2.0510001
-0.27737334 0.17970668 2.0510001
-0.27542001 0.18361333 2.0510001
-0.10157334 0.48833331 2.0510001
-0.095713332 0.48833331 2.0510001
-0.10157334 0.49419338 2.0510001
-0.09571334 0.49419338 2.0510001
-0.18361333 0.50591338 2.0510001
-0.17970668 0.50786668 2.0510001
-0.10157334 0.50005335 2.0510001
-0.095062226 0.50135559 2.0510001
-0.19338001 0.51470339 2.0510001
-0.18556666 0.51568002 2.0510004
-0.17775336 0.51568002 2.0510004
-0.18752001 0.52349335 2.0510001
-0.17840445 0.52479559 2.0510001
-0.17970668 0.53130668 2.0510001
-0.3104324 -0.30257335 2.0630002
-0.30650288 -0.30257335 2.0630002
-0.3104324 -0.29667908 2.0630002
-0.30519307 -0.29471433 2.0630002
-0.30257335 -0.28685525 2.0630002
-0.29864383 -0.28489047 2.0630002
-0.29864383 -0.2789962 2.0630002
-0.29667908 -0.25541908 2.0630002
-0.29471433 -0.24756001 2.0630002
-0.29471433 -0.23970097 2.0630002
-0.29078481 -0.22791241 2.0630002
-0.29078481 -0.21219429 2.0630002
0.066801913 0.10216763 2.0630002
0.098238103 0.10216763 2.0630002
0.10413238 0.10216763 2.0630002
0.11395621 0.10347747 2.0630002
0.12378001 0.10609715 2.0630002
0.1296743 0.11002668 2.0630002
0.13360383 0.11199145 2.0630002
0.1453924 0.11788573 2.0630002
-0.35365716 0.12574477 2.0630002
-0.34579813 0.12574477 2.063
-0.33513227 0.12630615 2.0630002
-0.34501225 0.13517563 2.0630002
-0.33479545 0.13517563 2.0630002
-0.34344044 0.1453924 2.0630002
-0.33793908 0.14146286 2.0630002
-0.34186861 0.15325144 2.0630002
-0.05501334 0.19451146 2.0630002
-0.070731431 0.20826478 2.0630002
-0.066801913 0.20826478 2.0630002
-0.0555747 0.20321253 2.0630002
-0.045844447 0.20302543 2.0630002
-0.039295241 0.20433526 2.0630002
-0.011788572 0.20433526 2.0630002
-0.0078590484 0.20433526 2.0630002
-0.073351115 0.21481399 2.0630002
-0.072696194 0.22005336 2.0630002
-0.014932192 0.22634061 2.0630002
-0.0078590484 0.22594765 2.0630002
-0.10216763 0.487261 2.0630002
-0.098238103 0.487261 2.0630002
-0.10609715 0.49512005 2.0630002
-0.10413238 0.50494385 2.0630002
-0.098238103 0.5069086 2.0630002
-0.098238103 0.51083815 2.0630002
-0.3025029 -0.30052575 2.0760002
-0.29459432 -0.30052575 2.0760002
-0.3025029 -0.29459432 2.0760002
-0.29657146 -0.28470859 2.0760002
-0.29657146 -0.26296002 2.0760002
-0.29261717 -0.24318859 2.0760002
-0.29261717 -0.23528002 2.0760002
-0.28866288 -0.23528002 2.0760002
-0.28866288 -0.22539431 2.0760002
-0.28866288 -0.21550858 2.0760002
-0.28866288 -0.20957717 2.0760002
-0.2609829 0.094902866 2.0760002
-0.25702861 0.094902866 2.0760002
0.10478858 0.098857149 2.0760002
0.11072001 0.098857149 2.0760002
0.077108577 0.10281144 2.0760002
0.085017145 0.10281144 2.0760002
0.092925727 0.10281144 2.0760002
0.11862858 0.10281144 2.0760002
0.12456001 0.10281144 2.0760002
0.13246858 0.10676572 2.0760002
-0.35193148 0.11862858 2.0760002
-0.34402287 0.11862858 2.0760002
-0.33611432 0.11862858 2.0760002
0.1384 0.1146743 2.0760002
0.14235429 0.1146743 2.0760002
-0.34797716 0.12653716 2.0760002
-0.33216003 0.12456001 2.0760002
-0.32820573 0.12456001 2.0760002
-0.33216003 0.1384 2.0760002
-0.32721716 0.1354343 2.0760002
-0.34006858 0.14630859 2.0760002
-0.33413717 0.14433144 2.0760002
-0.32820573 0.14433144 2.0760002
-0.34006858 0.15224001 2.0760002
-0.33611432 0.15026288 2.0760002
-0.28866288 0.18585144 2.0760002
-0.071177147 0.19573715 2.0760002
-0.065245718 0.19573715 2.0760002
-0.045474291 0.19573715 2.0760002
-0.074340582 0.20641375 2.0760002
-0.064850293 0.20483203 2.0760002
-0.053382862 0.20957717 2.0760002
-0.044815242 0.20694098 2.0760002
-0.039542861 0.20562288 2.0760002
-0.023725716 0.20760003 2.0760002
-0.016608004 0.20799546 2.0760002
-0.0052723819 0.20825908 2.0760002
-0.076449528 0.21484953 2.0760002
-0.065245718 0.21550858 2.0760002
-0.056150865 0.21511316 2.0760002
-0.045474291 0.21353145 2.0760002
-0.039542861 0.21353145 2.0760002
-0.015817147 0.21550861 2.0760002
-0.0065904772 0.21616763 2.0760002
0 0.21748573 2.0760002
-0.18189716 0.2293486 2.0760002
-0.17342369 0.22652413 2.0760002
-0.075131439 0.22605336 2.0760002
-0.065245718 0.22144002 2.0760002
-0.023725716 0.22737145 2.0760002
-0.016805716 0.22242859 2.0760002
-0.0052723819 0.22275811 2.0760002
-0.18189716 0.23330288 2.0760002
-0.17398858 0.23330288 2.0760002
-0.11072001 0.49626291 2.0760002
-0.10676572 0.49033144 2.0760002
-0.092266679 0.49164957 2.0760002
-0.11072001 0.50219434 2.0760002
-0.1146743 0.51010287 2.0760002
-0.10544764 0.51273912 2.0760002
-0.096880011 0.52592003 2.0760002
-0.094902866 0.53382862 2.0760002
-0.30226287 -0.29828572 2.0880001
-0.29828572 -0.29629713 2.0880001
-0.29828572 -0.27442288 2.0880001
-0.29430857 -0.26447999 2.0880001
-0.29271773 -0.25374171 2.0880001
-0.29033145 -0.24459429 2.0880001
-0.29033145 -0.22669715 2.0880001
-0.29033145 -0.20482287 2.0880001
-0.29033145 -0.19885714 2.0880001
-0.29232001 -0.18493715 2.0880001
-0.28436571 -0.18493713 2.0880001
-0.2784 -0.18493715 2.0880001
-0.29033145 -0.17499429 2.0880001
-0.28436571 -0.17499429 2.0880003
-0.2784 -0.17499429 2.0880001
-0.28436571 -0.16505143 2.0880001
-0.2784 -0.16505143 2.0880001
-0.28237715 -0.15709715 2.0880001
-0.27740571 -0.15411429 2.0880001
-0.27641141 -0.14516571 2.0880001
-0.27641141 -0.13721144 2.0880001
0.095451437 0.099428579 2.0880001
0.10738286 0.095451429 2.0880001
0.11533715 0.099428572 2.0880001
-0.34402287 0.10738286 2.0880001
-0.33805716 0.10738286 2.0880001
0.019885715 0.10340571 2.0880001
0.025851429 0.10340571 2.0880001
0.031817142 0.10340571 2.0880001
0.071588568 0.10340571 2.0880001
0.13124572 0.10340571 2.0880001
-0.3539657 0.11533715 2.0880001
-0.34521601 0.11374629 2.0880001
-0.33408001 0.11533715 2.0880003
0 0.11136 2.0880001
0.1392 0.11136 2.0880001
0.14582857 0.11268573 2.0880001
0.15113144 0.11533715 2.0880001
-0.32612571 0.12527999 2.0880001
-0.32373944 0.13442743 2.0880001
-0.31684574 0.13787431 2.0880001
-0.32413715 0.14516571 2.0880001
-0.31817144 0.14516571 2.0880001
-0.34402287 0.15908572 2.0880001
-0.33358288 0.15560572 2.0880001
-0.32413715 0.15312001 2.0880001
-0.34336004 0.16438858 2.0880001
-0.33407998 0.16505143 2.0880003
-0.34203431 0.17101716 2.0880001
-0.33010286 0.17101716 2.0880001
-0.29232001 0.17897142 2.0880001
-0.29298288 0.18427429 2.0880001
-0.28635427 0.18692571 2.0880001
-0.29232001 0.19289143 2.0880001
-0.28436571 0.19090286 2.0880001
-0.27641141 0.19090286 2.0880001
-0.11334857 0.19885714 2.0880001
-0.10605714 0.19753143 2.0880001
-0.095451429 0.19885716 2.0880001
-0.084845714 0.19753143 2.0880001
-0.077554286 0.19686857 2.0880001
-0.03977143 0.19686857 2.0880001
-0.015908573 0.19686858 2.0880003
-0.13522288 0.20548573 2.0880001
-0.12594286 0.20416002 2.0880001
-0.11334857 0.20482287 2.0880001
-0.10738286 0.20283429 2.0880001
-0.095451429 0.20482287 2.0880003
-0.08550857 0.20482287 2.0880001
-0.078217149 0.20416002 2.0880001
-0.033805713 0.20681143 2.0880001
-0.025851429 0.20482287 2.0880001
-0.015908573 0.20283429 2.0880001
-0.0079542855 0.20283429 2.0880001
-0.19090286 0.21675429 2.0880001
-0.18493715 0.21874286 2.0880001
-0.17499429 0.21675429 2.0880003
-0.15312001 0.21078858 2.0880001
-0.14715429 0.21078858 2.0880001
-0.13522285 0.21078858 2.0880001
-0.12726857 0.21277715 2.0880001
-0.091474287 0.21476573 2.0880001
-0.08550857 0.21476573 2.0880003
-0.051702857 0.21874286 2.0880001
-0.045737144 0.21874286 2.0880001
-0.03499886 0.2139703 2.0880001
-0.026249144 0.21556115 2.0880001
-0.19090286 0.22272 2.0880001
-0.18427429 0.22404572 2.0880001
-0.17698285 0.22272 2.0880001
-0.16505143 0.22470857 2.0880001
-0.1392 0.22669715 2.0880001
-0.091474287 0.22272 2.0880001
-0.08550857 0.22470859 2.0880001
-0.065622859 0.22669715 2.0880001
-0.056475431 0.22431087 2.0880001
-0.045737144 0.22272 2.0880001
-0.03977143 0.22272 2.0880001
-0.026514288 0.22404572 2.0880001
-0.23332572 0.23597716 2.0880001
-0.22470857 0.23465143 2.0880001
-0.15113144 0.2306743 2.0880001
-0.14715429 0.23266286 2.0880001
-0.13681373 0.23385601 2.0880001
-0.12527999 0.23465143 2.0880003
-0.1193143 0.23465145 2.0880001
-0.075565718 0.23531429 2.0880003
-0.067611434 0.23465145 2.0880001
-0.26447999 0.24658287 2.0880001
-0.12527999 0.24260572 2.0880001
-0.11931429 0.24260572 2.0880001
-0.073577143 0.24459429 2.0880001
-0.067611434 0.24260572 2.0880001
-0.08550857 0.25851429 2.0880001
-0.07954286 0.25851429 2.0880001
-0.08550857 0.26249143 2.0880001
-0.07954286 0.26249143 2.0880001
-0.11374629 0.2760137 2.0880001
-0.10539429 0.27442288 2.0880003
-0.097042285 0.27283201 2.0880001
-0.08550857 0.27044573 2.0880001
-0.11454172 0.28396803 2.0880001
-0.10605714 0.28370285 2.0880001
-0.11136 0.2943086 2.0880001
-0.10738286 0.29033145 2.0880001
-0.12527999 0.30623999 2.0880001
-0.11533715 0.30425146 2.0880003
-0.10738286 0.30623999 2.0880001
-0.11235429 0.31419429 2.0880001
-0.10738286 0.31419429 2.0880001
-0.11136 0.32214859 2.0880001
-0.08550857 0.35794285 2.0880001
-0.087497145 0.37385142 2.0880001
-0.091474287 0.39373714 2.0880001
-0.071588568 0.40765715 2.0880001
-0.066285722 0.40832004 2.0880001
-0.07954286 0.46134859 2.0880001
-0.14317714 0.48521143 2.0880001
-0.1392 0.48521143 2.0880001
-0.11401144 0.48653719 2.0880003
-0.10499656 0.48600689 2.0880001
-0.097440004 0.48521146 2.0880003
-0.14317714 0.49515429 2.0880001
-0.1392 0.49515429 2.0880001
-0.12329143 0.49515429 2.0880001
-0.11613258 0.49475661 2.0880001
-0.1392 0.50112003 2.0880001
-0.12329143 0.50509715 2.0880001
-0.11647348 0.5056653 2.0880003
-0.12329143 0.51504004 2.0880001
-0.11533715 0.51543778 2.0880001
-0.12329143 0.52100575 2.0880001
-0.11533715 0.52498287 2.0880001
-0.10539429 0.52498287 2.0880003
-0.099428572 0.52100575 2.0880001
-0.11533716 0.5349257 2.0880003
-0.10539428 0.5349257 2.0880001
-0.099428572 0.53691429 2.0880001
-0.11533715 0.54089147 2.0880001
-0.099428572 0.54089147 2.0880001
-0.29213905 -0.29213905 2.1010001
-0.28613621 -0.29213905 2.1010001
-0.29614094 -0.27212954 2.1010001
-0.29213905 -0.26212478 2.1010001
-0.28813714 -0.25212002 2.1010001
-0.28813714 -0.24411619 2.1010003
-0.28813714 -0.23211047 2.1010001
-0.28813714 -0.22410667 2.1010003
-0.28813714 -0.21410191 2.1010001
-0.28680319 -0.20276318 2.1010003
-0.29213905 -0.19409239 2.1010001
-0.28413522 -0.19309193 2.1010001
-0.29614094 -0.18008572 2.1010001
-0.27613145 -0.18808952 2.1010001
-0.27613145 -0.17408285 2.1010001
-0.27613145 -0.1640781 2.1010003
-0.27413049 -0.15407333 2.1010001
-0.27212954 -0.14406858 2.1010003
-0.27613145 -0.13206285 2.1010001
-0.27613145 -0.12806095 2.1010001
-0.34216285 0.094044767 2.1010001
-0.33616 0.09204381 2.1010001
-0.25212002 0.096045718 2.1010001
-0.2481181 0.096045718 2.1010001
0.09204381 0.096045718 2.1010001
-0.34216285 0.10204858 2.1010001
-0.33455926 0.10484991 2.1010001
0 0.10805143 2.1010001
0.076036192 0.10004762 2.1010001
0.084040001 0.10004762 2.1010003
0.13606477 0.10404953 2.1010001
0.1430681 0.10705096 2.1010001
-0.35216761 0.11205333 2.1010001
-0.33215812 0.11205333 2.1010001
-0.32682225 0.11472127 2.1010003
-0.32348731 0.12405904 2.1010001
-0.31414953 0.12405905 2.1010001
-0.32015237 0.13206285 2.1010001
-0.31615049 0.13406381 2.1010001
-0.31374934 0.14486896 2.1010001
-0.30814669 0.14006667 2.1010001
-0.32015237 0.15407333 2.1010001
-0.31615049 0.15607429 2.1010001
-0.32465455 0.16357785 2.1010001
-0.31615049 0.16207714 2.1010001
-0.34149587 0.17474984 2.1010003
-0.33482605 0.17474984 2.1010003
-0.3281562 0.1720819 2.1010001
-0.34416381 0.18008572 2.1010001
-0.30174363 0.18488801 2.1010001
-0.30214381 0.19409239 2.1010001
-0.28413525 0.19609335 2.1010003
-0.27613145 0.19609334 2.1010001
-0.026012382 0.19609334 2.1010001
-0.30214381 0.20409714 2.1010001
-0.29454017 0.20329677 2.1010001
-0.18358739 0.20459737 2.1010001
-0.17408285 0.20609809 2.1010001
-0.16407809 0.20409711 2.1010001
-0.15367314 0.20489752 2.1010001
-0.1445688 0.20409712 2.1010001
-0.13406381 0.20409714 2.1010001
-0.12272508 0.20343018 2.1010001
-0.1053835 0.20676509 2.1010003
-0.034016192 0.20209618 2.1010001
-0.026679367 0.20142922 2.1010003
-0.3033444 0.21370171 2.1010001
-0.29614094 0.21210095 2.1010001
-0.19609334 0.21610285 2.1010001
-0.18488801 0.21370171 2.1010001
-0.17408285 0.21210095 2.1010001
-0.1640781 0.21410191 2.1010001
-0.15407333 0.21610285 2.1010001
-0.14406857 0.21510237 2.1010001
-0.13406381 0.21610285 2.1010001
-0.12205809 0.2141019 2.1010001
-0.11405428 0.21410191 2.1010001
-0.10404953 0.21410191 2.1010001
-0.096045718 0.21410191 2.1010001
-0.30574554 0.22490707 2.1010001
-0.26279175 0.22544065 2.1010003
-0.25212002 0.22410667 2.1010001
-0.24411619 0.22570744 2.1010001
-0.23411143 0.22610763 2.1010001
-0.22610763 0.22610763 2.1010001
-0.21610285 0.22810857 2.1010001
-0.16247734 0.22250591 2.1010001
-0.15407333 0.22410667 2.1010001
-0.1445688 0.22360642 2.1010001
-0.13406381 0.22410667 2.1010001
-0.12405904 0.22410665 2.1010001
-0.11405428 0.22410665 2.1010001
-0.10404953 0.22410665 2.1010001
-0.095045239 0.22510715 2.1010001
-0.052024763 0.22810857 2.1010001
-0.044020951 0.22810857 2.1010003
-0.034016192 0.22410667 2.1010001
-0.30614573 0.23211047 2.1010001
-0.27212954 0.23211047 2.1010001
-0.26332533 0.23371123 2.1010001
-0.25212002 0.23411143 2.1010001
-0.24411619 0.23411141 2.1010001
-0.23411143 0.23211047 2.1010001
-0.22410667 0.23211047 2.1010003
-0.21610285 0.23211047 2.1010001
-0.16007619 0.23211047 2.1010001
-0.15607429 0.23211047 2.1010001
-0.14406857 0.23411143 2.1010001
-0.13206285 0.23411143 2.1010001
-0.11405428 0.23411143 2.1010001
-0.10404953 0.23411141 2.1010001
-0.09404476 0.23411143 2.1010001
-0.086040951 0.23411143 2.1010001
-0.063230097 0.23451164 2.1010001
-0.054692701 0.23344445 2.1010003
-0.042686984 0.23344445 2.1010003
-0.036017142 0.23211047 2.1010001
-0.28333488 0.24651733 2.1010001
-0.27413052 0.24411622 2.1010001
-0.26355404 0.24297282 2.1010001
-0.25345397 0.24278224 2.1010003
-0.24411619 0.2401143 2.1010003
-0.1432682 0.24171506 2.1010001
-0.13366362 0.24491659 2.1010001
-0.12405904 0.2481181 2.1010003
-0.11405428 0.24411619 2.1010001
-0.10404953 0.2441162 2.1010001
-0.094444953 0.24411619 2.1010001
-0.083539762 0.2441162 2.1010001
-0.064030476 0.24011429 2.1010001
-0.28613621 0.25412095 2.1010001
-0.27413049 0.25212002 2.1010001
-0.13206285 0.25212002 2.1010001
-0.12305856 0.25312048 2.1010001
-0.11405428 0.25412095 2.1010001
-0.10404953 0.25412095 2.1010001
-0.09404476 0.25412095 2.1010001
-0.084040008 0.25412095 2.1010001
-0.074035242 0.25412095 2.1010001
-0.12205809 0.26612666 2.1010001
-0.11405428 0.26412573 2.1010001
-0.10404953 0.2641257 2.1010001
-0.094044767 0.26412573 2.1010001
-0.084040001 0.26812762 2.1010003
-0.076036192 0.26012382 2.1010001
-0.12205809 0.27413049 2.1010001
-0.11605524 0.27413049 2.1010001
-0.09404476 0.27613145 2.1010001
-0.084040008 0.2747975 2.1010003
-0.12005714 0.28813714 2.1010001
-0.10138159 0.28680319 2.1010003
-0.095045239 0.28313476 2.1010001
-0.086040951 0.28013334 2.1010001
-0.12005714 0.29413998 2.1010001
-0.11605524 0.29413998 2.1010001
-0.10324915 0.29454017 2.1010001
-0.096045718 0.29413998 2.1010001
-0.12485943 0.30174363 2.1010001
-0.11605524 0.30014288 2.1010001
-0.10354929 0.30364454 2.1010001
-0.095045239 0.30514526 2.1010001
-0.086707935 0.30681273 2.1010003
-0.12405905 0.31414956 2.1010001
-0.11605524 0.31214857 2.1010001
-0.10204858 0.31414953 2.1010001
-0.09404476 0.31414953 2.1010001
-0.08484038 0.31374931 2.1010001
-0.076036192 0.31214857 2.1010001
-0.12405905 0.32301089 2.1010001
-0.11505476 0.32515478 2.1010001
-0.10404953 0.32415429 2.1010001
-0.093644574 0.32335389 2.1010001
-0.084039994 0.32415429 2.1010001
-0.0760362 0.32415432 2.1010003
-0.11405428 0.33415908 2.1010001
-0.10671746 0.3334921 2.1010003
-0.09204381 0.33215812 2.1010001
-0.081372067 0.33482608 2.1010003
-0.076036192 0.33415908 2.1010001
-0.12245829 0.34496421 2.1010001
-0.11405428 0.34416384 2.1010001
-0.10805143 0.34416384 2.1010003
-0.09204381 0.34416384 2.1010003
-0.084040001 0.34416381 2.1010001
-0.075035714 0.34516427 2.1010001
-0.1220581 0.35416859 2.1010001
-0.11472127 0.35350162 2.1010003
-0.10304905 0.35416859 2.1010001
-0.09404476 0.35416859 2.1010001
-0.084040008 0.35416859 2.1010001
-0.074035242 0.35416859 2.1010001
-0.068032384 0.35616955 2.1010001
-0.12205811 0.36417335 2.1010001
-0.11605524 0.36017144 2.1010001
-0.10404954 0.36417335 2.1010001
-0.094044767 0.36417335 2.1010001
-0.083468303 0.36531675 2.1010001
-0.074035242 0.36417335 2.1010001
-0.068032384 0.36417335 2.1010003
-0.12405905 0.37217718 2.1010003
-0.1133873 0.37351114 2.1010003
-0.10404953 0.37417811 2.1010001
-0.094044767 0.37417811 2.1010001
-0.083239622 0.37377793 2.1010001
-0.076036192 0.37217715 2.1010001
-0.12405905 0.38532633 2.1010001
-0.11205333 0.38418287 2.1010003
-0.10404953 0.38418287 2.1010001
-0.094044767 0.38418287 2.1010001
-0.084540233 0.38418287 2.1010001
-0.072034284 0.38818479 2.1010001
-0.066031426 0.38818479 2.1010001
-0.12405904 0.39418763 2.1010001
-0.1133873 0.39352065 2.1010003
-0.10404953 0.39418763 2.1010001
-0.094711743 0.39352065 2.1010003
-0.084040001 0.39418766 2.1010001
-0.074035242 0.39418763 2.1010001
-0.066031426 0.39418763 2.1010001
-0.12405905 0.40219143 2.1010001
-0.11205333 0.40419239 2.1010003
-0.10404953 0.40419236 2.1010001
-0.094044767 0.40419239 2.1010001
-0.084039994 0.40419239 2.1010001
-0.076036192 0.40819427 2.1010001
-0.1133873 0.41486415 2.1010003
-0.10404953 0.41419715 2.1010001
-0.094044767 0.41419715 2.1010001
-0.084040001 0.41419715 2.1010001
-0.074702226 0.41486415 2.1010003
-0.066031426 0.4161981 2.1010001
-0.13206285 0.42620286 2.1010001
-0.12355882 0.4247022 2.1010001
-0.11405428 0.42420194 2.1010001
-0.10404953 0.42420194 2.1010001
-0.094044767 0.42420194 2.1010001
-0.084540233 0.4237017 2.1010001
-0.074035242 0.42220098 2.1010001
-0.065631233 0.42340156 2.1010001
-0.13206285 0.43220571 2.1010001
-0.12405904 0.43420666 2.1010001
-0.11405428 0.43420666 2.1010001
-0.10404953 0.43420666 2.1010001
-0.094711751 0.43353969 2.1010003
-0.086040951 0.43220571 2.1010001
-0.12205809 0.4422105 2.1010001
-0.11445447 0.44341108 2.1010001
-0.10404953 0.44421142 2.1010001
-0.095045239 0.44321096 2.1010001
-0.088041902 0.44020951 2.1010001
-0.12205809 0.45421618 2.1010001
-0.11405428 0.45421621 2.1010001
-0.10404953 0.45421618 2.1010001
-0.09404476 0.45421621 2.1010001
-0.084040001 0.45421621 2.1010001
-0.074702226 0.45354924 2.1010003
-0.12272508 0.46288699 2.1010003
-0.11305381 0.46322048 2.1010001
-0.10404953 0.46422094 2.1010001
-0.094044767 0.464221 2.1010001
-0.084540233 0.46422097 2.1010001
-0.074035242 0.46422097 2.1010001
-0.067031905 0.46522141 2.1010001
-0.14140064 0.47489271 2.1010003
-0.13406381 0.47422573 2.1010001
-0.12405904 0.47422573 2.1010001
-0.11405428 0.4742257 2.1010001
-0.10404953 0.47422576 2.1010001
-0.09404476 0.4742257 2.1010001
-0.084040008 0.47422573 2.1010001
-0.074035242 0.47422573 2.1010001
-0.068032384 0.47422573 2.1010001
-0.1432682 0.48503089 2.1010001
-0.13406381 0.48423049 2.1010001
-0.12405906 0.48423052 2.1010001
-0.11472127 0.48156255 2.1010003
-0.10505001 0.48122904 2.1010001
-0.093044281 0.48322999 2.1010001
-0.084039994 0.48423052 2.1010001
-0.074035242 0.48423049 2.1010001
-0.064602181 0.48537391 2.1010001
-0.14807047 0.49223429 2.1010001
-0.13406381 0.49423522 2.1010001
-0.12672698 0.49356827 2.1010003
-0.09204381 0.49223429 2.1010001
-0.084040001 0.49423528 2.1010001
-0.074035242 0.49423525 2.1010001
-0.064030483 0.49423525 2.1010001
-0.13406381 0.50424004 2.1010001
-0.12806097 0.50424004 2.1010003
-0.13406381 0.51424474 2.1010001
-0.12806095 0.51424479 2.1010001
-0.13206285 0.52024764 2.1010001
-0.12706047 0.52525002 2.1010001
-0.12405905 0.53425431 2.1010001
-0.29596001 -0.30200002 2.1140001
-0.29663113 -0.29663113 2.1140001
-0.28992 -0.29797333 2.1140001
-0.2963627 -0.28669867 2.1140001
-0.28992 -0.28992 2.1140001
-0.29797333 -0.27784002 2.1140001
-0.29394668 -0.26978666 2.1140001
-0.28992 -0.26173332 2.1140001
-0.28790668 -0.25569335 2.1140001
-0.28589335 -0.24965334 2.1140001
-0.28992 -0.23757334 2.1140001
-0.28589335 -0.22750667 2.1140001
-0.28589335 -0.21542668 2.1140001
-0.28589335 -0.20536 2.1140001
-0.28589335 -0.19730668 2.1140001
-0.27784002 -0.18321334 2.1140001
-0.27381334 -0.17516001 2.1140001
-0.27381334 -0.16509333 2.1140001
-0.27381334 -0.15704001 2.1140001
