# .PCD v0.7 - Point Cloud Data file format
VERSION 0.7
FIELDS x y z
SIZE 4 4 4
TYPE F F F
COUNT 1 1 1
WIDTH 1470
HEIGHT 1
VIEWPOINT 0 0 0 1 0 0 0
POINTS 1470
DATA ascii
-0.10042667 0.13270667 1.8830001
-0.30128002 0.14526001 1.8830001
-0.29769337 0.14346668 1.8830001
-0.15183556 0.14585778 1.8830001
-0.14466223 0.14466223 1.8830001
-0.13629335 0.14526002 1.8830003
-0.12553334 0.14526002 1.8830003
-0.11836001 0.14705333 1.8830001
-0.30128002 0.15422669 1.8830001
-0.16140002 0.15422668 1.8830001
-0.15320191 0.15422669 1.8830004
-0.14466223 0.15542224 1.8830001
-0.13629335 0.15422666 1.8830003
-0.12553334 0.15422668 1.8830003
-0.11522167 0.15422668 1.8830003
-0.30128002 0.16140002 1.8830001
-0.29769337 0.16498667 1.8830001
-0.19278334 0.16767667 1.8830001
-0.18411557 0.16618223 1.8830001
-0.17754 0.16678001 1.8830001
-0.16713868 0.16426936 1.8830003
-0.154944 0.16283469 1.8830003
-0.14705333 0.16140002 1.8830001
-0.13450001 0.16140002 1.8830001
-0.12553334 0.16140002 1.8830001
-0.11836001 0.16140002 1.8830001
-0.25824001 0.17933334 1.8830001
-0.19368002 0.17216 1.8830001
-0.17216 0.17216 1.8830001
-0.16857335 0.17216 1.8830001
-0.033475559 0.54636896 1.8830001
-0.034432005 0.55736798 1.8830003
-0.037660003 0.56310666 1.8830001
-0.0035866669 0.57566005 1.8830001
0 0.57386672 1.8830001
0.012553334 0.57745337 1.8830001
-0.01076 0.58821332 1.8830001
-0.0044833338 0.58552337 1.8830001
0.0031383336 0.58417839 1.8830003
0.011955557 0.58223557 1.8830001
-0.0053800005 0.59538674 1.8830003
0.0025619052 0.59487432 1.8830004
-0.19120382 0.10462096 1.8940001
-0.18398857 0.10822857 1.8940001
-0.17496952 0.10822857 1.8940001
-0.16835557 0.1058235 1.8940001
-0.14250097 0.10822857 1.8940001
-0.1334819 0.10822857 1.8940001
-0.1940899 0.11760838 1.8940001
-0.18398859 0.11492844 1.8940002
-0.17496954 0.11544381 1.8940001
-0.16595048 0.11760838 1.8940001
-0.15602952 0.1145419 1.8940001
-0.14791238 0.11183619 1.8940001
-0.1334819 0.11544381 1.8940001
-0.12770972 0.11616533 1.8940001
-0.11905143 0.11905143 1.8940001
-0.29582477 0.12987429 1.8940001
-0.28500193 0.12626669 1.8940001
-0.27327716 0.12536477 1.8940001
-0.26576132 0.1238616 1.8940001
-0.25614095 0.12356095 1.8940001
-0.2332927 0.1238616 1.8940001
-0.22367239 0.12265905 1.8940001
-0.21465334 0.12626667 1.8940001
-0.20563428 0.12446287 1.8940001
-0.19481143 0.12265905 1.8940001
-0.16595048 0.12265905 1.8940001
-0.15873523 0.12265905 1.8940001
-0.1334819 0.12265905 1.8940001
-0.12626667 0.12265905 1.8940001
-0.11472227 0.12554514 1.8940001
-0.10462096 0.12678204 1.8940002
-0.094249055 0.12671761 1.8940001
-0.084779054 0.12807047 1.8940001
-0.079367615 0.12807047 1.8940001
-0.30304 0.13528571 1.8940001
-0.29762858 0.1334819 1.8940001
-0.11364 0.13708952 1.8940001
-0.10534249 0.13564648 1.8940001
-0.093798101 0.13528572 1.8940001
-0.084779054 0.13528571 1.8940001
-0.078165077 0.13468444 1.8940001
-0.30484381 0.14430477 1.8940001
-0.14791238 0.14791238 1.8940001
-0.11441307 0.14430478 1.8940002
-0.10462095 0.14430477 1.8940002
-0.094249055 0.14385381 1.8940001
-0.084177785 0.1418997 1.8940001
-0.30664763 0.1533238 1.8940001
-0.14670984 0.15392508 1.8940001
-0.11183619 0.15512761 1.8940001
-0.10462095 0.15512761 1.8940002
-0.096503809 0.15422572 1.8940001
-0.30304 0.16775429 1.8940001
-0.29582477 0.16955811 1.8940001
-0.1875962 0.16955811 1.8940001
-0.18398857 0.17316572 1.8940001
-0.03427238 0.5429467 1.8940001
-0.025704287 0.54520142 1.8940001
-0.012626667 0.54655433 1.8940001
-0.027417904 0.55485183 1.8940001
-0.012025397 0.55437082 1.8940001
-0.0072152382 0.55918097 1.8940001
-0.032468572 0.56639618 1.8940001
-0.028860953 0.56639618 1.8940001
-0.03788 0.57000381 1.8940001
-0.0072152382 0.57721907 1.8940001
-0.010822858 0.58443433 1.8940001
-0.0072152382 0.58443433 1.8940001
0.016234286 0.5880419 1.8940001
0.011724763 0.59435523 1.8940001
-0.19656533 0.10734934 1.9040002
-0.16440891 0.10759111 1.904
-0.15594667 0.10698667 1.9040002
-0.14748445 0.10638222 1.904
-0.13056 0.1088 1.904
-0.12512 0.1088 1.904
-0.11605334 0.10880001 1.904
-0.29376 0.11968 1.904
-0.27562666 0.11968 1.904
-0.26474667 0.11968001 1.904
-0.25386667 0.11968001 1.904
-0.2448 0.11968 1.904
-0.23573336 0.11968001 1.904
-0.22666667 0.11968 1.904
-0.21034667 0.11968 1.904
-0.20430224 0.11847112 1.904
-0.19674666 0.11333334 1.904
-0.17045332 0.11242667 1.904
-0.16561779 0.11363556 1.904
-0.15957333 0.11242667 1.904
-0.13056 0.11242667 1.904
-0.12330666 0.11605334 1.904
-0.1156 0.1156 1.9040002
-0.10577777 0.11726223 1.9040002
-0.094293341 0.11968001 1.904
-0.08522667 0.11968 1.904
-0.077973336 0.11968 1.904
-0.30101332 0.12512 1.904
-0.29448533 0.12475734 1.9040002
-0.28469333 0.12330666 1.904
-0.27744001 0.12330666 1.904
-0.21397334 0.12330666 1.904
-0.10154667 0.12330666 1.904
-0.090666667 0.12330666 1.904
-0.08522667 0.12330666 1.904
-0.07543467 0.12475734 1.9040002
-0.066005334 0.12475734 1.9040002
-0.058026668 0.12330666 1.904
-0.31189334 0.13600001 1.904
-0.3070578 0.13418667 1.904
-0.073984005 0.13418667 1.9040002
-0.067456 0.13346133 1.9040002
-0.3137067 0.14506668 1.9040002
-0.30826667 0.14325334 1.904
-0.090666667 0.14869334 1.904
-0.085831121 0.14748445 1.904
-0.076159999 0.14506669 1.9040002
-0.06890668 0.14506668 1.904
-0.3137067 0.15594667 1.9040002
-0.30826667 0.15957333 1.904
-0.092117332 0.156672 1.9040002
-0.08522667 0.15594667 1.9040002
-0.077196196 0.15646476 1.9040003
-0.3137067 0.16501334 1.904
-0.30826667 0.16501334 1.904
-0.10336 0.16320001 1.904
-0.096106663 0.16320001 1.904
-0.084622227 0.16440891 1.904
-0.076885335 0.16537601 1.9040002
-0.32277334 0.17045332 1.904
-0.31552002 0.17226666 1.9040002
-0.30826667 0.17045332 1.904
-0.083413333 0.17045332 1.904
-0.076159999 0.17045334 1.904
-0.033848889 0.53553772 1.904
-0.025386667 0.53493327 1.9040002
-0.013781334 0.53529596 1.9040002
-0.034453332 0.54037333 1.904
-0.02448 0.54128003 1.904
-0.015413335 0.54490668 1.904
-0.02176 0.55669332 1.904
-0.016320001 0.55578667 1.904
-0.025386667 0.56503469 1.9040002
-0.014506668 0.56334221 1.904
-0.00544 0.56576002 1.904
-0.04352 0.57663995 1.904
-0.035360001 0.57573324 1.904
-0.04352 0.58208001 1.904
-0.035813332 0.58344001 1.9040002
-0.02176 0.58752 1.904
-0.015957335 0.58461869 1.9040002
-0.04352 0.59296 1.904
-0.035813332 0.59432 1.9040002
-0.26992381 0.10942857 1.9150001
-0.25168574 0.10760476 1.9150001
-0.23527144 0.10942857 1.9150001
-0.20609048 0.10942857 1.9150001
-0.10578096 0.10942857 1.9150002
-0.098485716 0.10942857 1.9150001
-0.082071431 0.10942857 1.9150001
-0.074776195 0.10578096 1.9150002
-0.065657139 0.10760477 1.9150002
-0.054714289 0.10760477 1.9150002
-0.04422738 0.10623691 1.9150001
-0.28269047 0.11672381 1.9150001
-0.27539524 0.11672381 1.9150001
-0.26627621 0.11581191 1.9150001
-0.25533336 0.11672382 1.9150002
-0.24439049 0.11672382 1.9150002
-0.23466352 0.11550795 1.9150002
-0.22706428 0.11581191 1.9150001
-0.21520953 0.11672382 1.9150002
-0.20669842 0.11429208 1.9150002
-0.10456508 0.11429208 1.9150002
-0.094838098 0.11490002 1.9150002
-0.083895236 0.11490002 1.9150002
-0.074776188 0.11490001 1.9150001
-0.065657146 0.11490002 1.9150002
-0.054714292 0.11490001 1.9150002
-0.043771431 0.11490002 1.9150002
-0.03526032 0.11550795 1.9150002
-0.31004763 0.12584285 1.9150001
-0.30518416 0.12401905 1.9150002
-0.29545715 0.12037143 1.9150001
-0.28633809 0.12037143 1.9150001
-0.27721906 0.12037143 1.9150001
-0.22250476 0.12037143 1.9150001
-0.21703334 0.12037143 1.9150001
-0.072952382 0.12037143 1.9150001
-0.06474524 0.12219524 1.9150001
-0.054258339 0.12401904 1.9150001
-0.043771431 0.12401906 1.9150001
-0.034652382 0.12401905 1.9150002
-0.029180953 0.12401905 1.9150001
-0.32220635 0.13739365 1.9150002
-0.31460714 0.13405001 1.9150001
-0.062921427 0.13587381 1.9150001
-0.054714289 0.1349619 1.9150001
-0.043771431 0.1349619 1.9150001
-0.035564288 0.13405 1.9150001
-0.32359594 0.14590476 1.9150002
-0.063833334 0.14590478 1.9150002
-0.054714289 0.14590478 1.9150001
-0.043771435 0.14590478 1.9150001
-0.035564285 0.14590476 1.9150001
-0.3239086 0.15538858 1.9150002
-0.072952382 0.15502381 1.9150001
-0.065657146 0.15502381 1.9150002
-0.054714292 0.15502381 1.9150002
-0.043771431 0.15502381 1.9150002
-0.036476191 0.15502381 1.9150001
-0.32244954 0.16341333 1.9150002
-0.093926199 0.16687858 1.9150001
-0.087542862 0.16779049 1.9150001
-0.072952382 0.16414286 1.9150001
-0.066178232 0.16310069 1.9150002
-0.054714289 0.16049525 1.9150002
-0.043771431 0.16231905 1.9150002
-0.034652382 0.16231905 1.9150001
-0.087542862 0.1714381 1.9150001
-0.032828573 0.5289048 1.9150001
-0.043771431 0.53802383 1.9150002
-0.03526032 0.5337683 1.9150002
-0.025533333 0.53255242 1.9150002
-0.017022222 0.5337683 1.9150002
-0.040123809 0.5434953 1.9150001
-0.016414287 0.5434953 1.9150001
-0.021885715 0.56902862 1.9150001
-0.015806351 0.56659687 1.9150002
-0.025012249 0.57736605 1.9150002
-0.014590477 0.57632381 1.9150001
-0.0072952388 0.57632381 1.9150002
-0.025533333 0.5854429 1.9150002
-0.014590477 0.58361906 1.9150001
-0.041947618 0.59091431 1.9150001
-0.26033333 0.10633333 1.9250001
-0.25666666 0.10633333 1.9250001
-0.24933335 0.10633333 1.9250001
-0.1045 0.10633333 1.9250001
-0.097166672 0.10633333 1.9250001
-0.083600007 0.10486666 1.9250001
-0.040333334 0.10266667 1.9250001
-0.036666665 0.10633333 1.9250001
-0.30250001 0.11733334 1.9250001
-0.29516667 0.11733334 1.9250001
-0.28691667 0.11458334 1.9250001
-0.27500004 0.11366668 1.9250001
-0.26308334 0.11183333 1.9250001
-0.25544447 0.11244445 1.9250001
-0.24658334 0.11275001 1.9250001
-0.23833334 0.11366667 1.9250001
-0.22000001 0.11366667 1.9250001
-0.21450001 0.11366667 1.9250001
-0.093500003 0.11000001 1.9250001
-0.088 0.11000001 1.9250001
-0.034222223 0.11122223 1.9250001
-0.31533334 0.12650001 1.9250001
-0.32706666 0.13493334 1.9250001
-0.31900001 0.132 1.9250001
-0.033 0.13750002 1.9250001
-0.029333334 0.132 1.9250001
-0.33366668 0.14483333 1.9250001
-0.32999998 0.14300001 1.9250001
-0.033 0.14300001 1.9250001
-0.33366668 0.15583333 1.9250001
-0.32999998 0.15216668 1.9250001
-0.033 0.15400001 1.9250001
-0.029333334 0.15766667 1.9250001
-0.33366668 0.16133334 1.9250001
-0.32908332 0.16591667 1.9250001
-0.029333334 0.16499999 1.9250001
-0.32999998 0.17233334 1.9250001
-0.034833334 0.528 1.9250001
-0.029333334 0.528 1.9250001
-0.041555557 0.53411114 1.9250001
-0.036666665 0.53166664 1.9250001
-0.025666667 0.53166664 1.9250001
-0.0165 0.53166664 1.9250001
-0.26550859 0.10694096 1.9360001
-0.092190482 0.10509715 1.9360001
-0.088502862 0.10325334 1.9360001
-0.035032384 0.10509715 1.9360001
-0.27657145 0.11062858 1.9360001
-0.26550859 0.11062858 1.9360001
-0.24522668 0.11062858 1.9360001
-0.026550859 0.11652877 1.9360001
-0.32082286 0.12906668 1.9360001
-0.31344765 0.12169144 1.9360001
-0.30976 0.12169144 1.9360001
-0.025813337 0.12485227 1.9360001
-0.015365082 0.12476446 1.9360001
-0.0073752385 0.12537906 1.9360001
-0.33557335 0.13644192 1.9360001
-0.025075812 0.13496688 1.9360001
-0.016594287 0.13459811 1.9360001
-0.33803177 0.14381716 1.9360002
-0.028579049 0.14289524 1.9360001
-0.33833906 0.1539581 1.9360001
-0.027657144 0.15488002 1.9360001
-0.33778593 0.16668038 1.9360001
-0.027657144 0.16409905 1.9360001
-0.33557335 0.1733181 1.9360001
-0.070064761 0.51995432 1.9360001
-0.070064761 0.52364194 1.9360001
-0.042407621 0.52732956 1.9360001
-0.035032384 0.52732956 1.9360001
-0.029500954 0.52732956 1.9360001
-0.052855879 0.5371632 1.9360002
-0.045480639 0.53347558 1.9360001
-0.053470477 0.54392385 1.9360001
0.071699053 -0.058100961 1.9470003
0.089005724 -0.059337147 1.9470001
0.092714287 -0.059337147 1.9470001
-0.05192 0.10384 1.9470001
-0.033377144 0.10384 1.9470001
-0.027814288 0.10754858 1.9470001
-0.31152004 0.11867429 1.9470001
-0.30039433 0.11496572 1.9470001
-0.29668573 0.11496572 1.9470001
-0.28185144 0.11125715 1.9470001
-0.025032859 0.1121843 1.9470001
-0.015576 0.11719086 1.9470001
-0.3300629 0.12980001 1.9470001
-0.32511812 0.12732762 1.9470003
-0.31893718 0.12238287 1.9470001
-0.022251431 0.12980001 1.9470001
-0.013598097 0.12732764 1.9470003
-0.0051920004 0.12609145 1.9470001
0.0012361906 0.12485525 1.9470003
-0.34118858 0.13721716 1.9470001
-0.33562574 0.13350858 1.9470001
-0.011125715 0.13536286 1.9470001
-0.0061809532 0.13474476 1.9470003
-0.34366101 0.14463429 1.9470003
-0.023734858 0.14537601 1.9470001
-0.015297857 0.14417073 1.9470003
-0.34489721 0.15576002 1.9470003
-0.023178574 0.15483287 1.9470001
-0.01854286 0.15576002 1.9470003
0.02596 0.15946859 1.9470001
-0.34489718 0.16503143 1.9470001
-0.023487624 0.16441333 1.9470003
0.02596 0.16317715 1.9470001
-0.072317146 0.50621998 1.9470001
-0.064900003 0.50621998 1.9470001
-0.057482861 0.50807428 1.9470001
-0.042648576 0.5006572 1.9470001
-0.072317146 0.51363719 1.9470001
-0.064900003 0.51549149 1.9470003
-0.056092143 0.51595509 1.9470003
-0.044502866 0.51920003 1.9470003
-0.03523143 0.51920003 1.9470001
-0.075407624 0.52538097 1.9470003
-0.064900003 0.52476287 1.9470001
-0.055628575 0.52476287 1.9470003
-0.044502862 0.52476287 1.9470003
-0.03523143 0.52476287 1.9470001
-0.072317146 0.53403437 1.9470003
-0.064900003 0.53403437 1.9470003
-0.056092143 0.53357077 1.9470003
-0.048211433 0.53032577 1.9470001
-0.024105716 0.53218007 1.9470001
-0.018542858 0.53403431 1.9470001
-0.071946286 0.54441833 1.9470001
-0.064900003 0.54516006 1.9470003
-0.05933715 0.54516006 1.9470003
-0.35602289 0.57668293 1.9470001
0.096967623 -0.1268038 1.9580001
0.078319997 -0.093238093 1.9580001
0.078319997 -0.085779049 1.9580001
0.085779056 -0.082049534 1.9580001
0.095102862 -0.082049526 1.9580001
0.10256191 -0.082049526 1.9580001
0.0634019 -0.070860952 1.9580001
0.074590474 -0.074124292 1.9580001
0.085779056 -0.074590482 1.9579999
0.094729908 -0.075336382 1.9580001
0.10256191 -0.078319997 1.9580001
0.056688763 -0.064893715 1.9580001
0.065266669 -0.065266669 1.9580001
0.074590474 -0.065266669 1.9580001
0.085779056 -0.065266669 1.9580001
0.093238093 -0.065266669 1.9580001
0.057008438 -0.056475651 1.9580002
0.065266669 -0.05594286 1.9580001
0.075833648 -0.054699685 1.9580001
0.085312866 -0.055476669 1.9580001
0.093238093 -0.054078095 1.9580001
0.057807621 -0.04661905 1.9580001
0.065266669 -0.044754289 1.9580001
0.074590482 -0.044754289 1.9579999
0.085779056 -0.044754289 1.9579999
0.093238093 -0.042889524 1.9580001
0.06713143 -0.037295237 1.9580001
0.074590474 -0.035430476 1.9580001
0.085779056 -0.035430476 1.9580001
0.093238093 -0.037295237 1.9580001
0.074590474 -0.026106667 1.9579999
0.085312866 -0.026572859 1.9580001
0.093238093 -0.029836191 1.9580001
0.048483811 -0.011188571 1.9580001
0.05594286 -0.011188572 1.9580001
0.066199049 -0.013985714 1.9580001
0.074590482 -0.014918095 1.9579999
0.085312866 -0.014918095 1.9580001
0.048483811 -0.0037295239 1.9580001
0.05594286 -0.0055942861 1.9580001
0.065266669 -0.0055942857 1.9580001
0.074590474 -0.0055942861 1.9580001
0.085033141 -0.0052213334 1.9580001
0.048483811 0 1.9580001
0.05594286 0 1.9580001
0.065266669 0 1.9580001
0.075833648 0.0012431747 1.9580001
0.086245246 0.0032633333 1.9580001
0.11748 0.0018647619 1.9580001
0.082049526 0.011188571 1.9580001
-0.025360763 0.10442667 1.9580001
-0.31700954 0.11934476 1.9580001
-0.30768573 0.11561524 1.9580001
-0.29276764 0.11188572 1.9580001
-0.28717333 0.11188572 1.9580001
-0.013985714 0.1128181 1.9580001
-0.0055942861 0.11561524 1.9580001
0.0037295239 0.11561523 1.9579999
0.011188571 0.11934476 1.9580001
-0.33192763 0.1268038 1.9580001
-0.32446858 0.12307428 1.9580001
0.0062158732 0.12431745 1.9580001
0.014172191 0.125312 1.9580001
-0.34311619 0.13426286 1.9580001
-0.33752191 0.13053332 1.9580001
-0.0037295239 0.13799238 1.9580001
0.0037295239 0.13426286 1.9579999
0.013053334 0.13426286 1.9580001
-0.35057524 0.14731619 1.9580001
-0.34684572 0.1417219 1.9580001
-0.011188571 0.14918095 1.9580001
-0.0055942861 0.14545143 1.9580001
0.0037295239 0.14545144 1.9579999
0.014918095 0.14545144 1.9579999
-0.35057524 0.15477523 1.9580001
-0.013053333 0.15477523 1.9580001
-0.0055942857 0.15477523 1.9580001
0.0037295239 0.15477523 1.9580001
0.014172191 0.15514819 1.9580001
-0.35057524 0.16223428 1.9580001
-0.014451905 0.16456524 1.9580001
-0.0055942861 0.16409905 1.9580001
0.0037295239 0.16409905 1.9579999
0.014385307 0.16303347 1.9580002
0.026106667 0.16223428 1.9580001
0.035430476 0.16223428 1.9580001
-0.013053333 0.1715581 1.9580001
-0.0055942857 0.1715581 1.9580001
0.0018647619 0.1715581 1.9580001
-0.0634019 0.48856765 1.9580001
-0.072104126 0.49851304 1.9580001
-0.064893715 0.49677259 1.9580001
-0.05594286 0.49649289 1.9580001
-0.046992 0.49677259 1.9580001
-0.072725713 0.50348574 1.9580001
-0.065266669 0.50348574 1.9580001
-0.05594286 0.50535047 1.9580001
-0.04568667 0.50628287 1.9580001
-0.037295237 0.5072152 1.9580001
-0.052213334 0.51280951 1.9580001
-0.044754289 0.51467437 1.9579999
-0.035430476 0.51467431 1.9580001
-0.029836191 0.51094478 1.9580001
-0.027172247 0.52639568 1.9580002
-0.078319997 0.53518665 1.9580001
-0.36176383 0.56688762 1.9580001
-0.35355887 0.56539583 1.9580001
-0.34498096 0.56502289 1.9580001
-0.33938667 0.56688762 1.9580001
-0.35383859 0.57388049 1.9580001
-0.34591335 0.57527906 1.9580001
-0.33814353 0.57683307 1.9580001
-0.36176383 0.58553523 1.9580001
-0.35430476 0.58491367 1.9580001
-0.34498096 0.58553529 1.9580001
-0.33752191 0.58553529 1.9580001
0.095637143 -0.15001905 1.9690001
0.078760006 -0.1425181 1.9690001
0.082510479 -0.14439334 1.9690001
0.093761913 -0.14439334 1.9690001
0.077822387 -0.13407952 1.9690001
0.084010676 -0.13426706 1.9690001
0.093761899 -0.13501714 1.9690001
0.10351314 -0.13351695 1.9690001
0.065633334 -0.12001524 1.9690001
0.075478338 -0.1232969 1.969
0.084385723 -0.12376573 1.9690001
0.093293093 -0.12329692 1.969
0.10501333 -0.12564096 1.9690001
0.063758105 -0.11438952 1.9690001
0.075009525 -0.11438952 1.9690001
0.083760642 -0.11501461 1.9690002
0.093761913 -0.11626476 1.9690002
0.10126286 -0.11626476 1.9690001
0.056257151 -0.10501333 1.9690002
0.063758098 -0.10501335 1.9690001
0.075009525 -0.10501334 1.9690001
0.084010676 -0.10426324 1.9690001
0.048756193 -0.090011433 1.9690001
0.054381907 -0.093761913 1.9690001
0.063758105 -0.093761906 1.9690001
0.073937967 -0.094297692 1.9690001
0.084385723 -0.093761913 1.9690001
0.093293093 -0.093293093 1.969
0.10126286 -0.091886669 1.9690001
0.046880957 -0.084385715 1.9690001
0.054381907 -0.084385723 1.9690001
0.063758105 -0.084385723 1.9690001
0.07425943 -0.084760778 1.9690001
0.084385723 -0.08626096 1.9690001
0.093761913 -0.08626096 1.9690002
0.10626349 -0.085010812 1.9690002
0.11438952 -0.084385723 1.9690001
0.046880957 -0.075009525 1.9690001
0.054381907 -0.075009525 1.9690001
0.063758098 -0.075478338 1.969
0.075009525 -0.078760006 1.9690001
0.097512387 -0.071259052 1.9690001
0.10501333 -0.075009525 1.9690001
0.11376445 -0.077509843 1.9690002
0.046880957 -0.063758105 1.9690001
0.05250667 -0.067508571 1.9690001
0.097512387 -0.063758098 1.9690002
0.10126286 -0.063758098 1.9690002
0.046880953 -0.054381907 1.9690001
0.05250667 -0.054381907 1.9690001
0.097512387 -0.056257147 1.9690001
0.046880957 -0.04500572 1.9690001
0.053444289 -0.044068098 1.9690001
0.060007621 -0.041255239 1.9690001
0.096574768 -0.045943335 1.9690001
0.10276306 -0.044255622 1.9690001
0.11438952 -0.045005716 1.9690001
0.046880957 -0.033754289 1.9690001
0.054381914 -0.033754289 1.9690001
0.063289292 -0.033285476 1.969
0.096574768 -0.033754285 1.9690001
0.10394178 -0.033218507 1.9690001
0.11438952 -0.03000381 1.9690001
0.046880957 -0.024378095 1.9690001
0.054381907 -0.024378097 1.9690001
0.063758105 -0.024378097 1.9690001
0.094512001 -0.024003047 1.9690001
0.10426325 -0.024753144 1.9690001
0.11438952 -0.026253335 1.9690001
0.046505909 -0.015752001 1.9690001
0.054381911 -0.016877143 1.9690001
0.061882857 -0.016877143 1.9690001
0.094833478 -0.015001906 1.9690001
0.10394178 -0.014466124 1.9690001
0.044255622 -0.0060007623 1.9690001
0.094512008 -0.0060007623 1.9690001
0.10126286 -0.0056257145 1.9690001
0.11438952 -0.0037504763 1.9690001
0.12001524 -0.0037504763 1.9690001
0.045755815 0.0030003812 1.9690001
0.054381907 0.0056257145 1.9690001
0.063758105 0.005625715 1.9690001
0.074384451 0.0050006351 1.9690001
0.082510479 0.0075009526 1.9690001
0.095637143 0.0037504765 1.9690001
0.10126286 0.0037504765 1.9690002
0.11251429 0.0037504763 1.9690001
0.048756193 0.015001906 1.9690002
0.054381907 0.015001906 1.9690001
0.063758105 0.015001905 1.9690001
0.075009532 0.015001905 1.9690001
0.084760778 0.015752001 1.9690001
0.09322612 0.01393034 1.9690001
0.10126286 0.011251429 1.9690001
0.056257147 0.022502858 1.9690001
0.063758098 0.024003049 1.9690001
0.075009525 0.024378097 1.9690001
0.083760642 0.023753017 1.9690002
0.090011433 0.022502858 1.9690001
0.061882861 0.03000381 1.9690001
0.075009525 0.030003812 1.9690002
0.082510479 0.031879049 1.9690001
-0.03000381 0.10126286 1.9690001
-0.022502858 0.10126286 1.9690001
-0.015001906 0.10688858 1.9690001
-0.0050006351 0.10751366 1.9690002
0.0037504765 0.10876381 1.9690002
0.013126668 0.10876381 1.9690001
-0.31691527 0.11626476 1.9690001
-0.3037886 0.11251429 1.9690001
0.015001904 0.11438952 1.9690001
-0.34129336 0.1275162 1.9690001
-0.33379239 0.12501588 1.9690002
-0.32254097 0.12001524 1.9690001
0.017502222 0.1212654 1.9690002
0.023440478 0.12470335 1.9690001
0.03000381 0.1275162 1.9690001
-0.34754413 0.13501716 1.9690002
0.018752381 0.13501716 1.9690002
0.024378097 0.13501716 1.9690001
-0.35442001 0.14439334 1.9690001
0.024378097 0.14439334 1.9690001
0.03000381 0.1425181 1.9690001
-0.35629529 0.15376954 1.9690002
0.018752381 0.15376952 1.9690001
0.024378097 0.15376954 1.9690001
-0.35629526 0.16314572 1.9690001
-0.07375937 0.49631307 1.9690002
-0.065008253 0.49256259 1.9690002
-0.055006988 0.49256259 1.9690002
-0.03000381 0.51756573 1.9690001
-0.026253335 0.51756573 1.9690001
-0.31504002 0.52881718 1.9690002
-0.03000381 0.52131623 1.9690001
-0.026253335 0.52131623 1.9690001
-0.32441622 0.5344429 1.9690001
-0.31504005 0.53256768 1.9690002
-0.33004192 0.54381907 1.9690001
-0.32441622 0.54381913 1.9690001
-0.36004576 0.55507052 1.9690002
-0.35479507 0.55582058 1.9690001
-0.34691906 0.55882096 1.9690001
-0.32629144 0.55132002 1.9690001
-0.36379623 0.56632197 1.9690002
-0.35629526 0.56257141 1.9690001
-0.34504384 0.56382155 1.9690002
-0.33379239 0.56632197 1.9690002
-0.34379372 0.57507312 1.9690002
-0.33379239 0.57382286 1.9690001
-0.32441622 0.57569814 1.9690001
-0.3187905 0.57757336 1.9690001
-0.3322922 0.58507431 1.9690001
-0.32479128 0.58582443 1.9690001
-0.31691527 0.5813238 1.9690001
0.12634286 -0.23005715 1.9800001
0.11691429 -0.22628573 1.9800001
0.12521143 -0.22477715 1.9800001
0.12521145 -0.21421717 1.9800001
0.096171439 -0.18857144 1.9800001
0.095040016 -0.16745143 1.9800001
0.0792 -0.15462857 1.9800003
0.083914295 -0.15368572 1.9800001
0.095040016 -0.15538286 1.9800001
0.10182858 -0.15085715 1.9800001
0.074674293 -0.14557716 1.9800001
0.086742863 -0.14520001 1.9800001
0.10182858 -0.14520001 1.9800001
0.065057151 -0.13388571 1.9800001
0.073165722 -0.13652574 1.9800001
0.086742863 -0.13954286 1.9800001
0.10685715 -0.13702857 1.9800003
0.11314286 -0.132 1.9800001
0.056571431 -0.12068572 1.9800001
0.063575521 -0.12553471 1.9800003
0.071657151 -0.12822859 1.9800001
0.10560001 -0.12068572 1.9800003
0.11440001 -0.1257143 1.9800003
0.055314295 -0.11440001 1.9800003
0.086742863 -0.11314286 1.9800001
0.094285727 -0.11314287 1.9800003
0.10748573 -0.11691429 1.9800001
0.049028575 -0.10560001 1.9800003
0.052800007 -0.10560001 1.9800003
0.086742863 -0.10937144 1.9800001
0.094285727 -0.10560001 1.9800001
0.10371429 -0.10560001 1.9800001
0.047771435 -0.094285727 1.9800003
0.098057151 -0.098057151 1.9800001
0.10560001 -0.093342863 1.9800001
0.11502858 -0.090514295 1.9800001
0.12068572 -0.090514295 1.9800001
0.041485716 -0.082971431 1.9800001
0.10560001 -0.086742863 1.9800001
0.12068572 -0.086742863 1.9800001
0.041485719 -0.075428575 1.9800003
0.10748573 -0.071657151 1.9800001
0.11314286 -0.071657151 1.9800001
0.037714288 -0.064114295 1.9800003
0.041485719 -0.064114295 1.9800003
0.10748573 -0.064114295 1.9800003
0.11314287 -0.064114295 1.9800003
0.037714288 -0.054685719 1.9800001
0.041485716 -0.054685719 1.9800001
0.098057151 -0.052800003 1.9800001
0.10182858 -0.054685719 1.9800001
0.037714288 -0.045257147 1.9800003
0.041485719 -0.045257147 1.9800003
0.10842858 -0.046200003 1.9800001
0.11502858 -0.045257144 1.9800001
0.037714288 -0.035828575 1.9800001
0.041485719 -0.03394286 1.9800003
0.10937144 -0.035828575 1.9800001
0.11502858 -0.035828575 1.9800001
0.037714288 -0.024514288 1.9800001
0.041485716 -0.024514288 1.9800001
0.10937144 -0.022628574 1.9800001
0.11502858 -0.022628574 1.9800001
0.037714288 -0.015085715 1.9800003
0.041485719 -0.015085715 1.9800003
0.10937144 -0.01697143 1.9800001
0.11502858 -0.015085716 1.9800003
0.035828575 -0.005657143 1.9800001
0.10685715 -0.0062857149 1.9800003
0.11502858 -0.0075428574 1.9800001
0.12068572 -0.0075428574 1.9800001
0.037714288 0.0018857144 1.9800001
0.04274286 0.0062857149 1.9800003
0.10560001 0.0018857144 1.9800001
0.044314291 0.014142858 1.9800001
0.096171439 0.018857144 1.9800001
0.10182858 0.01697143 1.9800001
0.049028575 0.022628574 1.9800001
0.054057147 0.02514286 1.9800003
0.064114295 0.026400002 1.9800001
0.086742863 0.026400002 1.9800001
0.095040016 0.024891431 1.9800001
0.10182858 0.022628574 1.9800001
0.056571435 0.03394286 1.9800003
0.064653069 0.035020411 1.9800003
0.075428575 0.035828575 1.9800003
0.085800007 0.034885716 1.9800001
0.094285727 0.03394286 1.9800001
0.10182858 0.032057144 1.9800001
0.064114295 0.041485719 1.9800003
0.075428575 0.043371435 1.9800003
0.084857151 0.045257147 1.9800003
0.092400007 0.041485716 1.9800001
-0.018857144 0.098057151 1.9800001
-0.29794288 0.10937144 1.9800001
-0.015085716 0.10182859 1.9800003
-0.0062857149 0.10308573 1.9800003
0.0030171431 0.10409144 1.9800001
0.016028572 0.10654286 1.9800001
-0.32434288 0.11691429 1.9800001
-0.3130286 0.11314286 1.9800001
-0.30548573 0.11314286 1.9800001
0.023885718 0.11565715 1.9800003
-0.3432 0.12445715 1.9800001
-0.33565718 0.12257144 1.9800001
-0.3281143 0.12068572 1.9800001
0.026400002 0.12257144 1.9800001
0.033000004 0.12540002 1.9800001
0.041485716 0.12822859 1.9800001
-0.3545143 0.13671429 1.9800001
0.032865308 0.13523267 1.9800003
0.045257147 0.132 1.9800001
-0.35828573 0.1433143 1.9800001
0.034697145 0.14557716 1.9800001
0.043371432 0.14520001 1.9800001
-0.36205718 0.15462857 1.9800003
0.032865308 0.15408981 1.9800003
-0.36205718 0.16217144 1.9800001
-0.3130286 0.528 1.9800001
-0.30925718 0.528 1.9800001
-0.33314288 0.53805721 1.9800003
-0.32622859 0.53177148 1.9800001
-0.30925718 0.53365719 1.9800001
-0.29228574 0.53931433 1.9800001
-0.36205718 0.54497147 1.9800001
-0.3545143 0.54685724 1.9800003
-0.33440003 0.54560006 1.9800003
-0.35376 0.55364579 1.9800001
-0.34508574 0.55628574 1.9800001
-0.33565718 0.55547762 1.9800003
-0.3658286 0.56382859 1.9800001
-0.3545143 0.56571436 1.9800001
-0.3432 0.56382859 1.9800001
-0.33754289 0.56382859 1.9800001
-0.33188573 0.58834291 1.9800001
-0.32434291 0.58457148 1.9800003
0.12141715 -0.25042287 1.9920001
0.11382858 -0.24511087 1.9920002
0.12331429 -0.24473146 1.9920001
0.10529143 -0.23429716 1.9920001
0.11382858 -0.23477142 1.9920003
0.12141715 -0.23145144 1.9920001
0.09675429 -0.22006857 1.9920001
0.10472228 -0.22386287 1.9920002
0.11328654 -0.22332084 1.9920003
0.12141715 -0.22196573 1.9920001
0.09675429 -0.21437715 1.9920001
0.10434286 -0.21437715 1.9920001
0.11382857 -0.21437716 1.9920003
0.12521145 -0.21627431 1.9920001
0.087268576 -0.20109715 1.9920001
0.09533143 -0.20441715 1.9920003
0.10434286 -0.20489144 1.9920003
0.11382858 -0.20489144 1.9920003
0.1246694 -0.20597555 1.9920003
0.087268576 -0.19540572 1.9920001
0.094857149 -0.19540572 1.9920003
0.10434286 -0.19540572 1.9920001
0.11306971 -0.19578515 1.9920002
0.079680003 -0.18402286 1.9920001
0.085371435 -0.18592 1.9920003
0.094315104 -0.18483593 1.9920003
0.10371049 -0.18718478 1.9920001
0.11003429 -0.1897143 1.9920001
0.078731433 -0.17358857 1.9920001
0.085371435 -0.17453717 1.9920003
0.094315104 -0.17562124 1.9920003
0.10244572 -0.17453715 1.9920001
0.12521145 -0.17453715 1.9920001
0.076644577 -0.164672 1.9920002
0.085371435 -0.16505143 1.9920001
0.094857149 -0.16315429 1.9920001
0.10244572 -0.16505143 1.9920001
0.068297148 -0.15366858 1.9920001
0.073988579 -0.15556574 1.9920003
0.087268576 -0.15746287 1.9920001
0.091062859 -0.15746287 1.9920001
0.10371049 -0.15683049 1.9920001
0.064028576 -0.14465716 1.9920003
0.10624 -0.14418288 1.9920001
0.11382857 -0.14228573 1.9920003
0.056914289 -0.1328 1.9920001
0.064502865 -0.1365943 1.9920001
0.1163581 -0.13532953 1.9920001
0.05564953 -0.12521145 1.9920001
0.1163581 -0.12394667 1.9920001
0.12141715 -0.12331429 1.9920001
0.049325716 -0.11572572 1.9920001
0.053120002 -0.11762286 1.9920001
0.10371049 -0.11256381 1.9920001
0.11430287 -0.1133543 1.9920003
0.12331429 -0.11003429 1.9920001
0.045531429 -0.10434286 1.9920001
0.10497525 -0.10497525 1.9920001
0.11193143 -0.10624 1.9920001
0.043634288 -0.094857141 1.9920001
0.10624 -0.098651432 1.9920001
0.11382858 -0.096754298 1.9920003
0.12141715 -0.09675429 1.9920001
0.03794286 -0.083474286 1.9920001
0.041737143 -0.087268576 1.9920001
0.036425143 -0.075126864 1.9920002
0.034148574 -0.064502865 1.9920001
0.034148574 -0.055017143 1.9920001
0.10624 -0.055017143 1.9920001
0.11382857 -0.055017151 1.9920003
0.034148574 -0.045531433 1.9920001
0.035097145 -0.033200003 1.9920001
0.032883815 -0.024030477 1.9920001
0.032251433 -0.015177145 1.9920003
0.030354287 -0.0056914287 1.9920001
0.11003429 -0.0037942859 1.9920001
0.034148574 0.0037942862 1.9920002
0.10624 0.0075885719 1.9920001
0.11256381 0.004426667 1.9920003
0.12331429 0.0075885719 1.9920001
0.036678098 0.012647619 1.9920001
0.041737143 0.017074287 1.9920001
0.10624 0.015177144 1.9920001
0.11382858 0.015177143 1.9920003
0.12331429 0.015177144 1.9920003
0.045531429 0.024030477 1.9920001
0.10497525 0.025295239 1.9920001
0.11382858 0.024662858 1.9920003
0.12331429 0.024662856 1.9920001
0.049325716 0.032251433 1.9920001
0.053120002 0.034148574 1.9920001
0.10529143 0.035097145 1.9920001
0.11306971 0.031872004 1.9920002
0.05564953 0.043001905 1.9920001
0.064502865 0.047428571 1.9920003
0.075885728 0.049325716 1.9920001
0.095399186 0.046615515 1.9920003
0.10396343 0.04629029 1.9920002
0.066400006 0.053120002 1.9920001
0.075885728 0.053120002 1.9920001
0.085371435 0.053120002 1.9920001
0.094857149 0.053120002 1.9920001
0.10434286 0.053120002 1.9920001
-0.013280001 0.09675429 1.9920001
0.0037942859 0.098651432 1.9920001
-0.30354288 0.10624 1.9920001
0.0075885719 0.10244572 1.9920001
0.015177144 0.10244572 1.9920001
0.022765715 0.10624 1.9920001
-0.33389717 0.11762287 1.9920001
-0.3225143 0.11382858 1.9920001
-0.31682289 0.11193143 1.9920001
-0.30544001 0.11003429 1.9920001
-0.29405713 0.11003429 1.9920001
-0.2864686 0.11003429 1.9920001
0.025295239 0.11129905 1.9920001
0.03161905 0.1163581 1.9920001
-0.35286859 0.12900572 1.9920001
-0.3465448 0.12521145 1.9920001
-0.33769146 0.12141715 1.9920001
0.035413336 0.12394667 1.9920001
0.047428571 0.12900572 1.9920001
0.055017143 0.12900572 1.9920001
-0.36235428 0.1365943 1.9920001
-0.3566629 0.1328 1.9920001
0.03794286 0.1365943 1.9920001
0.045531433 0.13507657 1.9920002
0.053120002 0.1365943 1.9920001
-0.36425146 0.14418288 1.9920001
0.03794286 0.14038858 1.9920001
0.047049146 0.14266515 1.9920002
-0.36804575 0.15556572 1.9920001
0.03794286 0.15746287 1.9920001
0.044447348 0.15502368 1.9920003
-0.36804575 0.16315429 1.9920001
0.043634288 0.16505143 1.9920001
-0.094098292 0.48794517 1.9920002
-0.08600381 0.48693341 1.9920001
-0.072091438 0.48946288 1.9920001
-0.068297148 0.48946288 1.9920001
-0.094857149 0.49325716 1.9920001
-0.073988579 0.49515432 1.9920001
-0.068297148 0.49325716 1.9920001
-0.079680003 0.50463998 1.9920001
-0.079680003 0.51222861 1.9920001
-0.33389717 0.52550864 1.9920003
-0.3225143 0.52740574 1.9920001
-0.31682289 0.52740574 1.9920001
-0.29216 0.52740574 1.9920001
-0.2853303 0.52588809 1.9920002
-0.34433144 0.53784001 1.9920001
-0.33516192 0.53372955 1.9920003
-0.32441145 0.53119999 1.9920001
-0.31872001 0.53119999 1.9920001
-0.30544001 0.5349943 1.9920003
-0.29468954 0.53372955 1.9920001
-0.28457147 0.53878868 1.9920001
-0.36045715 0.54637718 1.9920001
-0.35413337 0.54511243 1.9920001
-0.34528002 0.54448009 1.9920003
-0.30354288 0.54258287 1.9920001
-0.35286859 0.55396569 1.9920001
-0.34528002 0.55206859 1.9920003
0.11636477 -0.28423524 2.003
0.12208762 -0.28232762 2.003
0.11636477 -0.27851236 2.003
0.12437677 -0.27469715 2.003
0.11541096 -0.26420525 2.003
0.12335937 -0.26579496 2.003
0.097288571 -0.25180572 2.003
0.10491905 -0.25371334 2.003
0.11445715 -0.25562096 2.003
0.12208762 -0.25562096 2.003
0.087750472 -0.24036001 2.003
0.096471027 -0.24363022 2.0030003
0.10453752 -0.24493828 2.003
0.11445715 -0.24226762 2.003
0.12590286 -0.24036001 2.003
0.087750472 -0.23463714 2.003
0.095380954 -0.23463717 2.0030003
0.10301143 -0.23654477 2.003
0.12590286 -0.23654477 2.003
0.085842863 -0.22509906 2.0030003
0.094835922 -0.22618911 2.0030003
0.10301143 -0.22509904 2.003
0.11445715 -0.22509904 2.003
0.085842855 -0.21556094 2.003
0.091565713 -0.21556094 2.003
0.084571116 -0.20602286 2.0030003
0.091565713 -0.20983809 2.003
0.12781048 -0.20220762 2.003
0.076304764 -0.19266953 2.003
0.081646092 -0.1953402 2.003
0.11700064 -0.19203365 2.003
0.12463111 -0.1933054 2.0030003
0.068674289 -0.18313143 2.003
0.074397147 -0.18503904 2.003
0.10555492 -0.18567494 2.003
0.11445715 -0.18503907 2.0030003
0.12590286 -0.18503904 2.0030003
0.067148194 -0.1747379 2.003
0.074015625 -0.176264 2.003
0.10682666 -0.17550096 2.003
0.11445715 -0.17550096 2.003
0.12590286 -0.17550096 2.0030003
0.064859048 -0.16405524 2.003
0.072489522 -0.16787048 2.003
0.10682666 -0.16405523 2.003
0.11445715 -0.16405521 2.003
0.12590285 -0.16405524 2.003
0.057228573 -0.15260953 2.003
0.062951431 -0.15451714 2.003
0.10682666 -0.15260953 2.003
0.11445715 -0.15451714 2.0030003
0.12208762 -0.15642476 2.003
0.056274764 -0.14402524 2.003
0.10682666 -0.14879429 2.003
0.11445715 -0.14879429 2.003
0.12361372 -0.14421602 2.003
0.049598094 -0.13353334 2.003
0.054685079 -0.13607684 2.003
0.12335937 -0.13480508 2.003
0.049598094 -0.12590286 2.003
0.053413332 -0.12781048 2.003
0.12590286 -0.12463112 2.003
0.04451111 -0.11191365 2.003
0.12399524 -0.11636477 2.003
0.041967619 -0.10491905 2.003
0.11445715 -0.10428318 2.003
0.12399524 -0.10682666 2.003
0.038152382 -0.09347333 2.003
0.041967619 -0.099196188 2.003
0.035608891 -0.083935231 2.003
0.030521905 -0.074397147 2.003
0.030521905 -0.064859055 2.003
0.030521905 -0.055320952 2.003
0.030521905 -0.045782857 2.003
0.026706666 -0.030521905 2.003
0.030521905 -0.034337148 2.003
0.026706666 -0.024799047 2.003
0.030521905 -0.026706666 2.003
0.026706666 -0.015260953 2.003
0.026706666 -0.0057228571 2.003
0.026706666 0 2.003
0.030521905 0.0057228571 2.003
0.033574101 0.016023999 2.003
0.036880638 0.024163175 2.003
0.04387524 0.026706666 2.003
0.038152382 0.030521905 2.003
0.045146983 0.034337144 2.0030003
0.11541096 0.037198573 2.003
0.12361372 0.033574097 2.003
0.048644282 0.044829044 2.003
0.054685079 0.048326351 2.003
0.10682666 0.041967619 2.003
0.11398023 0.045305956 2.003
0.12208762 0.04387524 2.003
0.049598094 0.053413332 2.003
0.055956826 0.054685079 2.003
0.063905239 0.056274764 2.003
0.074397147 0.057228573 2.003
0.083935231 0.057228576 2.003
0.095380954 0.057228576 2.003
0.10301143 0.057228573 2.003
0.064859048 0.06104381 2.003
0.083935231 0.06104381 2.003
0.091565713 0.06104381 2.003
0.10301143 0.06104381 2.003
-0.0057228571 0.097288571 2.003
0.0047690477 0.097288571 2.003
0.015260953 0.097288571 2.0030003
0.024799047 0.097288571 2.003
-0.31475717 0.10682666 2.003
-0.30521905 0.10682666 2.003
-0.29504508 0.10555492 2.003
0.025434922 0.10428318 2.003
0.031793654 0.10555492 2.003
-0.34337142 0.11827239 2.003
-0.33574098 0.11445715 2.003
-0.32429525 0.11191365 2.003
-0.31284952 0.1106419 2.003
-0.28232762 0.1106419 2.003
-0.27851236 0.1106419 2.003
0.035100192 0.11369409 2.003
0.041967619 0.11827239 2.003
-0.36244762 0.1297181 2.003
-0.35558018 0.12513982 2.003
-0.34718665 0.12208762 2.003
0.038152382 0.12208762 2.003
0.04387524 0.12399524 2.003
-0.37007809 0.13734858 2.003
-0.36435524 0.13353334 2.003
-0.37198576 0.14497906 2.0030003
-0.37198573 0.15451714 2.003
0.049598094 0.15642476 2.003
0.055320952 0.15642476 2.003
-0.37389335 0.16214761 2.003
0.049598094 0.16214761 2.003
0.055320952 0.16214761 2.003
-0.099196188 0.48835048 2.003
-0.080119997 0.48835048 2.003
-0.076304764 0.48835048 2.003
-0.10428318 0.49343747 2.003
-0.096334763 0.49788857 2.003
-0.082845174 0.49598098 2.0030003
-0.076304764 0.49216568 2.003
-0.095380947 0.50456524 2.003
-0.083935231 0.50551903 2.003
-0.30521905 0.51887238 2.003
-0.29568094 0.51887238 2.003
-0.28995809 0.51887238 2.003
-0.093473338 0.51505721 2.0030003
-0.085842863 0.51505709 2.0030003
-0.34527904 0.52650285 2.003
-0.32353219 0.52497679 2.003
-0.31475717 0.52459526 2.003
-0.30521905 0.52459526 2.0030003
-0.29568094 0.52459526 2.003
-0.28518906 0.52364141 2.003
-0.27851236 0.52650285 2.003
-0.091565713 0.52268761 2.003
-0.35100189 0.53794855 2.003
-0.34566057 0.53337032 2.003
-0.32811046 0.53031808 2.003
-0.31284952 0.53031808 2.003
-0.30426523 0.53222573 2.003
-0.29663476 0.53508717 2.003
-0.28614286 0.53604102 2.0030003
-0.27469712 0.53413332 2.003
-0.26706669 0.53413337 2.003
-0.30140379 0.54367143 2.003
-0.29758859 0.54176378 2.003
0.11706191 -0.27442384 2.0150001
0.12281905 -0.27634287 2.0150001
0.088276193 -0.26290953 2.0150001
0.095952392 -0.26290953 2.0150003
0.10554763 -0.26482856 2.0150003
0.11322381 -0.26866665 2.0150001
0.12537777 -0.26226985 2.0150001
0.13049524 -0.26290953 2.0150001
0.086357147 -0.25523335 2.0150001
0.094992861 -0.25619286 2.0150001
0.12665714 -0.25523335 2.0150001
0.13049524 -0.25523335 2.0150001
0.085077785 -0.2456381 2.0150003
0.092114285 -0.24755715 2.0150001
0.13049524 -0.24947619 2.0150001
0.076761909 -0.23220478 2.0150001
0.082135245 -0.23489144 2.0150001
0.076761909 -0.22452858 2.0150001
0.080600001 -0.22452858 2.0150001
0.076761916 -0.21493334 2.0150001
0.080600008 -0.21493334 2.0150001
0.076761909 -0.20533811 2.0150001
0.080600001 -0.20725715 2.0150001
0.069085717 -0.19190477 2.0150001
0.07388334 -0.19670239 2.0150001
0.12665714 -0.19958097 2.0150001
0.13049524 -0.19766192 2.0150001
0.064151026 -0.18477689 2.0150003
0.057571433 -0.17463334 2.0150001
0.061409526 -0.17463334 2.0150001
0.057571433 -0.16503811 2.0150001
0.055012703 -0.15608256 2.0150001
0.12537777 -0.15480319 2.0150001
0.13049524 -0.15544286 2.0150001
0.049895242 -0.14200953 2.0150001
0.053733334 -0.14776668 2.0150001
0.12665714 -0.14968573 2.0150001
0.13049524 -0.14776668 2.0150001
0.049895242 -0.13817143 2.0150001
0.12665714 -0.13433334 2.0150001
0.13049524 -0.13433334 2.0150001
0.12665714 -0.12665714 2.0150001
0.13049524 -0.12665714 2.0150001
0.044138096 -0.11706191 2.0150001
0.13049524 -0.11706191 2.0150001
0.038380954 -0.10554762 2.0150001
0.11898096 -0.10362858 2.0150001
0.1247381 -0.10362858 2.0150001
0.036461905 -0.095952384 2.0150001
0.12665714 -0.099790484 2.0150001
0.031664286 -0.085397623 2.0150001
0.026866667 -0.072923817 2.0150001
0.026866667 -0.065247625 2.0150001
0.026866667 -0.055652384 2.0150001
0.026866667 -0.046057146 2.0150001
0.024947619 -0.034542859 2.0150001
0.019190477 -0.024947619 2.0150001
0.023028571 -0.024947619 2.0150001
0.019190479 -0.015352381 2.0150001
0.023028573 -0.015352381 2.0150001
0.023028571 -0.0057571428 2.0150001
0.024947619 0.0038380953 2.0150001
0.026866667 0.015352381 2.0150001
0.030704763 0.019190477 2.0150001
0.026866667 0.026866667 2.0150001
0.031984128 0.025587302 2.0150001
0.034542859 0.034542859 2.0150003
0.04221905 0.038380954 2.0150001
0.038380954 0.04221905 2.0150001
0.043754287 0.046824764 2.0150001
0.047336511 0.056292068 2.0150001
0.053733334 0.057571433 2.0150001
0.047976188 0.065247625 2.0150001
0.055652384 0.063328572 2.0150001
0.065247625 0.064607941 2.0150003
0.074842863 0.063328572 2.0150001
0.084438108 0.067166671 2.0150003
0.095952384 0.064607941 2.0150003
0.088276193 0.072923817 2.0150001
-0.0038380953 0.092114285 2.0150001
0.0012793652 0.093393654 2.0150001
0.024947619 0.092114285 2.0150001
0.034542859 0.097871445 2.0150003
0.044138096 0.095952384 2.0150001
-0.33007622 0.10746667 2.0150001
-0.32431906 0.10746667 2.0150001
-0.31472385 0.10362859 2.0150001
-0.30512857 0.10362858 2.0150001
-0.29169527 0.10746667 2.0150001
-0.28785717 0.10746667 2.0150001
0.037101589 0.10490795 2.0150001
0.043498419 0.10618731 2.0150001
-0.3550238 0.11898096 2.0150001
-0.34542859 0.11514287 2.0150001
-0.33391434 0.11130476 2.0150001
0.038380954 0.11130476 2.0150001
0.046536908 0.1146631 2.0150001
0.053733334 0.11898096 2.0150001
-0.36461902 0.1247381 2.0150001
0.049895242 0.1247381 2.0150001
0.053733334 0.1247381 2.0150001
-0.3753657 0.13510095 2.0150001
-0.36845714 0.13049524 2.0150001
-0.38380954 0.14776668 2.0150001
-0.37997144 0.14584762 2.0150001
-0.37869209 0.15608256 2.0150001
-0.10618731 0.49383494 2.0150001
-0.10554762 0.50279051 2.0150001
-0.092114285 0.50279051 2.0150001
-0.088276193 0.50279051 2.0150001
-0.3224 0.51814288 2.0150001
-0.31856191 0.51814288 2.0150001
-0.30704764 0.51814288 2.0150001
-0.29553336 0.51622385 2.0150003
-0.28555429 0.51507241 2.0150001
-0.27634287 0.51814288 2.0150001
-0.097871438 0.51334524 2.0150001
-0.088276193 0.51046669 2.0150001
-0.32431906 0.52198094 2.0150001
-0.31472385 0.52198094 2.0150001
-0.30320954 0.52198094 2.0150001
-0.28401908 0.52326035 2.0150001
-0.27480766 0.52658671 2.0150001
-0.2673873 0.52837777 2.0150001
-0.099790484 0.52198094 2.0150001
-0.26290953 0.53541428 2.0150001
-0.25523335 0.53541428 2.0150001
-0.26290953 0.54117149 2.0150001
-0.25715238 0.54117149 2.0150001
0.11196762 -0.28378004 2.0270002
0.09523683 -0.2715537 2.0270002
0.10424572 -0.27412763 2.0270002
0.11196762 -0.27605814 2.0270002
0.084940962 -0.26254478 2.0270002
0.077219054 -0.2509619 2.0270002
0.081080012 -0.25482285 2.0270002
0.077219054 -0.2451705 2.0270002
0.081080012 -0.24710098 2.0270002
0.074645087 -0.23551813 2.0270002
0.073358104 -0.22393525 2.0270002
0.073358104 -0.21428287 2.0270002
0.069497153 -0.20270002 2.0270002
0.073358104 -0.20656097 2.0270002
0.066923186 -0.19562159 2.0270002
0.057914294 -0.18532573 2.0270002
0.054053336 -0.17374288 2.0270002
0.054053336 -0.16602097 2.0270002
0.050192382 -0.15057716 2.0270002
0.046331432 -0.14285526 2.0270002
0.050192382 -0.14671621 2.0270002
0.046331432 -0.13513336 2.0270002
0.046331432 -0.12548096 2.0270002
0.038609527 -0.1138981 2.0270002
0.042470481 -0.11968953 2.0270002
0.034748577 -0.10038476 2.0270002
0.032818101 -0.094593339 2.0270002
0.024452701 -0.075932071 2.0270002
0.023165716 -0.067566678 2.0270002
0.023165716 -0.044400956 2.0270002
0.023165716 -0.038609527 2.0270002
0.023165716 0.0077219056 2.0270002
0.023165716 0.013513334 2.0270002
0.025096193 0.025096193 2.0270002
0.027026668 0.032818101 2.0270002
0.030887622 0.038609527 2.0270002
0.033976384 0.044787053 2.0270002
0.037322544 0.051479369 2.0270002
0.042470481 0.055983812 2.0270002
0.046331432 0.061775245 2.0270002
0.054053336 0.069497153 2.0270002
0.065636203 0.069497153 2.0270002
0.075288579 0.069497153 2.0270002
0.054825526 0.07490249 2.0270002
0.065636203 0.073358104 2.0270002
0.075288579 0.073358104 2.0270002
0.083010487 0.073358104 2.0270002
-0.33590287 0.10810667 2.0270002
-0.30115432 0.10424572 2.0270002
-0.28378004 0.10810667 2.0270002
-0.27412766 0.10810667 2.0270002
0.045044448 0.10167175 2.0270002
0.052122861 0.10424572 2.0270004
-0.36486003 0.11968953 2.0270002
-0.35520765 0.11582859 2.0270002
-0.34748575 0.11196762 2.0270002
0.055983812 0.11582858 2.0270002
0.061775245 0.11968953 2.0270002
-0.37258193 0.12548096 2.0270002
0.057914291 0.12548096 2.0270002
0.061775245 0.12548096 2.0270002
-0.37837335 0.13127239 2.0270002
-0.38609526 0.14285526 2.0270002
-0.28184953 0.49806291 2.0270002
-0.27489981 0.49651852 2.0270002
-0.30115432 0.50964576 2.0270002
-0.29536289 0.50964576 2.0270002
-0.28460735 0.50633639 2.0270004
-0.27702338 0.50481951 2.0270002
-0.1061762 0.50964576 2.0270002
-0.32045907 0.51736766 2.0270002
-0.31466764 0.51736766 2.0270002
-0.30501527 0.51608074 2.0270002
-0.29536289 0.51350671 2.0270002
-0.28442353 0.51479375 2.0270002
-0.27489984 0.5158233 2.0270002
-0.26640573 0.51736766 2.0270002
-0.25868383 0.51736766 2.0270002
-0.1061762 0.51543719 2.0270002
-0.31466764 0.52122861 2.0270002
-0.30501527 0.52122861 2.0270002
-0.28184953 0.52315909 2.0270002
-0.27219716 0.52315909 2.0270002
-0.26447526 0.52508956 2.0270004
-0.25675336 0.52508956 2.0270004
-0.10488921 0.52508956 2.0270004
-0.096523814 0.52895051 2.0270002
-0.26254478 0.53281146 2.0270002
-0.25385761 0.5337767 2.0270002
-0.10231524 0.53281146 2.0270002
-0.096523814 0.53281146 2.0270002
0.10874667 -0.29128572 2.039
0.11392508 -0.29387495 2.039
0.10563963 -0.28507164 2.039
0.08803302 -0.27316126 2.039
0.095153332 -0.27769238 2.039
0.10292096 -0.27963427 2.039
0.077676184 -0.26021525 2.039
0.083501905 -0.26604098 2.039
0.075734288 -0.25438952 2.039
0.073792383 -0.24468002 2.039
0.069908567 -0.23497048 2.039
0.068937615 -0.22429 2.039
0.06796667 -0.21555144 2.039
0.065377466 -0.2058419 2.039
0.058257144 -0.19419049 2.039
0.062140953 -0.19613239 2.039
0.054373335 -0.18253905 2.039
0.054373335 -0.17865524 2.039
0.046605714 -0.15146858 2.039
0.050489523 -0.15535237 2.039
0.046605714 -0.14758477 2.039
0.042721905 -0.13204953 2.039
0.042721905 -0.12622382 2.039
0.034954283 -0.10680477 2.039
0.027186668 -0.083501905 2.039
0.023302857 -0.062140953 2.039
0.023302859 -0.054373335 2.039
0.019419046 -0.042721905 2.039
0.023302857 0.019419046 2.039
0.023302857 0.023302857 2.039
0.025244761 0.034954283 2.039
0.034177523 0.055926856 2.039
0.027186668 0.062140953 2.039
0.034954283 0.062140953 2.039
0.042721905 0.064082861 2.039
-0.34565908 0.10874667 2.039
-0.29322761 0.10486286 2.039
-0.28546 0.10486286 2.039
-0.36507809 0.11521968 2.039
-0.35536855 0.11263048 2.039
-0.38061333 0.12816572 2.039
-0.37478763 0.12234001 2.039
-0.38708639 0.13722794 2.039
-0.22137713 0.19419049 2.039
-0.26409906 0.48936003 2.039
-0.1203981 0.4854762 2.039
-0.11457238 0.48741812 2.039
-0.10680477 0.48741809 2.039
-0.27316126 0.49453843 2.039
-0.26409906 0.4951857 2.039
-0.10680477 0.49324381 2.039
-0.30423176 0.50748444 2.039
-0.29516956 0.50683713 2.039
-0.27316126 0.50748444 2.039
-0.26409906 0.50489527 2.0389998
-0.25633144 0.50489527 2.039
-0.11263048 0.50683713 2.039
-0.32235619 0.51654667 2.039
-0.31458855 0.51460481 2.039
-0.30682096 0.51460481 2.039
-0.27316126 0.5139575 2.039
-0.26409906 0.51460481 2.039
-0.25438952 0.51654667 2.039
-0.26409906 0.52043051 2.039
-0.25341856 0.52334332 2.039
-0.24565096 0.52722716 2.039
-0.25244763 0.53208196 2.039
-0.24565096 0.53305292 2.039
-0.10874667 0.53402388 2.039
0.096364439 -0.29430223 2.0510001
0.10548 -0.29495335 2.0510001
0.088551119 -0.28258225 2.0510001
0.095322669 -0.28596804 2.0510004
0.10157334 -0.28909335 2.0510001
0.083342224 -0.27607113 2.0510001
0.07552889 -0.26435113 2.0510001
0.082040004 -0.26956001 2.0510001
0.071622223 -0.25393337 2.0510001
0.070320003 -0.24416669 2.0510001
0.066413336 -0.23440002 2.0510001
0.064460002 -0.22463334 2.0510001
0.058600001 -0.21486668 2.0510001
0.062506668 -0.21486668 2.0510001
0.058600001 -0.2051 2.0510001
0.058600001 -0.19924001 2.0510001
0.05078667 -0.16212668 2.0510001
0.042973336 -0.14259334 2.0510001
0.042973336 -0.13673334 2.0510001
0.035160001 -0.11329334 2.0510001
0.031253334 -0.097666666 2.0510001
0.027346667 -0.089853339 2.0510001
0.019533334 -0.035160001 2.0510001
0.015626667 -0.015626667 2.0510001
0.019533334 -0.0078133335 2.0510001
0.027346667 0.044926669 2.0510001
0.027346667 0.054693334 2.0510001
0.031253334 0.054693334 2.0510001
-0.36332002 0.10938667 2.0510001
-0.35550672 0.10808444 2.0510001
-0.34574002 0.10548 2.0510001
-0.33597335 0.10548 2.0510001
-0.32816002 0.10548 2.0510001
-0.28128001 0.10548 2.0510001
