# .PCD v0.7 - Point Cloud Data file format
VERSION 0.7
FIELDS x y z
SIZE 4 4 4
TYPE F F F
COUNT 1 1 1
WIDTH 1473
HEIGHT 1
VIEWPOINT 0 0 0 1 0 0 0
POINTS 1473
DATA ascii
0.10633334 -0.24566667 1.9250001
0.11471429 -0.24514288 1.9250002
0.121 -0.24750002 1.9250001
0.099000007 -0.23650001 1.9250001
0.10541667 -0.23375002 1.9250001
0.11000001 -0.23466668 1.9250001
0.097777784 -0.22122225 1.9250001
0.10266667 -0.22000001 1.9250001
0.096066676 -0.21486668 1.9250001
0.09716668 -0.20533335 1.9250001
0.09808334 -0.19525 1.9250001
0.10266667 -0.19066668 1.9250001
0.099000007 -0.18700001 1.9250001
0.10266667 -0.18516667 1.9250001
0.099000007 -0.176 1.9250001
0.10266667 -0.176 1.9250001
0.088 -0.16133334 1.9250001
0.096380964 -0.1644762 1.9250002
0.08653333 -0.15326668 1.9250001
0.095333338 -0.15400001 1.9250001
0.1045 -0.15033334 1.9250001
0.088 -0.14300001 1.9250001
0.096555561 -0.14544444 1.9250001
0.10266667 -0.14300001 1.9250001
0.099000007 -0.13566667 1.9250001
0.10266667 -0.13566667 1.9250001
0.09716668 -0.12466668 1.9250001
0.10266667 -0.12466668 1.9250001
0.086166665 -0.11000001 1.9250001
0.096066676 -0.11513334 1.9250001
0.10388889 -0.11488889 1.9250001
0.086166665 -0.10266667 1.9250001
0.085380957 -0.09480954 1.9250002
0.08653333 -0.085066669 1.9250001
0.095333338 -0.080666676 1.9250001
0.10266667 -0.080666669 1.9250001
0.097777784 -0.075777784 1.9250001
0.10388889 -0.074555561 1.9250001
0.1045 -0.066000007 1.9250001
0.11091667 -0.066916667 1.9250001
0.1045 -0.055000003 1.9250001
0.11000001 -0.055000003 1.9250001
0.096380964 -0.04347619 1.9250002
0.1045 -0.047666669 1.9250001
0.11000001 -0.047666669 1.9250001
0.099000007 -0.033 1.9250001
0.099000007 -0.029333334 1.9250001
0.10266667 -0.023833334 1.9250001
0.1045 -0.014666667 1.9250001
0.11122223 -0.012222223 1.9250001
0.097166672 -0.0055000004 1.9250001
0.1045 -0.0055 1.9250001
0.11183333 -0.0055 1.9250001
0.09716668 0.0036666668 1.9250001
0.1045 0.003666667 1.9250001
0.11146667 0.0044 1.9250001
0.09716668 0.014666667 1.9250001
0.1045 0.014666665 1.9250001
0.11183333 0.015583333 1.9250001
0.088 0.025666667 1.9250001
0.095857151 0.026714288 1.9250002
0.10413333 0.026400004 1.9250001
0.11091667 0.026583336 1.9250001
0.088 0.036666665 1.9250001
0.095333338 0.034833334 1.9250001
0.1045 0.034833331 1.9250001
0.11000001 0.034833334 1.9250001
0.088 0.044 1.9250001
0.095333338 0.044 1.9250001
0.10486668 0.043266665 1.9250001
0.11366667 0.044 1.9250001
0.096555561 0.054388892 1.9250001
0.10511111 0.055000003 1.9250001
0.11412501 0.055000003 1.9250001
0.121 0.056833334 1.9250001
0.097166672 0.064166665 1.9250001
0.10486668 0.066733338 1.9250001
0.11320834 0.065541662 1.9250001
0.12283334 0.064166665 1.9250001
0.066 0.088 1.9250001
-0.08433333 0.09716668 1.9250001
-0.077000007 0.099000007 1.9250001
0.067833334 0.095333338 1.9250001
-0.20716667 0.10633333 1.9250001
-0.10388889 0.10388889 1.9250001
-0.096066676 0.10486668 1.9250001
-0.085249998 0.10358334 1.9250001
-0.077000007 0.10266667 1.9250001
-0.034833334 0.10633333 1.9250001
-0.21450001 0.11366668 1.9250001
-0.20900002 0.11366668 1.9250001
-0.091666669 0.11000001 1.9250001
-0.034833334 0.11366668 1.9250001
-0.029333334 0.11366668 1.9250001
-0.23320003 0.12393334 1.9250001
-0.22366667 0.12466667 1.9250001
-0.21486668 0.12393334 1.9250001
-0.034222223 0.12222223 1.9250001
-0.026714288 0.12466668 1.9250002
-0.23283334 0.13566667 1.9250001
-0.22314288 0.13566667 1.9250002
-0.21511112 0.13688891 1.9250001
-0.022916667 0.13475001 1.9250001
-0.22366667 0.14483333 1.9250001
-0.21633334 0.14300001 1.9250001
-0.022 0.14483333 1.9250001
-0.014666667 0.14483333 1.9250001
-0.22366668 0.15452382 1.9250002
-0.21450001 0.15766667 1.9250001
-0.022 0.15216668 1.9250001
-0.0154 0.15473334 1.9250001
-0.0073333336 0.15766667 1.9250001
-0.23100001 0.16683334 1.9250001
-0.22183335 0.16133334 1.9250001
-0.21633334 0.16133334 1.9250001
-0.025666667 0.16683334 1.9250001
-0.017111111 0.16255556 1.9250001
0.058666669 0.16499999 1.9250001
0.064952388 0.1644762 1.9250002
0.07608334 0.16408333 1.9250001
0.080666669 0.16866668 1.9250001
-0.053166669 0.17966667 1.9250001
-0.044 0.17844445 1.9250001
-0.034833331 0.17416668 1.9250001
-0.0264 0.17453335 1.9250001
0.066000007 0.176 1.9250001
0.074555561 0.17477779 1.9250001
0.080666669 0.17233334 1.9250001
-0.053166669 0.18333334 1.9250001
-0.045833334 0.18333334 1.9250001
0.069666669 0.25666666 1.9250001
0.07333333 0.25666666 1.9250001
0.082500003 0.25666666 1.9250001
-0.0036666668 0.528 1.9250001
0.0036666668 0.528 1.9250001
0.012833334 0.528 1.9250001
-0.014666667 0.53472227 1.9250001
-0.0058666668 0.53459996 1.9250001
0.0036666668 0.53350008 1.9250001
0.014666667 0.53350002 1.9250001
0.023222223 0.53411114 1.9250001
-0.011 0.54450005 1.9250001
-0.0073333336 0.54450005 1.9250001
-0.011 0.55000001 1.9250001
-0.0073333336 0.55000001 1.9250001
-0.26216668 0.58666664 1.9250001
-0.25666666 0.58666664 1.9250001
-0.25666666 0.59399998 1.9250001
0.11505373 -0.28173408 1.9360001
0.11357868 -0.27509642 1.9360001
0.099565722 -0.26182097 1.9360001
0.10509715 -0.26182097 1.9360001
0.11385526 -0.26504764 1.936
0.099565722 -0.25813335 1.9360001
0.10417525 -0.25536764 1.9360001
0.11247239 -0.25813335 1.9360001
0.099565722 -0.24707049 1.9360001
0.10325334 -0.24522668 1.9360001
0.10325334 -0.23785144 1.9360001
0.11554541 -0.23846602 1.9360002
0.10546591 -0.2256823 1.9360001
0.11210363 -0.22494479 1.9360001
0.10325334 -0.21388191 1.9360001
0.10325334 -0.20466286 1.9360001
0.10448255 -0.19544384 1.9360002
0.10694097 -0.18438098 1.9360002
0.11062858 -0.18438096 1.9360001
0.10509715 -0.17516191 1.9360001
0.10325335 -0.16594288 1.9360002
0.10325334 -0.15672381 1.9360001
0.10601906 -0.14473905 1.9360001
0.11062859 -0.14381716 1.9360002
0.10694096 -0.13459811 1.9360001
0.11062858 -0.13459811 1.9360001
0.10694097 -0.12537906 1.9360002
0.11062858 -0.12722287 1.9360001
0.095878109 -0.11062859 1.9360002
0.10571176 -0.113087 1.9360002
0.11062858 -0.11616001 1.9360001
0.086659051 -0.10694096 1.9360001
0.095140576 -0.10472839 1.9360001
0.10509715 -0.10509715 1.9360001
0.11247239 -0.10325334 1.9360001
0.095878109 -0.095878109 1.936
0.10509716 -0.095878109 1.9360001
0.11431621 -0.095878109 1.936
0.094034292 -0.086659051 1.9360001
0.10694096 -0.081127621 1.9360001
0.11431621 -0.081127629 1.9360002
0.12169144 -0.081127621 1.9360001
0.10694096 -0.077440001 1.9360001
0.11062858 -0.075596191 1.9360001
0.11616001 -0.064533338 1.9360001
0.11523811 -0.056236193 1.9360001
0.10509715 -0.042407621 1.9360001
0.1143162 -0.046095241 1.9360001
0.10448255 -0.035646986 1.9360002
0.10571176 -0.025813334 1.9360002
0.11247239 -0.016594287 1.9360001
0.11677462 -0.0061460324 1.9360002
0.12537906 -0.0036876192 1.9360002
0.11708192 0.0027657144 1.9360001
0.12316649 0.0044251434 1.9360001
0.10325334 0.014750477 1.9360001
0.1143162 0.011062858 1.9360001
0.12169144 0.011062858 1.9360001
0.1143162 0.023969525 1.9360001
0.11554541 0.035646986 1.9360002
0.10325334 0.047939051 1.9360001
0.10448255 0.055314288 1.9360002
0.11062858 0.055314288 1.9360001
0.10325334 0.062689528 1.9360001
-0.092190482 0.099565722 1.9360001
0.062689528 0.095878109 1.9360002
-0.21572572 0.10694096 1.9360001
-0.092190482 0.10325334 1.9360001
-0.23600763 0.11616002 1.9360001
-0.2249448 0.11431621 1.936
-0.023969527 0.11431621 1.9360001
-0.018438095 0.11616001 1.9360001
0.064533338 0.11616001 1.9360001
-0.25075811 0.12537906 1.9360001
-0.24559546 0.12611659 1.9360001
-0.23969524 0.12537906 1.9360002
-0.22494477 0.12537906 1.9360001
-0.022125715 0.12537906 1.9360001
-0.014750478 0.12643269 1.9360001
-0.0073752385 0.12537906 1.9360001
0.059001908 0.12169144 1.9360001
0.064533338 0.12537906 1.9360001
0.070064761 0.12906668 1.9360001
-0.24522668 0.1327543 1.9360001
-0.23600763 0.13521272 1.9360002
-0.22678858 0.13644192 1.9360001
-0.015488001 0.13496688 1.9360001
0.071908571 0.1327543 1.9360001
-0.23600762 0.14320254 1.9360001
-0.014750477 0.14012954 1.9360002
-0.0055314293 0.14381716 1.9360001
0.0036876192 0.14658286 1.9360001
-0.23416382 0.15580191 1.9360001
-0.22863239 0.15488 1.9360001
-0.012292064 0.15242159 1.9360002
-0.005162667 0.15414248 1.9360001
0.0036876192 0.15610921 1.9360002
0.012906667 0.15488 1.9360001
0.064164579 0.15561752 1.9360001
0.073291428 0.15534097 1.936
0.081127621 0.15488 1.9360001
-0.24338287 0.16225524 1.9360001
-0.23600763 0.16225524 1.9360001
-0.22863239 0.16225524 1.9360001
-0.022125715 0.16963048 1.9360001
-0.012906667 0.16409905 1.9360001
0.047939051 0.16778667 1.9360001
0.055314295 0.16646966 1.9360001
0.081127621 0.16409905 1.9360001
-0.022125715 0.1733181 1.9360001
0.057772703 0.17454731 1.9360002
0.066377148 0.17700572 1.9360001
0.075596191 0.17700572 1.9360001
-0.040563811 0.18253715 1.9360001
-0.035032384 0.18253715 1.9360001
-0.029500954 0.18069334 1.9360001
0.059001908 0.18069334 1.9360001
0.066377148 0.18622477 1.9360001
0.072830476 0.18714668 1.9360001
0.071908571 0.19360001 1.9360001
0.059001908 0.25813335 1.9360001
0.064533338 0.25628954 1.9360001
0.073752381 0.25628954 1.9360001
0.065455243 0.26458669 1.9360001
0.072523177 0.2642794 1.9360001
-0.023969525 0.51995432 1.9360001
-0.016594287 0.51995432 1.9360001
-0.022125715 0.52364194 1.9360001
-0.015488002 0.52585453 1.9360001
-0.0055314288 0.52732956 1.9360001
0.0036876192 0.52732956 1.9360002
-0.022125715 0.53654855 1.9360001
-0.013828571 0.53193909 1.9360001
-0.0073752385 0.53101718 1.9360001
-0.29869714 0.54761147 1.9360001
-0.014750477 0.54761147 1.9360001
-0.3042286 0.55314291 1.9360001
-0.29685333 0.55314291 1.9360001
-0.28763431 0.55314291 1.9360001
-0.27472764 0.59186286 1.9360001
-0.26673779 0.5924775 1.9360002
0.11867429 -0.27258003 1.9470001
0.12534973 -0.27220917 1.9470001
0.12609145 -0.26701719 1.9470003
0.1174381 -0.2348762 1.9470003
0.12238287 -0.2354943 1.9470001
0.11682001 -0.22807716 1.9470001
0.12238287 -0.22993144 1.9470001
0.10662144 -0.21509716 1.9470001
0.11125716 -0.21509716 1.9470003
0.10754858 -0.20397143 1.9470003
0.11249334 -0.20644383 1.9470003
0.10754858 -0.1965543 1.9470001
0.11125715 -0.18542859 1.9470001
0.10754858 -0.17430288 1.9470001
0.11125715 -0.17430288 1.9470001
0.10754858 -0.16503143 1.9470001
0.11125715 -0.16503143 1.9470001
0.10754858 -0.15761431 1.9470001
0.1121843 -0.15483287 1.9470001
0.11496572 -0.13536286 1.9470001
0.11311144 -0.12609144 1.9470001
0.11496573 -0.11422401 1.9470001
0.10013144 -0.10754858 1.9470001
0.11589286 -0.10662143 1.9470001
0.12361906 -0.10136764 1.9470003
0.12238287 -0.09456858 1.9470001
0.10384002 -0.087151438 1.9470003
0.11496572 -0.087151438 1.9470003
0.1251643 -0.084370002 1.9470001
0.11719086 -0.074913152 1.9470001
0.1238663 -0.073429719 1.9470001
0.12609145 -0.064900003 1.9470003
0.11867429 -0.05377429 1.9470001
0.12547335 -0.056864765 1.9470003
0.13536286 -0.059337147 1.9470001
0.11496572 -0.04203048 1.9470003
0.12609144 -0.046728004 1.9470001
0.10754858 -0.033377144 1.9470001
0.11422401 -0.035602286 1.9470001
0.12609144 -0.037085716 1.9470001
0.10754858 -0.029668573 1.9470001
0.11311144 -0.025960002 1.9470003
0.1174381 -0.014834288 1.9470003
0.12238287 -0.012980001 1.9470001
0.12609145 -0.0074171438 1.9470003
0.12794572 0.0037085717 1.9470001
0.11867429 0.012980001 1.9470001
0.12485524 0.013598097 1.9470003
0.1186743 0.025960002 1.9470003
0.12331001 0.025032859 1.9470001
0.11867429 0.033377144 1.9470001
0.12609144 0.03523143 1.9470001
0.13350858 0.03523143 1.9470001
-0.2354943 0.10754858 1.9470001
-0.22622287 0.10754858 1.9470003
-0.27072573 0.11682001 1.9470001
-0.26516289 0.11682001 1.9470001
-0.2554279 0.11542929 1.9470003
-0.24582534 0.11443593 1.9470003
-0.2354943 0.11125715 1.9470001
-0.014834287 0.11496573 1.9470001
0.059337147 0.11682001 1.9470001
-0.27295089 0.12534973 1.9470001
-0.26516289 0.12609145 1.9470003
-0.25635502 0.12609144 1.9470003
-0.24476574 0.12238287 1.9470001
-0.014834287 0.12238287 1.9470001
-0.0051920004 0.12609144 1.9470001
0.0029668573 0.12757486 1.9470001
0.058100961 0.12609145 1.9470003
0.063045718 0.12609144 1.9470001
-0.27072573 0.13350858 1.9470001
-0.26454479 0.13474476 1.9470003
-0.25589144 0.13536286 1.9470003
-0.24476574 0.13721716 1.9470003
-0.011125715 0.13350858 1.9470001
-0.0055628577 0.13536286 1.9470001
0.0029668573 0.13573372 1.9470001
0.011125715 0.13721716 1.9470001
0.059337147 0.13536286 1.9470001
0.064900003 0.13536286 1.9470001
0.072317146 0.13721716 1.9470001
-0.26330858 0.14278001 1.9470001
-0.25536165 0.1435747 1.9470003
-0.24582534 0.14516409 1.9470003
-0.23734859 0.14834286 1.9470001
0.0037085719 0.14240916 1.9470001
0.012980001 0.14463429 1.9470003
0.057482861 0.14278001 1.9470001
0.064900003 0.14463431 1.9470003
0.073707864 0.14509785 1.9470003
0.083442859 0.14648858 1.9470001
-0.25536165 0.15681963 1.9470003
-0.2452293 0.15529644 1.9470003
-0.2373486 0.15576002 1.9470003
0.0037085719 0.15514192 1.9470003
0.012980001 0.15576002 1.9470001
0.057482861 0.15576002 1.9470003
0.066754289 0.15205143 1.9470001
0.07788001 0.15205143 1.9470001
0.085297152 0.15523022 1.9470003
0.092714287 0.15946859 1.9470001
-0.23734859 0.16317715 1.9470001
-0.011125715 0.16688572 1.9470001
-0.0055628577 0.16317715 1.9470001
0.0037085719 0.16317716 1.9470003
0.087151431 0.16503143 1.9470001
0.092714287 0.16503143 1.9470001
0.10569429 0.16688572 1.9470001
-0.018542858 0.17059429 1.9470001
0.084370002 0.17523 1.9470001
0.076643825 0.18419239 1.9470003
0.083442859 0.18172002 1.9470001
0.07788001 0.19470002 1.9470001
0.081588574 0.19284573 1.9470001
0.09456858 0.1965543 1.9470001
0.10013144 0.1965543 1.9470001
0.056370288 0.20397143 1.9470001
0.094568573 0.20211717 1.9470001
0.10013144 0.20026287 1.9470001
0.055165 0.21556076 1.9470003
0.056092143 0.2257593 1.9470003
0.057482861 0.23549429 1.9470001
0.064900003 0.23734859 1.9470001
0.059337147 0.24105716 1.9470001
0.064900003 0.24105716 1.9470001
0.057112005 0.25514972 1.9470001
0.064900003 0.25218287 1.9470001
0.07046286 0.25218287 1.9470001
0.058100961 0.26454479 1.9470003
0.063045718 0.26701716 1.9470001
0.059337147 0.27072573 1.9470001
0.063045718 0.27072573 1.9470001
-0.26330858 0.50807428 1.9470001
-0.02348762 0.51796389 1.9470003
-0.014370714 0.51595509 1.9470003
-0.0074171433 0.51734579 1.9470001
-0.27443433 0.52476287 1.9470001
-0.25960001 0.52661717 1.9470001
-0.011125715 0.52476287 1.9470001
-0.0055628573 0.52476287 1.9470001
0.0037085719 0.52476287 1.9470003
0.012980001 0.52290857 1.9470001
-0.27196193 0.53527057 1.9470003
-0.26454479 0.53279817 1.9470003
-0.25836384 0.53527057 1.9470003
-0.027196195 0.53527057 1.9470003
-0.3028667 0.54639626 1.9470003
-0.29446062 0.54590178 1.9470001
-0.28926858 0.54516006 1.9470003
-0.31152004 0.55999428 1.9470001
-0.30410287 0.55813998 1.9470001
-0.29446062 0.55628574 1.9470001
-0.28556001 0.55681556 1.9470003
-0.27591774 0.55776918 1.9470001
-0.29297718 0.56741148 1.9470001
-0.28630173 0.56592804 1.9470001
-0.27814287 0.56741148 1.9470001
-0.30039433 0.57853717 1.9470001
-0.28926858 0.57112002 1.9470001
-0.31337434 0.58595437 1.9470003
-0.30363929 0.58641791 1.9470003
-0.29483145 0.58780867 1.9470001
-0.28648716 0.58873576 1.9470001
-0.27443433 0.58966291 1.9470003
0.12307428 -0.25733715 1.9580001
0.11841238 -0.22283906 1.9580001
0.12307428 -0.22377144 1.9580001
0.11748 -0.21444762 1.9580001
0.12307428 -0.21258286 1.9580001
0.11685842 -0.20388064 1.9580001
0.12307428 -0.20512383 1.9580001
0.11608143 -0.19440143 1.9580001
0.11748 -0.18274666 1.9580001
0.11468286 -0.17528762 1.9580001
0.11654762 -0.16409905 1.9580001
0.11748 -0.15477523 1.9580001
0.12307428 -0.15291047 1.9580001
0.11748 -0.14545143 1.9580001
0.12493904 -0.14358667 1.9580001
0.13177651 -0.14420825 1.9580001
0.11934476 -0.13426286 1.9580001
0.12493905 -0.13426286 1.9580001
0.13053332 -0.13799238 1.9580001
0.11748 -0.12493904 1.9580001
0.12493904 -0.12493904 1.9580001
0.13500877 -0.12456609 1.9580001
0.11934476 -0.11561524 1.9580001
0.12493905 -0.11561524 1.9580001
0.13426287 -0.11561523 1.9579999
0.12556063 -0.10691302 1.9580001
0.13379666 -0.10489286 1.9580001
0.1417219 -0.10629143 1.9580001
0.1268038 -0.095102862 1.9580001
0.13177651 -0.094481274 1.9580001
0.1268038 -0.08764381 1.9580001
0.13364127 -0.085779056 1.9580001
0.1417219 -0.082049526 1.9580001
0.1268038 -0.078319997 1.9580001
0.13426287 -0.074590474 1.9579999
0.1417219 -0.074590474 1.9580001
0.13612762 -0.065266669 1.9580001
0.1417219 -0.065266669 1.9580001
0.1268038 -0.054078095 1.9580001
0.13426286 -0.054078098 1.9580001
0.14358667 -0.059672382 1.9580001
0.11934476 -0.041024763 1.9580001
0.12556063 -0.042267941 1.9580001
0.13488445 -0.044132702 1.9580001
0.11934476 -0.033565715 1.9580001
0.12556063 -0.034808889 1.9580001
0.13500877 -0.035057526 1.9580001
0.11934476 -0.026106667 1.9580001
0.12493905 -0.026106669 1.9580001
0.13379666 -0.026572859 1.9580001
0.11934476 -0.018647619 1.9580001
0.12587142 -0.015850477 1.9580001
0.13053332 -0.014918095 1.9580001
0.13053332 0.0018647619 1.9580001
0.11934476 0.018647619 1.9580001
0.12493904 0.018647619 1.9580001
0.13053332 0.014918095 1.9580001
0.1268038 0.027971428 1.9580001
0.13202514 0.026106669 1.9580001
0.1268038 0.033565715 1.9580001
0.057807621 0.089508571 1.9580001
0.057807621 0.095102862 1.9580001
-0.2638638 0.10722381 1.9580001
-0.25547236 0.10629143 1.9580001
-0.24708097 0.10722381 1.9580001
-0.23496 0.10442667 1.9580001
-0.22750096 0.10442667 1.9580001
-0.011188571 0.10815619 1.9580001
-0.0074590477 0.10815619 1.9580001
0.057807621 0.10069714 1.9580001
-0.29090285 0.11934476 1.9580001
-0.28493562 0.11636114 1.9580001
-0.27705038 0.11508246 1.9580002
-0.2647962 0.11188572 1.9580001
-0.011188571 0.11375048 1.9580001
-0.0059672385 0.11636114 1.9580001
0.0027971428 0.11841238 1.9580001
0.05594286 0.11654762 1.9580001
0.0634019 0.11188572 1.9580001
-0.29214606 0.12431745 1.9580001
-0.28530857 0.12493904 1.9580001
-0.27784953 0.12493904 1.9580001
0.0037295239 0.12307428 1.9580001
0.014172191 0.125312 1.9580001
0.053456508 0.12556063 1.9580001
-0.28468698 0.13177651 1.9580001
-0.27705038 0.13479565 1.9580002
-0.26852572 0.13799238 1.9580001
0.0074590477 0.1323981 1.9580001
0.013426286 0.13351695 1.9580001
0.054078098 0.13426286 1.9580001
0.078319997 0.13799238 1.9580001
0.082049526 0.13799238 1.9580001
-0.27598476 0.1417219 1.9580001
-0.26628801 0.14694324 1.9580001
-0.25733715 0.14918095 1.9580001
0.018647619 0.14545143 1.9580001
0.054451048 0.14694324 1.9580001
0.078319997 0.1417219 1.9580001
0.082049526 0.1417219 1.9580001
-0.2647962 0.15291047 1.9580001
-0.25733715 0.15291047 1.9580001
0.018647619 0.15477523 1.9580001
0.052213334 0.15477523 1.9580001
0.10256191 0.15663999 1.9580001
-0.26666096 0.16036952 1.9580001
-0.0055942857 0.16782857 1.9580001
0.0037295239 0.16782859 1.9580001
0.014918095 0.16285588 1.9580001
0.052213334 0.16223428 1.9580001
0.089508571 0.16036952 1.9580001
0.096967623 0.16409904 1.9580001
0.10218894 0.16335313 1.9580001
-0.015850475 0.17435524 1.9580001
0.089508578 0.17528763 1.9580001
0.094729908 0.17603353 1.9580001
0.10442667 0.17528763 1.9579999
0.11188572 0.17528763 1.9580001
0.086711429 0.18554381 1.9580001
0.095102854 0.18461142 1.9580001
0.10368075 0.18423848 1.9580001
0.036052063 0.19517843 1.9580001
0.045997463 0.19517843 1.9580001
0.054078095 0.19580001 1.9580001
0.086245246 0.19393525 1.9580001
0.095102854 0.19207048 1.9580001
0.10256191 0.19207048 1.9580001
0.029836191 0.20885333 1.9580001
0.036362857 0.20419145 1.9580001
0.045220479 0.20558999 1.9580001
0.053456508 0.20388064 1.9580001
0.085779056 0.20325905 1.9580001
0.028593017 0.21382603 1.9580001
0.035430476 0.21444762 1.9580001
0.044754289 0.21444765 1.9580001
0.029836191 0.22004192 1.9580001
0.036362857 0.22283906 1.9580001
0.044754289 0.22377144 1.9579999
0.044754289 0.23496 1.9579999
0.052213334 0.23496 1.9580001
0.044754289 0.24614859 1.9579999
0.055476669 0.24661475 1.9580001
0.065266669 0.24801335 1.9580001
0.070860952 0.24987811 1.9580001
0.024241906 0.25733715 1.9580001
0.037295237 0.25547236 1.9580001
0.044754289 0.25547239 1.9580001
0.052213334 0.25547236 1.9580001
0.024241906 0.26106665 1.9580001
0.03580343 0.26554212 1.9580001
0.044221506 0.26373065 1.9580002
0.054078095 0.2647962 1.9580001
0.037295237 0.27225524 1.9580001
0.041024763 0.27225524 1.9580001
0.05594286 0.27225524 1.9580001
-0.024241906 0.5165391 1.9580001
-0.018647619 0.51467431 1.9580001
-0.0049726986 0.51591748 1.9580001
0.0029836192 0.51691198 1.9580001
0.013053333 0.51840383 1.9580001
-0.28344381 0.5277276 1.9580001
-0.27598476 0.52533007 1.9580002
-0.265329 0.52586293 1.9580002
-0.25640476 0.52493048 1.9580001
-0.028593017 0.52586287 1.9580001
-0.0037295239 0.52213329 1.9580001
0.0037295239 0.52213329 1.9580001
0.013053333 0.52213329 1.9580001
-0.28344381 0.53518665 1.9580001
-0.27673069 0.53555959 1.9580001
-0.25733715 0.53332192 1.9580001
-0.024863493 0.53456509 1.9580001
-0.29276764 0.54078096 1.9580001
-0.2853086 0.54451048 1.9580001
-0.27651757 0.54557604 1.9580002
-0.26554212 0.54525632 1.9580001
-0.026106667 0.54078096 1.9580001
-0.28468698 0.55321276 1.9580001
-0.27536318 0.55569911 1.9580001
-0.26728255 0.55694222 1.9580001
-0.31514478 0.56688762 1.9580001
-0.305821 0.56688762 1.9580001
-0.29649717 0.56688762 1.9580001
-0.28344381 0.56688762 1.9580001
-0.27784953 0.56688762 1.9580001
-0.31421238 0.57341433 1.9580001
-0.30582097 0.57434672 1.9579999
-0.29687011 0.57509261 1.9580001
-0.31327999 0.58180571 1.9580001
-0.30830735 0.58304894 1.9580001
-0.29463241 0.5836705 1.9580001
-0.28530857 0.58740002 1.9580001
-0.27784953 0.58926481 1.9580001
0.12626605 -0.26503369 1.9690002
0.13251683 -0.26378351 1.9690002
0.1275162 -0.25690764 1.9690001
0.13251683 -0.25753272 1.9690002
0.1275162 -0.22315335 1.9690001
0.13251683 -0.22377843 1.9690002
0.12564096 -0.21752763 1.9690001
0.11626476 -0.18752381 1.9690001
0.1228281 -0.18189809 1.9690001
0.12376573 -0.17439716 1.9690001
0.12423453 -0.16502094 1.969
0.13448137 -0.16394942 1.9690001
0.14439334 -0.16127048 1.9690001
0.12501588 -0.15439461 1.9690001
0.13501716 -0.15376954 1.9690001
0.14439335 -0.15376954 1.9690001
0.15376954 -0.15564476 1.9690001
0.13751747 -0.14376827 1.9690002
0.14376827 -0.14501843 1.9690002
0.13501716 -0.13394558 1.9690001
0.1425181 -0.13501714 1.9690001
0.13126667 -0.1275162 1.9690001
0.13876763 -0.10126286 1.9690001
0.1425181 -0.10126286 1.9690001
0.13783 -0.094699532 1.9690001
0.1425181 -0.097512387 1.9690001
0.13876763 -0.08626096 1.9690001
0.14439334 -0.08626096 1.9690001
0.13876763 -0.05250667 1.9690001
0.14439334 -0.054381911 1.9690001
0.13876763 -0.045005716 1.9690001
0.14439334 -0.04500572 1.9690001
0.15001905 -0.046880953 1.9690001
0.13351695 -0.015001905 1.9690001
0.13501714 -0.0075009526 1.9690001
0.13651733 0.0030003812 1.9690001
0.13501714 0.015001906 1.9690002
0.13689238 0.026253335 1.9690001
0.13876763 0.03000381 1.9690001
0.1425181 0.048756193 1.9690001
0.15564477 0.056257147 1.9690001
0.15376954 0.060007624 1.9690002
0.05250667 0.093761906 1.9690002
-0.28428611 0.10726362 1.9690001
-0.27378476 0.10688858 1.9690001
-0.26628384 0.10501334 1.9690001
-0.25315714 0.10126286 1.9690001
-0.24453107 0.10276306 1.9690001
-0.23628001 0.10126286 1.9690001
-0.0050006351 0.1062635 1.9690002
0 0.10876381 1.9690001
0.013126668 0.10876381 1.9690001
0.056257147 0.10501334 1.9690001
0.060007621 0.10501334 1.9690001
-0.3000381 0.11626476 1.9690001
-0.2937873 0.11501461 1.9690002
-0.28878668 0.11251429 1.9690001
-0.0037504763 0.11251429 1.9690001
0.0045005716 0.11401448 1.9690001
0.013126667 0.11438952 1.9690001
0.054381907 0.11438952 1.9690001
-0.30331978 0.12423453 1.969
-0.29628763 0.12376572 1.9690001
0.015939524 0.12095286 1.9690001
0.023753017 0.12626605 1.9690002
0.033754289 0.1275162 1.9690002
0.048756193 0.12376573 1.9690002
-0.29378733 0.13251683 1.9690002
-0.28753653 0.13751747 1.9690002
0.018752381 0.13501716 1.9690002
0.024378097 0.13501714 1.9690001
0.036254607 0.13376699 1.9690002
0.047818575 0.13407952 1.9690001
-0.28378606 0.14501843 1.9690002
-0.27566004 0.14626858 1.9690001
0.024378097 0.14439334 1.9690001
0.036254607 0.14501843 1.9690002
0.045943335 0.14533097 1.9690001
-0.2812857 0.15189429 1.9690001
-0.2747224 0.15283191 1.9690001
-0.26628384 0.15752001 1.9690001
0.024378097 0.15376954 1.9690001
0.035629526 0.15001905 1.9690001
0.045005716 0.15376954 1.9690001
0.10876381 0.15752001 1.9690001
-0.2812857 0.16127048 1.9690001
-0.27566004 0.16127048 1.9690001
0.015939524 0.16783382 1.9690001
0.022502858 0.16127048 1.9690001
0.048756193 0.16127048 1.9690001
0.10876381 0.16127048 1.9690001
-0.013126668 0.17627239 1.9690001
-0.0056257145 0.17439716 1.9690001
0.0037504765 0.17439717 1.9690001
0.011251429 0.17252192 1.9690001
0.097512387 0.17252192 1.9690001
-0.016877143 0.1818981 1.9690001
0.016877143 0.19690001 1.9690001
0.024378095 0.19690001 1.9690001
0.031253971 0.19752508 1.9690002
0.04500572 0.19502477 1.9690001
0.016877143 0.20440096 1.9690001
0.024378097 0.20440096 1.9690001
0.031253971 0.20502603 1.9690002
0.041255239 0.20252572 1.9690001
0.016252065 0.21252701 1.9690001
0.024003049 0.21377717 1.9690001
0.033754285 0.21002668 1.9690001
0.018752381 0.2212781 1.9690001
0.025003176 0.22252826 1.9690002
0.031879049 0.22690383 1.9690001
0.026253335 0.23252952 1.9690001
0.03450438 0.23402973 1.9690001
0.026253335 0.24753144 1.9690001
0.034825854 0.24431674 1.9690001
0.0056257145 0.25690764 1.9690001
0.015537689 0.25610399 1.9690001
0.024378097 0.25315714 1.9690001
0.032682724 0.25449663 1.9690001
0.0075009526 0.26253334 1.9690001
0.015001906 0.26440862 1.9690001
0.05250667 0.26628384 1.9690001
0.046880957 0.27190953 1.9690001
0.05250667 0.27003428 1.9690001
-0.27003428 0.51756573 1.9690001
-0.041255239 0.51006478 1.9690001
-0.024378097 0.51569051 1.9690001
-0.015001906 0.51381528 1.9690002
-0.0056257145 0.51381528 1.9690001
0.0046880953 0.51475286 1.9690001
0.013126667 0.51569051 1.9690001
-0.28878668 0.52881718 1.9690001
-0.26628384 0.52506667 1.9690001
-0.25503239 0.52881718 1.9690001
-0.041255239 0.52506667 1.9690001
-0.034379371 0.52506673 1.9690001
-0.29441237 0.53631812 1.9690001
-0.28878668 0.5344429 1.9690001
-0.25503239 0.53256768 1.9690001
-0.29441237 0.54006857 1.9690001
-0.28878668 0.54006857 1.9690001
-0.27003428 0.54006857 1.9690001
-0.26440859 0.54006857 1.9690001
-0.25878286 0.54006857 1.9690001
-0.27128446 0.55382037 1.9690002
-0.26440859 0.55507052 1.9690001
-0.29253715 0.5813238 1.9690001
-0.28503621 0.58632445 1.9690002
0.13828573 -0.22377145 1.9800003
0.1433143 -0.22628573 1.9800001
0.132 -0.21874288 1.9800001
0.13765715 -0.18102859 1.9800001
0.13577144 -0.17537145 1.9800003
0.14457145 -0.17474286 1.9800003
0.15274286 -0.17348573 1.9800001
0.13765715 -0.1697143 1.9800001
0.14520001 -0.16782859 1.9800001
0.15180001 -0.16500002 1.9800001
0.15462857 -0.15085715 1.9800003
0.15462857 -0.14708573 1.9800003
0.13954286 -0.13954286 1.9800001
0.14457145 -0.1345143 1.9800003
0.14520001 -0.12822859 1.9800001
0.1433143 -0.092400007 1.9800001
0.14708573 -0.082971431 1.9800001
0.14708573 -0.0792 1.9800001
0.13954286 0.015085716 1.9800003
0.13954286 0.022628574 1.9800001
0.14708573 0.049028575 1.9800001
0.15085715 0.049028575 1.9800001
0.14520001 0.054685719 1.9800001
0.15085715 0.054685719 1.9800001
0.16217144 0.056571431 1.9800001
0.013200001 0.096171439 1.9800001
-0.30360001 0.10937144 1.9800001
-0.29492575 0.10710859 1.9800001
-0.27908573 0.10560001 1.9800001
-0.26400003 0.10182859 1.9800003
0.0037714287 0.1081143 1.9800003
0.016342858 0.10497144 1.9800003
0.022628574 0.10937144 1.9800001
0.05374286 0.10654287 1.9800001
0.060342859 0.10937144 1.9800001
-0.3042286 0.11440001 1.9800003
-0.29794288 0.11314286 1.9800001
0.018857144 0.11502858 1.9800001
0.024514288 0.11502858 1.9800001
0.03017143 0.11691429 1.9800001
0.049028575 0.11691429 1.9800001
0.052800003 0.11314286 1.9800001
-0.3130286 0.12634286 1.9800001
-0.30925718 0.12068572 1.9800001
0.02514286 0.12194287 1.9800003
0.032057144 0.12257144 1.9800001
0.044314291 0.12540001 1.9800001
-0.30473146 0.13350858 1.9800001
-0.29668576 0.13828573 1.9800003
0.032685716 0.13640001 1.9800003
0.042994287 0.13652574 1.9800001
-0.29228574 0.14520001 1.9800001
0.031428576 0.14457145 1.9800003
0.043371432 0.1433143 1.9800001
-0.29228574 0.15462857 1.9800003
-0.28568575 0.15557143 1.9800001
-0.27657145 0.15714286 1.9800003
0.033404086 0.15570614 1.9800003
0.045257147 0.15462857 1.9800003
0.024514288 0.16405715 1.9800001
0.03394286 0.16217144 1.9800001
0.044502862 0.1644343 1.9800001
0.015085716 0.17474286 1.9800003
-0.024514288 0.1848 1.9800001
-0.013200001 0.18291429 1.9800001
-0.005657143 0.18102859 1.9800001
0.0037714287 0.18102859 1.9800003
0.011314287 0.18102859 1.9800001
0.011314287 0.19800001 1.9800001
0.026400002 0.19234286 1.9800001
0.035828575 0.19234286 1.9800001
0.041485716 0.19234286 1.9800001
0.011314287 0.20554286 1.9800001
0.0075428574 0.21308573 1.9800001
0.01257143 0.21748573 1.9800003
0.01697143 0.22440001 1.9800001
0.022628574 0.22628573 1.9800001
0.018857144 0.2357143 1.9800001
0.024137145 0.23382857 1.9800001
0.03017143 0.23760001 1.9800001
0.005657143 0.2489143 1.9800001
0.016594287 0.24665146 1.9800001
0.024137145 0.24438858 1.9800001
0.03017143 0.24325716 1.9800001
0.005657143 0.25268573 1.9800001
0.013200001 0.25268573 1.9800001
-0.034697145 0.50763434 1.9800001
-0.026400002 0.50914288 1.9800001
-0.264 0.51668572 1.9800001
-0.044000007 0.51542866 1.9800003
-0.03394286 0.51480007 1.9800003
-0.02514286 0.51417154 1.9800003
-0.015085716 0.51291436 1.9800003
-0.0037714287 0.51291436 1.9800001
-0.27154288 0.52422863 1.9800001
-0.2647543 0.52272004 1.9800001
-0.25457144 0.52422857 1.9800001
-0.24514286 0.52611434 1.9800003
-0.23760001 0.52611434 1.9800001
-0.041485716 0.52234292 1.9800001
-0.03394286 0.52171433 1.9800003
-0.25362861 0.53648573 1.9800001
-0.24622042 0.53500414 1.9800003
-0.25645718 0.54308575 1.9800001
-0.26148573 0.55188578 1.9800003
-0.2904 0.58457148 1.9800001
-0.28285718 0.58834291 1.9800001
-0.27908573 0.58834291 1.9800001
0.1365943 -0.22006857 1.9920001
0.14797714 -0.22765715 1.9920001
0.15366858 -0.22765715 1.9920001
0.14608002 -0.18212572 1.9920001
0.15177144 -0.18212572 1.9920001
0.14797714 -0.17833145 1.9920001
0.15556572 -0.17453715 1.9920001
0.15556572 -0.16694857 1.9920001
0.14797714 -0.09296 1.9920001
0.15177144 -0.09296 1.9920001
0.15177144 -0.087268576 1.9920001
0.14228573 0.0075885719 1.9920001
0.14513144 0.015177144 1.9920001
0.14418288 0.022765715 1.9920001
0.15746287 0.053120002 1.9920001
0.16315429 0.053120002 1.9920001
0.14797714 0.060708575 1.9920001
0.01897143 0.098651432 1.9920001
0.022765715 0.098651432 1.9920001
-0.30480763 0.10497525 1.9920001
-0.29595429 0.10244572 1.9920001
-0.28457147 0.10244572 1.9920001
-0.27508572 0.10244572 1.9920001
0.0075885719 0.10624 1.9920001
0.011382857 0.10244572 1.9920001
0.024030477 0.10497525 1.9920001
0.030354287 0.10624 1.9920001
-0.3225143 0.11762286 1.9920001
-0.31438372 0.11491266 1.9920003
0.026560001 0.11003429 1.9920001
0.034148574 0.11382858 1.9920003
0.045531429 0.1163581 1.9920001
-0.32346287 0.12521143 1.9920001
-0.31777143 0.12426287 1.9920001
0.03794286 0.12331429 1.9920001
0.041737143 0.12331429 1.9920001
-0.32377908 0.13532953 1.9920001
-0.31568459 0.13507657 1.9920002
-0.32441145 0.14418286 1.9920003
-0.31492576 0.14370857 1.9920003
-0.30544001 0.14418286 1.9920003
-0.2997486 0.14608002 1.9920001
-0.3225143 0.15177144 1.9920001
-0.31492573 0.15366858 1.9920001
-0.30544001 0.15366858 1.9920001
-0.2997486 0.15366858 1.9920001
0.026560001 0.16694857 1.9920001
0.035413336 0.16568381 1.9920001
0.017074287 0.17833145 1.9920001
0.024662856 0.17453717 1.9920003
0.035666287 0.17453715 1.9920002
0.043634288 0.17453717 1.9920003
-0.030354287 0.1897143 1.9920001
-0.024662858 0.1897143 1.9920001
-0.014228571 0.18876573 1.9920001
-0.0056914287 0.18781716 1.9920001
0.0037942859 0.18781716 1.9920003
0.014418286 0.18516116 1.9920002
0.024662858 0.18592 1.9920003
0.034622859 0.18592 1.9920003
0.043634288 0.18592 1.9920003
-0.030354287 0.19350858 1.9920001
-0.024662858 0.19350858 1.9920001
-0.015177144 0.1935086 1.9920001
0.0045531429 0.19502631 1.9920002
0.015177144 0.1935086 1.9920001
0.022765715 0.19350858 1.9920001
0.030354287 0.19350858 1.9920001
-0.0037942859 0.20109715 1.9920001
0.0048783678 0.20434941 1.9920003
0.002529524 0.21500954 1.9920001
0.0060708574 0.22310403 1.9920002
0.012647619 0.22639239 1.9920001
0.0075885719 0.23524573 1.9920001
0.014093062 0.23470369 1.9920003
0.0045531429 0.24511087 1.9920002
0.013280001 0.24473146 1.9920001
-0.0056914287 0.25231999 1.9920001
0 0.25231999 1.9920001
-0.2428343 0.49515432 1.9920001
-0.25042287 0.5084343 1.9920001
-0.24662858 0.5084343 1.9920001
-0.23145144 0.5084343 1.9920001
-0.030354287 0.5084343 1.9920001
-0.024662856 0.50463998 1.9920001
-0.017074287 0.5084343 1.9920001
-0.26433527 0.51539052 1.9920003
-0.25421715 0.51602292 1.9920003
-0.24473146 0.51602292 1.9920003
-0.23524573 0.51602292 1.9920003
-0.22386286 0.51602286 1.9920003
-0.053120002 0.51981717 1.9920001
-0.049325716 0.51792002 1.9920001
-0.022765715 0.51222861 1.9920001
-0.015177144 0.51222861 1.9920001
-0.0075885719 0.51602286 1.9920001
0.001897143 0.51602286 1.9920001
-0.26180574 0.52361149 1.9920001
-0.25231999 0.52361149 1.9920001
-0.24473144 0.52361149 1.9920001
-0.23524572 0.52456009 1.9920001
-0.22576001 0.52361149 1.9920001
-0.053120002 0.52550864 1.9920001
-0.047428571 0.52550864 1.9920001
-0.03794286 0.52361149 1.9920001
-0.2428343 0.53878862 1.9920001
-0.23777525 0.53752387 1.9920001
-0.053120002 0.53119999 1.9920001
-0.045531429 0.5349943 1.9920003
-0.25231999 0.54637718 1.9920001
-0.24473144 0.54448003 1.9920001
-0.23714286 0.54258287 1.9920001
-0.25530124 0.5534237 1.9920003
-0.24473144 0.55017149 1.9920001
-0.29216 0.58432001 1.9920001
-0.28457144 0.58621716 1.9920001
0.1457421 -0.22280991 2.003
0.15388128 -0.2238273 2.003
0.16214761 -0.22891429 2.003
0.1297181 -0.21556094 2.003
0.13480508 -0.21619682 2.003
0.144216 -0.21594249 2.003
0.15388128 -0.21492508 2.003
0.1297181 -0.20793048 2.003
0.13544096 -0.20697667 2.003
0.144216 -0.20678592 2.003
0.15451714 -0.20220762 2.003
0.13734858 -0.19839238 2.003
0.14307143 -0.19839238 2.003
0.15451714 -0.19648476 2.003
0.14879429 -0.18694668 2.003
0.15260953 -0.18694668 2.003
0.16252914 -0.16481827 2.003
0.14879429 0.0076304763 2.003
0.14879429 0.015260953 2.003
0.15260953 0.017168572 2.003
0.14688668 0.024799047 2.003
0.14784048 0.033383336 2.003
0.14879429 0.04387524 2.003
-0.32047999 0.099196188 2.003
-0.31475717 0.099196188 2.003
-0.30521905 0.099196188 2.003
0.0057228571 0.099196188 2.003
0.026706666 0.099196188 2.003
0.034337144 0.099196188 2.003
0.04578286 0.099196188 2.003
-0.32238764 0.10491905 2.003
-0.31475717 0.10491905 2.003
-0.30903429 0.10301143 2.003
-0.0038152381 0.10301143 2.003
0.0038152381 0.10396524 2.003
0.026706666 0.10301143 2.003
0.035100192 0.10453752 2.003
0.047690473 0.10491905 2.003
-0.33319747 0.11700064 2.003
-0.32556701 0.1131854 2.0030003
-0.31666479 0.1106419 2.003
0.038152382 0.1106419 2.003
0.045019813 0.11216801 2.003
-0.34337142 0.1297181 2.003
-0.33526403 0.12637976 2.003
-0.32811046 0.12590286 2.003
-0.34337142 0.13544096 2.003
-0.33574098 0.13544098 2.0030003
-0.32811046 0.13353334 2.003
-0.34337145 0.14497906 2.003
-0.33574095 0.14497906 2.003
-0.31666479 0.14879429 2.003
-0.34527904 0.15260953 2.003
-0.33574098 0.15260953 2.003
-0.32811046 0.15260953 2.003
-0.31475717 0.15260953 2.003
0.030521905 0.16787048 2.003
0.032429524 0.17550096 2.003
0.019076191 0.18694668 2.003
0.030521905 0.18694668 2.003
-0.041967619 0.19839238 2.003
-0.034337144 0.19839238 2.003
-0.024799047 0.19839238 2.003
-0.015260953 0.19839238 2.003
-0.0057228571 0.19648476 2.003
0 0.19839238 2.003
0.017168572 0.19076191 2.003
-0.041967619 0.20220762 2.003
-0.032429524 0.20220762 2.003
-0.025434922 0.20347938 2.003
-0.01635102 0.20547782 2.0030003
-0.0061043813 0.20678592 2.003
0 0.20793048 2.003
-0.041967619 0.21556094 2.003
-0.038152382 0.21365333 2.003
-0.015260953 0.21746856 2.003
-0.0057228571 0.21556094 2.003
0 0.21365333 2.003
-0.041967619 0.22128381 2.003
-0.038152382 0.22128381 2.003
-0.011445714 0.22700667 2.003
-0.0057228571 0.22509906 2.0030003
0.00095380953 0.22605285 2.003
-0.011445714 0.23463714 2.003
-0.0057228571 0.23463714 2.003
0.0019076191 0.23463716 2.003
-0.011445714 0.24799049 2.003
-0.0057228575 0.24417524 2.0030003
0.0012717461 0.24163175 2.003
-0.011445714 0.25180572 2.003
-0.25180572 0.49979618 2.003
-0.24417526 0.49788857 2.003
-0.23463714 0.49598092 2.0030003
-0.22618911 0.49598098 2.0030003
-0.019076191 0.49979618 2.003
-0.25485793 0.50590056 2.003
-0.24417524 0.50551909 2.0030003
-0.23463716 0.50551909 2.003
-0.22700667 0.50551909 2.003
-0.030521905 0.50742668 2.003
-0.024799047 0.50742668 2.003
-0.017168572 0.50551903 2.003
-0.25752857 0.51124191 2.003
-0.24226762 0.51124191 2.003
-0.23654477 0.51124191 2.003
-0.22509906 0.51124191 2.003
-0.21556094 0.51696473 2.003
-0.053413332 0.51887238 2.003
-0.011445714 0.51124191 2.003
-0.0057228571 0.51505715 2.003
-0.057228573 0.52650285 2.003
-0.23425563 0.53489643 2.003
-0.22700667 0.53413337 2.0030003
-0.057228573 0.53031808 2.003
-0.24226762 0.54939431 2.003
-0.23368335 0.54653287 2.003
-0.22509906 0.54557908 2.003
-0.25180572 0.55702472 2.003
-0.24799049 0.55702472 2.003
0.1688762 -0.23028573 2.0150001
0.17399368 -0.23284447 2.0150001
0.18039048 -0.23412383 2.0150001
0.15736191 -0.22260952 2.0150001
0.16375874 -0.22516827 2.0150001
0.13817143 -0.21493334 2.0150001
0.14968573 -0.21493334 2.0150001
0.15608256 -0.21365397 2.0150001
0.16273524 -0.21416572 2.0150001
0.13817143 -0.20725715 2.0150001
0.14680716 -0.20629764 2.0150001
0.15544286 -0.20725715 2.0150001
0.16407858 -0.20437858 2.0150001
0.14968573 -0.19958097 2.0150001
0.16503811 -0.19958097 2.0150001
0.15544286 0.0057571428 2.0150001
0.15640239 0.014392857 2.0150001
0.14968573 0.026866667 2.0150001
0.15352382 0.026866667 2.0150001
0.15448335 0.035502382 2.0150001
0.15736191 0.049895242 2.0150001
-0.33007622 0.099790484 2.0150001
-0.3262381 0.099790484 2.0150001
-0.30320954 0.095952384 2.0150001
-0.29553336 0.099790484 2.0150001
-0.28401905 0.099790484 2.0150001
-0.33135557 0.10618731 2.0150001
0.04221905 0.10554762 2.0150001
-0.34159049 0.11706191 2.0150001
-0.33647305 0.11258414 2.0150001
-0.34542859 0.1247381 2.0150001
-0.35502383 0.13433334 2.0150003
-0.34926671 0.13433334 2.0150001
-0.36078095 0.14584763 2.0150001
-0.35438415 0.147127 2.0150001
-0.34926671 0.14584765 2.0150001
-0.055012703 0.1983016 2.0150001
-0.047976192 0.19766192 2.0150001
-0.04221905 0.20725715 2.0150001
-0.035502382 0.20629764 2.0150001
-0.023028571 0.20725715 2.0150001
-0.011514286 0.20725715 2.0150001
-0.044138096 0.21493334 2.0150001
-0.034063097 0.21493332 2.0150001
-0.024947617 0.21493337 2.0150003
-0.014712699 0.21557304 2.0150003
-0.044138096 0.22452858 2.0150001
-0.03377524 0.22491241 2.0150001
-0.024947619 0.22452858 2.0150001
-0.01612 0.22414477 2.0150001
-0.04221905 0.23028573 2.0150001
-0.038380954 0.23028573 2.0150001
-0.024307936 0.2315651 2.0150001
-0.017271429 0.23412383 2.0150003
-0.013433333 0.24371907 2.0150001
-0.015352381 0.49895239 2.0150001
-0.22260952 0.50470954 2.0150001
-0.21416572 0.50509334 2.0150001
-0.013433333 0.50470954 2.0150001
-0.0076761907 0.50662857 2.0150001
-0.22260952 0.51046669 2.0150001
-0.21438503 0.51320815 2.0150003
-0.20533811 0.51622379 2.0150001
-0.011514286 0.51046669 2.0150001
-0.0057571433 0.51238573 2.0150001
0.17760383 -0.23165716 2.0270002
0.18146478 -0.23165716 2.0270002
0.16756536 -0.22316305 2.0270002
0.17374288 -0.22779621 2.0270002
0.16988192 -0.21428287 2.0270002
0.16602097 -0.20849144 2.0270002
0.16216002 0.019304764 2.0270002
0.15701208 0.024452701 2.0270002
0.15829906 0.032818101 2.0270002
0.16312526 0.035713814 2.0270002
0.15572509 0.043757465 2.0270002
0.16216002 0.042470481 2.0270002
0.16216002 0.050192382 2.0270002
-0.30115432 0.096523814 2.0270002
-0.29343241 0.096523814 2.0270002
-0.3436248 0.10810667 2.0270002
-0.33783334 0.10424572 2.0270002
-0.28957143 0.10038476 2.0270002
-0.3513467 0.11775906 2.0270002
-0.34652051 0.11486334 2.0270002
-0.35520765 0.12548096 2.0270002
-0.3745124 0.13706383 2.0270002
-0.36292955 0.13706383 2.0270002
-0.35713813 0.14285526 2.0270002
-0.061775245 0.20076953 2.0270002
-0.053088099 0.20559573 2.0270002
-0.046331432 0.20656097 2.0270002
-0.046331432 0.2123524 2.0270002
-0.052122861 0.22393525 2.0270004
-0.046331432 0.22779621 2.0270002
-0.052122861 0.23358764 2.0270002
-0.046331432 0.23165716 2.0270002
-0.21428287 0.49806291 2.0270002
-0.20849144 0.49806291 2.0270002
-0.2200743 0.50385427 2.0270002
-0.21428287 0.5019238 2.0270002
-0.20720446 0.50835884 2.0270002
-0.011582858 0.50578481 2.0270002
-0.0077219056 0.50578481 2.0270002
-0.20366526 0.51447195 2.0270002
0.17710172 -0.22448419 2.039
0.18253905 -0.22526094 2.039
0.17671335 -0.21555144 2.039
0.18253905 -0.21555144 2.039
0.17477143 -0.20875478 2.039
0.18253905 -0.20972572 2.039
0.17282954 0 2.039
0.16506191 0.017477142 2.039
0.17088762 0.019419046 2.039
0.16441461 0.025892064 2.039
0.16700381 0.033012379 2.039
0.17088762 0.036896188 2.039
0.15923619 0.046605714 2.039
0.16506191 0.044663809 2.039
0.17282954 0.042721905 2.039
0.16700381 0.050489523 2.039
0.17218223 0.051784128 2.039
-0.29516953 0.097095244 2.039
-0.28740191 0.097095244 2.039
-0.35536855 0.10874667 2.039
-0.34565905 0.10389191 2.039
-0.28351811 0.10097905 2.039
-0.27963427 0.10097905 2.039
-0.36119428 0.11457238 2.039
-0.35601589 0.11392508 2.039
-0.38061333 0.12816572 2.039
-0.36443079 0.12428191 2.039
-0.35731047 0.1203981 2.039
-0.38061333 0.13399142 2.039
-0.37381667 0.13496238 2.039
-0.36799094 0.13496238 2.039
-0.37478763 0.14564286 2.039
-0.36766729 0.14499557 2.039
-0.063435555 0.20713651 2.039
-0.05631524 0.20972572 2.039
-0.062140953 0.21360953 2.039
-0.054373335 0.21555144 2.039
-0.046605714 0.21749334 2.039
-0.064082861 0.22526096 2.039
-0.058257144 0.22526096 2.039
-0.063435555 0.23432319 2.039
-0.058257144 0.23497048 2.039
-0.062140953 0.24079619 2.039
-0.058257144 0.24079619 2.039
-0.18448095 0.48936 2.039
-0.19030666 0.49518573 2.039
-0.18253905 0.49324381 2.039
-0.17865524 0.49518573 2.039
-0.22137713 0.50101143 2.039
-0.20473225 0.50489527 2.039
-0.19419047 0.50489527 2.0389998
-0.18448095 0.50295335 2.039
-0.20195809 0.51266289 2.039
-0.1967797 0.5139575 2.039
-0.16700381 0.51460481 2.039
0.18621778 -0.22528446 2.0510001
0.16642402 0.0046879998 2.0510004
0.17580001 0.0039066668 2.0510001
0.16668445 0.013022223 2.0510001
0.17580001 0.018231113 2.0510001
0.16798668 0.023440002 2.0510001
0.17580001 0.025393335 2.0510004
0.17645113 0.034508891 2.0510004
0.16798668 0.046880003 2.0510001
0.17677668 0.045903336 2.0510001
0.17970668 0.05078667 2.0510001
-0.28323334 0.089853339 2.0510001
-0.27542001 0.087900005 2.0510001
-0.35160002 0.097666666 2.0510001
-0.34769335 0.097666666 2.0510001
-0.28323334 0.095713332 2.0510001
-0.27542001 0.095713332 2.0510001
-0.26956001 0.097666666 2.0510001
-0.36462224 0.10808444 2.0510001
-0.35550672 0.10352667 2.0510004
-0.27542001 0.10157334 2.0510001
-0.26760668 0.10157334 2.0510001
-0.37113336 0.11524667 2.0510001
-0.36722666 0.11524667 2.0510001
-0.38285336 0.12306 2.0510001
-0.37552834 0.12452501 2.0510004
-0.072273336 0.21682002 2.0510001
-0.065436669 0.21584335 2.0510001
-0.073445342 0.22502401 2.0510004
-0.073110484 0.23384193 2.0510004
-0.066413336 0.23830667 2.0510001
-0.072273336 0.24221335 2.0510001
-0.066413336 0.24221335 2.0510001
-0.19728667 0.49614671 2.0510001
-0.18752001 0.49614671 2.0510001
-0.21096 0.50005335 2.0510001
-0.2051 0.50005335 2.0510001
-0.19728667 0.50005335 2.0510001
-0.18556666 0.50005335 2.0510001
-0.16212669 0.51568007 2.0510004
-0.15626667 0.51763332 2.0510001
-0.087248892 0.51698226 2.0510001
0.17486382 0.0078590484 2.0630002
0.18075812 0.0078590484 2.0630002
0.17551875 0.013098414 2.0630002
0.18075812 0.013753334 2.0630002
0.18337779 0.036675557 2.0630002
-0.29392844 0.092736773 2.0630002
-0.37330478 0.10609715 2.0630002
-0.36806545 0.10347747 2.0630002
-0.38214624 0.11395621 2.0630002
-0.37625194 0.11297382 2.0630002
-0.11199145 0.22791241 2.0630002
-0.11199145 0.23184192 2.0630002
-0.16111049 0.50494385 2.0630002
-0.1552162 0.50494385 2.0630002
-0.14735717 0.5029791 2.0630002
-0.15482324 0.51398176 2.0630002
-0.092343822 0.51476765 2.0630002
-0.0039295242 0.51083815 2.0630002
0 0.51083815 2.0630002
-0.30448005 0.094902866 2.0760002
-0.12653716 0.1977143 2.0760002
-0.11862858 0.1977143 2.0760002
-0.11269715 0.23725717 2.0760002
-0.10478858 0.23725717 2.0760002
-0.12258286 0.24121146 2.0760002
-0.11388344 0.24279316 2.0760002
-0.10478858 0.24121146 2.0760002
-0.079085723 0.30448005 2.0760002
-0.13444573 0.43892574 2.0760002
-0.15421715 0.49824005 2.0760002
-0.14630859 0.49626291 2.0760002
-0.10518401 0.49507663 2.0760002
-0.16212574 0.50219434 2.0760002
-0.15421717 0.50219434 2.0760002
-0.14433144 0.50417149 2.0760002
-0.10478859 0.50417149 2.0760002
-0.098857149 0.50614864 2.0760002
-0.15026288 0.51405722 2.0760002
-0.14334287 0.51306862 2.0760002
-0.1384 0.51405722 2.0760002
-0.10380001 0.51306862 2.0760002
-0.098857149 0.51405722 2.0760002
-0.14235429 0.5219658 2.0760002
-0.1384 0.5219658 2.0760002
-0.093584776 0.524602 2.0760002
-0.30226287 0.087497145 2.0880001
-0.29351315 0.08590629 2.0880001
-0.28635427 0.08550857 2.0880001
-0.30425143 0.091474287 2.0880001
-0.26447999 0.10340571 2.0880001
-0.13323429 0.19885714 2.0880001
-0.12329143 0.19686857 2.0880001
-0.11533715 0.19885714 2.0880001
-0.13422857 0.20382859 2.0880001
-0.12527999 0.20482287 2.0880001
-0.11931429 0.20482287 2.0880001
-0.13124572 0.21078858 2.0880001
-0.12527999 0.21078858 2.0880001
-0.11533715 0.21609144 2.0880001
-0.11268573 0.22404572 2.0880001
-0.12488228 0.23385601 2.0880001
-0.1193143 0.23465145 2.0880001
-0.13124572 0.24459429 2.0880001
-0.12594286 0.24525714 2.0880001
-0.11931429 0.24658287 2.0880001
-0.10539428 0.24658287 2.0880001
-0.095451429 0.24459431 2.0880003
-0.086171433 0.24525714 2.0880001
-0.07954286 0.24658287 2.0880001
-0.13124572 0.2565257 2.0880001
-0.12726858 0.25453717 2.0880001
-0.11420083 0.25453717 2.0880003
-0.10499656 0.25374171 2.0880001
-0.095451429 0.25453714 2.0880001
-0.08550857 0.25453717 2.0880003
-0.077554286 0.25453717 2.0880003
-0.11334857 0.26447999 2.0880001
-0.10473143 0.26514286 2.0880001
-0.095451437 0.26447999 2.0880003
-0.08550857 0.26447999 2.0880001
-0.077554286 0.26249143 2.0880001
-0.10499656 0.27521831 2.0880001
-0.095451429 0.27442285 2.0880001
-0.08550857 0.27442285 2.0880003
-0.07954286 0.27442288 2.0880001
-0.10539428 0.28436571 2.0880001
-0.095451437 0.28436571 2.0880003
-0.08550857 0.28436571 2.0880001
-0.078217149 0.28502858 2.0880001
-0.10539427 0.2943086 2.0880003
-0.095451429 0.29430857 2.0880001
-0.08550857 0.2943086 2.0880003
-0.077554286 0.2943086 2.0880003
-0.11136 0.30425143 2.0880001
-0.10539428 0.30425143 2.0880001
-0.095451437 0.30425143 2.0880003
-0.08550857 0.30425143 2.0880001
-0.075565718 0.30226287 2.0880001
-0.11136 0.31220573 2.0880001
-0.10605714 0.31154287 2.0880001
-0.099428572 0.31021714 2.0880001
-0.083519995 0.31021714 2.0880001
-0.077554286 0.31021714 2.0880001
-0.11334857 0.34998858 2.0880001
-0.11334857 0.3539657 2.0880001
-0.10340571 0.3698743 2.0880001
-0.095451437 0.36589718 2.0880001
-0.087497145 0.36589718 2.0880001
-0.10340571 0.37584001 2.0880001
-0.095451429 0.37584001 2.0880003
-0.12726857 0.38777143 2.0880001
-0.11136 0.38578287 2.0880001
-0.10539427 0.3857829 2.0880003
-0.094883278 0.38464656 2.0880003
-0.10605714 0.40832004 2.0880001
-0.093462855 0.40566859 2.0880003
-0.08550857 0.40566862 2.0880003
-0.075565718 0.40616575 2.0880001
-0.067611441 0.40566859 2.0880001
-0.10539428 0.41561145 2.0880001
-0.095451437 0.41561145 2.0880003
-0.087497145 0.41561145 2.0880001
-0.11136 0.42157716 2.0880001
-0.10539428 0.42356575 2.0880001
-0.095451429 0.42555434 2.0880001
-0.087497145 0.42157716 2.0880001
-0.13124572 0.43748572 2.0880001
-0.12594286 0.43483433 2.0880001
-0.096777141 0.4348343 2.0880001
-0.13257144 0.4441143 2.0880001
-0.091474287 0.45737144 2.0880001
-0.083519995 0.45737144 2.0880001
-0.091474287 0.46532571 2.0880001
