# .PCD v0.7 - Point Cloud Data file format
VERSION 0.7
FIELDS x y z
SIZE 4 4 4
TYPE F F F
COUNT 1 1 1
WIDTH 1492
HEIGHT 1
VIEWPOINT 0 0 0 1 0 0 0
POINTS 1492
DATA ascii
0.047146667 0.15232 1.904
0.055850666 0.154496 1.9040002
0.065798096 0.15698285 1.9040003
0.075641908 0.15491049 1.9040003
0.085226662 0.15413333 1.904
0.094293334 0.15594667 1.9040002
0.10396444 0.15715556 1.9040002
0.11605334 0.15655111 1.9040002
0.12512 0.15413333 1.904
0.132736 0.154496 1.9040002
0.14627557 0.1547378 1.9040002
0.15594669 0.15594669 1.9040002
0.16320001 0.15957333 1.904
-0.14144 0.16501334 1.904
-0.13237333 0.16501334 1.904
-0.12512 0.16501334 1.904
-0.11677867 0.16537601 1.9040002
0.061653331 0.16320001 1.904
0.096711114 0.16440891 1.904
0.10517333 0.16320001 1.904
0.11424001 0.16320001 1.904
0.15685333 0.16592 1.904
0.16501334 0.16320001 1.904
0.17045332 0.16320001 1.904
-0.12512001 0.17408 1.9040002
-0.11650667 0.17453334 1.9040002
-0.1088 0.17770667 1.904
0.11605334 0.17408 1.904
0.14869334 0.17770667 1.904
0.15549332 0.17362668 1.9040002
-0.14325334 0.18858667 1.904
-0.13346134 0.18713599 1.9040002
-0.12512001 0.18496001 1.9040002
-0.11605334 0.18496002 1.9040002
-0.10517333 0.18495999 1.9040002
-0.093568005 0.18713599 1.9040002
-0.084622227 0.18737778 1.904
-0.079786666 0.18858667 1.904
0.08522667 0.18858667 1.904
0.094293341 0.18677334 1.9040002
0.10517334 0.18641067 1.9040002
0.11605334 0.18435556 1.9040002
0.12512 0.18314666 1.904
0.13418666 0.18314669 1.9040002
0.14506668 0.18224001 1.904
0.20671999 0.18677333 1.904
0.21034667 0.18677333 1.904
-0.1440305 0.19584002 1.9040003
-0.13600001 0.19402668 1.904
-0.12330666 0.19221334 1.904
-0.11532801 0.193664 1.9040002
-0.10396444 0.19644444 1.9040002
-0.094293334 0.19584002 1.9040002
-0.085589342 0.19511467 1.9040002
-0.076160006 0.19584002 1.9040002
-0.067456 0.19656533 1.9040002
-0.04352 0.19584 1.904
-0.034453332 0.19584 1.904
-0.024933334 0.19538666 1.9040002
-0.015542859 0.19584002 1.9040003
0.025386667 0.19946668 1.904
0.037173335 0.19493334 1.904
0.045333333 0.19402668 1.904
0.054400004 0.19221334 1.904
0.064373329 0.19493334 1.904
0.076160006 0.19402668 1.9040002
0.08522667 0.19221334 1.904
-0.10517333 0.20490667 1.904
-0.09550222 0.20430224 1.904
-0.08522667 0.20671999 1.904
-0.076159999 0.20490667 1.9040002
-0.067093335 0.20490667 1.904
-0.03626667 0.20309334 1.904
-0.023573333 0.20490667 1.904
-0.015715558 0.20430224 1.904
0 0.20490667 1.904
0.016320001 0.20490667 1.904
0.023573333 0.20490667 1.904
-0.08522667 0.21034667 1.904
-0.076160006 0.21034667 1.904
-0.067093335 0.21034667 1.904
-0.12512 0.57663995 1.904
-0.11968 0.57663995 1.904
-0.14144 0.58389336 1.904
-0.13373332 0.58344001 1.9040002
-0.12511998 0.58389336 1.9040002
-0.14144 0.59477335 1.904
-0.13522285 0.59425527 1.9040003
-0.12330666 0.59296 1.904
-0.083413333 0.5984 1.904
-0.079786666 0.5984 1.904
-0.082983337 0.12675476 1.9150001
-0.075384125 0.12645081 1.9150002
-0.041947618 0.12766667 1.9150001
-0.036476191 0.12766667 1.9150001
-0.14225715 0.13860953 1.9150001
-0.1349619 0.13860953 1.9150002
-0.12401905 0.13860953 1.9150002
-0.11490001 0.13860953 1.9150001
-0.10578096 0.13860953 1.9150002
-0.093379058 0.13642095 1.9150002
-0.083439291 0.13541785 1.9150001
-0.075140953 0.13423239 1.9150002
-0.065657146 0.13350286 1.9150002
-0.054714289 0.13496192 1.9150001
-0.043771431 0.13496192 1.9150001
-0.036476191 0.1349619 1.9150002
-0.023101589 0.13739365 1.9150002
0.13678572 0.13860953 1.9150001
0.14225715 0.13860953 1.9150001
-0.1532 0.14955239 1.9150001
-0.14486261 0.14642587 1.9150002
-0.13541785 0.14544882 1.9150001
-0.12474857 0.1437162 1.9150002
-0.11490001 0.14225715 1.9150001
-0.10578096 0.14225715 1.9150002
-0.094838098 0.14225715 1.9150002
-0.087542862 0.14225715 1.9150001
-0.047419049 0.14225715 1.9150001
-0.032828573 0.14408097 1.9150001
-0.025533333 0.14225715 1.9150002
-0.013860953 0.1437162 1.9150002
-0.0054714289 0.14408097 1.9150001
0.0031916667 0.14636073 1.9150001
0.014134524 0.14544882 1.9150001
0.02480381 0.1437162 1.9150002
0.03526032 0.14347303 1.9150002
0.043771431 0.14408097 1.9150002
0.054714289 0.14590478 1.9150001
0.065657146 0.14590476 1.9150001
0.074776195 0.14590478 1.9150002
0.083895251 0.14408097 1.9150002
0.094838098 0.14590478 1.9150001
0.10505144 0.14809334 1.9150002
0.11490001 0.14772858 1.9150001
0.12401905 0.14772859 1.9150002
0.13496192 0.14590476 1.9150001
0.14590476 0.14590476 1.9150001
0.15465906 0.14663431 1.9150002
0.16341333 0.14809334 1.9150002
0.17599763 0.14864048 1.9150001
0.18238096 0.14772858 1.9150001
-0.16171113 0.15563175 1.9150002
-0.15441588 0.15563175 1.9150002
-0.14590478 0.15502381 1.9150002
-0.13739365 0.15441588 1.9150002
0.063833334 0.1532 1.9150001
0.1082127 0.15441588 1.9150002
0.11490001 0.1532 1.9150001
0.16596667 0.15502381 1.9150001
0.17508572 0.15502381 1.9150002
0.18602858 0.15502381 1.9150002
0.19514762 0.15502381 1.9150001
0.20244287 0.15502381 1.9150001
-0.17386985 0.16535874 1.9150002
-0.16414286 0.16414286 1.9150001
-0.15502381 0.16414286 1.9150002
-0.14694695 0.16362177 1.9150002
-0.13860953 0.16414288 1.9150002
0.16657463 0.16535875 1.9150002
0.17554167 0.16414286 1.9150001
0.18602857 0.16414288 1.9150001
0.19478285 0.16414286 1.9150002
0.20472263 0.16459882 1.9150001
0.21520953 0.1677905 1.9150002
0.22524047 0.16687858 1.9150001
0.23344763 0.16779049 1.9150001
-0.17289715 0.17435621 1.9150002
-0.16368692 0.17508572 1.9150001
-0.15502381 0.17508572 1.9150002
-0.14590478 0.17508572 1.9150001
-0.1349619 0.17508572 1.9150001
0.16518505 0.17560683 1.9150002
0.17508572 0.17508574 1.9150001
0.18602857 0.17508574 1.9150001
0.19514762 0.17508572 1.9150002
0.20426668 0.17508572 1.9150001
0.21520954 0.17508574 1.9150001
0.22615239 0.17508572 1.9150001
0.23344763 0.17326191 1.9150001
-0.16231905 0.18602858 1.9150002
-0.15502381 0.18602857 1.9150002
-0.14642587 0.18498641 1.9150002
-0.13587381 0.18329287 1.9150001
0.10578096 0.1896762 1.9150001
0.11672381 0.1896762 1.9150001
0.12401905 0.18967621 1.9150002
0.1349619 0.18967621 1.9150002
0.14590478 0.18821715 1.9150002
0.15502381 0.18602858 1.9150002
0.16414286 0.18557262 1.9150001
0.17508572 0.18557261 1.9150001
0.18602858 0.1849864 1.9150002
0.19514762 0.18420477 1.9150001
0.20322451 0.18550749 1.9150002
0.21520953 0.18238096 1.9150002
0.22615239 0.18238096 1.9150002
-0.16171113 0.1945397 1.9150002
-0.15502381 0.19514762 1.9150001
-0.14955239 0.19332381 1.9150001
-0.032828573 0.19697143 1.9150001
0.047419049 0.19697143 1.9150001
0.054714289 0.19697145 1.9150002
0.085719049 0.19697143 1.9150001
0.094838098 0.19514762 1.9150002
0.10578096 0.19514762 1.9150002
0.11490001 0.19514762 1.9150001
0.12401905 0.19514762 1.9150002
0.1349619 0.19514762 1.9150002
0.14590478 0.19332382 1.9150002
0.16414286 0.19332381 1.9150001
0.1714381 0.19332381 1.9150001
0.18785238 0.19514762 1.9150001
0.19332381 0.19697143 1.9150001
0.20244287 0.19332381 1.9150001
-0.10213334 0.20791429 1.9150001
-0.09362223 0.20669842 1.9150002
-0.085111111 0.20305082 1.9150002
-0.032828573 0.20244287 1.9150001
-0.029180953 0.20244287 1.9150001
0.025533333 0.20609048 1.9150001
0.034652382 0.20244287 1.9150001
0.043771431 0.20061907 1.9150002
0.058361907 0.20061906 1.9150001
0.065657139 0.20322451 1.9150002
0.075140953 0.20353715 1.9150002
0.082853064 0.20374559 1.9150002
0.09605398 0.20305079 1.9150002
0.10578096 0.2042667 1.9150001
0.11429208 0.20305079 1.9150002
0.12401904 0.20426671 1.9150001
0.13222618 0.20517857 1.9150001
0.010942858 0.21156192 1.9150001
0.083895244 0.21156192 1.9150001
0.098485716 0.21156192 1.9150001
0.10395715 0.21156192 1.9150001
0.12766667 0.21156192 1.9150001
0.13131429 0.21156192 1.9150001
-0.13313809 0.57814765 1.9150001
-0.12401905 0.57632387 1.9150002
0.21642542 0.57875556 1.9150002
0.2298 0.57632381 1.9150001
0.24512 0.57851237 1.9150002
0.21764128 0.58483499 1.9150002
-0.14408097 0.59456193 1.9150001
-0.13860953 0.59091431 1.9150001
-0.22183335 -0.0036666668 1.9250001
-0.22000001 0 1.9250001
-0.14300001 0.12466668 1.9250001
-0.13383335 0.12833333 1.9250001
-0.12833333 0.12833333 1.9250001
-0.094111115 0.12711112 1.9250001
-0.07333333 0.12466668 1.9250001
-0.066733338 0.12686668 1.9250001
-0.055000003 0.12833333 1.9250001
-0.044 0.12588891 1.9250001
-0.034222223 0.12588891 1.9250001
-0.024750002 0.12741667 1.9250001
-0.01375 0.12558335 1.9250001
0.025666667 0.12588891 1.9250001
0.084791675 0.12512501 1.9250001
0.094875008 0.12512501 1.9250001
0.10413333 0.12466667 1.9250001
0.13933334 0.12833333 1.9250001
-0.15033334 0.13933334 1.9250001
-0.14544445 0.13688891 1.9250001
-0.13493335 0.13420001 1.9250001
-0.12466668 0.13383335 1.9250001
-0.11366668 0.13383333 1.9250001
-0.1045 0.13383335 1.9250001
-0.097166672 0.13383335 1.9250001
-0.088 0.132 1.9250001
-0.066 0.132 1.9250001
-0.033 0.13566668 1.9250001
-0.02688889 0.13444445 1.9250001
-0.014666666 0.13566668 1.9250001
-0.0055 0.1375 1.9250001
0.0029333334 0.13786668 1.9250001
0.014666666 0.13566668 1.9250001
0.025666669 0.13566668 1.9250001
0.034466665 0.13640001 1.9250001
0.044 0.13750002 1.9250001
0.055000003 0.13750002 1.9250001
0.066000007 0.13750002 1.9250001
0.075166672 0.13566667 1.9250001
0.084333338 0.13566667 1.9250001
0.095333338 0.13566667 1.9250001
0.10450001 0.13566667 1.9250001
0.11366668 0.13750002 1.9250001
0.12558334 0.13841668 1.9250001
0.13514286 0.13461906 1.9250002
0.1452 0.13493335 1.9250001
0.15354168 0.136125 1.9250001
0.16500001 0.13933334 1.9250001
0.176 0.13933334 1.9250001
0.18516667 0.13933334 1.9250001
-0.16255556 0.14544445 1.9250001
-0.15400001 0.14483334 1.9250001
0.0073333336 0.14300001 1.9250001
0.1045 0.14300001 1.9250001
0.11275001 0.14391667 1.9250001
0.12466668 0.14300001 1.9250001
0.15766667 0.14300001 1.9250001
0.16591667 0.14391667 1.9250001
0.17526667 0.14446667 1.9250001
0.18577778 0.14422223 1.9250001
0.19433334 0.14483334 1.9250001
0.20460002 0.1452 1.9250001
0.21450001 0.14666666 1.9250001
0.22000001 0.14666666 1.9250001
-0.17380002 0.15473334 1.9250001
-0.16622223 0.15277779 1.9250001
-0.15766667 0.15216668 1.9250001
0.18700001 0.15033334 1.9250001
0.19433334 0.15033334 1.9250001
0.20680001 0.15253334 1.9250001
0.21450001 0.15400001 1.9250001
0.22261907 0.15347621 1.9250002
-0.18333334 0.16683334 1.9250001
-0.17844445 0.16255556 1.9250001
0.19800001 0.16499999 1.9250001
0.20166668 0.16133334 1.9250001
0.2145 0.16316667 1.9250001
0.22366667 0.1628 1.9250001
0.23558335 0.16591667 1.9250001
-0.18333334 0.176 1.9250001
-0.17875001 0.17691666 1.9250001
-0.16866668 0.176 1.9250001
-0.176 0.18516669 1.9250001
-0.16866668 0.18516667 1.9250001
-0.17233334 0.19066668 1.9250001
-0.16866668 0.1925 1.9250001
0.14483333 0.19800001 1.9250001
0.15473334 0.19653334 1.9250001
0.16499999 0.19580001 1.9250001
0.17661111 0.19555557 1.9250001
0.18333334 0.19433334 1.9250001
0.19555557 0.19311112 1.9250001
0.029333334 0.20900001 1.9250001
0.034833334 0.20900001 1.9250001
0.044 0.20533334 1.9250001
0.054266669 0.20386668 1.9250001
0.066 0.20900001 1.9250001
0.07333333 0.20900001 1.9250001
0.088 0.20716667 1.9250001
0.092888892 0.20777778 1.9250001
0.11611112 0.20655558 1.9250001
0.13786669 0.20460002 1.9250001
0.14483333 0.2035 1.9250001
0.15400001 0.20166668 1.9250001
0.16500001 0.20166668 1.9250001
0.17233334 0.20166668 1.9250001
-0.095333338 0.21266668 1.9250001
0.0165 0.21266666 1.9250001
0.023833334 0.21266666 1.9250001
0.066733338 0.21413334 1.9250001
0.075166672 0.2145 1.9250001
0.083111107 0.21388888 1.9250001
0.093500003 0.21266666 1.9250001
0.11366668 0.21450001 1.9250001
0.12283334 0.21266666 1.9250001
0.21633334 0.56833333 1.9250001
0.21633334 0.57383335 1.9250001
0.22244446 0.57444447 1.9250001
0.23512501 0.57566667 1.9250001
0.24444446 0.57444447 1.9250001
0.20900001 0.58483332 1.9250001
0.21266666 0.58483332 1.9250001
0.22549999 0.58483332 1.9250001
0.23540001 0.58520001 1.9250001
0.24566668 0.5866667 1.9250001
0.25300002 0.58666664 1.9250001
-0.1511924 0.12537906 1.9360001
-0.14381716 0.12759164 1.9360001
-0.13644192 0.12537906 1.9360001
-0.12537906 0.12783748 1.9360002
-0.113087 0.12599367 1.9360001
-0.10509716 0.12537907 1.9360001
-0.098643817 0.12445716 1.9360001
-0.027657144 0.12537906 1.9360001
-0.016594287 0.12906668 1.9360001
-0.0073752385 0.12722287 1.9360001
0.0018438096 0.12722287 1.9360001
0.014750479 0.12722288 1.9360001
0.025813334 0.12783748 1.9360002
0.03503238 0.12722287 1.9360001
0.046095241 0.12906668 1.9360001
0.055314288 0.12169144 1.9360001
0.075596191 0.12722287 1.9360001
0.099565722 0.12169144 1.9360001
0.10694096 0.12537906 1.9360001
0.113087 0.12599367 1.9360001
0.12906668 0.12906668 1.9360001
0.13552001 0.12630096 1.9360001
0.14427811 0.12491812 1.936
0.1542654 0.12537907 1.9360001
-0.15488002 0.13644192 1.9360002
-0.14381716 0.1327543 1.9360002
-0.0055314288 0.1327543 1.9360001
0.0046095243 0.1336762 1.9360001
0.03687619 0.1327543 1.9360001
0.044251435 0.1327543 1.9360002
0.055314288 0.1327543 1.9360002
0.064533338 0.1327543 1.9360001
0.070064761 0.1327543 1.9360001
0.11431621 0.1327543 1.9360002
0.12464154 0.13422935 1.9360001
0.15856762 0.1327543 1.9360001
0.16594286 0.13459812 1.9360001
0.17454731 0.13521272 1.9360002
0.18438098 0.13644192 1.9360002
0.19728763 0.13644192 1.9360001
0.20281905 0.13644192 1.9360001
-0.18069334 0.14750476 1.9360001
-0.17516191 0.14566097 1.9360001
-0.16668038 0.14307962 1.9360001
-0.15672381 0.14012952 1.9360001
0.19544384 0.14012954 1.9360002
0.20466286 0.14012952 1.9360001
0.21388194 0.14197336 1.9360001
0.22420727 0.14455467 1.9360001
-0.18216839 0.15561754 1.9360001
-0.17700572 0.1511924 1.9360001
0.22863239 0.15672381 1.9360001
0.23548086 0.15382642 1.9360001
0.24522668 0.15303621 1.9360001
-0.18683939 0.16594288 1.9360002
0.23416382 0.16225524 1.9360001
0.029500954 0.21388192 1.9360001
0.033188574 0.21388192 1.9360001
0.044251435 0.21019429 1.9360002
0.055314288 0.21019429 1.9360002
0.21756953 0.55683053 1.9360001
0.22494477 0.55683053 1.9360001
0.23969524 0.55683053 1.9360001
0.21388191 0.56789333 1.9360001
0.22494477 0.56789333 1.9360001
0.23723683 0.56543493 1.9360001
0.24485794 0.56420571 1.9360001
0.21265273 0.57281023 1.9360002
0.22494477 0.57403946 1.9360002
0.23600763 0.57158101 1.9360002
0.24522668 0.57158101 1.9360001
0.22678858 0.58264387 1.9360001
-0.16503143 0.12980001 1.9470001
-0.15650173 0.12831658 1.9470001
-0.13350858 0.12609144 1.9470001
-0.12361906 0.12485524 1.9470003
-0.1174381 0.12485524 1.9470003
-0.0037085717 0.12794572 1.9470001
0.0074171433 0.12794572 1.9470001
0.043575719 0.12701857 1.9470001
0.056158371 0.12715104 1.9470003
0.064900003 0.12609145 1.9470003
0.070462868 0.12609145 1.9470003
0.1174381 0.12485524 1.9470003
0.12562786 0.12562786 1.9470003
0.13350858 0.12423715 1.9470001
0.15699622 0.12609145 1.9470003
0.16503143 0.12980001 1.9470001
0.17430286 0.12980001 1.9470003
0.18172002 0.12980001 1.9470001
-0.17430288 0.13721716 1.9470003
-0.16503143 0.13536286 1.9470001
-0.15576002 0.13350859 1.9470003
0.17801145 0.13350858 1.9470001
0.18542859 0.13350859 1.9470003
0.19408193 0.13474478 1.9470003
0.20397143 0.13474476 1.9470003
0.21509716 0.13721716 1.9470003
0.22622287 0.13721716 1.9470003
0.2354943 0.13721716 1.9470001
0.24291146 0.13721716 1.9470001
-0.1953181 0.14710668 1.9470003
-0.18542859 0.14525239 1.9470003
-0.17430288 0.14092574 1.9470003
0.22869526 0.14216191 1.9470003
0.2354943 0.14463429 1.9470003
0.24198431 0.14370714 1.9470001
-0.20026287 0.15390572 1.9470001
-0.19470003 0.15576002 1.9470003
-0.18821001 0.15483287 1.9470001
0.23734859 0.15946859 1.9470001
0.24105716 0.15946859 1.9470001
0.25218287 0.15390572 1.9470001
-0.19408193 0.16564953 1.9470003
-0.18913715 0.16317715 1.9470001
0.24105716 0.16317715 1.9470001
-0.19470002 0.17059429 1.9470001
0.055628579 0.21509716 1.9470003
0.22807716 0.54886866 1.9470001
0.20397145 0.55814004 1.9470001
0.21361375 0.55702746 1.9470001
0.22498667 0.55504954 1.9470003
0.21633336 0.56617534 1.9470003
0.22745907 0.56617534 1.9470003
0.23364002 0.56741148 1.9470001
0.20768 0.57297432 1.9470001
0.21509716 0.57112002 1.9470001
0.22745907 0.57235622 1.9470003
0.21509716 0.58410007 1.9470001
0.16658542 0.11810159 1.9580001
0.17528763 0.11748 1.9580001
0.18461142 0.11748 1.9580001
0.19020571 0.11561524 1.9580001
-0.16596381 0.1268038 1.9580001
0.16596381 0.12493904 1.9580001
0.17528763 0.12493905 1.9580001
0.18461142 0.1268038 1.9580001
0.19393525 0.1268038 1.9580001
0.20512381 0.12587142 1.9580001
0.21382603 0.12556063 1.9580001
0.22377144 0.1268038 1.9580001
0.23309524 0.1268038 1.9580001
-0.19393525 0.13799238 1.9580001
-0.18367904 0.13519524 1.9580001
-0.17528763 0.1323981 1.9580001
0.18647619 0.13053332 1.9580001
0.19393525 0.13053332 1.9580001
0.20605618 0.13146572 1.9580001
0.21444762 0.1323981 1.9580001
0.22377144 0.1323981 1.9580001
0.23496 0.1323981 1.9580001
0.24614857 0.13426286 1.9580001
0.2548508 0.13674921 1.9580001
-0.19393525 0.14265428 1.9580001
-0.18647619 0.1417219 1.9580001
0.24838629 0.14619733 1.9580001
0.25547236 0.14545143 1.9580001
0.25733715 0.15291047 1.9580001
-0.19766477 0.16409905 1.9580001
0.037295237 0.21631238 1.9580001
0.059672382 0.22004192 1.9580001
0.0634019 0.22190668 1.9580001
0.20736153 0.55495322 1.9580001
0.21506922 0.55569911 1.9580001
0.22004192 0.55569905 1.9580001
0.23496 0.55942857 1.9580001
0.24241905 0.55942857 1.9580001
0.20885333 0.56502289 1.9580001
0.21444762 0.56688762 1.9580001
0.22377144 0.56688762 1.9580001
0.23496 0.56502289 1.9580001
0.20885333 0.57061714 1.9580001
0.21631238 0.57061714 1.9580001
0.22377144 0.57061714 1.9580001
0.20636699 0.58677846 1.9580001
0.21258287 0.58553529 1.9580001
-0.22690383 -0.011251429 1.9690001
-0.22690383 -0.0075009526 1.9690001
0.19502477 0.11626476 1.9690001
0.2250286 0.11626476 1.9690002
0.23440477 0.11626476 1.9690001
0.18564858 0.12376572 1.9690001
0.19502477 0.12189049 1.9690001
0.20377588 0.1212654 1.9690002
0.21377717 0.12151543 1.9690001
0.22502857 0.12189049 1.9690001
0.23440477 0.12189048 1.9690001
0.24378097 0.12526593 1.9690001
-0.19427468 0.13351695 1.9690001
-0.18752381 0.13314191 1.9690001
0.24753144 0.13126667 1.9690001
0.25128192 0.13126667 1.9690001
0.048756193 0.21752763 1.9690001
0.054381907 0.22315335 1.9690001
0.060007621 0.22502859 1.9690001
0.19502477 0.54756957 1.9690001
0.20377588 0.54631943 1.9690002
0.21252702 0.54506922 1.9690001
0.2212781 0.54756957 1.9690001
0.19502477 0.55132002 1.9690001
0.20377588 0.55257022 1.9690002
0.21471478 0.55225766 1.9690001
0.22315335 0.5531953 1.9690001
-0.27248573 -0.033 1.9800001
-0.26626286 -0.034697145 1.9800001
-0.25268573 -0.03394286 1.9800001
-0.27342859 -0.024514288 1.9800001
-0.26777145 -0.024514288 1.9800001
-0.2225143 -0.024514288 1.9800001
-0.21874288 -0.024514288 1.9800001
-0.23382857 -0.01433143 1.9800001
-0.22402287 -0.01584 1.9800001
-0.21874288 -0.01697143 1.9800001
-0.23508573 -0.0062857149 1.9800003
0.21874288 0.10937144 1.9800001
0.2225143 0.10937144 1.9800001
0.20742859 0.11691429 1.9800001
0.21572573 0.11540572 1.9800001
0.2225143 0.11314286 1.9800001
-0.18102859 0.12822859 1.9800001
-0.17725715 0.12822859 1.9800001
0.24514288 0.12257144 1.9800001
-0.041485716 0.21874288 1.9800001
-0.035828575 0.21685717 1.9800001
0.045257147 0.21874288 1.9800001
-0.041485716 0.2225143 1.9800001
-0.037714288 0.2225143 1.9800001
0.19988573 0.54497147 1.9800001
0.20617144 0.54434294 1.9800003
0.19988573 0.55251431 1.9800001
-0.23714286 -0.060708575 1.9920001
-0.2361943 -0.055965718 1.9920001
-0.26560003 -0.043634288 1.9920003
-0.25313306 -0.044989392 1.9920003
-0.24568002 -0.046480004 1.9920001
-0.23524573 -0.049325716 1.9920001
-0.26275429 -0.033200003 1.9920001
-0.25421715 -0.034148574 1.9920003
-0.2451109 -0.03490743 1.9920002
-0.23524573 -0.032883815 1.9920003
-0.22386287 -0.032251433 1.9920003
-0.26370287 -0.024662856 1.9920001
-0.25421715 -0.024662858 1.9920003
-0.24473144 -0.024662856 1.9920001
-0.23524573 -0.024662856 1.9920003
-0.22765715 -0.024662858 1.9920001
-0.27318859 -0.015177144 1.9920001
-0.26560003 -0.015177144 1.9920003
-0.25421712 -0.015177143 1.9920003
-0.24473146 -0.015177144 1.9920003
-0.2365105 -0.017706668 1.9920001
-0.27318859 -0.0056914287 1.9920001
-0.26560003 -0.0056914291 1.9920003
-0.25421715 -0.0056914291 1.9920003
-0.24473146 -0.0056914291 1.9920001
-0.23904002 -0.0037942859 1.9920001
-0.27318859 0.0056914287 1.9920001
-0.26635888 0.0037942862 1.9920002
-0.27318859 0.011382857 1.9920001
-0.26560003 0.013280002 1.9920003
0.20299429 0.11762286 1.9920001
0.21248001 0.11382858 1.9920001
-0.18592 0.12900572 1.9920001
-0.043634288 0.22765715 1.9920001
-0.03794286 0.22765715 1.9920001
0.01897143 0.22386287 1.9920001
0.022765715 0.22386287 1.9920001
0.030354287 0.22386287 1.9920001
0.048060954 0.22512764 1.9920001
-0.041737143 0.23145144 1.9920001
0.055017143 0.23145144 1.9920001
0.062605716 0.23145144 1.9920001
-0.25371334 -0.06104381 2.003
-0.24417524 -0.062951431 2.003
-0.26515907 -0.055320948 2.003
-0.25562096 -0.055320948 2.0030003
-0.24608287 -0.055320952 2.003
-0.23463714 -0.053413332 2.003
0.26706669 -0.053413332 2.003
0.27278954 -0.053413332 2.003
-0.26515907 -0.049598094 2.003
-0.25943619 -0.047690473 2.003
-0.24226762 -0.043875236 2.003
-0.23463716 -0.043875236 2.003
-0.22891429 -0.041967619 2.003
0.26706669 -0.049598094 2.003
0.27240801 -0.045019809 2.003
0.31475717 -0.045782857 2.0030003
-0.24226762 -0.032429524 2.003
-0.23463714 -0.038152382 2.003
-0.22700667 -0.038152382 2.003
0.27088189 -0.036244765 2.003
-0.27278954 0 2.003
-0.26452321 0.0050869845 2.003
-0.25562099 0.0038152384 2.003
-0.24472028 0.0027251702 2.0030003
-0.23527303 0.0012717461 2.003
-0.25752857 0.011445714 2.003
-0.25180572 0.026706666 2.003
-0.22700667 0.026706666 2.003
-0.25180572 0.030521905 2.003
-0.23272952 0.032429524 2.003
-0.22700666 0.032429524 2.003
0.20602286 0.11445715 2.003
-0.19076191 0.12781048 2.003
-0.18503904 0.12590286 2.003
0.016532701 0.22764254 2.003
0.025434922 0.22764254 2.003
0.035290956 0.22796048 2.003
0.043239366 0.22764254 2.003
-0.04451111 0.23527303 2.003
-0.036880638 0.23400128 2.003
0.047690473 0.23272952 2.003
0.057228573 0.23654477 2.003
0.062951431 0.23654477 2.003
-0.041967619 0.24036001 2.003
-0.038152382 0.24036001 2.003
-0.019076191 0.24799049 2.003
0.062951431 0.24036001 2.003
-0.019076191 0.25180572 2.003
0.27634287 -0.072923817 2.0150001
0.28018096 -0.072923817 2.0150001
-0.26290953 -0.061409526 2.0150001
0.26866668 -0.065247625 2.0150001
0.27442384 -0.065247625 2.0150003
0.28018099 -0.065247625 2.0150001
0.26866665 -0.057571433 2.0150001
0.27442384 -0.057571433 2.0150001
0.28146034 -0.055012703 2.0150001
0.31664288 -0.055652384 2.0150001
0.27634287 -0.049895242 2.0150001
0.28353927 -0.045577377 2.0150001
0.27634287 -0.034542859 2.0150001
0.28018096 -0.036461905 2.0150001
0.27250478 -0.026866667 2.0150001
-0.24371906 0.0076761907 2.0150001
-0.23335622 0.0061409525 2.0150001
-0.26099047 0.017271429 2.0150001
-0.25459367 0.014073017 2.0150001
-0.24659762 0.01247381 2.0150001
-0.23335622 0.013049523 2.0150001
-0.24947619 0.026866667 2.0150001
-0.23284447 0.024307936 2.0150001
-0.22644764 0.023028571 2.0150001
-0.24947619 0.030704763 2.0150001
0.20725715 0.11130476 2.0150001
0.21493334 0.11130476 2.0150001
-0.032623813 0.22644764 2.0150001
0.034542859 0.22644764 2.0150001
0.04221905 0.22260952 2.0150001
-0.032623813 0.23316431 2.0150001
-0.025587302 0.23284447 2.0150001
-0.015352381 0.23412383 2.0150001
0.019190477 0.23412383 2.0150001
0.024947619 0.23412383 2.0150001
0.034542859 0.23412383 2.0150001
0.045097619 0.2370024 2.0150001
0.053733334 0.23796192 2.0150001
-0.015352381 0.24819684 2.0150001
-0.0076761907 0.24947619 2.0150001
0.049895242 0.2456381 2.0150001
0.05565238 0.2456381 2.0150003
0.063328572 0.24755716 2.0150001
-0.013433333 0.25331429 2.0150001
-0.0076761907 0.25331429 2.0150001
0.056292068 0.25459367 2.0150001
0.063328572 0.25331429 2.0150001
0.28764099 -0.073358104 2.0270002
0.29536289 -0.073358104 2.0270002
0.28764099 -0.065636203 2.0270004
0.29343241 -0.069497153 2.0270002
0.28828448 -0.054053336 2.0270002
0.29536289 -0.052122861 2.0270002
0.3050153 -0.052122857 2.0270004
0.31273717 -0.054053336 2.0270002
0.29536286 -0.044400956 2.0270002
0.3050153 -0.044400956 2.0270004
0.31273717 -0.044400956 2.0270002
0.28681365 -0.03419701 2.0270004
0.29536289 -0.03474858 2.0270004
0.3050153 -0.034748577 2.0270002
0.31466767 -0.03474858 2.0270004
0.32045907 -0.036679052 2.0270002
0.27670163 -0.024452701 2.0270002
0.28571051 -0.025096193 2.0270004
0.29536289 -0.027026668 2.0270002
0.30887622 -0.027026668 2.0270002
-0.25482285 0.019304764 2.0270002
-0.24517049 0.017374288 2.0270002
-0.23648335 0.018339526 2.0270002
-0.25482288 0.023165716 2.0270002
-0.2451705 0.025096193 2.0270002
-0.23937906 0.025096193 2.0270002
-0.2451705 0.032818101 2.0270002
-0.23937906 0.032818101 2.0270002
0.26640573 0.036679052 2.0270002
-0.015443811 0.22779621 2.0270002
-0.0038609528 0.22779621 2.0270002
0.003860953 0.22779623 2.0270002
0.011582858 0.22779621 2.0270002
-0.030887622 0.23937906 2.0270002
-0.024452701 0.23680511 2.0270002
-0.016216001 0.23629032 2.0270002
-0.0061775241 0.23474593 2.0270002
0.0033093884 0.23441499 2.0270004
0.014478574 0.23551811 2.0270002
0.025096193 0.23937906 2.0270002
0.034748577 0.23937908 2.0270002
-0.032818101 0.2451705 2.0270002
-0.025096193 0.2451705 2.0270002
-0.014671621 0.2447844 2.0270002
-0.0077219056 0.24324001 2.0270002
0.019304764 0.24324001 2.0270002
0.025096193 0.2451705 2.0270002
0.034748577 0.2451705 2.0270004
0.044400956 0.2451705 2.0270002
-0.023165716 0.2509619 2.0270002
0.034748577 0.2509619 2.0270002
0.045044448 0.25224888 2.0270002
0.050192382 0.25482288 2.0270002
0.29749984 -0.065248005 2.039
0.30487907 -0.066024765 2.039
0.31264663 -0.062140953 2.039
0.29516956 -0.058257144 2.039
0.30487907 -0.058257144 2.039
0.29711145 -0.023302857 2.039
0.30487907 -0.025244763 2.039
0.26798287 -0.013593333 2.039
0.27769238 -0.019419046 2.039
0.28546 -0.015535237 2.039
0.29516953 -0.016311999 2.039
0.30293715 -0.019419046 2.039
0.26409906 -0.0058257142 2.039
0.28546 -0.0058257142 2.039
0.29516956 -0.0058257147 2.039
0.26409906 0 2.039
0.28740191 0.0019419048 2.039
0.29516953 0.0038838098 2.0389998
0.30487907 0.0038838095 2.039
0.31070474 0.0058257142 2.039
0.27575046 0.017477142 2.039
0.28740191 0.017477142 2.039
0.29516956 0.015535237 2.0389998
0.30423176 0.012946032 2.039
0.25633144 0.025244761 2.039
0.26668829 0.025892064 2.039
0.27186665 0.025244761 2.039
0.28740191 0.023302857 2.039
0.29322761 0.023302857 2.039
0.26409906 0.034954283 2.039
0.27445585 0.035601586 2.039
0.29614049 0.035925236 2.039
0.26798287 0.042721905 2.039
0.27186665 0.042721905 2.039
0.21555144 0.10874667 2.039
0.22137713 0.10874667 2.039
-0.031070476 0.22331905 2.039
-0.025892064 0.22785017 2.039
-0.015535237 0.22914477 2.039
-0.0077676191 0.22914477 2.039
-0.011651428 0.23302858 2.039
-0.004854762 0.24565096 2.039
0.0043692859 0.2451655 2.0389998
0.014425579 0.24523482 2.039
-0.0038838095 0.25438952 2.039
0.0019419048 0.25244763 2.039
0.015535238 0.25244766 2.039
0.025244761 0.25438952 2.039
0.034954283 0.25477791 2.039
0.042721905 0.25633144 2.039
0.025244761 0.26021525 2.039
0.033400759 0.26254556 2.039
0.044663809 0.26021525 2.039
0.052431427 0.26021525 2.039
0.31253335 -0.058600001 2.0510001
0.3151378 -0.024742223 2.0510001
0.32034668 -0.025393333 2.0510001
0.27542001 -0.013673333 2.0510001
0.28421 -0.01465 2.0510001
0.29560447 -0.014324444 2.0510001
0.30550134 -0.014845334 2.0510004
0.31383559 -0.016928889 2.0510001
0.26956001 -0.0058599999 2.0510001
0.27542001 -0.0058599999 2.0510001
0.28128001 -0.0058599999 2.0510001
0.30667335 -0.0058599999 2.0510001
0.31253335 -0.0058599999 2.0510001
0.26956004 0.0039066668 2.0510001
0.27542001 0.0039066672 2.0510004
0.28407049 0.0044647623 2.0510004
0.31253335 0 2.0510001
0.26721603 0.017189335 2.0510004
0.27476892 0.013022223 2.0510001
0.28453559 0.014975557 2.0510004
0.26304889 0.024742223 2.0510001
0.27737334 0.025393333 2.0510001
0.28440535 0.025784001 2.0510004
0.29495335 0.027346667 2.0510001
0.30081335 0.027346667 2.0510001
0.26174667 0.031253334 2.0510001
0.27737334 0.031253334 2.0510001
0.28567502 0.035160001 2.0510004
0.29495335 0.035160001 2.0510001
0.30081335 0.031253334 2.0510001
0.26467666 0.044926669 2.0510001
0.27542001 0.044926669 2.0510001
0.28518671 0.044926669 2.0510004
0.29495335 0.044926669 2.0510001
0.25784001 0.083993338 2.0510001
0.0048833331 0.25686336 2.0510001
0.015626667 0.25784001 2.0510001
0.0039066668 0.26272333 2.0510001
0.015626669 0.26370001 2.0510004
0.026044443 0.26695558 2.0510001
0.037113335 0.26760668 2.0510001
0.044926669 0.26565334 2.0510001
0.05339111 0.26695558 2.0510001
0.3153443 -0.014735715 2.0630002
0.26720765 0.047154289 2.0630002
0.2789962 0.047154289 2.0630002
0.26524287 0.053048577 2.0630002
0.27506673 0.053048577 2.0630002
0.28489047 0.053048577 2.0630002
0.29471433 0.053048577 2.0630002
0.30257335 0.051083814 2.0630002
0.29667908 0.066801913 2.0630002
0.2593486 0.07662572 2.0630002
0.26458797 0.077280641 2.0630002
0.27375686 0.077280641 2.0630002
0.28489047 0.075643338 2.0630002
0.29471436 0.074660949 2.063
0.26524287 0.084484771 2.0630002
0.27310193 0.084484771 2.0630002
0.28489047 0.086449534 2.0630002
0.29471433 0.084484771 2.0630002
0.2632781 0.090379059 2.0630002
0.0078590484 0.26720765 2.0630002
0.0078590484 0.27113718 2.0630002
0.015718097 0.27113718 2.0630002
0.023577144 0.27113718 2.0630002
0.031436194 0.2750667 2.0630002
0.26592574 0.058325719 2.0760002
0.27482289 0.059314292 2.0760002
0.28470859 0.059314292 2.0760002
0.29459432 0.059314292 2.0760002
0.30052575 0.059314292 2.0760002
0.26691431 0.06326858 2.0760002
0.27482289 0.065245718 2.0760002
0.28470862 0.065245718 2.0760002
0.29393527 0.064586669 2.0760002
0.30052575 0.06326858 2.0760002
0.26757336 0.072495244 2.0760002
0.27416384 0.072495244 2.0760002
0.28312689 0.074340582 2.0760002
0.28372002 0.084028572 2.0760002
0.29525337 0.084358096 2.0760002
0.26889145 0.090948582 2.0760002
0.27482289 0.090948582 2.0760002
0.28549945 0.092530303 2.0760002
0.29261717 0.092925727 2.0760002
0.027680002 0.27680001 2.0760002
0.046133339 0.27416384 2.0760002
0.05140572 0.27284575 2.0760002
0.26381716 0.066285722 2.0880001
0.27044573 0.067611434 2.0880001
0.26249143 0.071588568 2.0880001
0.26447999 0.097440004 2.0880001
0.27442288 0.097439997 2.0880003
0.28370285 0.09810286 2.0880001
0.29232001 0.099428572 2.0880001
0.27442288 0.10340571 2.0880001
0.28436571 0.10340571 2.0880001
0.29232001 0.10340571 2.0880001
0.2784 0.11533715 2.0880001
0.28635427 0.11136 2.0880001
0.29232001 0.11136 2.0880001
0.2784 0.12726857 2.0880001
0.28502858 0.12594286 2.0880001
0.29033145 0.12527999 2.0880001
0.26646858 0.13323429 2.0880001
0.27521831 0.13442743 2.0880001
0.28436571 0.13522287 2.0880003
0.29232001 0.13721144 2.0880001
0.28635427 0.14317714 2.0880001
0.29033145 0.14516571 2.0880001
0.0039771432 0.2784 2.0880001
0.015908573 0.2784 2.0880001
0.023862857 0.2784 2.0880001
0.037782855 0.2784 2.0880001
0.043748572 0.2784 2.0880001
0 0.28237715 2.0880001
0.043748572 0.28237715 2.0880001
0.26812762 0.10605048 2.1010001
0.27413049 0.10805143 2.1010001
0.28413525 0.10805143 2.1010003
0.29413998 0.10805143 2.1010001
0.26812762 0.11405428 2.1010001
0.27413049 0.11405428 2.1010001
0.28413522 0.11405428 2.1010001
0.29413998 0.11605524 2.1010001
0.26812762 0.12205809 2.1010001
0.27413052 0.12405905 2.1010001
0.28333488 0.12165791 2.1010001
0.29413998 0.12005714 2.1010001
0.27613145 0.13406381 2.1010001
0.29413998 0.13206285 2.1010001
0.2747975 0.14140064 2.1010003
0.28333488 0.1464697 2.1010001
0.28413525 0.15207238 2.1010001
0.014006667 0.28413525 2.1010001
0.024011429 0.28413525 2.1010001
0.012005715 0.43620762 2.1010001
0.054025717 0.50824189 2.1010001
-0.020009523 0.51624572 2.1010001
-0.016007619 0.51624572 2.1010001
-0.020009523 0.52024764 2.1010001
0.26576 0.10872 2.1140001
0.26576 0.11476 2.1140001
0.26710224 0.12482667 2.1140001
0.0060400004 0.28790668 2.1140001
0.014093334 0.28992 2.1140001
0.024160001 0.28830934 2.1140001
0.034226667 0.28790668 2.1140001
0.04026667 0.28790668 2.1140001
-0.0040266667 0.29394668 2.1140001
0.0048320005 0.29555735 2.1140001
0.014093334 0.29596001 2.1140001
0.024160001 0.29596004 2.1140003
0.034226667 0.29596001 2.1140001
0.04026667 0.29596001 2.1140001
0.0060400004 0.30401334 2.1140001
0.014093334 0.30401334 2.1140001
0.024160001 0.30401337 2.1140003
0.03355556 0.30468446 2.1140001
0.042280003 0.30602667 2.1140001
-0.014764446 0.31542227 2.1140001
0.0060400004 0.31206667 2.1140001
0.014496 0.31327468 2.1140001
0.02416 0.31408 2.1140001
0.034226667 0.31408 2.1140003
0.042280003 0.31408 2.1140003
0.0067111119 0.32481781 2.1140001
0.014093334 0.32414669 2.1140001
0.024160001 0.32414669 2.1140003
0.034226667 0.32414669 2.1140001
0.042280003 0.32616001 2.1140001
0.0080533344 0.33421335 2.1140001
0.014093334 0.33421335 2.1140003
0.02416 0.33421332 2.1140001
0.034226667 0.33421335 2.1140003
0.042280003 0.33018667 2.1140001
0.014093334 0.34428 2.1140001
0.024160001 0.34428 2.1140003
0.034226667 0.34428 2.1140001
0.042280003 0.34428 2.1140001
0.016106667 0.35032001 2.1140001
0.025310477 0.35377148 2.1140003
0.034226667 0.35434669 2.1140003
0.043142863 0.35492197 2.1140003
0.028186668 0.36441335 2.1140001
0.034226667 0.36441335 2.1140001
0.044293337 0.36441335 2.1140003
0.026173335 0.37045333 2.1140001
0.034897782 0.37179559 2.1140001
0.045443814 0.37390479 2.1140003
0.03624 0.38655999 2.1140001
0.044293337 0.38656002 2.1140001
0.043488003 0.39219734 2.1140001
0.04026667 0.40669334 2.1140001
0.016106667 0.41877332 2.1140001
0.021475559 0.41743112 2.1140001
0.034226667 0.4147467 2.1140003
0.04026667 0.41474667 2.1140001
0.0040266667 0.42682669 2.1140001
0.014093334 0.42481333 2.1140001
0.022146668 0.42481333 2.1140001
0.034226667 0.4228 2.1140001
0.04026667 0.4228 2.1140001
0.0046977783 0.43420893 2.1140003
0.014496 0.4340747 2.1140001
0.023656666 0.43538335 2.1140001
0.0080533335 0.44494668 2.1140001
0.014093334 0.44494668 2.1140001
0.022146668 0.44494668 2.1140001
0.00453 0.45551664 2.1140001
0.013690667 0.45420799 2.1140001
0.023354668 0.45340267 2.1140001
-0.0040266667 0.46709335 2.1140001
0.0040266672 0.46508002 2.1140003
0.01208 0.46508002 2.1140001
-0.0040266667 0.47112003 2.1140001
0.0040266667 0.47212669 2.1140001
0.03624 0.47514668 2.1140001
0.044293337 0.47514671 2.1140001
0.03624 0.48722667 2.1140001
0.04026667 0.48722667 2.1140001
-0.01208 0.51944005 2.1140001
-0.016106667 0.52548003 2.1140001
-0.0040514288 0.29980573 2.1270001
0 0.29575431 2.1270001
-0.0060771434 0.30588287 2.1270001
0 0.30588287 2.1270001
0.036462858 0.30385715 2.1270001
0.042539999 0.30385715 2.1270001
-0.0054019052 0.31466097 2.1270003
0 0.31601143 2.1270001
-0.020257143 0.32411429 2.1270001
-0.014180001 0.3220886 2.1270001
0.0040514288 0.32310143 2.1270001
0.012154287 0.32006288 2.1270001
0.042539999 0.32411429 2.1270001
0.0020257144 0.33424285 2.1270001
0.042539999 0.33626857 2.1270001
0.0035450002 0.3448779 2.1270001
0.042539999 0.34032002 2.1270001
0.0081028575 0.3545 2.1270001
0.013504764 0.35517526 2.1270003
0.020257143 0.35652572 2.1270001
0.014180001 0.36462855 2.1270001
0.021877715 0.36543885 2.1270001
0.014855239 0.37408194 2.1270003
0.023295715 0.37577 2.1270001
0.03241143 0.37678286 2.1270001
0.040514287 0.37678286 2.1270001
0.014855239 0.38218474 2.1270003
0.025466124 0.384307 2.1270001
0.034031998 0.38407546 2.1270001
0.043552861 0.38387287 2.1270001
0.052668571 0.38691145 2.1270001
0.026334289 0.39501429 2.1270001
0.034437142 0.39501429 2.1270001
0.048617147 0.39704001 2.1270001
0.052668571 0.39704001 2.1270001
0.024815004 0.4056493 2.1270001
0.034437142 0.40514287 2.1270001
0.045072146 0.40463644 2.1270001
0.052668571 0.40514287 2.1270003
0.0081028575 0.41729715 2.1270001
0.014180001 0.41527146 2.1270001
0.025118858 0.4148663 2.1270001
0.045376003 0.41567659 2.1270001
0.052668571 0.41527146 2.1270001
0.0067523811 0.42540002 2.1270003
0.012154287 0.42134857 2.1270001
0.028360002 0.42540002 2.1270003
0.034437142 0.42945144 2.1270001
0.045723271 0.42597881 2.1270001
0.052668571 0.42540002 2.1270003
-0.0040514288 0.43552858 2.1270001
0.0040514288 0.43350285 2.1270001
0.028360002 0.43350285 2.1270001
0.034437142 0.43552858 2.1270001
0.044565715 0.43593374 2.1270001
0.054019049 0.43485332 2.1270003
-0.0040514288 0.44160575 2.1270001
0.0020257144 0.44363147 2.1270001
0.028360002 0.44768289 2.1270001
0.03241143 0.44160575 2.1270001
0 0.45376003 2.1270001
0.028360002 0.45376003 2.1270001
0.034437142 0.45781144 2.1270001
0.016205717 0.46591431 2.1270003
0.024308575 0.46591431 2.1270001
0.034031998 0.4667246 2.1270001
0.042540003 0.46794003 2.1270001
-0.0040514288 0.47806859 2.1270001
0.0040514288 0.47806859 2.1270001
0.014180001 0.47604287 2.1270001
0.024308573 0.47604287 2.1270001
0.033761904 0.47536764 2.1270003
0.040514287 0.47401714 2.1270001
-0.0040514288 0.48212001 2.1270001
0.0020257144 0.48212001 2.1270001
0.022282857 0.48212001 2.1270001
0.034437142 0.4841457 2.1270001
0.044565719 0.48414573 2.1270001
0.016205717 0.49427432 2.1270003
0.022282859 0.49427435 2.1270001
0.046591431 0.49022287 2.1270001
0.016205715 0.50440288 2.1270001
0.023498287 0.50480795 2.1270001
0.046591431 0.50642854 2.1270001
0.021607621 0.51183057 2.1270003
0.045723271 0.51453143 2.1270001
0.054019049 0.51588196 2.1270003
-0.012154287 0.52668571 2.1270001
-0.0081028575 0.52263433 2.1270001
0.044565719 0.52263439 2.1270003
0.054019049 0.52398479 2.1270003
-0.012154287 0.53073716 2.1270001
0.036462858 0.53073716 2.1270001
0.044565719 0.53363109 2.1270001
0.020257143 0.54694289 2.1270001
0.035112381 0.54424191 2.1270003
-0.0040514292 0.55504572 2.1270003
0.022958096 0.5523448 2.1270003
-0.012228572 0.3138667 2.1400001
-0.0081523815 0.3138667 2.1400001
0 0.3138667 2.1400001
-0.012228572 0.32609525 2.1400001
-0.0061142864 0.32405716 2.1400001
0 0.32405716 2.1400001
-0.0057066674 0.33506289 2.1400001
-0.012228572 0.3464762 2.1400001
-0.0061142864 0.34443811 2.1400001
-0.012228572 0.35055238 2.1400001
-0.0061142864 0.35055238 2.1400001
0.0027174605 0.35598731 2.1400001
0.0067936517 0.36413968 2.1400001
0.0071333339 0.3760286 2.1400001
0.012228572 0.37908572 2.1400001
-0.0067936517 0.38587937 2.1400001
0.0048914291 0.38560757 2.1400001
0.012228572 0.38723809 2.1400001
0.020380953 0.38723809 2.1400001
-0.0040761908 0.39335239 2.1400001
0.0057066674 0.39620575 2.1400001
0.014266668 0.39539051 2.1400003
0.020380955 0.39539051 2.1400001
0.0081523815 0.40558097 2.1400001
0.014266668 0.40558094 2.1400001
0.020380953 0.40354288 2.1400001
-0.0040761908 0.41984764 2.1400001
0.0050952383 0.41679049 2.1400001
0.014266668 0.41169527 2.1400001
-0.0040761908 0.42596191 2.1400001
0.0020380954 0.42596191 2.1400001
-0.0061142864 0.43411431 2.1400001
0.044838097 0.4361524 2.1400001
-0.0081523815 0.44226667 2.1400001
0.034647621 0.44634289 2.1400001
0.045653336 0.44593525 2.1400001
0.05434921 0.44702226 2.1400001
0.034647621 0.45449525 2.1400001
0.044838097 0.45449528 2.1400003
0.052990478 0.45449525 2.1400001
0.036685713 0.46468571 2.1400001
0.045420412 0.46352112 2.1400003
0.046876192 0.47691429 2.1400001
-0.0040761908 0.48914289 2.1400001
0.0050952383 0.48812383 2.1400001
0.014266668 0.48710477 2.1400001
0.025476191 0.48812383 2.1400001
0.0081523815 0.49729526 2.1400001
0.012228572 0.49525714 2.1400001
0.028533334 0.49525714 2.1400001
0.033968255 0.49593651 2.1400001
0.042800002 0.49729526 2.1400001
0.0045857145 0.50595719 2.1400001
0.012228573 0.50544763 2.1400001
0.028533334 0.5034095 2.1400001
0.034647621 0.50544763 2.1400003
0.042392384 0.50463241 2.1400001
-0.005434921 0.51631749 2.1400001
0.0040761908 0.51563811 2.1400003
0.014266668 0.51563811 2.1400001
0.027174605 0.51631749 2.1400001
0.034647621 0.51563811 2.1400001
0.040761907 0.51360005 2.1400001
-0.0057066674 0.5258286 2.1400001
0.0029115651 0.5258286 2.1400003
0.014946032 0.5231111 2.1400001
0.024457145 0.5253191 2.1400001
0.035055239 0.52501339 2.1400001
0.043819048 0.52786666 2.1400001
-0.012228572 0.53805715 2.1400001
-0.0061142859 0.53601909 2.1400001
0.0020380954 0.53398103 2.1400001
0.024457144 0.53398103 2.1400001
0.032609526 0.53398103 2.1400001
-0.012228572 0.54417145 2.1400001
-0.0067936517 0.54485083 2.1400001
0.016304763 0.54417145 2.1400001
0.024457144 0.54457903 2.1400001
0.034647621 0.54213339 2.1400001
0.040761907 0.54417145 2.1400001
-0.0071333339 0.55334294 2.1400001
0.0047555561 0.55572069 2.1400003
0.014674286 0.55517715 2.1400001
0.025476191 0.55334294 2.1400001
0.032609526 0.55232382 2.1400001
-0.061142862 0.56455243 2.1400001
-0.057066668 0.56455243 2.1400001
-0.0081523815 0.56251431 2.1400001
0.0040761912 0.56251431 2.1400001
0.014266668 0.56251431 2.1400001
0.020380953 0.56251431 2.1400001
-0.061142862 0.57066667 2.1400001
-0.020504761 0.33217716 2.1530001
-0.014353335 0.33422762 2.1530001
-0.0082019055 0.33217716 2.1530001
-0.014353334 0.34242952 2.1530001
-0.012302858 0.35678285 2.1530001
-0.0061514294 0.35678285 2.1530001
-0.012302859 0.36498475 2.1530004
-0.0061514294 0.36498481 2.1530001
0.0010252382 0.36601001 2.1530001
-0.0068349219 0.37455368 2.1530004
0.0020504764 0.37523717 2.1530001
-0.012302859 0.38548955 2.1530004
-0.0054679373 0.38275558 2.1530004
0 0.38343906 2.1530001
-0.012302858 0.39574194 2.1530001
-0.0082019055 0.39574194 2.1530001
0.0027339687 0.39505845 2.1530004
-0.012302858 0.40189338 2.1530001
-0.0061514294 0.40394384 2.1530001
0.0013669843 0.40462732 2.1530004
-0.0057413341 0.41419622 2.1530001
0.0020504766 0.41419625 2.1530001
-0.0082019055 0.42444861 2.1530001
-0.0082019055 0.43060002 2.1530001
0.036908574 0.45110479 2.1530001
0.041009523 0.45110479 2.1530001
-0.0041009528 0.49621522 2.1530001
0.0041009532 0.49621522 2.1530004
-0.0051261908 0.50544238 2.1530001
0.0013669843 0.50168318 2.1530004
-0.0068349219 0.51398605 2.1530004
0.0082019055 0.52492195 2.1530001
0.012302858 0.52902293 2.1530001
0.0082019055 0.53517437 2.1530001
0.014353335 0.53517431 2.1530001
0.024605716 0.53517437 2.1530001
0.032807622 0.53312385 2.1530001
-0.0041009528 0.54542673 2.1530001
0.0041009528 0.54542673 2.1530001
0.013328096 0.54440147 2.1530001
0.024605714 0.54235101 2.1530001
0.0348581 0.54132575 2.1530001
-0.10457429 0.55567908 2.1530001
-0.098422863 0.55567908 2.1530001
0.0027339687 0.55499566 2.1530004
0.012302858 0.55362862 2.1530001
-0.10457429 0.56183052 2.1530001
-0.096372381 0.56183052 2.1530001
-0.053312384 0.56593144 2.1530001
-0.049211431 0.56593144 2.1530001
-0.054952767 0.5749535 2.1530001
-0.046477463 0.57276642 2.1530001
-0.036908574 0.57003242 2.1530001
-0.012382858 0.37767714 2.1670001
-0.0041276193 0.37974095 2.1670001
-0.0082552386 0.41688952 2.1670001
-0.0082552386 0.50563335 2.1670001
-0.21050858 0.54897332 2.1670001
-0.20328525 0.54587764 2.1670001
-0.19812572 0.54484576 2.1670003
-0.19812572 0.553101 2.1670001
-0.12589239 0.553101 2.1670001
-0.11144572 0.55722857 2.1670001
-0.13208382 0.56961149 2.1670001
-0.12589239 0.56961149 2.1670001
-0.11439402 0.56548387 2.1670001
-0.10525429 0.56961149 2.1670001
-0.094935238 0.56961149 2.1670003
-0.045403808 0.56754768 2.1670001
-0.035084762 0.56961149 2.1670001
-0.028893335 0.56961149 2.1670001
-0.13208382 0.57373905 2.1670001
-0.12382858 0.57373905 2.1670001
-0.11557334 0.57477093 2.1670001
-0.10525429 0.57580286 2.1670001
-0.09906286 0.57373905 2.1670001
-0.25341141 0.53590286 2.181
-0.24925715 0.53590286 2.181
-0.21394572 0.53590286 2.181
-0.25341141 0.54421145 2.1810002
-0.24925715 0.54836571 2.181
-0.21394572 0.54421139 2.181
-0.20667571 0.54317284 2.181
-0.19940571 0.54005712 2.181
-0.21394572 0.55459714 2.181
-0.20563716 0.5566743 2.181
-0.13293715 0.55459714 2.181
-0.12670571 0.55251998 2.181
-0.14124571 0.56913716 2.181
-0.13397571 0.56602144 2.181
-0.12670571 0.56498289 2.181
-0.041542854 0.56913716 2.181
-0.035311431 0.56913716 2.181
-0.14124571 0.57536852 2.181
-0.13709143 0.57536852 2.181
-0.12462857 0.57536852 2.181
-0.19362924 0.11562032 2.194
-0.18805715 0.1149238 2.194
-0.20059428 0.1232819 2.194
-0.19432573 0.12537144 2.1940002
-0.18638554 0.12620723 2.194
-0.17552 0.12955049 2.194
0.17969905 0.12746096 2.194
0.18527111 0.12676445 2.194
0.1922362 0.12537143 2.194
-0.20059428 0.13372952 2.194
-0.19432572 0.13581905 2.194
-0.18596762 0.13581905 2.194
-0.17552 0.13581905 2.1940002
-0.0961181 0.13790858 2.194
0.11283428 0.13372952 2.194
0.14626667 0.13372952 2.194
0.17969905 0.13372952 2.194
-0.1922362 0.14208762 2.194
-0.0961181 0.14208762 2.194
-0.26328 0.53909713 2.194
-0.25492191 0.53631109 2.194
-0.2451708 0.53770411 2.194
-0.23611619 0.53909713 2.194
-0.22148952 0.53909713 2.194
-0.21731047 0.53282857 2.194
-0.20393752 0.53742546 2.194
-0.19641525 0.53700757 2.194
-0.26328 0.54327619 2.194
-0.25352889 0.54466921 2.194
-0.24656381 0.54536569 2.194
-0.22357905 0.54327619 2.194
-0.16298287 0.54745525 2.194
-0.15671429 0.54745525 2.194
-0.29462284 0.55999237 2.194
-0.28417525 0.55790281 2.194
-0.27581716 0.55581331 2.194
-0.26745903 0.55163431 2.194
-0.24656381 0.55163431 2.194
-0.17134096 0.55790281 2.194
-0.1654903 0.55581331 2.194
-0.15410237 0.55581331 2.194
-0.14417714 0.55581331 2.1940002
-0.13686381 0.55476856 2.194
-0.12119238 0.55999237 2.194
-0.11701333 0.55999237 2.194
-0.27303112 0.56695747 2.194
-0.26745903 0.56835049 2.194
-0.16576889 0.56556451 2.194
-0.15462476 0.56626093 2.1940002
-0.14417715 0.56626093 2.194
-0.13790858 0.56626093 2.194
-0.12119238 0.56626093 2.194
-0.11701333 0.56417143 2.194
-0.27498135 0.57503694 2.194
-0.26745903 0.57461905 2.194
-0.15378895 0.57420117 2.194
-0.14626667 0.57461905 2.194
0.25444573 0.025234288 2.2080002
-0.18505144 0.10934858 2.2080002
-0.17453715 0.10934858 2.2080002
-0.16822858 0.10934858 2.2080002
-0.1472 0.10934858 2.2080002
0.18925716 0.10934858 2.2080002
0.19556573 0.10934858 2.2080002
0.20397717 0.10934858 2.2080002
-0.18294859 0.11565715 2.2080002
-0.17523812 0.1163581 2.2080002
0.1472 0.11776001 2.2080002
0.15771431 0.11776001 2.2080002
0.16612571 0.11776001 2.2080002
0.17453715 0.11776001 2.2080002
0.18589258 0.11607772 2.2080002
0.19556573 0.11565715 2.2080002
0.20397717 0.11565715 2.2080002
0.21028572 0.11776001 2.2080002
-0.18224764 0.12336763 2.2080002
-0.17453715 0.12406857 2.2080002
-0.16612571 0.12617144 2.2080002
-0.15561146 0.12617144 2.2080002
-0.14579812 0.12476953 2.2080002
-0.13878858 0.12617144 2.2080002
-0.10093715 0.12617144 2.2080002
-0.096731439 0.12617144 2.2080002
0.13668573 0.12406857 2.2080002
0.14509715 0.12406858 2.2080002
0.15561146 0.12406858 2.2080002
0.16612571 0.12406858 2.2080002
0.17453715 0.12406858 2.2080002
0.18505144 0.12196573 2.2080002
0.1962667 0.12336763 2.2080002
0.20397715 0.12406858 2.2080002
0.21238858 0.12406858 2.2080002
-0.16612571 0.13458288 2.2080002
-0.15561144 0.13458288 2.2080002
-0.14509715 0.13458288 2.2080002
-0.13878858 0.13248001 2.2080002
-0.10304 0.13458288 2.2080002
-0.094208002 0.13374174 2.2080002
-0.088320009 0.13878858 2.2080002
-0.06308572 0.13878858 2.2080002
-0.05187048 0.13738668 2.2080002
-0.044160001 0.13668573 2.2080002
-0.03785143 0.13668573 2.2080002
0.067291431 0.13248001 2.2080002
0.07149715 0.13458286 2.2080002
0.08621715 0.13668573 2.2080002
0.092525721 0.13668573 2.2080002
0.10514288 0.13458286 2.2080002
0.11776001 0.13458286 2.2080002
0.12336763 0.13318096 2.2080002
0.13458288 0.13248003 2.2080002
0.14439622 0.13177906 2.2080002
0.15561146 0.13248003 2.2080002
0.16612573 0.13248001 2.2080002
0.17453715 0.13248001 2.2080002
-0.10304001 0.1429943 2.2080002
-0.07149715 0.1429943 2.2080002
-0.065188572 0.1429943 2.2080002
-0.056777149 0.1429943 2.2080002
-0.21238859 0.5362286 2.2080002
-0.24393144 0.54674292 2.2080002
-0.23446859 0.54569149 2.2080002
-0.22710858 0.54253721 2.2080002
-0.29229718 0.55725718 2.2080002
-0.27337146 0.55094862 2.2080002
-0.26443431 0.55515432 2.2080002
-0.25444573 0.55936003 2.2080002
-0.24533336 0.55515432 2.2080002
-0.23499429 0.55462861 2.2080002
-0.22500573 0.55515432 2.2080002
-0.16402286 0.55936003 2.2080002
-0.15981716 0.55936003 2.2080002
-0.29159623 0.56636953 2.2080002
-0.28388572 0.56777143 2.2080002
-0.27757716 0.56777143 2.2080002
-0.26496002 0.56566858 2.2080002
