# .PCD v0.7 - Point Cloud Data file format
VERSION 0.7
FIELDS x y z
SIZE 4 4 4
TYPE F F F
COUNT 1 1 1
WIDTH 1411
HEIGHT 1
VIEWPOINT 0 0 0 1 0 0 0
POINTS 1411
DATA ascii
-0.095030308 -0.16541213 1.715
-0.084466666 -0.16753334 1.7150002
-0.075430296 -0.16452122 1.715
-0.065333337 -0.1617 1.715
-0.032666665 -0.1666 1.715
-0.026460001 -0.16562001 1.715
-0.015866667 -0.16426666 1.7150002
-0.0065333336 -0.1655111 1.715
0.003675 -0.16700833 1.715
0.017966669 -0.1666 1.715
0.022866666 -0.16986667 1.715
-0.096911117 -0.15571111 1.715
-0.065333337 -0.1568 1.715
-0.056000005 -0.15446667 1.7150002
-0.045733333 -0.1529889 1.715
-0.036586668 -0.15288 1.715
-0.0294 -0.1568 1.715
0.0065333336 -0.1568 1.715
-0.097999997 -0.14373332 1.715
-0.035933331 -0.14373334 1.715
-0.23301524 -0.27403903 1.723
-0.22973333 -0.27239808 1.723
-0.23410921 -0.2658343 1.723
-0.22973333 -0.26911622 1.723
-0.23465618 -0.2559886 1.723
-0.22535747 -0.24723683 1.7229999
-0.21988761 -0.24286096 1.723
-0.21496476 -0.23547667 1.7229998
-0.20676 -0.23465618 1.723
-0.21086237 -0.2272719 1.723
-0.20347808 -0.22645143 1.7229998
-0.19609383 -0.2272719 1.723
-0.21988761 -0.21660572 1.723
-0.20265763 -0.21906714 1.723
-0.19410124 -0.21519919 1.7229999
-0.18706858 -0.21004191 1.723
0.078765713 -0.21004191 1.723
0.085985906 -0.21135466 1.7229999
0.094518863 -0.21201105 1.7229999
0.10173905 -0.21332382 1.723
-0.19199143 -0.20429857 1.723
-0.18706858 -0.2034781 1.723
0.076421499 -0.20300926 1.7229999
0.084919281 -0.20388836 1.7229998
0.091893338 -0.20511904 1.723
-0.1903505 -0.19363241 1.723
-0.18460715 -0.19117096 1.723
-0.17394096 -0.19117096 1.723
-0.1657362 -0.19035049 1.723
0.026255239 -0.1903505 1.723
0.034460001 -0.19035049 1.723
0.068099529 -0.19281191 1.723
0.074389845 -0.19472635 1.7229999
0.083688572 -0.1969143 1.723
-0.18378668 -0.18542764 1.7229999
-0.17394096 -0.18419692 1.7229998
-0.16368501 -0.1841969 1.7229998
-0.15507001 -0.18132524 1.723
-0.14768572 -0.18050475 1.723
-0.12143048 -0.18050475 1.723
0.0098457141 -0.18706858 1.723
0.017722286 -0.18509944 1.7229999
0.026255239 -0.18378669 1.7229998
0.03413181 -0.18444306 1.7229999
0.055792384 -0.18050477 1.723
0.065638095 -0.18378669 1.7229998
-0.16081333 -0.17722285 1.723
-0.15424953 -0.1755819 1.7229999
-0.14440382 -0.17448793 1.7229999
-0.13455811 -0.17230001 1.7229999
-0.12424354 -0.17394096 1.7229999
-0.11486667 -0.17353073 1.7229998
-0.10666192 -0.17065905 1.723
0.0098457141 -0.17065905 1.723
0.013127619 -0.17065905 1.723
0.027192926 -0.17440981 1.7229999
0.035280477 -0.17147954 1.723
0.047259431 -0.17262821 1.7229999
0.055792384 -0.17394093 1.7229998
0.065638095 -0.17722285 1.723
-0.13455811 -0.16737716 1.723
-0.12143048 -0.16409524 1.723
-0.11486667 -0.16456407 1.7229999
-0.10595865 -0.16409524 1.7229999
-0.091893338 -0.16081333 1.723
-0.085985906 -0.16212609 1.7229999
-0.024614286 -0.16245428 1.723
-0.018050477 -0.16081333 1.723
-0.0049228575 -0.16081333 1.723
0.0056261229 -0.16268872 1.7229999
0.015096761 -0.16278248 1.7229999
0.026255237 -0.16409524 1.7229998
0.035690717 -0.16450547 1.7229998
0.045946669 -0.16573618 1.7229999
0.052510478 -0.16737714 1.723
-0.12143048 -0.15424953 1.723
-0.11486667 -0.15424952 1.7229998
-0.10502096 -0.15424953 1.7229998
-0.094081275 -0.15315555 1.7229999
-0.085329525 -0.1542495 1.7229998
-0.075483806 -0.15424953 1.7229998
-0.065638103 -0.15260857 1.7229999
-0.054151431 -0.15096763 1.723
-0.049228575 -0.15096763 1.723
-0.032819048 -0.15260857 1.723
-0.025844999 -0.15383929 1.7229998
-0.016878368 -0.15518722 1.7229999
-0.0065638097 -0.15621868 1.7229999
0.004922857 -0.15424953 1.7229998
0.016409524 -0.15465976 1.7229998
0.025317553 -0.15471837 1.7229999
0.033913016 -0.15643746 1.723
-0.12143048 -0.14440382 1.723
-0.11486667 -0.14495081 1.7229999
-0.10556795 -0.14549778 1.7229999
-0.094765007 -0.14440382 1.7229998
-0.084673136 -0.1450602 1.7229999
-0.075483814 -0.14440382 1.7229998
-0.066048339 -0.14481404 1.7229998
-0.055792384 -0.14440382 1.7229998
-0.045946669 -0.14440383 1.7229998
-0.036647938 -0.14440382 1.7229999
-0.027192926 -0.14487267 1.7229999
-0.019691428 -0.14768572 1.723
0.0090252385 -0.14522429 1.723
0.013127619 -0.14604476 1.723
0.022973334 -0.14768572 1.723
-0.091893338 -0.1345581 1.723
-0.084673144 -0.13587086 1.7229999
-0.075483806 -0.1345581 1.7229998
-0.067826033 -0.13565208 1.723
-0.056339368 -0.1356521 1.7229999
-0.045536429 -0.13496833 1.7229998
-0.037741907 -0.13455811 1.7229999
0.0032819049 -0.13784 1.723
0.018050477 -0.13784 1.723
-0.07712476 -0.12799428 1.723
-0.065638095 -0.12143048 1.723
-0.055792384 -0.12307143 1.723
-0.046493657 -0.12471237 1.7229999
-0.036100954 -0.12799428 1.723
-0.065638095 -0.11814857 1.723
-0.059074286 -0.11814857 1.723
-0.045946669 -0.11486667 1.723
-0.24248001 -0.25072762 1.7320001
-0.23588192 -0.25072762 1.7320001
-0.25072762 -0.24412954 1.7320001
-0.24318697 -0.24412954 1.7320004
-0.23340762 -0.24660382 1.7320001
-0.24083048 -0.23588192 1.7320001
-0.23753144 -0.23588192 1.7320001
-0.21443813 -0.2210362 1.7320001
-0.22433525 -0.21663748 1.7320001
-0.21443811 -0.21485049 1.7320002
-0.20495334 -0.21402571 1.7320002
-0.1957435 -0.21333842 1.7320001
0.098971434 -0.21113905 1.7320001
0.10227048 -0.21113905 1.7320001
-0.2037162 -0.20701526 1.7320001
-0.19596343 -0.20388117 1.7320002
0.089074291 -0.20124193 1.7320001
0.096614972 -0.2040697 1.7320004
0.10227048 -0.20454097 1.7320001
-0.20124193 -0.19794287 1.7320001
-0.19629334 -0.19464383 1.7320002
0.078077465 -0.19244447 1.7320001
0.086246543 -0.19370124 1.7320004
0.095201097 -0.1955864 1.7320004
0.10337016 -0.1957435 1.7320001
-0.19134478 -0.18804573 1.7320001
-0.18309715 -0.18144764 1.7320001
-0.17484953 -0.18144764 1.7320001
-0.16825144 -0.18144764 1.7320001
0.075878106 -0.1847467 1.7320002
0.085775241 -0.1847467 1.7320002
0.092373334 -0.18804573 1.7320001
-0.18309715 -0.17814858 1.7320001
-0.17374985 -0.17594922 1.7320002
-0.16536477 -0.17443715 1.7320002
-0.15505525 -0.17155048 1.7320001
-0.14680763 -0.17155048 1.7320001
-0.12536381 -0.17155048 1.7320001
0.065980956 -0.17320001 1.7320002
0.075878099 -0.17484954 1.7320002
0.083795823 -0.17550933 1.7320002
-0.15340573 -0.16825144 1.7320001
-0.1444983 -0.16693184 1.7320002
-0.13526097 -0.16330287 1.7320002
-0.12630641 -0.1649524 1.7320004
-0.11546667 -0.16330287 1.7320001
0.039588571 -0.16165334 1.7320001
0.046186667 -0.16165334 1.7320001
0.056496195 -0.16454002 1.7320002
0.06645225 -0.16589499 1.7320004
0.0763494 -0.16589499 1.7320004
0.082476199 -0.16825144 1.7320001
-0.13443619 -0.15670475 1.7320001
-0.12668344 -0.15505524 1.7320002
-0.014845715 -0.1517562 1.7320001
-0.0065980954 -0.15258096 1.7320001
0.0032990477 -0.1517562 1.7320001
0.016495239 -0.1517562 1.7320001
0.02969143 -0.15340573 1.7320001
0.037389211 -0.15395556 1.7320002
0.046186667 -0.15505525 1.7320002
0.056083817 -0.15505524 1.7320002
0.062681906 -0.15835428 1.7320001
-0.13196191 -0.1451581 1.7320001
-0.12701336 -0.14515811 1.7320002
-0.11546668 -0.14405844 1.7320001
-0.10446984 -0.14295875 1.7320001
-0.086600006 -0.14433333 1.7320001
-0.075878099 -0.14515811 1.7320001
-0.062681906 -0.14185905 1.7320001
-0.032990478 -0.14515811 1.7320001
-0.023093333 -0.14350858 1.7320001
-0.016082857 -0.14474574 1.7320002
-0.0065980949 -0.14515811 1.7320002
0.0028866669 -0.14474572 1.7320002
0.017437825 -0.1446868 1.7320004
0.026804764 -0.14474571 1.7320002
0.034640003 -0.14845714 1.7320001
0.046186667 -0.14845714 1.7320001
-0.12536383 -0.13856003 1.7320001
-0.11629143 -0.13773525 1.7320001
-0.10622934 -0.13724039 1.7320002
-0.096614979 -0.13526095 1.7320004
-0.086599998 -0.13361144 1.7320001
-0.06488128 -0.13471113 1.7320002
-0.054984134 -0.1330616 1.7320001
-0.049485717 -0.13196191 1.7320001
-0.032990478 -0.13526097 1.7320001
-0.02639238 -0.13526097 1.7320002
-0.016495239 -0.13526097 1.7320002
-0.005498413 -0.13581081 1.7320002
0.0050985287 -0.13496105 1.7320002
0.016023947 -0.13431838 1.7320004
0.026392382 -0.13526095 1.7320002
-0.095672391 -0.12866287 1.7320001
-0.084675565 -0.1264635 1.7320002
-0.075406812 -0.12442124 1.7320004
-0.065509669 -0.12630641 1.7320004
-0.05608381 -0.12668344 1.7320002
-0.045086991 -0.12536383 1.7320001
-0.036949337 -0.1240442 1.7320002
-0.026804762 -0.1257762 1.7320002
-0.018144762 -0.12866287 1.7320001
-0.0032990477 -0.12701334 1.7320001
0.0065980959 -0.12701336 1.7320002
0.015835429 -0.12734325 1.7320002
0.023093333 -0.12866287 1.7320001
-0.079177141 -0.11876572 1.7320001
-0.062681906 -0.11546668 1.7320001
-0.055533968 -0.11546667 1.7320002
-0.046846479 -0.11612649 1.7320002
-0.037232112 -0.11593797 1.7320004
-0.062681906 -0.10886858 1.7320001
-0.05938286 -0.10227048 1.7320001
-0.038268954 -0.10622934 1.7320002
0 -0.10227048 1.7320001
-0.039588571 -0.098971434 1.7320001
-0.24871428 -0.2453981 1.7410001
-0.23710763 -0.24374001 1.7410001
-0.24705619 -0.23544952 1.7410001
-0.23544954 -0.23876572 1.7410001
-0.24208191 -0.21721047 1.7410001
-0.22550096 -0.21389429 1.7410001
-0.21555237 -0.2122362 1.7410001
-0.21555239 -0.20560384 1.7410001
-0.20626704 -0.20361412 1.7410001
-0.21356265 -0.19631849 1.7410001
-0.20601836 -0.19524071 1.7410001
0.097827621 -0.19233905 1.7410001
0.10446 -0.19233905 1.7410001
-0.20394573 -0.18902285 1.7410001
-0.19499201 -0.18636991 1.7410001
-0.18902285 -0.18239048 1.7410001
0.095506296 -0.18570666 1.7410001
0.10545486 -0.18504344 1.7410001
-0.18239048 -0.17575809 1.7410001
-0.17741619 -0.17410001 1.7410001
0.088708095 -0.17492905 1.7410001
0.092853338 -0.17907429 1.7410001
-0.17244193 -0.16580954 1.7410001
-0.16580953 -0.16580953 1.7410001
-0.15633471 -0.16486207 1.7410002
-0.14674143 -0.16332239 1.7410001
0.06466572 -0.16249335 1.7410001
0.074614286 -0.16249335 1.7410001
0.086220957 -0.16486207 1.7410002
-0.16381982 -0.1565242 1.7410001
-0.15586096 -0.15586096 1.7410001
-0.14591239 -0.15751904 1.7410001
-0.13662706 -0.15453449 1.7410001
-0.12933142 -0.15586096 1.7410001
0.066738337 -0.15544643 1.7410001
0.076272383 -0.15586098 1.7410001
0.086220957 -0.15680845 1.7410002
-0.16249335 -0.14922857 1.7410001
-0.15586096 -0.14839953 1.7410001
-0.14922857 -0.14922857 1.7410001
-0.13596381 -0.14657563 1.7410001
0.036951836 -0.1449649 1.7410002
0.046426669 -0.14723888 1.7410001
0.05678976 -0.14632691 1.7410001
0.063836671 -0.14674143 1.7410001
0.074614286 -0.14922857 1.7410001
-0.13397411 -0.13662706 1.7410001
-0.12601525 -0.13430572 1.7410001
-0.11540343 -0.13397411 1.7410001
-0.10528904 -0.13347667 1.7410001
-0.0088431751 -0.13485841 1.7410001
0.033161905 -0.13596383 1.7410001
0.056375239 -0.13928001 1.7410001
-0.13264762 -0.12933142 1.7410001
-0.12601525 -0.12601525 1.7410001
-0.11739314 -0.12734172 1.7410001
-0.1061181 -0.12933144 1.7410001
-0.095506296 -0.12402552 1.7410001
-0.088431746 -0.12380444 1.7410001
-0.069640003 -0.12269904 1.7410001
-0.033161905 -0.12269904 1.7410001
-0.023213334 -0.12269904 1.7410001
-0.016107211 -0.12506776 1.7410002
-0.0071850792 -0.12601525 1.7410001
0.0033161908 -0.12435713 1.7410001
0.017410001 -0.12352809 1.7410001
0.026944049 -0.1256007 1.7410001
0.039794285 -0.12269904 1.7410001
-0.094511434 -0.11772476 1.7410001
-0.085747212 -0.11701415 1.7410002
-0.075857863 -0.11565214 1.7410001
-0.068313532 -0.11540343 1.7410001
-0.056375239 -0.11440857 1.7410001
-0.043110479 -0.11275048 1.7410001
-0.033161905 -0.11440857 1.7410001
-0.026529524 -0.11606666 1.7410001
-0.01658095 -0.11606666 1.7410001
-0.0049742861 -0.11606666 1.7410001
0.0049742856 -0.11606666 1.7409999
0.014370158 -0.11827746 1.7410001
0.023213334 -0.11938286 1.7410001
-0.10611811 -0.1028019 1.7410001
-0.099485718 -0.1028019 1.7410001
-0.082904764 -0.10943429 1.7410001
-0.076272391 -0.10777619 1.7410001
-0.066738337 -0.10570357 1.7410001
-0.055960715 -0.10653262 1.7410001
-0.046012148 -0.10611809 1.7410001
-0.033990953 -0.10528904 1.7410001
-0.026529526 -0.10777619 1.7410001
-0.016580952 -0.10479162 1.7410001
-0.0049742861 -0.10611811 1.7410001
0.0044215871 -0.1061181 1.7410001
-0.063007623 -0.099485718 1.7410001
-0.056375239 -0.097117014 1.7410002
-0.046426669 -0.099485718 1.7410001
-0.037141334 -0.096169531 1.7410001
-0.023213334 -0.099485718 1.7410001
-0.013264762 -0.099485718 1.7410001
-0.0033161906 -0.099485718 1.7410001
0.0042636739 -0.098064497 1.7410002
-0.25333336 -0.23833334 1.7500001
-0.25000003 -0.22166668 1.7500001
-0.24555558 -0.22222224 1.7500002
-0.23750001 -0.22083335 1.7500001
-0.25000003 -0.215 1.7500001
-0.24408078 -0.21398818 1.7554001
-0.23500001 -0.21500002 1.7500002
-0.2506429 -0.20886478 1.7545002
-0.24431896 -0.20511587 1.7549093
-0.2338362 -0.20543288 1.7537501
-0.22457398 -0.20455876 1.751
-0.24381779 -0.19471747 1.7575001
-0.23453334 -0.19432762 1.7589999
-0.22397716 -0.19388382 1.755
-0.21555558 -0.19111113 1.7500002
-0.21000001 -0.19000001 1.7500001
-0.24290952 -0.18762667 1.7590001
-0.22352464 -0.18475486 1.7590001
-0.2150743 -0.18352573 1.7564287
-0.20500003 -0.18500003 1.7500001
-0.19666667 -0.18333335 1.7500001
0.096666671 -0.18666668 1.7500001
0.10250001 -0.18583335 1.7500001
0.11000001 -0.18666668 1.7500001
-0.22280666 -0.17422476 1.7590001
-0.21401167 -0.17422476 1.7589999
-0.20411764 -0.17566858 1.7567501
-0.19375049 -0.17536858 1.7537501
-0.18533336 -0.17266668 1.7500002
-0.1788889 -0.17111114 1.7500002
0.094707631 -0.17397071 1.7522501
0.10359906 -0.17544143 1.7545002
0.11244549 -0.17430072 1.755625
-0.22280668 -0.16584858 1.7590001
-0.21401165 -0.16459216 1.7589999
-0.20437907 -0.16417335 1.7589999
-0.19432761 -0.16417333 1.7589999
-0.18516003 -0.16347051 1.7515001
-0.17666668 -0.16250001 1.7500001
0.095000014 -0.16333336 1.7500002
0.10386477 -0.16417335 1.7589999
0.11349739 -0.16459216 1.7589999
-0.19365753 -0.15613219 1.7590001
-0.18579429 -0.15398763 1.7575001
-0.17500004 -0.15333334 1.7500002
-0.16666669 -0.15166667 1.7500001
-0.15000001 -0.15333335 1.7500001
-0.14500001 -0.15166667 1.7500001
0.070000008 -0.15000001 1.7500001
0.083333343 -0.15083334 1.7500001
0.093936428 -0.15321238 1.7533751
0.10380382 -0.15403619 1.758
0.1118581 -0.15360191 1.7530001
-0.18204254 -0.14630413 1.7590002
-0.17373143 -0.14365526 1.7540001
-0.16333334 -0.14333333 1.7500001
-0.15291667 -0.14291666 1.7500001
-0.14333333 -0.14333333 1.7500001
0.036666669 -0.14000002 1.7500001
0.044000003 -0.14133334 1.7500002
0.05166667 -0.14166668 1.7500001
0.064666674 -0.142 1.7500002
0.073333338 -0.14333333 1.7500001
0.083476201 -0.14357333 1.753
0.093708575 -0.14390287 1.757
0.10386477 -0.14454912 1.7590001
0.11178934 -0.14391963 1.7572001
-0.1732675 -0.13449769 1.7590001
-0.16371047 -0.1336381 1.7540001
-0.15351239 -0.13348381 1.7520001
-0.14333333 -0.13333334 1.7500001
-0.13666669 -0.13166668 1.7500001
0.035833336 -0.13250001 1.7500001
0.043333337 -0.13333334 1.7500001
0.053392384 -0.13348381 1.7520001
0.063554287 -0.13378666 1.756
0.073291667 -0.13443786 1.7589999
0.083761916 -0.13736954 1.7590002
0.092975713 -0.1365319 1.7590001
0.10721524 -0.13736953 1.7590001
0.11224096 -0.13736953 1.7590001
-0.16305652 -0.12508446 1.7590001
-0.15333337 -0.12500001 1.7500002
-0.14333335 -0.12500001 1.7500002
-0.13500001 -0.12500001 1.7500001
-0.11333334 -0.12500001 1.7500002
-0.10400001 -0.12533335 1.7500002
-0.010000001 -0.12333335 1.7500001
0.035000004 -0.12500001 1.7500001
0.044484448 -0.1245473 1.7515001
0.053548574 -0.12382477 1.757
0.06365905 -0.12396763 1.7589999
0.073291674 -0.12354881 1.7589999
0.080411434 -0.12564287 1.7590001
-0.16082287 -0.1139162 1.7590002
-0.15340048 -0.11504715 1.7507501
-0.14351477 -0.11514287 1.7522501
-0.13379191 -0.11538714 1.756
-0.12516287 -0.11514357 1.7522501
-0.115 -0.115 1.7500001
-0.10333335 -0.115 1.7500002
-0.095000006 -0.11166667 1.7500001
-0.088333338 -0.11166667 1.7500001
-0.020000001 -0.11000001 1.7500001
-0.011666669 -0.11333334 1.7500002
0.014444444 -0.11222222 1.7500002
0.023378531 -0.11475273 1.7532729
0.033420477 -0.11528858 1.7545002
0.043175239 -0.11491637 1.7557273
0.053607624 -0.1139162 1.7589999
0.06365905 -0.11391619 1.7589999
0.073710479 -0.1139162 1.7589999
0.081249051 -0.11475381 1.7590001
-0.1540343 -0.10380762 1.758
-0.14407049 -0.10428358 1.7589999
-0.13401905 -0.10554001 1.7590001
-0.12438643 -0.10344595 1.7589999
-0.11444444 -0.10370371 1.7500001
-0.10333335 -0.10333335 1.7500002
-0.095000014 -0.10333335 1.7500002
-0.085454561 -0.10303032 1.7500002
-0.074000001 -0.10133334 1.7500002
-0.06666667 -0.10000001 1.7500001
-0.050000004 -0.10666667 1.7500001
-0.026111115 -0.10166668 1.7500002
-0.012666668 -0.10266668 1.7500002
-0.0066666668 -0.10000001 1.7500001
0.014297959 -0.10388546 1.7512859
0.023417141 -0.10369144 1.756
0.033470478 -0.10374476 1.757
0.043137386 -0.10428357 1.7589999
0.05408626 -0.10482205 1.7590001
0.063659057 -0.10554 1.7590001
0.073710479 -0.10428356 1.7589999
0.080411434 -0.10554001 1.7590001
-0.15412192 -0.097163819 1.7590002
-0.14574572 -0.097163811 1.7590001
-0.13066858 -0.092138097 1.7590001
-0.12396763 -0.093813337 1.7589999
-0.11404572 -0.093985721 1.7545
-0.10348518 -0.094420418 1.7525716
-0.094012804 -0.093534164 1.7538573
-0.083983712 -0.09439408 1.756
-0.073008813 -0.093865722 1.7522501
-0.065401904 -0.09409257 1.7518002
-0.053333335 -0.094166674 1.7500001
-0.045000002 -0.095000006 1.7500001
-0.032914922 -0.094847307 1.7575001
-0.023021668 -0.094170004 1.757875
-0.013401904 -0.093813337 1.7589999
-0.0050085718 -0.09348762 1.7530001
0.0026700951 -0.092185147 1.7536001
0.013333334 -0.095000014 1.7500002
0.023430476 -0.093704768 1.757
0.033504762 -0.093813337 1.7589999
0.041880954 -0.095488571 1.7590001
0.074380577 -0.094483428 1.7590001
-0.12396763 -0.083761908 1.7589999
-0.11352458 -0.084385715 1.7580999
-0.10376815 -0.08489611 1.7573638
-0.093765341 -0.084385715 1.7580999
-0.084052391 -0.08438573 1.7580999
-0.074006103 -0.084385715 1.7580999
-0.065048441 -0.084653065 1.7577144
-0.055053577 -0.085078232 1.7516876
-0.043333337 -0.085000001 1.7500002
-0.033764381 -0.084257148 1.7554001
-0.023453334 -0.083761908 1.7589999
-0.013401905 -0.08418072 1.7589999
-0.0050257142 -0.083761916 1.7590001
0.0036820953 -0.084385723 1.7580999
0.013366191 -0.085211448 1.7545003
0.022336509 -0.084878735 1.7590001
0.033504762 -0.08711239 1.7590002
0.077060953 -0.087112382 1.7590001
-0.1139162 -0.077060953 1.7590002
-0.10386477 -0.07538572 1.7590001
-0.095488578 -0.077060953 1.7590001
-0.082645088 -0.074827299 1.7590001
-0.073710479 -0.073710479 1.7589999
-0.064616323 -0.073231839 1.7590001
-0.054769874 -0.073944941 1.7573638
-0.04341143 -0.073459052 1.753
-0.033441905 -0.073584765 1.756
-0.023872145 -0.073291674 1.7589999
-0.013401905 -0.073710479 1.7590001
-0.0055841273 -0.075944126 1.7590002
0.0033504763 -0.077060953 1.7590001
0.014072001 -0.075720765 1.7590001
0.020102859 -0.077060953 1.7590001
-0.070360005 -0.067009524 1.7590001
-0.062318861 -0.06432914 1.7590001
-0.053607624 -0.06365905 1.7589999
-0.043556195 -0.06365905 1.7589999
-0.036017619 -0.064496666 1.7590001
-0.02680381 -0.067009524 1.7590001
-0.060308572 -0.056958098 1.7590001
-0.053607624 -0.056958102 1.7590002
-0.043556195 -0.056958102 1.7590002
-0.036855239 -0.056958098 1.7590001
-0.05360762 -0.040205717 1.7590001
-0.25593907 -0.21216002 1.7680001
-0.25425526 -0.20542479 1.7680001
-0.25257143 -0.19868954 1.7680001
-0.24695873 -0.19419938 1.7680001
-0.24920383 -0.18858668 1.7680001
-0.23438631 -0.18656611 1.768
-0.22899811 -0.18353525 1.7680001
-0.23236573 -0.17848383 1.7680001
-0.22697754 -0.1751162 1.768
-0.21889524 -0.1751162 1.7680001
-0.22697754 -0.16366629 1.768
-0.21889524 -0.16164573 1.7680001
-0.20475125 -0.15693104 1.768
-0.19532192 -0.15266541 1.7680001
-0.19363812 -0.14817525 1.7680001
-0.18589258 -0.14413412 1.768
0.10439619 -0.14312381 1.7680001
-0.18409652 -0.1358273 1.768
-0.17848383 -0.13302097 1.7680001
0.077455238 -0.13133715 1.7680001
0.08419048 -0.13302097 1.768
0.094966866 -0.1326842 1.768
0.10327366 -0.13470477 1.768
0.11449905 -0.13302097 1.7680001
-0.17287111 -0.126847 1.7680001
-0.16669714 -0.12291811 1.7680001
0.077455238 -0.12796953 1.7680001
0.085152663 -0.12412084 1.768
0.094293341 -0.12460192 1.7679999
-0.16669714 -0.11449906 1.768
0.086211048 -0.11382552 1.768
0.093331173 -0.11498015 1.768
-0.16248763 -0.10523809 1.7680001
-0.14480762 -0.10102858 1.7680001
-0.13470477 -0.10102858 1.7680001
0.047146671 -0.10102858 1.7680001
0.052198097 -0.10102858 1.7680001
0.063984767 -0.10102858 1.7680001
0.074087627 -0.10102858 1.7680001
0.085152656 -0.10391511 1.768
0.094293341 -0.10439619 1.7679999
0.10102858 -0.10439619 1.7680001
-0.16164573 -0.097660959 1.7680001
-0.15491048 -0.093451433 1.7680001
-0.14413409 -0.093619823 1.768
-0.13605182 -0.095640384 1.768
-0.030308573 -0.090925723 1.7680001
-0.026940955 -0.090925723 1.7680001
0.045126099 -0.092946291 1.768
0.053881906 -0.094293341 1.7679999
0.063984767 -0.094293334 1.7679999
0.073245719 -0.09345144 1.7680001
0.08419048 -0.094293341 1.7679999
0.090925723 -0.094293341 1.7680001
-0.15491049 -0.085874289 1.768
-0.14522859 -0.084611438 1.7679999
-0.13133715 -0.087558098 1.7680001
-0.013470477 -0.080822863 1.7680001
0.025818415 -0.081945404 1.7680001
0.033676192 -0.082506679 1.768
0.043779053 -0.08419048 1.7679999
0.053881906 -0.08419048 1.7679999
0.063984767 -0.084611438 1.7679999
0.073666669 -0.08376953 1.7679999
0.08419048 -0.08419048 1.7679999
0.090925723 -0.087558098 1.7680001
-0.12460192 -0.075771436 1.768
-0.11449905 -0.072403818 1.768
-0.10439619 -0.070720002 1.7680001
-0.09381225 -0.073125452 1.768
-0.086435556 -0.071842544 1.7680001
-0.020205716 -0.077455238 1.7680001
-0.013470477 -0.07408762 1.7680001
-0.0044901595 -0.071842551 1.7680001
0.0033676196 -0.073125459 1.768
0.012628572 -0.07156191 1.7680001
0.023994289 -0.073666669 1.7679999
0.033676192 -0.074087627 1.7679999
0.043779053 -0.074087627 1.7679999
0.053881902 -0.07408762 1.7679999
0.063984767 -0.076332703 1.7680001
0.074087627 -0.077455238 1.7680001
0.08419048 -0.077455238 1.7680001
-0.11281525 -0.067352384 1.7680001
-0.10355429 -0.066510484 1.7680001
-0.093872391 -0.064405717 1.7679999
-0.082506672 -0.064826667 1.7680001
-0.07450857 -0.063563816 1.7679999
-0.065668575 -0.063142866 1.7680001
-0.031655621 -0.063311242 1.768
-0.023152383 -0.063563809 1.7679999
-0.01389143 -0.064405717 1.7679999
-0.0050514289 -0.065668575 1.7680001
0.0033676194 -0.065668575 1.768
0.013470477 -0.065668575 1.768
0.023012064 -0.064546034 1.768
0.033676192 -0.067352384 1.7680001
0.043779053 -0.063984767 1.7679999
0.053881913 -0.064946942 1.768
-0.090925723 -0.057249527 1.7680001
-0.073606543 -0.054844089 1.768
-0.063984774 -0.053881906 1.768
-0.05388191 -0.052198097 1.768
-0.043779053 -0.052198097 1.768
-0.033676192 -0.054443181 1.768
-0.023573335 -0.055565722 1.768
-0.015154287 -0.055565719 1.7680001
0.013470477 -0.05388191 1.7680001
0.020205716 -0.055565719 1.7680001
0.043105524 -0.055902481 1.768
0.05388191 -0.057249527 1.7680001
-0.062300958 -0.040411431 1.7680001
-0.054362997 -0.044260141 1.768
-0.042937145 -0.042095244 1.7680001
-0.037043817 -0.043779053 1.7680001
-0.061739691 -0.035921276 1.7680001
-0.054555435 -0.035696764 1.768
-0.043105524 -0.034349717 1.768
-0.035921276 -0.034798734 1.7680001
-0.050514288 -0.026940955 1.7680001
-0.045799624 -0.02424686 1.768
-0.037043814 -0.023573335 1.7680001
-0.2572419 -0.20308572 1.7770001
-0.26062667 -0.1963162 1.7770001
-0.25588799 -0.19563924 1.7770001
-0.25554955 -0.18954666 1.7770001
-0.2403181 -0.18616191 1.7770001
-0.23693335 -0.18446952 1.7770001
-0.23467684 -0.17600763 1.7770002
-0.25498539 -0.1647251 1.7770002
-0.24708763 -0.16754572 1.7770001
-0.23439477 -0.16500714 1.7770001
-0.2318562 -0.15908381 1.7770001
-0.22339429 -0.15823762 1.7770001
-0.2140862 -0.15569906 1.7770001
-0.20731667 -0.15316048 1.7770001
-0.19970095 -0.15231429 1.7770001
-0.20647047 -0.14651185 1.7770002
-0.19631618 -0.14554477 1.7770001
-0.18954666 -0.14216 1.7770001
-0.19428533 -0.13606744 1.7770001
-0.18841842 -0.13313398 1.7770002
0.10662 -0.13369811 1.7770001
0.11169714 -0.13200572 1.7770001
-0.22000954 -0.12523618 1.7770001
-0.18548493 -0.12726705 1.7770001
-0.17668459 -0.12455924 1.7770001
-0.16923811 -0.12185144 1.7770001
0.10492761 -0.1252362 1.7770002
0.11508191 -0.12692857 1.7770002
-0.17375112 -0.11621016 1.7770002
0.098158099 -0.11338952 1.7770001
0.10323524 -0.11508191 1.7770002
-0.1678842 -0.10425067 1.7770001
0.10408143 -0.10492761 1.7770001
-0.16500714 -0.095619522 1.7770001
-0.15569904 -0.091388568 1.7770001
-0.14554477 -0.093080953 1.7770001
-0.13539048 -0.093080953 1.7770001
0.095196433 -0.094773337 1.7770002
0.10154286 -0.096465714 1.7770001
-0.16246858 -0.084619045 1.7770002
-0.15569906 -0.081234291 1.7770002
-0.14216 -0.081234291 1.7770001
-0.13581358 -0.084195957 1.7770002
0.064310476 -0.081234291 1.7770001
0.095196433 -0.084195957 1.7770002
-0.1562632 -0.075028896 1.7770002
-0.1461089 -0.075028896 1.7770002
-0.13539049 -0.074464768 1.7770001
-0.1252362 -0.071079999 1.7770002
0.063633524 -0.073787816 1.7770001
0.074464768 -0.074464768 1.7770002
0.085465237 -0.076157153 1.7770001
0.093927138 -0.077003345 1.7770001
-0.13200572 -0.067695238 1.7770001
-0.1252362 -0.067695245 1.7770002
-0.11508191 -0.066002861 1.7770001
-0.10492763 -0.062618092 1.7770001
-0.098158099 -0.060925718 1.7770001
-0.085972957 -0.063633524 1.7770001
-0.010154286 -0.060925718 1.7770001
-0.0050771432 -0.060925718 1.7770001
0.0033847622 -0.060925718 1.7770002
0.013539049 -0.060925718 1.7770002
0.024821587 -0.063182227 1.7770002
0.033847623 -0.062618099 1.7770002
0.054156192 -0.060925718 1.7770001
0.06388738 -0.064733572 1.7770002
-0.10238905 -0.055002384 1.7770001
-0.095196441 -0.053733096 1.7770002
-0.084619045 -0.054156192 1.7770002
-0.076157153 -0.05077143 1.7770001
-0.067695238 -0.05077143 1.7770001
-0.032155238 -0.05077143 1.7770001
-0.023693334 -0.05077143 1.7770002
-0.012185143 -0.052802291 1.7770001
-0.0050771432 -0.054156192 1.7770002
0.003384762 -0.054156184 1.7770002
0.013539047 -0.054156192 1.7770002
0.02466041 -0.053672656 1.7770002
0.033847619 -0.054156192 1.7770002
0.044848096 -0.051617619 1.7770001
0.054156192 -0.0555101 1.7770001
0.064310476 -0.057540953 1.7770001
-0.10154286 -0.044001907 1.7770002
-0.093645081 -0.04513016 1.7770002
-0.08461906 -0.047386669 1.7770002
-0.074041665 -0.044425 1.7770002
-0.064794019 -0.044968981 1.7770002
-0.05077143 -0.044001907 1.7770001
-0.044678859 -0.045355808 1.7770001
-0.032155238 -0.044001903 1.7770002
-0.023693334 -0.044001903 1.7770002
-0.013962142 -0.044425003 1.7770002
-0.0056412704 -0.046258412 1.7770002
0.004738667 -0.045355808 1.7770001
0.013539047 -0.044001907 1.7770002
0.02256508 -0.04513016 1.7770002
0.033847623 -0.047386669 1.7770002
0.044001907 -0.047386669 1.7770002
0.054156192 -0.047386665 1.7770001
-0.10444408 -0.032880545 1.7770002
-0.095901594 -0.03271937 1.7770002
-0.071079999 -0.03554 1.7770001
-0.065438733 -0.032719366 1.7770002
-0.053309999 -0.03130905 1.7770001
-0.044848096 -0.03300143 1.7770001
-0.032719366 -0.033283494 1.7770002
-0.023693332 -0.033847623 1.7770002
-0.016923809 -0.033847619 1.7770001
-0.003384762 -0.032155238 1.7770001
0.0050771432 -0.033847623 1.7770002
0.013539048 -0.036386192 1.7770001
-0.10492762 -0.027078098 1.7770002
-0.094773337 -0.027078098 1.7770002
-0.071079999 -0.023693334 1.7770002
-0.064310476 -0.023693334 1.7770002
-0.054579288 -0.023270238 1.7770002
-0.041463338 -0.022847142 1.7770001
-0.033424526 -0.023693332 1.7770002
-0.02466041 -0.024176871 1.7770002
-0.016923809 -0.022000954 1.7770001
-0.003384762 -0.023693332 1.7770001
0.0033847622 -0.024257459 1.7770002
0.015231429 -0.023693334 1.7770001
0.020308573 -0.020308573 1.7770001
-0.062618092 -0.015231429 1.7770001
-0.051899683 -0.015795557 1.7770002
-0.044848092 -0.016077619 1.7770001
-0.037232384 -0.016923809 1.7770001
-0.015231429 -0.016923809 1.7770001
0.016923809 -0.013539048 1.7770001
0.022847144 -0.014385238 1.7770001
-0.26194668 -0.19220763 1.7860001
-0.24266922 -0.18143493 1.7860001
-0.25174099 -0.17009524 1.7860001
-0.24323618 -0.17349714 1.7860001
-0.23813336 -0.17349717 1.7860001
-0.25400892 -0.16442542 1.7860001
-0.24408668 -0.16499239 1.7860001
-0.23813336 -0.16669334 1.7860001
-0.25174099 -0.15988953 1.7860001
-0.24493715 -0.15988953 1.7860001
-0.23473147 -0.15592065 1.7860001
-0.22452573 -0.15444648 1.7860001
-0.21772192 -0.15648763 1.7860001
-0.22282478 -0.14968382 1.7860001
-0.21529201 -0.14579593 1.7860003
-0.20241335 -0.14288001 1.7860001
-0.19731048 -0.14288001 1.7860001
-0.22225779 -0.13380826 1.7860001
-0.21432 -0.13607621 1.7860001
-0.2041143 -0.1360762 1.7860001
-0.19731048 -0.13267429 1.7860001
-0.22395876 -0.12643747 1.7860001
-0.21432002 -0.1258705 1.7860001
-0.2041143 -0.12587048 1.7860001
-0.19433382 -0.12544526 1.7860001
-0.18370287 -0.12246858 1.7860001
0.11566477 -0.12246858 1.7860001
-0.22282478 -0.11906668 1.7860001
-0.21261907 -0.11736573 1.7860001
-0.2041143 -0.11736573 1.7860001
-0.19348334 -0.11609 1.7860001
-0.18370287 -0.11566477 1.7860001
-0.1757651 -0.1145308 1.7860001
0.10886096 -0.11566477 1.7860001
0.11226287 -0.11566477 1.7860001
-0.19390859 -0.10716001 1.7860001
-0.18370287 -0.10886096 1.7860001
-0.17519812 -0.10545906 1.7860001
0.10716001 -0.10545906 1.7860001
0.11453079 -0.10489208 1.7860001
-0.18030097 -0.095253341 1.7860001
-0.17349716 -0.095253341 1.7860003
-0.16669334 -0.093552388 1.7860001
0.10643103 -0.094767354 1.7860003
0.11396383 -0.095253333 1.7860001
-0.17179619 -0.085047625 1.7860001
-0.16669336 -0.085047625 1.7860001
0.10545906 -0.085047625 1.7860001
0.11396381 -0.08674857 1.7860001
0.12416954 -0.085047618 1.7860001
-0.1717962 -0.074841917 1.7860001
-0.16499239 -0.074841917 1.7860001
-0.15535367 -0.073707938 1.7860001
-0.14514795 -0.073707938 1.7860001
-0.1360762 -0.074841909 1.7860001
0.068038099 -0.071440004 1.7860001
0.074841909 -0.071440004 1.7860001
0.082779691 -0.072573975 1.7860001
0.095933728 -0.07280077 1.7860001
0.10545906 -0.076542869 1.7860001
0.11623175 -0.07597588 1.7860001
0.12502001 -0.077393338 1.7860001
-0.17349716 -0.064636193 1.7860001
-0.16329144 -0.068038099 1.7860001
-0.15563715 -0.067187622 1.7860001
-0.14628193 -0.066337153 1.7860001
-0.13650143 -0.064210959 1.7860001
-0.1258705 -0.062935248 1.7860001
-0.11634516 -0.062595055 1.7860001
-0.10886096 -0.061234292 1.7860001
0.068038099 -0.061234292 1.7860001
0.073707946 -0.065770164 1.7860001
0.085047618 -0.068038099 1.7860001
0.095253341 -0.068038099 1.7860001
-0.13437524 -0.054430481 1.7860001
-0.1258705 -0.054430481 1.7860001
-0.11566476 -0.054430481 1.7860001
-0.1075002 -0.053750098 1.7860001
0.054430481 -0.051028576 1.7860001
0.06350223 -0.054430481 1.7860001
-0.13494223 -0.043090798 1.7860001
-0.1258705 -0.044224765 1.7860001
-0.11566477 -0.044224765 1.7860001
-0.10716002 -0.044224765 1.7860001
-0.097521275 -0.041956827 1.7860001
-0.085047625 -0.042523813 1.7860001
-0.078243814 -0.04082286 1.7860001
-0.010205715 -0.04082286 1.7860001
-0.0045358734 -0.041956827 1.7860001
0.0017009525 -0.042523813 1.7860001
0.026081271 -0.041956827 1.7860001
0.034019053 -0.042523813 1.7860001
0.044224765 -0.042523813 1.7860001
0.053944498 -0.044224765 1.7860003
0.062935241 -0.045925718 1.7860001
-0.15308572 -0.034019049 1.7860001
-0.14628191 -0.034019049 1.7860001
-0.13565096 -0.034444287 1.7860001
-0.12587048 -0.034019049 1.7860001
-0.11566477 -0.034019049 1.7860001
-0.10716001 -0.037420955 1.7860001
-0.092985407 -0.036286987 1.7860001
-0.085047625 -0.034019049 1.7860001
-0.075813882 -0.033533067 1.7860003
-0.013182382 -0.034019049 1.7860001
-0.0059533338 -0.034869526 1.7860001
0 -0.034019053 1.7860001
0.01360762 -0.031977907 1.7860001
0.023327349 -0.034991026 1.7860003
0.034019053 -0.034991026 1.7860003
0.043374289 -0.036570478 1.7860001
-0.13471544 -0.024493717 1.7860001
-0.12530351 -0.024380319 1.7860001
-0.11566477 -0.023813335 1.7860001
-0.10545906 -0.022112383 1.7860001
-0.095253341 -0.022112383 1.7860001
-0.086181596 -0.024380319 1.7860001
-0.076542869 -0.023813335 1.7860001
-0.02041143 -0.022112383 1.7860001
-0.012635647 -0.024299322 1.7860003
-0.0054430482 -0.023813335 1.7860001
0.0034019051 -0.022679366 1.7860001
0.013121634 -0.023813335 1.7860003
0.024238573 -0.024238573 1.7860001
0.033452068 -0.022679366 1.7860001
-0.12246858 -0.017009525 1.7860001
-0.11311334 -0.014458096 1.7860001
-0.10659303 -0.014741588 1.7860001
-0.095253341 -0.016159048 1.7860001
-0.085047625 -0.017009525 1.7860001
-0.074841909 -0.01360762 1.7860001
-0.06599696 -0.012246858 1.7860001
-0.055564448 -0.012473652 1.7860001
-0.043544386 -0.011566478 1.7860001
-0.034586035 -0.01360762 1.7860001
-0.022962859 -0.016159048 1.7860001
-0.012473652 -0.013040636 1.7860001
-0.0051028579 -0.01360762 1.7860001
0.0029159186 -0.014579594 1.7860003
0.013607621 -0.014093608 1.7860003
0.024493717 -0.012927239 1.7860001
0.034019049 -0.01360762 1.7860001
0.04082286 -0.010205715 1.7860001
-0.074841917 -0.0051028579 1.7860001
-0.064636201 -0.0051028579 1.7860001
-0.054430481 -0.0051028579 1.7860001
-0.044224765 -0.0051028579 1.7860001
-0.036286987 -0.0056698415 1.7860001
0.017009525 -0.0068038101 1.7860001
0.024493717 -0.0054430482 1.7860001
0.034019053 -0.0068038101 1.7860001
-0.074841917 0.0017009525 1.7860001
-0.064636201 0.0024299321 1.7860003
-0.054430481 0 1.7860001
-0.045925718 0.0034019051 1.7860001
-0.037420955 0.0034019051 1.7860001
-0.062935241 0.017009525 1.7860001
-0.05613143 0.017009525 1.7860001
-0.044224765 0.01360762 1.7860001
-0.037420955 0.01360762 1.7860001
-0.061234292 0.023813335 1.7860001
-0.057832383 0.027215241 1.7860001
-0.044224765 0.023813335 1.7860001
-0.036570478 0.023813335 1.7860001
-0.042183623 0.03333867 1.7860001
-0.037420955 0.030617146 1.7860001
-0.25642857 -0.16069524 1.7950001
-0.24617143 -0.16240478 1.7950001
-0.2427524 -0.15385714 1.7950001
-0.23676907 -0.15129286 1.7950001
-0.22907621 -0.1504381 1.7950001
-0.24275239 -0.14701906 1.7950001
-0.2359143 -0.1436 1.7950001
-0.22565715 -0.1436 1.7950001
-0.23523049 -0.13539429 1.7950001
-0.22793654 -0.13562223 1.7950001
-0.23420477 -0.1282143 1.7950001
-0.22907621 -0.12479524 1.7950001
-0.23249525 -0.11966667 1.7950001
-0.22497332 -0.11556382 1.7950001
-0.21676762 -0.11488002 1.7950001
-0.20514286 -0.11282858 1.7950001
-0.19830476 -0.11282858 1.7950001
0.11624762 -0.11624762 1.7950001
-0.21283573 -0.10684525 1.7950001
-0.20514286 -0.10599048 1.7950001
-0.19488572 -0.10550205 1.7950002
-0.18462859 -0.10428096 1.7950001
0.11624762 -0.10940953 1.7950001
-0.21198097 -0.099152379 1.7950001
-0.20377524 -0.097100958 1.7950001
-0.19488572 -0.095733337 1.7950001
-0.18505597 -0.095733337 1.7950001
-0.17779048 -0.092314295 1.7950001
0.11966667 -0.094023816 1.7950001
0.12479524 -0.094023816 1.7950001
-0.2028635 -0.08547619 1.7950001
-0.19488572 -0.088895246 1.7950001
-0.18291907 -0.08547619 1.7950001
-0.17573904 -0.08547619 1.7950001
0.11761525 -0.084108576 1.7950001
0.12582096 -0.08479239 1.7950001
-0.20172381 -0.076928571 1.7950001
-0.1960254 -0.07521905 1.7950001
-0.18291906 -0.07521905 1.7950001
-0.17779049 -0.07521905 1.7950001
0.088895239 -0.071800001 1.7950001
0.10599049 -0.071800008 1.7950001
0.11510795 -0.072939686 1.7950001
0.12718859 -0.073167622 1.7950001
-0.19659524 -0.068380952 1.7950001
-0.18291906 -0.06496191 1.7950001
-0.17437144 -0.06496191 1.7950001
-0.16460273 -0.063985042 1.7950002
-0.15471192 -0.062397622 1.7950001
-0.14530954 -0.061542857 1.7950001
0.077498421 -0.062682539 1.7950001
0.084987767 -0.06496191 1.7950002
0.095733337 -0.06453453 1.7950001
0.10599048 -0.06496191 1.7950001
0.11556382 -0.067013338 1.7950001
-0.18234921 -0.056984127 1.7950001
-0.17437144 -0.057269048 1.7950001
-0.16362587 -0.054704767 1.7950002
-0.15385713 -0.054704767 1.7950001
-0.1436 -0.05470477 1.7950001
0.068380952 -0.052995242 1.7950001
0.07521905 -0.054704767 1.7950001
0.085476197 -0.054704767 1.7950001
0.095733337 -0.054704763 1.7950001
0.10428096 -0.054704767 1.7950001
-0.1634305 -0.04513143 1.7950001
-0.15336871 -0.043470755 1.7950002
-0.14360002 -0.044447623 1.7950002
-0.1367619 -0.047866669 1.7950001
0.058123812 -0.041028574 1.7950001
0.066329531 -0.043080002 1.7950001
0.075219043 -0.044447619 1.7950001
0.08547619 -0.044447623 1.7950001
0.095733337 -0.046157148 1.7950001
0.10257144 -0.047866669 1.7950001
-0.16069524 -0.037609525 1.7950001
-0.15590858 -0.03419048 1.7950001
-0.14018096 -0.030771429 1.7950001
0.025642857 -0.030771429 1.7950001
0.034190476 -0.030771429 1.7950001
0.04513143 -0.032139048 1.7950001
0.054277379 -0.034617856 1.7950001
0.06496191 -0.03419048 1.7950001
0.07521905 -0.03419048 1.7950001
0.08504881 -0.03461786 1.7950001
-0.15385713 -0.023933332 1.7950001
-0.1436 -0.023933332 1.7950001
-0.13334286 -0.020514287 1.7950001
-0.12764446 -0.022793654 1.7950001
-0.083196834 -0.022793651 1.7950001
0.035330161 -0.026212698 1.7950001
0.043470751 -0.02442177 1.7950002
0.068380952 -0.027352381 1.7950001
0.07521905 -0.023933332 1.7950001
0.084499329 -0.02442177 1.7950002
-0.15385716 -0.015727619 1.7950001
-0.14317262 -0.014103572 1.7950001
-0.13505238 -0.013676192 1.7950001
-0.12693214 -0.013248811 1.7950001
-0.11829906 -0.012992382 1.7950001
-0.10371113 -0.011396827 1.7950001
-0.095733337 -0.011624763 1.7950001
-0.08547619 -0.011966667 1.7950001
-0.030771429 -0.011966668 1.7950001
-0.024617145 -0.011624763 1.7950001
-0.017095238 -0.010257144 1.7950001
0.0051285718 -0.010257144 1.7950001
0.010257144 -0.010257144 1.7950001
0.04387778 -0.013676192 1.7950001
0.054704767 -0.010257145 1.7950001
0.065531753 -0.01310635 1.7950001
0.075219058 -0.017095238 1.7950001
0.083766669 -0.017095238 1.7950001
-0.14018096 -0.0068380954 1.7950001
-0.13505238 -0.0051285718 1.7950001
-0.12650478 -0.0051285713 1.7950001
-0.11624762 -0.0051285718 1.7950001
-0.10599048 -0.0051285713 1.7950001
-0.095733337 -0.0051285713 1.7950001
-0.08547619 -0.0051285713 1.7950001
-0.031911112 -0.0045587304 1.7950001
-0.023933334 -0.0051285713 1.7950001
-0.013676192 -0.0051285713 1.7950001
-0.0051285718 -0.0051285718 1.7950001
0.0034190477 -0.0051285713 1.7950001
0.012992382 -0.0047866665 1.7950001
0.020514287 -0.0034190477 1.7950001
0.034190476 -0.0034190479 1.7950001
0.044447623 -0.0051285713 1.7950001
0.054704767 -0.0051285713 1.7950001
0.064278103 -0.0054704766 1.7950001
-0.13334286 0 1.7950001
-0.12607738 0.0034190477 1.7950001
-0.11624762 0.0034190475 1.7950001
-0.10599048 0.0034190477 1.7950001
-0.095733337 0.0034190475 1.7950001
-0.085476197 0.0034190475 1.7950001
-0.075219058 0.0068380958 1.7950001
-0.064961903 0.0068380954 1.7950001
-0.054704767 0.0051285718 1.7950001
-0.043080002 0.0034190477 1.7950001
-0.031626191 0.0042738095 1.7950001
-0.023933334 0.0034190477 1.7950001
-0.013676192 0.0034190475 1.7950001
-0.0054704766 0.0027352383 1.7950001
0.0034190477 0.001709524 1.7950001
0.012821429 0.00085476192 1.7950001
0.02442177 0.0024421769 1.7950002
0.034190476 0.0034190475 1.7950001
0.044447619 0.0034190475 1.7950001
0.054704767 0.001709524 1.7950001
0.062682539 0.0011396826 1.7950001
0.095733337 0.0034190477 1.7950001
-0.12564999 0.012821429 1.7950001
-0.11527076 0.013187756 1.7950002
-0.10599048 0.013676192 1.7950001
-0.095733337 0.013676191 1.7950001
-0.085476197 0.013676192 1.7950001
-0.07521905 0.013676192 1.7950001
-0.065450341 0.01269932 1.7950002
-0.054216329 0.012699322 1.7950002
-0.032480955 0.013676192 1.7950001
-0.023933334 0.013676192 1.7950001
-0.013676192 0.013676192 1.7950001
-0.0054704761 0.01436 1.7950001
0 0.017095238 1.7950001
0.027352381 0.011966668 1.7950001
0.034190476 0.011966667 1.7950001
0.043763813 0.011624764 1.7950001
-0.1145381 0.020514287 1.7950001
-0.10599049 0.020514287 1.7950001
-0.095733337 0.022223812 1.7950001
-0.085964635 0.022956464 1.7950002
-0.075219043 0.023933331 1.7950001
-0.065938786 0.023933338 1.7950002
-0.054277383 0.023505952 1.7950001
-0.032139048 0.023933334 1.7950001
-0.024421772 0.022956466 1.7950002
-0.013187757 0.022956466 1.7950002
-0.0051285718 0.023933336 1.7950001
0 0.023933334 1.7950001
0.030771429 0.023933334 1.7950001
-0.08547619 0.030771431 1.7950001
-0.07521905 0.034190476 1.7950001
-0.06496191 0.034190476 1.7950001
-0.054704767 0.034190476 1.7950001
-0.047011904 0.035045236 1.7950001
-0.037609525 0.0359 1.7950001
-0.010257144 0.030771429 1.7950001
-0.0042738095 0.033335716 1.7950001
0 0.034190476 1.7950001
-0.076928571 0.041028574 1.7950001
-0.064107142 0.041883335 1.7950001
-0.054704767 0.044447616 1.7950001
-0.044447619 0.044447619 1.7950001
-0.037609525 0.044447623 1.7950001
-0.051285718 0.051285718 1.7950001
-0.044447623 0.051285721 1.7950001
-0.037609525 0.051285718 1.7950001
-0.071800001 0.068380952 1.7950001
-0.068380952 0.068380952 1.7950001
-0.071800001 0.071800001 1.7950001
-0.063252382 0.07436429 1.7950001
-0.043592859 0.077783339 1.7950001
-0.037609525 0.076928571 1.7950001
-0.061542857 0.08547619 1.7950001
-0.041028574 0.08547619 1.7950001
-0.036469843 0.084336512 1.7950001
-0.26115048 -0.15462859 1.8040001
-0.25221643 -0.15462859 1.8040001
-0.24740574 -0.15462859 1.8040003
-0.25198734 -0.14661083 1.8040003
-0.24603127 -0.14363277 1.8040001
-0.2432823 -0.13263695 1.8040001
-0.23595177 -0.12255746 1.8040003
0.12198476 -0.12026667 1.8040001
-0.23022479 -0.11683048 1.8040001
0.12198476 -0.11683048 1.8040001
-0.22507051 -0.1099581 1.8040001
-0.21762542 -0.1065219 1.8040003
0.12370287 -0.10537651 1.8040003
-0.21476191 -0.097931437 1.8040001
-0.20788954 -0.094495244 1.8040001
0.12370287 -0.099649534 1.8040003
-0.21304382 -0.087622859 1.8040001
-0.20731682 -0.08590477 1.8040001
-0.19586289 -0.084186673 1.8040001
-0.1889905 -0.08590477 1.8040003
-0.20617144 -0.07645525 1.8040001
-0.19529018 -0.075596206 1.8040001
-0.1889905 -0.075596198 1.8040003
-0.19328573 -0.06528762 1.8040001
-0.1889905 -0.065287627 1.8040003
0.089340955 -0.061851434 1.8040001
0.11511239 -0.061851434 1.8040001
0.12370287 -0.065287627 1.8040001
0.13057524 -0.067005716 1.8040001
-0.18669969 -0.053833656 1.8040001
-0.17524572 -0.052917339 1.8040001
-0.16665524 -0.054979049 1.8040001
0.1099581 -0.054979052 1.8040003
0.11511239 -0.054979052 1.8040001
-0.18555431 -0.046388578 1.8040001
-0.17481621 -0.045100003 1.804
-0.16579621 -0.043811433 1.8040001
-0.15634668 -0.04810667 1.8040001
-0.1477562 -0.04810667 1.8040001
0.096213341 -0.041234292 1.8040003
0.10652191 -0.044670481 1.8040001
0.11511239 -0.04810667 1.8040001
0.12713906 -0.041234292 1.8040001
0.13057524 -0.041234292 1.8040001
-0.17180952 -0.037798099 1.8040001
-0.16542804 -0.03436191 1.8040001
0.058415242 -0.030925717 1.8040001
0.089340955 -0.030925717 1.8040001
0.095783815 -0.034791429 1.804
0.10308572 -0.036080003 1.8040001
-0.1635627 -0.024053335 1.8040001
0.04810667 -0.022335241 1.8040001
0.054979049 -0.024053333 1.804
0.064858101 -0.023623811 1.804
0.089340955 -0.022335241 1.8040001
0.09523157 -0.023562452 1.8040001
-0.16264638 -0.016035557 1.8040003
-0.15462859 -0.01116762 1.8040001
-0.1477562 -0.010308573 1.8040001
0.04810667 -0.015462859 1.8040001
0.054979052 -0.015462859 1.8040001
0.064142227 -0.01489016 1.8040003
0.075596198 -0.012026668 1.8040001
0.086395651 -0.012762995 1.8040001
0.095722459 -0.012762995 1.8040001
0.10308572 -0.012026668 1.8040001
-0.16150098 -0.0068723815 1.8040001
-0.15462859 -0.0051542865 1.8040001
-0.14500725 -0.0048106671 1.8040001
0.068723813 -0.0034361908 1.8040001
0.075596206 -0.0051542865 1.8040001
0.08590477 -0.0051542865 1.8040001
0.096213341 -0.0051542865 1.8040001
0.10308572 -0.0068723815 1.8040001
-0.14088382 0 1.8040001
-0.13469867 0.0041234288 1.8040001
-0.034361906 0.0017180954 1.8040001
-0.0034361908 0.0068723815 1.8040001
0.0034361908 0.0068723815 1.8040003
0.014432001 0.0054979054 1.8040001
0.022335241 0.0068723815 1.8040001
0.054979052 0.0068723815 1.8040003
0.066433027 0.0045815879 1.8040001
0.075166672 0.0038657147 1.804
0.086334288 0.0038657147 1.804
0.095722459 0.0029453065 1.8040001
0.10308572 0.0017180954 1.8040001
-0.13143429 0.012885715 1.8040001
-0.12198476 0.015462859 1.8040001
-0.0034361908 0.010308573 1.8040001
0.0038657147 0.013315239 1.804
0.013744763 0.013744763 1.804
0.023071567 0.014235648 1.8040001
0.034361906 0.017180953 1.8040003
0.045529526 0.016321905 1.8040001
0.054979049 0.013744762 1.804
0.06528762 0.013744764 1.804
0.075596198 0.013744763 1.804
0.085475244 0.013315239 1.804
0.093922548 0.011453969 1.8040003
-0.12370287 0.024053335 1.804
-0.11511239 0.025771432 1.8040001
-0.10652192 0.025771432 1.8040001
-0.096213341 0.027489526 1.8040003
-0.084186673 0.027489526 1.8040001
-0.022335241 0.027489526 1.8040001
-0.015462859 0.027489526 1.8040001
0.0038657147 0.024053335 1.804
0.013744763 0.024053335 1.804
0.024053335 0.024053335 1.804
0.034791432 0.024053337 1.804
0.044670478 0.024053335 1.804
0.05154286 0.020617146 1.8040001
0.077314295 0.024053335 1.8040001
-0.12370287 0.030925717 1.8040003
-0.11511239 0.030925717 1.8040001
-0.1065219 0.030925717 1.8040003
-0.096213341 0.03436191 1.804
-0.08590477 0.036080003 1.8040001
-0.03264381 0.03436191 1.8040001
-0.024053335 0.034361906 1.804
-0.014174286 0.034791432 1.804
-0.0068723815 0.036080003 1.8040001
0.0051542865 0.034361906 1.8040001
0.013744762 0.03436191 1.804
0.024053335 0.03436191 1.804
0.03436191 0.03436191 1.804
0.042952381 0.03264381 1.8040001
-0.094495237 0.044670485 1.8040001
-0.085904762 0.044670478 1.804
-0.075105324 0.045652248 1.8040001
-0.065974854 0.046732195 1.8040001
-0.03264381 0.044670478 1.8040001
-0.024482859 0.044240955 1.804
-0.013744764 0.044670481 1.8040001
-0.0051542865 0.044670478 1.8040001
0.0034361908 0.044670478 1.804
0.013744763 0.044670478 1.804
0.024053335 0.044670478 1.804
0.03436191 0.042952389 1.8040001
-0.094495237 0.053260956 1.8040001
-0.08590477 0.054979049 1.804
-0.075596198 0.054979049 1.804
-0.065287627 0.054979049 1.804
-0.055408575 0.055408575 1.804
-0.044670481 0.056353528 1.8040001
-0.036652703 0.056124449 1.8040003
-0.0045815879 0.052688256 1.8040003
0.0034361908 0.053260952 1.8040001
0.013744764 0.053260952 1.8040001
0.023366099 0.052917339 1.8040001
-0.084759369 0.064142227 1.8040001
-0.076025724 0.064858101 1.804
-0.064858094 0.064858101 1.804
-0.054979049 0.065287627 1.804
-0.044670478 0.06528762 1.804
-0.036423624 0.065974861 1.8040001
-0.017180953 0.06528762 1.8040001
0.027489526 0.068723813 1.8040001
-0.082468584 0.072160006 1.8040001
-0.075596198 0.075596198 1.8040001
-0.066662095 0.07628344 1.8040001
-0.054979049 0.075596198 1.804
-0.045357719 0.073534489 1.8040001
-0.03378921 0.075596198 1.8040001
-0.024053335 0.077314302 1.8040001
-0.014235648 0.076577976 1.8040001
-0.005154286 0.077314295 1.8040001
0 0.075596198 1.8040001
0.012599367 0.077886999 1.8040003
0.025771432 0.075596198 1.8040001
0.03338014 0.075105309 1.8040001
0.04810667 0.072160006 1.8040001
-0.072160006 0.084186673 1.8040001
-0.06528762 0.085413888 1.8040001
-0.054979049 0.08590477 1.804
-0.046388578 0.085904762 1.8040001
-0.033502862 0.085045725 1.8040001
-0.02454422 0.084922999 1.8040001
-0.017180953 0.084186673 1.8040001
0.015462859 0.084186673 1.8040001
0.024053335 0.085904755 1.804
0.03264381 0.08590477 1.8040001
-0.041234292 0.096213341 1.8040003
-0.037798099 0.094495244 1.8040001
0.025035106 0.095722459 1.8040001
0.030925717 0.096213341 1.8040003
-0.0034361908 0.1099581 1.8040001
0.0034361908 0.1099581 1.8040001
0.025035106 0.10701279 1.8040001
0.033871025 0.10750368 1.8040001
0.042379688 0.10766731 1.8040003
-0.010308573 0.11511239 1.8040001
-0.005154286 0.11511239 1.8040001
0.0034361908 0.11511239 1.8040001
0.013057525 0.11476877 1.8040001
0.024740575 0.11476877 1.8040001
0.030925717 0.1133943 1.8040001
-0.26259813 -0.15548572 1.8140001
-0.25827906 -0.15548572 1.8140001
-0.26432574 -0.14512001 1.8140001
-0.25683939 -0.14396827 1.8140001
-0.26259813 -0.13129906 1.8140001
-0.25525573 -0.1347543 1.8140001
-0.2476254 -0.13590604 1.8140001
-0.2522324 -0.12784381 1.8140001
-0.2458978 -0.12554032 1.8140001
-0.23426516 -0.11471392 1.8140001
0.12266095 -0.11229526 1.8140001
-0.22415859 -0.10408907 1.8140001
-0.2159524 -0.095019057 1.8140001
-0.21422479 -0.082925722 1.8140001
-0.21249716 -0.077742867 1.8140001
-0.20731431 -0.072560005 1.8140001
-0.20270734 -0.06680128 1.8140001
-0.19694859 -0.062194284 1.8140001
0.12784381 -0.062194284 1.8140001
0.13129906 -0.062194284 1.8140001
-0.19435716 -0.056147624 1.8140001
0.12323684 -0.054707944 1.8140001
