# .PCD v0.7 - Point Cloud Data file format
VERSION 0.7
FIELDS x y z
SIZE 4 4 4
TYPE F F F
COUNT 1 1 1
WIDTH 1463
HEIGHT 1
VIEWPOINT 0 0 0 1 0 0 0
POINTS 1463
DATA ascii
-0.2453181 0.03427238 1.8940001
-0.23629905 0.043291431 1.8940001
-0.23810287 0.050506666 1.8940001
-0.23088762 0.06854476 1.8940001
0.039683808 0.12987429 1.8940001
0.045696512 0.12867175 1.8940001
0.053212382 0.12897238 1.8940001
-0.012626667 0.13708952 1.8940001
0.0072152382 0.13708952 1.8940001
0.010822858 0.13708952 1.8940001
0.03788 0.13528571 1.8940001
0.043291431 0.1334819 1.8940001
0.05411429 0.1334819 1.8940001
0.065839052 0.13438381 1.8940001
0.075759999 0.13528572 1.8940001
0.085380331 0.13468444 1.8940001
0.093798101 0.13618761 1.8940001
0.10281715 0.13708952 1.8940001
-0.18398857 0.14791238 1.8940001
-0.012626667 0.14430478 1.8940001
-0.0048101591 0.14670984 1.8940001
0.0043291426 0.1450263 1.8940001
0.014430477 0.14250097 1.8940001
0.025253337 0.14250097 1.8940001
0.033671111 0.14189969 1.8940001
0.10462096 0.14069715 1.8940001
0.11634571 0.14159906 1.8940001
0.12536477 0.14340286 1.8940001
0.13588698 0.14550731 1.8940001
0.14069715 0.14791238 1.8940001
-0.18038096 0.15873523 1.8940001
-0.061329525 0.15873523 1.8940001
-0.05411429 0.15272254 1.8940001
-0.04689905 0.15152 1.8940001
-0.010822858 0.15152 1.8940001
-0.0054114284 0.15152 1.8940001
0.0012025398 0.15392509 1.8940001
0.14286172 0.15584914 1.8940001
-0.17677332 0.16595048 1.8940001
-0.10101333 0.16955811 1.8940001
-0.093798101 0.16955811 1.8940001
-0.084779054 0.16955811 1.8940001
-0.075759999 0.16955811 1.8940001
-0.06854476 0.16414666 1.8940001
0.0021645713 0.16522895 1.8940001
0.13708952 0.16955811 1.8940001
0.14214019 0.16522895 1.8940001
-0.16522895 0.17460877 1.8940001
-0.15512761 0.17496952 1.8940001
-0.14520667 0.17406763 1.8940001
-0.13528571 0.17316572 1.8940001
-0.12536477 0.17406763 1.8940001
-0.11616533 0.17533028 1.8940001
-0.10552286 0.17406762 1.8940001
-0.082975239 0.17316572 1.8940001
-0.075759999 0.17316572 1.8940001
-0.021645715 0.17677332 1.8940001
-0.014430477 0.17496954 1.8940001
0.0018038095 0.17496952 1.8940001
0.12987429 0.17677332 1.8940001
0.13528571 0.17496952 1.8940001
0.14340287 0.17587142 1.8940001
-0.16234286 0.18038096 1.8940001
-0.1544061 0.18326704 1.8940001
-0.025253335 0.18326704 1.8940001
-0.01339973 0.1834732 1.8940002
-0.0054114289 0.18398857 1.8940001
0.0018038095 0.18398857 1.8940001
0.010822858 0.1875962 1.8940001
0.12987429 0.18038096 1.8940001
0.13564648 0.18398857 1.8940001
0.1437894 0.18295783 1.8940002
-0.15152 0.19300762 1.8940001
-0.032468572 0.19481143 1.8940001
-0.027057143 0.19841905 1.8940001
-0.01339973 0.19532682 1.8940002
-0.0054114289 0.19481145 1.8940001
0 0.19481143 1.8940001
0.052310474 0.19841905 1.8940001
-0.025253333 0.20322922 1.8940001
-0.013528571 0.20473237 1.8940001
-0.0060126986 0.20322922 1.8940001
0.05411429 0.20202667 1.8940001
0.061329525 0.20383048 1.8940001
-0.18038096 0.57361144 1.8940001
-0.17496952 0.57541525 1.8940001
-0.16775429 0.57721907 1.8940001
-0.17316572 0.58623809 1.8940001
-0.16739354 0.5829913 1.8940001
-0.15152 0.58443427 1.8940001
-0.14791238 0.58443427 1.8940001
-0.18579239 0.59525716 1.8940001
-0.17460877 0.59597874 1.8940001
-0.16955811 0.59345335 1.8940001
-0.23392001 0.00544 1.904
-0.22848001 0.00544 1.904
-0.27200001 0.018133335 1.904
-0.26837331 0.018133335 1.904
-0.23392001 0.013600001 1.904
-0.22485337 0.018133335 1.904
-0.27200001 0.02176 1.904
-0.26293331 0.023573333 1.904
-0.25749335 0.029013334 1.904
-0.22122668 0.02176 1.904
-0.25386667 0.032639999 1.904
-0.2448 0.038079999 1.904
-0.24298666 0.04352 1.904
-0.23210667 0.072533339 1.904
-0.22848001 0.072533339 1.904
0.0018133334 0.13781334 1.904
0.016320001 0.13781334 1.904
0.026293334 0.13690667 1.904
0.032639999 0.13600001 1.904
0.061653331 0.13056 1.904
0.076160006 0.13056001 1.904
0.08522667 0.13056 1.904
0.093386665 0.13237333 1.904
0.10608 0.13509333 1.904
0.11532801 0.13636267 1.9040002
0.12512 0.13781334 1.904
0.13237333 0.13781334 1.904
-0.18858667 0.14869334 1.904
-0.0060444446 0.14264891 1.904
0.0012088889 0.14264891 1.904
0.12693334 0.14144 1.904
0.13237333 0.14144 1.904
0.14385779 0.14627557 1.904
-0.18496001 0.15594667 1.904
-0.083413333 0.15957333 1.904
-0.076160006 0.15957335 1.904
-0.066186666 0.15775999 1.904
-0.058026668 0.15232 1.904
0.14869335 0.15594667 1.904
-0.18133333 0.16320001 1.904
-0.14869334 0.16682667 1.904
-0.11968 0.16682667 1.904
-0.10517333 0.16682667 1.904
-0.093567997 0.16537601 1.9040002
-0.08522667 0.16501334 1.904
-0.076160006 0.16501334 1.9040002
-0.17408 0.17408 1.904
-0.14506668 0.17045334 1.904
-0.13418667 0.17045334 1.904
-0.12512 0.17045332 1.904
-0.11514667 0.17135999 1.904
-0.10698666 0.17045332 1.904
0.14688 0.17226666 1.904
-0.16501334 0.18314667 1.904
-0.15775999 0.18677333 1.904
-0.02176 0.18677333 1.904
-0.018133335 0.18677333 1.904
-0.15594667 0.19221334 1.904
-0.024868572 0.1948038 1.9040003
-0.018133335 0.19402668 1.904
-0.02176 0.20309334 1.904
-0.016320001 0.20309334 1.904
0.054400004 0.20671999 1.904
-0.18133333 0.56757331 1.904
-0.17589334 0.56938666 1.904
-0.16501334 0.56938666 1.904
-0.18133333 0.57301331 1.904
-0.17045332 0.5748266 1.904
-0.16501334 0.5748266 1.904
-0.18278399 0.58461869 1.9040002
-0.17649779 0.58510226 1.904
-0.16320001 0.58026671 1.904
-0.19584 0.5965867 1.9040002
-0.18375114 0.5941689 1.9040002
-0.17770667 0.59296 1.904
-0.27357143 -0.11672381 1.9150001
-0.26992381 -0.11672381 1.9150001
-0.27357143 -0.10760476 1.9150001
-0.26992381 -0.10760476 1.9150001
-0.31004763 -0.082071431 1.9150001
-0.30275241 -0.080247618 1.9150001
-0.29728097 -0.080247618 1.9150001
-0.28694606 -0.082679361 1.9150002
-0.28633809 -0.047419049 1.9150001
-0.27357143 -0.010942858 1.9150001
-0.26627621 -0.012766667 1.9150001
-0.27357143 -0.0072952383 1.9150001
-0.26810002 -0.0072952383 1.9150001
-0.27357143 0.0036476194 1.9150002
-0.28208253 0.017022222 1.9150002
-0.27721906 0.016414287 1.9150001
-0.23344763 0.014590477 1.9150001
-0.2298 0.014590477 1.9150001
-0.28269047 0.021885715 1.9150001
-0.27721906 0.021885715 1.9150001
-0.26810002 0.023709524 1.9150001
-0.25533336 0.03526032 1.9150002
-0.24682224 0.043771431 1.9150002
-0.24074286 0.054714285 1.9150001
-0.23587939 0.063225403 1.9150002
0.0766 0.12766667 1.9150001
0.083895236 0.12766668 1.9150002
0.094838098 0.12766668 1.9150002
-0.0036476192 0.13860953 1.9150001
0.0054714289 0.1349619 1.9150001
0.014590478 0.1349619 1.9150002
0.023709524 0.1349619 1.9150001
0.034652382 0.13131429 1.9150001
0.067480952 0.13131429 1.9150001
0.098485716 0.13131429 1.9150001
0.10578096 0.13131431 1.9150002
0.11490001 0.13131429 1.9150001
0.12401905 0.13313809 1.9150002
0.1349619 0.13617778 1.9150002
0.14225715 0.13860953 1.9150001
-0.12037143 0.14590478 1.9150002
-0.11490001 0.14408097 1.9150001
-0.10942857 0.14772858 1.9150001
-0.093014292 0.14772858 1.9150001
-0.087542862 0.14955239 1.9150001
0.13860953 0.14225715 1.9150001
0.14590478 0.1446889 1.9150002
-0.1896762 0.15502381 1.9150001
-0.12037143 0.15502381 1.9150001
-0.11490001 0.15684763 1.9150001
-0.10578096 0.15684763 1.9150001
-0.094108574 0.15538858 1.9150002
-0.083895251 0.15502381 1.9150002
-0.074776188 0.15502381 1.9150001
-0.065657146 0.15441588 1.9150002
0.1532 0.15502381 1.9150001
-0.18238096 0.16779049 1.9150001
-0.14408097 0.16779049 1.9150001
-0.13405 0.16687858 1.9150001
-0.12401905 0.16414288 1.9150002
-0.11490002 0.16414286 1.9150002
-0.10578096 0.16231905 1.9150002
-0.095750004 0.16140714 1.9150001
-0.087542862 0.16049524 1.9150001
0.14955239 0.16596667 1.9150001
0.1532 0.16414288 1.9150002
-0.17508572 0.17873335 1.9150001
-0.17326191 0.18238096 1.9150001
-0.16231905 0.1896762 1.9150001
-0.16049524 0.19332381 1.9150001
-0.15684763 0.19697143 1.9150001
-0.17265397 0.55686986 1.9150002
-0.16779049 0.5562619 1.9150001
-0.17508572 0.56538099 1.9150001
-0.1647508 0.56538099 1.9150002
-0.15684763 0.56720483 1.9150001
-0.17508572 0.57510793 1.9150002
-0.16049524 0.57267618 1.9150001
-0.15684763 0.57267618 1.9150001
0.14955239 0.57814765 1.9150001
0.15502381 0.57997143 1.9150001
0.16779049 0.57997143 1.9150001
0.1714381 0.57997143 1.9150001
0.14772858 0.5854429 1.9150001
0.15502381 0.5854429 1.9150001
0.16414286 0.5854429 1.9150002
0.17508572 0.5854429 1.9150002
0.18420476 0.58726668 1.9150001
0.14590476 0.59456193 1.9150001
0.15502381 0.59456199 1.9150002
0.16414286 0.59456187 1.9150001
0.17508574 0.59456187 1.9150001
0.18420476 0.59091431 1.9150001
-0.352 -0.18333334 1.9250001
-0.35420001 -0.17453335 1.9250001
-0.34833333 -0.17233334 1.9250001
-0.35475001 -0.16775 1.9250001
-0.33366668 -0.14300001 1.9250001
-0.31533334 -0.14300001 1.9250001
-0.30800003 -0.14300001 1.9250001
-0.29333332 -0.14300001 1.9250001
-0.28966668 -0.14300001 1.9250001
-0.33366668 -0.13933334 1.9250001
-0.32999998 -0.13933334 1.9250001
-0.31288889 -0.13811111 1.9250001
-0.30800003 -0.13933334 1.9250001
-0.34833333 -0.12650001 1.9250001
-0.31166667 -0.11366667 1.9250001
-0.30616671 -0.11183333 1.9250001
-0.27316669 -0.11366667 1.9250001
-0.31411111 -0.10511111 1.9250001
-0.30506667 -0.10413333 1.9250001
-0.29516667 -0.10266667 1.9250001
-0.28600001 -0.10266667 1.9250001
-0.27316669 -0.10266667 1.9250001
-0.32266667 -0.091666669 1.9250001
-0.31386667 -0.093866669 1.9250001
-0.30433336 -0.095333338 1.9250001
-0.29516667 -0.095333338 1.9250001
-0.28600001 -0.095333338 1.9250001
-0.31594449 -0.085555553 1.9250001
-0.30485719 -0.085380957 1.9250002
-0.29480001 -0.085066669 1.9250001
-0.28600001 -0.08433333 1.9250001
-0.27683336 -0.08433333 1.9250001
-0.31349999 -0.075166672 1.9250001
-0.30433336 -0.075166672 1.9250001
-0.29516667 -0.075166672 1.9250001
-0.28673336 -0.074800007 1.9250001
-0.27683336 -0.075166665 1.9250001
-0.31166667 -0.066000007 1.9250001
-0.30433336 -0.066 1.9250001
-0.29516667 -0.066000007 1.9250001
-0.28600001 -0.066000007 1.9250001
-0.27604768 -0.06652382 1.9250002
-0.30328575 -0.055523816 1.9250002
-0.29516667 -0.055000003 1.9250001
-0.28600001 -0.055000003 1.9250001
-0.27683336 -0.055000003 1.9250001
-0.25666666 -0.056833334 1.9250001
-0.30066669 -0.047666669 1.9250001
-0.29424998 -0.044916667 1.9250001
-0.28547621 -0.042952381 1.9250002
-0.27683336 -0.044 1.9250001
-0.25300002 -0.047666669 1.9250001
-0.29333332 -0.036666665 1.9250001
-0.28600001 -0.034833334 1.9250001
-0.27683336 -0.034833331 1.9250001
-0.28477782 -0.02688889 1.9250001
-0.27591667 -0.025666667 1.9250001
-0.27500001 -0.0165 1.9250001
-0.26583332 -0.018333333 1.9250001
-0.27316669 -0.0036666668 1.9250001
-0.26766667 -0.0036666668 1.9250001
-0.28325003 0.0045833336 1.9250001
-0.27866668 0.0036666668 1.9250001
-0.28673336 0.0132 1.9250001
-0.27866668 0.011 1.9250001
-0.28722224 0.026277779 1.9250001
-0.27426669 0.027133334 1.9250001
-0.264 0.029333334 1.9250001
-0.28783333 0.033 1.9250001
-0.26216668 0.034833334 1.9250001
-0.25422224 0.041555554 1.9250001
-0.24933335 0.047666669 1.9250001
-0.24444446 0.055000003 1.9250001
0.011 0.12833333 1.9250001
0.069666669 0.12833333 1.9250001
0.075166672 0.12650001 1.9250001
0.08433333 0.12466668 1.9250001
0.093500003 0.12466668 1.9250001
0.1045 0.12466668 1.9250001
0.11320834 0.12512501 1.9250001
0.12466668 0.12833333 1.9250001
0.132 0.12833333 1.9250001
0.0073333336 0.132 1.9250001
0.014666666 0.132 1.9250001
0.025666667 0.132 1.9250001
0.13566667 0.13322224 1.9250001
0.14483333 0.13750002 1.9250001
-0.12466668 0.14483333 1.9250001
-0.1045 0.14666666 1.9250001
-0.099000007 0.14666666 1.9250001
-0.084333345 0.14666668 1.9250001
-0.075777784 0.14544445 1.9250001
0.15155557 0.14544444 1.9250001
-0.12558335 0.15491667 1.9250001
-0.11440001 0.15253335 1.9250001
-0.10486666 0.15326668 1.9250001
-0.099000007 0.15216668 1.9250001
-0.082500003 0.15033334 1.9250001
-0.075166672 0.15033334 1.9250001
-0.066 0.15155557 1.9250001
-0.056833334 0.15033334 1.9250001
0.15675001 0.15308334 1.9250001
0.16133334 0.15583333 1.9250001
-0.19066668 0.16133334 1.9250001
-0.18700001 0.16499999 1.9250001
-0.13566667 0.16316667 1.9250001
-0.12833333 0.16133334 1.9250001
0.15766667 0.16500001 1.9250001
0.1644762 0.16604763 1.9250002
-0.18333334 0.17233334 1.9250001
-0.17966667 0.17783333 1.9250001
0.15583335 0.176 1.9250001
0.16377777 0.17477779 1.9250001
-0.16866668 0.18700001 1.9250001
-0.16133334 0.19800001 1.9250001
-0.15766667 0.20166668 1.9250001
-0.16316667 0.55733335 1.9250001
-0.16316667 0.56375003 1.9250001
-0.15766667 0.56283337 1.9250001
-0.16499999 0.57200003 1.9250001
0.13933334 0.57566667 1.9250001
0.1452 0.57639998 1.9250001
0.15445834 0.57520831 1.9250001
0.16622223 0.57627779 1.9250001
0.17477779 0.57627779 1.9250001
0.18608335 0.57658339 1.9250001
0.19158334 0.57475001 1.9250001
0.14483333 0.58483332 1.9250001
0.16316667 0.583 1.9250001
0.17783333 0.583 1.9250001
0.18516669 0.58483332 1.9250001
0.1925 0.58483332 1.9250001
0.13933334 0.59399998 1.9250001
0.14300001 0.59033334 1.9250001
0.19213334 0.59399998 1.9250001
-0.36138669 -0.22125715 1.9360001
-0.35401145 -0.22125715 1.9360001
-0.34663621 -0.22125715 1.9360001
-0.36286172 -0.21461944 1.9360001
-0.35401148 -0.21388194 1.936
-0.34516117 -0.21314441 1.9360001
-0.33741716 -0.21019429 1.9360001
-0.36138669 -0.20466286 1.9360001
-0.35401148 -0.20466289 1.9360001
-0.34663621 -0.20466286 1.9360001
-0.33741716 -0.20466286 1.9360001
-0.36138672 -0.19544384 1.9360002
-0.35401148 -0.19544384 1.936
-0.34540701 -0.19421463 1.9360002
-0.33557338 -0.19439024 1.9360001
-0.32451048 -0.1917562 1.9360001
-0.36507434 -0.18438098 1.936
-0.35401148 -0.18490778 1.9360001
-0.34516117 -0.18438096 1.9360001
-0.33557338 -0.18438098 1.936
-0.32451048 -0.18290591 1.9360001
-0.31529146 -0.18438096 1.9360001
-0.37244955 -0.1733181 1.9360001
-0.36507431 -0.17516191 1.9360001
-0.35401145 -0.17700572 1.9360001
-0.3447924 -0.17516191 1.9360001
-0.33557338 -0.17516193 1.9360001
-0.32451051 -0.17516193 1.9360001
-0.31529146 -0.17516191 1.9360001
-0.30976 -0.17516191 1.9360001
-0.37244955 -0.16963048 1.9360001
-0.36876193 -0.16963048 1.9360001
-0.35124573 -0.16502096 1.9360001
-0.34479243 -0.16594286 1.9360001
-0.33557338 -0.16594286 1.936
-0.32451051 -0.16594286 1.936
-0.31529146 -0.16225524 1.9360001
-0.30976 -0.16225524 1.9360001
-0.35124573 -0.15580191 1.9360001
-0.34479243 -0.15488002 1.9360001
-0.33557338 -0.15488002 1.936
-0.32451051 -0.15488002 1.936
-0.31529146 -0.15488 1.9360001
-0.30659923 -0.15382642 1.9360001
-0.35216764 -0.14289525 1.9360001
-0.34479243 -0.14381714 1.9360001
-0.33618796 -0.14504635 1.9360001
-0.32451051 -0.14381716 1.936
-0.31467688 -0.14627557 1.9360002
-0.30501878 -0.14434396 1.9360001
-0.29553634 -0.14381716 1.9360001
-0.35308954 -0.13459811 1.9360001
-0.3447924 -0.13459811 1.9360001
-0.33557338 -0.13459812 1.9360001
-0.32451051 -0.13459812 1.9360001
-0.31590605 -0.13398351 1.9360002
-0.30607241 -0.13459812 1.9360001
-0.29500955 -0.13459812 1.9360001
-0.28394669 -0.1327543 1.9360002
-0.35401145 -0.12906668 1.9360001
-0.34516117 -0.12611659 1.9360001
-0.33557338 -0.12584002 1.936
-0.32451051 -0.12537907 1.936
-0.31529146 -0.12537907 1.9360001
-0.30607238 -0.12537907 1.936
-0.29500955 -0.12537907 1.936
-0.28615928 -0.12464154 1.9360001
-0.34663621 -0.11800382 1.9360001
-0.33495876 -0.11493081 1.9360001
-0.32451051 -0.11431621 1.936
-0.31566021 -0.1143162 1.9360001
-0.30459738 -0.11579125 1.9360001
-0.29500955 -0.11431621 1.936
-0.28440762 -0.11431621 1.936
-0.33311495 -0.10571176 1.9360002
-0.32524803 -0.10472839 1.9360001
-0.31713524 -0.10509715 1.9360001
-0.30238479 -0.10694096 1.9360001
-0.29500955 -0.10694097 1.9360002
-0.28302479 -0.10601906 1.9360001
-0.33336076 -0.095140576 1.9360001
-0.3250373 -0.096931718 1.9360001
-0.31713524 -0.097721912 1.9360001
-0.28025907 -0.095878109 1.9360002
-0.27657145 -0.095878109 1.9360002
-0.33188573 -0.088502862 1.9360001
-0.3251251 -0.084815249 1.9360001
-0.28210285 -0.086659051 1.9360001
-0.27657145 -0.082971431 1.9360001
-0.32174477 -0.074674286 1.9360001
-0.31713524 -0.070064761 1.9360001
-0.28394666 -0.077440001 1.9360001
-0.27288383 -0.073752381 1.9360001
-0.26919618 -0.071908571 1.9360001
-0.31713524 -0.064533338 1.9360001
-0.27288383 -0.064533338 1.9360001
-0.2664305 -0.063611433 1.9360001
-0.25813335 -0.062689528 1.9360001
-0.31467688 -0.057772703 1.9360002
-0.30976 -0.053470477 1.9360001
-0.27288383 -0.055314288 1.9360002
-0.26550862 -0.055775248 1.936
-0.25813335 -0.051626671 1.9360001
-0.30545783 -0.044251435 1.9360001
-0.29869714 -0.042407621 1.9360001
-0.27288383 -0.044251435 1.9360002
-0.26698363 -0.045726478 1.9360001
-0.25444573 -0.045480639 1.9360002
-0.30238479 -0.035032384 1.9360001
-0.29746795 -0.034417782 1.9360002
-0.27288383 -0.035032384 1.9360001
-0.26919618 -0.03687619 1.9360001
-0.29279697 -0.026550859 1.9360001
-0.28320915 -0.025075812 1.9360001
-0.27288383 -0.025813337 1.9360002
-0.26624614 -0.024338288 1.9360001
-0.25628954 -0.027657144 1.9360001
-0.29132193 -0.018438095 1.9360001
-0.28440762 -0.014289524 1.936
-0.27288383 -0.018438095 1.9360001
-0.29132193 -0.0055314288 1.9360001
-0.28394669 -0.0055314293 1.9360001
-0.292797 0.0044251434 1.9360001
-0.28763431 0.0018438096 1.9360001
-0.29378033 0.014750477 1.9360002
-0.29500952 0.022125715 1.9360001
-0.28210285 0.029500954 1.9360001
-0.26919618 0.029500954 1.9360001
-0.28271747 0.034417782 1.9360002
-0.27472764 0.035032384 1.9360001
-0.2673524 0.035032384 1.9360001
-0.27288383 0.042407621 1.9360001
-0.26366478 0.043329526 1.9360001
-0.25690416 0.046709847 1.9360002
-0.25075811 0.053470477 1.9360001
-0.24707049 0.059001908 1.9360001
-0.24338287 0.064533338 1.9360001
0.016594287 0.12906668 1.9360001
0.025813337 0.12906668 1.9360002
0.033188574 0.12906668 1.9360001
0.064533338 0.12906668 1.9360001
0.073752381 0.12537906 1.9360001
0.084815249 0.12169145 1.9360002
0.096800007 0.12261334 1.9360001
0.11800382 0.12169144 1.9360001
0.12537906 0.12537906 1.9360002
0.13521272 0.12660827 1.9360002
0.014750477 0.1327543 1.9360001
0.14381714 0.13459811 1.9360001
-0.19360001 0.14750476 1.9360001
-0.070064761 0.14750476 1.9360001
-0.064533338 0.14750476 1.9360001
-0.059001908 0.14750476 1.9360001
0.15488002 0.14258794 1.9360002
-0.19544384 0.15488002 1.9360002
-0.15303621 0.15672381 1.9360001
-0.13459811 0.15856762 1.9360001
-0.12906668 0.15488 1.9360001
-0.066377148 0.1511924 1.9360001
0.16471367 0.15488002 1.9360002
-0.1917562 0.16594286 1.9360001
-0.18806858 0.16963048 1.9360001
-0.1511924 0.16409905 1.9360001
-0.14473905 0.16409905 1.9360001
0.16778667 0.16225524 1.9360001
0.1733181 0.16409905 1.9360001
-0.18438096 0.17700572 1.9360001
-0.18253715 0.18253715 1.9360001
-0.17516191 0.18806858 1.9360001
-0.17454731 0.19298542 1.9360002
-0.16840129 0.19421463 1.9360002
0.18806858 0.56789333 1.9360001
0.19360001 0.56789333 1.9360001
0.16348445 0.57772708 1.9360002
0.17516191 0.57526863 1.9360001
0.18364345 0.57600611 1.9360001
0.19618134 0.57526869 1.9360001
0.20281905 0.57711244 1.9360001
0.13521272 0.58510226 1.9360002
0.14135873 0.58510226 1.9360002
0.19544382 0.58264387 1.9360001
0.12906668 0.59001905 1.9360001
0.1327543 0.59001905 1.9360001
0.14012952 0.59186286 1.9360001
-0.39681715 -0.28185144 1.9470001
-0.42463148 -0.26330858 1.9470001
-0.39310861 -0.25589147 1.9470001
-0.38661861 -0.25589147 1.9470001
-0.37271145 -0.25218287 1.9470001
-0.36529434 -0.25403717 1.9470001
-0.39403576 -0.24383859 1.9470001
-0.38569143 -0.24476573 1.9470003
-0.37456575 -0.24476576 1.9470003
-0.36529434 -0.24476574 1.9470003
-0.35880429 -0.24383859 1.9470001
-0.39434481 -0.2361124 1.9470003
-0.38569149 -0.2354943 1.9470003
-0.37456572 -0.2354943 1.9470003
-0.36529434 -0.23549429 1.9470001
-0.35676461 -0.23512344 1.9470001
-0.34860575 -0.23364002 1.9470001
-0.38383716 -0.22622287 1.9470003
-0.37456572 -0.22622286 1.9470003
-0.3656652 -0.22696459 1.9470001
-0.35602289 -0.22728248 1.9470003
-0.34489721 -0.2256048 1.9470003
-0.38383719 -0.21509716 1.9470003
-0.37456575 -0.21509716 1.9470003
-0.36714861 -0.21138859 1.9470001
-0.34242481 -0.21756956 1.9470003
-0.33562574 -0.21509716 1.9470001
-0.38291001 -0.20489858 1.9470001
-0.37456575 -0.20397145 1.9470003
-0.36714861 -0.20397145 1.9470003
-0.34397003 -0.2030443 1.9470001
-0.33191717 -0.20397143 1.9470003
-0.32511812 -0.20149907 1.9470003
-0.38198289 -0.1965543 1.9470001
-0.37456572 -0.1947 1.9470003
-0.36714861 -0.19470002 1.9470001
-0.34675145 -0.1965543 1.9470001
-0.3300629 -0.19470002 1.9470001
-0.32388192 -0.1953181 1.9470003
-0.31708288 -0.1947 1.9470001
-0.37604916 -0.18617029 1.9470001
-0.36714861 -0.18542857 1.9470001
-0.34489718 -0.18542857 1.9470001
-0.3300629 -0.18728286 1.9470001
-0.32264572 -0.18728286 1.9470001
-0.31708288 -0.18542857 1.9470001
-0.37271145 -0.17801145 1.9470001
-0.31522861 -0.1705943 1.9470003
-0.30781144 -0.17059429 1.9470001
-0.31522861 -0.16688572 1.9470003
-0.30484459 -0.16466059 1.9470001
-0.35602289 -0.15205143 1.9470001
-0.30261946 -0.15724345 1.9470001
-0.29668573 -0.15390572 1.9470001
-0.35602292 -0.14463429 1.9470003
-0.28741431 -0.14092572 1.9470001
-0.35602289 -0.13721716 1.9470001
-0.28741431 -0.13721716 1.9470001
-0.34489718 -0.12238287 1.9470001
-0.33748004 -0.12238287 1.9470001
-0.28277856 -0.12701859 1.9470001
-0.27721572 -0.1251643 1.9470001
-0.34551531 -0.11372953 1.9470003
-0.33748004 -0.11496572 1.9470001
-0.28185144 -0.11496572 1.9470001
-0.34427905 -0.10507619 1.9470003
-0.33748004 -0.10198572 1.9470001
-0.27258003 -0.10013144 1.9470001
-0.34118858 -0.09456858 1.9470001
-0.34118861 -0.085297152 1.9470003
-0.33500764 -0.08406096 1.9470003
-0.27443433 -0.081588574 1.9470001
-0.33006293 -0.074171439 1.9470003
-0.3263543 -0.072317146 1.9470001
-0.27258003 -0.07788001 1.9470001
-0.26578099 -0.072935246 1.9470003
-0.32388192 -0.065518104 1.9470003
-0.26516289 -0.066754289 1.9470001
-0.31522858 -0.05192 1.9470001
-0.26701716 -0.05192 1.9470001
-0.31337431 -0.044502862 1.9470001
-0.26516289 -0.042648576 1.9470001
-0.25681859 -0.04172143 1.9470001
-0.31152004 -0.037085716 1.9470001
-0.30781144 -0.03523143 1.9470001
-0.27072573 -0.033377144 1.9470001
-0.26516289 -0.03523143 1.9470001
-0.25663319 -0.035602286 1.9470001
-0.30363929 -0.026423572 1.9470003
-0.29668573 -0.022251431 1.9470001
-0.27072573 -0.029668573 1.9470001
-0.26516289 -0.029668573 1.9470001
-0.30132148 -0.013907144 1.9470001
-0.29520231 -0.014092572 1.9470001
-0.3022486 -0.0055628573 1.9470001
-0.29668573 -0.0055628577 1.9470001
-0.30187777 0.0029668573 1.9470001
-0.29668573 0 1.9470001
-0.30039433 0.011125715 1.9470001
-0.29668573 0.014834287 1.9470001
-0.28185144 0.037085716 1.9470001
-0.27072573 0.037085716 1.9470001
-0.28333485 0.043761145 1.9470001
-0.2744343 0.045032658 1.9470003
-0.26516289 0.046357147 1.9470001
-0.28185144 0.05377429 1.9470001
-0.27549392 0.055098779 1.9470003
-0.26516289 0.055628575 1.9470003
-0.25695106 0.056158371 1.9470003
-0.28370571 0.063045718 1.9470001
-0.27517605 0.065270863 1.9470001
-0.25218287 0.063045718 1.9470001
-0.2484743 0.064900003 1.9470001
-0.24291146 0.072317146 1.9470001
-0.2354943 0.07788001 1.9470001
-0.23549429 0.087151438 1.9470001
0.057482861 0.12980001 1.9470001
0.07046286 0.12609144 1.9470001
0.12609145 0.12238287 1.9470003
0.14278001 0.12980001 1.9470001
-0.064900003 0.13721716 1.9470001
0.14463429 0.13350858 1.9470001
0.15205143 0.13721716 1.9470001
-0.19470002 0.14463429 1.9470001
-0.12980001 0.14648858 1.9470001
-0.072317146 0.14278001 1.9470001
-0.064900003 0.14278001 1.9470001
-0.059337147 0.14278001 1.9470001
0.15761431 0.14463429 1.9470001
0.16317715 0.14834286 1.9470001
-0.15205143 0.15205143 1.9470001
-0.14463429 0.15761431 1.9470003
-0.13536286 0.15390572 1.9470001
-0.12980001 0.15205143 1.9470001
0.16688572 0.15205143 1.9470001
0.17183048 0.15699622 1.9470003
-0.1965543 0.16503143 1.9470001
-0.14463429 0.16317715 1.9470001
-0.19377288 0.17337573 1.9470001
-0.18913715 0.17615716 1.9470001
-0.18542857 0.18635572 1.9470001
-0.18357429 0.1947 1.9470001
-0.17801145 0.1965543 1.9470001
-0.18172002 0.20026287 1.9470001
-0.17523 0.20119001 1.9470001
-0.16441333 0.20397143 1.9470003
-0.15761431 0.20768 1.9470001
-0.18542859 0.21509716 1.9470003
-0.17801145 0.21324287 1.9470001
-0.15761431 0.21138859 1.9470001
0.17677526 0.57235622 1.9470003
0.18357429 0.57297432 1.9470001
-0.42143622 -0.29649717 1.9580001
-0.41444334 -0.29416621 1.9580001
-0.39905906 -0.29090285 1.9580001
-0.43262476 -0.28717333 1.9580001
-0.4239226 -0.28593016 1.9580001
-0.41397715 -0.28568152 1.9580001
-0.40278858 -0.28530857 1.9580001
-0.39458364 -0.28568152 1.9580001
-0.38787049 -0.28344381 1.9580001
-0.43262476 -0.27412 1.9580001
-0.42516574 -0.27411997 1.9580001
-0.41351095 -0.27551857 1.9580001
-0.40465337 -0.27598476 1.9580001
-0.39532956 -0.27598476 1.9579999
-0.38787049 -0.27598476 1.9580001
-0.43262476 -0.2647962 1.9580001
-0.42463297 -0.2647962 1.9580002
-0.41397715 -0.2647962 1.9579999
-0.4046534 -0.2647962 1.9580001
-0.39532956 -0.2647962 1.9579999
-0.38507336 -0.2638638 1.9580001
-0.37481713 -0.26106665 1.9580001
-0.36922288 -0.26106665 1.9580001
-0.42765209 -0.25609398 1.9580001
-0.41149086 -0.25609398 1.9580001
-0.40465334 -0.25547236 1.9580001
-0.39626193 -0.25453997 1.9580001
-0.38227618 -0.25547239 1.9580001
-0.37481713 -0.25733715 1.9580001
-0.36176383 -0.25547236 1.9580001
-0.40278858 -0.24614859 1.9580001
-0.39905906 -0.24801333 1.9580001
-0.35579658 -0.24689448 1.9580001
-0.40278858 -0.23682477 1.9580001
-0.39532954 -0.23309524 1.9580001
-0.35244 -0.23868953 1.9580001
-0.34560257 -0.23247366 1.9580001
-0.39160001 -0.22377144 1.9580001
-0.33814353 -0.22377144 1.9580001
-0.33192763 -0.21258286 1.9580001
-0.32819811 -0.21258286 1.9580001
-0.32633334 -0.20698857 1.9580001
-0.38414097 -0.19207048 1.9580001
-0.38227618 -0.18461142 1.9580001
-0.38041142 -0.17901714 1.9580001
-0.30768573 -0.17528762 1.9580001
-0.34684572 -0.10256191 1.9580001
-0.27412 -0.093238093 1.9580001
-0.27374706 -0.086524956 1.9580001
-0.26759332 -0.084846668 1.9580001
-0.34311619 -0.076455235 1.9580001
-0.33752191 -0.076455235 1.9580001
-0.2647962 -0.074590474 1.9580001
-0.30955049 -0.022377143 1.9580001
-0.30805868 -0.015664 1.9580001
-0.30955049 -0.0055942857 1.9580001
-0.30830732 0.0037295239 1.9580001
-0.30582094 0.011188571 1.9580001
-0.28717333 0.048483811 1.9580001
-0.28624094 0.056875236 1.9580001
-0.27225524 0.057807621 1.9580001
-0.29276764 0.0634019 1.9580001
-0.28530857 0.06713143 1.9580001
-0.27225524 0.0634019 1.9580001
-0.2647962 0.065266669 1.9580001
-0.25609398 0.065888256 1.9580001
-0.27505237 0.075522855 1.9580001
-0.26479623 0.074590482 1.9580002
-0.25509945 0.073844574 1.9580001
-0.24764037 0.076082282 1.9580001
-0.27412 0.082049526 1.9580001
-0.2647962 0.082049534 1.9580001
-0.23682477 0.082049526 1.9580001
0.065266669 0.1268038 1.9580001
0.13426286 0.12307428 1.9580001
0.1417219 0.1268038 1.9580001
0.14918095 0.1323981 1.9580001
0.15477523 0.13612762 1.9580001
-0.19580001 0.1417219 1.9580001
-0.15477523 0.14918095 1.9580001
-0.14545143 0.14918095 1.9580001
-0.13575467 0.14619733 1.9580001
-0.085779056 0.14545143 1.9580001
0.16409905 0.14545143 1.9580001
-0.20263748 0.15539682 1.9580001
-0.15663999 0.15291047 1.9580001
-0.14545143 0.15291047 1.9580001
0.17528762 0.15477523 1.9580001
0.18274666 0.15663999 1.9580001
-0.20363203 0.16260724 1.9580001
0.17777398 0.16161269 1.9580001
0.18274666 0.16036952 1.9580001
-0.20139429 0.17342286 1.9580001
-0.19766477 0.17715238 1.9580001
-0.19269209 0.18523303 1.9580001
-0.19393523 0.19393523 1.9579999
-0.20512383 0.20139429 1.9580001
-0.19346905 0.20465761 1.9580001
-0.18498437 0.20586972 1.9580001
-0.17454171 0.2073615 1.9580001
-0.16782857 0.20698857 1.9580001
-0.19020571 0.21258286 1.9580001
-0.18461142 0.21258286 1.9580001
-0.17342286 0.21444762 1.9580001
-0.16409905 0.21444762 1.9580001
-0.15663999 0.21631238 1.9580001
-0.18274666 0.22190668 1.9580001
-0.17715238 0.22190668 1.9580001
-0.15663999 0.22004192 1.9580001
0.17901714 0.56688762 1.9580001
0.18461142 0.56688762 1.9580001
0.19207048 0.56688762 1.9580001
0.17715238 0.57061714 1.9580001
0.18461142 0.57061714 1.9580001
0.19393525 0.57061714 1.9580001
-0.42433965 -0.30486017 1.9690001
-0.41442764 -0.3037886 1.9690001
-0.40411383 -0.30097574 1.9690001
-0.42630419 -0.29378733 1.9690002
-0.40580153 -0.29478747 1.9690001
-0.39630032 -0.2937873 1.9690002
-0.43318003 -0.28316095 1.9690001
-0.42530403 -0.28353602 1.9690001
-0.41630286 -0.28503621 1.9690001
-0.40880194 -0.28691143 1.9690001
-0.39004955 -0.28878668 1.9690001
-0.38442382 -0.28503621 1.9690001
-0.3787981 -0.28503621 1.9690002
-0.38442382 -0.27378479 1.9690001
-0.37654784 -0.2722846 1.9690001
-0.38442382 -0.26628384 1.9690001
-0.37504762 -0.26628384 1.9690002
-0.36754668 -0.26253334 1.9690001
-0.42380381 -0.25753272 1.9690002
-0.41505274 -0.25253209 1.9690002
-0.40880194 -0.25128192 1.9690001
-0.36004573 -0.25503239 1.9690001
-0.41380256 -0.2462813 1.9690002
-0.40880194 -0.24565621 1.9690001
-0.35254478 -0.24378097 1.9690001
-0.34879428 -0.24003048 1.9690001
-0.40130097 -0.23252952 1.9690001
-0.39755049 -0.23252952 1.9690001
-0.34316862 -0.23440477 1.9690001
-0.40130097 -0.22877906 1.9690001
-0.39755049 -0.22877906 1.9690001
-0.33754286 -0.22690383 1.9690001
-0.39380002 -0.21565239 1.9690001
-0.33379239 -0.21752763 1.9690001
-0.32254097 -0.20252572 1.9690001
-0.38629904 -0.1818981 1.9690001
-0.27566004 -0.097512387 1.9690001
-0.31504002 -0.031879049 1.9690001
-0.31504002 -0.026253335 1.9690001
-0.31128952 0.0075009526 1.9690001
-0.31128952 0.011251429 1.9690001
-0.30566382 0.016877143 1.9690001
-0.23252952 0.015001905 1.9690001
-0.29441237 0.063758098 1.9690001
-0.2812857 0.073134288 1.9690001
-0.27253461 0.07375937 1.9690002
-0.26253334 0.075009525 1.9690001
-0.25878286 0.078760006 1.9690001
-0.25628257 0.083760642 1.9690002
-0.24565619 0.084385715 1.9690001
0.13876763 0.12376572 1.9690001
0.14439334 0.12564096 1.9690001
0.15001905 0.1275162 1.9690001
0.15626985 0.13251683 1.9690002
0.16127048 0.13876763 1.9690001
-0.20252572 0.14439334 1.9690001
-0.15189429 0.14626858 1.9690001
-0.14439334 0.14626858 1.9690001
0.16689619 0.14439334 1.9690001
-0.21002668 0.15752001 1.9690001
-0.20440096 0.15189429 1.9690001
-0.14626858 0.15001905 1.9690001
0.17439716 0.15189429 1.9690001
0.18002287 0.15376952 1.9690001
-0.21002668 0.16689619 1.9690001
-0.20627619 0.16689619 1.9690001
-0.21002668 0.17439716 1.9690001
-0.20627619 0.17439716 1.9690001
-0.20252572 0.18002287 1.9690001
-0.19877525 0.18564858 1.9690001
-0.21190193 0.19502477 1.9690001
-0.20440096 0.19502477 1.9690001
-0.16877143 0.21752763 1.9690001
-0.17252192 0.22315335 1.9690001
-0.16502097 0.22127812 1.9690002
-0.44125718 -0.3130286 1.9800001
-0.43560001 -0.31491429 1.9800001
-0.42711431 -0.31397143 1.9800001
-0.41485721 -0.31302863 1.9800003
-0.40542859 -0.3130286 1.9800001
-0.44125718 -0.30925718 1.9800001
-0.43560001 -0.30548573 1.9800003
-0.41234291 -0.30800003 1.9800003
-0.40605718 -0.30800003 1.9800003
-0.39647147 -0.30501431 1.9800003
-0.38657147 -0.3017143 1.9800001
-0.43560001 -0.29605716 1.9800001
-0.39348575 -0.29668576 1.9800003
-0.38468575 -0.29605716 1.9800003
-0.37525716 -0.2904 1.9800001
-0.37588573 -0.28411433 1.9800003
-0.37525716 -0.27720001 1.9800001
-0.3696 -0.27154288 1.9800001
-0.36507434 -0.2647543 1.9800001
-0.35828573 -0.26211429 1.9800001
-0.42541718 -0.25419432 1.9800001
-0.35828573 -0.25645718 1.9800001
-0.42617148 -0.2489143 1.9800003
-0.35262859 -0.24702859 1.9800001
-0.34697145 -0.24137144 1.9800001
-0.4073143 -0.23194286 1.9800001
-0.3432 -0.23760001 1.9800001
-0.40542859 -0.22440001 1.9800001
-0.39977145 -0.22440001 1.9800001
-0.33565718 -0.2225143 1.9800001
-0.40542859 -0.21685717 1.9800001
-0.39977145 -0.21685717 1.9800001
-0.33188573 -0.21874288 1.9800001
-0.3281143 -0.21120001 1.9800001
-0.32057145 -0.03017143 1.9800001
-0.32057145 -0.026400002 1.9800001
-0.3168 -0.022628574 1.9800001
-0.3168 -0.015085716 1.9800001
-0.3168 -0.0075428574 1.9800001
-0.2357143 0.011314287 1.9800001
-0.30360001 0.067885719 1.9800001
-0.30360001 0.075428575 1.9800003
-0.29417145 0.075428583 1.9800001
-0.28568575 0.076371431 1.9800001
-0.30548573 0.082971431 1.9800001
-0.29228574 0.082971431 1.9800001
-0.28537148 0.084228575 1.9800003
-0.25268573 0.084857151 1.9800001
0.064114295 0.1257143 1.9800003
0.075428575 0.12445715 1.9800003
0.14708573 0.12445715 1.9800001
0.15462857 0.12634286 1.9800001
-0.20554286 0.13765715 1.9800001
-0.19988573 0.13954286 1.9800001
0.16342859 0.13577144 1.9800003
-0.21120001 0.14708573 1.9800001
-0.20742859 0.14520001 1.9800001
-0.1433143 0.1433143 1.9800001
-0.13954286 0.1433143 1.9800001
0.1697143 0.1433143 1.9800001
0.17348573 0.14520001 1.9800001
-0.21245717 0.15462857 1.9800003
-0.20742859 0.15085715 1.9800001
0.17725715 0.15085715 1.9800001
0.18480001 0.15462857 1.9800001
-0.21497144 0.16217144 1.9800001
0.18857144 0.16217144 1.9800001
-0.2049143 0.18480001 1.9800003
-0.1697143 0.22628573 1.9800001
-0.1697143 0.23005715 1.9800001
-0.44013715 -0.33010289 1.9920001
-0.43444574 -0.33010289 1.9920001
-0.42496002 -0.33010289 1.9920001
-0.4154743 -0.33010289 1.9920001
-0.4431726 -0.32403204 1.9920002
-0.43444574 -0.32441145 1.9920001
-0.42496008 -0.32441145 1.9920003
-0.4154743 -0.32441145 1.9920001
-0.40598857 -0.32441145 1.9920003
-0.39840001 -0.32441145 1.9920001
-0.44646096 -0.31745526 1.9920001
-0.42496002 -0.31872004 1.9920001
-0.4154743 -0.31872001 1.9920001
-0.40504003 -0.31777143 1.9920001
-0.39460573 -0.31492573 1.9920003
-0.38701716 -0.31113145 1.9920001
-0.39081144 -0.30733714 1.9920001
-0.38448763 -0.30607241 1.9920001
-0.37563431 -0.29658669 1.9920003
-0.36804575 -0.29216 1.9920001
-0.37278858 -0.28552002 1.9920001
-0.36533555 -0.28402942 1.9920003
-0.37184 -0.27698284 1.9920001
-0.36425146 -0.27508575 1.9920003
-0.3566629 -0.27508572 1.9920001
-0.36425143 -0.26939431 1.9920001
-0.3566629 -0.26749715 1.9920001
-0.35539815 -0.25421715 1.9920001
-0.34717715 -0.24473144 1.9920001
-0.34148574 -0.23524572 1.9920001
-0.33769146 -0.22765715 1.9920001
-0.33010289 -0.21627429 1.9920001
-0.3225143 -0.011382857 1.9920001
-0.3225143 -0.0075885719 1.9920001
-0.30354288 0.085371435 1.9920001
-0.29690287 0.086320013 1.9920001
-0.30354288 0.091062859 1.9920001
-0.29595432 0.091062866 1.9920001
0.15936001 0.12521143 1.9920001
-0.21437715 0.13469714 1.9920001
-0.20678858 0.1328 1.9920001
0.16694857 0.13469714 1.9920001
-0.23145144 0.14038858 1.9920001
-0.22006857 0.14418288 1.9920001
-0.21475656 0.14342402 1.9920002
-0.15177144 0.14418288 1.9920001
-0.14797714 0.14418288 1.9920001
0.17453717 0.14291811 1.9920001
0.18212572 0.14797714 1.9920001
-0.22006857 0.15556572 1.9920001
-0.21627429 0.15366858 1.9920001
0.18592 0.15556572 1.9920001
-0.22006857 0.16315429 1.9920001
-0.21627429 0.16694857 1.9920001
-0.22133335 0.17580192 1.9920001
-0.21627431 0.17453717 1.9920001
-0.22006857 0.1897143 1.9920001
-0.21342857 0.18686858 1.9920001
-0.20868573 0.18781716 1.9920001
-0.22006857 0.19350858 1.9920001
-0.16505143 0.22765715 1.9920001
-0.16505143 0.23145144 1.9920001
-0.45146984 -0.33319747 2.003
-0.44511113 -0.3344692 2.003
-0.43684477 -0.33574095 2.003
-0.41204572 -0.33192572 2.003
-0.40441525 -0.33192572 2.003
-0.4521057 -0.32811046 2.003
-0.39424127 -0.32302353 2.003
-0.38915429 -0.32047999 2.003
-0.38724667 -0.31475717 2.003
-0.38152382 -0.30521905 2.003
-0.36626285 -0.29377332 2.003
-0.36244762 -0.28805047 2.003
-0.35863239 -0.28423524 2.003
-0.36244762 -0.27088189 2.003
-0.35863239 -0.26325142 2.003
-0.35100189 -0.25180572 2.003
-0.34527904 -0.24417526 2.003
-0.33574095 -0.22509904 2.003
-0.32811046 -0.20983809 2.003
-0.23654477 0.0057228571 2.003
-0.23272952 0.013353334 2.003
-0.22700667 0.011445714 2.003
-0.22509906 0.1297181 2.003
-0.21746856 0.1297181 2.003
0.12208762 0.12208762 2.003
0.16596285 0.1297181 2.003
-0.23272952 0.13544096 2.003
-0.22509906 0.13544098 2.0030003
0.17359333 0.13734858 2.003
-0.23272952 0.14688668 2.003
-0.22700667 0.14497906 2.0030003
-0.16023999 0.14307143 2.003
-0.15515302 0.14243555 2.003
-0.14688668 0.14116381 2.003
0.17931619 0.14497904 2.003
0.18694668 0.14879429 2.003
-0.23272952 0.15260953 2.003
-0.2263708 0.15388128 2.003
0.18694668 0.15260953 2.003
-0.2238273 0.16405523 2.003
-0.22128381 0.17168571 2.003
-0.22128381 0.18313143 2.003
-0.21746856 0.18503904 2.003
-0.44330001 -0.35310477 2.0150001
-0.45481431 -0.34159049 2.0150001
-0.44521904 -0.34312573 2.0150001
-0.4362635 -0.34286985 2.0150001
-0.42602858 -0.34159049 2.0150001
-0.46057147 -0.33391428 2.0150001
-0.45673338 -0.3377524 2.0150001
-0.43370476 -0.3377524 2.0150001
-0.42602858 -0.33775243 2.0150001
-0.4145143 -0.33775243 2.0150001
-0.40683812 -0.3377524 2.0150001
-0.39788258 -0.33135557 2.0150001
-0.39148575 -0.3262381 2.0150001
-0.38764763 -0.3224 2.0150001
-0.3857286 -0.31472382 2.0150001
-0.37805241 -0.30512857 2.0150001
-0.37229526 -0.29937145 2.0150001
-0.36461905 -0.29553336 2.0150001
-0.35694286 -0.26482856 2.0150001
-0.3550238 -0.25715238 2.0150001
-0.34542859 -0.2456381 2.0150001
-0.34159049 -0.23412383 2.0150001
-0.33391431 -0.22260952 2.0150001
-0.33007622 -0.21685238 2.0150001
-0.3224 -0.19190477 2.0150001
-0.3224 -0.18806668 2.0150001
-0.23540318 0.0025587303 2.0150001
-0.23028573 0.015352381 2.0150001
-0.22644764 0.015352381 2.0150001
0.12665714 0.12281905 2.0150001
0.13049524 0.12281905 2.0150001
0.16695715 0.12665714 2.0150001
0.17463334 0.13433333 2.0150001
0.18039048 0.13817143 2.0150001
0.18422857 0.14392859 2.0150001
0.19574289 0.14968573 2.0150001
-0.23220478 0.15736191 2.0150001
0.19574288 0.15544288 2.0150003
-0.23028573 0.1612 2.0150001
-0.22644764 0.1688762 2.0150001
0.19574288 0.1612 2.0150001
-0.46331432 -0.3513467 2.0270002
-0.45559245 -0.35327718 2.0270004
-0.4430443 -0.35231194 2.0270002
-0.43474326 -0.35443547 2.0270002
-0.42470479 -0.3513467 2.0270002
-0.41698289 -0.3513467 2.0270002
-0.46331432 -0.34555528 2.0270002
-0.4575229 -0.34748575 2.0270002
-0.44787049 -0.34748575 2.0270002
-0.43435717 -0.34748575 2.0270002
-0.42373955 -0.34652051 2.0270002
-0.41505241 -0.34555528 2.0270002
-0.40926099 -0.3436248 2.0270002
-0.40540004 -0.33976385 2.0270002
-0.39381716 -0.33204195 2.0270002
-0.38802576 -0.32432002 2.0270002
-0.38416478 -0.31466764 2.0270002
-0.37644288 -0.30694574 2.0270002
-0.35778162 -0.28442353 2.0270002
-0.35778162 -0.27412766 2.0270002
-0.35392067 -0.26383179 2.0270002
-0.3513467 -0.25675336 2.0270002
-0.34748575 -0.2509619 2.0270002
-0.33976385 -0.23165716 2.0270002
-0.33204195 -0.22393525 2.0270002
-0.32238954 -0.1949781 2.0270002
-0.32045907 -0.1872562 2.0270002
-0.27798861 -0.096523814 2.0270002
-0.23551813 -0.003860953 2.0270002
-0.23294416 0.0051479372 2.0270002
-0.22779621 0.0057914294 2.0270002
0.12741144 0.11968953 2.0270002
0.10810667 0.12355049 2.0270002
0.11582857 0.12355049 2.0270002
0.13513334 0.12355049 2.0270002
0.17374288 0.12741144 2.0270002
0.027026668 0.13127239 2.0270002
0.030887622 0.13127239 2.0270002
0.17374288 0.13127239 2.0270002
0.18146478 0.13513334 2.0270002
0.18918668 0.14285526 2.0270002
0.19690858 0.14671621 2.0270002
0.20076953 0.14671621 2.0270002
-0.23165716 0.16795145 2.0270002
-0.22779621 0.17374288 2.0270002
-0.22650921 0.18789969 2.0270002
-0.46217334 -0.36119428 2.039
-0.45440573 -0.36119431 2.039
-0.43304479 -0.36119428 2.039
-0.42721906 -0.36119428 2.039
-0.43110287 -0.35731047 2.039
-0.42527717 -0.35731047 2.039
-0.41556764 -0.35472128 2.039
-0.4116838 -0.34954289 2.039
-0.4058581 -0.34371716 2.039
-0.40003237 -0.33789143 2.039
-0.39614856 -0.33789143 2.039
-0.38643909 -0.32429808 2.039
-0.38449717 -0.31847239 2.039
-0.37672952 -0.31070474 2.039
-0.37284571 -0.30293715 2.039
-0.36378348 -0.29516953 2.039
-0.3549802 -0.27652723 2.039
-0.35342667 -0.26798287 2.039
-0.34954289 -0.26215714 2.039
-0.34954289 -0.25633144 2.039
-0.34565908 -0.24468002 2.039
-0.33400762 -0.22526094 2.039
-0.33012381 -0.21555144 2.039
-0.32624 -0.21360953 2.039
-0.33012381 -0.20972572 2.039
-0.32624 -0.2058419 2.039
-0.32235619 -0.19807428 2.039
-0.31847239 -0.19030666 2.039
-0.31847239 -0.17865524 2.039
-0.27963427 -0.10097905 2.039
-0.23561779 -0.012946032 2.039
-0.22914477 -0.011651428 2.039
-0.23497048 -0.0077676191 2.039
-0.22914477 -0.0077676191 2.039
-0.23302858 0 2.039
-0.22914477 0 2.039
0.062140953 0.12816572 2.039
0.089327618 0.12428191 2.039
0.10486286 0.12428191 2.039
0.11457238 0.12234001 2.039
0.12428191 0.1203981 2.039
0.13593332 0.1216927 2.039
0.14564286 0.12428191 2.039
0.058257144 0.13204953 2.039
0.17865524 0.13204953 2.039
0.18642285 0.13981713 2.039
0.19321953 0.13690428 2.039
0.1954851 0.14499557 2.039
-0.4609867 -0.36722666 2.0510001
-0.45708001 -0.36722666 2.0510001
-0.41020003 -0.35160002 2.0510001
-0.40434003 -0.34574002 2.0510001
-0.39262003 -0.33402002 2.0510001
-0.38480669 -0.32425335 2.0510001
-0.38285336 -0.31644002 2.0510001
-0.37504002 -0.30862668 2.0510001
-0.36332002 -0.29690668 2.0510001
-0.35746002 -0.28518668 2.0510001
-0.35160002 -0.27346668 2.0510001
-0.35160002 -0.26956001 2.0510001
-0.34769335 -0.26370001 2.0510001
-0.34639114 -0.25393337 2.0510001
-0.34378669 -0.24416669 2.0510001
-0.34378669 -0.23830667 2.0510001
-0.33792669 -0.23244667 2.0510001
-0.32816002 -0.22268 2.0510001
-0.32555556 -0.21486668 2.0510001
-0.32295114 -0.20444891 2.0510001
-0.32034668 -0.19728667 2.0510001
-0.31644002 -0.19338 2.0510001
-0.32034668 -0.18752001 2.0510001
-0.31644002 -0.17775334 2.0510001
-0.28518668 -0.10938667 2.0510001
-0.27346668 -0.078133337 2.0510001
0.10938667 0.1172 2.0510001
0.11329334 0.1172 2.0510001
0.083993338 0.12501334 2.0510001
0.096364439 0.12371112 2.0510001
0.10450333 0.12208334 2.0510001
0.1172 0.12110668 2.0510001
0.12110668 0.12110668 2.0510001
0.14454667 0.12110668 2.0510001
0.15431334 0.12501334 2.0510001
0.16017334 0.12501334 2.0510001
0.17970668 0.12892 2.0510001
0.039066669 0.13478 2.0510001
0.044926669 0.13478 2.0510001
0.05274 0.13282667 2.0510001
0.18621778 0.1341289 2.0510001
0.19142668 0.13282667 2.0510001
0.19728667 0.14064001 2.0510001
-0.044926669 0.30862668 2.0510001
-0.42045909 -0.36151624 2.0630002
-0.41652957 -0.36151624 2.0630002
-0.40867051 -0.36151624 2.0630002
-0.41260004 -0.35758668 2.0630002
-0.40867051 -0.35562193 2.0630002
-0.38509339 -0.32615051 2.0630002
-0.37330478 -0.30650288 2.0630002
-0.36544576 -0.30257335 2.0630002
-0.35365716 -0.2789962 2.0630002
-0.34972766 -0.27113718 2.0630002
-0.34579813 -0.2632781 2.0630002
-0.34579813 -0.25738382 2.0630002
-0.34186861 -0.24559525 2.0630002
-0.33793908 -0.2436305 2.0630002
-0.34186861 -0.23970097 2.0630002
-0.33793908 -0.23773621 2.0630002
-0.33204478 -0.22791241 2.0630002
-0.32615051 -0.22201812 2.0630002
-0.32222098 -0.21415907 2.0630002
-0.32222098 -0.20826478 2.0630002
-0.31829149 -0.20433526 2.0630002
-0.31698161 -0.18599747 2.0630002
-0.31436193 -0.17289907 2.0630002
-0.3104324 -0.16111049 2.0630002
-0.30650288 -0.15325144 2.0630002
-0.2750667 -0.082520008 2.0630002
-0.2750667 -0.070731431 2.0630002
-0.23184192 -0.0039295242 2.0630002
0.09627334 0.11788572 2.0630002
0.10413238 0.11788572 2.0630002
0.11395621 0.11526605 2.0630002
0.12574479 0.11788573 2.0630002
0.13556859 0.11592096 2.0630002
0.1453924 0.11788573 2.0630002
0.037330478 0.1296743 2.0630002
0.04518953 0.1296743 2.0630002
0.058942862 0.1296743 2.0630002
0.06483715 0.12574477 2.0630002
0.074660957 0.12574479 2.0630002
0.092343822 0.12181525 2.0630002
0.1552162 0.12181525 2.0630002
0.16504002 0.12574477 2.0630002
0.035365716 0.13360383 2.0630002
0.19647621 0.13360383 2.0630002
0.20302543 0.13491367 2.0630002
-0.0039295242 0.2593486 2.0630002
0.0019647621 0.2593486 2.0630002
-0.04518953 0.30650288 2.0630002
-0.039295241 0.30650288 2.0630002
-0.039295241 0.3104324 2.0630002
-0.42310861 -0.36774862 2.0760002
-0.4171772 -0.36577147 2.0760002
-0.40729147 -0.36379433 2.0760002
-0.40729147 -0.35786289 2.0760002
-0.39674672 -0.34270477 2.0760002
-0.39147431 -0.33611432 2.0760002
-0.38752005 -0.33216003 2.0760002
-0.38356575 -0.32425147 2.0760002
-0.37763432 -0.31436574 2.0760002
-0.37170288 -0.30843431 2.0760002
-0.35193148 -0.27680001 2.0760002
-0.34402287 -0.2609829 2.0760002
-0.34204572 -0.25505146 2.0760002
-0.33611432 -0.25307432 2.0760002
-0.34006858 -0.24912001 2.0760002
-0.33453259 -0.24437487 2.0760002
-0.33413717 -0.23528002 2.0760002
-0.32820573 -0.23330288 2.0760002
-0.32556957 -0.22539431 2.0760002
-0.32029718 -0.21550858 2.0760002
-0.31634289 -0.21353145 2.0760002
-0.31634289 -0.20166858 2.0760002
-0.31502479 -0.19507812 2.0760002
-0.31397033 -0.18585144 2.0760002
-0.30711621 -0.18453336 2.0760002
-0.31397033 -0.17398858 2.0760002
-0.30685261 -0.17319773 2.0760002
-0.3123886 -0.16608001 2.0760002
-0.30645716 -0.16410288 2.0760002
-0.30448005 -0.15520573 2.0760002
-0.29657146 -0.15026288 2.0760002
-0.30052575 -0.14630859 2.0760002
-0.28668573 -0.11467429 2.0760002
-0.2820724 -0.10544764 2.0760002
-0.2807543 -0.094902873 2.0760002
-0.27680001 -0.094902873 2.0760002
-0.27680001 -0.08699429 2.0760002
-0.27284575 -0.073154293 2.0760002
-0.26889145 -0.075131439 2.0760002
-0.27284575 -0.065245718 2.0760002
-0.26889145 -0.06326858 2.0760002
-0.27284575 -0.05733715 2.0760002
0.08699429 0.11862858 2.0760002
0.094902866 0.11665144 2.0760002
0.10478858 0.1146743 2.0760002
0.14433144 0.1146743 2.0760002
0.15421715 0.11731049 2.0760002
0.037565716 0.12653716 2.0760002
0.045474291 0.12653716 2.0760002
0.05733715 0.12653716 2.0760002
0.079085723 0.12258286 2.0760002
0.08699429 0.12258286 2.0760002
0.16212574 0.12258286 2.0760002
0.023725716 0.13444573 2.0760002
0.053382862 0.13049145 2.0760002
0.18782859 0.13049145 2.0760002
0.19573715 0.13049145 2.0760002
0.20166858 0.13049145 2.0760002
-0.1561943 0.14235429 2.0760002
-0.14630859 0.14630859 2.0760002
-0.24595658 0.16449831 2.0760002
0.05140572 0.23528002 2.0760002
-0.018453337 0.24384765 2.0760002
-0.0049428577 0.24417716 2.0760002
0 0.24912001 2.0760002
0.045474291 0.24121146 2.0760002
0.05140572 0.24121146 2.0760002
-0.015817145 0.25505146 2.0760002
-0.0039542862 0.25505146 2.0760002
0 0.25505146 2.0760002
-0.011862858 0.26296002 2.0760002
-0.0065904772 0.26361907 2.0760002
0.002636191 0.26625526 2.0760002
-0.41561145 -0.3698743 2.0880001
-0.40434289 -0.36457145 2.0880001
-0.40699431 -0.35529143 2.0880001
-0.40368003 -0.34998858 2.0880001
-0.39506286 -0.34601146 2.0880001
-0.38777143 -0.33606857 2.0880001
-0.37385142 -0.31419429 2.0880001
-0.36589715 -0.30226287 2.0880001
-0.36589715 -0.29828572 2.0880001
-0.34998858 -0.27044573 2.0880001
-0.34336004 -0.26514289 2.0880001
-0.33805716 -0.26249143 2.0880001
-0.33341715 -0.25453717 2.0880003
-0.33010286 -0.24459429 2.0880001
-0.33010286 -0.23862858 2.0880001
-0.32480001 -0.23199999 2.0880001
-0.32214859 -0.22470857 2.0880001
-0.31817144 -0.22272 2.0880001
-0.31817144 -0.21476573 2.0880001
-0.31618285 -0.20482287 2.0880001
-0.31154287 -0.19488001 2.0880001
-0.30623999 -0.19090286 2.0880001
-0.3035886 -0.1842743 2.0880001
-0.29828572 -0.18493715 2.0880001
-0.30325714 -0.17598857 2.0880001
-0.29828572 -0.17698285 2.0880001
-0.30226287 -0.16505143 2.0880001
-0.29828572 -0.16505143 2.0880001
-0.30226287 -0.15709715 2.0880001
-0.29696 -0.15510857 2.0880001
-0.29629713 -0.14516571 2.0880001
-0.29430857 -0.13721144 2.0880001
-0.29033145 -0.12527999 2.0880001
-0.28635427 -0.12329143 2.0880001
-0.28370285 -0.11533715 2.0880001
-0.2784 -0.11136 2.0880001
-0.27707431 -0.10473143 2.0880001
-0.27442285 -0.095451437 2.0880001
-0.27243429 -0.08550857 2.0880001
-0.27177143 -0.076891437 2.0880001
-0.26514286 -0.074239999 2.0880001
-0.27044573 -0.067611434 2.0880001
-0.26514286 -0.064960003 2.0880001
-0.27044576 -0.055680003 2.0880001
-0.26547432 -0.056674287 2.0880001
-0.26646858 -0.047725715 2.0880001
-0.23664001 0.02784 2.0880001
-0.23664001 0.031817142 2.0880001
-0.2306743 0.043748572 2.0880001
0.07954286 0.11931429 2.0880001
0.083519995 0.11931429 2.0880001
0.095451429 0.11533715 2.0880001
0.11931429 0.11533715 2.0880001
0.15510857 0.11533715 2.0880001
0.16306286 0.11931429 2.0880001
0.051702857 0.12726857 2.0880001
0.063634284 0.12329143 2.0880001
0.083519995 0.12329143 2.0880001
0.16703999 0.12329143 2.0880001
0.17101716 0.12726857 2.0880001
0.019885715 0.13522287 2.0880001
0.025851429 0.13124572 2.0880001
-0.16306286 0.14317714 2.0880001
