# .PCD v0.7 - Point Cloud Data file format
VERSION 0.7
FIELDS x y z
SIZE 4 4 4
TYPE F F F
COUNT 1 1 1
WIDTH 1479
HEIGHT 1
VIEWPOINT 0 0 0 1 0 0 0
POINTS 1479
DATA ascii
-0.067005716 0.092777148 1.8040001
-0.05154286 0.092777148 1.8040001
-0.044670478 0.092777148 1.8040001
-0.03436191 0.095526099 1.8040001
-0.024053335 0.096213341 1.804
-0.013744763 0.096213341 1.804
-0.0068723815 0.096213341 1.8040003
0.0068723815 0.094495244 1.8040001
0.013744763 0.094495237 1.8040001
0.020617146 0.094495244 1.8040001
-0.020617146 0.10308572 1.8040001
-0.010308573 0.10480382 1.8040001
-0.0057269847 0.10537651 1.8040003
0.0048106671 0.10720915 1.8040001
0.013744763 0.1065219 1.804
0.022335242 0.10652192 1.8040001
0.005154286 0.1133943 1.8040001
0.013744764 0.11339431 1.8040003
0.022335241 0.1133943 1.8040001
0.27641907 -0.26259813 1.8140001
0.28332955 -0.26259813 1.8140001
0.26864475 -0.25482383 1.8140001
0.27526733 -0.25683939 1.8140001
0.28332955 -0.25914285 1.8140001
0.24877714 -0.24186668 1.8140001
0.25914285 -0.24359429 1.8140001
0.26536232 -0.24532191 1.8140001
0.27641907 -0.24877714 1.8140001
0.24791333 -0.23582001 1.8140001
0.25637868 -0.23564725 1.8140001
0.26605338 -0.23668385 1.8140001
0.27469146 -0.2349562 1.8140001
0.24791333 -0.2254543 1.8140001
0.25568762 -0.2245905 1.814
0.22804573 -0.21076953 1.8140001
0.23841144 -0.21076953 1.8140001
0.2549966 -0.21629791 1.8140001
0.22459051 -0.20385906 1.814
0.23446262 -0.20385908 1.8140002
0.21652827 -0.19118986 1.8140001
0.22113526 -0.19349335 1.8140001
0.21652827 -0.18543112 1.8140001
0.22113526 -0.18485525 1.8140001
0.20616257 -0.17391366 1.8140001
0.21422479 -0.17736891 1.8140001
0.19349335 -0.16377831 1.8140001
0.20316802 -0.16792458 1.8140001
0.19608478 -0.15462193 1.8140001
0.19349335 -0.14561363 1.8140002
0.18485525 -0.13129906 1.8140001
0.19003811 -0.1347543 1.8140001
0.18485525 -0.12438858 1.8140001
0.17736891 -0.11287113 1.8140001
0.18312763 -0.11056763 1.8140001
0.15807715 -0.10279334 1.8140001
0.16541953 -0.10408907 1.8140001
0.17621715 -0.10711239 1.8140001
0.15721335 -0.095019057 1.8140001
0.16239619 -0.096746676 1.8140001
0.15548572 -0.086380959 1.8140001
0.15433398 -0.074863508 1.8140001
0.13820954 -0.063921906 1.8140001
0.14561363 -0.064662322 1.8140002
0.1520305 -0.069104768 1.8140001
0.13820955 -0.055283815 1.8140001
0.14166477 -0.055283815 1.8140001
0.12438858 -0.041462861 1.8140001
0.13302667 -0.046645716 1.8140001
0.11471392 -0.035934482 1.8140001
0.12266095 -0.038007624 1.8140001
0.096746676 -0.020731431 1.8140001
0.10308129 -0.023610799 1.8140001
0.11333182 -0.02349562 1.8140001
-0.18312763 -0.013820954 1.8140001
-0.17736891 -0.0149727 1.8140001
-0.16585144 -0.015548573 1.8140001
0.096746676 -0.017276192 1.8140001
0.10365716 -0.013820954 1.814
0.11402287 -0.013820953 1.814
0.12093334 -0.013820954 1.8140001
-0.19349335 -0.0034552384 1.8140001
-0.18312763 -0.0051828576 1.8140001
-0.17967239 -0.0051828576 1.8140001
-0.15375811 -0.0034552384 1.8140001
-0.14857525 -0.0034552384 1.8140001
0.10711239 -0.0051828576 1.8140001
0.11333182 -0.0055283816 1.8140001
-0.19694859 0 1.8140001
0.10365716 0.0051828576 1.8140001
0.11171938 0.0011517461 1.8140001
-0.12093334 0.017276192 1.8140001
-0.1174781 0.017276192 1.8140001
0.065649532 0.017276192 1.8140001
0.10192955 0.013820954 1.8140001
-0.12093334 0.024186671 1.8140001
-0.1174781 0.024186669 1.8140001
0.088108577 0.025914289 1.8140001
0.095019057 0.020731431 1.8140001
0.10020191 0.020731431 1.8140001
-0.12093334 0.031097142 1.8140001
0.085805088 0.034552388 1.8140001
0.069104768 0.048373338 1.8140001
0.077742867 0.048373338 1.8140001
0.086380959 0.044918101 1.8140001
-0.11056763 0.055283815 1.8140001
0.012093334 0.058739051 1.8140001
0.048373338 0.058739051 1.8140001
0.054420006 0.056147624 1.8140001
0.065649524 0.053556196 1.8140001
0.076015249 0.055283818 1.8140002
0.085689917 0.053210676 1.8140001
-0.10711239 0.063921906 1.8140001
-0.0034552384 0.069104768 1.8140001
0.0057587307 0.06795302 1.8140001
0.012833743 0.065649532 1.8140002
0.034552384 0.06737715 1.8140001
0.044918101 0.066225402 1.8140001
0.051828578 0.062194284 1.8140001
0.063921906 0.069104768 1.8140001
-0.08407747 0.074863508 1.8140001
-0.079470485 0.076015249 1.8140001
-0.0046069846 0.074863501 1.8140001
0.0028793653 0.075439379 1.8140001
0.010365715 0.072560005 1.8140001
0.034552384 0.076015249 1.814
0.043190479 0.072560005 1.8140001
0.058739051 0.072560005 1.8140001
0.065649532 0.072560005 1.8140001
-0.08465334 0.086380959 1.8140001
-0.079470485 0.086380959 1.8140001
-0.0034552384 0.086380959 1.8140001
0.0013820954 0.086380959 1.8140001
0.026490163 0.087532699 1.8140001
0.033565175 0.086380966 1.8140002
0.048373338 0.086380959 1.8140001
0.051828578 0.082925722 1.8140001
-0.034552384 0.096746676 1.8140001
-0.0034552384 0.095019057 1.8140001
0.0017276192 0.095019057 1.8140001
0.025914289 0.095019057 1.8140001
0.032248892 0.094443187 1.8140001
-0.032824762 0.10020191 1.8140001
-0.025914289 0.10365716 1.8140001
-0.015548573 0.10365716 1.8140001
-0.0034552384 0.10192954 1.8140001
0.0028793653 0.10250541 1.8140001
0.013820954 0.10020192 1.8140001
0.025568767 0.10227507 1.8140001
0.031097142 0.10365716 1.8140001
0.027641907 0.11056763 1.8140001
0.031097142 0.11056763 1.8140001
0.27794287 -0.25362286 1.8240001
0.28350174 -0.25431773 1.8240002
0.26752001 -0.24667431 1.8240001
0.27360001 -0.24406859 1.8240001
0.28141713 -0.24320002 1.8240001
0.26578286 -0.23277715 1.8240001
0.27099428 -0.23277715 1.8240001
0.28141713 -0.23972574 1.8240001
0.26578289 -0.22582857 1.8240002
0.27273142 -0.22582857 1.8240002
0.24493717 -0.21193144 1.8240001
0.25014856 -0.21193144 1.8240001
0.26578286 -0.21888001 1.8240001
0.27331048 -0.21772192 1.8240001
0.23972574 -0.20150858 1.8240001
0.24551623 -0.20729905 1.8240001
0.25292799 -0.20637257 1.8240002
0.26057142 -0.20498286 1.8240001
0.2272183 -0.19525486 1.8240002
0.23393524 -0.19687621 1.8240001
0.22582857 -0.18413717 1.8240002
0.2345143 -0.18761145 1.8240001
0.21540573 -0.17313527 1.8240002
0.20585145 -0.16416001 1.8240001
0.20289829 -0.15634286 1.8240002
0.1980343 -0.14244573 1.8240001
0.20150858 -0.14765716 1.8240001
0.19594972 -0.13619201 1.8240002
0.19195428 -0.12594287 1.8240001
0.18622173 -0.11534629 1.8240002
0.19108573 -0.11812571 1.8240001
0.1737143 -0.10336 1.8240001
0.18066287 -0.10422858 1.8240001
0.15981716 -0.090331435 1.8240001
0.16502857 -0.093805723 1.8240001
0.15981716 -0.086857148 1.8240001
0.15981716 -0.07990858 1.8240001
0.16329144 -0.076434292 1.8240001
0.15402669 -0.066011429 1.8240001
0.14765716 -0.055588581 1.8240002
0.15286858 -0.057325713 1.8240001
0.13665526 -0.044007625 1.8240002
0.14592001 -0.045165718 1.8240002
0.11465143 -0.031268574 1.8240001
0.12557063 -0.033750206 1.8240004
0.13202286 -0.034742858 1.8240001
-0.18297908 -0.023161907 1.8240002
-0.1760305 -0.023161907 1.8240001
-0.16676572 -0.020845715 1.8240001
0.10770286 -0.024320001 1.8240001
0.11551999 -0.025188573 1.8240001
0.1250743 -0.024320001 1.8240002
0.13202286 -0.027794287 1.8240001
-0.19406369 -0.01290449 1.8240004
-0.18761145 -0.013897143 1.8240001
-0.17255622 -0.012739047 1.8240002
-0.16416001 -0.013028571 1.8240001
-0.15750097 -0.014476191 1.8240002
0.12449524 -0.013897143 1.8240002
-0.19456002 -0.0069485717 1.8240001
-0.18761145 -0.0052114287 1.8240001
-0.17371431 -0.0052114292 1.8240002
-0.16502857 -0.0052114287 1.8240001
-0.15750097 -0.0057904767 1.8240001
-0.1493943 -0.0069485717 1.8240001
0.11812571 -0.0034742858 1.8240001
0.12160001 -0.0052114287 1.8240001
-0.20150858 0.0034742858 1.8240001
-0.19412573 0.0039085718 1.8240002
-0.18413717 0.0034742861 1.8240002
-0.17371431 0.0017371429 1.8240002
-0.16502857 0.0017371429 1.8240001
-0.15634286 0.0028952383 1.8240002
0.10770286 0.0069485717 1.8240001
0.11580952 0.0046323813 1.8240002
-0.19456001 0.011291428 1.8240001
-0.18297908 0.012739047 1.8240001
0.10770287 0.013897143 1.8240001
0.11291429 0.013897143 1.8240002
0.095542863 0.026057143 1.8240001
0.10422858 0.024899049 1.8240002
0.11378285 0.022582859 1.8240001
-0.19456001 0.034742858 1.8240001
-0.17718859 0.031268571 1.8240001
0.093226686 0.034742858 1.8240002
0.092416011 0.04586057 1.8240002
-0.11117715 0.059062857 1.8240001
0.057325713 0.059062857 1.8240001
0.066706292 0.057673145 1.8240002
0.07990858 0.059062857 1.8240001
0.085120007 0.059062857 1.8240001
0.093805723 0.053272389 1.8240001
-0.11117715 0.062537141 1.8240001
0.048640002 0.069485717 1.8240001
0.056022856 0.066445716 1.8240002
0.066507757 0.065018773 1.8240004
0.076434292 0.066011436 1.8240002
0.083382867 0.066011429 1.8240001
0.045662042 0.077426948 1.8240004
0.05515429 0.076868579 1.8240002
0.066011429 0.078171432 1.8240002
0.075739436 0.074349724 1.8240002
0.038217146 0.08338286 1.8240001
0.04342857 0.08512 1.8240001
0.056283433 0.085467435 1.8240002
0.066011429 0.085120007 1.8240002
0.072960004 0.08338286 1.8240001
0.037348572 0.094674289 1.8240001
0.044731431 0.09424001 1.8240002
0.054595921 0.093309395 1.8240004
0.064274281 0.090331435 1.8240001
-0.031268571 0.10422858 1.8240001
-0.015634287 0.10770286 1.8240001
0.036480006 0.10422858 1.8240002
0.045165718 0.10422857 1.8240002
0.053272389 0.10191239 1.8240001
0.027794287 0.11465143 1.8240001
0.034742858 0.11291429 1.8240001
0.04169143 0.11117715 1.8240001
0.27756858 -0.24789144 1.8330001
0.28280571 -0.24789144 1.8330001
0.25661999 -0.21297714 1.8330001
0.26302096 -0.21530478 1.8330001
0.24556381 -0.20366667 1.8330001
0.25487432 -0.2048305 1.8330001
0.26185715 -0.20948572 1.8330001
0.23479858 -0.19290143 1.8330001
0.24265429 -0.19901143 1.8330001
0.23159811 -0.18388192 1.8330001
0.21996 -0.17108001 1.8330001
0.22484803 -0.17526972 1.8330001
0.20948572 -0.16060571 1.8330001
0.21577029 -0.16619201 1.8330001
0.20808916 -0.15362287 1.8330001
0.20669258 -0.14454514 1.8330001
0.21297714 -0.14664 1.8330001
0.19901143 -0.13267428 1.8330001
0.20555787 -0.13660213 1.8330001
0.19761486 -0.12499314 1.8330001
0.20250286 -0.12743714 1.8330001
0.19319239 -0.11521715 1.8330001
0.17806286 -0.10299715 1.8330001
0.18504572 -0.10590667 1.8330001
0.16758858 -0.090777144 1.8330001
0.17247657 -0.094966851 1.8330001
0.16526096 -0.084376201 1.8330001
0.17108001 -0.083794281 1.8330001
0.16409715 -0.075414859 1.8330001
0.17224382 -0.074483812 1.8330001
0.15711428 -0.064591423 1.8330001
0.16409715 -0.066337138 1.8329999
0.17108002 -0.066337138 1.8330001
0.15624143 -0.054990001 1.8330001
0.16366072 -0.056299284 1.8330001
0.17108001 -0.057608575 1.8330001
-0.20774001 -0.041897144 1.8330001
0.15536857 -0.045388576 1.8330001
0.16235143 -0.047134288 1.8330001
-0.20643073 -0.034477856 1.8330001
-0.1962183 -0.032819428 1.8330001
-0.18591857 -0.032295711 1.8330001
0.13791142 -0.034914285 1.8330001
0.1448943 -0.034914285 1.8330001
0.151528 -0.035612572 1.8330001
-0.20424858 -0.024440002 1.8330001
-0.19552 -0.02444 1.8329999
-0.18737334 -0.026767619 1.8330001
-0.17108001 -0.020948572 1.8330001
-0.16409715 -0.024440002 1.8330002
0.13660213 -0.024003575 1.8330001
0.14402142 -0.025312858 1.8330001
0.15129524 -0.023276193 1.8330001
-0.20250286 -0.015711429 1.8330001
-0.19726571 -0.017457142 1.8330001
-0.15362285 -0.010474286 1.8330001
0.12918286 -0.013965715 1.8330001
0.13616571 -0.013965715 1.8329999
0.14454514 -0.014664001 1.8330001
0.15187714 -0.017457142 1.8330001
-0.15711428 -0.0069828574 1.8330001
0.12743714 -0.005237143 1.8330001
0.13616572 -0.005237143 1.8330001
-0.17457144 0.0069828574 1.8330001
-0.16409716 0.0069828574 1.8330001
-0.15711428 0.0069828574 1.8330001
0.12569143 0.0034914287 1.8329999
0.13572928 0.0030549997 1.8330001
-0.20250288 0.013965715 1.8330001
-0.19552 0.016060572 1.8330001
-0.18562762 0.014547619 1.8330001
-0.17457142 0.013965715 1.8329999
-0.16409715 0.013965715 1.8329999
-0.1571143 0.013965715 1.8330001
0.11870857 0.013965715 1.8330001
0.12569143 0.013965715 1.8329999
0.13407086 0.01326743 1.8330001
-0.20250286 0.020948572 1.8330001
-0.19552 0.02444 1.8329999
-0.18434744 0.025138287 1.8330001
-0.17457144 0.02444 1.8330002
-0.16322429 0.023567144 1.8330001
-0.15711428 0.020948572 1.8330001
0.10648857 0.02444 1.8330001
0.11591544 0.025836572 1.8330001
0.12307286 0.023567144 1.8330001
-0.19502123 0.03441551 1.8330002
-0.18504572 0.034914285 1.8329999
-0.174135 0.035350714 1.8330001
-0.16758858 0.034914285 1.8330001
0.097759999 0.036660001 1.8330001
0.10474286 0.034477856 1.8330001
0.11571593 0.033916734 1.8330002
0.1222 0.033168569 1.8330001
-0.19377428 0.041897144 1.8330001
-0.18460929 0.044952147 1.8330001
-0.17457144 0.045388576 1.8329999
-0.16758858 0.045388576 1.8330001
0.097760007 0.045388572 1.8330001
0.10125143 0.043642856 1.8330001
-0.1833 0.052371431 1.8330001
-0.17108001 0.052371431 1.8330001
-0.16758858 0.052371431 1.8330001
0.093104765 0.05819048 1.8330001
0.10125143 0.052371431 1.8330001
0.08728572 0.066337138 1.8330001
0.092522874 0.066337138 1.8330001
0.084492579 0.075414859 1.8330001
0.09252286 0.075065717 1.8330001
0.11521715 0.073320001 1.8330001
0.075414859 0.083794288 1.8330001
0.081699431 0.083096005 1.8330001
0.10590667 0.084958099 1.8330001
0.059354287 0.096014291 1.8330001
0.066835918 0.095266126 1.8330002
0.075065717 0.094268575 1.8330001
0.081175715 0.095141426 1.8330001
0.10823429 0.090777144 1.8330001
0.057026666 0.10590667 1.8330001
0.066337146 0.10474286 1.8329999
0.075065717 0.10474287 1.8330001
0.083357856 0.10517928 1.8330001
0.035787143 0.11783572 1.8330001
0.045825001 0.11565357 1.8330001
0.055862866 0.11347143 1.8330001
0.065838367 0.11421959 1.8330002
0.075065717 0.11347143 1.8330001
0.084230714 0.11478071 1.8330001
0.2667962 -0.21062857 1.8430001
0.27206188 -0.21413904 1.8430001
0.2492438 -0.20009714 1.8430001
0.25626478 -0.2012673 1.8430002
0.27381712 -0.20711809 1.8430001
0.24503127 -0.19518249 1.8430001
0.25275427 -0.19658667 1.8430001
0.23754224 -0.18371493 1.8430002
0.24222288 -0.18956572 1.8430001
0.22818096 -0.17201333 1.8430001
0.23169142 -0.17552382 1.8430002
0.2158943 -0.1614819 1.8430001
0.22467048 -0.16499239 1.8430002
0.23169142 -0.16850287 1.8430001
0.21589431 -0.15446097 1.8430002
0.22256418 -0.15516306 1.8430001
0.21624534 -0.14322744 1.8430001
0.22256421 -0.14392954 1.8430001
0.21484116 -0.13480228 1.8430001
0.22291523 -0.13690856 1.8430001
0.20624048 -0.12549953 1.8430001
0.21203278 -0.12567505 1.8430001
0.19658667 -0.11409047 1.8430001
0.20243745 -0.11701587 1.8430002
0.21062857 -0.11935619 1.8430001
0.18781048 -0.10355905 1.8430001
0.19448039 -0.10601639 1.8430001
0.17815667 -0.09390524 1.8430001
0.18254477 -0.094782859 1.8430002
0.1761089 -0.084251434 1.8430002
0.18254477 -0.084251434 1.8430001
0.17763011 -0.073720001 1.8430001
0.18254477 -0.073720008 1.8430002
0.17727906 -0.064943805 1.8430001
0.18254477 -0.064943805 1.8430001
0.16850287 -0.052657142 1.8430001
0.17652683 -0.05566613 1.8430002
0.18254477 -0.057922859 1.8430001
-0.20185238 -0.042125717 1.8430001
0.16616255 -0.045636192 1.8430002
0.17482172 -0.047742479 1.8430001
-0.20185238 -0.038615238 1.8430001
-0.19483143 -0.03686 1.8430001
-0.18605524 -0.035104763 1.8430001
-0.17552382 -0.031594284 1.8430002
-0.16850287 -0.031594284 1.8430001
0.15709382 -0.03422714 1.8430001
0.1614819 -0.035104763 1.8430002
-0.17482172 -0.025977526 1.8430001
0.14744002 -0.022818096 1.8430001
0.15516305 -0.025275428 1.8430001
0.1614819 -0.021062858 1.8430001
0.14744002 -0.010531429 1.8430001
0.15496248 -0.013038913 1.8430002
0.16235952 -0.014041905 1.8430001
0.14568478 -0.0052657146 1.8430001
0.15446097 -0.0052657146 1.8430002
0.1614819 -0.0052657146 1.8430001
0.14493254 0.0040119733 1.8430002
0.15446097 0 1.8430002
0.1614819 0 1.8430001
0.13690856 0.017552381 1.8430001
0.14349072 0.013603096 1.8430002
-0.18693286 0.023695715 1.8430001
-0.17552382 0.024573334 1.8430001
-0.16850287 0.021062858 1.8430001
0.12848344 0.02527543 1.8430001
0.13480228 0.023871239 1.8430001
0.10531428 0.038615238 1.8430001
0.11409047 0.038615238 1.8430001
0.12738013 0.035606261 1.8430002
0.13427572 0.034227144 1.8430001
-0.19483143 0.04739143 1.8430001
-0.18956572 0.049146667 1.8430001
0.10631729 0.046137694 1.8430002
0.11584572 0.045636192 1.8430002
0.12637715 0.045636192 1.8430002
-0.18956572 0.052657142 1.8430001
-0.17727906 0.052657142 1.8430001
0.098293334 0.057922859 1.8430001
0.1057531 0.056606434 1.8430002
0.11584572 0.056167621 1.8430002
0.12637714 0.056167621 1.8430002
0.1333981 0.052657142 1.8430001
0.098293334 0.064943805 1.8430001
0.10531428 0.064943805 1.8430002
0.11584571 0.064943805 1.8430002
0.12637717 0.064943813 1.8430002
0.098293334 0.073720008 1.8430002
0.10531428 0.073720001 1.8430002
0.11584572 0.073720001 1.8430002
0.12593833 0.073281191 1.8430002
0.08688429 0.085129052 1.8430001
0.094782859 0.084251434 1.8430002
0.1047292 0.083666354 1.8430002
0.11584572 0.084251434 1.8430002
0.12403683 0.081911117 1.8430002
0.08635772 0.094080769 1.8430001
0.094782859 0.094782859 1.8430002
0.10487547 0.095221668 1.8430002
0.11484274 0.094281368 1.8430002
0.087761909 0.10180381 1.8430001
0.094782859 0.10531428 1.8430002
0.10472921 0.10414412 1.8430002
0.11321286 0.10443667 1.8430001
0.056167625 0.1193562 1.8430002
0.06669905 0.11935619 1.8430001
0.073720008 0.1193562 1.8430002
0.080740951 0.11935619 1.8430001
0.094782859 0.11409049 1.8430002
0.10180381 0.11409047 1.8430001
0.11409047 0.11409047 1.8430001
0.073017918 0.12427087 1.8430001
0.080740951 0.12286668 1.8430001
0.26824382 -0.21530096 1.853
0.27353811 -0.21530096 1.853
0.26589081 -0.20353588 1.853
0.27177334 -0.20471239 1.853
0.24706668 -0.19059429 1.853
0.25412571 -0.1941238 1.853
0.26118478 -0.19765334 1.853
0.23647809 -0.18000573 1.853
0.24424306 -0.18424116 1.853
0.2505962 -0.18706475 1.853
0.23647809 -0.17471144 1.853
0.22941904 -0.16235809 1.853
0.23412508 -0.16588762 1.853
0.22853667 -0.15441667 1.853
0.22853667 -0.14471048 1.853
0.21706572 -0.13059239 1.853
0.22518364 -0.13341601 1.853
0.21765397 -0.12353334 1.853
0.22236001 -0.1252981 1.853
0.20706539 -0.11412128 1.853
0.21177143 -0.11470953 1.853
0.19765334 -0.10235619 1.853
0.2042712 -0.10544452 1.8529999
0.21177143 -0.10588571 1.853
0.18706475 -0.095297143 1.853
0.19412382 -0.095297135 1.853
0.20471239 -0.098826669 1.853
0.18441762 -0.084708571 1.853
0.19177079 -0.085885078 1.853
0.18706475 -0.074120007 1.853
0.19059429 -0.077649526 1.853
0.18706475 -0.063531429 1.853
0.18353525 -0.052942857 1.853
-0.21412447 -0.044707306 1.853
0.16765238 -0.042354286 1.853
0.17471144 -0.042354286 1.853
0.18282935 -0.045883816 1.853
-0.21706572 -0.035295241 1.853
-0.18177049 -0.035295241 1.853
-0.17471144 -0.035295241 1.853
-0.16941714 -0.035295241 1.853
0.16729942 -0.036001142 1.853
0.17435849 -0.036001146 1.853
0.18177049 -0.038824763 1.853
0.15882857 -0.024706667 1.853
0.16235809 -0.026471429 1.853
0.15529905 0.0052942866 1.853
0.1644758 0.0042354288 1.853
0.14824 0.01764762 1.853
0.15529905 0.014118095 1.853
0.16471112 0.011765081 1.853
-0.16706413 0.025883175 1.853
0.13765143 0.028236192 1.853
0.14206335 0.023824286 1.853
0.13765143 0.03706 1.853
0.14118096 0.035295241 1.853
0.13553372 0.045177907 1.853
0.14118096 0.042354286 1.853
-0.1941238 0.054119371 1.853
-0.18353525 0.056472383 1.853
-0.17471144 0.056472383 1.853
-0.16941714 0.056472383 1.853
0.13588667 0.05470762 1.853
0.14118096 0.052942857 1.853
-0.18353526 0.060001906 1.853
-0.17471144 0.060001906 1.853
-0.16941714 0.061766669 1.853
0.13588667 0.063531429 1.853
0.13412191 0.07323762 1.853
0.1252981 0.086473331 1.853
0.13059239 0.081179045 1.853
0.12212153 0.096003048 1.853
0.10706222 0.10823873 1.853
0.11647429 0.10765047 1.853
0.12118032 0.10353269 1.853
0.10765047 0.11470953 1.853
0.067060955 0.1252981 1.853
0.25727144 -0.19162287 1.863
0.26614285 -0.19517143 1.8630002
0.27324 -0.19694573 1.863
0.24662572 -0.18097714 1.863
0.25549716 -0.18629999 1.863
0.26732573 -0.18689142 1.8630002
0.27324 -0.18807428 1.863
0.24130288 -0.17388001 1.8630002
0.23775429 -0.16500857 1.863
0.24130286 -0.16323428 1.863
0.23509285 -0.15702429 1.863
0.23420571 -0.14904 1.863
0.23065715 -0.1348457 1.863
0.22474286 -0.12420001 1.8630002
0.20936571 -0.11000571 1.863
0.21468857 -0.11355428 1.863
0.21291429 -0.10290857 1.863
0.20404287 -0.094037145 1.863
0.21291429 -0.099360004 1.863
0.18807428 -0.085165717 1.863
0.19588116 -0.084456004 1.8630002
0.20226857 -0.085165709 1.863
0.19375201 -0.073810287 1.8630002
0.18807428 -0.063874289 1.863
0.19304229 -0.063874289 1.8630002
0.18807428 -0.055002857 1.863
0.19162287 -0.056777142 1.863
-0.22267286 -0.043469999 1.863
0.18629999 -0.046131432 1.863
-0.22533429 -0.035485715 1.8630002
-0.19339715 -0.039034285 1.863
-0.18807428 -0.039034285 1.863
0.17388001 -0.031937145 1.863
0.18275143 -0.03371143 1.863
0.16678289 -0.024840001 1.8630002
0.17388001 -0.028388571 1.8630002
0.18275142 -0.028388571 1.863
0.16678287 -0.014194285 1.863
0.17210571 -0.014194285 1.863
0.16678287 -0.0053228568 1.863
0.17033143 -0.0053228568 1.863
0.17033145 0.0035485714 1.8630002
0.16441715 0.016559999 1.8630002
0.17121857 0.015081428 1.863
0.14762057 0.025549715 1.8630002
0.15400802 0.024130287 1.8630002
0.14726572 0.035485715 1.8630002
0.15258858 0.035485715 1.863
0.13839428 0.049680002 1.863
0.14489999 0.046131428 1.8630002
-0.20226857 0.056777142 1.863
-0.19694573 0.056777142 1.863
0.13839428 0.056777142 1.863
0.14371714 0.055002857 1.863
-0.20226857 0.063874289 1.8630002
-0.19517143 0.063874289 1.863
-0.18452571 0.065648578 1.8630002
-0.17565429 0.065648571 1.863
0.14283 0.062987141 1.863
-0.19162287 0.070971429 1.863
-0.183816 0.072390854 1.8630002
-0.17624572 0.072154284 1.8630002
0.13721143 0.076885715 1.8630002
0.14194286 0.072745711 1.863
0.12774858 0.088714287 1.863
0.13555543 0.083746284 1.8630002
0.12774858 0.095811442 1.8630002
0.1259743 0.10468285 1.863
0.13129714 0.10290857 1.863
0.12242571 0.11177999 1.863
0.065648571 0.18629999 1.863
0.070971429 0.18452571 1.863
0.056777142 0.19339715 1.863
0.062100001 0.19339715 1.863
0.27470669 -0.19265144 1.8730001
0.25330099 -0.18194859 1.8730001
0.26281464 -0.18670541 1.8730001
0.27470669 -0.18551621 1.8730001
0.24705765 -0.17570525 1.8730001
0.2447387 -0.16411048 1.8730001
0.2390305 -0.15519144 1.8730001
0.24438193 -0.15519144 1.8730001
0.23760346 -0.14555888 1.8730001
0.24497652 -0.14686701 1.8730001
0.23546287 -0.13675874 1.8730001
0.24616574 -0.13556953 1.8730001
0.22654381 -0.12129906 1.8730001
0.23189525 -0.12486668 1.8730001
0.21762477 -0.11238001 1.8730001
0.22297621 -0.11773144 1.8730001
0.21167874 -0.095136516 1.8730001
0.19978668 -0.085622862 1.8730001
0.20603003 -0.085622862 1.8730001
0.21048954 -0.085622862 1.8730001
0.19978669 -0.074920014 1.8730001
0.2033543 -0.074920014 1.8730001
0.19889477 -0.06421715 1.8730001
0.2033543 -0.06421715 1.8730001
0.19502985 -0.054703496 1.8730001
-0.23444356 -0.045869391 1.8730003
-0.22547352 -0.048519623 1.8730001
0.18908381 -0.042811431 1.8730001
0.19384065 -0.048757464 1.8730001
-0.23546287 -0.035676196 1.8730003
-0.18373239 -0.03924381 1.8730001
-0.17838097 -0.03924381 1.8730001
0.18908381 -0.035676196 1.8730001
0.17481336 -0.023189526 1.8730001
0.18373241 -0.023189526 1.8730001
0.17481336 -0.014865081 1.8730001
0.1831378 -0.01664889 1.8730001
0.17600255 -0.004756826 1.8730001
0.17659716 0.0035676192 1.8730001
0.17695391 0.013556953 1.8730001
0.18194859 0.016054288 1.8730001
0.15697524 0.028540954 1.8730001
0.16411048 0.024973335 1.8730003
0.1743674 0.024527382 1.8730001
0.18337564 0.024973337 1.8730001
0.15608335 0.035676196 1.8730001
0.16360083 0.035676196 1.8730003
0.17124572 0.032108575 1.8730001
0.14984001 0.048162863 1.8730001
0.15519145 0.046379052 1.8730001
0.1641105 0.046379048 1.8730003
0.17124572 0.046379052 1.8730001
0.14865081 0.055892702 1.8730001
0.15519144 0.055298097 1.8730001
0.16054286 0.053514287 1.8730001
0.14841297 0.06493067 1.8730001
0.15519144 0.060649529 1.8730001
-0.20424621 0.075811908 1.8730001
-0.196665 0.075365961 1.8730001
-0.18908381 0.076703817 1.8730001
0.14686701 0.074920006 1.8730001
-0.2057327 0.08324445 1.8730001
-0.19621906 0.082055241 1.8730001
0.13556953 0.089190483 1.8730001
0.14555886 0.084195815 1.8730001
0.13556953 0.096325725 1.8730003
0.1284343 0.10702857 1.8730001
0.13628304 0.10560153 1.8730001
0.1284343 0.11238001 1.8730001
0.13200191 0.11238001 1.8730001
0.066357717 0.17552687 1.8730001
0.073900685 0.17532302 1.8730003
0.062790096 0.18408917 1.8730001
0.074206479 0.18694326 1.8730001
0.067784764 0.19265144 1.8730001
0.071352385 0.19265144 1.8730001
0.06421715 0.20692192 1.8730001
0.063197829 0.2135475 1.8730003
0.071352385 0.21048954 1.8730001
-0.16232666 0.57081908 1.8730001
-0.15340763 0.57081908 1.8730001
-0.14984001 0.57081908 1.8730001
0.25824001 -0.18292001 1.8830001
0.26541334 -0.18292002 1.8830001
0.2725867 -0.18292001 1.8830001
0.25510168 -0.17529835 1.8830003
0.26541334 -0.17574666 1.8830003
0.2725867 -0.17574668 1.8830001
0.25362858 -0.16549908 1.8830004
0.26182669 -0.16857335 1.8830001
0.25510168 -0.15467501 1.8830003
0.26272336 -0.15333001 1.8830001
0.24748001 -0.14705333 1.8830001
0.25465333 -0.14526002 1.8830003
0.26362002 -0.14526001 1.8830001
0.23672001 -0.13450001 1.8830001
0.24389336 -0.13578098 1.8830004
0.25465336 -0.13629334 1.8830003
0.26182669 -0.13808668 1.8830001
0.23528536 -0.12553334 1.8830003
0.24317601 -0.12768534 1.8830003
0.25106668 -0.12912001 1.8830001
0.22506335 -0.11477334 1.8830001
0.23313336 -0.11836001 1.8830001
0.21878669 -0.10401335 1.8830001
0.22237335 -0.10401335 1.8830001
0.21759114 -0.094448894 1.8830001
0.22237335 -0.095046669 1.8830001
0.2162248 -0.086080007 1.8830004
0.20802669 -0.075320005 1.8830001
0.21340667 -0.075320005 1.8830003
0.20802669 -0.064560004 1.8830001
0.21161334 -0.064560004 1.8830001
-0.24030669 -0.050213337 1.8830001
0.20399167 -0.054248337 1.8830003
-0.24030669 -0.046626668 1.8830001
0.19607113 -0.044235557 1.8830001
0.20085335 -0.044833332 1.8830001
-0.24389334 -0.039453335 1.8830001
0.19457668 -0.036763337 1.8830001
0.19188668 -0.028693335 1.8830001
0.17933334 -0.01076 1.8830001
0.18531112 -0.011955557 1.8830001
0.19009334 -0.014346668 1.8830001
0.17933334 -0.0071733338 1.8830001
0.18471335 -0.0053800005 1.8830001
0.18471335 0.0035866671 1.8830003
0.18561001 0.01345 1.8830001
0.17933334 0.028693335 1.8830001
0.18650667 0.025106668 1.8830001
0.16678001 0.03586667 1.8830001
0.17619501 0.036315002 1.8830003
0.18471335 0.03586667 1.8830003
0.17646401 0.045192003 1.8830003
0.18471333 0.046626668 1.8830001
0.16570401 0.055952009 1.8830003
0.17619501 0.05424834 1.8830003
0.18292001 0.050213337 1.8830001
0.15602002 0.066353336 1.8830001
0.16498668 0.064560004 1.8830003
0.17305666 0.063663341 1.8830001
0.15525144 0.075832397 1.8830004
0.16319335 0.071733341 1.8830001
0.17216 0.071733341 1.8830001
-0.21161334 0.089666672 1.8830001
-0.2037227 0.088232003 1.8830003
-0.19547334 0.08787334 1.8830001
0.14526001 0.089666672 1.8830001
0.15422669 0.085567623 1.8830004
-0.21161334 0.093253337 1.8830001
-0.20444003 0.093253337 1.8830001
-0.19726668 0.093253337 1.8830001
0.14526001 0.095046677 1.8830001
0.15243334 0.095046677 1.8830001
0.14436334 0.10311667 1.8830001
0.15303111 0.10162222 1.8830001
0.13808668 0.11298001 1.8830001
0.14346668 0.11477334 1.8830001
-0.032280002 0.12194667 1.8830001
-0.064560004 0.14705333 1.8830001
-0.04304 0.17574668 1.8830001
-0.039453335 0.17395334 1.8830001
0.05738667 0.17754 1.8830001
0.061870001 0.17485 1.8830001
0.05738667 0.18471333 1.8830001
0.07771112 0.18411557 1.8830001
0.082493335 0.18292001 1.8830001
0.05738667 0.19009334 1.8830001
0.068146676 0.19726668 1.8830001
0.07603734 0.19583203 1.8830003
0.082493335 0.19009334 1.8830001
0.068146676 0.20264667 1.8830001
0.075320005 0.20444 1.8830003
0.05738667 0.21699335 1.8830001
0.068146676 0.21699335 1.8830001
0.07472223 0.21520001 1.8830003
0.068146676 0.22237335 1.8830001
0.07603734 0.22380801 1.8830003
0.084286667 0.22416668 1.8830001
-0.17395334 0.57386672 1.8830001
-0.16319335 0.57386672 1.8830001
-0.15602002 0.57745337 1.8830001
-0.15602002 0.58104002 1.8830001
-0.16140002 0.59538674 1.8830001
-0.15422668 0.59538674 1.8830001
0.25974858 -0.16414666 1.8940001
0.26552078 -0.16522895 1.8940001
0.27201447 -0.16522895 1.8940001
0.26696381 -0.15693143 1.8940001
0.27237523 -0.15512763 1.8940001
0.2453181 -0.12265905 1.8940001
0.22728001 -0.11183619 1.8940001
0.23501065 -0.11441307 1.8940002
0.24480273 -0.11647457 1.8940002
0.25253335 -0.11724762 1.8940001
0.22728001 -0.10462096 1.8940001
0.23329273 -0.1058235 1.8940001
0.24171048 -0.10822857 1.8940001
0.22607747 -0.093798101 1.8940001
0.22367238 -0.084779054 1.8940001
0.22126731 -0.078165077 1.8940001
0.21645714 -0.06854476 1.8940001
0.20924191 -0.050506666 1.8940001
0.21284953 -0.057721905 1.8940001
0.2074381 -0.045095243 1.8940001
0.19841905 -0.03427238 1.8940001
0.20460352 -0.036591567 1.8940002
0.19481145 -0.024652064 1.8940001
0.20202667 -0.027057143 1.8940001
0.19120382 -0.018038096 1.8940001
0.19240636 0.0060126982 1.8940001
0.19264686 0.013708952 1.8940001
0.19120382 0.025253333 1.8940001
0.18519112 0.05411429 1.8940001
0.19120382 0.050506666 1.8940001
0.17677332 0.066740952 1.8940001
0.18218476 0.064937145 1.8940001
0.16646586 0.07679075 1.8940002
0.17496952 0.075759999 1.8940001
0.16595048 0.084779046 1.8940001
0.17316572 0.082975239 1.8940001
-0.20563428 0.097405717 1.8940001
-0.19601397 0.096203178 1.8940001
0.15873525 0.093798101 1.8940001
0.1635454 0.091393016 1.8940001
-0.20563428 0.10462095 1.8940002
-0.19601399 0.1058235 1.8940001
0.14791238 0.10642476 1.8940001
0.15422572 0.10552286 1.8940001
0.16595048 0.10101333 1.8940001
0.1753303 0.10389943 1.8940001
-0.19481143 0.11544381 1.8940001
0.14610857 0.11183619 1.8940001
-0.093798101 0.12987429 1.8940001
-0.073956192 0.1334819 1.8940001
-0.10462096 0.14791238 1.8940001
-0.090190478 0.14610857 1.8940001
-0.084418289 0.1450263 1.8940001
-0.075309046 0.14475571 1.8940001
-0.064937137 0.14574781 1.8940001
-0.054114282 0.14791238 1.8940001
-0.11364 0.15152 1.8940001
-0.10389943 0.15296304 1.8940001
-0.092896193 0.15422571 1.8940001
-0.084779054 0.15512763 1.8940001
-0.075759999 0.15512761 1.8940002
-0.064937137 0.15467668 1.8940001
-0.05411429 0.15512761 1.8940002
-0.045095243 0.15693142 1.8940001
-0.036978092 0.15602952 1.8940001
-0.075759999 0.16234286 1.8940001
-0.061329525 0.16234286 1.8940001
-0.05411429 0.16595046 1.8940002
-0.045095243 0.16595048 1.8940001
-0.038240761 0.16667201 1.8940001
0.063133337 0.16955811 1.8940001
-0.054114282 0.17533028 1.8940001
-0.045696512 0.17436826 1.8940001
-0.036076192 0.17496952 1.8940001
0.057721905 0.17316572 1.8940001
-0.064215623 0.1847101 1.8940001
-0.054715555 0.18338731 1.8940001
-0.045095243 0.18218476 1.8940001
-0.03788 0.18218476 1.8940001
0.084779054 0.1875962 1.8940001
-0.063494094 0.19408992 1.8940001
-0.057721905 0.19120382 1.8940001
0.085139818 0.19553295 1.8940001
0.093076579 0.19553296 1.8940001
0.10281715 0.19841905 1.8940001
-0.12554514 0.20707734 1.8940001
-0.11364 0.20563428 1.8940001
-0.10822857 0.20563428 1.8940001
-0.073956192 0.2056343 1.8940001
-0.064486191 0.20518333 1.8940001
0.084779054 0.20563428 1.8940001
0.093347147 0.20518333 1.8940001
0.10221588 0.20322922 1.8940001
-0.064937145 0.21465334 1.8940001
0.079367615 0.21645714 1.8940001
0.084177785 0.21405207 1.8940001
0.093798101 0.21284953 1.8940001
0.079367615 0.22006477 1.8940001
0.084779054 0.22006477 1.8940001
-0.18038096 0.57721907 1.8940001
-0.16955811 0.57541525 1.8940001
-0.17496952 0.58263052 1.8940001
-0.16646586 0.58546507 1.8940002
-0.15368457 0.58587736 1.8940001
-0.14670984 0.58323181 1.8940001
-0.17316572 0.59706098 1.8940001
-0.16640145 0.59480619 1.8940001
-0.15512761 0.59465593 1.8940001
0.24661332 -0.11242667 1.904
0.25205332 -0.11242667 1.904
0.23815112 -0.10275556 1.904
0.24516265 -0.104448 1.9040002
0.25205332 -0.10517333 1.9040002
0.22848001 -0.090666667 1.904
0.23355734 -0.09501867 1.9040002
0.24661332 -0.097920001 1.904
0.25265777 -0.096711114 1.904
0.22848001 -0.08522667 1.904
0.23210667 -0.083413333 1.904
0.22485337 -0.076160006 1.904
0.2176 -0.065279998 1.904
0.21397334 -0.052586667 1.904
-0.25024 -0.04352 1.904
-0.24661332 -0.04352 1.904
0.21397334 -0.04352 1.904
-0.25024 -0.038079999 1.904
-0.24661332 -0.034453332 1.904
0.21216002 -0.036266666 1.904
0.19946666 -0.02176 1.904
0.20581333 -0.02448 1.904
0.21034667 -0.029013334 1.904
0.1968762 -0.013988573 1.9040003
0.20400001 -0.014506668 1.904
0.19584 -0.00544 1.9040002
0.20309334 -0.00544 1.904
0.19704889 0.0024177779 1.9040002
0.19825777 0.015715558 1.904
0.19674666 0.025386667 1.904
0.20551112 0.026595555 1.904
0.18858667 0.056213334 1.904
0.18858668 0.065280005 1.904
0.17770667 0.079786666 1.904
0.18254223 0.073742226 1.904
0.17649779 0.085831106 1.904
-0.21578667 0.097920001 1.904
0.16561779 0.096711114 1.904
0.17362666 0.094746664 1.9040002
-0.22243558 0.10759111 1.904
-0.21578667 0.10517333 1.9040002
0.15957333 0.10517333 1.904
0.16501334 0.10517333 1.904
0.17045332 0.10517333 1.904
-0.22304001 0.11242667 1.904
-0.21397336 0.11605334 1.9040002
-0.20490667 0.11605334 1.9040002
-0.19656533 0.11532801 1.9040002
0.15413333 0.11242667 1.904
-0.22122668 0.12693334 1.904
-0.21397333 0.12511998 1.9040002
-0.20490667 0.12512 1.904
-0.19674666 0.12602666 1.904
-0.18858667 0.12693334 1.904
-0.052586667 0.12693334 1.904
-0.045333333 0.12693334 1.904
-0.038079999 0.12693334 1.904
-0.026293334 0.12421333 1.904
-0.22122668 0.13056 1.904
-0.21397334 0.13056001 1.904
-0.20490667 0.13056 1.904
-0.11424001 0.13781334 1.904
-0.10472 0.13463999 1.9040002
-0.094293334 0.13463999 1.9040002
-0.085226677 0.13418666 1.9040002
-0.076678097 0.13418667 1.9040003
-0.065279998 0.13418667 1.9040002
-0.054400001 0.13418667 1.9040002
-0.045333337 0.13418667 1.9040002
-0.038079999 0.13418667 1.9040002
-0.13056 0.14869334 1.904
-0.12512 0.14688 1.904
-0.11605334 0.14506668 1.9040002
-0.10517333 0.14461334 1.9040002
-0.095329516 0.14454859 1.9040003
-0.08704 0.14144 1.904
-0.079786666 0.14144 1.904
-0.065280005 0.14144 1.904
-0.054399997 0.14325334 1.9040002
-0.045333333 0.14506668 1.9040002
-0.038079999 0.14506668 1.9040002
-0.13056001 0.15594667 1.904
-0.12512001 0.15594667 1.9040002
-0.11657143 0.15698285 1.9040003
-0.10608 0.15866667 1.904
-0.09501867 0.156672 1.9040002
-0.065279998 0.15957333 1.904
-0.045333333 0.15232 1.904
-0.037475556 0.15473777 1.904
-0.13056 0.16320001 1.904
-0.12512 0.16501334 1.904
-0.11605334 0.16501334 1.9040002
-0.10517333 0.16501334 1.9040002
-0.094293341 0.16501334 1.9040002
-0.08522667 0.16501334 1.904
-0.076159999 0.16592 1.904
-0.066005334 0.16537601 1.9040002
-0.03626667 0.16320001 1.904
-0.12451556 0.17166221 1.904
-0.11553524 0.17304382 1.9040003
-0.10517333 0.17408 1.9040002
-0.094293326 0.17408001 1.9040002
-0.08522667 0.17408 1.9040002
-0.076159999 0.17407998 1.9040002
-0.065279998 0.17408 1.9040002
-0.054400001 0.17408 1.904
-0.032640003 0.17408 1.904
-0.029013334 0.17589334 1.904
0.058026668 0.17045332 1.904
0.09368889 0.17347555 1.9040002
-0.12330666 0.18858667 1.904
-0.11363556 0.18737778 1.904
-0.10517333 0.18496001 1.9040002
-0.094293334 0.18495999 1.9040002
-0.085226677 0.18496001 1.9040002
-0.076160006 0.18496001 1.9040002
-0.066186666 0.18405333 1.904
-0.05319111 0.18616889 1.904
-0.045333333 0.18858667 1.904
-0.034816001 0.18641067 1.9040002
-0.029013334 0.18314667 1.904
0.08704 0.18496001 1.904
0.094293326 0.18677334 1.9040002
0.10275556 0.18737778 1.904
0.14688 0.18677333 1.904
0.15232 0.18677333 1.904
-0.132736 0.19729066 1.9040002
-0.12512001 0.19584 1.9040002
-0.11605334 0.19584 1.9040002
-0.10517333 0.19583999 1.9040002
-0.094293334 0.19584002 1.9040002
-0.085226677 0.19584 1.9040002
-0.076159991 0.19584 1.9040002
-0.067093335 0.19674666 1.904
-0.053946666 0.19629332 1.9040002
-0.045333337 0.19584 1.9040002
-0.037475556 0.19342224 1.904
0.095200002 0.19493334 1.904
0.10154667 0.19402668 1.904
0.15232 0.19221334 1.904
-0.13418667 0.20309334 1.904
-0.12512 0.20309334 1.904
-0.11696 0.20400001 1.904
-0.104448 0.20454402 1.9040002
-0.094293341 0.20490667 1.9040002
-0.085226662 0.20490667 1.904
-0.076885335 0.20526934 1.9040002
-0.054400004 0.20490667 1.9040002
-0.045333333 0.20490667 1.904
-0.0036266667 0.20671999 1.904
0.0036266667 0.20309334 1.904
0.10698666 0.20671999 1.904
-0.12330666 0.21397334 1.904
-0.11605334 0.21215999 1.9040002
-0.10472 0.21352001 1.9040002
-0.093840003 0.21397334 1.9040002
-0.08522667 0.21216001 1.904
-0.072533339 0.21216001 1.904
-0.066005342 0.2146987 1.9040002
-0.054399997 0.21397334 1.9040002
-0.045333333 0.21397333 1.9040002
-0.038079999 0.21216002 1.904
0.08704 0.2176 1.904
0.094293334 0.21469866 1.9040002
0.10336 0.21034667 1.904
0.094293341 0.22304003 1.9040002
-0.18423466 0.58534402 1.9040002
-0.18392381 0.59529144 1.9040003
-0.176256 0.59404802 1.9040002
-0.15594667 0.5984 1.904
-0.14506668 0.59477329 1.9040002
-0.13781334 0.5965867 1.904
0.23709525 -0.09119048 1.9150001
0.24386942 -0.094838105 1.9150002
0.25290161 -0.092406355 1.9150002
0.23527144 -0.084807143 1.9150001
0.2279762 -0.074776188 1.9150001
0.21885714 -0.062009525 1.9150001
0.22432858 -0.069304764 1.9150001
0.21885714 -0.054714289 1.9150002
-0.25168574 -0.047419049 1.9150001
-0.2480381 -0.047419049 1.9150001
0.21703334 -0.047419049 1.9150001
0.21520954 -0.032828573 1.9150001
0.21375051 -0.02480381 1.9150002
0.20791429 -0.018238096 1.9150001
0.21338573 -0.016414287 1.9150001
0.20426668 0.0072952383 1.9150001
0.20426668 0.015502382 1.9150001
0.21338573 0.018238096 1.9150001
0.20353715 0.02480381 1.9150002
0.20244287 0.032828573 1.9150001
0.19332381 0.056538098 1.9150001
0.19332381 0.063833334 1.9150001
0.18785238 0.074776188 1.9150001
0.18384002 0.08316572 1.9150002
0.17873335 0.09119048 1.9150001
0.16414288 0.10942857 1.9150002
-0.22432858 0.11672381 1.9150001
-0.22615239 0.12401906 1.9150002
-0.1945397 0.12280317 1.9150002
-0.1896762 0.12219524 1.9150001
-0.032828573 0.12766667 1.9150001
-0.023101589 0.12523493 1.9150002
-0.015046429 0.1235631 1.9150001
-0.0072952383 0.12401905 1.9150001
-0.23344763 0.13313809 1.9150001
-0.22615239 0.1349619 1.9150002
-0.21520954 0.13678572 1.9150002
-0.20499621 0.13569143 1.9150002
-0.19697143 0.13131429 1.9150001
-0.13253015 0.13739365 1.9150002
-0.12401906 0.13678572 1.9150002
-0.11490001 0.1349619 1.9150001
-0.10942857 0.13131429 1.9150001
-0.032828577 0.1349619 1.9150002
-0.025533335 0.13496192 1.9150001
-0.016414288 0.1349619 1.9150002
-0.22432858 0.14408097 1.9150001
-0.21520954 0.14590476 1.9150001
-0.20700239 0.14499287 1.9150001
-0.14408097 0.14772858 1.9150001
-0.13541785 0.1454488 1.9150001
-0.12584285 0.14225715 1.9150001
-0.032828577 0.14590478 1.9150002
-0.025533335 0.14590478 1.9150001
-0.014590479 0.14590476 1.9150001
-0.21338573 0.1532 1.9150001
-0.20791429 0.1532 1.9150001
-0.14517526 0.15538858 1.9150002
-0.13678572 0.15502381 1.9150001
-0.032828573 0.1532 1.9150001
-0.025533333 0.15502381 1.9150002
-0.01532 0.15538858 1.9150002
-0.16049524 0.16596667 1.9150001
-0.1532 0.16596667 1.9150001
-0.14544882 0.16459882 1.9150001
-0.13600409 0.16466396 1.9150002
-0.032828577 0.16414288 1.9150002
-0.025989287 0.1636869 1.9150001
-0.016414287 0.16231905 1.9150001
0.058361907 0.16779049 1.9150001
0.062009525 0.16779049 1.9150001
-0.1532 0.17508572 1.9150002
-0.14544883 0.17554168 1.9150001
-0.1349619 0.17508574 1.9150001
-0.12493095 0.17782144 1.9150001
-0.11672381 0.17873335 1.9150001
-0.024491159 0.17456464 1.9150002
0.054714285 0.17508572 1.9150002
0.094838098 0.17873335 1.9150001
0.10213334 0.17873335 1.9150001
0.14225715 0.17873335 1.9150001
-0.1532 0.18602857 1.9150002
-0.14590476 0.18602856 1.9150001
-0.1349619 0.18602857 1.9150001
-0.12401905 0.18557259 1.9150001
-0.11550795 0.18359683 1.9150002
-0.024491157 0.18654965 1.9150002
-0.014590476 0.18876427 1.9150001
0.05289048 0.18602858 1.9150002
0.087542862 0.18238096 1.9150001
0.094838098 0.18238096 1.9150002
0.10578096 0.18481271 1.9150002
0.13769762 0.18694048 1.9150001
0.14444572 0.18456954 1.9150002
0.1532 0.18238096 1.9150001
-0.14347303 0.1945397 1.9150002
-0.13678572 0.19514762 1.9150001
-0.040123809 0.19697143 1.9150001
-0.032828573 0.19332381 1.9150001
-0.026445238 0.19423571 1.9150001
-0.014590478 0.19514762 1.9150002
-0.0054714289 0.19514762 1.9150001
0.0036476194 0.19514762 1.9150002
0.012158731 0.19575557 1.9150002
0.054714285 0.19332381 1.9150001
0.10578096 0.19514762 1.9150001
0.13860953 0.19514762 1.9150001
0.14590478 0.19514762 1.9150002
-0.14225715 0.20061906 1.9150001
-0.040123813 0.20426667 1.9150002
-0.036476191 0.20426667 1.9150002
-0.014590477 0.20426671 1.9150001
-0.0058361907 0.20353715 1.9150002
0.0036476192 0.20426668 1.9150001
0.010942858 0.20426667 1.9150002
0.10942857 0.20061906 1.9150001
0.1130762 0.20061906 1.9150001
0.13860953 0.20061906 1.9150001
0.14347303 0.20183495 1.9150002
-0.098485716 0.21520954 1.9150001
-0.080247618 0.21156192 1.9150001
-0.021885715 0.21156192 1.9150001
-0.014590478 0.21156192 1.9150002
-0.0054714289 0.21338573 1.9150001
0.0036476194 0.21156192 1.9150002
0.098485716 0.21885714 1.9150001
0.10334921 0.21764128 1.9150002
0.04559524 0.22250476 1.9150001
0.10334921 0.22372064 1.9150002
0.041947618 0.26262859 1.9150001
0.1896762 0.56355715 1.9150001
0.17508572 0.58726668 1.9150001
-0.20061906 0.59820956 1.9150001
-0.19478285 0.59529144 1.9150002
-0.18967621 0.59456193 1.9150002
0.17508572 0.59273815 1.9150001
0.24566668 -0.091666669 1.9250001
0.23833334 -0.080666669 1.9250001
0.24493335 -0.08653333 1.9250001
0.25483334 -0.086166665 1.9250001
0.23466668 -0.075166665 1.9250001
0.22488889 -0.064777784 1.9250001
0.23283334 -0.069666669 1.9250001
0.22366667 -0.055000003 1.9250001
0.22220002 -0.043266665 1.9250001
0.22183335 -0.034833331 1.9250001
0.22146669 -0.024933334 1.9250001
0.21450001 -0.011 1.9250001
0.22091669 -0.014666667 1.9250001
0.20900001 -0.0036666668 1.9250001
0.21266666 -0.0036666668 1.9250001
0.20753334 0.0029333334 1.9250001
0.21413334 0.0044000004 1.9250001
0.22000001 0.0073333336 1.9250001
0.20777778 0.013444445 1.9250001
0.2145 0.012833334 1.9250001
0.22091669 0.015583333 1.9250001
0.21266668 0.025666667 1.9250001
0.19800001 0.056833334 1.9250001
0.20166668 0.055000003 1.9250001
0.19677779 0.066000007 1.9250001
0.19066668 0.077000007 1.9250001
0.18700001 0.088 1.9250001
0.19066668 0.08433333 1.9250001
0.18480001 0.096066676 1.9250001
0.1925 0.097166672 1.9250001
0.18516667 0.10266667 1.9250001
0.19066668 0.10266667 1.9250001
-0.0036666668 0.11733334 1.9250001
0 0.11733334 1.9250001
0.16500001 0.11366668 1.9250001
0.17416668 0.11183334 1.9250001
-0.011 0.12833333 1.9250001
-0.0045833336 0.12558334 1.9250001
0.0014666667 0.12540001 1.9250001
0.034833334 0.12833333 1.9250001
0.044 0.12833333 1.9250001
0.051333334 0.12833333 1.9250001
-0.20166668 0.13750002 1.9250001
-0.14483333 0.13933334 1.9250001
-0.13811113 0.13688891 1.9250001
-0.011 0.13566668 1.9250001
-0.0055000009 0.1356667 1.9250001
0.0026190479 0.13619049 1.9250002
0.011 0.13933334 1.9250001
0.036666665 0.13566667 1.9250001
0.045222223 0.13505557 1.9250001
-0.2035 0.14483333 1.9250001
-0.15216668 0.14483333 1.9250001
-0.14483333 0.14300001 1.9250001
-0.0055 0.14483333 1.9250001
0.0036666668 0.14483333 1.9250001
0.01375 0.14574999 1.9250001
0.025666669 0.14666668 1.9250001
0.034833334 0.14483333 1.9250001
0.044 0.14483334 1.9250001
-0.22122225 0.15644446 1.9250001
-0.21450001 0.15766667 1.9250001
-0.20655558 0.15400001 1.9250001
-0.16133334 0.15583333 1.9250001
-0.15400001 0.15400001 1.9250002
-0.011 0.15400001 1.9250001
-0.0055 0.15400001 1.9250001
0.0036666666 0.15400001 1.9250001
0.014208334 0.15400001 1.9250001
0.026125003 0.15400001 1.9250001
0.034833334 0.15400001 1.9250001
0.045047622 0.15347621 1.9250002
0.055733334 0.15620001 1.9250001
-0.22000001 0.16499999 1.9250001
-0.21511112 0.16255556 1.9250001
-0.16499999 0.16499999 1.9250001
-0.15546668 0.16353333 1.9250001
-0.022 0.16866668 1.9250001
-0.0132 0.16646667 1.9250001
-0.0055 0.16500001 1.9250001
0.003666667 0.16500002 1.9250001
0.011 0.16500001 1.9250001
0.055000007 0.16500001 1.9250002
-0.16133335 0.176 1.9250001
-0.15583335 0.17508334 1.9250001
-0.014666666 0.17600001 1.9250001
-0.0055 0.176 1.9250001
0.003666667 0.176 1.9250001
0.0132 0.17746666 1.9250001
0.047666669 0.17966667 1.9250001
0.051333334 0.176 1.9250001
0.10633333 0.17966667 1.9250001
0.11366668 0.17783332 1.9250001
0.12466668 0.17966668 1.9250001
0.13566667 0.17783335 1.9250001
0.14574999 0.176 1.9250001
0.15308334 0.17875001 1.9250001
-0.16133334 0.18516667 1.9250001
-0.15766667 0.18516667 1.9250001
-0.014666666 0.18480001 1.9250001
-0.0055000004 0.18516669 1.9250001
0.003666667 0.18516669 1.9250001
0.014666667 0.18516669 1.9250001
0.047666669 0.18516667 1.9250001
0.10633333 0.18333334 1.9250001
0.11440001 0.18480001 1.9250001
0.12466668 0.18516669 1.9250001
0.13383335 0.18516667 1.9250001
0.15766667 0.18333334 1.9250001
-0.21450001 0.19800001 1.9250001
-0.16133334 0.19066668 1.9250001
-0.15400001 0.19311111 1.9250001
-0.033 0.19800001 1.9250001
-0.023833334 0.19800001 1.9250001
-0.0055 0.19066668 1.9250001
0.0036666668 0.19066668 1.9250001
0.015888888 0.19311111 1.9250001
0.02461905 0.19380952 1.9250002
0.047666669 0.1925 1.9250001
0.051333334 0.19616666 1.9250001
0.11366667 0.19433334 1.9250001
0.12466668 0.19433334 1.9250001
0.13346668 0.19506668 1.9250001
-0.033 0.20533334 1.9250001
-0.025666669 0.20533335 1.9250001
0.01588889 0.20288891 1.9250001
0.022 0.20166668 1.9250001
0.11458334 0.20441668 1.9250001
0.12466668 0.20350002 1.9250001
0.13566668 0.20472223 1.9250001
-0.080666669 0.21633334 1.9250001
-0.077000007 0.21633334 1.9250001
-0.033 0.21450001 1.9250001
-0.0264 0.21486667 1.9250001
-0.014666667 0.21633336 1.9250001
0.0018333334 0.21633334 1.9250001
0.011 0.21266666 1.9250001
0.022 0.21266666 1.9250001
0.045833334 0.21633334 1.9250001
0.051333334 0.21633334 1.9250001
0.10633333 0.21633334 1.9250001
0.11183334 0.21450001 1.9250001
-0.023833334 0.22000001 1.9250001
-0.014666667 0.22000001 1.9250001
-0.0055 0.22000001 1.9250001
0 0.22000001 1.9250001
0.036666665 0.2255 1.9250001
0.04347619 0.22366668 1.9250002
0.051333334 0.22366667 1.9250001
0.11000001 0.22000001 1.9250001
0.044733334 0.23246668 1.9250001
0.051333334 0.23283334 1.9250001
0.025666667 0.25666666 1.9250001
0.034833334 0.25666666 1.9250001
0.044 0.25666666 1.9250001
0.018333333 0.26766667 1.9250001
0.026190478 0.26295239 1.9250002
0.034833334 0.264 1.9250001
0.043266665 0.26326665 1.9250001
0.018333333 0.27133337 1.9250001
0.024933336 0.27353334 1.9250001
0.034833334 0.27500001 1.9250001
0.041800003 0.27426669 1.9250001
0.025666667 0.28233334 1.9250001
0.034833334 0.30250001 1.9250001
0.176 0.55733335 1.9250001
0.15400001 0.56833333 1.9250001
0.1672 0.56540006 1.9250001
0.17526667 0.56540006 1.9250001
0.18577778 0.56711113 1.9250001
0.19433333 0.56650001 1.9250001
0.13811113 0.57811111 1.9250001
0.14483333 0.57566673 1.9250001
0.15491667 0.57291669 1.9250001
0.16545834 0.57566667 1.9250001
0.176 0.57566667 1.9250001
0.18516669 0.57566667 1.9250001
0.19387498 0.57520831 1.9250001
0.13750002 0.58483332 1.9250001
0.14300001 0.58483332 1.9250001
0.15766667 0.583 1.9250001
0.16500001 0.58483332 1.9250001
0.176 0.58483332 1.9250001
0.18333334 0.58666664 1.9250001
0.16499999 0.59400004 1.9250001
0.176 0.59400004 1.9250001
0.24522668 -0.081127621 1.9360001
0.25352383 -0.082049526 1.9360001
0.26182097 -0.081127621 1.9360001
0.23969524 -0.071908571 1.9360001
0.24338287 -0.075596191 1.9360001
0.26182097 -0.077440001 1.9360001
0.22863239 -0.062689528 1.9360001
0.23600763 -0.064533345 1.9360001
0.22863239 -0.055314288 1.9360002
0.23324192 -0.056236193 1.9360001
0.22863239 -0.044251435 1.9360002
0.22863239 -0.035032384 1.9360001
0.22740319 -0.025813337 1.9360002
0.21019429 -0.011062858 1.9360001
0.22617398 -0.015979683 1.9360002
0.21480381 -0.0064533339 1.9360001
0.22310096 -0.0055314293 1.9360001
0.21756953 0 1.9360001
0.22346973 0.0029500953 1.9360001
0.22617398 0.014750476 1.9360002
0.21756953 0.022125715 1.9360001
0.22125715 0.022125715 1.9360001
0.20281905 0.059001908 1.9360001
0.20281905 0.064533338 1.9360001
0.19765639 0.074489906 1.9360001
0.20281905 0.070064761 1.9360001
0.19667304 0.083586037 1.9360002
0.18806858 0.092190482 1.9360001
0.1917562 0.092190482 1.9360001
