# .PCD v0.7 - Point Cloud Data file format
VERSION 0.7
FIELDS x y z
SIZE 4 4 4
TYPE F F F
COUNT 1 1 1
WIDTH 1477
HEIGHT 1
VIEWPOINT 0 0 0 1 0 0 0
POINTS 1477
DATA ascii
0.11183619 0.15693143 1.8940001
-0.15152 0.16955811 1.8940001
-0.14385381 0.16640145 1.8940001
-0.13708952 0.16595048 1.8940001
0.045997147 0.16685238 1.8940001
0.052310478 0.16595048 1.8940001
0.06854476 0.16775429 1.8940001
0.072152384 0.16595048 1.8940001
0.11544381 0.16775429 1.8940001
0.13708952 0.16955811 1.8940001
0.14430478 0.16955811 1.8940001
-0.15152 0.17316572 1.8940001
-0.14430478 0.17496954 1.8940001
-0.13708952 0.17496952 1.8940001
0.045095243 0.17496952 1.8940001
0.052310474 0.17496952 1.8940001
0.06854476 0.17496952 1.8940001
0.074858099 0.17496952 1.8940001
0.082975239 0.17677332 1.8940001
0.1269882 0.17460877 1.8940001
0.13528571 0.17496952 1.8940001
0.14430478 0.17496952 1.8940001
-0.14385381 0.18353762 1.8940001
0.044734482 0.18326704 1.8940001
0.05351302 0.18398857 1.8940001
0.064937145 0.18398857 1.8940001
0.085380331 0.18158349 1.8940001
0.093798101 0.18579239 1.8940001
0.12867175 0.18278603 1.8940001
0.13564646 0.18326704 1.8940001
0.14358325 0.18254553 1.8940001
-0.14250097 0.19300763 1.8940001
0.039683808 0.19120382 1.8940001
0.045696512 0.19240636 1.8940001
0.052310474 0.19300762 1.8940001
0.10101333 0.19300762 1.8940001
0.12987429 0.19481143 1.8940001
0.13492496 0.19408992 1.8940001
0.14069715 0.19481143 1.8940001
-0.15633015 0.57481402 1.8940001
-0.14791238 0.57361144 1.8940001
-0.18218476 0.5880419 1.8940001
-0.16414666 0.58623809 1.8940001
-0.15873523 0.58443427 1.8940001
-0.14069715 0.5880419 1.8940001
-0.13708952 0.5880419 1.8940001
-0.19120382 0.59886479 1.8940001
-0.18038097 0.59525716 1.8940001
-0.17677332 0.59706098 1.8940001
-0.16595048 0.59525716 1.8940001
-0.15512761 0.59465593 1.8940001
-0.14159906 0.5961591 1.8940001
-0.13708952 0.59525716 1.8940001
0.19946666 -0.050773334 1.904
0.20309334 -0.050773334 1.904
0.18858667 -0.047146667 1.904
0.19584 -0.045333333 1.904
0.20309334 -0.039893333 1.904
0.21216001 -0.032639999 1.904
-0.083413333 0.12693334 1.904
-0.076160006 0.12693334 1.904
0.054400001 0.12693334 1.904
-0.11605334 0.13781336 1.904
-0.10698666 0.13781334 1.904
-0.091875553 0.13297778 1.904
-0.08704 0.13056 1.904
0.0272 0.13418666 1.904
0.034453332 0.13418666 1.904
0.04352 0.13781334 1.904
0.05319111 0.13660446 1.904
0.068906672 0.13600001 1.904
0.07344 0.13327999 1.904
-0.13327999 0.14778668 1.904
-0.12572445 0.14264891 1.904
0.045333333 0.14144 1.904
0.055004444 0.14506668 1.9040002
0.068906672 0.14144 1.904
0.072533339 0.14506668 1.904
-0.15413333 0.15957333 1.904
-0.14434133 0.156672 1.9040002
-0.13660446 0.1535289 1.904
0.056817781 0.15473777 1.904
0.065733336 0.15640001 1.9040002
0.072533339 0.15232 1.904
-0.16320001 0.16501334 1.904
-0.15594667 0.16501334 1.9040002
-0.14869334 0.16320001 1.904
0.058026668 0.16501334 1.904
0.064554669 0.16465066 1.9040002
0.11786667 0.16501334 1.904
0.12330666 0.16682667 1.904
0.13600001 0.16682667 1.904
0.14579201 0.16537601 1.9040002
-0.16320001 0.17408 1.904
-0.15698287 0.17459811 1.9040003
0.058026668 0.17408 1.904
0.063466661 0.17408 1.9040002
0.076159999 0.17770667 1.904
0.11968 0.17045332 1.904
0.12512 0.17045332 1.904
0.13237333 0.17045332 1.904
-0.154496 0.18350933 1.9040002
-0.14869334 0.18858667 1.904
0.058026668 0.18314667 1.904
0.065280005 0.18496002 1.9040003
0.075706668 0.18450668 1.9040002
0.08522667 0.18677333 1.904
0.13418666 0.18858667 1.904
0.14325334 0.18858667 1.904
0.15232 0.18496001 1.904
-0.14869334 0.19402668 1.904
0.058026668 0.19402668 1.904
0.067093335 0.19402668 1.904
0.072533339 0.19402668 1.904
0.094293334 0.19221334 1.904
0.14385779 0.19342224 1.904
-0.16501334 0.57663995 1.904
-0.17362666 0.58434671 1.9040002
-0.16537601 0.58316803 1.9040002
-0.17362666 0.59432006 1.9040002
-0.16410668 0.59477329 1.904
-0.13358222 0.59477335 1.9040002
0.19514762 -0.051066671 1.9150001
0.20791429 -0.051066671 1.9150001
0.18785238 -0.043771431 1.9150001
0.19551238 -0.043041904 1.9150002
0.2042667 -0.043771431 1.9150002
0.21338573 -0.040123809 1.9150001
0.20791429 -0.036476191 1.9150001
0.21338573 -0.036476191 1.9150001
-0.1130762 0.10942857 1.9150001
-0.10942857 0.10942857 1.9150001
-0.1130762 0.1130762 1.9150001
-0.10578096 0.11550795 1.9150002
-0.09666191 0.11672381 1.9150001
-0.09119048 0.12766667 1.9150001
-0.086326987 0.12523493 1.9150002
-0.074776188 0.12401905 1.9150001
-0.036476191 0.12401905 1.9150001
0.058361907 0.12766667 1.9150001
0.062009525 0.12766667 1.9150001
-0.13131429 0.13860953 1.9150001
-0.12401905 0.13739365 1.9150002
-0.11490001 0.1349619 1.9150001
-0.10578096 0.1349619 1.9150002
-0.09666191 0.13313809 1.9150001
0.047419049 0.1349619 1.9150001
0.055322226 0.13374603 1.9150002
0.065049209 0.1349619 1.9150002
-0.1532 0.14955239 1.9150001
-0.14499287 0.14864048 1.9150001
-0.1349619 0.14408097 1.9150001
0.058361907 0.14225715 1.9150001
0.065201193 0.14636073 1.9150001
-0.16049524 0.15684763 1.9150001
-0.15502381 0.15502381 1.9150001
-0.14833651 0.15441588 1.9150002
0.062009525 0.1532 1.9150001
-0.1714381 0.16779049 1.9150001
-0.16505477 0.16323096 1.9150001
0.11672381 0.16049524 1.9150001
0.12493096 0.16505477 1.9150001
0.13405001 0.16505477 1.9150001
0.14225715 0.16414286 1.9150001
0.16779049 0.16596667 1.9150001
0.17560682 0.16518505 1.9150002
0.18420476 0.16414286 1.9150002
-0.1714381 0.17326191 1.9150001
-0.1677905 0.17508572 1.9150002
0.1677905 0.17508572 1.9150002
0.17404357 0.17456464 1.9150002
0.18238096 0.1714381 1.9150001
-0.16341333 0.18529907 1.9150002
-0.15684763 0.18785238 1.9150001
0.082071431 0.1896762 1.9150001
0.14955239 0.1896762 1.9150001
0.1532 0.1896762 1.9150001
-0.1532 0.19332381 1.9150001
0.062009525 0.19514762 1.9150001
0.0766 0.19514762 1.9150001
0.083895251 0.19514762 1.9150002
0.094838098 0.19605953 1.9150001
0.14955239 0.19332381 1.9150001
0.1532 0.19332381 1.9150001
0.08462476 0.2020781 1.9150002
0.094108574 0.2020781 1.9150002
0.21450001 -0.051333334 1.9250001
0.20900001 -0.047666669 1.9250001
0.2145 -0.045833334 1.9250001
0.22000001 -0.033 1.9250001
-0.11183333 0.11733334 1.9250001
-0.11183333 0.121 1.9250001
-0.10511111 0.12222223 1.9250001
-0.095333345 0.12361906 1.9250002
-0.088 0.121 1.9250001
-0.13750002 0.13933334 1.9250001
-0.12466668 0.13444446 1.9250001
-0.11366668 0.132 1.9250001
-0.1045 0.132 1.9250001
-0.099000007 0.132 1.9250001
0.062333338 0.132 1.9250001
-0.15216668 0.14666666 1.9250001
-0.14544445 0.14422223 1.9250001
-0.13933334 0.14300001 1.9250001
-0.16500001 0.15644446 1.9250001
-0.15766667 0.15033334 1.9250001
0.11733334 0.15400001 1.9250001
0.17691666 0.15675001 1.9250001
0.18516667 0.15583333 1.9250001
0.19433334 0.15583335 1.9250001
-0.176 0.16561112 1.9250001
-0.16866668 0.16133334 1.9250001
0.12466668 0.16133335 1.9250001
0.13566667 0.16133335 1.9250001
0.14483333 0.16133334 1.9250001
0.15766667 0.16316667 1.9250001
0.16426668 0.1628 1.9250001
0.17416668 0.16133334 1.9250001
0.19066668 0.16133334 1.9250001
-0.17661111 0.176 1.9250001
-0.17355558 0.18455558 1.9250001
-0.16866668 0.18700001 1.9250001
-0.16500001 0.1918889 1.9250001
-0.15766667 0.19433333 1.9250001
0.2035 0.56833333 1.9250001
0.18455558 0.57322228 1.9250001
0.20166668 0.57200003 1.9250001
0.16500001 0.5866667 1.9250001
0.176 0.5866667 1.9250001
0.18333334 0.58666664 1.9250001
0.19066668 0.58666664 1.9250001
0.16545834 0.59354162 1.9250001
0.18455558 0.5915556 1.9250001
0.19066668 0.59033334 1.9250001
0.21756953 -0.055314288 1.9360001
0.22310096 -0.051626671 1.9360001
0.22346973 -0.045726478 1.9360001
0.25628954 -0.047939051 1.9360001
0.22125715 -0.03687619 1.9360001
0.21756953 0.099565722 1.9360001
0.22125715 0.099565722 1.9360001
0.20650668 0.10694096 1.9360001
0.21756953 0.10325334 1.9360001
0.2065067 0.11431621 1.9360002
0.21282834 0.11484302 1.9360001
-0.1133943 0.12537906 1.9360001
-0.10448255 0.12783748 1.9360002
-0.099565722 0.12906668 1.9360001
-0.033188574 0.12353525 1.9360001
-0.029500954 0.12537906 1.9360001
0.19913144 0.12722287 1.9360001
0.20466289 0.12537907 1.9360001
0.21282834 0.12485227 1.9360001
-0.14012952 0.13644192 1.9360001
-0.13398351 0.13521272 1.9360002
-0.12722287 0.1327543 1.9360001
0.19913144 0.1327543 1.9360001
0.20466286 0.1327543 1.9360001
0.2114235 0.13398351 1.9360002
-0.16225524 0.14750476 1.9360001
-0.15488002 0.14504635 1.9360002
-0.14566097 0.14012952 1.9360001
0.18659353 0.14455467 1.9360001
0.19544384 0.14566097 1.9360001
-0.17516191 0.15856762 1.9360001
-0.16594286 0.15303621 1.9360001
0.11800382 0.15856762 1.9360001
0.12537906 0.15856764 1.9360002
0.13459811 0.15856762 1.9360001
0.14012952 0.15672381 1.9360001
0.16778667 0.15856762 1.9360001
0.17516191 0.15488 1.9360001
0.18622477 0.1511924 1.9360001
0.1917562 0.1511924 1.9360001
-0.18315177 0.16594288 1.9360002
-0.17700572 0.16225524 1.9360001
0.15365081 0.16348445 1.9360002
-0.18438096 0.17516191 1.9360001
-0.18069336 0.18438098 1.9360002
-0.17700572 0.18806858 1.9360001
-0.18069334 0.19360001 1.9360001
-0.17516191 0.19360001 1.9360001
-0.16778667 0.19544382 1.9360001
-0.15672381 0.19913144 1.9360001
0.16778667 0.56420571 1.9360001
0.1733181 0.56420571 1.9360001
0.16778667 0.57711244 1.9360001
0.17516191 0.57711244 1.9360001
0.18192255 0.57526863 1.9360002
0.19913144 0.57158101 1.9360001
0.15856762 0.58633143 1.9360001
0.16594286 0.58448768 1.9360001
0.17516191 0.58448768 1.9360001
0.18253715 0.58448768 1.9360001
0.15414248 0.59149408 1.9360001
0.22675268 -0.056688167 1.9470003
0.2354943 -0.055628575 1.9470003
0.22807716 -0.042648576 1.9470001
0.23364002 -0.044502866 1.9470003
0.24662003 -0.048211433 1.9470001
0.25589147 -0.044502862 1.9470001
0.26330858 -0.044502862 1.9470001
0.22807716 -0.037085716 1.9470001
0.25589147 -0.037085716 1.9470001
0.21880573 0.089005724 1.9470001
0.22436859 0.089005724 1.9470001
0.21756956 0.095186673 1.9470003
0.2237505 0.09395048 1.9470003
0.20489857 0.10476716 1.9470001
0.21361375 0.10458173 1.9470001
-0.11867429 0.11867429 1.9470001
0.1965543 0.11125715 1.9470001
0.20211717 0.11496572 1.9470003
-0.13350858 0.12980001 1.9470001
-0.12534973 0.12683316 1.9470001
-0.1174381 0.12856382 1.9470003
-0.025960002 0.12423715 1.9470001
-0.018542858 0.12609144 1.9470001
0.18913715 0.12980001 1.9470001
0.19470003 0.12609145 1.9470003
0.20026287 0.12238287 1.9470001
-0.15390572 0.13721716 1.9470001
-0.14463429 0.13598096 1.9470003
-0.13721716 0.13350858 1.9470001
0.18913715 0.13536286 1.9470001
0.1947 0.13536286 1.9470001
0.20397143 0.13721716 1.9470003
-0.17059429 0.14834286 1.9470001
-0.16503143 0.14648858 1.9470001
-0.15668716 0.14185287 1.9470001
0.18357429 0.14463429 1.9470001
0.19470002 0.14092572 1.9470001
0.20397145 0.14185287 1.9470001
-0.18468687 0.15798517 1.9470001
-0.17504458 0.15353487 1.9470001
0.12609145 0.15576002 1.9470003
0.13536286 0.15576002 1.9470001
0.14587049 0.15823241 1.9470003
0.15946859 0.15946859 1.9470001
0.16503143 0.15761431 1.9470001
0.17430288 0.15328763 1.9470003
0.18172002 0.15205143 1.9470001
0.1965543 0.15205143 1.9470001
0.20026287 0.15205143 1.9470001
-0.19408193 0.16564953 1.9470003
-0.18790096 0.16441333 1.9470003
-0.19432917 0.17356116 1.9470001
-0.18913715 0.17430288 1.9470003
-0.18728286 0.18542859 1.9470003
-0.18728286 0.19284573 1.9470001
-0.1705943 0.20397143 1.9470003
-0.16540229 0.20322974 1.9470001
-0.15761431 0.20582572 1.9470001
-0.17059429 0.21138859 1.9470001
-0.16688572 0.21324287 1.9470001
0.15761431 0.57853717 1.9470001
0.16466057 0.5740869 1.9470001
0.17337573 0.57390147 1.9470001
0.20026287 0.57853717 1.9470001
0.14516409 0.58489484 1.9470003
0.15529644 0.58549082 1.9470003
0.16317715 0.58224577 1.9470001
0.18913715 0.58966291 1.9470001
0.24614859 -0.054078098 1.9580001
0.2536076 -0.054078095 1.9580001
0.23868953 -0.044754289 1.9580001
0.2456158 -0.043688711 1.9580002
0.2536076 -0.042889524 1.9580001
0.2647962 -0.041024767 1.9580001
0.22750096 -0.033565715 1.9580001
0.23496 -0.036052063 1.9580001
0.2442838 -0.037295237 1.9580001
0.2536076 -0.037295237 1.9580001
0.2647962 -0.036362857 1.9580001
0.25733715 -0.029836191 1.9580001
0.26852572 -0.0037295239 1.9580001
0.27412 -0.0055942857 1.9580001
0.26852572 0.0018647619 1.9580001
0.27318764 0.0027971428 1.9580001
0.22750096 0.05594286 1.9580001
0.23123048 0.05594286 1.9580001
0.20885333 0.06713143 1.9580001
0.22750096 0.065266669 1.9580001
0.23123048 0.065266669 1.9580001
0.23449381 0.075056657 1.9580001
0.19766477 0.089508571 1.9580001
0.20605621 0.08857619 1.9580001
0.21444762 0.08764381 1.9580001
0.22470382 0.084846668 1.9580001
0.23371683 0.084535882 1.9580001
0.20761018 0.095724449 1.9580001
0.21444762 0.095102862 1.9580001
0.1967324 0.10535905 1.9580001
0.20325905 0.1025619 1.9580001
0.21258286 0.10069714 1.9580001
0.19542706 0.11636114 1.9580001
-0.13053332 0.12493904 1.9580001
-0.12493904 0.1268038 1.9580001
0.18647619 0.1268038 1.9580001
0.19020571 0.12493904 1.9580001
-0.16036952 0.13799238 1.9580001
-0.15477523 0.13426286 1.9580001
-0.14545143 0.13301969 1.9580001
-0.13799238 0.13053332 1.9580001
0.18461142 0.13426286 1.9580001
-0.18274666 0.14918095 1.9580001
-0.17454171 0.14619733 1.9580001
-0.16658542 0.14296508 1.9580001
0.17715238 0.14918095 1.9580001
0.18274666 0.14358667 1.9580001
-0.19300285 0.15570761 1.9580001
-0.18461142 0.15291047 1.9580001
0.11934476 0.15291047 1.9580001
0.12493904 0.15291047 1.9580001
0.13426286 0.15291047 1.9580001
0.14918095 0.15663999 1.9580001
0.15477523 0.15663999 1.9580001
0.16223428 0.15663999 1.9580001
0.1715581 0.15291047 1.9580001
-0.19642159 0.16161269 1.9580001
0.15477523 0.16036952 1.9580001
-0.20139429 0.17528763 1.9580001
-0.19766477 0.17901714 1.9580001
-0.20139429 0.18647619 1.9580001
-0.19580001 0.18461142 1.9580001
-0.20139429 0.19020571 1.9580001
-0.19580001 0.19207048 1.9580001
-0.17677943 0.20437789 1.9580001
-0.16409905 0.20885333 1.9580001
-0.16223428 0.21444762 1.9580001
-0.15663999 0.21444762 1.9580001
0.16036952 0.57807624 1.9580001
0.17715238 0.57434666 1.9580001
0.19440143 0.5860014 1.9580001
0.20325905 0.58740002 1.9580001
0.22877906 -0.03000381 1.9690001
0.23440477 -0.031879049 1.9690001
0.24378097 -0.033754285 1.9690002
0.2542823 -0.033754285 1.9690001
0.26378351 -0.031253971 1.9690002
0.27003428 -0.03000381 1.9690001
0.25878286 -0.024378097 1.9690001
0.26440859 -0.024378097 1.9690001
0.27003428 -0.024378097 1.9690001
0.25878286 -0.018752381 1.9690001
0.26478365 -0.015752001 1.9690001
0.27190953 -0.015001904 1.9690001
0.26503369 -0.0050006351 1.9690002
0.27003428 -0.0075009526 1.9690001
0.26628384 0.0037504765 1.9690002
0.27003428 0.0075009526 1.9690001
0.22877906 0.018752381 1.9690001
0.23252952 0.018752381 1.9690001
0.25628257 0.016252063 1.9690002
0.26628384 0.011251429 1.9690001
0.27003428 0.011251429 1.9690001
0.22596622 0.025315715 1.9690001
0.23440477 0.024378095 1.9690001
0.24003048 0.024378097 1.9690001
0.25628257 0.025003176 1.9690002
0.26253334 0.026253335 1.9690001
0.22652876 0.032254096 1.9690001
0.23440479 0.033754289 1.9690001
0.2432452 0.034825854 1.9690001
0.25503242 0.033129208 1.9690001
0.26253334 0.031879049 1.9690001
0.22877906 0.045005716 1.9690001
0.23440477 0.045005716 1.9690001
0.24331217 0.044536904 1.969
0.21002668 0.056257147 1.9690001
0.22690383 0.054381907 1.9690001
0.23502986 0.053756829 1.9690002
0.24003048 0.05250667 1.9690001
0.19727506 0.064508192 1.9690001
0.20440096 0.065633334 1.9690001
0.21377715 0.064383179 1.9690001
0.22395702 0.063222319 1.9690001
0.23252952 0.060007621 1.9690001
0.19690001 0.075009525 1.9690001
0.20440096 0.075009525 1.9690001
0.21377718 0.075009532 1.9690001
0.22502859 0.075009525 1.9690001
0.19690001 0.084385715 1.9690001
0.20440096 0.084385723 1.9690001
0.21471478 0.083448097 1.9690001
0.22315335 0.082510479 1.9690001
0.19652496 0.094512008 1.9690001
0.20377588 0.095012069 1.9690002
0.21377715 0.091886669 1.9690001
0.19502477 0.1031381 1.9690001
0.1912743 0.11626476 1.9690001
-0.13501714 0.12564096 1.9690001
0.18564858 0.12564096 1.9690001
0.1912743 0.12001524 1.9690001
-0.17252192 0.13876763 1.9690001
-0.16502097 0.13751747 1.9690002
-0.15376954 0.13126668 1.9690002
-0.14626858 0.13126667 1.9690001
0.18002288 0.13501714 1.9690002
-0.18377334 0.14626858 1.9690002
-0.17627239 0.1425181 1.9690001
0.18002287 0.14439334 1.9690001
-0.19502477 0.15251938 1.9690002
-0.18752381 0.15001905 1.9690001
0.12376572 0.15001905 1.9690002
0.13501714 0.15001905 1.9690002
0.14376827 0.15251938 1.9690002
0.16689619 0.15376952 1.9690001
0.17252192 0.15001905 1.9690001
-0.20377588 0.16752128 1.9690002
-0.20627619 0.17439716 1.9690001
-0.20502603 0.18377334 1.9690002
-0.20627619 0.1912743 1.9690001
0.19314954 0.5813238 1.9690001
0.21127686 0.58757466 1.9690002
0.23760001 -0.03017143 1.9800001
0.24514288 -0.03017143 1.9800003
0.25268573 -0.03017143 1.9800001
0.24640003 -0.02514286 1.9800003
0.25457144 -0.024514288 1.9800001
0.25494859 -0.01433143 1.9800001
0.26148573 -0.01257143 1.9800003
0.2489143 -0.005657143 1.9800001
0.25457144 -0.005657143 1.9800001
0.26148573 -0.0062857149 1.9800003
0.23760001 0.0075428574 1.9800001
0.24640004 0.0044 1.9800003
0.25457144 0.0037714287 1.9800003
0.26211429 0.0037714287 1.9800003
0.23609145 0.01433143 1.9800001
0.24514286 0.015085716 1.9800001
0.25362861 0.014142859 1.9800001
0.26400003 0.015624491 1.9800003
0.27342859 0.01697143 1.9800001
0.24702859 0.024514288 1.9800001
0.25268573 0.024514288 1.9800001
0.26494288 0.023571432 1.9800001
0.27154288 0.022628574 1.9800001
0.2250286 0.035200004 1.9800003
0.24702859 0.03017143 1.9800001
0.25268573 0.03017143 1.9800001
0.21874288 0.047142863 1.9800001
0.22628574 0.045257147 1.9800003
0.23005715 0.045257147 1.9800001
0.20554286 0.056571431 1.9800001
0.21572573 0.054308575 1.9800001
0.22377145 0.054057147 1.9800003
0.20554286 0.060342859 1.9800001
0.21685717 0.060342859 1.9800001
0.19234286 0.10937144 1.9800001
0.18857144 0.11691429 1.9800001
0.19234286 0.11314286 1.9800001
-0.13954286 0.12822859 1.9800001
0.17725715 0.12822859 1.9800001
0.18404572 0.12370288 1.9800001
-0.18102859 0.13954286 1.9800001
-0.17537144 0.13765715 1.9800001
-0.16594286 0.13388573 1.9800001
0.17725715 0.13577144 1.9800003
-0.19422859 0.14708573 1.9800001
-0.18480001 0.1433143 1.9800003
0.12445717 0.14708573 1.9800003
0.13577144 0.14614287 1.9800001
0.14520001 0.14708573 1.9800001
0.176 0.14582859 1.9800003
-0.21120001 0.1584 1.9800001
-0.20554286 0.1584 1.9800001
-0.1961143 0.15085715 1.9800001
0.14708573 0.15085715 1.9800001
0.1521143 0.15337145 1.9800003
0.16594288 0.15274286 1.9800001
-0.21120003 0.16594288 1.9800003
-0.20617144 0.16342859 1.9800003
-0.21245717 0.176 1.9800003
-0.21214287 0.18385714 1.9800001
-0.20742859 0.1848 1.9800001
0.23714286 -0.026560001 1.9920001
0.24536383 -0.024030477 1.9920001
0.25137144 -0.016125714 1.9920001
0.23904002 -0.0037942859 1.9920001
0.24473144 -0.0056914287 1.9920001
0.23777525 0.0037942859 1.9920001
0.24409907 0.002529524 1.9920001
0.22196573 0.03794286 1.9920001
0.22291431 0.044582859 1.9920001
0.19350858 0.10624 1.9920001
0.18781716 0.11572572 1.9920001
-0.15556572 0.12900572 1.9920001
-0.14608002 0.12900572 1.9920001
0.17833145 0.12521143 1.9920001
0.18212572 0.12141715 1.9920001
-0.18402286 0.1365943 1.9920001
-0.17548573 0.13374858 1.9920001
0.17453715 0.13469714 1.9920001
-0.20109715 0.14797714 1.9920001
-0.19477335 0.14291811 1.9920001
-0.18781716 0.14038858 1.9920001
0.12900572 0.14418288 1.9920001
0.13406476 0.14165334 1.9920001
0.14418286 0.14228573 1.9920003
0.15430096 0.14544763 1.9920003
0.16694857 0.14608002 1.9920001
0.1732724 0.14418286 1.9920001
-0.21437715 0.15746287 1.9920001
-0.20489144 0.15366858 1.9920001
0.15809524 0.15303621 1.9920001
0.16505143 0.15177144 1.9920001
-0.22006857 0.16505143 1.9920001
-0.21627429 0.16505143 1.9920001
-0.2215863 0.17529602 1.9920002
-0.21627429 0.17264001 1.9920001
-0.22196573 0.18592 1.9920003
-0.21627429 0.18781716 1.9920001
0.24608287 -0.015260953 2.0030003
0.21746856 0.047690473 2.003
0.18503904 0.11636477 2.003
0.19076191 0.1106419 2.003
-0.16405523 0.1297181 2.003
-0.14497906 0.12590286 2.003
0.14688668 0.1297181 2.003
0.15451714 0.1297181 2.003
0.16787048 0.1297181 2.003
0.17359333 0.1297181 2.003
-0.19457714 0.13544098 2.0030003
-0.18503904 0.13353334 2.003
0.1297181 0.13734858 2.003
0.13607684 0.13607684 2.003
0.14497906 0.13544098 2.0030003
0.15451714 0.13544096 2.003
0.16405523 0.13544098 2.0030003
0.17168571 0.13544096 2.003
-0.21365333 0.14879429 2.003
-0.20602286 0.14561492 2.0030003
-0.19839238 0.14116381 2.003
0.11827239 0.14688668 2.003
0.12590286 0.14370731 2.003
0.15642476 0.14116381 2.003
0.16341937 0.14370731 2.0030003
0.17168571 0.14307143 2.003
-0.22128381 0.15642476 2.003
-0.21619682 0.15388128 2.003
-0.20983809 0.15260953 2.003
-0.22573493 0.16405523 2.0030003
-0.23272952 0.17550094 2.003
-0.22796047 0.17454714 2.003
-0.22891429 0.18503904 2.003
-0.22891429 0.19076191 2.003
0.24180001 -0.0076761907 2.0150001
0.21685238 0.046057146 2.0150001
0.19190477 0.10746667 2.0150001
0.18422858 0.11514287 2.0150001
-0.16311905 0.12665714 2.0150001
-0.15544286 0.12665714 2.0150001
-0.14776668 0.1247381 2.0150001
0.14776668 0.12665714 2.0150001
0.15544286 0.12665714 2.0150001
0.16503811 0.12665716 2.0150001
0.17463334 0.12665714 2.0150001
0.18039048 0.12281905 2.0150001
-0.20341906 0.13817143 2.0150001
-0.18039048 0.13049524 2.0150001
-0.17655239 0.13049524 2.0150001
-0.1688762 0.13049524 2.0150001
0.11898096 0.13817143 2.0150001
0.1247381 0.13817143 2.0150001
0.13625237 0.13241428 2.0150001
0.14200953 0.13049524 2.0150001
0.16311905 0.13049524 2.0150001
-0.21589285 0.14584762 2.0150001
-0.20725715 0.14200953 2.0150001
0.11898096 0.14200953 2.0150001
0.1247381 0.14200953 2.0150001
-0.22452858 0.15544286 2.0150001
-0.23028573 0.1612 2.0150001
0.18532573 0.11196762 2.0270002
-0.19304763 0.12741144 2.0270002
-0.18532573 0.12741145 2.0270002
-0.17760383 0.12741144 2.0270002
-0.16988192 0.12741144 2.0270002
-0.15829906 0.12355049 2.0270002
0.13899431 0.12741144 2.0270002
0.14285526 0.12741144 2.0270002
0.17760383 0.12355049 2.0270002
-0.21428287 0.13899431 2.0270002
-0.20463049 0.13513336 2.0270002
-0.1949781 0.13127239 2.0270002
-0.1872562 0.13127239 2.0270002
-0.17374288 0.13127239 2.0270002
0.13320287 0.13320287 2.0270002
-0.22393525 0.14542922 2.0270002
-0.21621335 0.14285526 2.0270002
-0.23320155 0.1552103 2.0270002
-0.22650921 0.15186414 2.0270002
-0.2370625 0.16679317 2.0270002
-0.23809209 0.17502986 2.0270002
-0.23551811 0.18339525 2.0270002
0.21749334 0.044663809 2.039
0.18253905 0.11651429 2.039
-0.20389999 0.12816572 2.039
-0.19419049 0.12557653 2.039
-0.18448095 0.12428191 2.039
-0.17477143 0.12557653 2.039
-0.16506191 0.12428191 2.039
-0.15535237 0.12428191 2.039
-0.14564286 0.12428191 2.039
-0.13981713 0.12428191 2.039
0.13593332 0.12816572 2.039
0.16700381 0.12428191 2.039
0.17477143 0.12298732 2.039
-0.22526096 0.13981715 2.039
-0.21360953 0.13593332 2.039
-0.20843112 0.13334413 2.039
0.12622382 0.13593332 2.039
0.13204953 0.13204953 2.039
-0.24390323 0.14603125 2.039
-0.23497048 0.14564286 2.039
-0.22720286 0.14370096 2.039
-0.25244763 0.15535237 2.039
-0.24419454 0.1548669 2.0389998
-0.23691238 0.15146858 2.039
-0.24468 0.16506191 2.039
-0.24468002 0.17477143 2.039
-0.24079619 0.18448095 2.039
0.27737334 -0.062506668 2.0510001
0.28128001 -0.062506668 2.0510001
0.27737334 -0.058600001 2.0510001
0.28128001 -0.058600001 2.0510001
0.24612002 -0.023440002 2.0510001
0.24612002 -0.015626669 2.0510001
0.24221335 0.0039066668 2.0510001
0.21877334 0.039066669 2.0510001
0.22268 0.039066669 2.0510001
0.21486668 0.05078667 2.0510001
0.17970668 0.10938667 2.0510001
0.18556666 0.10938667 2.0510001
0.16798668 0.1172 2.0510001
0.17840445 0.11589779 2.0510001
0.18361333 0.11329334 2.0510001
-0.21291333 0.12892 2.0510001
-0.2051 0.12501334 2.0510001
-0.19533335 0.1224089 2.0510001
-0.18556666 0.12110668 2.0510001
-0.17580001 0.12208334 2.0510001
-0.16408001 0.12110668 2.0510001
0.13282667 0.12892 2.0510001
0.15626667 0.12501334 2.0510001
0.16408001 0.12371112 2.0510001
0.17384668 0.12110668 2.0510001
-0.22398221 0.13543111 2.0510001
-0.21747112 0.1341289 2.0510001
0.12501334 0.1341289 2.0510001
-0.25393337 0.14454669 2.0510004
-0.24416669 0.14064001 2.0510001
-0.23635334 0.14064001 2.0510001
-0.26174667 0.15626667 2.0510001
-0.2565378 0.15366223 2.0510001
-0.26272333 0.16505668 2.0510001
-0.25442168 0.16359167 2.0510004
-0.26304889 0.17319557 2.0510001
-0.25393334 0.17580001 2.0510004
-0.25002667 0.18361333 2.0510001
-0.24612002 0.18556666 2.0510001
0.29864383 -0.12181525 2.0630002
0.30257335 -0.12181525 2.0630002
0.29766145 -0.11395621 2.0630002
0.30257338 -0.11395621 2.0630002
0.29733402 -0.10347747 2.0630002
0.30257335 -0.10413238 2.0630002
0.27703145 -0.090379059 2.0630002
0.28489047 -0.090379059 2.0630002
0.29667908 -0.094308585 2.0630002
0.30257335 -0.09627334 2.0630002
0.27703145 -0.084484771 2.0630002
0.28423557 -0.08382985 2.0630002
0.29667908 -0.082520008 2.0630002
0.27703148 -0.074660957 2.0630002
0.28489047 -0.074660957 2.0630002
0.29471433 -0.07662572 2.0630002
0.27637655 -0.065492079 2.0630002
0.28292572 -0.066801913 2.0630002
0.2750667 -0.058942862 2.0630002
0.23970097 -0.011788572 2.0630002
0.2436305 -0.015718097 2.0630002
0.23970097 -0.0058942866 2.0630002
0.2436305 -0.0058942866 2.0630002
0.22005336 0.0039295247 2.0630002
0.23970097 0.0039295247 2.0630002
0.2436305 0 2.0630002
0.22103575 0.016700478 2.0630002
0.23970097 0.011788572 2.0630002
0.21612383 0.025541907 2.0630002
0.22005336 0.025541907 2.0630002
0.21612383 0.035365716 2.0630002
0.22005336 0.033400953 2.0630002
0.21612383 0.04518953 2.0630002
0.21612383 0.05501334 2.0630002
0.16896954 0.10609715 2.0630002
-0.18468764 0.11788572 2.0630002
-0.17486382 0.11788572 2.0630002
-0.16504002 0.11788573 2.0630002
0.16582592 0.11474212 2.0630002
0.17447087 0.1131703 2.0630002
-0.22201812 0.1296743 2.0630002
-0.21350417 0.12443493 2.0630002
-0.20433526 0.12181525 2.0630002
-0.15718096 0.12181525 2.0630002
-0.14932191 0.12181525 2.0630002
0.12574479 0.1296743 2.0630002
0.14735717 0.12574477 2.0630002
0.15456128 0.1231251 2.0630002
0.16307525 0.12181525 2.0630002
-0.23184192 0.13753335 2.0630002
-0.22791241 0.13360383 2.0630002
0.12181525 0.13360383 2.0630002
-0.2632781 0.14932191 2.0630002
-0.26589781 0.15456128 2.0630002
-0.26720765 0.16307525 2.0630002
-0.043224767 0.23970097 2.0630002
-0.039295241 0.23773621 2.0630002
-0.043224767 0.2436305 2.0630002
-0.039295241 0.2436305 2.0630002
0.26889145 -0.13049145 2.0760002
0.27548194 -0.13180955 2.0760002
0.28470862 -0.13444573 2.0760002
0.2941989 -0.13444573 2.0760002
0.30052575 -0.1384 2.0760002
0.27548194 -0.12521908 2.0760002
0.28470862 -0.12456001 2.0760002
0.29459432 -0.12456001 2.0760002
0.30052575 -0.12653716 2.0760002
0.26889145 -0.11269715 2.0760002
0.27482289 -0.11467429 2.0760002
0.28470862 -0.11467431 2.0760002
0.2941989 -0.11467429 2.0760002
0.26625526 -0.10412954 2.0760002
0.27482289 -0.10478858 2.0760002
0.28470862 -0.10478859 2.0760002
0.29393527 -0.10544764 2.0760002
0.25702861 -0.098857149 2.0760002
0.26493719 -0.094902866 2.0760002
0.27442747 -0.09569373 2.0760002
0.28470862 -0.096880011 2.0760002
0.29261717 -0.094902873 2.0760002
0.25702861 -0.085017145 2.0760002
0.26493716 -0.085017145 2.0760002
0.27284575 -0.085017145 2.0760002
0.28866288 -0.08699429 2.0760002
0.29393527 -0.085676193 2.0760002
0.30052575 -0.08699429 2.0760002
0.25702861 -0.075131431 2.0760002
0.26493713 -0.075131431 2.0760002
0.27284575 -0.075131439 2.0760002
0.29459432 -0.071177147 2.0760002
0.25702861 -0.065245718 2.0760002
0.26493716 -0.065245718 2.0760002
0.27284575 -0.065245718 2.0760002
0.28866288 -0.065245718 2.0760002
0.29459432 -0.065245718 2.0760002
0.27284575 -0.059314292 2.0760002
0.24516572 -0.023725716 2.0760002
0.23626859 -0.014828574 2.0760002
0.24121146 -0.017794289 2.0760002
0.21748573 -0.0039542862 2.0760002
0.22407621 -0.0052723819 2.0760002
0.23528002 -0.0059314291 2.0760002
0.21649715 0.0049428577 2.0760002
0.22737145 0.0039542867 2.0760002
0.23528002 0.0039542867 2.0760002
0.20957717 0.015817145 2.0760002
0.21550858 0.015817145 2.0760002
0.2280305 0.013180954 2.0760002
0.23528002 0.015817143 2.0760002
0.24121146 0.015817145 2.0760002
0.20760003 0.02570286 2.0760002
0.21353145 0.02570286 2.0760002
0.20760003 0.03163429 2.0760002
0.21452001 0.035588574 2.0760002
0.22737145 0.033611432 2.0760002
0.16410288 0.10676572 2.0760002
0.17596573 0.10478859 2.0760002
0.18321526 0.10544764 2.0760002
-0.21353145 0.11862858 2.0760002
-0.20957717 0.11862858 2.0760002
-0.19376002 0.11862858 2.0760002
-0.16608001 0.1146743 2.0760002
-0.15421715 0.11862858 2.0760002
0.15579887 0.11546514 2.0760002
0.16344383 0.11203811 2.0760002
-0.22341716 0.12653716 2.0760002
-0.21748573 0.12258286 2.0760002
-0.15421715 0.12258286 2.0760002
-0.14433144 0.12258286 2.0760002
-0.1384 0.12456001 2.0760002
0.14235429 0.12653716 2.0760002
0.15026288 0.12258286 2.0760002
-0.25505146 0.1384 2.0760002
-0.24516574 0.1384 2.0760002
-0.23528002 0.13642287 2.0760002
-0.2293486 0.13049145 2.0760002
-0.26493716 0.14499049 2.0760002
-0.27284575 0.15817145 2.0760002
-0.26889145 0.15026288 2.0760002
-0.27284575 0.16410288 2.0760002
-0.27284575 0.17003429 2.0760002
-0.035588574 0.23725717 2.0760002
-0.043497145 0.24912001 2.0760002
-0.036577147 0.24615431 2.0760002
-0.05140572 0.25702861 2.0760002
-0.045474291 0.25307432 2.0760002
-0.039542861 0.25307432 2.0760002
0.31618285 -0.19885714 2.0880001
0.32214859 -0.19885714 2.0880001
0.29828572 -0.17499429 2.0880001
0.3035886 -0.17632 2.0880001
0.31220573 -0.17499429 2.0880001
0.28237715 -0.15113144 2.0880001
0.29629713 -0.15510857 2.0880001
0.28370285 -0.14450286 2.0880001
0.295104 -0.144768 2.0880001
0.26646858 -0.13323429 2.0880001
0.27362746 -0.13760915 2.0880001
0.29828572 -0.13522287 2.0880001
0.30464914 -0.13442743 2.0880001
0.31220573 -0.13721144 2.0880001
0.26447999 -0.12527999 2.0880001
0.27177143 -0.12461714 2.0880001
0.30623999 -0.12726857 2.0880001
0.31021714 -0.12527999 2.0880001
0.25851429 -0.11334857 2.0880001
0.26448002 -0.11533715 2.0880003
0.27044573 -0.11931429 2.0880001
0.25851429 -0.10539428 2.0880001
0.26514286 -0.10605714 2.0880001
0.25453717 -0.094883278 2.0880003
0.25254858 -0.08550857 2.0880001
0.24658287 -0.071588568 2.0880001
0.2538743 -0.075565718 2.0880003
0.24658287 -0.067611434 2.0880001
0.25453714 -0.067611434 2.0880001
0.23862858 -0.023862857 2.0880001
0.24260572 -0.023862857 2.0880001
0.21874286 -0.011931429 2.0880001
0.22470857 -0.01392 2.0880001
0.23332572 -0.015908573 2.0880001
0.21675429 -0.0059657143 2.0880001
0.22669715 -0.0059657143 2.0880001
0.2306743 -0.0079542855 2.0880001
0.20482287 0.0079542855 2.0880001
0.21237946 0.0031817143 2.0880001
0.19885714 0.017897144 2.0880001
0.20482287 0.015908571 2.0880003
0.22669715 0.015908571 2.0880001
0.2306743 0.019885715 2.0880001
0.19885714 0.025851429 2.0880001
0.20283429 0.025851429 2.0880001
0.22669715 0.025851429 2.0880001
0.23365715 0.024857141 2.0880001
0.19885714 0.031817142 2.0880001
0.20442514 0.036589712 2.0880001
0.21078858 0.037782855 2.0880001
0.20681143 0.045737144 2.0880001
0.21277717 0.04573714 2.0880001
0.20681143 0.051702857 2.0880001
0.21344003 0.053028576 2.0880001
0.20681143 0.063634284 2.0880001
0.15709715 0.10738286 2.0880001
-0.22404572 0.11798858 2.0880001
-0.21556115 0.11533715 2.0880001
-0.20482287 0.11931429 2.0880001
-0.19885714 0.11931429 2.0880001
-0.17300573 0.11533715 2.0880001
-0.16306286 0.11533715 2.0880001
-0.15510857 0.11931429 2.0880001
-0.14582857 0.11666286 2.0880001
0.14715429 0.11732572 2.0880001
0.15312001 0.11434287 2.0880001
-0.23200002 0.12594286 2.0880001
-0.22470857 0.12329143 2.0880001
0.12527999 0.12726857 2.0880001
0.13522288 0.12726858 2.0880001
0.14516571 0.12329143 2.0880001
-0.26447999 0.1392 2.0880001
-0.25453717 0.13522288 2.0880001
-0.24459429 0.13522287 2.0880001
-0.23730287 0.13257144 2.0880001
-0.27243429 0.14516571 2.0880001
-0.26646858 0.14317714 2.0880001
-0.28237715 0.15908572 2.0880001
-0.27680916 0.15431316 2.0880001
-0.2784 0.16505143 2.0880001
-0.031817142 0.23862858 2.0880001
-0.031817142 0.24260572 2.0880001
-0.02784 0.24260572 2.0880001
-0.045737144 0.25851429 2.0880001
-0.03712 0.25718856 2.0880001
-0.051702857 0.26447999 2.0880001
-0.047725715 0.26249143 2.0880001
0.31615049 -0.22010475 2.1010001
0.32415432 -0.22010475 2.1010003
0.33215812 -0.22010475 2.1010001
0.31615049 -0.21410191 2.1010001
0.32415432 -0.21410191 2.1010001
0.3334921 -0.21343493 2.1010003
0.3041448 -0.20009524 2.1010003
0.31481653 -0.20409715 2.1010003
0.32515478 -0.20309666 2.1010001
0.33616 -0.20809905 2.1010001
0.29614094 -0.19609334 2.1010001
0.3033444 -0.19369221 2.1010001
0.31481653 -0.1934254 2.1010003
0.32215333 -0.19409239 2.1010001
0.29614097 -0.18408763 2.1010003
0.3041448 -0.18458785 2.1010001
0.31414956 -0.18408762 2.1010001
0.32015237 -0.18408763 2.1010003
0.28813714 -0.1760838 2.1010001
0.29413998 -0.17408285 2.1010001
0.3041448 -0.17208192 2.1010003
0.31414953 -0.1720819 2.1010001
0.32215333 -0.17408285 2.1010001
0.28546923 -0.16141015 2.1010003
0.29454017 -0.16327773 2.1010001
0.302544 -0.16487847 2.1010001
0.31414953 -0.16808 2.1010001
0.32215333 -0.16808 2.1010001
0.26612666 -0.15207238 2.1010001
0.27413049 -0.15407333 2.1010001
0.28413522 -0.15447353 2.1010001
0.29347301 -0.15474032 2.1010003
0.30214381 -0.15407333 2.1010001
0.26526913 -0.14349687 2.1010001
0.27413049 -0.14606953 2.1010001
0.28280127 -0.1467365 2.1010003
0.29213905 -0.14807047 2.1010001
0.30547875 -0.14540255 2.1010003
0.2641257 -0.13406381 2.1010001
0.31414953 -0.13206285 2.1010001
0.26012382 -0.12405904 2.1010003
0.31615049 -0.12806095 2.1010001
0.25412095 -0.11205333 2.1010001
0.2481181 -0.10004762 2.1010001
0.25412095 -0.10605048 2.1010001
0.2481181 -0.09404476 2.1010001
0.25212002 -0.096045718 2.1010001
0.2481181 -0.084040008 2.1010003
0.24545018 -0.074702226 2.1010003
0.25212002 -0.076036192 2.1010001
0.2441162 -0.068032384 2.1010001
0.25212002 -0.068032384 2.1010001
0.22210571 -0.032015238 2.1010001
0.20809905 -0.020009523 2.1010001
0.2145021 -0.023211047 2.1010001
0.22360641 -0.023511192 2.1010001
0.23344445 -0.022677463 2.1010003
0.24211524 -0.028013334 2.1010001
0.20676509 -0.013339683 2.1010003
0.21410191 -0.014006667 2.1010001
0.22010475 -0.016007619 2.1010001
0.23211047 -0.016007619 2.1010001
0.19609334 -0.0040019047 2.1010001
0.20489752 -0.0056026666 2.1010001
0.21343492 -0.0066698417 2.1010003
0.19449258 0.0048022857 2.1010001
0.20352545 0.0028585037 2.1010001
0.19409239 0.014006667 2.1010001
0.20009524 0.012005715 2.1010001
0.19409239 0.024011431 2.1010001
0.19609334 0.034016192 2.1010001
0.20009524 0.036017142 2.1010001
0.19609334 0.046021905 2.1010001
0.20169599 0.044821333 2.1010001
0.20409715 0.054025717 2.1010001
0.21210095 0.056026667 2.1010001
0.20295374 0.063458778 2.1010001
0.21210095 0.060028572 2.1010001
0.20409714 0.072034284 2.1010001
-0.22010475 0.10805143 2.1010001
-0.21610285 0.10805143 2.1010001
-0.17341587 0.10671747 2.1010003
-0.16674602 0.1053835 2.1010003
-0.22510715 0.11305381 2.1010001
-0.21210095 0.11205333 2.1010001
-0.20809905 0.11605524 2.1010001
-0.18208668 0.11605524 2.1010001
-0.17408285 0.11205333 2.1010001
-0.16307762 0.11305381 2.1010001
-0.15340635 0.11472127 2.1010003
-0.14807047 0.11205333 2.1010001
0.14406857 0.11605524 2.1010001
-0.2561219 0.12806095 2.1010001
-0.24411619 0.12806097 2.1010003
-0.23411143 0.12205809 2.1010001
0.13406381 0.12405905 2.1010001
0.14140064 0.12139111 2.1010003
-0.2641257 0.13406381 2.1010001
-0.25412095 0.13206285 2.1010001
-0.24611714 0.13206285 2.1010001
-0.28280127 0.14540254 2.1010001
-0.2747975 0.14140064 2.1010003
-0.076036192 0.14006667 2.1010001
-0.29213905 0.15607429 2.1010001
-0.28613621 0.15407333 2.1010001
-0.28613621 0.1640781 2.1010001
-0.022010475 0.22610763 2.1010001
-0.022010475 0.23411143 2.1010001
-0.032015238 0.2481181 2.1010001
-0.02351119 0.24411619 2.1010001
-0.01467365 0.24545017 2.1010003
-0.0066698417 0.24545018 2.1010003
-0.032015238 0.25412095 2.1010001
-0.024011429 0.25372076 2.1010001
-0.014006667 0.25412095 2.1010001
-0.0060028573 0.25412095 2.1010001
0.0020009524 0.25412095 2.1010001
-0.043220572 0.26652688 2.1010001
-0.034683175 0.2641257 2.1010003
-0.025345398 0.2614578 2.1010003
-0.014006667 0.26212478 2.1010001
-0.0080038095 0.26212478 2.1010001
0.0048022862 0.26252496 2.1010001
-0.044020951 0.27212954 2.1010003
-0.0040019047 0.27413049 2.1010001
0.0013339682 0.27346352 2.1010003
-0.032015238 0.29213905 2.1010001
-0.032015238 0.30214381 2.1010001
0.0080038095 0.30814669 2.1010001
0.012005715 0.30814669 2.1010001
0.012005715 0.31214857 2.1010001
0.0080038095 0.41419715 2.1010001
0.014006667 0.41419715 2.1010001
0.0080038104 0.42420194 2.1010003
0.014006667 0.42420194 2.1010001
0.0080038095 0.43420666 2.1010001
0.014006667 0.43420666 2.1010001
-0.032015238 0.47622669 2.1010001
-0.033349209 0.48289654 2.1010003
-0.040019047 0.55626476 2.1010001
-0.036017142 0.55626476 2.1010001
-0.040019047 0.56026667 2.1010001
-0.036017142 0.56026667 2.1010001
0.32213336 -0.26173332 2.1140001
0.31408 -0.25569335 2.1140003
0.32213336 -0.25569335 2.1140001
0.30401334 -0.24361336 2.1140001
0.31408 -0.24562666 2.1140001
0.32213336 -0.24562669 2.1140001
0.33018667 -0.24562669 2.1140001
0.30401334 -0.23556 2.1140001
0.31408 -0.23556003 2.1140003
0.32213336 -0.23556 2.1140001
0.29797333 -0.22549336 2.1140001
0.30401337 -0.22549334 2.1140003
0.31357667 -0.22599666 2.1140001
0.32414669 -0.22750667 2.1140001
0.33421335 -0.22616445 2.1140003
0.34428 -0.22348002 2.1140001
0.28488669 -0.21442001 2.1140001
0.29596001 -0.21542668 2.1140001
0.30401334 -0.21542668 2.1140001
0.31206667 -0.21542668 2.1140001
0.33824 -0.21744001 2.1140001
0.34360892 -0.2160978 2.1140001
0.27784002 -0.20334667 2.1140001
0.28589335 -0.20536001 2.1140001
0.29596004 -0.20536003 2.1140003
0.30401334 -0.20737334 2.1140001
0.31206667 -0.20737334 2.1140001
0.32414669 -0.20938666 2.1140001
0.33287114 -0.20804445 2.1140001
0.27784002 -0.19730668 2.1140001
0.28589335 -0.19529335 2.1140003
0.29528892 -0.19462222 2.1140001
0.31206667 -0.19730668 2.1140001
0.27649781 -0.18254223 2.1140001
0.28589335 -0.18522668 2.1140001
0.29394668 -0.18522668 2.1140001
0.27582669 -0.17516001 2.1140001
0.28508803 -0.17475735 2.1140001
0.26817599 -0.16428801 2.1140001
0.27582669 -0.16509335 2.1140003
0.28522223 -0.16643557 2.1140003
0.29394668 -0.16912 2.1140001
0.31350479 -0.16394286 2.1140003
0.32414669 -0.16308001 2.1140001
0.26475334 -0.15603334 2.1140001
0.31408 -0.15502669 2.1140003
0.32213336 -0.15704001 2.1140001
0.25770667 -0.14294668 2.1140001
0.26173332 -0.14697334 2.1140001
0.31488535 -0.147376 2.1140001
0.32213336 -0.14697334 2.1140001
0.25770667 -0.13288 2.1140001
0.26173332 -0.13489333 2.1140001
0.25569335 -0.12482667 2.1140003
0.24965334 -0.11476 2.1140001
0.25569335 -0.11677334 2.1140001
0.2456267 -0.10469334 2.1140003
0.24361335 -0.094626665 2.1140001
0.22549334 -0.086573333 2.1140001
0.23757336 -0.084559999 2.1140001
0.24361335 -0.084560007 2.1140003
0.23757334 -0.076506667 2.1140001
0.24160001 -0.074493334 2.1140001
0.20133334 -0.04026667 2.1140001
0.21542668 -0.04026667 2.1140001
0.22146668 -0.04026667 2.1140001
0.20536003 -0.03355556 2.1140001
0.21542668 -0.034226667 2.1140001
0.22549336 -0.034897782 2.1140001
0.23556 -0.032213334 2.1140001
0.24160001 -0.032213334 2.1140001
0.19730668 -0.022146668 2.1140001
0.20485668 -0.024663333 2.1140001
0.21341334 -0.028186668 2.1140001
0.22951999 -0.028186668 2.1140001
0.23556 -0.028186668 2.1140001
0.18925333 -0.01208 2.1140001
0.19529334 -0.014093334 2.1140001
0.20267557 -0.014764446 2.1140001
0.18724 -0.0060400004 2.1140001
0.19462222 -0.0067111114 2.1140001
0.20133334 -0.0080533335 2.1140001
0.18925333 0.0040266672 2.1140001
0.19328 0 2.1140001
0.18925333 0.014093334 2.1140001
0.18925333 0.024160003 2.1140001
0.18925333 0.032213334 2.1140001
0.19328 0.034226667 2.1140001
0.18925333 0.04630667 2.1140001
0.19428666 0.04328667 2.1140001
0.18925333 0.052346665 2.1140001
0.19529334 0.054359999 2.1140001
0.20133334 0.056373335 2.1140001
0.19529335 0.064426675 2.1140003
-0.16308001 0.10872 2.1140001
-0.15502667 0.10872 2.1140001
-0.14898667 0.10872 2.1140001
0.14496002 0.10872 2.1140001
0.15435557 0.10603555 2.1140001
-0.23354667 0.11677334 2.1140001
-0.20536003 0.11543112 2.1140001
-0.15704001 0.11274667 2.1140001
0.13690667 0.11476 2.1140001
0.14395334 0.11375333 2.1140001
-0.26576 0.12885335 2.1140001
-0.25368002 0.12885334 2.1140001
-0.24482135 0.12321601 2.1140001
-0.23757334 0.1208 2.1140001
-0.14294668 0.1208 2.1140001
-0.13690667 0.12281334 2.1140001
0.12684 0.12482667 2.1140001
0.13489333 0.1208 2.1140001
-0.28589335 0.13690667 2.1140001
-0.27582669 0.13690667 2.1140001
-0.26978666 0.13288 2.1140001
-0.076506667 0.13690667 2.1140001
-0.29394668 0.14496002 2.1140001
-0.2885778 0.14227557 2.1140001
-0.072480001 0.14093335 2.1140001
-0.068453334 0.14093335 2.1140001
-0.29394668 0.15301333 2.1140001
-0.032213334 0.23757334 2.1140001
-0.028186668 0.23757334 2.1140001
-0.01208 0.23757334 2.1140001
-0.0060400004 0.23757334 2.1140001
-0.013422223 0.24428445 2.1140001
-0.0053688893 0.24428445 2.1140001
0.0020133336 0.24562669 2.1140003
-0.02416 0.25770667 2.1140001
-0.032213334 0.26777333 2.1140001
-0.02348889 0.26710221 2.1140003
-0.014093334 0.26978666 2.1140001
-0.0050333333 0.26676667 2.1140001
0.0030200002 0.26777333 2.1140001
-0.04026667 0.27784002 2.1140001
-0.034897782 0.27649781 2.1140001
-0.022817781 0.27649781 2.1140001
-0.014093334 0.27582669 2.1140001
-0.0080533335 0.27582669 2.1140001
-0.034629334 0.28508803 2.1140001
-0.024160001 0.28388003 2.1140003
-0.013690667 0.28508803 2.1140001
-0.0056373333 0.28508803 2.1140001
0 0.28589338 2.1140001
-0.042280003 0.29596001 2.1140001
-0.034897782 0.29663113 2.1140001
-0.023153335 0.29696667 2.1140001
-0.014093334 0.29596001 2.1140001
-0.0060400004 0.29596001 2.1140001
0.0032213335 0.2963627 2.1140001
-0.04026667 0.30200002 2.1140001
-0.03624 0.30401334 2.1140001
-0.024160001 0.30401337 2.1140003
-0.014093333 0.30401334 2.1140001
-0.0060400004 0.30401334 2.1140001
0.0040266672 0.30401337 2.1140003
-0.033220001 0.31307334 2.1140001
-0.023009526 0.31350479 2.1140003
-0.014093334 0.31408 2.1140003
-0.0060400004 0.31408 2.1140003
0.0035233335 0.31458333 2.1140001
-0.022146668 0.32414669 2.1140001
-0.014093334 0.32414669 2.1140001
-0.0060400004 0.32414669 2.1140001
0.0032213335 0.32374403 2.1140001
-0.032213334 0.33421332 2.1140001
-0.023656666 0.33421332 2.1140001
-0.014093334 0.33421335 2.1140003
-0.006442667 0.33340803 2.1140001
0.0060400004 0.33018667 2.1140001
-0.032213334 0.34428 2.1140001
-0.024160001 0.34428 2.1140003
-0.014093334 0.34428 2.1140001
-0.032213338 0.35434669 2.1140001
-0.02416 0.35434669 2.1140001
-0.014093334 0.35434669 2.1140003
-0.0070466669 0.35535336 2.1140001
-0.041608892 0.36508447 2.1140001
-0.034226667 0.36441335 2.1140001
-0.022146668 0.36441335 2.1140001
-0.014093334 0.36441335 2.1140001
-0.0080533335 0.36441335 2.1140001
-0.054359999 0.37649333 2.1140001
-0.043790001 0.37498334 2.1140001
-0.034226667 0.37448001 2.1140003
-0.022146668 0.37448001 2.1140003
-0.014093334 0.37448001 2.1140003
-0.0080533344 0.37448001 2.1140001
-0.054360002 0.38253334 2.1140001
-0.044293337 0.3845467 2.1140003
-0.034226667 0.38454667 2.1140001
-0.0080533335 0.38253334 2.1140001
-0.03355556 0.39192891 2.1140001
-0.01208 0.40266669 2.1140001
-0.0080533335 0.40266669 2.1140001
0.0060400004 0.40669334 2.1140001
0.01208 0.40669334 2.1140001
-0.032213334 0.41877332 2.1140001
-0.013422223 0.41743112 2.1140001
-0.0060400004 0.41676 2.1140001
0.0033555557 0.4147467 2.1140003
0.01208 0.41072002 2.1140001
-0.022146668 0.42682669 2.1140001
-0.014093334 0.42481333 2.1140001
-0.0060400004 0.42481333 2.1140001
0.0020133334 0.42481336 2.1140001
-0.04509867 0.43649068 2.1140001
-0.03624 0.43488002 2.1140001
-0.021140002 0.43588668 2.1140001
-0.014093334 0.43488002 2.1140003
-0.0060400004 0.43488002 2.1140003
0.0020133336 0.43488002 2.1140003
-0.044293333 0.44454405 2.1140001
-0.03624 0.44293335 2.1140001
-0.022146668 0.44494668 2.1140001
-0.014093334 0.44494668 2.1140001
-0.0060400004 0.44494668 2.1140001
0.0032213335 0.44454405 2.1140001
0.01208 0.44293335 2.1140001
-0.04026667 0.45903999 2.1140001
-0.034226667 0.45903999 2.1140001
-0.023009526 0.45558858 2.1140003
-0.014093334 0.45501333 2.1140003
-0.0056373337 0.45501333 2.1140001
0.0035233335 0.45551664 2.1140001
0.014093334 0.45702666 2.1140001
-0.044293337 0.4630667 2.1140001
-0.03355556 0.46440893 2.1140001
-0.024160001 0.4630667 2.1140001
-0.014093334 0.4630667 2.1140001
-0.0060400004 0.4630667 2.1140001
0.0020133334 0.4630667 2.1140001
-0.048319999 0.47313336 2.1140001
-0.034629334 0.47434136 2.1140001
-0.024965335 0.47756267 2.1140001
-0.014093333 0.47716001 2.1140001
-0.0040266667 0.47514668 2.1140001
0.0032213335 0.47353601 2.1140001
0.014093334 0.47514668 2.1140001
-0.03624 0.48320001 2.1140001
-0.026173333 0.48521334 2.1140001
-0.033220001 0.49427336 2.1140001
-0.026173335 0.49930668 2.1140001
-0.032213334 0.50534666 2.1140001
-0.0060400004 0.51944005 2.1140001
0.0020133334 0.51944005 2.1140001
-0.03355556 0.52615118 2.1140001
-0.01208 0.52548003 2.1140001
-0.0060400004 0.52547997 2.1140001
0.0020133334 0.52547997 2.1140001
-0.033824001 0.53474134 2.1140001
-0.013422223 0.53420448 2.1140001
-0.0060400004 0.53353333 2.1140001
0.0020133334 0.53353339 2.1140001
-0.03355556 0.54628444 2.1140001
-0.042682674 0.55487472 2.1140001
-0.033824001 0.55487472 2.1140001
-0.028186668 0.55165333 2.1140001
-0.044293337 0.5637334 2.1140001
0.36868 -0.30790859 2.1270001
0.37273145 -0.30588287 2.1270001
0.36564142 -0.29474145 2.1270001
0.32411432 -0.27144572 2.1270003
0.33221716 -0.27144572 2.1270001
0.34032005 -0.27549717 2.1270003
0.30655813 -0.26469335 2.1270003
0.31398571 -0.26536858 2.1270001
0.32411429 -0.26577374 2.1270001
0.33221716 -0.26536858 2.1270001
0.34032002 -0.2673943 2.1270001
0.29845527 -0.25253907 2.1270003
0.30588287 -0.25524002 2.1270001
0.32816571 -0.25524002 2.1270003
0.33221716 -0.25524002 2.1270001
0.29778004 -0.24511144 2.1270001
0.32816571 -0.24511144 2.1270001
0.33491811 -0.24443619 2.1270003
0.34032002 -0.24511144 2.1270001
0.28603086 -0.23417258 2.1270001
0.29524785 -0.23548929 2.1270001
0.32816571 -0.23700857 2.1270001
0.33424285 -0.23700857 2.1270001
0.34275088 -0.2333623 2.1270001
0.3524743 -0.23093143 2.1270001
0.27954856 -0.22282858 2.1270001
0.28562573 -0.22485431 2.1270001
0.29372859 -0.22485431 2.1270001
0.3524743 -0.22688001 2.1270001
0.27792799 -0.215536 2.1270001
0.28765145 -0.21877715 2.1270001
0.29170287 -0.21877715 2.1270001
0.27414668 -0.20392191 2.1270003
0.27499074 -0.19396217 2.1270001
0.2673943 -0.18434 2.1270001
0.27279621 -0.18501525 2.1270003
0.26638144 -0.17319858 2.1270001
0.27144572 -0.17623715 2.1270001
0.25929144 -0.16408285 2.1270001
0.26334286 -0.16408285 2.1270001
0.25726575 -0.15598001 2.1270001
0.25625288 -0.1468643 2.1270001
0.25524002 -0.13572286 2.1270001
0.24713716 -0.1255943 2.1270003
0.25118858 -0.1255943 2.1270003
0.24511144 -0.11546572 2.1270001
0.23741372 -0.10452686 2.1270001
0.24308571 -0.10938857 2.1270001
0.23579314 -0.094803445 2.1270001
0.22688001 -0.081028573 2.1270001
0.23295715 -0.085080013 2.1270001
0.22688001 -0.074951433 2.1270001
0.23417257 -0.074546292 2.1270001
0.22688001 -0.068874285 2.1270001
0.23498288 -0.068874285 2.1270003
0.24308571 -0.068874285 2.1270001
0.20662287 -0.042539999 2.1270001
0.21067429 -0.042539999 2.1270001
0.22688001 -0.040514287 2.1270001
0.19852 -0.03241143 2.1270001
0.20459715 -0.034437142 2.1270001
0.21067429 -0.036462858 2.1270001
0.23093143 -0.036462858 2.1270001
0.19446857 -0.024308573 2.1270001
0.18636572 -0.012154287 2.1270001
0.19041714 -0.016205715 2.1270001
0.18231429 -0.0060771434 2.1270001
0.17826286 0 2.1270001
0.18434 0.0040514292 2.1270001
0.18501525 0.013504764 2.1270003
0.18636572 0.024308573 2.1270003
0.18636572 0.03241143 2.1270001
0.19041714 0.036462858 2.1270001
0.18636572 0.048617147 2.1270001
0.19041714 0.040514287 2.1270001
0.18636572 0.052668571 2.1270001
0.19041714 0.056720003 2.1270001
0.19041714 0.062797144 2.1270001
