# .PCD v0.7 - Point Cloud Data file format
VERSION 0.7
FIELDS x y z
SIZE 4 4 4
TYPE F F F
COUNT 1 1 1
WIDTH 1474
HEIGHT 1
VIEWPOINT 0 0 0 1 0 0 0
POINTS 1474
DATA ascii
-0.2176 0.068906672 1.904
-0.22122668 0.072533339 1.904
-0.21518223 0.073742226 1.904
-0.03626667 0.12693334 1.904
-0.1535289 0.13660446 1.904
-0.14869334 0.13781334 1.904
-0.056213334 0.13056 1.904
-0.025386667 0.13176888 1.904
-0.014506668 0.13660446 1.904
-0.0072533335 0.13781334 1.904
0 0.13781334 1.904
-0.16320001 0.14325334 1.904
-0.15957333 0.14144 1.904
-0.0036266667 0.14144 1.904
0.0036266667 0.14144 1.904
0.014506668 0.14446223 1.9040002
0.024661334 0.14651734 1.9040002
0.037173335 0.14597334 1.904
0.04472889 0.14748445 1.904
-0.17045332 0.15957333 1.904
-0.16682667 0.15413333 1.904
0.045333333 0.15232 1.904
0.052586667 0.15775999 1.904
-0.16682667 0.16501334 1.904
0.052586667 0.16501334 1.904
0.068906672 0.16682667 1.904
0.072533339 0.16682667 1.904
-0.16501334 0.17498668 1.904
0.054853331 0.17453334 1.9040002
0.065279998 0.17408 1.9040002
0.074709333 0.17408 1.9040002
-0.16320001 0.18314667 1.904
-0.15775999 0.18858667 1.904
0.047146667 0.18496001 1.904
0.053946663 0.18450665 1.9040002
0.065280005 0.18314669 1.9040002
0.073984005 0.18568534 1.9040002
-0.15775999 0.19221334 1.904
0.018133335 0.19946666 1.904
0.025386667 0.19946668 1.904
0.035359997 0.19674666 1.904
0.04352 0.19584 1.904
0.054400004 0.19221334 1.904
0.064373329 0.19312 1.904
0.072533339 0.19221334 1.904
0.014506668 0.20430224 1.904
0.025386667 0.20309334 1.904
0.01088 0.21034667 1.904
-0.17045332 0.55850667 1.904
-0.16501334 0.55669332 1.904
-0.15957333 0.55850667 1.904
-0.17335467 0.567936 1.9040002
-0.16465068 0.56648535 1.9040002
-0.15594667 0.56575996 1.9040002
-0.17226666 0.5748266 1.904
-0.16501334 0.5748266 1.904
-0.15775999 0.5748266 1.904
-0.19221334 0.58570671 1.904
-0.18496001 0.58752 1.904
-0.1730438 0.5844115 1.9040003
-0.19221334 0.59114671 1.904
-0.18641067 0.59332269 1.9040002
-0.17589334 0.59114671 1.904
-0.2644524 -0.040123809 1.9150001
-0.26262859 -0.036476191 1.9150001
-0.2480381 0.0072952383 1.9150001
-0.2480381 0.012766667 1.9150001
-0.2480381 0.027357144 1.9150001
-0.24439049 0.034652382 1.9150001
-0.21520953 0.036476191 1.9150002
-0.24256667 0.040123809 1.9150001
-0.23490667 0.043041907 1.9150002
-0.22660834 0.043315474 1.9150001
-0.21593907 0.041582856 1.9150002
-0.22615239 0.054714285 1.9150001
-0.21468848 0.053672113 1.9150002
-0.23527144 0.065657146 1.9150002
-0.22660834 0.065201186 1.9150001
-0.21666859 0.064927623 1.9150002
-0.23527144 0.074776195 1.9150001
-0.22688191 0.075140953 1.9150002
-0.21885714 0.0766 1.9150001
-0.23344763 0.085719049 1.9150001
-0.22615239 0.083895244 1.9150001
-0.21885714 0.083895251 1.9150002
-0.24543266 0.094317012 1.9150002
-0.23344763 0.09119048 1.9150001
-0.22615239 0.093014292 1.9150002
-0.21885714 0.09119048 1.9150001
-0.034652382 0.12584285 1.9150001
-0.029180953 0.12766667 1.9150001
-0.16231905 0.13860953 1.9150001
-0.15684763 0.1349619 1.9150001
-0.14955239 0.13313809 1.9150001
-0.021885715 0.13131429 1.9150001
-0.013860953 0.13277332 1.9150002
-0.0048634922 0.13617778 1.9150002
0.0036476194 0.13739365 1.9150002
0.013678572 0.13769762 1.9150001
0.025533333 0.13860953 1.9150002
0.034652382 0.13860953 1.9150001
0.043771427 0.13860953 1.9150002
-0.17326191 0.14772858 1.9150001
-0.1677905 0.14590478 1.9150002
0.014590477 0.14225715 1.9150001
0.025533333 0.14225715 1.9150002
0.034652382 0.14225715 1.9150001
0.044683333 0.14316906 1.9150001
0.054714289 0.14590476 1.9150001
0.065201193 0.14636073 1.9150001
0.074776188 0.14955239 1.9150001
-0.18238096 0.15684763 1.9150001
-0.17508572 0.15502381 1.9150002
0.055626191 0.15411191 1.9150001
0.065657146 0.15502381 1.9150002
0.074776188 0.15502381 1.9150001
0.083895236 0.15502381 1.9150002
0.09119048 0.1532 1.9150001
-0.17554167 0.16459882 1.9150001
0.05836191 0.16414288 1.9150002
0.065201193 0.16368692 1.9150001
0.075140953 0.16341333 1.9150002
0.083895236 0.16414286 1.9150001
0.092102386 0.16414286 1.9150001
0.10213334 0.16414286 1.9150001
-0.17404357 0.17456464 1.9150002
-0.16779049 0.17508572 1.9150001
0.0766 0.17508572 1.9150001
0.084351197 0.17508574 1.9150001
0.093926191 0.17417382 1.9150001
0.10334921 0.17386985 1.9150002
-0.17326191 0.18420476 1.9150001
-0.16657463 0.18602857 1.9150002
0.0766 0.18238096 1.9150001
0.083374158 0.18498641 1.9150002
-0.16414286 0.19332381 1.9150001
0.046203177 0.1945397 1.9150002
0.056538098 0.19697143 1.9150001
0.067480952 0.19697143 1.9150001
0.075384125 0.19575557 1.9150002
0.080247618 0.19332381 1.9150001
0.016414287 0.20791429 1.9150001
0.025533333 0.20791429 1.9150002
0.035017144 0.20499621 1.9150002
0.043250341 0.2032245 1.9150002
0.016414287 0.21156192 1.9150001
0.025533333 0.21156192 1.9150002
0.032828573 0.21156192 1.9150001
-0.16195428 0.55516762 1.9150002
-0.15538858 0.55516762 1.9150002
-0.15502381 0.56173331 1.9150001
0.18724446 0.57875562 1.9150002
0.19332381 0.57997143 1.9150001
0.15684763 0.58726668 1.9150001
0.16779049 0.58726668 1.9150001
0.1763016 0.58483493 1.9150002
0.18602857 0.58361906 1.9150002
-0.20061906 0.59820956 1.9150001
-0.19575557 0.59699368 1.9150002
0.15502381 0.59456193 1.9150002
0.16414288 0.59456193 1.9150001
-0.27377781 -0.041555554 1.9250001
-0.27316669 -0.034833334 1.9250001
-0.26766667 -0.034833334 1.9250001
-0.23833334 0.047666669 1.9250001
-0.23512502 0.055000003 1.9250001
-0.22488889 0.055611115 1.9250001
-0.21633334 0.058666669 1.9250001
-0.242 0.077000007 1.9250001
-0.24383335 0.08433333 1.9250001
-0.23741668 0.083416663 1.9250001
-0.242 0.097166672 1.9250001
-0.2358889 0.096555561 1.9250001
-0.22733334 0.099000007 1.9250001
-0.24444446 0.10388889 1.9250001
-0.23344445 0.10388889 1.9250001
-0.15216668 0.12833333 1.9250001
-0.033 0.12466668 1.9250001
-0.024933336 0.12613335 1.9250001
-0.015583333 0.12741667 1.9250001
-0.17477779 0.13811113 1.9250001
-0.16591667 0.13658334 1.9250001
-0.15583333 0.132 1.9250001
-0.0055 0.132 1.9250001
0.0036666668 0.13383333 1.9250001
0.015583333 0.13383335 1.9250001
0.026583333 0.13475001 1.9250001
0.034222223 0.13444446 1.9250001
0.044 0.13475001 1.9250001
0.055000003 0.13750003 1.9250001
0.06508334 0.13841668 1.9250001
-0.18333334 0.14666666 1.9250001
-0.17691666 0.14391667 1.9250001
0.069666669 0.14300001 1.9250001
0.075166672 0.14483333 1.9250001
0.083416663 0.14575 1.9250001
-0.18516667 0.15400001 1.9250001
-0.17966667 0.15033334 1.9250001
0.08433333 0.15033334 1.9250001
0.095333345 0.15452382 1.9250002
0.10388889 0.15644446 1.9250001
-0.18425 0.16408333 1.9250001
0.097533338 0.16500001 1.9250001
0.10486666 0.16500001 1.9250001
0.11320834 0.16545834 1.9250001
-0.18333334 0.17233334 1.9250001
-0.17966667 0.17783333 1.9250001
0.096066676 0.17673333 1.9250001
0.10511111 0.17722224 1.9250001
0.11366667 0.176 1.9250001
0.121 0.17416668 1.9250001
0.095333338 0.18516669 1.9250001
0.1045 0.18516667 1.9250001
0.11366668 0.18516669 1.9250001
0.051333334 0.19800001 1.9250001
0.085380957 0.19485717 1.9250002
0.095333338 0.19433331 1.9250001
0.1045 0.19433336 1.9250001
0.11314287 0.19538097 1.9250002
0.121 0.19616666 1.9250001
0.055523816 0.20428573 1.9250002
0.065476194 0.20428573 1.9250002
0.075166665 0.2035 1.9250001
0.08433333 0.20350002 1.9250001
0.095333338 0.20350002 1.9250001
0.1045 0.20166668 1.9250001
0.16866668 0.53900003 1.9250001
0.16499999 0.54450005 1.9250001
0.17526667 0.54486674 1.9250001
0.16500001 0.55183339 1.9250001
0.176 0.55183333 1.9250001
0.16866668 0.56100005 1.9250001
0.17416668 0.56466669 1.9250001
0.18516667 0.56833333 1.9250001
0.19311111 0.56711113 1.9250001
0.13566668 0.57933336 1.9250001
0.14666666 0.57933336 1.9250001
0.15400001 0.57688892 1.9250001
0.16866668 0.57566667 1.9250001
0.17554167 0.57566667 1.9250001
0.18516667 0.57566667 1.9250001
0.19506668 0.57566667 1.9250001
0.12833333 0.583 1.9250001
0.13383335 0.583 1.9250001
0.14483333 0.58483332 1.9250001
0.15400003 0.58483332 1.9250001
0.16500001 0.58483332 1.9250001
0.17508334 0.58391666 1.9250001
0.18700001 0.583 1.9250001
0.19433333 0.58666664 1.9250001
0.14446667 0.59326667 1.9250001
0.15216668 0.59033334 1.9250001
0.16316667 0.59033334 1.9250001
0.18516669 0.59400004 1.9250001
0.1918889 0.5915556 1.9250001
-0.28025904 -0.051626671 1.9360001
-0.27657145 -0.051626671 1.9360001
-0.28173408 -0.043513905 1.9360001
-0.27657145 -0.047939051 1.9360001
-0.28025904 -0.035032384 1.9360001
-0.24338287 0.10694096 1.9360001
-0.23723684 0.10571176 1.9360002
-0.24338287 0.11247239 1.9360001
-0.23600762 0.1124724 1.9360001
-0.22678858 0.1143162 1.9360001
-0.23232001 0.12353525 1.9360001
-0.22863239 0.12353525 1.9360001
-0.17700572 0.12906668 1.9360001
-0.16594288 0.12906668 1.9360002
-0.15856762 0.12906668 1.9360001
-0.025813336 0.12169144 1.9360001
-0.012906667 0.12537906 1.9360001
-0.0055314293 0.12722287 1.9360001
0.0027657144 0.12630096 1.9360001
0.014750478 0.12685411 1.9360001
0.025813337 0.12906668 1.9360002
0.035032384 0.12906668 1.9360001
0.044251435 0.12906668 1.9360002
-0.18364345 0.13496688 1.9360001
-0.17454731 0.13398351 1.9360002
-0.16594288 0.1327543 1.9360002
0.0073752385 0.1327543 1.9360001
0.014750477 0.1327543 1.9360001
0.023969525 0.1327543 1.9360001
0.03687619 0.1327543 1.9360001
0.044251431 0.1327543 1.9360001
0.055314288 0.1327543 1.9360002
0.064533338 0.13459811 1.9360001
0.073752388 0.13644192 1.9360002
-0.18438096 0.14289524 1.9360001
0.075596191 0.14012952 1.9360001
0.084815241 0.14197333 1.9360001
0.095878109 0.14750478 1.9360002
-0.1917562 0.15672381 1.9360001
-0.18806858 0.1511924 1.9360001
0.099565722 0.1511924 1.9360001
0.10571176 0.15242161 1.9360002
0.11431621 0.15672381 1.9360001
0.12464154 0.15635505 1.9360001
0.13459811 0.15856762 1.9360001
-0.1917562 0.16225524 1.9360001
-0.18806858 0.16778667 1.9360001
0.11800382 0.16225524 1.9360001
0.12432547 0.16646968 1.9360001
0.1327543 0.16963048 1.9360001
0.12722287 0.17516191 1.9360001
0.12432547 0.18490778 1.9360001
0.11616001 0.1917562 1.9360001
0.12611659 0.19323125 1.9360001
0.15672381 0.53839236 1.9360001
0.16409905 0.53839236 1.9360001
0.15534095 0.54530674 1.936
0.16409905 0.54207999 1.9360001
0.15856762 0.55314291 1.9360001
0.16594286 0.55498672 1.9360001
0.15856762 0.56789333 1.9360001
0.16655746 0.56482029 1.9360001
0.17553067 0.56420571 1.9360001
0.18069334 0.5623619 1.9360001
0.14627557 0.57772708 1.9360002
0.15561752 0.57379359 1.9360001
0.16548191 0.57526857 1.936
0.1733181 0.57158101 1.9360001
0.18345906 0.57711244 1.9360001
0.19544384 0.57772708 1.9360002
0.20281905 0.57526863 1.9360001
0.14135873 0.58387303 1.9360002
0.15672381 0.58264387 1.9360001
0.16409905 0.58264387 1.9360001
0.14012952 0.59186286 1.9360001
-0.28926858 -0.040794287 1.9470001
-0.28741431 -0.03523143 1.9470001
-0.24662003 0.046357147 1.9470001
-0.24662003 0.05192 1.9470001
-0.2257593 0.10430358 1.9470003
-0.24291146 0.11867429 1.9470001
-0.2354943 0.11867429 1.9470001
-0.22622287 0.11434762 1.9470003
0.048211433 0.11867429 1.9470001
0.05377429 0.11867429 1.9470001
-0.24229336 0.12361906 1.9470003
-0.23734859 0.12423715 1.9470001
-0.22622287 0.12238287 1.9470001
-0.17430288 0.12980001 1.9470001
0.0055628577 0.12980001 1.9470001
0.014834287 0.12980001 1.9470001
0.025960004 0.12609145 1.9470003
0.03523143 0.12609144 1.9470001
0.045244575 0.124608 1.9470001
0.055165 0.12609144 1.9470003
0.063045718 0.12980001 1.9470001
-0.19284573 0.13721716 1.9470001
0.066754289 0.13350858 1.9470001
0.076025724 0.13350858 1.9470001
0.083442859 0.13721716 1.9470001
-0.19377288 0.14556143 1.9470001
-0.18913715 0.14278001 1.9470001
0.089005724 0.14092572 1.9470001
0.094568573 0.14278001 1.9470001
0.10384001 0.14648858 1.9470001
0.11311144 0.14834286 1.9470001
0.13350858 0.14834286 1.9470001
-0.19562715 0.15483287 1.9470001
0.11496572 0.15205143 1.9470003
0.12701859 0.15390572 1.9470001
0.13536286 0.15390573 1.9470001
0.14389259 0.15724346 1.9470001
-0.19470002 0.16503143 1.9470001
0.12980001 0.16503143 1.9470001
0.13536286 0.16503143 1.9470001
0.14278001 0.16503143 1.9470001
-0.19284573 0.17244858 1.9470001
-0.18728286 0.17615716 1.9470001
0.13573372 0.17504458 1.9470001
0.14216191 0.17183051 1.9470003
-0.18357429 0.18542857 1.9470001
0.12980001 0.18357429 1.9470001
0.13350858 0.18357429 1.9470001
0.14834286 0.5525772 1.9470001
0.15576002 0.55721289 1.9470001
0.15946859 0.56555718 1.9470001
0.16317715 0.56555718 1.9470001
-0.29090285 -0.044754285 1.9580001
-0.29463241 -0.035430476 1.9580001
0.037295237 0.11934476 1.9580001
0.042889524 0.11934476 1.9580001
0.016782857 0.12307428 1.9580001
0.037295237 0.12307428 1.9580001
0.041024763 0.12307428 1.9580001
0.059672382 0.1268038 1.9580001
0.065266669 0.12493904 1.9580001
0.076455235 0.12493904 1.9580001
-0.19766477 0.13799238 1.9580001
0.06713143 0.13053332 1.9580001
0.073658094 0.1314657 1.9580001
0.085779056 0.13364127 1.9580001
0.095102862 0.13426286 1.9580001
0.10442667 0.13612762 1.9580001
0.11561524 0.13612762 1.9580001
0.12307428 0.13799238 1.9580001
0.13612762 0.13799238 1.9580001
0.1417219 0.13799238 1.9580001
-0.19766477 0.14358667 1.9580001
0.10535905 0.14265428 1.9580001
0.11614803 0.14438586 1.9580002
0.12493905 0.14545143 1.9580001
0.13426286 0.14498523 1.9580001
0.14545143 0.14591761 1.9580001
0.15291047 0.14918095 1.9580001
0.14545143 0.15291047 1.9580001
0.15477523 0.15477523 1.9580001
0.16161269 0.15539682 1.9580001
-0.19766477 0.16782857 1.9580001
0.14918095 0.16409904 1.9580001
0.15477523 0.16409904 1.9580001
0.16036952 0.16409904 1.9580001
-0.19207048 0.17901714 1.9580001
0.1466946 0.17653081 1.9580001
0.15477523 0.17528763 1.9580001
0.16036952 0.17342286 1.9580001
-0.1914489 0.18398985 1.9580001
0.13799238 0.18461142 1.9580001
0.14470552 0.18423848 1.9580001
0.15477523 0.18274666 1.9580001
-0.19020571 0.19207048 1.9580001
-0.18523303 0.19269207 1.9580001
0.13612762 0.19207048 1.9580001
0.1417219 0.19020571 1.9580001
0.1466946 0.5581854 1.9580001
0.15291047 0.55942857 1.9580001
0.14918095 0.56502289 1.9580001
0.15415365 0.5656445 1.9580001
0.15477523 0.57061714 1.9580001
0.15291047 0.58553523 1.9580001
0.097512387 0.10876381 1.9690001
0.10126286 0.10876381 1.9690001
0.024378095 0.12189049 1.9690001
0.032504126 0.12251556 1.9690002
0.074071907 0.1228281 1.9690001
0.084010676 0.12451581 1.9690001
0.094230719 0.12423453 1.969
0.10426324 0.12601601 1.9690001
0.11438952 0.1275162 1.9690001
0.1212654 0.12626605 1.9690002
0.13501716 0.1275162 1.9690002
0.1425181 0.1275162 1.9690001
0.090011433 0.13126667 1.9690001
0.10501334 0.13126668 1.9690002
0.11438952 0.13126667 1.9690001
0.12501588 0.13376698 1.9690001
0.13448137 0.13394558 1.9690001
0.14476839 0.13426705 1.9690001
0.15330072 0.13548595 1.969
0.16127048 0.13876763 1.9690001
0.14626858 0.1425181 1.9690001
0.15564477 0.14439334 1.9690001
0.16408335 0.14533097 1.9690001
-0.20252572 0.15564477 1.9690001
0.15752001 0.15001905 1.9690001
0.16627112 0.15251938 1.9690001
0.17402211 0.15451962 1.9690001
0.18377334 0.15752003 1.9690002
-0.20252572 0.16314572 1.9690001
0.16689621 0.16502097 1.9690001
0.17439717 0.16502097 1.9690001
0.18002287 0.16127048 1.9690001
-0.19877525 0.17252192 1.9690001
0.16689619 0.17439717 1.9690001
0.17377208 0.17377208 1.9690002
-0.25128192 0.1818981 1.9690001
-0.19502477 0.18752381 1.9690001
0.15376954 0.18752381 1.9690002
0.16455215 0.18330452 1.969
0.17252192 0.18002287 1.9690001
-0.19502477 0.19314954 1.9690001
0.14626858 0.1912743 1.9690001
0.15376954 0.19127432 1.9690002
0.16502097 0.19127432 1.9690002
-0.2212781 0.20252572 1.9690001
-0.21752763 0.20252572 1.9690001
0.14376827 0.56507176 1.9690002
0.14626858 0.57007241 1.9690001
0.092400007 0.10937144 1.9800001
0.095040016 0.11540572 1.9800001
0.11314286 0.11691429 1.9800001
0.03017143 0.12068572 1.9800001
0.086742863 0.12068572 1.9800001
0.090514295 0.12068572 1.9800001
0.10654287 0.12162858 1.9800001
0.11502858 0.12257143 1.9800001
0.12540001 0.12445716 1.9800001
0.13577144 0.12445715 1.9800003
0.14582859 0.1257143 1.9800003
0.15387429 0.12672 1.9800001
0.1584 0.132 1.9800001
0.16500001 0.13671428 1.9800001
0.17348573 0.13954286 1.9800001
0.16782859 0.1433143 1.9800001
0.17474286 0.14582859 1.9800003
0.18291429 0.14708573 1.9800001
-0.20617144 0.15462857 1.9800003
0.17725715 0.15085715 1.9800001
0.18480001 0.15274286 1.9800003
0.19485717 0.15588573 1.9800003
-0.20648572 0.16688573 1.9800001
0.18527144 0.16641431 1.9800003
0.19422859 0.16217144 1.9800001
-0.25457144 0.17725715 1.9800001
-0.24702859 0.17537144 1.9800001
-0.20617144 0.17474286 1.9800003
-0.19988573 0.17725715 1.9800001
0.17725715 0.17725715 1.9800001
0.18228573 0.17474286 1.9800003
-0.25551432 0.18574287 1.9800001
-0.2464 0.18354288 1.9800003
-0.19988573 0.18102859 1.9800001
0.1697143 0.18857144 1.9800001
0.17574859 0.18555431 1.9800001
0.18102859 0.18480001 1.9800001
-0.25394288 0.19485717 1.9800003
-0.24765716 0.19737145 1.9800003
-0.23005715 0.19800001 1.9800001
-0.22440001 0.19988573 1.9800001
-0.21120001 0.19800001 1.9800001
-0.20742859 0.19800001 1.9800001
-0.19988573 0.19422859 1.9800001
-0.22628573 0.20365715 1.9800001
0.087268576 0.11762286 1.9920001
0.091062859 0.11382858 1.9920001
0.10434286 0.11572572 1.9920001
0.11382857 0.11762286 1.9920001
0.12521143 0.12141715 1.9920001
0.15936001 0.12521143 1.9920001
0.16441905 0.12774096 1.9920001
0.16694857 0.13469714 1.9920001
0.17377831 0.13507657 1.9920002
-0.20489144 0.14797714 1.9920001
0.17833145 0.14228573 1.9920001
0.18516114 0.14342402 1.9920002
0.19540572 0.14797714 1.9920001
0.20109715 0.14797714 1.9920001
-0.23398095 0.15809524 1.9920001
-0.21248001 0.15746287 1.9920001
-0.20868573 0.15177144 1.9920001
0.19730286 0.15177144 1.9920001
0.20337372 0.15480688 1.9920002
-0.23145144 0.16315429 1.9920001
-0.21374476 0.16568381 1.9920001
0.19540572 0.16694857 1.9920001
0.20109715 0.16505143 1.9920001
-0.22006857 0.17833145 1.9920001
-0.21342859 0.17548573 1.9920001
-0.20489144 0.17833145 1.9920001
0.18781716 0.17643431 1.9920001
0.19477335 0.17200765 1.9920001
-0.24409907 0.18844955 1.9920001
-0.23372801 0.18743773 1.9920002
-0.22196573 0.18212572 1.9920001
-0.21342857 0.18497144 1.9920001
-0.20536573 0.18639429 1.9920003
0.18402286 0.18402286 1.9920001
-0.25421715 0.19730286 1.9920001
-0.24473146 0.19540572 1.9920001
-0.23600459 0.19502629 1.9920002
-0.22386287 0.19540572 1.9920003
-0.21500954 0.19477335 1.9920001
-0.20615622 0.19477335 1.9920001
-0.25801143 0.20109715 1.9920001
-0.2428343 0.20109715 1.9920001
-0.23524572 0.20299429 1.9920001
-0.22006857 0.20109715 1.9920001
-0.21627429 0.20109715 1.9920001
-0.0056914287 0.22576001 1.9920001
-0.041737143 0.23334858 1.9920001
-0.035097145 0.23240001 1.9920001
-0.0075885719 0.23145144 1.9920001
0.11254953 0.11445715 2.003
0.12399524 0.11827239 2.003
0.1297181 0.12208762 2.003
0.13353334 0.12208762 2.003
0.16787048 0.12590286 2.003
0.17550096 0.12781048 2.0030003
0.18503904 0.1297181 2.003
0.17931619 0.13353334 2.003
0.18503906 0.13544096 2.003
0.19362333 0.13639477 2.003
-0.21365333 0.14879429 2.003
-0.20856635 0.14625081 2.003
0.19457714 0.14307144 2.0030003
0.20449677 0.144216 2.003
-0.23272952 0.15642476 2.003
-0.22509906 0.15642476 2.003
-0.21619682 0.15388128 2.003
0.20983809 0.15642476 2.003
-0.23272952 0.16787048 2.003
-0.22509904 0.16405524 2.003
-0.21746856 0.16214761 2.003
0.20729461 0.16405523 2.003
-0.23425563 0.176264 2.003
-0.22557595 0.17502406 2.003
-0.21746856 0.17359333 2.003
0.19553095 0.17836238 2.003
0.2047511 0.17486507 2.0030003
0.21619682 0.1767727 2.003
-0.24036001 0.18503904 2.003
-0.23654477 0.18503904 2.003
-0.22605285 0.18599287 2.003
-0.21746856 0.18694668 2.003
0.18694668 0.18694668 2.003
0.19076191 0.18313143 2.003
-0.22509906 0.19076191 2.003
-0.21746856 0.19076191 2.003
0.18694668 0.19076191 2.003
-0.030521905 0.22891429 2.003
-0.024799047 0.22891429 2.003
-0.013989206 0.22764254 2.003
-0.062951431 0.23463714 2.003
-0.045782857 0.23463714 2.003
-0.032429524 0.23654477 2.003
-0.024799047 0.23463714 2.003
-0.015260953 0.23463717 2.0030003
-0.0050869845 0.23527303 2.003
0.0030521906 0.23425563 2.003
0.011445714 0.23272952 2.003
-0.041967619 0.24036001 2.003
-0.034337144 0.24036001 2.003
-0.023845237 0.24322143 2.003
-0.015260952 0.24417526 2.003
-0.0066766669 0.24322145 2.003
0 0.24036001 2.003
-0.011445714 0.25371334 2.003
-0.0076304763 0.25371334 2.003
0.13241428 0.11898096 2.0150001
0.13817143 0.12281905 2.0150001
0.14776668 0.12281905 2.0150001
0.15544286 0.12281905 2.0150001
0.16503811 0.12281905 2.0150001
0.17271429 0.12281905 2.0150001
0.18614763 0.12665714 2.0150001
0.19574288 0.12665716 2.0150001
0.20533811 0.12665714 2.0150001
0.19651048 0.13203047 2.0150001
0.20533812 0.13433334 2.0150003
-0.23028573 0.14776668 2.0150001
-0.22491241 0.14661525 2.0150001
-0.21589285 0.14584763 2.0150001
-0.20725715 0.14200953 2.0150001
0.2133981 0.14738289 2.0150001
-0.23028573 0.15352382 2.0150001
-0.22452858 0.15352382 2.0150001
0.21570097 0.15505907 2.0150001
0.21493334 0.16439843 2.0150003
-0.27442384 0.17463335 2.0150001
0.21493334 0.17271429 2.0150001
0.19574288 0.18614762 2.0150001
0.20725715 0.18039048 2.0150001
0.21301429 0.18039048 2.0150001
0.19190477 0.19190477 2.0150001
-0.055652384 0.23604286 2.0150001
-0.049895242 0.23604287 2.0150001
0.0076761907 0.23796192 2.0150001
-0.053733334 0.24180001 2.0150001
-0.047976192 0.24180001 2.0150001
-0.032623813 0.2456381 2.0150001
-0.026866667 0.2456381 2.0150001
-0.0038380953 0.24755715 2.0150001
0.0031984129 0.24563812 2.0150003
-0.015352381 0.25331429 2.0150001
-0.0038380953 0.25523335 2.0150001
0.0019190477 0.25523335 2.0150001
-0.0057571428 0.26099047 2.0150001
0.0019190477 0.26099047 2.0150001
0.15057716 0.11968953 2.0270002
0.16602097 0.11872429 2.0270002
0.17374288 0.11775906 2.0270002
0.14285526 0.12355049 2.0270002
0.17760383 0.12355049 2.0270002
0.18532573 0.1235505 2.0270002
0.19304763 0.12355049 2.0270002
0.20463049 0.1235505 2.0270002
0.2123524 0.12355049 2.0270002
0.21389678 0.13590553 2.0270002
0.2200743 0.13706383 2.0270002
-0.22200477 0.14285526 2.0270002
-0.21621335 0.14285526 2.0270002
0.21621335 0.14478573 2.0270002
0.22316305 0.14517184 2.0270002
0.23551813 0.14671621 2.0270002
0.24324001 0.14671621 2.0270002
-0.27412766 0.15829906 2.0270002
0.22586572 0.15443812 2.0270004
0.23551811 0.15443812 2.0270002
0.24324001 0.15057716 2.0270002
-0.27461028 0.16553836 2.0270002
0.21621335 0.16988192 2.0270002
0.22470744 0.16679317 2.0270002
0.23358764 0.16216002 2.0270002
-0.29536289 0.17567335 2.0270002
-0.28571048 0.17567335 2.0270004
0.22393525 0.17374288 2.0270002
0.20540269 0.18764231 2.0270002
0.21428287 0.1872562 2.0270002
0.19690858 0.19304763 2.0270002
0.20076953 0.19304763 2.0270002
0.21621335 0.19304763 2.0270002
0.011582858 0.23937906 2.0270002
0.023165716 0.23551811 2.0270002
0.0077219056 0.24710098 2.0270002
-0.023165716 0.25482288 2.0270002
-0.019304764 0.25482288 2.0270002
0.0077219061 0.25482285 2.0270002
0.11457238 0.11263048 2.039
0.13593332 0.11457238 2.039
0.14758477 0.11651429 2.039
0.15535238 0.11651429 2.039
0.16312 0.11651429 2.039
0.17088762 0.11651429 2.039
0.20843112 0.11392508 2.039
0.21490413 0.11392508 2.039
0.13981713 0.1203981 2.039
0.14564286 0.1203981 2.039
0.15729427 0.1203981 2.039
0.17865524 0.1203981 2.039
0.18448095 0.1203981 2.039
0.19613239 0.12234001 2.039
0.2058419 0.1203981 2.039
0.21555144 0.12525286 2.039
-0.22526096 0.13981713 2.039
0.21749334 0.13204953 2.039
0.22396636 0.13593332 2.039
0.23302858 0.13981713 2.039
0.22914477 0.14370096 2.039
0.23497048 0.14370096 2.039
0.2427381 0.14370096 2.039
-0.2959463 0.15768266 2.039
-0.28546 0.15923619 2.039
-0.27652723 0.15379885 2.039
-0.29516953 0.16506192 2.039
-0.28546 0.16506191 2.039
0.22720286 0.16700381 2.039
0.23302858 0.16700381 2.039
-0.29516956 0.17088763 2.039
-0.28546 0.17088762 2.039
0.23302858 0.17088762 2.039
0.20778382 0.19419049 2.039
0.21360953 0.19419049 2.039
0.027186668 0.23691238 2.039
-0.044663809 0.24856381 2.039
-0.038838092 0.24856381 2.039
0.013981714 0.24545677 2.039
0.044663809 0.24468 2.039
0.050489523 0.24468 2.039
0.013593334 0.25438952 2.039
0.013593333 0.26021525 2.039
0.14454667 0.10938667 2.0510001
0.15236001 0.10938667 2.0510001
0.20705333 0.10938667 2.0510001
0.21291333 0.10938667 2.0510001
0.14376535 0.114856 2.0510004
0.15431334 0.11329334 2.0510001
0.16408001 0.11329334 2.0510001
0.17580001 0.11459556 2.0510001
0.18491554 0.11589779 2.0510001
0.19611469 0.11563734 2.0510004
0.20444891 0.11589779 2.0510001
0.21877334 0.1172 2.0510001
0.22268 0.1172 2.0510001
0.19533335 0.12110668 2.0510001
0.21877334 0.12110668 2.0510001
0.22463334 0.12696667 2.0510001
0.22658668 0.13282667 2.0510001
0.23361866 0.13517068 2.0510004
0.24416669 0.13673334 2.0510001
-0.30276668 0.14454669 2.0510004
-0.29495335 0.14454669 2.0510004
-0.28648892 0.14519779 2.0510004
-0.22268 0.14064001 2.0510001
0.2344 0.14064001 2.0510001
0.24416669 0.14064001 2.0510001
-0.30276668 0.15236001 2.0510001
-0.29430223 0.15366223 2.0510001
-0.28714001 0.15431334 2.0510001
0.017580001 0.23635334 2.0510001
0.025393333 0.2344 2.0510001
0.034671668 0.23488833 2.0510004
0.044275559 0.23700444 2.0510001
0.019533334 0.24416669 2.0510001
0.025393333 0.24416669 2.0510001
0.035160005 0.24416667 2.0510004
0.044926669 0.24221335 2.0510001
0.05078667 0.24221335 2.0510001
0.019533334 0.25393337 2.0510001
0.025393335 0.25393334 2.0510004
0.035160001 0.25393334 2.0510004
0.044926669 0.25393334 2.0510004
0.05078667 0.25393337 2.0510001
0.019533334 0.26370001 2.0510001
0.025393333 0.26370001 2.0510001
0.03437867 0.26330936 2.0510004
0.045577779 0.26304889 2.0510001
0.05078667 0.26174667 2.0510001
-0.3104324 0.10609715 2.0630002
-0.30453813 0.10609715 2.0630002
-0.29864383 0.10609715 2.0630002
0.1453924 0.10609715 2.0630002
0.16896954 0.10413238 2.0630002
0.17289907 0.10216763 2.0630002
-0.30650288 0.11002668 2.0630002
-0.29864383 0.11788572 2.0630002
0.15718096 0.11002668 2.0630002
0.16504002 0.11002668 2.0630002
0.17486382 0.11002668 2.0630002
0.18567002 0.11199145 2.0630002
0.19385652 0.11133653 2.0630002
0.20237049 0.11002668 2.0630002
-0.30453813 0.12574477 2.0630002
-0.29733402 0.12443493 2.0630002
-0.28489047 0.12574477 2.0630002
0.22594765 0.12181525 2.0630002
0.23577146 0.12770954 2.0630002
0.2436305 0.12770954 2.0630002
0.23970097 0.13360383 2.0630002
0.2436305 0.13360383 2.0630002
-0.28489047 0.1453924 2.0630002
-0.21612383 0.14146286 2.0630002
0.053048577 0.23970097 2.0630002
0.05501334 0.2436305 2.0630002
-0.051083814 0.25541908 2.0630002
-0.047154289 0.25541908 2.0630002
0.039295241 0.26720765 2.0630002
0.043224767 0.26720765 2.0630002
-0.33216003 0.059314292 2.0760002
-0.32622862 0.071177147 2.0760002
-0.32538128 0.095467776 2.0760002
-0.3137067 0.097539052 2.0760002
-0.30843431 0.098857149 2.0760002
-0.32425147 0.10478859 2.0760002
-0.31502479 0.10412954 2.0760002
-0.30448005 0.10281144 2.0760002
-0.29459432 0.10676572 2.0760002
-0.28866288 0.10676572 2.0760002
0.16608001 0.10478858 2.0760002
0.17596573 0.10676572 2.0760002
0.18782859 0.10676572 2.0760002
0.19573715 0.10676572 2.0760002
0.20562288 0.10676572 2.0760002
-0.32029718 0.11269715 2.0760002
-0.31436574 0.11467429 2.0760002
-0.30448005 0.1146743 2.0760002
-0.29459435 0.11467429 2.0760002
-0.28708118 0.11546516 2.0760002
0.18189716 0.11072001 2.0760002
-0.3123886 0.12456001 2.0760002
-0.30645716 0.12258286 2.0760002
-0.29393527 0.12390096 2.0760002
-0.28668573 0.12258286 2.0760002
0.23528002 0.12258286 2.0760002
-0.3123886 0.13246858 2.0760002
-0.30448002 0.13444574 2.0760002
-0.29459435 0.13444573 2.0760002
-0.28668576 0.13444573 2.0760002
-0.28470859 0.14235429 2.0760002
-0.22144002 0.14235429 2.0760002
-0.21353145 0.14235429 2.0760002
-0.20957717 0.14235429 2.0760002
-0.34866285 0.006628572 2.0880001
-0.34998858 0.01392 2.0880001
-0.33407998 0.037782855 2.0880001
-0.33275428 0.046400003 2.0880001
-0.33169371 0.054884572 2.0880001
-0.32612571 0.059657145 2.0880001
-0.31817144 0.051702857 2.0880001
-0.33209142 0.065622859 2.0880001
-0.32480001 0.066285722 2.0880001
-0.31021714 0.063634284 2.0880001
-0.33142859 0.075565718 2.0880001
-0.32373944 0.076361142 2.0880001
-0.31533065 0.076133884 2.0880003
-0.33010286 0.08550857 2.0880001
-0.32413715 0.08550857 2.0880001
-0.31419432 0.08550857 2.0880003
-0.30623999 0.087497145 2.0880001
-0.32214859 0.093462855 2.0880001
-0.31419429 0.093065143 2.0880001
-0.30425143 0.095451429 2.0880003
-0.29828572 0.099428572 2.0880001
-0.29629713 0.10340571 2.0880001
0.18692571 0.10340571 2.0880001
-0.22272 0.1392 2.0880001
-0.21874286 0.1392 2.0880001
-0.043748572 0.25851429 2.0880001
-0.037782855 0.25851429 2.0880001
-0.051702857 0.26249143 2.0880001
-0.043748572 0.26646858 2.0880001
-0.03712 0.26381716 2.0880001
-0.063634284 0.28635427 2.0880001
-0.063634284 0.30226287 2.0880001
-0.065622859 0.44941714 2.0880001
-0.065622859 0.45339429 2.0880001
-0.059657145 0.45339429 2.0880001
-0.063634284 0.52697146 2.0880001
-0.063634284 0.5349257 2.0880001
-0.34483081 0.0040019052 2.1010001
-0.33415908 0.0080038095 2.1010001
-0.3281562 0.0080038095 2.1010001
-0.34496421 0.013606477 2.1010001
-0.33482605 0.013339683 2.1010003
-0.34416381 0.028013334 2.1010001
-0.33482605 0.026679367 2.1010003
-0.32415429 0.028013334 2.1010001
-0.34416381 0.032015238 2.1010001
-0.3334921 0.033349209 2.1010003
-0.32415429 0.035016667 2.1010001
-0.31615049 0.036017142 2.1010001
-0.33215812 0.042020001 2.1010001
-0.32415429 0.044020955 2.1010001
-0.31414956 0.044020951 2.1010001
-0.30814669 0.046021905 2.1010001
-0.32495469 0.054425906 2.1010001
-0.31414953 0.054025717 2.1010001
-0.30814669 0.054025717 2.1010001
-0.32175311 0.06323009 2.1010001
-0.31454974 0.064030476 2.1010001
-0.30814669 0.064030476 2.1010003
-0.31214857 0.074035242 2.1010001
-0.30681273 0.073368259 2.1010003
-0.30814669 0.082039043 2.1010001
0.18408762 0.10805143 2.1010001
0.19409239 0.10404953 2.1010001
-0.21610285 0.14006667 2.1010001
-0.052024763 0.26812762 2.1010001
-0.04502143 0.26612666 2.1010001
-0.032015242 0.2641257 2.1010003
-0.02561219 0.26572648 2.1010001
-0.016007619 0.26812762 2.1010001
-0.052024763 0.27413049 2.1010001
-0.044020951 0.27413046 2.1010001
-0.034683175 0.2747975 2.1010003
-0.060028572 0.28813714 2.1010001
-0.043520715 0.28363502 2.1010001
-0.035016667 0.28413522 2.1010001
-0.064030483 0.29213905 2.1010003
-0.053358734 0.29347301 2.1010003
-0.043220576 0.2937398 2.1010001
-0.034016192 0.29413998 2.1010001
-0.061629336 0.3041448 2.1010001
-0.054025717 0.30214381 2.1010001
-0.041019525 0.30314431 2.1010001
-0.034016192 0.3041448 2.1010001
-0.062696509 0.31348255 2.1010003
-0.034016192 0.31414953 2.1010001
-0.064030476 0.32015237 2.1010001
-0.056026667 0.35416859 2.1010001
-0.060028575 0.36417335 2.1010003
-0.056026667 0.36417335 2.1010003
-0.032015238 0.36617428 2.1010001
-0.060028572 0.37417811 2.1010001
-0.056026667 0.37417811 2.1010001
-0.034016192 0.37417811 2.1010001
-0.066031426 0.38818479 2.1010001
-0.033349209 0.38151497 2.1010003
-0.064030476 0.3921867 2.1010003
-0.056026667 0.39218667 2.1010001
-0.060028572 0.44821334 2.1010001
-0.0060028573 0.44621241 2.1010001
0 0.44621241 2.1010001
-0.060028572 0.45221525 2.1010001
-0.054025717 0.45421621 2.1010001
-0.040019047 0.45621714 2.1010001
-0.034016192 0.45421621 2.1010001
-0.060028575 0.46422094 2.1010003
-0.054025717 0.46021906 2.1010001
-0.033349209 0.46155304 2.1010003
-0.060028572 0.47222477 2.1010001
-0.052024763 0.47222477 2.1010001
-0.060028572 0.52825141 2.1010001
-0.056026667 0.52825141 2.1010001
-0.060028572 0.53425431 2.1010001
-0.060028572 0.54025716 2.1010001
0.0020009524 0.54826099 2.1010001
0.0020009524 0.5522629 2.1010001
-0.35434669 -0.032213338 2.1140001
-0.34629333 -0.032213334 2.1140001
-0.35319623 -0.024735238 2.1140003
-0.34428 -0.028186668 2.1140001
-0.33689779 -0.025502224 2.1140001
-0.35032001 -0.01208 2.1140001
-0.35354134 -0.006442667 2.1140001
-0.34495112 -0.0053688893 2.1140001
-0.33555555 -0.0053688893 2.1140001
-0.35703111 0.0013422223 2.1140001
-0.34226668 0.0020133334 2.1140001
-0.33421335 0.0020133336 2.1140003
-0.32616001 0.0080533335 2.1140001
-0.34226668 0.016106667 2.1140001
-0.3315289 0.014764446 2.1140001
-0.32616001 0.014093334 2.1140001
-0.35032001 0.022146668 2.1140001
-0.34387735 0.023354668 2.1140001
-0.33287114 0.022817779 2.1140003
-0.32414669 0.02416 2.1140001
-0.31810668 0.028186668 2.1140001
-0.34226668 0.032213334 2.1140001
-0.33018667 0.032213334 2.1140001
-0.32213336 0.032213334 2.1140001
-0.31609336 0.034226667 2.1140001
-0.31005332 0.04026667 2.1140001
-0.30602667 0.048319999 2.1140001
-0.30468446 0.055031113 2.1140001
-0.30401334 0.062413335 2.1140001
-0.29797333 0.062413335 2.1140001
-0.30401334 0.088586673 2.1140001
-0.30200002 0.092613332 2.1140001
0.18724 0.10268 2.1140001
0.19328 0.10066667 2.1140001
-0.22951999 0.14093335 2.1140001
-0.21341334 0.14093335 2.1140001
-0.032213334 0.27381334 2.1140001
-0.024160001 0.27582669 2.1140003
-0.013422223 0.27515557 2.1140001
-0.0060400004 0.27784002 2.1140001
-0.053957332 0.28669867 2.1140001
-0.048319999 0.28992 2.1140001
-0.032213334 0.28589335 2.1140001
-0.02416 0.28589335 2.1140001
-0.016106667 0.28790668 2.1140001
-0.0040266667 0.2818667 2.1140001
-0.064426675 0.29797333 2.1140001
-0.056373335 0.29797333 2.1140001
-0.048319999 0.29797333 2.1140001
-0.024160001 0.29596004 2.1140003
-0.054360002 0.30401334 2.1140001
-0.046977781 0.30468446 2.1140001
-0.024160001 0.30401337 2.1140003
-0.016106667 0.30401334 2.1140001
-0.060400002 0.31810668 2.1140001
-0.055031113 0.31139559 2.1140001
-0.044796668 0.31458333 2.1140001
-0.02416 0.31408 2.1140001
-0.014093334 0.31408 2.1140003
-0.0080533344 0.31408 2.1140001
-0.060400002 0.32414669 2.1140001
-0.042280003 0.32213336 2.1140001
-0.034226667 0.32414669 2.1140001
-0.024160001 0.32414669 2.1140003
-0.014093334 0.32414669 2.1140001
-0.0080533335 0.32414669 2.1140001
-0.054360002 0.33824 2.1140001
-0.044293337 0.33824 2.1140001
-0.034226667 0.33421332 2.1140003
-0.02416 0.33421332 2.1140001
-0.014093334 0.33421335 2.1140003
-0.006442667 0.33501869 2.1140001
-0.054360002 0.34428 2.1140001
-0.044293337 0.34428 2.1140003
-0.034226667 0.34428 2.1140001
-0.024160003 0.34226668 2.1140001
-0.016106667 0.34226668 2.1140001
-0.060400002 0.35434669 2.1140001
-0.053353332 0.35334003 2.1140001
-0.044293333 0.35434672 2.1140001
-0.034226667 0.35434669 2.1140003
-0.024160001 0.35636002 2.1140001
-0.052346665 0.36441335 2.1140001
-0.044293337 0.36441335 2.1140003
-0.034897782 0.36374223 2.1140001
-0.052346669 0.37448001 2.1140001
-0.044293333 0.37447998 2.1140001
-0.03624 0.37045333 2.1140001
-0.026173335 0.37448001 2.1140001
-0.061742228 0.38521779 2.1140001
-0.054359999 0.38454667 2.1140001
-0.044293337 0.3845467 2.1140003
-0.03624 0.38655999 2.1140001
-0.060400002 0.39461333 2.1140001
-0.054360002 0.39461333 2.1140001
-0.044293333 0.39461333 2.1140001
-0.034226667 0.39461336 2.1140003
-0.028186668 0.39864001 2.1140001
-0.062413335 0.40669334 2.1140001
-0.032213334 0.40669334 2.1140001
-0.064426668 0.41072002 2.1140001
-0.041608892 0.41206226 2.1140001
-0.033824001 0.41394135 2.1140001
-0.028186668 0.41676 2.1140001
-0.025166668 0.42582002 2.1140001
-0.014764445 0.42548448 2.1140001
-0.0060400004 0.42682669 2.1140001
-0.032213334 0.43488002 2.1140001
-0.023584763 0.43372956 2.1140003
-0.014093334 0.43488002 2.1140003
-0.0060400004 0.43488002 2.1140003
0 0.43689334 2.1140001
-0.060400002 0.44696 2.1140001
-0.056373335 0.44696 2.1140001
-0.03355556 0.44561779 2.1140001
-0.021475557 0.44561779 2.1140001
-0.014093334 0.44494668 2.1140001
-0.0060400004 0.44293335 2.1140001
0 0.44293335 2.1140001
-0.054360002 0.45098668 2.1140001
-0.044293337 0.45568442 2.1140003
-0.034226667 0.45098668 2.1140001
-0.02416 0.45501333 2.1140001
-0.014093334 0.45501333 2.1140003
-0.0060400004 0.45702666 2.1140001
0 0.45702666 2.1140001
-0.054360002 0.46709335 2.1140001
-0.044293337 0.46508002 2.1140003
-0.03624 0.46709335 2.1140001
-0.025166668 0.46407336 2.1140001
-0.014093334 0.46508002 2.1140001
-0.0060400004 0.46508002 2.1140001
-0.060400002 0.47917333 2.1140001
-0.054762669 0.47514668 2.1140001
-0.044293333 0.47514671 2.1140001
-0.034226667 0.47514671 2.1140003
-0.028186668 0.47514668 2.1140001
-0.01208 0.47112003 2.1140001
-0.0060400004 0.47112003 2.1140001
0 0.47112003 2.1140001
-0.052346665 0.48320001 2.1140001
-0.03355556 0.48454222 2.1140001
-0.044293337 0.49930668 2.1140001
-0.03355556 0.49796447 2.1140001
-0.03355556 0.5060178 2.1140001
-0.060400002 0.51944005 2.1140001
-0.054360002 0.51944005 2.1140001
-0.044293337 0.51407111 2.1140001
-0.032213334 0.51138663 2.1140001
-0.028186668 0.51138663 2.1140001
0.0060400004 0.51138663 2.1140001
-0.060400002 0.52548003 2.1140001
-0.054359999 0.52547997 2.1140001
-0.04630667 0.52346665 2.1140001
-0.032213334 0.52346665 2.1140001
-0.054359999 0.53554666 2.1140001
-0.04509867 0.53313071 2.1140001
-0.034226667 0.53152001 2.1140001
0.0024160002 0.53474134 2.1140001
-0.056373335 0.54561335 2.1140001
-0.044293337 0.54662001 2.1140001
-0.03624 0.54561335 2.1140001
-0.01208 0.54561335 2.1140001
-0.0060399999 0.54561335 2.1140001
0 0.54762667 2.1140001
-0.056373335 0.55165333 2.1140001
-0.04429334 0.55366671 2.1140003
-0.0040266667 0.55366671 2.1140001
-0.36300802 -0.023498287 2.1270001
-0.34518173 -0.021877715 2.1270001
-0.33626857 -0.020257143 2.1270001
-0.36260289 -0.014180001 2.1270001
-0.35517526 -0.014855239 2.1270003
-0.34437144 -0.014180003 2.1270001
-0.33491811 -0.013504764 2.1270003
-0.32816571 -0.012154287 2.1270001
-0.36327812 -0.0054019052 2.1270003
-0.34234571 -0.0081028575 2.1270001
-0.33221716 -0.0060771434 2.1270001
-0.36462858 0.0020257144 2.1270001
-0.32613999 0.0040514288 2.1270001
-0.32411429 0.014180001 2.1270001
-0.3220886 0.022282857 2.1270001
-0.31601143 0.028360002 2.1270001
-0.31398571 0.034437142 2.1270001
-0.30385715 0.052668571 2.1270001
-0.30588287 0.068874285 2.1270001
-0.30790859 0.076977149 2.1270001
-0.30588287 0.083054289 2.1270001
-0.2981852 0.084269717 2.1270001
0.18636572 0.10128572 2.1270001
-0.23093143 0.13369715 2.1270001
-0.22485429 0.13572286 2.1270001
-0.21877715 0.13572286 2.1270001
-0.21067429 0.1418 2.1270001
-0.20662287 0.1418 2.1270001
-0.016205715 0.27954856 2.1270001
-0.060771428 0.28562573 2.1270001
-0.056720003 0.2836 2.1270001
-0.013504764 0.28495049 2.1270003
-0.0081028575 0.28562573 2.1270001
-0.013774859 0.29656461 2.1270001
-0.0081028575 0.29372859 2.1270001
-0.012154287 0.30588287 2.1270001
-0.0081028575 0.30588287 2.1270001
-0.052668571 0.31601143 2.1270001
-0.054694287 0.32411432 2.1270001
-0.045578569 0.32715285 2.1270001
-0.054694287 0.33424285 2.1270001
-0.044565719 0.33424288 2.1270001
-0.044565715 0.34032002 2.1270001
-0.024308573 0.34842288 2.1270003
-0.013504764 0.34707242 2.1270003
-0.0060771434 0.34639716 2.1270001
-0.025118858 0.35409483 2.1270001
-0.014855239 0.35382479 2.1270003
-0.0060771434 0.3524743 2.1270001
-0.023802144 0.36513498 2.1270001
-0.023295715 0.37374431 2.1270001
-0.016205715 0.37678286 2.1270001
-0.024308573 0.38488576 2.1270001
-0.016205715 0.38893718 2.1270001
-0.052668571 0.39704001 2.1270001
-0.027009528 0.39568955 2.1270003
-0.063472383 0.40379238 2.1270003
-0.054694287 0.40716857 2.1270001
-0.044565719 0.4071686 2.1270001
-0.035112381 0.40649337 2.1270003
-0.028360002 0.40919429 2.1270001
-0.062121909 0.41594669 2.1270003
-0.054694287 0.41527146 2.1270001
-0.047266673 0.41594669 2.1270003
-0.024308573 0.41527146 2.1270001
-0.016205715 0.41729715 2.1270001
-0.06482286 0.42134857 2.1270001
-0.054019049 0.42269906 2.1270003
-0.044059288 0.42489359 2.1270001
-0.034842286 0.42621031 2.1270001
-0.022282857 0.4233743 2.1270001
-0.013504764 0.42269906 2.1270003
-0.006752382 0.42404956 2.1270003
0 0.42742574 2.1270001
-0.042539999 0.43552858 2.1270001
-0.035112381 0.43485332 2.1270003
-0.060771428 0.44363147 2.1270001
-0.054694287 0.4446443 2.1270001
-0.043408167 0.44623598 2.1270001
-0.035112381 0.44295621 2.1270003
-0.026739432 0.44484693 2.1270001
-0.046591431 0.45376003 2.1270001
-0.022282857 0.46996573 2.1270001
-0.023498287 0.47563773 2.1270001
-0.014855239 0.47671813 2.1270003
-0.0060771434 0.47806859 2.1270001
0.0020257144 0.47806859 2.1270001
-0.060771428 0.48617142 2.1270001
-0.056720003 0.48617142 2.1270001
-0.044565719 0.48617142 2.1270003
-0.024308573 0.48414573 2.1270001
-0.014180001 0.4841457 2.1270001
-0.0060771434 0.4841457 2.1270001
0.0013504763 0.4834705 2.1270003
-0.060771428 0.49427432 2.1270003
-0.054694287 0.49427435 2.1270001
-0.044565719 0.49427429 2.1270001
-0.03545 0.49427432 2.1270001
-0.024308572 0.49427429 2.1270001
-0.014180001 0.49427432 2.1270001
-0.0081028575 0.49427432 2.1270001
-0.060771428 0.50440288 2.1270001
-0.054694287 0.50440288 2.1270001
-0.044565715 0.50480795 2.1270001
-0.036462858 0.50642854 2.1270001
-0.024308573 0.50440282 2.1270001
-0.014180001 0.50237715 2.1270001
-0.060771428 0.51453149 2.1270003
-0.054694287 0.51453149 2.1270001
-0.045144495 0.51453149 2.1270001
-0.035112381 0.51723242 2.1270003
-0.023633335 0.51318097 2.1270001
-0.0060771434 0.51858288 2.1270001
0.0030385717 0.51757002 2.1270001
0.012154287 0.51858288 2.1270001
-0.041864764 0.52398479 2.1270003
-0.035112381 0.52398479 2.1270003
-0.024308573 0.52668571 2.1270003
-0.014180001 0.52668571 2.1270001
-0.006752382 0.52533525 2.1270003
0.0020257144 0.52668571 2.1270001
-0.043552861 0.53276289 2.1270001
-0.034437142 0.53478861 2.1270001
-0.023498287 0.5364092 2.1270001
-0.014180001 0.53681433 2.1270001
-0.0060771434 0.53478861 2.1270001
0.0020257144 0.53073716 2.1270001
-0.052668571 0.54491717 2.1270001
-0.044565719 0.54451203 2.1270001
-0.033761904 0.54424191 2.1270003
-0.022282857 0.54491717 2.1270001
-0.014855239 0.54424191 2.1270003
-0.0060771434 0.54289144 2.1270001
0 0.54491717 2.1270001
-0.052668571 0.55302 2.1270001
-0.034031998 0.55585593 2.1270001
-0.022282859 0.55504572 2.1270001
-0.014585144 0.55585599 2.1270001
-0.0081028575 0.55707145 2.1270001
0.23370159 -0.066577785 2.1400001
0.2629143 -0.024457145 2.1400003
-0.33220953 -0.016304763 2.1400001
0.26495239 -0.016304763 2.1400001
-0.33017144 -0.0061142864 2.1400001
-0.32303813 0.0030571432 2.1400001
-0.31794289 0.0020380954 2.1400001
0.23234285 0 2.1400001
-0.32201907 0.014266668 2.1400001
-0.31794289 0.012228572 2.1400001
-0.32201907 0.020380953 2.1400001
-0.3159048 0.026495239 2.1400001
-0.3138667 0.032609526 2.1400001
-0.30979049 0.036685713 2.1400001
-0.30843177 0.044838097 2.1400001
-0.3016381 0.069295242 2.1400001
-0.29756191 0.069295242 2.1400001
-0.30367619 0.075409524 2.1400001
-0.29552382 0.075409524 2.1400001
-0.23234285 0.12432382 2.1400001
-0.22419047 0.12636191 2.1400001
-0.23234285 0.1345143 2.1400001
-0.22419047 0.13043812 2.1400001
-0.21400002 0.1345143 2.1400003
-0.20584764 0.13655239 2.1400001
-0.19973335 0.13859048 2.1400001
-0.21196191 0.14674285 2.1400001
-0.20584762 0.14470476 2.1400001
-0.19973335 0.14266667 2.1400001
-0.005434921 0.30299684 2.1400001
-0.012228572 0.35870478 2.1400001
-0.016304763 0.36481905 2.1400001
-0.014946032 0.37500954 2.1400001
-0.0081523815 0.37908572 2.1400001
-0.014266668 0.38519999 2.1400001
-0.0081523815 0.38519999 2.1400001
-0.021739684 0.39674926 2.1400001
-0.013859048 0.39620575 2.1400001
-0.0067936517 0.39674923 2.1400001
-0.023641905 0.40598854 2.1400001
-0.014266668 0.40558094 2.1400001
-0.0081523815 0.40354288 2.1400001
-0.021739684 0.41305399 2.1400001
-0.013859048 0.41495624 2.1400001
-0.0081523815 0.41780955 2.1400001
-0.062501594 0.42664132 2.1400001
-0.057066668 0.42800003 2.1400001
-0.0040761908 0.42392382 2.1400001
0 0.42392382 2.1400001
-0.061142862 0.43411431 2.1400001
-0.055028573 0.43411434 2.1400001
-0.048914287 0.43411431 2.1400001
-0.061142862 0.44022858 2.1400001
-0.05434921 0.44294605 2.1400001
-0.048914291 0.44430479 2.1400001
-0.014266668 0.49321905 2.1400001
-0.005434921 0.49457777 2.1400001
0.0020380954 0.49525714 2.1400001
-0.014266668 0.50544763 2.1400001
-0.0061142864 0.50544763 2.1400003
0.0016304763 0.50463241 2.1400001
-0.014266668 0.51563811 2.1400001
-0.0061142864 0.51563811 2.1400001
0.0040761912 0.51360005 2.1400001
-0.024457144 0.52419811 2.1400001
-0.014266668 0.52379048 2.1400001
-0.0040761908 0.5258286 2.1400001
0.0050952383 0.52684766 2.1400001
0.012228572 0.52786672 2.1400001
-0.024457145 0.53398103 2.1400001
-0.014266668 0.53398103 2.1400001
-0.028533334 0.54417145 2.1400001
-0.028533336 0.554362 2.1400001
-0.028533334 0.56251431 2.1400001
0.22555239 -0.073817149 2.1530001
0.23785526 -0.073817149 2.1530001
0.24400668 -0.073817149 2.1530001
0.2243807 -0.065615244 2.1530001
0.23648827 -0.064248256 2.1530004
0.24359658 -0.064795047 2.1530001
-0.30347049 -0.057413336 2.1530001
-0.29936954 -0.057413336 2.1530001
0.21598351 -0.054679371 2.1530004
0.22555238 -0.055362862 2.1530001
0.23580478 -0.055362858 2.1530001
0.24469018 -0.056046352 2.1530004
0.2501581 -0.057413336 2.1530001
0.21530002 -0.049211431 2.1530001
0.22145145 -0.049211431 2.1530001
0.24605715 -0.043059997 2.1530001
0.25507927 -0.042649906 2.1530001
0.26451147 -0.041009523 2.1530001
0.24605715 -0.036908574 2.1530001
0.25507924 -0.035268195 2.1530001
0.26451147 -0.0348581 2.1530001
-0.33422762 -0.020504761 2.1530001
0.25543076 -0.024019865 2.1530001
-0.32602572 -0.012302858 2.1530001
0.25425908 -0.016403813 2.1530004
0.26246098 -0.014353335 2.1530001
-0.32670921 -0.0068349214 2.1530004
-0.30483747 -0.0068349214 2.1530004
-0.29608878 -0.0057413341 2.1530001
-0.28706667 -0.0041009528 2.1530001
0.23580477 -0.0041009528 2.1530001
-0.31577337 0.0054679373 2.1530004
-0.30483747 0.0013669843 2.1530004
-0.29800257 0.0013669843 2.1530004
0.23512128 0.0041009532 2.1530004
-0.31577334 0.014353335 2.1530001
0.23785526 0.014353335 2.1530001
-0.31782383 0.022555239 2.1530001
-0.31167239 0.032807622 2.1530001
-0.30347049 0.055362858 2.1530001
-0.29936954 0.055362858 2.1530001
-0.21324953 0.10662477 2.1530001
-0.23512128 0.11756065 2.1530004
-0.22503977 0.11533929 2.1530001
-0.21571012 0.11482668 2.1530001
-0.20914859 0.11892763 2.1530001
-0.23785526 0.12712952 2.1530001
-0.22555241 0.12302858 2.1530004
-0.21530002 0.12507905 2.1530001
-0.2070981 0.12507905 2.1530001
-0.23785526 0.13533144 2.1530004
-0.20402241 0.13225572 2.1530001
-0.19520533 0.13615164 2.1530001
-0.18864381 0.13943239 2.1530001
-0.23785526 0.14353333 2.1530001
-0.12439556 0.14626731 2.1530004
-0.11892763 0.1476343 2.1530001
-0.13123049 0.15378572 2.1530001
-0.12576255 0.15310223 2.1530004
-0.012302858 0.36498478 2.1530001
-0.0068349219 0.3622508 2.1530004
-0.012302858 0.37728763 2.1530001
-0.0082019055 0.37728763 2.1530001
-0.0041009528 0.38959047 2.1530001
-0.0054679373 0.39642543 2.1530004
0.0020504764 0.3977924 2.1530001
-0.0041009528 0.40599433 2.1530001
0.0013669843 0.40326035 2.1530004
-0.0057413341 0.41337606 2.1530001
0 0.41419625 2.1530004
-0.0041009528 0.42239812 2.1530001
0 0.42239812 2.1530001
-0.065615244 0.43675148 2.1530001
-0.18454286 0.55636257 2.1530004
-0.17429048 0.55362862 2.1530001
0.19812572 -0.086680003 2.1670001
0.2167 -0.084616192 2.1670001
0.23609982 -0.08420343 2.1670001
0.2449054 -0.083928257 2.1670003
0.25178474 -0.082552381 2.1670001
0.21515214 -0.073781185 2.1670001
0.2242673 -0.07704889 2.1670003
0.23389843 -0.075673014 2.1670001
0.24628127 -0.075673014 2.1670003
0.25343582 -0.073471621 2.1670001
-0.3013162 -0.061914288 2.1670001
-0.29718858 -0.061914288 2.1670001
0.20638096 -0.066041909 2.1670001
0.21463621 -0.063978106 2.1670001
0.23114668 -0.061914288 2.1670001
0.25384855 -0.063978098 2.1670001
0.26003999 -0.061914288 2.1670001
0.24352953 -0.053659048 2.1670001
0.25453651 -0.055034921 2.1670003
0.26334211 -0.055310097 2.1670001
0.22701906 -0.047467619 2.1670001
0.23527429 -0.045403808 2.1670001
0.24456143 -0.046435714 2.1670001
0.25316063 -0.048155557 2.1670003
0.26499316 -0.047880381 2.1670001
0.27242285 -0.045403808 2.1670003
0.2373381 -0.035084762 2.1670001
0.2449054 -0.034396827 2.1670003
0.25178474 -0.033020955 2.1670001
-0.33227333 -0.022701904 2.1670001
-0.30626938 -0.022289142 2.1670001
-0.29512477 -0.020638095 2.1670001
0.23775087 -0.023940191 2.1670001
0.24559335 -0.024765715 2.1670001
0.25178474 -0.026829526 2.1670001
-0.33020952 -0.016510477 2.1670001
-0.32401812 -0.014446668 2.1670001
