# .PCD v0.7 - Point Cloud Data file format
VERSION 0.7
FIELDS x y z
SIZE 4 4 4
TYPE F F F
COUNT 1 1 1
WIDTH 1470
HEIGHT 1
VIEWPOINT 0 0 0 1 0 0 0
POINTS 1470
DATA ascii
-0.20226857 0.58551431 1.8630002
-0.19517145 0.58652818 1.8630002
-0.18807428 0.58728862 1.863
-0.20404285 0.59616005 1.8630002
-0.19517143 0.59615999 1.863
-0.18807428 0.59616005 1.8630002
-0.22119239 0.1284343 1.8730001
-0.21643558 0.12605588 1.8730001
-0.18373239 0.13913715 1.8730001
-0.17481336 0.13735333 1.8730001
-0.1676781 0.13913715 1.8730001
-0.14270477 0.13913715 1.8730001
-0.13607919 0.13607918 1.8730003
-0.12415315 0.13628304 1.8730001
-0.11505572 0.13824524 1.8730001
-0.10702857 0.13913715 1.8730001
-0.096325718 0.13735333 1.8730001
-0.086514771 0.13824524 1.8730001
-0.074920006 0.13913715 1.8730001
-0.06421715 0.13913715 1.8730001
-0.057081908 0.13913715 1.8730001
-0.22208428 0.1471643 1.8730001
-0.21456684 0.14729172 1.8730003
-0.20513812 0.14805621 1.8730001
-0.19621906 0.14627239 1.8730001
-0.18551621 0.1444886 1.8730001
-0.17481336 0.14270477 1.8730001
-0.16339695 0.14413182 1.8730001
-0.15578604 0.14389399 1.8730001
-0.14627239 0.14448859 1.8730001
-0.13913715 0.14270477 1.8730001
-0.11416382 0.14270477 1.8730001
-0.10465016 0.14389399 1.8730001
-0.095433816 0.14359668 1.8730001
-0.085622869 0.1444886 1.8730001
-0.075633526 0.14413182 1.8730001
-0.06421715 0.14270477 1.8730001
-0.054703496 0.14389399 1.8730001
-0.046825003 0.14671834 1.8730001
-0.035676196 0.14627238 1.8730003
-0.22476003 0.15519145 1.8730001
-0.21762477 0.15519144 1.8730001
-0.024973333 0.15519145 1.8730001
-0.014270477 0.15519145 1.8730001
-0.0053514289 0.15519144 1.8730001
0.0053514289 0.15697524 1.8730001
0.010702858 0.15697524 1.8730001
0.02586524 0.15608335 1.8730001
0.032108575 0.15340763 1.8730001
-0.22374071 0.16360083 1.8730003
-0.21762477 0.16411048 1.8730001
-0.024463676 0.16309115 1.8730003
-0.014270478 0.16309115 1.8730003
-0.0053514289 0.16232666 1.8730001
0.0035676195 0.16411048 1.8730003
0.014270478 0.16411048 1.8730003
0.024973335 0.16411048 1.8730003
0.035676192 0.16411048 1.8730003
0.046379052 0.1676781 1.8730001
0.055298097 0.1676781 1.8730001
0.067784764 0.1676781 1.8730001
0.071352385 0.1658943 1.8730001
-0.22297621 0.17481333 1.8730001
-0.21619773 0.17552686 1.8730001
-0.014270477 0.17124572 1.8730001
0.0017838096 0.17124572 1.8730001
0.014984001 0.17267278 1.8730001
0.025419287 0.1743674 1.8730001
0.035676196 0.17481335 1.8730003
0.046379048 0.17481335 1.8730003
0.055298101 0.17481333 1.8730001
0.06421715 0.17481335 1.8730003
0.071352385 0.17481336 1.8730001
-0.22297619 0.18551622 1.8730001
-0.21584097 0.18551621 1.8730001
-0.023546284 0.18694326 1.8730001
-0.015697524 0.18694326 1.8730001
-0.0053514289 0.18908381 1.8730001
0.017838096 0.18551621 1.8730001
0.024973335 0.18551621 1.8730003
0.035676196 0.18551621 1.8730003
0.046379048 0.18551621 1.8730003
0.055298101 0.18551622 1.8730001
0.063771196 0.18507025 1.8730001
0.071352385 0.18373239 1.8730001
-0.23189525 0.19265144 1.8730001
-0.22476003 0.19265144 1.8730001
-0.21762477 0.19265144 1.8730001
-0.027113905 0.19550554 1.8730001
-0.013378572 0.19354334 1.8730001
-0.0053514289 0.19443524 1.8730001
0.0035676192 0.19681367 1.8730001
0.014984001 0.19479202 1.8730001
0.024973333 0.19443524 1.8730001
0.036389716 0.19407849 1.8730001
0.044595242 0.19621906 1.8730001
0.057081908 0.19443524 1.8730001
-0.20692192 0.2033543 1.8730001
-0.17124572 0.20692192 1.8730001
-0.028540954 0.20513812 1.8730001
-0.17362413 0.21286795 1.8730001
-0.16411048 0.21584097 1.8730001
-0.15340763 0.21405715 1.8730001
-0.060649529 0.21405715 1.8730001
-0.055892702 0.21524636 1.8730001
-0.046379052 0.21584098 1.8730001
-0.033892386 0.21762477 1.8730001
-0.028540954 0.21405715 1.8730001
-0.17302954 0.22119239 1.8730001
-0.1676781 0.22119239 1.8730001
-0.21048954 0.56546772 1.8730001
-0.20454352 0.5624947 1.8730001
-0.19711095 0.56368387 1.8730001
-0.18908381 0.5672515 1.8730001
-0.20603003 0.57349479 1.8730001
-0.19443524 0.57081908 1.8730001
-0.18622974 0.57510024 1.8730001
-0.17838097 0.57795435 1.8730001
-0.21048954 0.58865714 1.8730001
-0.20692192 0.58687335 1.8730001
-0.19502985 0.58390039 1.8730001
-0.18694328 0.58437604 1.8730001
0.14448857 0.58508956 1.8730001
-0.21263011 0.59721953 1.8730001
-0.20692192 0.59222484 1.8730001
-0.18551621 0.59757626 1.8730001
-0.17574668 0.12912001 1.8830001
-0.095046669 0.12912001 1.8830001
-0.08787334 0.12912001 1.8830001
-0.07890667 0.12912001 1.8830001
-0.23313336 0.13629335 1.8830001
-0.22544765 0.13731812 1.8830004
-0.21759114 0.13868445 1.8830001
-0.19128892 0.13868445 1.8830001
-0.18531112 0.1350978 1.8830001
-0.17574668 0.13270667 1.8830001
-0.16409001 0.13808668 1.8830001
-0.15422666 0.13808668 1.8830003
-0.14526001 0.13629335 1.8830001
-0.11118668 0.13629335 1.8830001
-0.10401334 0.13629335 1.8830001
-0.095046669 0.13270667 1.8830001
-0.085362673 0.13414134 1.8830003
-0.075320005 0.13485868 1.8830003
-0.064560011 0.13629335 1.8830001
-0.053082671 0.13772802 1.8830003
-0.044833332 0.13988 1.8830001
-0.03586667 0.13988 1.8830001
-0.23432891 0.14466223 1.8830001
-0.22775334 0.14526001 1.8830001
-0.21340668 0.14346668 1.8830001
-0.20444 0.14346668 1.8830001
-0.19547334 0.14346668 1.8830001
-0.04304 0.14346668 1.8830001
-0.025106668 0.14615667 1.8830001
-0.017933335 0.14705333 1.8830001
-0.0035866669 0.14705333 1.8830001
0.0043040006 0.14561868 1.8830003
0.013629334 0.14561868 1.8830003
0.025106668 0.14705333 1.8830001
0.03586667 0.14705333 1.8830001
-0.23313336 0.15422668 1.8830001
-0.22954668 0.15064001 1.8830001
-0.025106668 0.15064001 1.8830001
-0.014346667 0.15064001 1.8830001
-0.0053800005 0.15064001 1.8830001
0.003074286 0.15320192 1.8830004
0.014795001 0.15377833 1.8830003
0.024389336 0.15207468 1.8830003
0.03586667 0.15473905 1.8830004
0.044833336 0.15602002 1.8830001
0.053800002 0.15602002 1.8830003
0.063663334 0.15691668 1.8830001
0.072630003 0.15512334 1.8830001
-0.23313336 0.16319335 1.8830001
-0.22954668 0.16678001 1.8830001
0.045192003 0.16426936 1.8830003
0.053800009 0.16319335 1.8830003
0.064111665 0.16453835 1.8830003
0.076344766 0.16447431 1.8830004
0.08608 0.16498668 1.8830003
0.094150007 0.16409001 1.8830001
0.10401334 0.16498668 1.8830001
-0.23313336 0.17574668 1.8830001
-0.2295467 0.17574668 1.8830001
0.077113345 0.17574668 1.8830003
0.08608 0.17216 1.8830001
0.093253337 0.17216 1.8830001
-0.22954668 0.18471333 1.8830001
0.076515563 0.18411557 1.8830001
0.082493335 0.18292001 1.8830001
-0.23313336 0.19009334 1.8830001
-0.22954668 0.19009334 1.8830001
-0.02152 0.19547334 1.8830001
-0.016140001 0.19726668 1.8830001
0.032280002 0.19726668 1.8830001
0.046626668 0.19368002 1.8830001
0.052006669 0.19547334 1.8830001
0.064560011 0.19427781 1.8830003
0.072928898 0.19368002 1.8830001
0.10760001 0.19368002 1.8830001
0.11298001 0.19188669 1.8830001
-0.023672003 0.20372267 1.8830003
-0.014346667 0.20264667 1.8830003
-0.0053800005 0.20264667 1.8830001
0.0035866671 0.20503777 1.8830003
0.014859049 0.20341526 1.8830004
0.025106668 0.20444001 1.8830003
0.035866667 0.20444 1.8830003
0.04304 0.20264667 1.8830001
0.076515563 0.2020489 1.8830001
0.084286667 0.20085335 1.8830001
-0.17933334 0.21520002 1.8830001
-0.15781334 0.21520002 1.8830001
-0.026900001 0.21340668 1.8830001
0.0071733338 0.21161334 1.8830001
0.026900001 0.21161334 1.8830001
0.034073338 0.21161334 1.8830001
-0.19188668 0.56669337 1.8830001
-0.21430334 0.57476342 1.8830001
-0.21161334 0.58821332 1.8830001
-0.20802668 0.58462667 1.8830001
-0.18292001 0.58642 1.8830001
0.10401334 0.58104002 1.8830001
0.12553334 0.58821332 1.8830001
0.13509779 0.58701777 1.8830001
0.14526001 0.58462667 1.8830001
0.15350935 0.58606136 1.8830003
-0.21699335 0.59538674 1.8830001
-0.18411557 0.59658229 1.8830001
-0.17754 0.59897339 1.8830001
0.10760001 0.59718007 1.8830001
0.11596891 0.59658229 1.8830003
0.12553334 0.59538674 1.8830003
0.14526001 0.59180003 1.8830001
0.15064001 0.59180003 1.8830001
-0.31386286 -0.010822858 1.8940001
-0.30484381 -0.012626667 1.8940001
-0.2994324 -0.012626667 1.8940001
-0.32107812 -0.0054114284 1.8940001
-0.31386286 -0.0054114289 1.8940001
-0.30484381 -0.0054114284 1.8940001
-0.2994324 -0.0054114284 1.8940001
-0.32107812 0 1.8940001
-0.31566668 0 1.8940001
-0.30484381 0 1.8940001
-0.2994324 0 1.8940001
-0.27598286 0.0036076191 1.8940001
-0.2813943 0.018038096 1.8940001
-0.27658415 0.015633017 1.8940001
-0.2813943 0.021645715 1.8940001
-0.27778667 0.021645715 1.8940001
-0.23269144 0.12987429 1.8940001
-0.21645714 0.12987429 1.8940001
-0.19120382 0.12987429 1.8940001
-0.18398857 0.12987429 1.8940001
-0.17316572 0.12987429 1.8940001
-0.16955811 0.12987429 1.8940001
-0.15512763 0.12987429 1.8940001
-0.14791238 0.12987429 1.8940001
-0.082975239 0.12987429 1.8940001
-0.073956192 0.12987429 1.8940001
-0.05411429 0.12987429 1.8940001
-0.043291431 0.12987429 1.8940001
-0.23269144 0.1334819 1.8940001
-0.22367239 0.1334819 1.8940001
-0.21645714 0.13708952 1.8940001
-0.19481143 0.13528572 1.8940001
-0.18398857 0.1334819 1.8940001
-0.16595048 0.13438381 1.8940001
-0.15512761 0.1334819 1.8940001
-0.14791238 0.1334819 1.8940001
-0.075759999 0.1334819 1.8940001
-0.064937145 0.1334819 1.8940001
-0.05411429 0.1334819 1.8940001
-0.045095243 0.13528571 1.8940001
-0.036978092 0.13618761 1.8940001
0.0072152382 0.13708952 1.8940001
0.010822858 0.13708952 1.8940001
-0.23629905 0.14430477 1.8940001
-0.21284953 0.14069715 1.8940001
-0.2056343 0.14069715 1.8940001
-0.19841905 0.14069715 1.8940001
-0.024351429 0.14250097 1.8940001
-0.014430476 0.14490603 1.8940001
-0.0054114284 0.14430477 1.8940001
0.0027057142 0.14159906 1.8940001
0.015332381 0.14159906 1.8940001
0.025253333 0.14250097 1.8940001
0.036591567 0.14430478 1.8940002
0.045095246 0.14430477 1.8940001
0.053663336 0.14475572 1.8940001
0.06854476 0.14791238 1.8940001
0.075759999 0.14791238 1.8940001
-0.23810288 0.15512763 1.8940001
0.039683808 0.15152 1.8940001
0.045095243 0.15152 1.8940001
0.054114282 0.15152 1.8940001
0.065658666 0.15296304 1.8940001
0.077924572 0.1544061 1.8940001
0.084779054 0.15512761 1.8940001
0.093798101 0.15512763 1.8940002
0.10341841 0.15633017 1.8940001
-0.23629905 0.16595048 1.8940001
0.097405717 0.16775429 1.8940001
0.10462096 0.16595048 1.8940002
-0.23449524 0.17677332 1.8940001
0.084779054 0.17677332 1.8940001
0.094700009 0.17587143 1.8940001
0.10462096 0.17496952 1.8940001
-0.23449524 0.18579239 1.8940001
0.079367615 0.1875962 1.8940001
0.085380316 0.18158349 1.8940001
0.094313473 0.18295783 1.8940002
0.10552286 0.18489048 1.8940001
0.11303873 0.18519112 1.8940001
0.077563807 0.19300763 1.8940001
0.097405717 0.19661525 1.8940001
-0.021645715 0.20924191 1.8940001
-0.014430476 0.20924191 1.8940001
-0.0054114284 0.20924191 1.8940001
0 0.20924191 1.8940001
0.012626667 0.20924191 1.8940001
-0.023449525 0.21465334 1.8940001
-0.016234286 0.21284953 1.8940001
-0.0036076191 0.21284953 1.8940001
0.0028860953 0.2150141 1.8940001
0.018038096 0.21284953 1.8940001
0.021645715 0.21465334 1.8940001
0.1334819 0.57361144 1.8940001
-0.21284953 0.58623809 1.8940001
-0.18038096 0.5880419 1.8940001
0.106064 0.58587736 1.8940001
0.11492844 0.58546507 1.8940002
0.12671763 0.58488524 1.8940001
0.13528571 0.58443427 1.8940001
0.1437894 0.58340359 1.8940002
0.15512763 0.58263052 1.8940001
-0.22006477 0.59886479 1.8940001
-0.21645714 0.59886479 1.8940001
-0.18128285 0.59525716 1.8940001
-0.17677332 0.59706098 1.8940001
0.097405717 0.59345335 1.8940001
0.10416999 0.59480619 1.8940001
0.11424127 0.59405464 1.8940001
0.13564646 0.59597868 1.8940001
0.15753269 0.59405464 1.8940001
0.16234286 0.59164953 1.8940001
-0.31431115 -0.035057779 1.904
-0.30645335 -0.03626667 1.904
-0.31461337 -0.02448 1.904
-0.30464002 -0.023573335 1.9040002
-0.29738668 -0.02176 1.904
-0.3137067 -0.016320001 1.904
-0.30464 -0.018133335 1.904
-0.29375997 -0.014506668 1.9040002
-0.28560001 -0.013600001 1.904
-0.29376 -0.00544 1.9040002
-0.28469333 -0.00544 1.904
-0.27744001 -0.0036266667 1.904
-0.32277334 0.00544 1.904
-0.31552002 0.0036266667 1.9040002
-0.30464 0.00544 1.9040002
-0.29375997 0.0036266665 1.9040002
-0.28469333 0.0036266667 1.9040002
-0.27744001 0.0036266667 1.904
-0.30222222 0.013297779 1.904
-0.29315555 0.013902224 1.9040002
-0.28505602 0.013781334 1.9040002
-0.27744001 0.01088 1.904
-0.30192 0.026293334 1.904
-0.29376 0.025386667 1.9040002
-0.28505599 0.026112 1.9040002
-0.27925333 0.0272 1.904
-0.30101332 0.034453332 1.904
-0.29648 0.035359997 1.904
-0.19765332 0.12693334 1.904
-0.17226666 0.12693334 1.904
-0.16501334 0.12693334 1.904
-0.15957333 0.12693334 1.904
-0.034453332 0.12693334 1.904
-0.24298666 0.13237333 1.904
-0.23936002 0.13418667 1.904
-0.21293716 0.13418667 1.9040003
-0.20490667 0.13600001 1.904
-0.19825777 0.13176888 1.904
-0.16501334 0.13056 1.904
-0.065280005 0.13056001 1.904
-0.047146667 0.13056 1.904
-0.035541333 0.13201065 1.9040002
-0.024661334 0.13636266 1.9040002
-0.014506668 0.13600001 1.9040002
-0.00544 0.13600001 1.904
0.0029013334 0.13563733 1.9040002
0.016320001 0.13781334 1.904
0.025386667 0.13781334 1.904
0.038079999 0.13781334 1.904
0.045333333 0.13781334 1.904
0.053493336 0.13690668 1.904
-0.24298666 0.14869334 1.904
-0.23936 0.14144 1.904
-0.029013334 0.14144 1.904
-0.012693333 0.14144 1.904
-0.0072533335 0.14144 1.904
0.032639999 0.14144 1.904
0.058026668 0.14144 1.904
0.06482666 0.14461334 1.9040002
0.075253338 0.14688 1.904
0.08522667 0.14869334 1.904
0.094293341 0.14869335 1.904
0.11242667 0.14869334 1.904
-0.24298666 0.15594667 1.904
0.10759111 0.1535289 1.904
0.1156 0.15594667 1.9040002
0.12330666 0.15957333 1.904
0.13600001 0.15232 1.904
-0.24298666 0.16501334 1.904
-0.23936 0.16682667 1.904
0.11605334 0.16501334 1.9040002
0.12330666 0.16501334 1.904
0.13781334 0.16501334 1.904
0.14144 0.16501334 1.904
-0.23936 0.17408 1.904
0.11424001 0.17408 1.9040002
0.13781334 0.17045332 1.904
0.14144 0.17045332 1.904
-0.23936 0.18314667 1.904
0.08522667 0.18858667 1.904
0.092480004 0.18858667 1.904
0.104448 0.18423466 1.9040002
0.11424001 0.18496001 1.904
0.068906672 0.19946666 1.904
0.076159999 0.19946666 1.904
0.085831121 0.19342224 1.904
0.09368889 0.19463113 1.9040002
0.104448 0.19366401 1.9040002
0.068906672 0.20490667 1.904
0.072533339 0.20490667 1.904
-0.02176 0.2176 1.904
-0.014506668 0.21578667 1.904
-0.00544 0.21578667 1.904
0.013781334 0.21614933 1.9040002
0.014506668 0.22122668 1.904
0.14869334 0.56576002 1.904
0.156672 0.56721067 1.9040002
0.13660446 0.57543105 1.904
0.14506668 0.5748266 1.9040002
0.15522133 0.57446396 1.9040002
-0.22122668 0.58570671 1.904
-0.2176 0.58570671 1.904
0.13781334 0.58208001 1.904
0.14506668 0.58026671 1.904
0.15413333 0.58026671 1.904
-0.22122668 0.59296 1.904
-0.2176 0.59296 1.904
-0.17480533 0.59549874 1.9040002
-0.31187144 -0.040123809 1.9150001
-0.30275244 -0.043771431 1.9150002
-0.29545718 -0.047419053 1.9150002
-0.31187144 -0.032828573 1.9150001
-0.30396828 -0.034044445 1.9150002
-0.29788893 -0.03526032 1.9150002
-0.31247938 -0.027965082 1.9150002
-0.30457622 -0.029180953 1.9150001
-0.29545718 -0.024925401 1.9150002
-0.28724998 -0.02644524 1.9150001
-0.28208253 -0.013374604 1.9150002
-0.27721906 -0.012766667 1.9150001
-0.28086665 -0.0072952383 1.9150001
-0.27721906 -0.0072952383 1.9150001
-0.31551906 0.0072952383 1.9150001
-0.32099047 0.010942858 1.9150001
-0.31004763 0.010942858 1.9150001
-0.30518416 0.015806351 1.9150002
-0.29667303 0.015806351 1.9150002
-0.31004763 0.023709524 1.9150001
-0.3064 0.023709524 1.9150001
-0.29545715 0.025533335 1.9150001
-0.31187144 0.036476191 1.9150001
-0.3064 0.034652382 1.9150001
-0.29302543 0.03526032 1.9150002
-0.28451428 0.034652382 1.9150002
-0.31247938 0.041339684 1.9150002
-0.30457622 0.041947618 1.9150001
-0.29484922 0.043163493 1.9150002
-0.28633809 0.041947618 1.9150001
-0.21156192 0.12766667 1.9150001
-0.20609048 0.12766667 1.9150001
-0.032828573 0.12401905 1.9150001
-0.025533333 0.12584285 1.9150002
-0.014590478 0.12584285 1.9150002
-0.0072952383 0.12584285 1.9150001
0.047419049 0.12401905 1.9150001
-0.24682224 0.13739365 1.9150002
-0.20609048 0.13131429 1.9150001
-0.026445238 0.1322262 1.9150001
-0.014590478 0.13131431 1.9150002
-0.0054714289 0.13131429 1.9150001
0.0036476194 0.13131431 1.9150002
0.014590479 0.13350286 1.9150002
0.026262859 0.1349619 1.9150002
0.034652382 0.1349619 1.9150001
0.043771427 0.13313811 1.9150002
0.054714289 0.13374603 1.9150002
0.06474524 0.13769762 1.9150001
0.074776188 0.13860953 1.9150001
0.080247618 0.13860953 1.9150001
-0.24439049 0.14408097 1.9150001
0.074776188 0.14225715 1.9150001
0.083895251 0.14408097 1.9150002
0.094838098 0.14408097 1.9150002
0.10578096 0.14772859 1.9150002
0.11490001 0.14772858 1.9150001
0.12401905 0.14955239 1.9150002
0.13423239 0.14809334 1.9150002
0.14499287 0.14864048 1.9150001
0.1532 0.14955239 1.9150001
-0.2480381 0.15684763 1.9150001
0.12474857 0.15538858 1.9150002
0.13405 0.15593572 1.9150001
0.14590478 0.15502381 1.9150002
0.15502381 0.15502381 1.9150001
0.16171113 0.15441588 1.9150002
-0.2480381 0.16414288 1.9150002
0.12766668 0.16414288 1.9150002
0.13391973 0.16362177 1.9150002
0.14694697 0.16362177 1.9150002
0.15502381 0.16414286 1.9150002
0.16049524 0.16049524 1.9150001
-0.24074286 0.17508572 1.9150001
0.12401906 0.17508572 1.9150001
0.13450596 0.17554167 1.9150001
0.14590478 0.17447779 1.9150002
0.1532 0.1714381 1.9150001
0.11672381 0.18238096 1.9150001
0.12349796 0.18498641 1.9150002
0.083895244 0.19697143 1.9150001
0.085719049 0.20061906 1.9150001
0.09119048 0.20244287 1.9150001
-0.014590477 0.21885714 1.9150001
-0.0072952383 0.21885714 1.9150001
0.14408097 0.56902862 1.9150001
0.13860953 0.57267618 1.9150001
0.14590478 0.57267618 1.9150002
0.1532 0.57267618 1.9150001
-0.22615239 0.58726668 1.9150001
0.11672381 0.5854429 1.9150001
0.12158731 0.58605087 1.9150002
0.13131429 0.58361906 1.9150001
-0.22615239 0.59091431 1.9150001
-0.17265397 0.59577781 1.9150002
-0.16779049 0.59456193 1.9150001
-0.30066669 -0.042166665 1.9250001
-0.29516667 -0.042166665 1.9250001
-0.28966668 -0.040333334 1.9250001
-0.29455554 -0.034222223 1.9250001
-0.28966668 -0.034833334 1.9250001
-0.29516667 -0.029333334 1.9250001
-0.28355557 -0.023222223 1.9250001
-0.27866668 -0.023833334 1.9250001
-0.28416669 -0.018333333 1.9250001
-0.27866668 -0.018333333 1.9250001
-0.32266667 0.0165 1.9250001
-0.31533337 0.012833335 1.9250001
-0.31166667 0.044 1.9250001
-0.30433339 0.047666669 1.9250001
-0.31166667 0.058666669 1.9250001
-0.30479169 0.05454167 1.9250001
-0.31166667 0.064166665 1.9250001
-0.30525005 0.063250005 1.9250001
-0.0036666668 0.12650001 1.9250001
0.00275 0.12741667 1.9250001
0.014666666 0.12833333 1.9250001
0.025666667 0.12833333 1.9250001
0.034833334 0.12833333 1.9250001
0.044733334 0.12613334 1.9250001
0.053533334 0.1232 1.9250001
0.088 0.12833333 1.9250001
0.096066676 0.12686668 1.9250001
0.014666667 0.132 1.9250001
0.023833334 0.132 1.9250001
0.033 0.132 1.9250001
0.056833334 0.132 1.9250001
0.066 0.13444446 1.9250001
0.075777784 0.13444446 1.9250001
0.084791668 0.13520835 1.9250001
0.095333338 0.13566667 1.9250001
0.10413333 0.13640001 1.9250001
0.11366668 0.13750003 1.9250001
0.12466668 0.13933334 1.9250001
0.13566667 0.13750002 1.9250001
0.14483333 0.13750002 1.9250001
0.15216668 0.13750002 1.9250001
-0.24933335 0.14483333 1.9250001
0.1045 0.14300001 1.9250001
0.11458334 0.14391667 1.9250001
0.12466668 0.14483334 1.9250001
0.13658333 0.14391667 1.9250001
0.14544444 0.14422223 1.9250001
0.15400001 0.14483334 1.9250001
0.16316667 0.14666666 1.9250001
-0.24933335 0.15216668 1.9250001
0.15766667 0.15033334 1.9250001
0.16573334 0.15400001 1.9250001
0.17416668 0.15583335 1.9250001
0.16545834 0.16545834 1.9250001
0.176 0.16500001 1.9250001
0.18333334 0.16316667 1.9250001
0.14666666 0.17966667 1.9250001
0.15473334 0.17673334 1.9250001
0.16500001 0.17233334 1.9250001
0.176 0.17233334 1.9250001
0.13566667 0.18516669 1.9250001
0.14483333 0.18516667 1.9250001
0.15326668 0.18553333 1.9250001
0.12711112 0.1918889 1.9250001
0.13475001 0.19158334 1.9250001
0.14483333 0.19066668 1.9250001
0.15216668 0.19066668 1.9250001
-0.022 0.22366667 1.9250001
-0.014666666 0.22183335 1.9250001
-0.0036666668 0.22366667 1.9250001
0.0036666668 0.22366667 1.9250001
0.14300001 0.56833333 1.9250001
-0.28763431 -0.025813336 1.9360001
-0.32082286 0.016594287 1.9360001
-0.31529146 0.018438095 1.9360001
-0.32082286 0.022125715 1.9360001
-0.31529146 0.025813334 1.9360001
-0.31344765 0.033188574 1.9360001
-0.31529146 0.047939051 1.9360001
-0.31566021 0.054576766 1.9360001
-0.30238479 0.059001908 1.9360001
-0.29685333 0.057158098 1.9360001
-0.31713524 0.062689528 1.9360001
-0.3042286 0.066377148 1.9360001
-0.29869714 0.062689528 1.9360001
-0.3042286 0.070064761 1.9360001
0.088502862 0.11616001 1.9360001
0.095878109 0.11616002 1.9360001
0.10325334 0.1143162 1.9360001
0.0055314288 0.12537906 1.9360001
0.012906667 0.12722287 1.9360001
0.03687619 0.12537906 1.9360001
0.040563811 0.12537906 1.9360001
0.057158098 0.12722287 1.9360001
0.062689528 0.12722287 1.9360001
0.077440001 0.12906668 1.9360001
0.085552767 0.12611659 1.9360001
0.094956197 0.12261334 1.9360001
0.10509716 0.12537907 1.9360001
0.11247239 0.12906668 1.9360001
0.14381716 0.12906668 1.9360001
0.15488 0.12722287 1.9360001
0.066377148 0.1327543 1.9360001
0.071908571 0.1327543 1.9360001
0.10694096 0.1327543 1.9360001
0.11431621 0.1327543 1.9360002
0.12537907 0.13496688 1.9360001
0.13459811 0.1327543 1.9360001
0.14381716 0.1327543 1.9360002
0.15580192 0.1336762 1.9360001
0.16225524 0.13459811 1.9360001
0.15856762 0.14012952 1.9360001
0.16594286 0.14320254 1.9360001
0.1733181 0.14750476 1.9360001
0.16963048 0.1511924 1.9360001
0.17516191 0.1511924 1.9360001
0.18438098 0.15672381 1.9360001
0.18806858 0.16225524 1.9360001
0.16594288 0.17577653 1.9360002
0.17516191 0.17700572 1.9360001
0.15856762 0.18069334 1.9360001
0.17700572 0.18069334 1.9360001
0.12353525 0.19728763 1.9360001
-0.014750477 0.22494477 1.9360001
-0.0073752385 0.22494477 1.9360001
0.14750476 0.57158101 1.9360001
0.15488002 0.57158101 1.9360002
0.16225524 0.57158101 1.9360001
-0.31893718 0.027814288 1.9470001
-0.31893718 0.033377144 1.9470001
0.10569429 0.11867429 1.9470001
0.13536286 0.11867429 1.9470001
0.14648858 0.11867429 1.9470001
0.15205143 0.11867429 1.9470001
0.016688572 0.12609144 1.9470001
0.065518104 0.12609145 1.9470003
0.074171431 0.12980001 1.9470001
0.083442859 0.12423715 1.9470001
0.11496572 0.12485525 1.9470003
0.12609145 0.12980001 1.9470003
0.13536286 0.12609145 1.9470003
0.14516409 0.12609145 1.9470003
0.15576002 0.12556165 1.9470003
0.16503143 0.12794572 1.9470001
0.12609144 0.13350858 1.9470001
0.16688572 0.13536286 1.9470001
0.17244858 0.13536286 1.9470001
-0.25589147 0.14834286 1.9470001
0.17430286 0.14370714 1.9470001
0.18357429 0.14834286 1.9470001
-0.2558915 0.15576002 1.9470003
0.18542859 0.15205143 1.9470003
0.16688572 0.17801145 1.9470001
0.15946859 0.18542857 1.9470001
0.16317715 0.18172002 1.9470001
0.17306668 0.1829562 1.9470003
0.12423715 0.20397145 1.9470001
-0.011125715 0.22622287 1.9470001
0.14834286 0.56741148 1.9470001
0.15390572 0.56741148 1.9470001
0.14648858 0.57112002 1.9470001
0.15576002 0.57112002 1.9470003
0.16317715 0.57112002 1.9470001
0.11561524 0.11934476 1.9580001
0.12556063 0.11810159 1.9580001
0.13053332 0.11748 1.9580001
0.1417219 0.11934476 1.9580001
0.16409905 0.11934476 1.9580001
0.17404446 0.11810159 1.9580001
0.06713143 0.12307428 1.9580001
0.076455235 0.1268038 1.9580001
0.11934476 0.1268038 1.9580001
0.12493904 0.12493904 1.9580001
0.13053332 0.12493904 1.9580001
0.1417219 0.12307428 1.9580001
0.16596381 0.12307428 1.9580001
0.17280129 0.12556063 1.9580001
0.18647619 0.12493904 1.9580001
0.1914489 0.12556063 1.9580001
0.070860952 0.13053332 1.9580001
0.17677943 0.13277106 1.9580001
0.18461142 0.13426286 1.9580001
0.19169752 0.13426284 1.9580001
-0.25733715 0.14545143 1.9580001
0.17901714 0.14358667 1.9580001
0.18461142 0.14358667 1.9580001
0.19207048 0.14545143 1.9580001
-0.26230985 0.15539682 1.9580001
0.19393525 0.15291047 1.9580001
-0.26293141 0.16036952 1.9580001
0.16658542 0.18523303 1.9580001
0.1715581 0.18647619 1.9580001
0.16596381 0.19020571 1.9580001
0.14918095 0.56688762 1.9580001
0.15291047 0.56688762 1.9580001
0.11438952 0.11626476 1.9690001
0.12189049 0.11626476 1.9690001
0.13689238 0.11626476 1.9690001
0.14439334 0.11626476 1.9690001
0.18377334 0.11626476 1.9690002
0.073134288 0.12564096 1.9690001
0.15752001 0.12001524 1.9690001
0.17627239 0.12376572 1.9690001
0.18270178 0.12322995 1.9690001
-0.26253334 0.1425181 1.9690001
-0.25878286 0.1425181 1.9690001
-0.26503369 0.15126921 1.9690002
-0.011251429 0.23252952 1.9690001
-0.0056257145 0.23252952 1.9690001
0.075428575 0.12445715 1.9800001
0.082971431 0.12445715 1.9800001
-0.2665143 0.14582859 1.9800003
-0.0075428574 0.23760001 1.9800001
-0.075428575 0.2489143 1.9800001
-0.075428575 0.25268573 1.9800001
0.087268576 0.12141715 1.9920001
-0.26180574 0.1365943 1.9920001
-0.25801143 0.1365943 1.9920001
-0.26370287 0.14038858 1.9920001
-0.064502865 0.23904002 1.9920001
-0.055396568 0.23600459 1.9920002
-0.045531433 0.23714286 1.9920003
-0.013280001 0.23714286 1.9920001
-0.0037942859 0.23904002 1.9920001
-0.073356204 0.24536383 1.9920001
-0.064502865 0.24473146 1.9920003
-0.055017143 0.24473146 1.9920001
-0.045531429 0.24473146 1.9920003
-0.036045715 0.24473144 1.9920001
-0.015177144 0.2428343 1.9920001
-0.0075885719 0.2428343 1.9920001
-0.072091438 0.25231999 1.9920001
-0.064977154 0.25374284 1.9920003
-0.055396575 0.25345829 1.9920002
-0.045531426 0.25421712 1.9920003
-0.036045719 0.25421715 1.9920003
-0.068297148 0.26180574 1.9920001
-0.03794286 0.26180574 1.9920001
-0.036244765 0.23654477 2.003
-0.022891428 0.23654477 2.003
-0.019076191 0.23654477 2.003
0 0.23654477 2.003
-0.033383332 0.24322143 2.003
-0.024799049 0.24608287 2.003
-0.015260953 0.24544698 2.0030003
-0.0057228571 0.24608287 2.003
0 0.24036001 2.003
-0.06104381 0.25943619 2.003
-0.053413332 0.25943619 2.003
-0.030521905 0.25562096 2.003
-0.024799049 0.25562096 2.0030003
-0.015260954 0.25562096 2.003
-0.0076304763 0.25180572 2.003
-0.062315561 0.26452321 2.003
-0.055956826 0.26452321 2.003
-0.04578286 0.26515907 2.0030003
-0.034337144 0.26452321 2.003
-0.024799047 0.26325142 2.003
-0.014497906 0.26477754 2.003
-0.0076304763 0.26706669 2.003
-0.045782857 0.27088189 2.003
-0.038152382 0.27088189 2.003
0.20533811 -0.080600001 2.0150001
0.21109524 -0.080600001 2.0150001
0.19958097 -0.04221905 2.0150001
0.19766192 -0.034542859 2.0150003
0.20341906 -0.034542859 2.0150001
0.19766191 -0.024947619 2.0150001
0.19574288 -0.019190477 2.0150001
0.097871438 0.10746667 2.0150001
0.095952384 0.11322381 2.0150003
0.10554762 0.11514287 2.0150001
0.11130476 0.11706191 2.0150001
-0.030704763 0.23796192 2.0150001
-0.026866667 0.23604287 2.0150001
0.0057571428 0.23796192 2.0150001
0.011514286 0.23796192 2.0150001
-0.030704763 0.24180001 2.0150001
-0.024947619 0.24180001 2.0150001
-0.019190477 0.24180001 2.0150001
-0.0038380953 0.24947619 2.0150001
0.0030704762 0.24563809 2.0150001
-0.0051174606 0.25587302 2.0150001
0.0038380953 0.25523335 2.0150003
-0.053733334 0.26866665 2.0150001
-0.032623813 0.26866665 2.0150001
-0.024947619 0.26866665 2.0150001
-0.019190477 0.26866665 2.0150001
-0.005373334 0.26406094 2.0150001
0.0012793652 0.26226985 2.0150001
-0.046057146 0.27250478 2.0150001
-0.031984132 0.27378416 2.0150001
-0.024947619 0.27250478 2.0150001
0.20463049 -0.083653979 2.0270002
0.20656097 -0.075288579 2.0270002
0.21428287 -0.077219054 2.0270002
0.20656097 -0.050192382 2.0270002
0.20656097 -0.042470481 2.0270002
0.20849144 -0.034748577 2.0270002
0.2123524 -0.034748577 2.0270002
0.20591748 -0.025739685 2.0270002
0.20076953 -0.019304764 2.0270002
0.088801913 0.11582858 2.0270002
0.0057914294 0.24710098 2.0270002
0.013513334 0.24324001 2.0270002
-0.055983812 0.27412763 2.0270002
0.18642285 -0.081560001 2.039
0.19419049 -0.081560001 2.039
0.20195809 -0.08544381 2.039
0.18642285 -0.075734288 2.039
0.19419049 -0.076122664 2.039
0.20195809 -0.075734288 2.039
0.20632738 -0.065539286 2.0389998
0.21360953 -0.064082861 2.039
0.19710334 -0.053402383 2.039
0.20528707 -0.055482995 2.039
0.21516304 -0.055150092 2.039
0.19613239 -0.046605714 2.039
0.2058419 -0.046605717 2.039
0.21360953 -0.044663809 2.039
0.21490413 -0.034954287 2.039
0.20972572 -0.023302857 2.039
0.21360953 -0.025244761 2.039
0.20661867 -0.017088762 2.039
0.21360953 -0.017477142 2.039
0.19419049 0.027186668 2.039
0.19419049 0.031070476 2.039
0.015535238 0.24856381 2.039
0.023302857 0.24856381 2.039
0.0077676191 0.25244763 2.039
0.014564285 0.25341859 2.039
0.023302857 0.25244763 2.039
0.17840445 -0.07552889 2.0510001
0.18458998 -0.073250003 2.0510001
0.19533333 -0.07129667 2.0510001
0.20314668 -0.070320003 2.0510001
0.21682 -0.072273336 2.0510001
0.22268 -0.072273336 2.0510001
0.18752001 -0.064460002 2.0510001
0.19533335 -0.064460009 2.0510004
0.21877334 -0.064460002 2.0510001
0.22268 -0.064460002 2.0510001
0.18752001 -0.056646667 2.0510001
0.19298935 -0.055474669 2.0510004
0.21877334 -0.05078667 2.0510001
0.22424267 -0.053912003 2.0510004
0.21877334 -0.044926669 2.0510001
0.22463334 -0.044926669 2.0510001
0.21877334 -0.035160001 2.0510001
0.22463337 -0.035160005 2.0510004
0.21877334 -0.025393333 2.0510001
0.22268 -0.025393333 2.0510001
0.19924001 -0.011720001 2.0510001
0.2051 -0.011720001 2.0510001
0.21584335 -0.01465 2.0510001
0.19924001 -0.0078133335 2.0510001
0.20575112 -0.0065111108 2.0510001
0.21291335 -0.0058599999 2.0510001
0.20705333 0.0039066668 2.0510001
0.21291333 0.0039066668 2.0510004
0.19826335 0.016603334 2.0510001
0.20549066 0.016408002 2.0510004
0.21096 0.015626667 2.0510001
0.19728667 0.025393333 2.0510001
0.20444891 0.024742223 2.0510001
0.19924001 0.035160001 2.0510001
0.2051 0.039066669 2.0510001
0.21682 0.039066669 2.0510001
0.19924001 0.044926669 2.0510001
0.19728667 0.054693334 2.0510001
-0.037113335 0.28128001 2.0510001
0.17682858 -0.070731431 2.0630002
0.18075812 -0.070731431 2.0630002
0.22791241 -0.070731431 2.0630002
0.23380668 -0.070731431 2.0630002
0.18272287 -0.06483715 2.0630002
0.22791241 -0.06483715 2.0630002
0.23577145 -0.06483715 2.0630002
0.2436305 -0.062872387 2.0630002
0.18468763 -0.058942862 2.0630002
0.22791241 -0.058942862 2.0630002
0.23577145 -0.055013333 2.063
0.23577146 -0.04518953 2.0630002
0.24559525 -0.043224767 2.0630002
0.23577145 -0.035365716 2.063
0.2452023 -0.036151621 2.0630002
0.25148955 -0.037330478 2.0630002
0.22791241 -0.025541907 2.0630002
0.23380667 -0.025541907 2.0630002
0.2251056 -0.015156736 2.0630002
0.23380668 -0.017682858 2.0630002
0.20433526 -0.0039295242 2.0630002
0.2239829 -0.0058942866 2.0630002
0.23184192 -0.0078590484 2.0630002
0.20433526 0.0047154292 2.0630002
0.22267304 0.0026196828 2.0630002
0.20433526 0.011788572 2.0630002
0.21612385 0.015718099 2.0630002
0.22005336 0.019647621 2.0630002
0.20433526 0.025541907 2.0630002
0.21415907 0.025541907 2.0630002
0.22201812 0.025541907 2.0630002
0.20630002 0.033400953 2.0630002
0.21376613 0.03457981 2.0630002
0.22241107 0.03457981 2.0630002
0.20630002 0.04518953 2.0630002
0.21415907 0.04518953 2.0630002
0.22005336 0.04518953 2.0630002
0.19451144 0.058942862 2.0630002
0.20482644 0.055013336 2.063
0.21415907 0.053048577 2.0630002
0.22005336 0.053048577 2.0630002
0.1925467 0.062872387 2.0630002
-0.037330478 0.28685525 2.0630002
0.17794289 -0.065245718 2.0760002
0.18189716 -0.059314292 2.0760002
0.24714288 -0.055360004 2.0760002
0.25307432 -0.055360004 2.0760002
0.24714287 -0.047451433 2.0760002
0.25505146 -0.045474291 2.0760002
0.24912001 -0.03163429 2.0760002
0.25505146 -0.035588577 2.0760002
0.24437487 -0.026098287 2.0760002
0.25307432 -0.027680002 2.0760002
0.23528002 -0.011862858 2.0760002
0.24121146 -0.017794289 2.0760002
0.23593907 -0.0052723819 2.0760002
0.24121146 -0.0059314296 2.0760002
0.2280305 0.0065904772 2.0760002
0.23528002 0.0039542867 2.0760002
0.24121146 0.0019771431 2.0760002
0.22588858 0.015322858 2.0760002
0.23330288 0.015817147 2.0760002
0.2293486 0.023725716 2.0760002
0.18980573 0.067222863 2.0760002
0.1963962 0.065904766 2.0760002
0.20364574 0.065245718 2.0760002
0.18716954 0.075131439 2.0760002
0.19573715 0.071177147 2.0760002
0.20166858 0.071177147 2.0760002
0.20661145 0.096880004 2.0760002
0.21353145 0.092925727 2.0760002
0.20957717 0.10281144 2.0760002
-0.2807543 0.14630859 2.0760002
-0.071177147 0.27680001 2.0760002
-0.067222863 0.27680001 2.0760002
-0.071177147 0.2807543 2.0760002
-0.064257145 0.28372002 2.0760002
-0.055360004 0.28668576 2.0760002
-0.045474291 0.28668573 2.0760002
-0.071177147 0.29657146 2.0760002
-0.06326858 0.29459432 2.0760002
-0.055360004 0.29657146 2.0760002
-0.037565716 0.29459432 2.0760002
-0.071177147 0.30448005 2.0760002
-0.065245718 0.30448008 2.0760002
-0.055360008 0.30448002 2.0760002
-0.04646286 0.30546862 2.0760002
-0.037565716 0.30052575 2.0760002
-0.053382862 0.31634289 2.0760002
-0.047451433 0.31634289 2.0760002
-0.053382866 0.3242515 2.0760002
-0.046462864 0.3232629 2.0760002
-0.039542861 0.32029718 2.0760002
-0.054569151 0.33453259 2.0760002
-0.047451433 0.33611432 2.0760002
-0.055854291 0.3435286 2.0760002
-0.047451433 0.34204572 2.0760002
-0.037565716 0.34402287 2.0760002
-0.06326858 0.35984004 2.0760002
-0.06326858 0.36379433 2.0760002
-0.083040006 0.37170288 2.0760002
-0.055360012 0.56480396 2.0760002
-0.052723818 0.57600772 2.0760002
-0.045474291 0.57732576 2.0760002
0.17499429 -0.073577143 2.0880001
0.18493715 -0.055679999 2.0880001
0.2565257 -0.051702857 2.0880001
0.25254858 -0.023862857 2.0880001
0.24558857 -0.014914286 2.0880001
0.25056002 -0.017897144 2.0880001
0.24658287 -0.0079542855 2.0880001
0.21078858 0.065622859 2.0880001
0.19488001 0.0775543 2.0880003
0.20522058 0.076361142 2.0880001
0.21078858 0.071588568 2.0880001
0.18692571 0.08550857 2.0880001
0.19488001 0.08550857 2.0880003
0.20416002 0.086171433 2.0880001
0.21078858 0.087497145 2.0880001
0.18692571 0.095451429 2.0880001
0.19488001 0.095451429 2.0880001
0.20482287 0.093462855 2.0880001
0.21078858 0.095451429 2.0880001
0.19488001 0.10539429 2.0880003
0.20482287 0.10539428 2.0880001
0.17632 0.11666286 2.0880001
0.18692571 0.11732572 2.0880001
0.19885714 0.11136 2.0880001
0.20482287 0.11136 2.0880001
-0.28237715 0.14317714 2.0880001
-0.2784 0.14317714 2.0880001
-0.091474287 0.28635427 2.0880001
-0.08550857 0.28436571 2.0880001
-0.076361142 0.28476343 2.0880001
-0.067611434 0.28635427 2.0880001
-0.084514283 0.29530287 2.0880001
-0.076062858 0.29381144 2.0880001
-0.067611441 0.2943086 2.0880001
-0.055680003 0.2943086 2.0880001
-0.045737144 0.29629713 2.0880001
-0.083519995 0.30425143 2.0880001
-0.077554293 0.30425143 2.0880001
-0.043748572 0.30425143 2.0880001
-0.035794288 0.30624002 2.0880001
-0.083519995 0.31021714 2.0880001
-0.072914287 0.31419429 2.0880001
-0.065622859 0.31618285 2.0880001
-0.056674283 0.31518859 2.0880001
-0.045074284 0.31552002 2.0880001
-0.037782859 0.31419432 2.0880003
-0.071588568 0.32413715 2.0880001
-0.065622859 0.32413715 2.0880001
-0.059657145 0.32413715 2.0880001
-0.043748572 0.32612571 2.0880001
-0.037782855 0.32413715 2.0880001
-0.072582856 0.33507428 2.0880001
-0.065622859 0.33407998 2.0880003
-0.059657145 0.33209142 2.0880001
-0.044742856 0.33407998 2.0880001
-0.038777143 0.33507431 2.0880001
-0.074429393 0.34657964 2.0880003
-0.065622859 0.34601146 2.0880003
-0.051702857 0.34998858 2.0880001
-0.044742856 0.34700572 2.0880001
-0.038445715 0.34468576 2.0880001
-0.08550857 0.35794285 2.0880001
-0.075565726 0.35595429 2.0880003
-0.065622859 0.35595426 2.0880001
-0.055680003 0.35595429 2.0880003
-0.04573714 0.35595429 2.0880001
-0.037782855 0.35595429 2.0880001
-0.085110858 0.36589715 2.0880001
-0.075565718 0.36589712 2.0880001
-0.066617146 0.36689144 2.0880001
-0.055679996 0.36589715 2.0880001
-0.046134856 0.36589718 2.0880001
-0.03977143 0.3698743 2.0880001
-0.09445715 0.3768343 2.0880001
-0.086171433 0.37650287 2.0880001
-0.075565718 0.37584001 2.0880003
-0.065622859 0.37584001 2.0880001
-0.055680003 0.37584001 2.0880003
-0.046400003 0.37517715 2.0880001
-0.03977143 0.37385142 2.0880001
-0.092468575 0.38478857 2.0880001
-0.08550857 0.3857829 2.0880003
-0.075565718 0.38578287 2.0880001
-0.065622859 0.3857829 2.0880003
-0.055680003 0.38578287 2.0880001
-0.045737144 0.38578284 2.0880003
-0.03712 0.38843429 2.0880001
-0.02784 0.38976002 2.0880001
-0.08550857 0.3957257 2.0880001
-0.075565718 0.3957257 2.0880003
-0.065622859 0.39572573 2.0880001
-0.055680003 0.3957257 2.0880003
-0.045737144 0.3957257 2.0880001
-0.035794288 0.3957257 2.0880003
-0.02784 0.39572573 2.0880001
-0.083519995 0.40566859 2.0880001
-0.075565718 0.40566859 2.0880001
-0.065622859 0.40566859 2.0880003
-0.055680003 0.40566862 2.0880001
-0.045737144 0.40566862 2.0880003
-0.035794288 0.40566859 2.0880001
-0.02784 0.40566859 2.0880001
-0.091474287 0.41760001 2.0880001
-0.083519995 0.41362286 2.0880001
-0.074770287 0.41521373 2.0880001
-0.065622859 0.41561145 2.0880001
-0.055680003 0.41561145 2.0880003
-0.045737144 0.41561145 2.0880001
-0.033805713 0.41760001 2.0880001
-0.02784 0.41760001 2.0880001
-0.071588568 0.42555428 2.0880001
-0.065622859 0.42555434 2.0880003
-0.056816332 0.42612249 2.0880003
-0.044742856 0.42654857 2.0880001
-0.02784 0.42157716 2.0880001
-0.071588568 0.43549716 2.0880001
-0.065622859 0.43549716 2.0880001
-0.055680003 0.43549713 2.0880003
-0.073179431 0.44623542 2.0880001
-0.065622859 0.44544002 2.0880003
-0.055680003 0.44544002 2.0880001
-0.046134856 0.44464454 2.0880001
-0.037782855 0.44345146 2.0880001
-0.073577143 0.45538288 2.0880001
-0.065622859 0.45538288 2.0880001
-0.055680003 0.45538291 2.0880003
-0.083519995 0.46930286 2.0880001
-0.075565718 0.46532574 2.0880001
-0.065622859 0.46532571 2.0880003
-0.055680003 0.46532568 2.0880001
-0.045737144 0.46532571 2.0880003
-0.037385143 0.46612117 2.0880001
-0.071588568 0.47526857 2.0880001
-0.065622859 0.47526857 2.0880001
-0.055680003 0.47526857 2.0880003
-0.046400003 0.47460574 2.0880001
-0.03977143 0.47327998 2.0880001
-0.071588568 0.48521146 2.0880001
-0.065622859 0.48521143 2.0880003
-0.056177147 0.48471427 2.0880001
-0.047725715 0.48322287 2.0880001
-0.065622859 0.49515429 2.0880001
-0.05833143 0.49581715 2.0880001
-0.047725715 0.49714285 2.0880001
-0.08550857 0.50907427 2.0880001
-0.07954286 0.50907427 2.0880001
-0.065622859 0.50509715 2.0880003
-0.055680003 0.50708568 2.0880003
-0.046134856 0.50589257 2.0880001
-0.08550857 0.51504004 2.0880001
-0.07954286 0.51504004 2.0880001
-0.065622859 0.51305145 2.0880001
-0.055679999 0.51404572 2.0880001
-0.045737144 0.51504004 2.0880001
-0.087497145 0.52100575 2.0880001
-0.053691428 0.52299428 2.0880001
-0.045339432 0.52418751 2.0880001
-0.035297144 0.52448571 2.0880001
-0.10340571 0.53691429 2.0880001
-0.097439997 0.53492576 2.0880001
-0.043748572 0.53691429 2.0880001
-0.033805713 0.53492576 2.0880001
-0.02784 0.53691429 2.0880001
-0.097440004 0.54089147 2.0880001
-0.045737144 0.54288006 2.0880001
-0.035794284 0.54486859 2.0880001
-0.02784 0.54288006 2.0880001
-0.071588568 0.55680001 2.0880001
-0.063634284 0.55680001 2.0880001
-0.056674287 0.55580568 2.0880001
-0.071588568 0.56077719 2.0880001
-0.065622859 0.56475437 2.0880003
-0.055679999 0.56077719 2.0880001
-0.065622859 0.57469714 2.0880001
-0.057668574 0.57469714 2.0880001
-0.04573714 0.57469714 2.0880001
0.1720819 -0.074035242 2.1010001
0.17448305 -0.064830862 2.1010001
0.18008572 -0.060028572 2.1010001
0.1760838 -0.056026667 2.1010001
0.18008572 -0.056026667 2.1010001
0.2561219 -0.020009523 2.1010001
0.21610287 0.064030483 2.1010003
0.21476889 0.074702226 2.1010003
0.20809905 0.084040001 2.1010001
0.2145021 0.083239622 2.1010001
0.22010475 0.088041902 2.1010001
0.22010475 0.09204381 2.1010001
0.18808952 0.10605048 2.1010001
0.18408763 0.1133873 2.1010003
0.19409239 0.11405428 2.1010001
0.20409715 0.11605524 2.1010003
0.18208668 0.1220581 2.1010001
0.19409239 0.12005714 2.1010001
0.20409715 0.12105761 2.1010001
-0.28573599 0.14246781 2.1010001
-0.27613145 0.14006667 2.1010001
-0.09204381 0.29413998 2.1010001
-0.088041902 0.29413998 2.1010001
-0.09404476 0.30814669 2.1010001
-0.088041902 0.30614573 2.1010001
-0.09204381 0.31414953 2.1010001
-0.084040001 0.31454974 2.1010001
-0.076036192 0.31615049 2.1010001
-0.09204381 0.32015237 2.1010001
-0.08289659 0.32358259 2.1010001
-0.0760362 0.32415432 2.1010003
-0.084040001 0.33415908 2.1010001
-0.076036192 0.33415908 2.1010001
-0.084039994 0.34416384 2.1010001
-0.086040944 0.35416859 2.1010001
-0.088041902 0.36817524 2.1010001
-0.041353017 0.36684129 2.1010003
-0.034016192 0.36617428 2.1010001
-0.034016192 0.37417808 2.1010001
-0.028013334 0.37217715 2.1010001
-0.041353017 0.38151497 2.1010003
-0.034016192 0.38418287 2.1010001
-0.028013334 0.38818479 2.1010001
-0.036017142 0.39218667 2.1010001
-0.040019047 0.4161981 2.1010001
-0.034016192 0.4161981 2.1010001
-0.028013334 0.4161981 2.1010001
-0.09404476 0.42620286 2.1010001
-0.084039994 0.42420194 2.1010001
-0.076036192 0.42620286 2.1010001
-0.052024763 0.42620286 2.1010001
-0.043220576 0.42500231 2.1010001
-0.034016192 0.42620286 2.1010001
-0.09404476 0.43220571 2.1010001
-0.083239622 0.43380648 2.1010001
-0.076036192 0.43420666 2.1010001
-0.043020476 0.43520716 2.1010001
-0.034016192 0.43420666 2.1010001
-0.081038572 0.44521192 2.1010001
-0.076036192 0.4422105 2.1010001
-0.044020951 0.44020951 2.1010003
-0.036017142 0.44020951 2.1010001
-0.082039043 0.45421618 2.1010001
-0.043220572 0.4546164 2.1010001
-0.034683175 0.45488319 2.1010003
-0.084040008 0.46422091 2.1010001
-0.043020479 0.46121952 2.1010001
-0.033015713 0.46322048 2.1010001
-0.026679367 0.46288699 2.1010003
-0.085040472 0.47522619 2.1010001
-0.076036192 0.47622669 2.1010001
-0.033349209 0.47489271 2.1010003
-0.028013334 0.47222477 2.1010001
-0.095045239 0.48423049 2.1010001
-0.083539762 0.48373029 2.1010001
-0.0760362 0.48423049 2.1010003
-0.042020004 0.48423049 2.1010001
-0.034016188 0.48423049 2.1010001
-0.083239622 0.4946354 2.1010001
-0.074702226 0.49490222 2.1010003
-0.053358734 0.49490222 2.1010003
-0.044020951 0.49423525 2.1010001
-0.083539754 0.50474024 2.1010001
-0.074035242 0.50423998 2.1010001
-0.060028572 0.50424004 2.1010001
-0.053358734 0.50290608 2.1010003
-0.041619811 0.50343961 2.1010001
-0.034016192 0.50624096 2.1010001
-0.028013334 0.50424004 2.1010001
-0.074035242 0.51424474 2.1010001
-0.040019047 0.51424479 2.1010001
-0.034016192 0.51424479 2.1010001
-0.028013334 0.51424479 2.1010001
-0.09404476 0.52625048 2.1010001
-0.083239615 0.52665067 2.1010001
-0.074035242 0.52424955 2.1010001
-0.064030476 0.52424955 2.1010001
-0.052024763 0.52024764 2.1010001
-0.040019047 0.52024764 2.1010001
-0.034016192 0.52024764 2.1010001
-0.026012382 0.52424955 2.1010001
-0.093377784 0.53358734 2.1010003
-0.084040008 0.53425431 2.1010001
-0.074035242 0.53425425 2.1010001
-0.064030476 0.53425431 2.1010001
-0.054025717 0.53425431 2.1010001
-0.044020955 0.5346545 2.1010001
-0.026012382 0.53425425 2.1010001
-0.09204381 0.54225814 2.1010001
-0.084039994 0.54425913 2.1010001
-0.073034763 0.54325861 2.1010001
-0.064030476 0.54425907 2.1010001
-0.054025717 0.54425907 2.1010001
-0.044020951 0.54025716 2.1010001
-0.024011429 0.54025716 2.1010001
-0.082039043 0.5522629 2.1010001
-0.072034284 0.5522629 2.1010001
-0.064830862 0.55386364 2.1010001
-0.054025717 0.55426383 2.1010001
-0.046021905 0.55426383 2.1010001
-0.068032384 0.56026667 2.1010001
0.16912 -0.064426675 2.1140001
0.17314667 -0.060400002 2.1140001
0.22499 0.064929999 2.1140001
0.22549334 0.074493334 2.1140003
0.22388268 0.083754674 2.1140001
0.18522666 0.11274667 2.1140001
-0.28589335 0.13590001 2.1140001
-0.27582669 0.13690667 2.1140001
-0.27381334 0.14093335 2.1140001
-0.26576 0.14093336 2.1140001
-0.096639998 0.29797333 2.1140001
-0.10066667 0.30401334 2.1140001
-0.094626665 0.30401334 2.1140001
-0.092613332 0.43890667 2.1140001
-0.088586673 0.43890667 2.1140001
-0.092613332 0.44494668 2.1140001
-0.085902229 0.44427559 2.1140001
-0.092613332 0.45098668 2.1140001
-0.088586673 0.45501336 2.1140001
-0.088586673 0.46508002 2.1140001
-0.093620002 0.47615334 2.1140001
-0.025502224 0.47783113 2.1140001
-0.092613332 0.48320001 2.1140001
-0.026173335 0.48521334 2.1140001
-0.092613332 0.49528003 2.1140001
-0.088586673 0.4932667 2.1140001
-0.034897782 0.49662226 2.1140001
-0.026173335 0.4932667 2.1140001
-0.092613332 0.50534666 2.1140001
-0.088586673 0.50333333 2.1140001
-0.034226667 0.50333333 2.1140001
-0.028186668 0.50333333 2.1140001
-0.076506667 0.54762667 2.1140001
-0.076506667 0.55366671 2.1140001
0.17016001 -0.074951433 2.1270001
0.16610858 -0.062797144 2.1270001
-0.28562573 0.11749143 2.1270001
-0.27954856 0.11749143 2.1270001
-0.29372859 0.12762001 2.1270001
-0.28562573 0.12660715 2.1270001
-0.27819809 0.12694477 2.1270003
-0.29372859 0.13572286 2.1270001
-0.2836 0.13369715 2.1270001
-0.27549714 0.13504763 2.1270003
-0.26604384 0.13639811 2.1270003
-0.25929144 0.13774857 2.1270001
-0.29575431 0.1418 2.1270001
-0.25726575 0.1418 2.1270001
-0.10128572 0.44160575 2.1270001
-0.097234294 0.44565719 2.1270003
-0.08913143 0.44970861 2.1270001
-0.095208578 0.45578575 2.1270001
-0.093182862 0.46591434 2.1270003
-0.023295715 0.47503 2.1270001
-0.03241143 0.50237715 2.1270001
-0.026334288 0.50237715 2.1270001
0.16440636 -0.065219052 2.1400001
-0.27718097 0.11820953 2.1400001
-0.29552382 0.12228572 2.1400001
-0.28533334 0.12500319 2.1400001
-0.27718097 0.12432382 2.1400001
-0.29756191 0.13451429 2.1400001
-0.27310476 0.1324762 2.1400001
-0.26495239 0.1324762 2.1400001
-0.25544131 0.13723177 2.1400001
-0.24864763 0.13859048 2.1400001
-0.25272381 0.14266667 2.1400001
-0.21196191 0.14266667 2.1400001
-0.10394286 0.44838098 2.1400001
-0.10190476 0.45449525 2.1400001
-0.10190476 0.4667238 2.1400001
-0.097828582 0.46468574 2.1400001
-0.10190476 0.4748762 2.1400001
-0.097828574 0.4748762 2.1400001
-0.3138667 0.56659049 2.1400001
-0.30979049 0.56659049 2.1400001
0.15993714 -0.063564762 2.1530001
0.16403809 -0.069716193 2.1530001
-0.27476382 0.11892763 2.1530001
-0.27271336 0.12507905 2.1530001
-0.26519495 0.12576255 2.1530004
-0.26246098 0.13123049 2.1530001
-0.25343889 0.13287087 2.1530001
-0.24441679 0.13615163 2.1530001
-0.22965334 0.13738191 2.1530001
-0.2419562 0.14353333 2.1530001
-0.2173505 0.14353333 2.1530001
-0.20709811 0.14353333 2.1530001
-0.12302858 0.1476343 2.1530001
-0.11687715 0.1476343 2.1530001
-0.13123049 0.15378572 2.1530001
-0.12507905 0.15173525 2.1530001
-0.11892763 0.15173525 2.1530001
-0.10662477 0.4572562 2.1530001
-0.10457429 0.4654581 2.1530001
-0.10662477 0.47160956 2.1530001
-0.31577334 0.57413334 2.1530001
0.16716857 -0.082552381 2.1670001
0.16593029 -0.075122669 2.1670001
-0.27379876 0.11694922 2.1670003
-0.26623145 0.11970095 2.1670001
-0.2614159 0.12520446 2.1670003
-0.25384855 0.12589239 2.1670001
-0.24559334 0.12589239 2.1670001
-0.23630619 0.12692429 2.1670001
-0.22701906 0.1279562 2.1670001
-0.24352953 0.13208382 2.1670001
-0.23609982 0.13373487 2.1670001
-0.22495525 0.13414763 2.1670001
-0.21463621 0.13456039 2.1670001
-0.20638096 0.13621143 2.1670001
-0.2373381 0.14033905 2.1670001
-0.22495525 0.14033905 2.1670001
-0.21463621 0.14033905 2.1670003
-0.20431715 0.14240286 2.1670001
-0.14240286 0.14653048 2.1670001
-0.13414763 0.14653048 2.1670001
-0.12658033 0.14584255 2.1670003
-0.11557334 0.14446667 2.1670003
-0.14240286 0.15272191 2.1670001
-0.13621143 0.15272191 2.1670001
-0.1073181 0.46642095 2.1670001
-0.33158541 0.57649082 2.1670003
-0.32470608 0.57649082 2.1670003
0.16201714 -0.076854289 2.181
0.15786286 -0.064391434 2.181
-0.27141333 0.11355048 2.1810002
-0.26379716 0.11424286 2.181
-0.25548857 0.11424285 2.181
-0.24094857 0.11424285 2.181
-0.26172 0.12047429 2.181
-0.25548857 0.12047429 2.181
-0.24510287 0.12047429 2.1810002
-0.23471715 0.12255143 2.181
-0.22373797 0.12462858 2.181
-0.2146381 0.1273981 2.1810002
-0.20771429 0.12878285 2.181
-0.21602286 0.13293715 2.181
-0.20494477 0.13432191 2.1810002
-0.19608228 0.13542973 2.181
-0.18694285 0.1350143 2.181
-0.17863427 0.13709143 2.181
-0.20356001 0.14124571 2.181
-0.19525144 0.14124571 2.1810002
-0.18694285 0.14124571 2.181
-0.14816953 0.14539999 2.1810002
