# .PCD v0.7 - Point Cloud Data file format
VERSION 0.7
FIELDS x y z
SIZE 4 4 4
TYPE F F F
COUNT 1 1 1
WIDTH 1497
HEIGHT 1
VIEWPOINT 0 0 0 1 0 0 0
POINTS 1497
DATA ascii
-0.046131432 0.17033145 1.8630002
-0.021291429 0.17742857 1.863
-0.010645715 0.17742857 1.863
-0.12331286 0.18363857 1.863
-0.11000571 0.18275142 1.863
-0.10432799 0.183816 1.8630002
-0.095811434 0.18452568 1.863
-0.088714287 0.18452571 1.8630002
-0.021291429 0.18097714 1.863
-0.014194285 0.18275142 1.863
-0.1242 0.19162287 1.863
-0.095367856 0.19561501 1.863
0.3103829 -0.34249145 1.8730001
0.29730162 -0.3329778 1.8730001
0.30503148 -0.3317886 1.8730001
0.31216669 -0.33714002 1.8730001
0.32108572 -0.3317886 1.8730001
0.33714002 -0.33357239 1.8730001
0.34427527 -0.33357239 1.8730001
0.35676193 -0.3317886 1.8730001
0.3615188 -0.334167 1.8730001
0.27649051 -0.32286954 1.8730001
0.28540954 -0.32346416 1.8730001
0.29254478 -0.32643718 1.8730001
0.32108572 -0.32822096 1.8730001
0.34605905 -0.32584256 1.8730001
0.35319433 -0.32465336 1.8730001
0.26757145 -0.31751812 1.8730001
0.27113906 -0.31751812 1.8730001
0.34962669 -0.3103829 1.8730001
0.35462138 -0.31323701 1.8730001
0.34962669 -0.30503148 1.8730001
0.35319433 -0.30681527 1.8730001
0.32822096 -0.29254478 1.8730001
0.3317886 -0.29254478 1.8730001
0.34784287 -0.29611242 1.8730001
0.35557276 -0.29492322 1.8730001
0.36032957 -0.2943286 1.8730001
0.3317886 -0.28719336 1.8730001
0.2782743 -0.2033543 1.8730001
0.27470669 -0.19265144 1.8730001
0.2568686 -0.18194859 1.8730001
0.26471734 -0.18622974 1.8730001
0.27381477 -0.18819192 1.8730001
0.17302954 -0.17302954 1.8730001
0.2568686 -0.17481335 1.8730001
0.26349416 -0.17379405 1.8730003
0.1676781 -0.16411048 1.8730001
0.24616574 -0.16173206 1.8730001
0.25449023 -0.16648892 1.8730001
0.26757145 -0.1676781 1.8730001
0.2390305 -0.15519144 1.8730001
0.24259812 -0.15697524 1.8730001
0.23724669 -0.14805621 1.8730001
0.23367906 -0.13200191 1.8730001
0.14984001 -0.12129906 1.8730001
0.15340763 -0.12486669 1.8730001
0.22713843 -0.12248826 1.8730001
0.23189525 -0.12665048 1.8730001
0.14984001 -0.11773144 1.8730001
0.21762477 -0.11059619 1.8730001
0.22476003 -0.11654224 1.8730001
0.21762477 -0.10524476 1.8730001
0.21346256 -0.096325725 1.8730001
0.20692192 -0.083839051 1.8730001
0.21227333 -0.08473096 1.8730001
0.1284343 -0.074920006 1.8730001
0.19978668 -0.073136196 1.8730001
0.20513812 -0.074920014 1.8730001
0.21138144 -0.074919999 1.8730001
0.19978669 -0.06421715 1.8730001
0.20513809 -0.06421715 1.8730001
0.2119166 -0.063503623 1.8730001
0.19800287 -0.055298097 1.8730001
0.2057327 -0.055892702 1.8730001
0.18908381 -0.042811431 1.8730001
0.19621906 -0.047270954 1.8730001
0.18908381 -0.035676192 1.8730001
0.19265144 -0.035676196 1.8730001
0.18730003 -0.024973337 1.8730001
0.11059619 -0.014270477 1.8730001
0.17838097 -0.010702858 1.8730001
0.18653554 -0.013760818 1.8730003
0.19265144 -0.014270477 1.8730001
0.18789463 -0.0059460322 1.8730001
0.19265144 -0.0035676192 1.8730001
0.10702857 0 1.8730001
0.18908381 0.0053514289 1.8730001
0.19407849 0.0042811432 1.8730001
0.099893339 0.014270477 1.8730001
0.18670541 0.013675874 1.8730001
0.19265144 0.014270477 1.8730001
0.17838097 0.021405715 1.8730001
0.18449689 0.024463674 1.8730003
0.099893339 0.048162863 1.8730001
0.10613666 0.047270954 1.8730001
0.11238001 0.048162859 1.8730001
0.16678619 0.047270954 1.8730001
0.17362414 0.045784451 1.8730001
0.10524476 0.053514287 1.8730001
0.11505572 0.054406192 1.8730001
0.12129906 0.057081908 1.8730001
0.1658943 0.055298097 1.8730001
0.17124572 0.055298097 1.8730001
0.13200191 0.066000953 1.8730001
0.16625106 0.06493067 1.8730001
0.17124572 0.060649529 1.8730001
-0.14448857 0.07848762 1.8730001
0.13913715 0.07848762 1.8730001
0.15578604 0.077298418 1.8730001
0.16268343 0.075633526 1.8730001
-0.16411048 0.085176915 1.8730001
-0.15483467 0.086336389 1.8730001
-0.14627239 0.083839051 1.8730001
-0.13913715 0.083839051 1.8730001
0.14805619 0.083839051 1.8730001
0.15519144 0.082055241 1.8730001
-0.16054286 0.098109528 1.8730001
-0.15519145 0.096325718 1.8730001
-0.14671834 0.096771672 1.8730001
-0.13601547 0.096771665 1.8730001
-0.15459684 0.10465016 1.8730001
-0.14627239 0.10524476 1.8730001
-0.13913715 0.10524476 1.8730001
-0.14627239 0.11059619 1.8730001
-0.13200191 0.11059619 1.8730001
-0.1284343 0.11059619 1.8730001
-0.15459684 0.12248826 1.8730001
-0.14984001 0.12665048 1.8730001
-0.14627241 0.13556954 1.8730001
0.010702858 0.13913715 1.8730001
-0.14270477 0.14627239 1.8730001
-0.13913715 0.14627239 1.8730001
0.004756826 0.14627239 1.8730001
-0.13378572 0.15697524 1.8730001
-0.12486669 0.15697524 1.8730001
-0.024973335 0.15697524 1.8730001
-0.13200191 0.16411048 1.8730001
-0.12537634 0.16309115 1.8730003
-0.11345029 0.16553754 1.8730001
-0.10524476 0.1658943 1.8730001
-0.096325718 0.1658943 1.8730001
-0.086514771 0.16678621 1.8730001
-0.074920014 0.1676781 1.8730001
-0.06421715 0.1676781 1.8730001
-0.055298097 0.1676781 1.8730001
-0.046379052 0.1676781 1.8730001
-0.035676196 0.16411048 1.8730001
-0.026757143 0.16232666 1.8730001
0 0.16411048 1.8730001
-0.13200191 0.17124572 1.8730001
-0.1284343 0.17481336 1.8730001
-0.082055241 0.17124572 1.8730001
-0.0053514289 0.17302953 1.8730001
-0.1284343 0.18551621 1.8730001
-0.021405715 0.18908381 1.8730001
-0.017838096 0.18908381 1.8730001
-0.1284343 0.19265144 1.8730001
-0.024973335 0.19443524 1.8730001
-0.15578604 0.59698164 1.8730001
0.27976 -0.34073335 1.8830001
0.29769337 -0.34252667 1.8830001
0.3048667 -0.34252667 1.8830003
0.31652334 -0.34432003 1.8830001
0.32399559 -0.34312448 1.8830001
0.33535337 -0.34432 1.8830001
0.34521669 -0.34162998 1.8830001
0.35149336 -0.34252667 1.8830001
0.27796668 -0.33535337 1.8830001
0.28454226 -0.3347556 1.8830001
0.29291111 -0.3347556 1.8830001
0.30486667 -0.3371467 1.8830001
0.31921333 -0.3371467 1.8830001
0.32710403 -0.33571202 1.8830003
0.33356002 -0.33535337 1.8830001
0.34432 -0.3371467 1.8830001
0.27545604 -0.32710403 1.8830003
0.28573781 -0.32877779 1.8830001
0.29052001 -0.32997334 1.8830001
0.35866672 -0.32638669 1.8830001
0.36225337 -0.32638669 1.8830001
0.35866669 -0.31921333 1.8830001
0.36225337 -0.31562668 1.8830001
0.25824001 -0.30486667 1.8830001
0.35747111 -0.30606222 1.8830001
0.36404669 -0.30486667 1.8830001
0.3371467 -0.29231334 1.8830001
0.34360272 -0.29410669 1.8830003
0.3371467 -0.28693336 1.8830001
0.34073335 -0.28514004 1.8830001
0.28514004 -0.20444001 1.8830001
0.26720667 -0.18292001 1.8830001
0.2768907 -0.18435466 1.8830003
0.26720667 -0.17933334 1.8830001
0.27438003 -0.17574668 1.8830003
0.25555003 -0.16229668 1.8830001
0.26469603 -0.16642134 1.8830003
0.27438003 -0.16857335 1.8830001
0.24604535 -0.15350935 1.8830003
0.25286001 -0.15602 1.8830001
0.23492669 -0.14346668 1.8830001
0.24150226 -0.14585778 1.8830001
0.23492669 -0.13808668 1.8830001
0.24174134 -0.13557601 1.8830003
0.23582335 -0.12463666 1.8830001
0.24120335 -0.12643 1.8830001
0.22596002 -0.11298001 1.8830001
0.23492669 -0.11836001 1.8830001
0.22237335 -0.10401334 1.8830001
0.21878667 -0.095046669 1.8830001
0.21789001 -0.086080007 1.8830001
0.21735202 -0.075320005 1.8830003
0.21789001 -0.065456674 1.8830001
0.20444 -0.052903339 1.8830001
0.21304801 -0.054517336 1.8830003
0.19726668 -0.04304 1.8830001
0.20515732 -0.045192003 1.8830003
0.19726668 -0.03586667 1.8830001
0.19547336 -0.025106668 1.8830003
0.19583201 -0.014346668 1.8830003
0.20085335 -0.014346668 1.8830001
0.19607113 -0.0059777787 1.8830001
0.19726668 0 1.8830001
0.19726668 0.014346668 1.8830001
0.20085335 0.017933335 1.8830001
0.19368002 0.02510667 1.8830004
0.17754 0.046626668 1.8830001
0.18292001 0.046626668 1.8830001
0.10311667 0.056490004 1.8830001
0.11298001 0.05738667 1.8830001
0.17789868 0.054517336 1.8830003
0.18471335 0.053800002 1.8830003
0.19188668 0.052006669 1.8830001
0.10580668 0.060973335 1.8830001
0.11746334 0.063663341 1.8830001
0.12338134 0.063842677 1.8830003
0.17574669 0.064560011 1.8830004
0.18292001 0.060973335 1.8830001
0.13414136 0.07603734 1.8830003
0.16857335 0.075320005 1.8830001
0.17216 0.075320005 1.8830001
-0.16498667 0.089666672 1.8830001
-0.15064001 0.089666672 1.8830001
-0.14526001 0.089666672 1.8830001
0.13988 0.084286667 1.8830001
0.14346668 0.084286667 1.8830001
0.15602002 0.08787334 1.8830001
0.16498668 0.084286675 1.8830003
-0.16319335 0.093253337 1.8830001
-0.14346668 0.093253337 1.8830001
-0.16140002 0.12553334 1.8830001
-0.15602002 0.12732667 1.8830001
0.053800005 0.12194667 1.8830001
-0.14705333 0.13988 1.8830001
0.014346668 0.13988 1.8830001
-0.14346668 0.14705333 1.8830001
-0.12553334 0.14705333 1.8830001
0.0071733338 0.14705333 1.8830001
0.01076 0.14526001 1.8830001
-0.14346668 0.15422668 1.8830001
-0.13988 0.15602002 1.8830001
-0.12553334 0.15243334 1.8830001
-0.11836001 0.15781334 1.8830001
0.0071733338 0.15243334 1.8830001
0.026900001 0.15602 1.8830001
0.03586667 0.15602002 1.8830003
-0.13629335 0.16498668 1.8830001
-0.11477335 0.16140002 1.8830001
-0.10401335 0.16140002 1.8830001
-0.095046669 0.16140002 1.8830001
-0.08787334 0.16319335 1.8830001
-0.071733341 0.16498667 1.8830001
-0.064560004 0.16498667 1.8830001
-0.055593338 0.16498667 1.8830001
-0.044833332 0.16498667 1.8830001
0 0.16498667 1.8830001
0.026900001 0.16498668 1.8830003
0.03586667 0.16396193 1.8830004
-0.13270667 0.17754 1.8830001
-0.0053800005 0.17933334 1.8830001
0 0.17395334 1.8830001
0.016140001 0.17754 1.8830001
0.027258668 0.17502934 1.8830003
-0.13270667 0.18292001 1.8830001
-0.01076 0.18650667 1.8830001
-0.0059777787 0.18411557 1.8830001
0.016140001 0.18292001 1.8830001
-0.02152 0.19547334 1.8830001
-0.023313334 0.20085335 1.8830001
-0.16283469 0.57386678 1.8830003
-0.15661779 0.57625782 1.8830001
-0.16259557 0.58582222 1.8830001
-0.15525144 0.5851391 1.8830004
-0.16396193 0.59589911 1.8830004
-0.15422666 0.59478897 1.8830003
-0.14526001 0.59897339 1.8830001
-0.13988 0.59897339 1.8830001
0.30664763 -0.35354665 1.8940001
0.31386286 -0.35354668 1.8940001
0.32468575 -0.35535049 1.8940001
0.33550858 -0.35535049 1.8940001
0.34633145 -0.35354668 1.8940001
0.35354665 -0.35354665 1.8940001
0.28680572 -0.34452763 1.8940001
0.29479402 -0.34684685 1.8940002
0.30484381 -0.34993905 1.8940001
0.31386286 -0.34993905 1.8940001
0.32558763 -0.34813523 1.8940001
0.33406553 -0.34633145 1.8940001
0.3456099 -0.34849602 1.8940001
0.35354665 -0.34993905 1.8940001
0.28860953 -0.33911622 1.8940001
0.29221714 -0.33911622 1.8940001
0.36797714 -0.33370477 1.8940001
0.37278733 -0.33310351 1.8940001
0.36797714 -0.32468575 1.8940001
0.36707523 -0.31296095 1.8940001
0.37158477 -0.31386286 1.8940001
0.34813523 -0.29221714 1.8940001
0.35535049 -0.29402095 1.8940001
0.34813523 -0.28680572 1.8940001
0.35535049 -0.28860953 1.8940001
0.28319812 -0.20202667 1.8940001
0.29221714 -0.20563428 1.8940001
0.26516002 -0.16234286 1.8940001
0.27417907 -0.16474794 1.8940001
0.25758401 -0.15368457 1.8940001
0.26516002 -0.15693143 1.8940001
0.27057144 -0.15693143 1.8940001
0.24748266 -0.14358325 1.8940001
0.25614098 -0.14430477 1.8940002
0.24892572 -0.13528571 1.8940001
0.25614095 -0.13528572 1.8940001
0.2471219 -0.12626667 1.8940001
0.25253335 -0.12987429 1.8940001
0.2332927 -0.11303873 1.8940001
0.2435143 -0.11905143 1.8940001
0.22728001 -0.10462096 1.8940001
0.22457428 -0.094700009 1.8940001
0.22487491 -0.084177785 1.8940001
0.22367238 -0.075759999 1.8940001
0.22511542 -0.064215623 1.8940001
0.21645714 -0.050506666 1.8940001
0.22096667 -0.05501619 1.8940001
0.20202667 -0.043291431 1.8940001
0.21465334 -0.045095243 1.8940001
0.20563428 -0.036076192 1.8940002
0.21429257 -0.035354666 1.8940001
0.20563428 -0.025253335 1.8940002
0.21465334 -0.028860953 1.8940001
0.205033 -0.014430476 1.8940001
0.20383048 -0.0054114284 1.8940001
0.20460352 0.0041229934 1.8940002
0.2056343 0.013399729 1.8940002
0.20322922 0.022848256 1.8940001
0.19408992 0.05411429 1.8940001
0.11327924 0.065658674 1.8940001
0.18398857 0.065839052 1.8940001
0.17677334 0.075759999 1.8940001
0.18038096 0.072152384 1.8940001
0.17436826 0.084177785 1.8940001
0.039683808 0.12987429 1.8940001
0.045095243 0.12987429 1.8940001
0.050506666 0.12987429 1.8940001
-0.15152 0.13708952 1.8940001
0.018038096 0.13708952 1.8940001
0.03788 0.13528571 1.8940001
0.044493973 0.13468444 1.8940001
0.050506666 0.1334819 1.8940001
-0.14791238 0.14430477 1.8940001
0.016595049 0.1450263 1.8940001
0.025253333 0.14791238 1.8940001
0.03788 0.14430475 1.8940001
0.044734482 0.14358324 1.8940001
0.050506666 0.14430477 1.8940001
-0.14610857 0.15512761 1.8940001
-0.12265905 0.1533238 1.8940001
-0.11364 0.15873523 1.8940001
-0.10462096 0.15873525 1.8940001
-0.093798101 0.15873525 1.8940001
-0.084779054 0.15873523 1.8940001
-0.075759999 0.15873525 1.8940001
-0.064937145 0.15873523 1.8940001
-0.055918097 0.15873523 1.8940001
-0.043291431 0.15873523 1.8940001
-0.036076192 0.15873525 1.8940001
-0.028860953 0.15873523 1.8940001
0.0054114284 0.15873523 1.8940001
0.014430476 0.15512761 1.8940002
0.023810288 0.15368457 1.8940001
0.036076188 0.15152 1.8940001
0.044734482 0.15584914 1.8940001
-0.14250097 0.16595048 1.8940001
-0.084177785 0.1635454 1.8940001
-0.076481521 0.1637859 1.8940001
-0.064937145 0.16234288 1.8940001
-0.05411429 0.1635454 1.8940001
-0.045095243 0.16234286 1.8940001
-0.036076192 0.16234288 1.8940001
-0.028860953 0.16234286 1.8940001
0.0054114289 0.16595048 1.8940001
0.014430476 0.16595049 1.8940002
0.021645715 0.16595048 1.8940001
0.036076188 0.16955811 1.8940001
0.045095243 0.16595048 1.8940001
0.056519367 0.1635454 1.8940001
-0.13708952 0.17316572 1.8940001
0.0054114284 0.17496952 1.8940001
0.013528571 0.17406762 1.8940001
0.021645715 0.17496952 1.8940001
0.036076192 0.17496952 1.8940001
0.04689905 0.17496952 1.8940001
-0.1334819 0.1875962 1.8940001
-0.0036076191 0.1875962 1.8940001
0.0036076191 0.18398857 1.8940002
0.012987429 0.18543163 1.8940001
0.024802381 0.18443953 1.8940001
0.036076188 0.18398857 1.8940002
-0.015332382 0.19390953 1.8940001
-0.0036076191 0.19120382 1.8940001
0.0054114284 0.19120382 1.8940001
0.014430476 0.19300763 1.8940001
0.023449525 0.19300763 1.8940001
-0.023449525 0.2074381 1.8940001
-0.016234286 0.20653619 1.8940001
0.010822858 0.20924191 1.8940001
0.036076192 0.20383048 1.8940001
-0.010822858 0.21284953 1.8940001
-0.18639366 0.57601655 1.8940001
-0.17677332 0.57721907 1.8940001
-0.16595048 0.57721907 1.8940001
-0.16667201 0.58659887 1.8940001
-0.18038096 0.59886479 1.8940001
-0.17460875 0.59597874 1.8940001
-0.16955811 0.59525716 1.8940001
-0.15152 0.59525716 1.8940001
-0.14610857 0.59525716 1.8940001
0.34634668 -0.35903999 1.904
0.35178667 -0.35903999 1.904
0.37536001 -0.32277334 1.904
0.37717333 -0.31914666 1.904
0.31552002 -0.22848001 1.904
0.27744001 -0.16320001 1.904
0.26655999 -0.15232 1.904
0.27744001 -0.15775999 1.904
0.26655999 -0.14869334 1.904
0.25749335 -0.13056 1.904
0.26293331 -0.13418667 1.904
0.25568002 -0.12693334 1.904
0.26111999 -0.12693334 1.904
0.23936 -0.11424001 1.904
0.24419557 -0.11363556 1.904
0.25024 -0.11968 1.904
0.23392002 -0.10517333 1.9040002
0.22848001 -0.092480004 1.904
0.23210667 -0.096106663 1.904
0.22848001 -0.08704 1.904
0.22848003 -0.076160006 1.904
0.22848001 -0.068906672 1.904
0.22485334 -0.052586667 1.904
0.22122668 -0.045333333 1.904
0.2176 -0.039893333 1.904
0.22122668 -0.038079999 1.904
0.21578667 -0.023573333 1.904
0.21324801 -0.015232001 1.9040002
0.21155557 -0.0060444446 1.904
0.21155557 0.0036266667 1.904
0.21306668 0.015413335 1.904
0.20671999 0.0272 1.904
0.19946666 0.054400001 1.904
0.18858667 0.067093335 1.904
0.19402668 0.061653331 1.904
0.18254223 0.076159999 1.904
0.18133333 0.083413333 1.904
0.068906672 0.11968 1.904
0.039893333 0.12693334 1.904
0.052586667 0.12693334 1.904
0.068906672 0.12330666 1.904
-0.15594667 0.13418666 1.904
0.025386667 0.13781334 1.904
0.035057776 0.13418667 1.9040002
0.047146667 0.13781334 1.904
0.055004448 0.13418667 1.9040002
-0.15232 0.14506668 1.904
-0.14869334 0.14869334 1.904
-0.12330666 0.14869334 1.904
-0.061653331 0.14869334 1.904
-0.058026668 0.14869334 1.904
0.025386667 0.14325336 1.9040002
0.032640003 0.14506668 1.904
0.047146667 0.14869334 1.904
0.054853335 0.14506668 1.9040002
0.065279998 0.14144 1.904
-0.15232 0.15594667 1.904
-0.14869334 0.15775999 1.904
-0.11968 0.15413333 1.904
-0.094293341 0.15594667 1.904
-0.08522667 0.15594667 1.904
-0.076160006 0.154496 1.9040002
-0.065279998 0.15491049 1.9040003
-0.053881906 0.15491049 1.9040003
-0.045937777 0.15715556 1.904
-0.036266666 0.15594667 1.904
-0.023573333 0.15594667 1.904
0.047146667 0.15232 1.904
0.054400001 0.15594669 1.9040002
0.065279998 0.15775999 1.904
0.072533339 0.15957333 1.904
-0.14869334 0.16501334 1.904
-0.050773334 0.16320001 1.904
0.051982224 0.16561779 1.904
0.065279998 0.16501334 1.9040002
0.073742226 0.16561779 1.904
-0.14416 0.17408 1.904
-0.13781334 0.17770667 1.904
0.04352 0.17589334 1.904
0.054400001 0.17408 1.9040002
0.065280005 0.17304382 1.9040003
0.073984005 0.17335467 1.9040002
-0.13781336 0.18496001 1.904
0.045333333 0.18496001 1.9040002
0.053363811 0.18444191 1.9040003
-0.012693333 0.19765332 1.904
-0.0058026668 0.19656533 1.9040002
0.0031085715 0.1968762 1.9040003
0.014506668 0.19946668 1.904
0.026837334 0.19729066 1.9040002
0.03626667 0.19584002 1.9040002
0.044426668 0.19493334 1.904
-0.012693333 0.20490667 1.904
-0.00544 0.20490667 1.904
0.0036266667 0.20490669 1.9040002
0.014506668 0.20490667 1.9040002
0.025386667 0.20490667 1.9040002
0.036266666 0.20490667 1.904
0.04472889 0.20551112 1.904
0.050773334 0.20671999 1.904
-0.014506667 0.21034667 1.904
-0.00544 0.21216001 1.904
0.0036266667 0.21216002 1.9040002
0.015232001 0.2125227 1.9040002
0.025386667 0.21034667 1.904
0.036266666 0.21215999 1.9040002
0.045333333 0.21216001 1.904
0.050773334 0.21034667 1.904
-0.18314667 0.57663995 1.904
-0.17408 0.57664001 1.904
-0.18444191 0.58492959 1.9040003
-0.17408 0.58389342 1.9040003
-0.15232 0.58752 1.904
-0.14688 0.58570665 1.904
-0.18314669 0.59477335 1.9040002
-0.17649779 0.59235561 1.904
-0.15232 0.59114671 1.904
-0.14688 0.59114671 1.904
0.37752858 -0.33193335 1.9150001
0.37752858 -0.32828572 1.9150001
0.31734288 -0.22615239 1.9150001
0.32281429 -0.2298 1.9150001
0.3064 -0.21520954 1.9150001
0.28633809 -0.20061906 1.9150001
0.29472765 -0.20353715 1.9150002
0.30275241 -0.20791429 1.9150001
0.2881619 -0.19514762 1.9150001
0.29363334 -0.19514762 1.9150001
0.29545715 -0.1896762 1.9150001
0.27357143 -0.1532 1.9150001
0.26749212 -0.1446889 1.9150002
0.27357143 -0.14955239 1.9150001
0.26810002 -0.1349619 1.9150001
0.25606287 -0.12256 1.9150002
0.2644524 -0.12401905 1.9150001
0.2480381 -0.11672381 1.9150001
0.25350952 -0.11490001 1.9150001
0.24439049 -0.10578096 1.9150001
0.25168574 -0.10942857 1.9150001
0.23618335 -0.093926199 1.9150001
0.24074286 -0.098485716 1.9150001
0.23466352 -0.085111111 1.9150002
0.24074286 -0.083895244 1.9150001
0.23344763 -0.072952382 1.9150001
0.23344763 -0.065657146 1.9150001
0.22980002 -0.054714289 1.9150002
0.23344763 -0.056538098 1.9150001
0.22615239 -0.047419049 1.9150001
0.21764128 -0.013374603 1.9150002
0.22250476 -0.010942858 1.9150001
0.21703334 -0.0054714289 1.9150001
0.21703334 0.0036476192 1.9150001
0.21885714 0.012766667 1.9150001
0.21156192 0.025533333 1.9150002
0.20061906 0.058361907 1.9150001
0.19514762 0.067480952 1.9150001
0.20061907 0.065657146 1.9150002
0.18846032 0.075384133 1.9150002
0.1945397 0.074168257 1.9150002
0.13860953 0.085719049 1.9150001
0.17873335 0.087542862 1.9150001
0.18602857 0.083895236 1.9150001
0.17873335 0.09119048 1.9150001
0.18238096 0.093014285 1.9150001
0.058361907 0.12584285 1.9150001
0.065049209 0.12523493 1.9150002
0.074776195 0.12401905 1.9150002
0.083287306 0.12401905 1.9150002
-0.16049524 0.13313809 1.9150001
-0.15684763 0.13860953 1.9150001
-0.080247618 0.13860953 1.9150001
-0.072952382 0.13860953 1.9150001
-0.067480952 0.13860953 1.9150001
0.026141271 0.13435397 1.9150002
0.058361907 0.13860953 1.9150001
0.065657139 0.13496192 1.9150001
0.074776195 0.1349619 1.9150002
0.081159525 0.13405001 1.9150001
-0.15684763 0.14590478 1.9150002
-0.12158731 0.14712064 1.9150002
-0.11490001 0.14955239 1.9150001
-0.10578096 0.14809334 1.9150002
-0.094838098 0.14772859 1.9150002
-0.083374158 0.14694697 1.9150002
-0.074776195 0.14590478 1.9150002
-0.066113092 0.14544883 1.9150001
-0.055322226 0.14590478 1.9150002
0.065657139 0.14636073 1.9150001
0.074776195 0.14590478 1.9150002
0.081159525 0.14681667 1.9150001
-0.16049524 0.15502381 1.9150001
-0.15684763 0.15502381 1.9150001
-0.11490001 0.15502381 1.9150001
-0.10578096 0.15502381 1.9150002
-0.094838098 0.1532 1.9150002
-0.085719049 0.1532 1.9150001
-0.0766 0.1532 1.9150001
-0.043771427 0.1532 1.9150002
-0.036476191 0.1532 1.9150001
-0.029180953 0.15684763 1.9150001
0.066569045 0.15411191 1.9150001
0.074776188 0.15502381 1.9150001
0.08316572 0.15465906 1.9150002
-0.16368692 0.16459882 1.9150001
-0.15538858 0.16487239 1.9150002
0.062009525 0.16049524 1.9150001
0.0766 0.16231905 1.9150001
0.082071431 0.16414286 1.9150002
-0.16414288 0.1714381 1.9150002
-0.15465906 0.17435621 1.9150002
-0.14833651 0.17751747 1.9150002
0.065657146 0.17873335 1.9150001
0.0766 0.17873335 1.9150001
0.081159525 0.17417382 1.9150001
-0.17508572 0.18420476 1.9150001
-0.16505477 0.18511668 1.9150001
-0.1532 0.18420476 1.9150001
-0.14544883 0.18557262 1.9150001
0.058361907 0.18785238 1.9150001
0.065657139 0.18602858 1.9150001
0.074776195 0.18602858 1.9150002
0.080247626 0.18602857 1.9150002
-0.14499287 0.19605953 1.9150001
-0.13678572 0.19514762 1.9150001
0.047419049 0.19697143 1.9150001
0.054714289 0.19514762 1.9150002
0.063833334 0.19332381 1.9150001
-0.14590478 0.20061907 1.9150002
-0.13860953 0.20061906 1.9150001
0.047419049 0.20244287 1.9150001
0.055170242 0.20381072 1.9150001
0.18846032 0.5678128 1.9150002
0.19332382 0.56538099 1.9150002
0.16779049 0.57814765 1.9150001
0.17508572 0.57851237 1.9150002
0.15684763 0.58726668 1.9150001
0.16487239 0.58580768 1.9150002
0.17508572 0.5854429 1.9150002
0.18602857 0.5854429 1.9150002
0.19332381 0.58361906 1.9150001
-0.1945397 0.59699368 1.9150002
-0.1896762 0.59638572 1.9150001
0.15502381 0.59456199 1.9150002
0.16414286 0.59456193 1.9150001
0.17508572 0.59456187 1.9150001
0.18238096 0.59091431 1.9150001
0.32633334 -0.23466668 1.9250001
0.33122224 -0.23222224 1.9250001
0.31716669 -0.22366667 1.9250001
0.32450002 -0.22733334 1.9250001
0.33183333 -0.22733334 1.9250001
0.30800003 -0.21266666 1.9250001
0.31166667 -0.21450001 1.9250001
0.30485716 -0.20428573 1.9250002
0.31428573 -0.20533334 1.9250002
0.30311114 -0.19555557 1.9250001
0.31625003 -0.19341666 1.9250001
0.27866668 -0.15216668 1.9250001
0.28416669 -0.15400001 1.9250001
0.27573335 -0.14446667 1.9250001
0.28233334 -0.14300001 1.9250001
0.27500001 -0.13658333 1.9250001
0.28233334 -0.13933334 1.9250001
0.26644444 -0.12344446 1.9250001
0.27255559 -0.12588888 1.9250001
0.25666666 -0.11000001 1.9250001
0.264 -0.11366667 1.9250001
0.27133337 -0.11733334 1.9250001
0.25422224 -0.10511111 1.9250001
0.26400003 -0.10633334 1.9250001
0.24566668 -0.095333345 1.9250002
0.25300002 -0.097166672 1.9250001
0.23711114 -0.083111115 1.9250001
0.24505556 -0.084333345 1.9250001
0.25300002 -0.084333338 1.9250001
0.23711114 -0.075777784 1.9250001
0.24493335 -0.074800007 1.9250001
0.23833334 -0.069666669 1.9250001
0.24383333 -0.069666669 1.9250001
0.23650001 -0.051333334 1.9250001
0.22733334 -0.042166665 1.9250001
0.23283334 -0.047666669 1.9250001
0.22733334 -0.036666665 1.9250001
0.22586668 -0.0154 1.9250001
0.23100001 -0.012833334 1.9250001
0.2244 -0.0051333341 1.9250001
0.22471429 0.0031428572 1.9250002
0.22471431 0.015190477 1.9250002
0.23100001 0.0165 1.9250001
0.21633334 0.023833334 1.9250001
0.22293334 0.024200002 1.9250001
0.20655558 0.055000003 1.9250001
0.20533334 0.062333338 1.9250001
0.19800001 0.077000007 1.9250001
0.20166668 0.075166672 1.9250001
0.18700001 0.088 1.9250001
0.19479167 0.084333338 1.9250001
0.20166668 0.082500003 1.9250001
0.18700001 0.093500003 1.9250001
0.19341667 0.092583336 1.9250001
0.085555553 0.12466668 1.9250001
0.092888892 0.12711112 1.9250001
-0.16377778 0.13811111 1.9250001
-0.12466668 0.13933334 1.9250001
-0.093500003 0.13933334 1.9250001
-0.08433333 0.1375 1.9250001
-0.077000007 0.13933334 1.9250001
0.08653333 0.13640001 1.9250001
0.092583336 0.13475001 1.9250001
-0.16316667 0.14483333 1.9250001
-0.12283334 0.14300001 1.9250001
-0.11440001 0.14446667 1.9250001
-0.10511111 0.14422223 1.9250001
-0.095333338 0.14300001 1.9250001
-0.086166665 0.14300001 1.9250001
0.086166665 0.14483333 1.9250001
0.091666669 0.14666666 1.9250001
-0.1925 0.15400001 1.9250001
-0.17783333 0.15400001 1.9250001
-0.16561112 0.15400001 1.9250001
-0.044 0.15033334 1.9250001
-0.034833334 0.15216668 1.9250001
0.088 0.15400001 1.9250001
0.092583336 0.15400001 1.9250001
-0.1749524 0.16552383 1.9250002
-0.16866668 0.16133334 1.9250001
0.088 0.16500001 1.9250001
-0.18333334 0.17233334 1.9250001
-0.1749524 0.17547621 1.9250002
-0.16500001 0.17783332 1.9250001
-0.15766667 0.17966667 1.9250001
0.086166665 0.176 1.9250001
-0.18333334 0.18516667 1.9250001
-0.17233334 0.18516667 1.9250001
-0.1637778 0.18577778 1.9250001
-0.15766667 0.18516667 1.9250001
0.086166665 0.18516667 1.9250001
0.091666669 0.18700001 1.9250001
-0.1918889 0.19311111 1.9250001
-0.18516667 0.1925 1.9250001
-0.17233334 0.19066668 1.9250001
-0.16500001 0.19066668 1.9250001
-0.15326668 0.19213334 1.9250001
-0.14666666 0.19433333 1.9250001
0.066916667 0.19708334 1.9250001
0.075166672 0.19616668 1.9250001
0.084791675 0.19479167 1.9250001
0.094111115 0.19555557 1.9250001
0.066000007 0.20533334 1.9250001
0.075166672 0.20716667 1.9250001
0.080666669 0.20716667 1.9250001
0.095333338 0.20166668 1.9250001
0.069666669 0.21266666 1.9250001
0.07333333 0.21266666 1.9250001
0.16683334 0.55366671 1.9250001
0.17233334 0.55366671 1.9250001
0.15033334 0.56833333 1.9250001
0.16683334 0.56833333 1.9250001
0.18700001 0.56833333 1.9250001
0.14483333 0.57200003 1.9250001
0.15400001 0.57200003 1.9250001
0.16500001 0.57514286 1.9250002
0.17600001 0.57461905 1.9250002
0.18480001 0.57639998 1.9250001
0.19433334 0.57383335 1.9250001
0.20166668 0.57200003 1.9250001
0.14483333 0.58666664 1.9250001
0.15400001 0.58483332 1.9250001
0.16255556 0.58422226 1.9250001
0.18516667 0.583 1.9250001
0.1925 0.583 1.9250001
0.14446667 0.59326667 1.9250001
0.15155557 0.5915556 1.9250001
0.31713524 -0.22125715 1.9360001
0.32451048 -0.22310096 1.9360001
0.33188573 -0.22494477 1.9360001
0.31713524 -0.21572572 1.9360001
0.32174477 -0.21296 1.9360001
0.32524803 -0.20429412 1.9360001
0.33188573 -0.20466286 1.9360001
0.30853081 -0.19298542 1.9360002
0.31529146 -0.19544382 1.9360001
0.32451051 -0.19913146 1.9360002
0.30791619 -0.18806858 1.9360001
0.31529146 -0.18806858 1.9360001
0.2857905 -0.1511924 1.9360001
0.28640512 -0.14627557 1.9360002
0.27657145 -0.1327543 1.9360001
0.28210285 -0.13459811 1.9360001
0.27534226 -0.12414985 1.9360002
0.28025904 -0.12906668 1.9360001
0.25813335 -0.10325334 1.9360001
0.26550859 -0.10325335 1.9360002
0.27288383 -0.10325334 1.9360001
0.2559208 -0.094403051 1.9360001
0.26550859 -0.097721919 1.9360001
0.27288383 -0.099565722 1.9360001
0.25497258 -0.084815249 1.9360001
0.25444576 -0.074279182 1.9360001
0.26366478 -0.075596191 1.9360001
0.23846605 -0.065147944 1.9360002
0.24522668 -0.064533338 1.9360001
0.25444576 -0.064533345 1.9360001
0.23969524 -0.057158098 1.9360001
0.24522671 -0.055314295 1.9360001
0.25444576 -0.055314295 1.936
0.23600763 -0.045480639 1.9360002
0.24522668 -0.047939051 1.9360001
0.25260192 -0.047939051 1.9360001
0.23354922 -0.0061460324 1.9360002
0.23600765 0.0036876195 1.936
0.24338287 0.0036876192 1.9360002
0.23785144 0.016594285 1.9360001
0.21756953 0.029500954 1.9360001
0.22586668 0.027657144 1.9360001
0.2352701 0.023600763 1.9360001
0.21756953 0.033188574 1.9360001
0.22494477 0.033188574 1.9360002
0.2114235 0.057772703 1.9360002
0.20650668 0.066377148 1.9360001
0.2120381 0.064533338 1.9360001
0.20650668 0.071908571 1.9360001
0.21111619 0.072830476 1.9360001
0.20466286 0.086659051 1.9360001
0.21019429 0.084815241 1.9360001
0.22740319 0.087273657 1.9360002
0.23416382 0.086659051 1.9360001
0.20281905 0.092190482 1.9360001
0.097721912 0.12722287 1.9360001
-0.092190482 0.13644192 1.9360001
-0.077440001 0.13644192 1.9360001
0.098336518 0.13521272 1.9360002
0.10325334 0.1327543 1.9360001
-0.20281905 0.14750476 1.9360001
-0.19360001 0.14566097 1.9360001
-0.18438098 0.14566097 1.9360001
-0.17516193 0.14381716 1.9360001
-0.1696305 0.14381716 1.9360002
-0.10325334 0.14012952 1.9360001
-0.099565722 0.14012952 1.9360001
0.096492708 0.14381714 1.9360001
-0.21019429 0.15672381 1.9360001
-0.20466289 0.15488 1.9360001
-0.19597064 0.15488002 1.9360001
-0.18484193 0.15488002 1.936
-0.17479315 0.15488 1.9360001
-0.16963048 0.1511924 1.9360001
-0.033188574 0.1511924 1.9360001
-0.025813334 0.15488002 1.9360002
0.097721912 0.15395811 1.9360001
-0.21019429 0.16225524 1.9360001
-0.20374095 0.16502096 1.9360001
-0.19544384 0.16594286 1.936
-0.18484193 0.16548191 1.936
0.094034299 0.16594286 1.9360001
-0.20281905 0.17516191 1.9360001
-0.19544384 0.17516193 1.9360001
-0.18530287 0.17608382 1.9360001
0.094034292 0.17516191 1.9360001
-0.20281905 0.18622477 1.9360001
-0.19544384 0.18438098 1.936
-0.18438098 0.18385418 1.9360001
0.088502862 0.18069334 1.9360001
0.095263503 0.18438098 1.9360001
0.10509715 0.18806858 1.9360001
-0.21756953 0.1917562 1.9360001
-0.20404826 0.19421463 1.9360002
-0.19618134 0.19544382 1.9360001
-0.18345906 0.19636573 1.9360001
-0.17700572 0.19360001 1.9360001
0.098336518 0.19298542 1.9360002
0.10472839 0.19470631 1.9360001
0.075596191 0.20281905 1.9360001
0.084815249 0.20281905 1.9360002
0.15856762 0.56789333 1.9360001
0.16870858 0.5632838 1.9360001
0.1733181 0.56051809 1.9360001
0.18806858 0.56789333 1.9360001
0.1917562 0.56789333 1.9360001
0.13644192 0.57895625 1.9360001
0.14381716 0.57895625 1.9360002
0.15580191 0.57711244 1.9360001
0.16225524 0.57526863 1.9360001
0.1733181 0.57158101 1.9360001
0.18253715 0.57158101 1.9360001
0.19728763 0.57895625 1.9360001
0.13644192 0.58264387 1.9360001
0.14381714 0.58448768 1.9360001
0.15488002 0.58264387 1.9360002
0.19360001 0.58264387 1.9360001
0.33377147 -0.22251432 1.9470003
0.3263543 -0.21695144 1.9470001
0.33271188 -0.21562697 1.9470003
0.26516289 -0.092714287 1.9470001
0.26516289 -0.085297152 1.9470003
0.27220917 -0.086038865 1.9470001
0.25960001 -0.07046286 1.9470001
0.26330858 -0.07046286 1.9470001
0.26330858 -0.066754289 1.9470001
0.2354943 -0.040794287 1.9470001
0.24476574 -0.042648576 1.9470003
0.25403717 -0.042648576 1.9470001
0.24476574 -0.03523143 1.9470001
0.25589147 -0.037085716 1.9470001
0.23734859 -0.0037085717 1.9470001
0.24105716 -0.0037085717 1.9470001
0.2354943 0.011125715 1.9470001
0.24352956 0.012361906 1.9470003
0.2225143 0.037085716 1.9470001
0.2225143 0.042648576 1.9470001
0.21695144 0.054701433 1.9470001
0.21880573 0.064900003 1.9470001
0.2225143 0.064900003 1.9470001
0.20768 0.07788001 1.9470001
0.2173223 0.074913152 1.9470001
0.22251432 0.074171439 1.9470003
0.20768 0.085297152 1.9470001
0.21509716 0.08406096 1.9470003
0.22436859 0.085297145 1.9470001
0.20768 0.092714287 1.9470001
0.096422866 0.12238287 1.9470001
0.10136762 0.12609145 1.9470003
-0.23364002 0.13721716 1.9470001
-0.22993144 0.13721716 1.9470001
-0.21324287 0.13721716 1.9470001
-0.20397143 0.13721716 1.9470003
-0.1953181 0.13598096 1.9470003
-0.18542859 0.13721716 1.9470003
-0.17430288 0.13536286 1.9470003
-0.16688572 0.13350858 1.9470001
-0.096422866 0.13721716 1.9470001
-0.089005724 0.13721716 1.9470001
0.10631239 0.13598096 1.9470003
-0.25218287 0.14834286 1.9470001
-0.24402404 0.14685944 1.9470001
-0.2354943 0.14463429 1.9470003
-0.22622289 0.14463428 1.9470003
-0.21509716 0.14463428 1.9470003
-0.20397143 0.14417072 1.9470003
-0.19470002 0.14092572 1.9470001
-0.18542859 0.14092574 1.9470003
-0.11125715 0.14092572 1.9470001
-0.10754858 0.14092572 1.9470001
-0.05192 0.14648858 1.9470001
-0.045430005 0.14741571 1.9470001
-0.034613337 0.14710668 1.9470003
-0.029668573 0.14463429 1.9470001
0.1048996 0.14463431 1.9470003
0.11125715 0.14834286 1.9470001
-0.2521829 0.15576002 1.9470003
-0.24476573 0.15576002 1.9470003
-0.2354943 0.15576002 1.9470003
-0.22622289 0.15576002 1.9470003
-0.21615677 0.15523024 1.9470003
-0.025960004 0.15205143 1.9470003
0.10445811 0.15576003 1.9470003
0.11403857 0.15483287 1.9470001
-0.25218287 0.16503143 1.9470001
-0.24476573 0.16503143 1.9470003
-0.2354943 0.16503143 1.9470001
-0.22622287 0.16503143 1.9470003
-0.21583889 0.16540229 1.9470001
-0.20768 0.16688572 1.9470001
0.10198572 0.16503143 1.9470001
-0.24198431 0.17523001 1.9470001
-0.2354943 0.17430286 1.9470003
-0.2257593 0.17430288 1.9470003
-0.21509716 0.17430289 1.9470003
-0.20768002 0.17430286 1.9470003
0.10384002 0.17430288 1.9470003
-0.24430218 0.18589213 1.9470003
-0.2354943 0.18542859 1.9470003
-0.22622289 0.18542857 1.9470003
-0.21509716 0.18542859 1.9470003
-0.20675285 0.18450144 1.9470001
0.10384002 0.1835743 1.9470003
0.11311144 0.18913715 1.9470001
-0.23364002 0.19284573 1.9470001
-0.22622287 0.1947 1.9470003
-0.21509716 0.19470002 1.9470001
-0.20768 0.19284573 1.9470001
0.11311144 0.19284573 1.9470001
0.16317715 0.55999428 1.9470001
0.16503143 0.56555718 1.9470001
0.17430288 0.56741148 1.9470001
0.18468687 0.56592804 1.9470001
0.19470002 0.56741148 1.9470001
0.15576002 0.57297432 1.9470001
0.16688572 0.57112002 1.9470001
0.17615716 0.57297432 1.9470001
0.18357429 0.57112002 1.9470001
0.13721716 0.58966291 1.9470001
0.27673069 -0.094729908 1.9580001
0.27971429 -0.089508571 1.9580001
0.23682477 -0.035430476 1.9580001
0.24614859 -0.035430476 1.9580001
0.2536076 -0.035430476 1.9580001
0.22625779 0.044754289 1.9580001
0.22252826 0.05594286 1.9580001
0.22750096 0.065266669 1.9580001
0.22750096 0.074590474 1.9580001
0.2334682 0.075336382 1.9580001
0.22377144 0.085779049 1.9580001
0.23309524 0.082049526 1.9580001
0.22750096 0.093238093 1.9580001
0.23371683 0.094481274 1.9580001
0.10442667 0.11934476 1.9580001
0.10566984 0.12431745 1.9580001
-0.28344381 0.13426286 1.9580001
-0.27847111 0.13674921 1.9580001
-0.24521621 0.13612762 1.9580001
-0.2354928 0.13319729 1.9580002
-0.22377144 0.13612762 1.9580001
-0.21444762 0.13426286 1.9580001
-0.20512383 0.1323981 1.9580001
-0.19318934 0.13202515 1.9580001
-0.18461142 0.1323981 1.9580001
-0.17528763 0.13053332 1.9580001
-0.10442667 0.13799238 1.9580001
-0.096967623 0.13426286 1.9580001
0.10815619 0.13053332 1.9580001
0.11312889 0.13674921 1.9580001
-0.26106665 0.14918095 1.9580001
-0.2548508 0.14545143 1.9580001
-0.24708097 0.14265428 1.9580001
-0.11561524 0.1417219 1.9580001
-0.042889524 0.14545143 1.9580001
-0.037295237 0.14545143 1.9580001
-0.026106667 0.14918095 1.9580001
0.11486933 0.14619733 1.9580001
-0.26230985 0.15539682 1.9580001
-0.25733715 0.15477523 1.9580001
0.11748 0.15291047 1.9580001
0.12307428 0.15663999 1.9580001
-0.2647962 0.16409905 1.9579999
-0.25733715 0.16409904 1.9580001
0.10815619 0.16409905 1.9580001
0.11561523 0.16409905 1.9579999
0.12493904 0.16036952 1.9580001
-0.2647962 0.17528763 1.9579999
-0.25547239 0.17528763 1.9580001
-0.24838629 0.17454171 1.9580001
-0.23123048 0.17528762 1.9580001
0.11375048 0.17528763 1.9580001
-0.2647962 0.18461142 1.9580001
-0.25547236 0.18461142 1.9580001
-0.24987811 0.18274666 1.9580001
0.11375048 0.18461142 1.9580001
-0.2647962 0.19020572 1.9580001
-0.25547236 0.19020571 1.9580001
0.17901714 0.56688762 1.9580001
0.16409905 0.57061714 1.9580001
0.17901714 0.57248187 1.9580001
0.22877906 0.037504762 1.9690001
0.22877906 0.048756193 1.9690001
0.22752891 0.055006992 1.9690002
0.23440477 0.05250667 1.9690001
0.24003048 0.05250667 1.9690001
0.22877906 0.060007621 1.9690001
0.23346715 0.064695716 1.9690001
0.24565621 0.067508571 1.9690001
0.23252952 0.071259052 1.9690001
0.24753144 0.071259052 1.9690001
0.21502732 0.093761906 1.9690002
0.22502857 0.095637143 1.9690001
0.23252952 0.097512387 1.9690001
0.22690383 0.10126286 1.9690001
0.23252952 0.10126286 1.9690001
-0.25503239 0.12657858 1.9690001
-0.24284334 0.12470335 1.9690001
-0.23628001 0.1275162 1.9690001
0.10876381 0.12376572 1.9690001
0.11251429 0.12376572 1.9690001
-0.27378482 0.13501714 1.9690002
-0.25440735 0.13501714 1.9690001
-0.2462813 0.13376699 1.9690002
-0.21377715 0.13126667 1.9690001
-0.10126286 0.13501714 1.9690001
-0.091886669 0.13501714 1.9690001
0.11501461 0.13251683 1.9690002
0.12001524 0.13689238 1.9690001
-0.27753526 0.14439334 1.9690001
-0.26378351 0.14376827 1.9690002
-0.25878286 0.14439334 1.9690001
-0.12189049 0.1425181 1.9690001
0.11626476 0.1425181 1.9690001
0.12001524 0.14439334 1.9690001
-0.28253588 0.1550197 1.9690002
-0.27453488 0.1545196 1.9690001
-0.26628384 0.15189429 1.9690001
0.12501588 0.15376954 1.9690002
0.13126667 0.15752001 1.9690001
-0.2812857 0.16502096 1.9690001
-0.27659762 0.16595858 1.9690001
0.12564096 0.16689619 1.9690001
-0.27566004 0.17252192 1.9690001
0.12001524 0.17439716 1.9690001
0.12095286 0.18471096 1.9690001
0.12189049 0.1912743 1.9690001
0.16502096 0.57757336 1.9690001
0.23382859 0.037714288 1.9800001
0.23382859 0.045257147 1.9800003
0.2357143 0.056571431 1.9800001
0.24388574 0.055314288 1.9800003
0.23760001 0.062228575 1.9800001
0.24262857 0.062857151 1.9800003
0.24325716 0.075428575 1.9800003
0.21874288 0.096171439 1.9800001
0.2225143 0.098057151 1.9800001
0.2225143 0.10182858 1.9800001
-0.264 0.12822859 1.9800001
-0.25268573 0.12445715 1.9800001
-0.24514288 0.12445715 1.9800001
-0.23533717 0.12370286 1.9800001
-0.21120001 0.12822859 1.9800001
-0.20742859 0.12822859 1.9800001
-0.19422859 0.12822859 1.9800001
-0.18480001 0.12822859 1.9800003
-0.17537144 0.12822859 1.9800001
0.11565715 0.1257143 1.9800003
-0.2904 0.13577144 1.9800001
-0.2866286 0.13954286 1.9800001
-0.27456003 0.13501714 1.9800001
-0.26447144 0.13530001 1.9800003
-0.23005715 0.132 1.9800001
-0.22440001 0.132 1.9800001
-0.21874288 0.132 1.9800001
-0.11502858 0.13954286 1.9800001
-0.10748573 0.13577144 1.9800001
0.12257144 0.13577142 1.9800001
-0.2904 0.14520001 1.9800001
-0.28474289 0.14520001 1.9800001
-0.27342859 0.14520001 1.9800001
-0.26777145 0.14708573 1.9800001
0.12445715 0.14520001 1.9800001
-0.2904 0.15651429 1.9800001
-0.28537148 0.15337144 1.9800003
-0.27437145 0.15368572 1.9800001
-0.29165715 0.16342859 1.9800003
-0.28512004 0.16594286 1.9800001
-0.2753143 0.16405715 1.9800001
-0.28474289 0.17348573 1.9800001
0.1257143 0.17474286 1.9800003
0.12445715 0.18291429 1.9800001
0.23904002 0.045531429 1.9920001
0.24473143 0.045531429 1.9920003
0.2428343 0.064502858 1.9920001
-0.23904002 0.11762286 1.9920001
-0.23145144 0.12521145 1.9920001
-0.22440493 0.12629552 1.9920003
-0.21627429 0.12710857 1.9920001
-0.20299429 0.12900572 1.9920001
-0.18402286 0.12521143 1.9920001
-0.17833145 0.12521143 1.9920001
0.12141715 0.12710857 1.9920001
-0.11572572 0.1365943 1.9920001
0.1264762 0.13532953 1.9920001
-0.12331429 0.14038858 1.9920001
0.12900572 0.14418288 1.9920001
0.12900572 0.15366858 1.9920001
0.1328 0.15366858 1.9920001
-0.29216 0.17074287 1.9920001
0.12900572 0.17833145 1.9920001
0.12900572 0.18592 1.9920001
0.24417524 0.038152382 2.003
0.24799049 0.064859048 2.003
0.25180572 0.064859048 2.003
0.24671875 0.085206985 2.003
-0.23400128 0.11700064 2.003
-0.22662516 0.1152202 2.003
-0.22319143 0.12208762 2.003
-0.21556094 0.12399524 2.003
-0.20602286 0.12590286 2.003
-0.1938141 0.12437677 2.003
-0.18503904 0.12208762 2.003
-0.11827239 0.1297181 2.003
0.11827239 0.12208762 2.003
0.12781048 0.12781048 2.003
-0.12590286 0.13544098 2.0030003
-0.11445715 0.13353334 2.003
-0.10682666 0.13353334 2.003
0.1297181 0.13353334 2.003
-0.041967619 0.14497904 2.003
-0.038152382 0.14497904 2.003
0.13353334 0.18313143 2.003
0.14402525 0.18599287 2.003
0.1297181 0.19457714 2.003
0.13353334 0.19457714 2.003
0.14116381 0.19076191 2.003
0.2448705 0.033007622 2.0150001
-0.22260952 0.11898096 2.0150001
-0.21877143 0.11898096 2.0150001
-0.19190477 0.11898096 2.0150001
-0.18806668 0.11898096 2.0150001
-0.21301429 0.12281905 2.0150001
-0.20725715 0.12665714 2.0150001
-0.19958097 0.12281905 2.0150001
0.1247381 0.12281905 2.0150001
0.13433333 0.12665714 2.0150001
-0.12281905 0.13049524 2.0150001
-0.10362858 0.13433333 2.0150001
0.13586856 0.13510095 2.0150001
-0.046057142 0.14584763 2.0150001
-0.032623813 0.14584763 2.0150001
-0.026866667 0.14776668 2.0150001
0.1356127 0.14328891 2.0150001
0.21205476 0.16407858 2.0150001
0.1356127 0.17527303 2.0150001
0.13663618 0.18422857 2.0150001
0.14661525 0.1819257 2.0150001
0.1247381 0.19958097 2.0150001
0.13510095 0.19574288 2.0150001
0.14328891 0.19574288 2.0150001
0.1247381 0.20341906 2.0150001
0.20533811 0.20725715 2.0150001
0.21109524 0.20725715 2.0150001
0.20725715 0.21109524 2.0150001
-0.21621335 0.11968953 2.0270002
0.20720446 0.11454159 2.0270002
0.2123524 0.1138981 2.0270002
-0.20656097 0.12355049 2.0270002
0.13513336 0.12483748 2.0270002
0.2123524 0.12741144 2.0270002
-0.10038476 0.13513334 2.0270002
0.13899431 0.13127239 2.0270002
0.14285526 0.13899431 2.0270002
0.19304763 0.13706383 2.0270002
0.20463049 0.13802907 2.0270002
0.13899431 0.14671621 2.0270002
0.19690858 0.14671621 2.0270002
0.20463049 0.14671621 2.0270002
0.2123524 0.14671621 2.0270002
0.13706383 0.15250763 2.0270002
0.19690858 0.15057716 2.0270002
0.20463049 0.15443812 2.0270002
0.21331763 0.15540335 2.0270002
0.22393525 0.15443812 2.0270004
0.1949781 0.16988192 2.0270002
0.20463049 0.16602097 2.0270002
0.21621335 0.16795145 2.0270002
0.22393523 0.16602097 2.0270002
0.13899431 0.17374288 2.0270002
0.14478573 0.17760383 2.0270002
0.15057716 0.17760383 2.0270002
0.19433461 0.17502986 2.0270002
0.20463049 0.17567335 2.0270004
0.21428287 0.17567335 2.0270002
0.22136128 0.17502986 2.0270002
0.19304763 0.18532573 2.0270002
0.20518206 0.18422261 2.0270004
0.21428287 0.18532573 2.0270004
0.2200743 0.18146478 2.0270002
0.14671621 0.19690858 2.0270002
0.15443811 0.19690858 2.0270002
0.16216002 0.19690858 2.0270002
0.18918668 0.1949781 2.0270002
0.1949781 0.1949781 2.0270002
0.20366526 0.19401287 2.0270002
0.21428287 0.19304763 2.0270002
0.13513336 0.20334351 2.0270002
0.14671621 0.20076953 2.0270002
0.18629096 0.20656097 2.0270002
0.19459201 0.20540269 2.0270002
0.20463049 0.20656097 2.0270002
0.2123524 0.20463049 2.0270002
0.1872562 0.21428287 2.0270002
0.1949781 0.21428287 2.0270002
0.20270002 0.21428287 2.0270002
0.1872562 0.2200743 2.0270002
0.19562159 0.22136128 2.0270002
0.20076953 0.22200477 2.0270002
-0.22396636 0.11521968 2.039
0.20195809 0.11651429 2.039
-0.21360953 0.1203981 2.039
-0.2058419 0.1203981 2.039
-0.19807428 0.1203981 2.039
0.11651429 0.1203981 2.039
0.12428191 0.1203981 2.039
0.19613239 0.12816572 2.039
0.20695157 0.12483675 2.039
0.21490413 0.12298732 2.039
-0.11651429 0.13204953 2.039
0.14564286 0.13593332 2.039
0.19710334 0.13496238 2.039
0.2058419 0.13360305 2.039
0.21360955 0.13593332 2.039
-0.064082861 0.14758477 2.039
-0.050489523 0.14758477 2.039
0.14499557 0.14499557 2.039
0.19341372 0.14525449 2.039
0.2058419 0.14370096 2.039
0.21555144 0.14564286 2.039
0.22331905 0.14758477 2.039
0.13981713 0.15535238 2.039
0.19419049 0.15590721 2.039
0.21749334 0.15341046 2.039
0.22526096 0.15535238 2.039
0.13787523 0.16700381 2.039
0.18642285 0.16700381 2.039
0.19496725 0.16545029 2.039
0.13787523 0.17088762 2.039
0.14758477 0.17477144 2.039
0.15146858 0.17477144 2.039
0.18642287 0.17477143 2.039
0.19224857 0.17574239 2.039
0.17865524 0.18642285 2.039
0.18448095 0.18642285 2.039
0.19419047 0.18448094 2.039
0.15341046 0.19419049 2.039
0.16700381 0.19807428 2.039
0.1758811 0.19474532 2.039
0.18409257 0.19496724 2.039
0.19419047 0.19030666 2.039
0.2058419 0.19419047 2.039
0.21360953 0.19807428 2.039
0.13690428 0.20875476 2.039
0.14564286 0.20778382 2.039
0.15535238 0.20390001 2.039
0.16700381 0.20972572 2.039
0.17671335 0.20681286 2.039
0.18448094 0.20487095 2.039
0.19419047 0.20195809 2.039
0.20506513 0.20351163 2.039
0.21360953 0.20195809 2.039
0.17606604 0.21619874 2.039
0.18253905 0.21555144 2.039
0.14661381 0.22429 2.039
0.15405777 0.22396636 2.039
0.16603285 0.22429 2.039
0.17366178 0.22470613 2.039
0.18409257 0.22603773 2.039
0.19341372 0.22759126 2.039
0.16700381 0.23302858 2.039
0.17282954 0.23302858 2.039
0.19613239 0.23302858 2.039
0.13787523 0.29905334 2.039
0.13787523 0.30293715 2.039
0.14370096 0.30293715 2.039
-0.081560001 0.58257145 2.039
-0.21682 0.1172 2.0510001
-0.19533335 0.1172 2.0510001
0.21877334 0.1172 2.0510001
0.22268 0.1172 2.0510001
0.14259334 0.12696667 2.0510001
0.19924001 0.12306 2.0510001
0.20314668 0.12306 2.0510001
0.21877334 0.12501334 2.0510001
0.22463334 0.12501335 2.0510004
0.23049335 0.12696667 2.0510001
-0.12892 0.13282667 2.0510001
0.14845334 0.13282667 2.0510001
0.15236001 0.13673334 2.0510001
0.21877334 0.13478 2.0510001
-0.054693334 0.14845334 2.0510001
-0.044926669 0.14454667 2.0510001
0.14845334 0.14845334 2.0510001
0.15431336 0.14454669 2.0510004
0.21877334 0.14259334 2.0510001
0.22463334 0.14259334 2.0510001
0.23049335 0.14259334 2.0510001
0.14650001 0.15431334 2.0510001
0.15366223 0.15366223 2.0510001
0.18752001 0.15626667 2.0510001
0.19142668 0.15626667 2.0510001
0.14552334 0.16212668 2.0510001
0.15236001 0.16212668 2.0510001
0.18752001 0.16212668 2.0510001
0.19142668 0.16408001 2.0510001
0.14650001 0.17384668 2.0510001
0.15236001 0.17189334 2.0510001
0.18752001 0.18361333 2.0510001
0.18752001 0.19142668 2.0510001
0.16603334 0.2051 2.0510001
0.17384668 0.2051 2.0510001
0.12696667 0.21877334 2.0510001
0.13478 0.21682 2.0510001
0.14454669 0.21682 2.0510004
0.15431336 0.21486668 2.0510004
0.16359168 0.21535502 2.0510004
0.17482334 0.21486668 2.0510001
0.1172 0.22658668 2.0510001
0.12501335 0.22463334 2.0510004
0.13478 0.22463334 2.0510001
0.14194223 0.22528446 2.0510001
0.16212668 0.22658668 2.0510001
0.17970668 0.22658668 2.0510001
0.076180004 0.23049335 2.0510001
0.097666666 0.23830667 2.0510001
0.10157334 0.23830667 2.0510001
0.11329334 0.23830667 2.0510001
0.12761778 0.23179558 2.0510001
0.13478 0.23244669 2.0510001
0.14405835 0.23488833 2.0510004
0.15470402 0.23518133 2.0510004
0.16296382 0.2349581 2.0510004
0.17736268 0.23596267 2.0510004
0.18556666 0.23635334 2.0510001
0.19403112 0.23700444 2.0510001
0.20314668 0.23830667 2.0510001
0.11524667 0.24416669 2.0510001
0.14454669 0.24416667 2.0510004
0.15431334 0.24416669 2.0510001
0.16408002 0.24416667 2.0510004
0.17580001 0.2441667 2.0510004
0.18361333 0.24416669 2.0510001
0.19924001 0.24416669 2.0510001
0.2051 0.24416669 2.0510001
0.21096 0.24416669 2.0510001
0.13478 0.25198001 2.0510001
0.14454667 0.25393334 2.0510004
0.15431336 0.25393337 2.0510004
0.16359167 0.25393334 2.0510004
0.18361335 0.25393337 2.0510001
0.19924001 0.25002667 2.0510001
0.2051 0.25002667 2.0510001
0.070320003 0.26956001 2.0510001
0.13673334 0.26956001 2.0510001
0.14503501 0.26614168 2.0510004
0.15431336 0.26565334 2.0510004
0.16173601 0.26565334 2.0510004
0.17970668 0.26370001 2.0510001
0.18361335 0.26565334 2.0510001
0.13673334 0.27346668 2.0510001
0.14532802 0.27502933 2.0510004
0.15431334 0.27542001 2.0510001
0.16147557 0.27607113 2.0510001
0.12892 0.28714001 2.0510001
0.13478 0.28714001 2.0510001
0.14454667 0.28518671 2.0510004
0.15431336 0.28518671 2.0510004
0.16296382 0.2846286 2.0510004
0.17580001 0.28128001 2.0510001
0.1172 0.29690668 2.0510001
0.12579468 0.29534402 2.0510004
0.13478 0.29495335 2.0510001
0.14454669 0.29495335 2.0510004
0.15431334 0.29495335 2.0510001
0.16505668 0.29397669 2.0510001
0.17580001 0.29495335 2.0510004
0.18556666 0.29495335 2.0510001
0.12696667 0.30081335 2.0510001
0.13282667 0.30081335 2.0510001
0.14715111 0.30211556 2.0510001
0.15236001 0.30081335 2.0510001
-0.082040004 0.57818669 2.0510001
-0.07422667 0.57818669 2.0510001
-0.064460002 0.57818669 2.0510001
-0.058600001 0.57818669 2.0510001
-0.076180011 0.58600008 2.0510004
-0.22201812 0.11395621 2.0630002
-0.21415907 0.11592097 2.0630002
-0.20433526 0.11657589 2.0630002
-0.19647621 0.11395621 2.0630002
0.13360383 0.12181525 2.0630002
0.14932191 0.1296743 2.0630002
-0.11395621 0.13360383 2.0630002
0.15587112 0.13491367 2.0630002
0.16111049 0.13556859 2.0630002
0.22594765 0.13556859 2.0630002
0.23184192 0.13556859 2.0630002
