# .PCD v0.7 - Point Cloud Data file format
VERSION 0.7
FIELDS x y z
SIZE 4 4 4
TYPE F F F
COUNT 1 1 1
WIDTH 1478
HEIGHT 1
VIEWPOINT 0 0 0 1 0 0 0
POINTS 1478
DATA ascii
0.16682667 0.02176 1.904
0.17135999 0.02448 1.904
0.19946666 0.02176 1.904
0.20490667 0.023573333 1.904
0.17498666 0.034453332 1.904
0.18314666 0.038079999 1.904
0.17770667 0.045333333 1.904
0.18254223 0.04472889 1.904
0.17770667 0.050773334 1.904
0.18496001 0.050773334 1.904
0.10517333 0.12693334 1.904
-0.053674668 0.13636267 1.9040002
-0.044970669 0.134912 1.9040002
-0.036784761 0.13315046 1.9040003
-0.025386667 0.13418666 1.904
-0.013781333 0.13563733 1.9040002
-0.0060444446 0.13539556 1.904
0.0036266667 0.13056001 1.904
0.1088 0.13237333 1.904
0.11363556 0.13660446 1.904
-0.083413333 0.14869334 1.904
-0.075253338 0.14778666 1.904
-0.066186666 0.14506668 1.904
-0.058026668 0.14144 1.904
-0.047146667 0.14144 1.904
0.11726221 0.14385778 1.9040002
0.12330666 0.14869334 1.904
-0.11605334 0.15957335 1.904
-0.10426667 0.15866667 1.904
-0.093567997 0.154496 1.9040002
-0.08522667 0.15413333 1.904
-0.076885335 0.15377067 1.9040002
0.11968 0.15775999 1.904
0.12421333 0.15504 1.904
-0.12330666 0.16682667 1.904
-0.11605334 0.16501334 1.9040002
-0.10517333 0.16501334 1.9040002
0.11968 0.16501334 1.904
0.12451556 0.16561779 1.904
-0.12421333 0.17317332 1.904
-0.11605334 0.17408 1.9040002
-0.10562667 0.17408 1.9040002
0.11968001 0.17408 1.904
0.12421333 0.17498666 1.904
0.13418667 0.17770669 1.904
-0.12330666 0.18496001 1.904
-0.1156 0.18450668 1.9040002
-0.10517333 0.18496002 1.9040002
-0.097013332 0.18586667 1.904
0.13600001 0.18133333 1.904
-0.11424001 0.19221334 1.904
-0.10517333 0.19221334 1.904
-0.094293341 0.19221334 1.904
-0.085226677 0.19584 1.9040002
-0.077973336 0.19765332 1.904
-0.08522667 0.20490667 1.904
-0.076885335 0.20526934 1.9040002
-0.17408 0.58389336 1.904
-0.18133333 0.59114671 1.904
-0.17589334 0.59114671 1.904
-0.12602666 0.59477335 1.904
0.15538858 -0.064927623 1.9150002
0.16049525 -0.065657146 1.9150002
0.21520954 -0.056538098 1.9150001
0.14590476 -0.0072952383 1.9150001
0.14955239 0.0018238096 1.9150001
0.14955239 0.012766667 1.9150001
0.15502381 0.018238096 1.9150001
0.16049524 0.018238096 1.9150001
0.20609048 0.018238096 1.9150001
0.15502381 0.025533333 1.9150002
0.16368692 0.025989287 1.9150001
0.18420476 0.029180953 1.9150001
0.15502381 0.034652382 1.9150001
0.16414286 0.034652382 1.9150002
0.17508572 0.036476191 1.9150002
0.18420476 0.032828573 1.9150001
0.16633144 0.043041907 1.9150002
0.17326193 0.043771431 1.9150002
0.16779049 0.051066671 1.9150001
0.17508572 0.052282542 1.9150002
0.18602857 0.056538098 1.9150002
0.19514762 0.054714289 1.9150002
0.20061907 0.054714289 1.9150002
0.18602857 0.065657139 1.9150001
0.19514762 0.065657146 1.9150002
0.20244287 0.065657146 1.9150002
0.18420476 0.072952382 1.9150001
0.17508572 0.087542862 1.9150002
0.18238096 0.083895236 1.9150001
0.17265397 0.092406355 1.9150002
0.1714381 0.10213334 1.9150001
-0.09119048 0.12037143 1.9150001
-0.087542862 0.12037143 1.9150001
-0.051066671 0.12766667 1.9150001
-0.043771431 0.12766668 1.9150002
-0.034652382 0.12766667 1.9150001
-0.023709524 0.12766667 1.9150001
-0.014590478 0.12766668 1.9150002
-0.0054714289 0.12766667 1.9150001
0 0.12766667 1.9150001
0.10942857 0.12584285 1.9150001
0.11490001 0.12766667 1.9150001
-0.06474524 0.13769762 1.9150001
-0.054714289 0.13253017 1.9150002
-0.047419049 0.13131429 1.9150001
-0.025533333 0.13131431 1.9150002
-0.014590478 0.13131431 1.9150002
-0.0054714289 0.13131429 1.9150001
0.11550795 0.13253015 1.9150002
0.12183049 0.13569143 1.9150002
-0.11490001 0.14955239 1.9150001
-0.10505144 0.14809334 1.9150002
-0.094838098 0.14590475 1.9150001
-0.084416322 0.14486261 1.9150002
-0.075384125 0.14347303 1.9150002
-0.067480952 0.14225715 1.9150001
0.12620762 0.14517526 1.9150002
0.13131429 0.14955239 1.9150001
-0.12310714 0.15593572 1.9150001
-0.11490001 0.15502381 1.9150001
-0.10651048 0.15465906 1.9150002
-0.098485716 0.1532 1.9150001
0.12766667 0.15684763 1.9150001
0.13253015 0.15441588 1.9150002
-0.13450596 0.16459881 1.9150001
-0.12620762 0.16341333 1.9150002
0.12766667 0.16231905 1.9150001
0.13444082 0.16518505 1.9150002
0.14225715 0.16596667 1.9150001
-0.14408097 0.1714381 1.9150001
-0.13450596 0.17462978 1.9150001
-0.12766667 0.17690954 1.9150001
0.12766667 0.17326191 1.9150001
0.13496192 0.17326193 1.9150002
0.14225715 0.17508572 1.9150002
-0.14225715 0.18238096 1.9150001
-0.13391973 0.18550749 1.9150002
-0.12584285 0.18694049 1.9150001
-0.13253015 0.19575557 1.9150002
-0.12401905 0.19514762 1.9150002
-0.11490001 0.19697143 1.9150001
-0.10578096 0.19605953 1.9150001
-0.094838105 0.19697145 1.9150002
-0.13131431 0.20426667 1.9150002
-0.1254781 0.20280762 1.9150002
-0.11550795 0.20183495 1.9150002
-0.10304524 0.20335476 1.9150001
-0.09483809 0.20426668 1.9150001
-0.10213334 0.21156192 1.9150001
-0.094108582 0.21302097 1.9150002
-0.083895236 0.21338575 1.9150002
-0.0766 0.21338573 1.9150001
0.16779049 0.57997143 1.9150001
0.17508572 0.57875556 1.9150002
0.16596667 0.5854429 1.9150001
0.17508572 0.5854429 1.9150002
0.18359683 0.58605087 1.9150002
0.18384001 0.59383243 1.9150002
0.15766667 0.042166665 1.9250001
0.16225 0.044916667 1.9250001
0.16408333 0.053166669 1.9250001
0.17526667 0.057200003 1.9250001
0.17645833 0.066458337 1.9250001
0.176 0.075166672 1.9250001
0.18516667 0.077000007 1.9250001
0.19433334 0.075166672 1.9250001
0.20533335 0.075166672 1.9250001
0.16866668 0.082500003 1.9250001
0.176 0.082500003 1.9250001
0.18608335 0.084333338 1.9250001
0.19433334 0.084333338 1.9250001
0.20533335 0.084333338 1.9250001
0.17722224 0.096555561 1.9250001
0.18480001 0.095333338 1.9250001
0.19066668 0.091666669 1.9250001
0.20900001 0.091666669 1.9250001
0.17673333 0.10486666 1.9250001
0.18455558 0.10511111 1.9250001
0.17600001 0.11314287 1.9250002
0.18516667 0.11000001 1.9250001
-0.086166665 0.12833333 1.9250001
-0.034833334 0.12466668 1.9250001
-0.026583333 0.12558335 1.9250001
-0.014666667 0.12466668 1.9250001
-0.0055 0.12466668 1.9250001
0.067833334 0.12466668 1.9250001
0.1155 0.12466668 1.9250001
0.12283334 0.12833333 1.9250001
-0.1045 0.13933334 1.9250001
-0.094875008 0.13612501 1.9250001
-0.084333338 0.13566668 1.9250001
-0.075166672 0.13566668 1.9250001
-0.067833334 0.13566668 1.9250001
-0.058666669 0.132 1.9250001
0.12741667 0.13475001 1.9250001
0.132 0.13750002 1.9250001
-0.121 0.14666666 1.9250001
-0.11293334 0.1452 1.9250001
-0.1045 0.14300001 1.9250001
0.13383335 0.14483333 1.9250001
-0.15400001 0.15766667 1.9250001
-0.14422223 0.15644446 1.9250001
-0.13566667 0.15504764 1.9250002
-0.12540001 0.15180002 1.9250001
0.13786668 0.15400003 1.9250001
-0.16255556 0.16622221 1.9250001
-0.15400001 0.16500001 1.9250001
-0.14483333 0.16499999 1.9250001
-0.13933334 0.16133334 1.9250001
0.13750002 0.16133334 1.9250001
-0.16133334 0.17233334 1.9250001
-0.15400001 0.1749524 1.9250002
-0.14483333 0.17783332 1.9250001
-0.13933334 0.17966667 1.9250001
-0.15216668 0.18333334 1.9250001
-0.14544445 0.18577778 1.9250001
-0.13933334 0.18700001 1.9250001
-0.14300001 0.19066668 1.9250001
-0.13841668 0.19433333 1.9250001
-0.1356667 0.20533335 1.9250001
-0.11146667 0.20606668 1.9250001
-0.10633333 0.20716667 1.9250001
-0.10633333 0.21266666 1.9250001
0.16573334 0.57786667 1.9250001
0.17416668 0.57749999 1.9250001
0.18516669 0.57749999 1.9250001
0.19066668 0.57933336 1.9250001
0.15766667 0.58483332 1.9250001
0.16255556 0.58422226 1.9250001
0.17966667 0.583 1.9250001
0.18577778 0.58422226 1.9250001
0.19066668 0.58483332 1.9250001
0.16133334 0.59033334 1.9250001
0.22248636 -0.065147944 1.9360002
0.22217906 -0.056236193 1.9360001
0.16594286 0.055314288 1.9360001
0.1733181 0.062689528 1.9360001
0.1696305 0.073752388 1.9360002
0.18806858 0.095878102 1.9360001
0.19590479 0.096339062 1.936
0.20466286 0.095878102 1.9360001
0.18806858 0.10325334 1.9360001
0.19544384 0.10509716 1.9360001
0.20466286 0.10325334 1.9360001
0.18511848 0.11652877 1.9360001
-0.095263503 0.12537907 1.9360001
-0.084815249 0.12660827 1.9360002
-0.073752388 0.12906668 1.9360002
-0.062689528 0.12906668 1.9360001
0.12722287 0.12722287 1.9360001
0.17700572 0.12169144 1.9360001
0.18530287 0.12261335 1.9360001
-0.11062858 0.13644192 1.9360001
-0.10509715 0.13459811 1.9360001
-0.099565722 0.1327543 1.9360001
-0.070064761 0.1327543 1.9360001
-0.064533338 0.1327543 1.9360001
0.13459811 0.13459811 1.9360001
-0.14197335 0.14750476 1.9360001
-0.13521272 0.14627557 1.9360002
-0.12464154 0.14455469 1.9360001
-0.11523811 0.14105144 1.9360001
0.13644192 0.14012952 1.9360001
0.14135873 0.14627557 1.9360002
-0.16348445 0.15733843 1.9360002
-0.15488 0.15441906 1.936
-0.14473905 0.1521143 1.9360001
-0.1327543 0.1511924 1.9360001
0.14381716 0.1511924 1.9360001
-0.18192255 0.16717207 1.9360002
-0.17516193 0.16594286 1.9360001
-0.16717207 0.16532826 1.9360001
-0.17454731 0.17454731 1.9360002
-0.16668038 0.17553067 1.9360001
-0.16348445 0.18192255 1.9360002
-0.15549462 0.18499558 1.9360001
-0.14602971 0.19618134 1.9360001
-0.18622477 0.20281905 1.9360001
-0.14307962 0.20429412 1.9360001
-0.12353525 0.20650668 1.9360001
-0.12353525 0.21019429 1.9360001
0.16348445 0.57649785 1.9360002
0.20466286 0.57526863 1.9360001
0.14566097 0.58633143 1.9360001
0.15488002 0.58510226 1.9360002
0.19544382 0.58633143 1.9360001
0.15242161 0.59124827 1.9360002
0.17059429 0.059337147 1.9470001
0.16688572 0.064900003 1.9470001
0.17059429 0.064900003 1.9470001
0.20582572 0.096422866 1.9470001
-0.10384002 0.1186743 1.9470003
0.19470002 0.11496572 1.9470001
-0.11125715 0.12980001 1.9470001
-0.10430358 0.12655501 1.9470003
-0.081588574 0.12609144 1.9470001
-0.074171439 0.12609145 1.9470003
-0.066754289 0.12794572 1.9470001
0.12980001 0.12609144 1.9470001
0.13350858 0.12794572 1.9470001
0.18913715 0.12980001 1.9470001
0.19470002 0.12238287 1.9470001
-0.14092572 0.13721716 1.9470001
-0.13536286 0.13721716 1.9470001
-0.12361906 0.13598096 1.9470003
-0.11570743 0.13499202 1.9470001
0.13721716 0.13350858 1.9470001
0.14092572 0.13721716 1.9470001
-0.16317715 0.14834286 1.9470001
-0.15523022 0.14569388 1.9470003
-0.14516409 0.1435747 1.9470003
-0.13474478 0.14216191 1.9470003
-0.12856382 0.14216191 1.9470003
0.14463429 0.14463429 1.9470003
-0.19284573 0.15946859 1.9470001
-0.18542859 0.15761431 1.9470003
-0.17430288 0.15576002 1.9470003
-0.16564953 0.15328763 1.9470003
0.14648858 0.15761431 1.9470001
-0.19470002 0.16503143 1.9470001
-0.18635572 0.1641043 1.9470001
0.14710668 0.16441333 1.9470003
-0.19432917 0.17356114 1.9470001
-0.18589215 0.17476644 1.9470003
-0.17801145 0.17801145 1.9470001
-0.18419239 0.18419239 1.9470003
-0.17430289 0.18542859 1.9470003
-0.16564953 0.18790096 1.9470003
-0.18172002 0.19284573 1.9470001
-0.1750446 0.19432917 1.9470001
-0.16317715 0.19284573 1.9470001
-0.15501831 0.19432917 1.9470001
-0.19284573 0.20026287 1.9470001
-0.18450144 0.20119001 1.9470001
-0.17430288 0.20397145 1.9470003
-0.15576002 0.20026287 1.9470001
0.15946859 0.57853717 1.9470001
0.15483287 0.58410007 1.9470001
0.20291187 0.5854246 1.9470003
0.21138859 0.58224577 1.9470001
0.22750096 -0.054078095 1.9580001
0.16782857 0.059672382 1.9580001
-0.13053332 0.11934476 1.9580001
-0.1268038 0.11934476 1.9580001
-0.11375048 0.11934476 1.9580001
0.19580001 0.11561524 1.9580001
0.20325905 0.11934476 1.9580001
-0.13177651 0.12556063 1.9580001
-0.11486933 0.125312 1.9580001
0.13799238 0.1268038 1.9580001
0.1417219 0.1268038 1.9580001
0.18461142 0.1268038 1.9580001
0.19580001 0.1268038 1.9580001
0.20139429 0.12493904 1.9580001
-0.16036952 0.13799238 1.9580001
-0.15477523 0.13799238 1.9580001
-0.14545143 0.13612762 1.9580001
-0.13277106 0.13426286 1.9580001
-0.12556063 0.13177651 1.9580001
-0.11748 0.13053332 1.9580001
0.13799238 0.13053332 1.9580001
0.14296508 0.13426286 1.9580001
0.18498437 0.13351695 1.9580001
0.19440143 0.13472906 1.9580001
0.20139429 0.13426286 1.9580001
-0.19207048 0.14918095 1.9580001
-0.18461142 0.14731619 1.9580001
-0.17528763 0.14731619 1.9580001
-0.16534223 0.14420825 1.9580001
-0.15663999 0.1417219 1.9580001
0.14793777 0.14296508 1.9580001
0.15291047 0.14731619 1.9580001
0.1864762 0.14545143 1.9580001
0.19440143 0.14545143 1.9580001
0.20139429 0.14358667 1.9580001
-0.20139429 0.15663999 1.9580001
-0.19468115 0.15440229 1.9580001
-0.18461142 0.15291047 1.9580001
0.14918095 0.15291047 1.9580001
0.15415365 0.15539682 1.9580001
0.18523303 0.15415365 1.9580001
0.19393525 0.15477523 1.9580001
0.20263748 0.15539682 1.9580001
-0.20405824 0.16463183 1.9580002
-0.19766477 0.16036952 1.9580001
0.15291047 0.16409904 1.9580001
0.18647619 0.16036952 1.9580001
0.19393525 0.16036952 1.9580001
0.20325905 0.16036952 1.9580001
-0.20388065 0.17404446 1.9580001
-0.19766477 0.17901714 1.9580001
-0.19468115 0.18498437 1.9580001
-0.19207048 0.19393525 1.9580001
-0.18554381 0.19486764 1.9580001
-0.1715581 0.19766477 1.9580001
-0.16503142 0.19673237 1.9580001
-0.17528763 0.20139429 1.9580001
-0.16503143 0.20232666 1.9580001
-0.15291047 0.20325905 1.9580001
0.15663999 0.5836705 1.9580001
0.19617295 0.5847894 1.9580001
0.20512381 0.58553529 1.9580001
0.21258286 0.58926481 1.9580001
0.22877906 -0.063758098 1.9690001
0.23402973 -0.064508192 1.9690001
0.24003048 -0.067508571 1.9690001
0.23252952 -0.054381907 1.9690001
-0.15095666 0.12470333 1.9690001
-0.14439335 0.12376573 1.9690001
-0.13689238 0.12376571 1.9690001
-0.12376573 0.12376572 1.9690001
0.14626858 0.1275162 1.9690001
0.15001905 0.1275162 1.9690001
0.20627619 0.12564096 1.9690001
0.21152687 0.12301562 1.9690001
-0.18002287 0.13876763 1.9690001
-0.17252192 0.13876763 1.9690001
-0.16689619 0.13876763 1.9690001
-0.15301943 0.13351695 1.9690001
-0.14439334 0.13126667 1.9690001
-0.13689238 0.13126667 1.9690001
0.14626858 0.13314191 1.9690001
0.15226933 0.13651733 1.9690001
0.20533857 0.13501716 1.9690001
0.21190192 0.13126667 1.9690001
-0.19502477 0.14626858 1.9690002
-0.18377334 0.1425181 1.9690002
-0.17439716 0.1425181 1.9690001
0.15626985 0.14376827 1.9690002
0.18377334 0.14439334 1.9690001
0.1912743 0.14626858 1.9690001
0.20627619 0.14439334 1.9690001
-0.21190192 0.15752001 1.9690001
-0.20502603 0.15501969 1.9690002
-0.19877525 0.15001905 1.9690001
0.15752001 0.15189429 1.9690001
0.16127048 0.15564477 1.9690001
0.18189809 0.15470715 1.9690001
0.20502603 0.15126921 1.9690002
0.21377715 0.15752003 1.9690002
-0.21377715 0.16502094 1.9690001
0.15752003 0.16502097 1.9690002
0.16127048 0.16314572 1.9690001
0.18752381 0.16502096 1.9690001
0.19502477 0.16689619 1.9690001
0.20440096 0.16689619 1.9690001
0.21377715 0.16502096 1.9690001
0.22455978 0.16548976 1.969
-0.22252826 0.17377208 1.9690002
-0.21452725 0.17477222 1.9690001
0.15752001 0.17439716 1.9690001
0.19752508 0.17377208 1.9690002
0.20440096 0.17439716 1.9690001
0.21377715 0.17439716 1.9690001
0.22315335 0.17439716 1.9690001
-0.21252701 0.18252318 1.9690002
-0.204776 0.18452345 1.9690001
0.19502477 0.18002287 1.9690001
0.20440096 0.18002287 1.9690001
0.21377715 0.18096049 1.9690001
0.2212781 0.18002287 1.9690001
-0.2212781 0.19690001 1.9690001
-0.20252572 0.1912743 1.9690001
-0.19877525 0.19314954 1.9690001
0.19690001 0.5813238 1.9690001
0.20440096 0.5813238 1.9690001
0.23760001 -0.060342859 1.9800001
0.23760001 -0.054685719 1.9800001
0.20742859 0.10937144 1.9800001
0.21308573 0.10937144 1.9800001
0.2049143 0.11440001 1.9800003
0.21120001 0.11314286 1.9800001
-0.15588573 0.12445715 1.9800003
0.15462859 0.12822859 1.9800001
-0.19422859 0.13954286 1.9800001
-0.1848 0.13765715 1.9800001
-0.176 0.13702857 1.9800003
-0.16518858 0.13426286 1.9800001
-0.1584 0.132 1.9800001
0.15588573 0.1345143 1.9800003
0.16217144 0.13954286 1.9800001
0.1848 0.13954286 1.9800001
0.21120001 0.13765715 1.9800001
-0.2049143 0.14582859 1.9800003
-0.1961143 0.1433143 1.9800003
0.16217144 0.14520001 1.9800001
0.21120001 0.14520001 1.9800001
-0.22440001 0.1584 1.9800001
-0.21591429 0.15557143 1.9800001
-0.20554286 0.15085715 1.9800001
0.16669716 0.15538286 1.9800001
0.17537144 0.15651429 1.9800001
0.18102859 0.15085715 1.9800001
0.2137143 0.15337145 1.9800003
0.22440001 0.1584 1.9800001
0.23194286 0.1584 1.9800001
-0.23100001 0.16688573 1.9800001
-0.22440001 0.16594288 1.9800003
-0.21874288 0.16217144 1.9800001
0.16468573 0.16594288 1.9800003
0.18857144 0.1697143 1.9800001
0.23194286 0.16217144 1.9800001
-0.2313143 0.17474286 1.9800003
-0.22628573 0.17725715 1.9800001
0.16217144 0.17537144 1.9800001
0.19360003 0.176 1.9800003
-0.23005715 0.18102859 1.9800001
-0.22440001 0.18480001 1.9800003
-0.21560001 0.18542859 1.9800003
0.15714286 0.18228573 1.9800003
0.16217144 0.18291429 1.9800001
0.19988573 0.18102859 1.9800001
0.20554286 0.1848 1.9800001
0.21120001 0.1848 1.9800001
-0.23005715 0.19800001 1.9800001
-0.22534287 0.19517145 1.9800001
-0.21497144 0.1961143 1.9800001
-0.20592001 0.19686858 1.9800001
-0.19988573 0.19988573 1.9800001
0.20868573 0.11762286 1.9920001
0.21248001 0.11762286 1.9920001
-0.16505143 0.12710857 1.9920001
-0.15936001 0.12331429 1.9920001
-0.20489144 0.1365943 1.9920001
-0.19540572 0.13469714 1.9920001
-0.18686858 0.13374856 1.9920001
-0.17453717 0.13280001 1.9920001
0.16315429 0.1365943 1.9920001
-0.2428343 0.14797714 1.9920001
-0.23676343 0.14570057 1.9920002
-0.22386287 0.14608002 1.9920003
-0.21437715 0.14418286 1.9920003
-0.20584001 0.14133716 1.9920001
0.16694857 0.14418286 1.9920001
0.17833145 0.14797714 1.9920001
0.18212573 0.14418288 1.9920001
-0.25548193 0.15493333 1.9920003
-0.24473143 0.15556574 1.9920003
-0.2352457 0.15556572 1.9920003
-0.22462173 0.15328915 1.9920002
-0.21437715 0.15177144 1.9920001
0.16694857 0.15177144 1.9920001
0.17453717 0.15177146 1.9920001
0.22386287 0.15556572 1.9920001
-0.26180574 0.16505143 1.9920001
-0.25674671 0.16441905 1.9920001
-0.24473144 0.16505143 1.9920001
-0.23714286 0.16505143 1.9920001
0.17358859 0.16410285 1.9920001
-0.26180574 0.17074287 1.9920001
-0.25801143 0.17074287 1.9920001
-0.2428343 0.17264001 1.9920001
-0.23809144 0.17548573 1.9920001
0.16694859 0.17453717 1.9920001
0.17264003 0.17453717 1.9920003
0.18781716 0.17264001 1.9920001
-0.23572001 0.18639429 1.9920003
0.16694857 0.18212572 1.9920001
0.17074287 0.18592 1.9920001
0.20109715 0.18592 1.9920001
-0.23524572 0.19540572 1.9920001
-0.20299429 0.20489144 1.9920001
-0.035413336 0.23777525 1.9920001
-0.034148574 0.2428343 1.9920001
0.24608287 -0.062951431 2.003
0.25180572 -0.06104381 2.003
0.24608287 -0.055320952 2.003
0.25562096 -0.053413332 2.003
0.25752857 -0.049598094 2.003
-0.19076191 0.1297181 2.003
-0.17295747 0.12844636 2.003
-0.16405523 0.12208762 2.003
-0.24036001 0.13734858 2.003
-0.23463714 0.13734858 2.003
-0.22509906 0.13734858 2.003
-0.21492508 0.13607684 2.003
-0.20602286 0.13353334 2.003
0.16787048 0.13734858 2.003
0.17740858 0.13734858 2.003
0.18313143 0.13544096 2.003
-0.26325142 0.14879429 2.003
-0.25507593 0.14606912 2.0030003
-0.2464644 0.14421602 2.003
-0.23463716 0.14307143 2.003
-0.22509906 0.14116381 2.003
0.16787048 0.14497904 2.003
0.17502405 0.14450215 2.003
0.21746856 0.14497904 2.003
-0.26515907 0.15451714 2.003
-0.25371334 0.15642476 2.003
0.21746856 0.15451714 2.003
-0.27088189 0.16596285 2.003
-0.26611286 0.16310142 2.003
-0.25275952 0.16500904 2.003
0.17740858 0.16787048 2.003
0.18503904 0.16596285 2.003
-0.27088189 0.17359333 2.003
-0.26554057 0.176264 2.003
-0.25507593 0.17550096 2.0030003
-0.24703668 0.17645475 2.003
0.17931621 0.17550096 2.003
0.18465754 0.17626399 2.003
0.19076191 0.17931619 2.003
-0.26515907 0.18313143 2.003
-0.25943619 0.18313143 2.003
-0.24608287 0.18503906 2.003
0.16787048 0.18694668 2.003
0.17550094 0.18503904 2.003
-0.25371334 0.19266953 2.003
-0.24544701 0.19394128 2.0030003
0.16787048 0.19076191 2.003
0.17740858 0.19076191 2.003
-0.013353334 0.22891429 2.003
-0.041967619 0.23654477 2.003
-0.035290956 0.23463716 2.003
-0.015260953 0.23463714 2.0030003
-0.0063587306 0.23527303 2.003
0.0038152381 0.23654477 2.003
-0.043493714 0.24341221 2.003
-0.035290953 0.24512905 2.003
-0.026706666 0.24036001 2.003
-0.0057228571 0.24036001 2.003
0.0038152381 0.24036001 2.003
0.25523335 -0.057571433 2.0150001
0.24755715 -0.049895242 2.0150001
0.25331429 -0.049895242 2.0150001
-0.19497524 0.12512191 2.0150001
-0.18039048 0.12665714 2.0150001
-0.17463334 0.1247381 2.0150001
-0.1688762 0.12281905 2.0150001
-0.25331429 0.13817143 2.0150001
-0.2456381 0.13689207 2.0150001
-0.23028573 0.13433333 2.0150001
-0.22452858 0.13433333 2.0150001
-0.21493334 0.13241428 2.0150001
-0.20533811 0.13049524 2.0150001
-0.19766192 0.13049524 2.0150001
-0.18422858 0.13049524 2.0150001
0.16503811 0.13433334 2.0150001
0.17463335 0.13433333 2.0150001
0.18166983 0.1317746 2.0150001
0.21877143 0.13817143 2.0150001
-0.26559618 0.14508 2.0150001
-0.25715238 0.14200953 2.0150001
0.21877143 0.14584762 2.0150001
0.2238889 0.14840637 2.0150001
-0.27250478 0.15544286 2.0150001
0.22452858 0.15352382 2.0150001
0.2315651 0.15608256 2.0150001
-0.27250478 0.1612 2.0150001
-0.26099047 0.18806668 2.0150001
-0.25561714 0.18499617 2.0150001
0.18346095 0.18576382 2.0150001
0.19497524 0.18653142 2.0150001
-0.26099047 0.19190477 2.0150001
0.18678731 0.19318414 2.0150001
0.19478334 0.1928643 2.0150001
-0.055652384 0.23796192 2.0150001
-0.046057142 0.23796192 2.0150001
-0.024947619 0.23604286 2.0150001
-0.0051174606 0.2315651 2.0150001
0.0028785714 0.23316431 2.0150001
-0.0560362 0.24487047 2.0150001
-0.047976192 0.2456381 2.0150001
-0.030704763 0.24755715 2.0150001
-0.024563808 0.24640572 2.0150001
-0.01612 0.24333525 2.0150001
-0.055652384 0.25523332 2.0150001
-0.045289524 0.25561714 2.0150001
-0.037101589 0.25459367 2.0150001
-0.057571433 0.26290953 2.0150001
-0.20076953 0.11775906 2.0270002
-0.1949781 0.11775906 2.0270002
-0.2200743 0.12741144 2.0270002
-0.21428287 0.12741144 2.0270002
-0.20463049 0.12548096 2.0270002
-0.18609792 0.12509488 2.0270002
-0.17760383 0.12355049 2.0270002
-0.26383179 0.13770732 2.0270002
-0.25482285 0.13642034 2.0270002
-0.24710098 0.13513334 2.0270002
-0.23551813 0.13384637 2.0270002
-0.22393525 0.13127241 2.0270002
-0.21621335 0.13127239 2.0270002
0.17374288 0.13127239 2.0270002
-0.27219716 0.14478573 2.0270002
0.22779621 0.14671621 2.0270002
-0.28184953 0.15057716 2.0270002
-0.27702338 0.15347287 2.0270002
0.23809209 0.15572509 2.0270002
0.2451705 0.15636858 2.0270002
0.2509619 0.15636858 2.0270002
0.24324001 0.16216002 2.0270002
0.18918668 0.18918668 2.0270002
-0.061775245 0.23937906 2.0270002
-0.050192382 0.23937906 2.0270002
-0.065636203 0.2451705 2.0270004
-0.050192382 0.24710098 2.0270002
-0.011582858 0.24710098 2.0270002
-0.0057914294 0.24710098 2.0270002
-0.06453307 0.25427133 2.0270004
-0.051479369 0.25224888 2.0270002
-0.015443812 0.2509619 2.0270002
-0.06370572 0.26447526 2.0270002
-0.052122861 0.26447526 2.0270002
-0.044400956 0.26447526 2.0270002
-0.061775245 0.27026668 2.0270002
-0.053409845 0.27284068 2.0270004
-0.044400956 0.27026668 2.0270002
-0.22137713 0.11651429 2.039
-0.21555144 0.11651429 2.039
-0.20661867 0.114184 2.039
-0.29128572 0.12816572 2.039
-0.26798287 0.12816572 2.039
-0.23302858 0.12816572 2.039
-0.22526096 0.12492921 2.039
-0.21555144 0.12234001 2.039
-0.20843112 0.12169271 2.039
-0.19030666 0.1203981 2.039
-0.18448095 0.1203981 2.039
-0.17865524 0.1203981 2.039
-0.29128572 0.13593332 2.039
-0.28584838 0.13671009 2.039
-0.27519563 0.137043 2.039
-0.26409906 0.13360305 2.039
-0.25438952 0.13204953 2.039
-0.24468002 0.13204953 2.039
-0.23691238 0.13204953 2.039
0.22526096 0.13787523 2.039
-0.29128572 0.14370096 2.039
-0.28546 0.14564286 2.039
-0.27833968 0.14499557 2.039
0.22720286 0.14370096 2.039
-0.28584838 0.15612914 2.039
0.23497048 0.15146858 2.039
-0.28351811 0.16312 2.039
-0.27963427 0.16506191 2.039
-0.27963427 0.17088762 2.039
-0.05631524 0.22914477 2.039
-0.081560001 0.23497048 2.039
-0.073792383 0.23691238 2.039
-0.066024765 0.23497048 2.039
-0.054373335 0.23497048 2.039
-0.045311116 0.23561779 2.039
-0.081560001 0.24468002 2.039
-0.075734288 0.24467999 2.039
-0.06796667 0.24079619 2.039
-0.083501905 0.25438952 2.039
-0.075734288 0.25438952 2.039
-0.069908567 0.25633144 2.039
-0.031070476 0.25633144 2.039
-0.025244761 0.25633144 2.039
-0.081560001 0.26215714 2.039
-0.07573428 0.26409909 2.039
-0.069908574 0.26409909 2.039
-0.037543491 0.26539367 2.039
-0.045311116 0.27704507 2.039
-0.23244667 0.1172 2.0510001
-0.28518671 0.12696669 2.0510004
-0.27542001 0.12696667 2.0510001
-0.26487201 0.12657601 2.0510004
-0.25491002 0.12794334 2.0510001
-0.24416669 0.12696667 2.0510001
-0.23518133 0.12423201 2.0510004
-0.22658668 0.12110668 2.0510001
0.22561002 0.12403667 2.0510001
0.23179558 0.12631556 2.0510001
-0.28323334 0.13282667 2.0510001
-0.27737334 0.13282667 2.0510001
0.22463334 0.13282667 2.0510001
0.23342334 0.13575667 2.0510001
-0.29300001 0.14845334 2.0510001
0.23551621 0.14398858 2.0510004
0.24416669 0.14650001 2.0510001
0.25132892 0.14715111 2.0510001
-0.29300001 0.15236001 2.0510001
0.24416669 0.15236001 2.0510001
0.25198001 0.15236001 2.0510001
-0.07422667 0.22658668 2.0510001
-0.062506668 0.22658668 2.0510001
-0.058600001 0.22658668 2.0510001
-0.085946672 0.23830667 2.0510001
-0.075528897 0.23309779 2.0510004
-0.064460002 0.23049335 2.0510001
-0.095062226 0.24481779 2.0510001
-0.087900005 0.24416669 2.0510001
-0.094736673 0.25295666 2.0510001
-0.088876672 0.25295669 2.0510001
-0.019533334 0.25784001 2.0510001
-0.093760006 0.26174667 2.0510001
-0.087900005 0.26370001 2.0510001
-0.033857778 0.26435113 2.0510001
0.26524287 0.07662572 2.0630002
0.22594765 0.10609715 2.0630002
0.23380668 0.10413239 2.0630002
-0.23970097 0.11788572 2.0630002
0.22634061 0.11395621 2.0630002
0.23577146 0.11395621 2.0630002
-0.2750667 0.12181525 2.0630002
-0.25541911 0.12443493 2.0630002
-0.2436305 0.12181525 2.0630002
-0.23970097 0.12181525 2.0630002
0.18272287 0.1296743 2.0630002
0.23708129 0.12508985 2.0630002
0.24559525 0.12770954 2.0630002
0.25541908 0.12770954 2.0630002
0.23773621 0.13360383 2.0630002
0.24559525 0.13556859 2.0630002
0.25463316 0.13517563 2.0630002
0.24559525 0.14146286 2.0630002
0.25410923 0.14277272 2.0630002
-0.025541907 0.2632781 2.0630002
0.26691431 0.059314292 2.0760002
0.24516572 0.067222863 2.0760002
0.26572803 0.06564115 2.0760002
0.24516574 0.075131439 2.0760002
0.25307432 0.077108577 2.0760002
0.26335546 0.073549725 2.0760002
0.24648383 0.085676193 2.0760002
0.25307432 0.085017145 2.0760002
0.26493716 0.085017145 2.0760002
0.24516572 0.094902873 2.0760002
0.25406289 0.0939143 2.0760002
0.26296002 0.094902873 2.0760002
0.24516574 0.10478859 2.0760002
0.25307432 0.10478858 2.0760002
-0.25505146 0.11862858 2.0760002
-0.24516572 0.11665143 2.0760002
0.23528002 0.11467429 2.0760002
0.24516574 0.1141094 2.0760002
0.25465605 0.11546516 2.0760002
0.2609829 0.11665144 2.0760002
-0.26691431 0.12258286 2.0760002
-0.25505146 0.12258286 2.0760002
-0.24912001 0.12258286 2.0760002
0.24714287 0.12258286 2.0760002
0.25505146 0.12258286 2.0760002
0.2609829 0.12258286 2.0760002
-0.015817147 0.26230097 2.0760002
-0.039542861 0.27680001 2.0760002
-0.039542861 0.3123886 2.0760002
0.24658287 0.059657145 2.0880001
0.25453714 0.059657145 2.0880001
0.26447999 0.057668574 2.0880001
0.27309716 0.057005715 2.0880001
0.24658287 0.063634284 2.0880001
0.25453717 0.065622859 2.0880003
0.26249143 0.063634284 2.0880001
0.24260573 0.075565718 2.0880001
0.25453717 0.074997559 2.0880003
0.24260572 0.083519995 2.0880001
0.25586289 0.084845714 2.0880001
0.25851429 0.097440004 2.0880001
0.25851429 0.10539428 2.0880001
0.26447999 0.10539428 2.0880001
-0.25254858 0.11533715 2.0880001
0.25453717 0.11533715 2.0880001
0.26514286 0.11268573 2.0880001
0.17499429 0.13522287 2.0880001
-0.01392 0.26646858 2.0880001
-0.033142857 0.27442288 2.0880001
-0.02784 0.27044573 2.0880001
-0.043748572 0.28635427 2.0880001
-0.035794284 0.28237718 2.0880001
-0.043748572 0.29232001 2.0880001
-0.03977143 0.31021714 2.0880001
0.2561219 0.046021905 2.1010001
0.26812762 0.044020951 2.1010001
0.24611714 0.054025717 2.1010001
0.25412095 0.054025717 2.1010001
0.2641257 0.054025717 2.1010001
0.2441162 0.062029526 2.1010001
0.25212002 0.060028572 2.1010001
0.26012382 0.060028572 2.1010001
0.17408285 0.13406381 2.1010001
0.18008572 0.13206285 2.1010001
-0.0080038104 0.2641257 2.1010003
-0.024011429 0.27346352 2.1010003
-0.014006667 0.27212954 2.1010001
-0.040019047 0.28813714 2.1010001
-0.034016192 0.28413522 2.1010001
-0.028013334 0.28013334 2.1010001
-0.040019047 0.29413998 2.1010001
-0.034016192 0.29413998 2.1010001
0.0060028573 0.29213905 2.1010001
-0.040019047 0.3041448 2.1010003
-0.034016192 0.3041448 2.1010001
-0.034016188 0.31414953 2.1010001
-0.040019047 0.32415432 2.1010003
-0.034016192 0.32415432 2.1010001
-0.028013334 0.32015237 2.1010001
0.0060028573 0.41219619 2.1010001
0.012005715 0.41219619 2.1010001
0.0060028573 0.43420666 2.1010001
0.012005715 0.43420666 2.1010001
-0.044020951 0.44421145 2.1010001
-0.032015238 0.50624096 2.1010001
-0.040019047 0.52024764 2.1010001
-0.036017142 0.52024764 2.1010001
0.0080038095 0.5682705 2.1010001
0.012005715 0.5682705 2.1010001
0.0050023813 0.57527381 2.1010001
0.012005715 0.57427335 2.1010001
0.0080038095 0.58027625 2.1010001
0.26978666 -0.04026667 2.1140001
0.27582669 -0.044293337 2.1140001
0.29797333 -0.04026667 2.1140001
0.30200002 -0.04026667 2.1140001
0.25770667 0.026173335 2.1140001
0.26978666 0.028186668 2.1140001
0.27784002 0.028186668 2.1140001
0.23556 0.03624 2.1140001
0.24663335 0.035233334 2.1140001
0.25569335 0.034226667 2.1140001
0.26844445 0.034897782 2.1140001
0.27582669 0.034226667 2.1140001
0.2818667 0.034226667 2.1140001
0.23556003 0.044293337 2.1140003
0.24562669 0.044293333 2.1140001
0.25468668 0.04328667 2.1140001
0.26525664 0.044293333 2.1140001
0.27582669 0.044293337 2.1140003
0.28186673 0.044293337 2.1140001
0.26173332 0.052346665 2.1140001
0.27582669 0.052346665 2.1140001
0.15704001 0.12885334 2.1140001
0.16643555 0.12616889 2.1140003
0.17516002 0.12684 2.1140001
0.18120001 0.12885334 2.1140001
0.1661 0.13388667 2.1140001
0.17314667 0.13288 2.1140001
0.0020133334 0.25770667 2.1140001
-0.0040266672 0.26576 2.1140001
0.0020133336 0.26576 2.1140003
-0.022146668 0.27784002 2.1140001
-0.014093334 0.27784002 2.1140001
-0.0060400004 0.27381334 2.1140001
0.0020133334 0.27381334 2.1140001
-0.032213334 0.28992 2.1140001
-0.023656666 0.28639668 2.1140001
-0.014093334 0.28589335 2.1140003
-0.0060400004 0.28589335 2.1140003
0.0028761907 0.2864686 2.1140003
-0.024160001 0.29596004 2.1140003
-0.014093334 0.29596001 2.1140001
-0.0060400004 0.29596001 2.1140001
0.0030200002 0.29696667 2.1140001
-0.024160001 0.30401337 2.1140003
-0.014093334 0.30401334 2.1140001
-0.0060399999 0.30401334 2.1140001
0.0040266672 0.30401337 2.1140003
-0.02416 0.31408 2.1140001
-0.014496 0.31327468 2.1140001
-0.0053688893 0.31139559 2.1140001
0.0035233335 0.31357667 2.1140001
0.01208 0.31206667 2.1140001
-0.021475557 0.3234756 2.1140001
-0.014764446 0.3234756 2.1140001
0.0020133334 0.32213336 2.1140001
-0.042280003 0.33421335 2.1140001
-0.034226667 0.33622667 2.1140001
-0.020133335 0.33018667 2.1140001
-0.016106667 0.33421332 2.1140001
-0.034226667 0.34226668 2.1140001
-0.032213334 0.35434669 2.1140001
-0.020133335 0.35434669 2.1140001
-0.0151 0.35535336 2.1140001
-0.0060400004 0.35837334 2.1140001
0 0.35837334 2.1140001
-0.022146668 0.36441335 2.1140001
-0.014093334 0.36441335 2.1140001
-0.0060400004 0.36441335 2.1140001
-0.022146668 0.37448001 2.1140003
-0.014093334 0.37448001 2.1140003
-0.0060400004 0.37448001 2.1140003
0.0032213335 0.37206402 2.1140001
-0.022146668 0.38454667 2.1140001
-0.014764446 0.38387558 2.1140001
-0.0080533335 0.38253334 2.1140001
-0.020133335 0.39461336 2.1140001
-0.014093334 0.39662668 2.1140001
-0.0060400004 0.39461336 2.1140001
-0.020133335 0.40468001 2.1140001
-0.013422223 0.40535113 2.1140001
-0.0067111119 0.40400892 2.1140001
0.0040266672 0.40468001 2.1140003
0.01208 0.40468001 2.1140001
-0.01208 0.41474667 2.1140001
-0.0060400004 0.41474667 2.1140001
0.0048320005 0.41474667 2.1140001
0.01208 0.41474667 2.1140001
0.0050333338 0.42380667 2.1140001
0.01208 0.42481333 2.1140001
-0.043488003 0.437296 2.1140001
-0.034897782 0.43622226 2.1140001
-0.01208 0.43890667 2.1140001
-0.0060400004 0.43890667 2.1140001
0.0024160002 0.43326935 2.1140001
0.01208 0.43085337 2.1140001
-0.043286666 0.44394001 2.1140001
-0.034226667 0.44696 2.1140001
-0.024160001 0.44494668 2.1140001
-0.013422223 0.44561779 2.1140001
-0.0060400004 0.44494668 2.1140001
0.0040266672 0.44494671 2.1140003
0.01208 0.44293335 2.1140001
-0.033824001 0.45420799 2.1140001
-0.021744002 0.45420799 2.1140001
-0.014093334 0.45501333 2.1140001
-0.0053688893 0.45232892 2.1140001
0.0040266667 0.45501333 2.1140001
0.013690667 0.45581865 2.1140001
-0.032213334 0.46508002 2.1140001
-0.022146668 0.46508002 2.1140001
-0.014093334 0.46508002 2.1140001
-0.0060400004 0.4630667 2.1140001
0.0040266672 0.46508002 2.1140003
0.014093334 0.46508002 2.1140001
-0.04509867 0.47675735 2.1140001
-0.034226667 0.47917333 2.1140001
-0.023656666 0.47565004 2.1140001
-0.014093334 0.47313336 2.1140001
-0.0060400004 0.47313336 2.1140001
0.0034514288 0.47399625 2.1140003
0.013422223 0.47380447 2.1140001
-0.044293337 0.48320001 2.1140001
-0.032213334 0.48722667 2.1140001
-0.022146668 0.48320001 2.1140001
0 0.48320001 2.1140001
-0.032213334 0.50333333 2.1140001
-0.032213334 0.51944005 2.1140001
-0.022146668 0.51138663 2.1140001
-0.04026667 0.52749336 2.1140001
-0.03355556 0.52615118 2.1140001
-0.0056373337 0.53635204 2.1140001
0 0.53957331 2.1140001
-0.04026667 0.54762667 2.1140001
-0.0060400004 0.54360002 2.1140001
0.0040266672 0.54561341 2.1140003
-0.04026667 0.55165333 2.1140001
-0.02416 0.55366671 2.1140001
0.0048320005 0.56614935 2.1140001
0.01208 0.56574667 2.1140001
-0.0067111119 0.57849783 2.1140001
0.0020133334 0.57380003 2.1140001
0.27954856 -0.042539999 2.1270001
0.28522059 -0.043755431 2.1270001
0.29305336 -0.041864764 2.1270003
0.27549714 -0.03545 2.1270001
0.28562573 -0.036462858 2.1270001
0.29575431 -0.036462858 2.1270003
0.30385715 -0.036462858 2.1270001
0.2673943 -0.020257143 2.1270001
0.27347142 -0.022282857 2.1270001
0.28765148 -0.024308573 2.1270003
0.29575428 -0.024308575 2.1270001
0.30385715 -0.024308573 2.1270003
0.30385715 -0.016205715 2.1270001
0.25929144 0.016205715 2.1270001
0.27549714 0.016205717 2.1270003
0.28562573 0.016205715 2.1270001
0.29170287 0.016205715 2.1270001
0.25442973 0.025118861 2.1270001
0.26536858 0.024308575 2.1270001
0.27549717 0.023151023 2.1270001
0.28562573 0.024308573 2.1270001
0.29170287 0.020257143 2.1270001
0.2390343 0.03241143 2.1270001
0.24511144 0.03241143 2.1270001
0.26469335 0.033761904 2.1270003
0.28765145 0.03241143 2.1270001
0.15800571 0.097234294 2.1270001
0.15800571 0.10533714 2.1270001
0.16610858 0.10938857 2.1270001
0.17286095 0.10601239 2.1270001
0.17319858 0.11647858 2.1270001
0.15800571 0.12356858 2.1270001
0.16340762 0.12289335 2.1270003
0.17623715 0.12154286 2.1270001
0.18434 0.12762001 2.1270001
0.15800571 0.13369715 2.1270001
-0.0060771434 0.27954856 2.1270001
0.0020257144 0.27954856 2.1270001
-0.0081028575 0.31601143 2.1270001
-0.026334288 0.32816571 2.1270001
-0.012154287 0.32411429 2.1270001
-0.0060771434 0.32411432 2.1270001
0.0056720003 0.32573485 2.1270001
0.012154287 0.32411429 2.1270003
-0.052668571 0.33626857 2.1270001
-0.048617147 0.33626857 2.1270001
-0.025118861 0.33464798 2.1270001
-0.013504764 0.33491811 2.1270003
-0.0060771434 0.33424285 2.1270001
0.0040514292 0.33424288 2.1270001
-0.052668571 0.34032002 2.1270001
-0.044565719 0.34437147 2.1270001
-0.034437142 0.34842288 2.1270001
-0.024308572 0.34437144 2.1270001
-0.013774859 0.34518173 2.1270001
-0.0060771434 0.34437144 2.1270001
0 0.34032002 2.1270001
-0.041864764 0.35517526 2.1270003
-0.035112381 0.35382479 2.1270003
-0.025118858 0.35409486 2.1270001
-0.012154287 0.3545 2.1270001
-0.0060771429 0.35450003 2.1270001
0.003241143 0.35409489 2.1270001
-0.041527145 0.36361572 2.1270001
-0.034437142 0.36462855 2.1270001
-0.025929144 0.36300802 2.1270001
0.0045578573 0.36513498 2.1270001
-0.040514287 0.37273145 2.1270001
-0.034437142 0.37475717 2.1270001
-0.028360002 0.37475717 2.1270001
-0.040514287 0.38083428 2.1270001
-0.034437142 0.38488576 2.1270001
-0.028360002 0.38488573 2.1270003
-0.012154287 0.38893718 2.1270001
-0.0054019052 0.38758668 2.1270003
0.0020257144 0.38286 2.1270001
-0.03241143 0.39501429 2.1270001
-0.026334288 0.39501429 2.1270001
-0.014180001 0.39298859 2.1270001
-0.0060771434 0.39298859 2.1270001
0.0040514292 0.39704001 2.1270003
-0.033424284 0.40413004 2.1270001
-0.026334291 0.4051429 2.1270001
-0.016205715 0.40514287 2.1270001
-0.0054019052 0.40379238 2.1270003
0.0040514292 0.40109146 2.1270003
0.012154287 0.40109146 2.1270001
-0.033761904 0.41459626 2.1270003
-0.024308575 0.41527146 2.1270001
-0.014855239 0.41459626 2.1270003
-0.0060771434 0.41324574 2.1270001
0 0.41324574 2.1270001
-0.043986943 0.4265576 2.1270001
-0.034437142 0.42540002 2.1270001
-0.024308573 0.42482126 2.1270001
-0.014180001 0.42540002 2.1270001
-0.0060771434 0.42540002 2.1270001
0.0013504763 0.42675051 2.1270003
-0.052668571 0.43552858 2.1270001
-0.045578577 0.43451571 2.1270001
-0.034437142 0.43350285 2.1270001
-0.024308575 0.43552861 2.1270001
-0.014180001 0.43552858 2.1270001
-0.0060771434 0.43552858 2.1270001
-0.033761907 0.4443067 2.1270003
-0.024308575 0.44403663 2.1270001
-0.016205715 0.44363147 2.1270001
-0.042539999 0.45578572 2.1270001
-0.028360002 0.45578575 2.1270001
-0.014180001 0.45781144 2.1270001
-0.0081028575 0.45781144 2.1270001
-0.045240954 0.46726477 2.1270001
-0.036462858 0.46591431 2.1270003
-0.027347146 0.46490145 2.1270001
-0.0060771434 0.46591431 2.1270001
-0.044565719 0.47401714 2.1270003
-0.034437142 0.47604287 2.1270001
-0.028360002 0.47401714 2.1270001
-0.0060771434 0.47604287 2.1270001
0.016205715 0.47401714 2.1270001
-0.040514287 0.4841457 2.1270001
-0.034437142 0.48617142 2.1270001
-0.028360002 0.48617142 2.1270001
-0.014180001 0.4841457 2.1270001
-0.0060771434 0.48414573 2.1270001
0.0060771434 0.4841457 2.1270001
0.014180001 0.48414573 2.1270001
-0.040514287 0.49022287 2.1270001
-0.034437142 0.49427432 2.1270001
-0.023633337 0.49359906 2.1270001
-0.014180001 0.49022287 2.1270001
-0.0060771434 0.49022287 2.1270001
0.004726667 0.49292383 2.1270001
0.014180001 0.49427432 2.1270001
-0.03241143 0.50237715 2.1270001
-0.023498287 0.50480795 2.1270001
-0.0081028575 0.50237715 2.1270001
0.0040514288 0.50237715 2.1270001
0.014180001 0.50237715 2.1270001
-0.024887349 0.51453149 2.1270001
-0.024308573 0.52465999 2.1270001
-0.014180001 0.52465999 2.1270001
-0.0060771429 0.52465999 2.1270001
0.0040514292 0.52668571 2.1270003
-0.041864764 0.53748959 2.1270003
-0.034437142 0.53478861 2.1270001
-0.023151021 0.53420985 2.1270001
-0.014180001 0.53478861 2.1270001
-0.006752382 0.53208768 2.1270003
0.0040514288 0.53478855 2.1270001
0.012154287 0.53681433 2.1270001
-0.043755431 0.54532236 2.1270001
-0.034437142 0.54491717 2.1270001
-0.022282857 0.54491717 2.1270001
-0.014180001 0.54491717 2.1270001
0.0060771434 0.54289144 2.1270001
-0.046591431 0.55099428 2.1270001
-0.034437142 0.55302 2.1270001
-0.020257143 0.55504572 2.1270003
-0.014585144 0.55504572 2.1270001
-0.0060771434 0.55504566 2.1270001
0.003241143 0.55666631 2.1270001
-0.020257143 0.56314862 2.1270001
-0.014180001 0.56314862 2.1270001
-0.0060771434 0.56314862 2.1270001
0.0030385717 0.56416148 2.1270001
0.012154287 0.56314862 2.1270001
-0.012154287 0.57732856 2.1270001
-0.0050642863 0.5753029 2.1270001
0.28940952 -0.052990478 2.1400001
0.28940952 -0.048914287 2.1400001
0.29756191 -0.044838097 2.1400001
0.30367619 -0.044838097 2.1400001
0.26495239 -0.03260953 2.1400001
0.27310476 -0.032609526 2.1400001
0.28533334 -0.03260953 2.1400001
0.29552382 -0.032609526 2.1400001
0.30367619 -0.032609526 2.1400001
0.26413715 -0.022826668 2.1400001
0.27514285 -0.028533334 2.1400001
0.28329524 -0.024457145 2.1400003
0.26495239 -0.014266668 2.1400003
0.27514285 -0.014266668 2.1400001
0.28533337 -0.014266668 2.1400003
0.29552382 -0.016304763 2.1400001
0.3016381 -0.016304763 2.1400001
0.26495239 -0.0061142864 2.1400003
0.27514285 -0.0061142864 2.1400001
0.28533334 -0.0061142864 2.1400003
0.29552382 -0.0061142859 2.1400001
0.26495239 0.0040761908 2.1400001
0.27514288 0.0040761908 2.1400003
0.28533334 0.0040761908 2.1400001
0.29450476 0.0030571432 2.1400001
0.25680003 0.014266668 2.1400001
0.26576763 0.013859048 2.1400001
0.27514285 0.012228572 2.1400001
0.28533334 0.012228573 2.1400001
0.2934857 0.012228572 2.1400001
0.24559049 0.027514286 2.1400001
0.25476193 0.020380953 2.1400001
0.16508573 0.097828574 2.1400001
0.15625398 0.10462223 2.1400001
0.16508573 0.10394286 2.1400001
0.17731428 0.10598096 2.1400001
0.15693334 0.11413334 2.1400001
0.1646781 0.11494859 2.1400001
0.17731428 0.11413334 2.1400001
0.14674285 0.12636191 2.1400001
0.15353653 0.12500319 2.1400001
0.18342857 0.12228572 2.1400001
0.1032635 0.13587302 2.1400001
0.11413334 0.1345143 2.1400001
0.14674285 0.1324762 2.1400001
0.15285715 0.1324762 2.1400001
0.0048914291 0.34484574 2.1400001
0.012228572 0.34443811 2.1400001
-0.044838097 0.35462859 2.1400001
0.0050952383 0.3525905 2.1400001
0.012228572 0.35870478 2.1400001
-0.055028573 0.36685714 2.1400001
-0.046876192 0.36685714 2.1400001
0.012228572 0.36278096 2.1400001
-0.052990478 0.37297145 2.1400001
-0.046002727 0.37559187 2.1400003
0.0081523815 0.37908572 2.1400001
0.012228572 0.37908572 2.1400001
-0.043479368 0.38587937 2.1400001
-0.041780952 0.39640957 2.1400001
-0.036685713 0.3974286 2.1400001
0.0013587303 0.39403176 2.1400001
-0.042800002 0.40558094 2.1400001
-0.036685713 0.40761906 2.1400001
-0.042800006 0.41577148 2.1400003
-0.036685713 0.41577145 2.1400001
-0.052990478 0.42596191 2.1400001
-0.046876192 0.42392382 2.1400001
-0.024457144 0.42800003 2.1400001
-0.024457144 0.43207622 2.1400001
-0.040761907 0.4667238 2.1400001
-0.024457144 0.49729526 2.1400001
-0.014266668 0.49729526 2.1400001
-0.0061142864 0.49729526 2.1400001
0.0040761908 0.49729526 2.1400001
-0.028533334 0.5034095 2.1400001
-0.014266668 0.50544763 2.1400003
-0.0057066674 0.50544763 2.1400001
0.0033968256 0.506127 2.1400003
-0.014266668 0.51563811 2.1400001
-0.0061142864 0.51563811 2.1400001
0.0040761912 0.51563811 2.1400003
0.012228572 0.51563811 2.1400001
-0.014266668 0.52175242 2.1400001
-0.0061142864 0.52175242 2.1400001
0.0040761912 0.52379048 2.1400003
0.012228572 0.52175242 2.1400001
-0.028533334 0.53805715 2.1400001
-0.048914287 0.54620951 2.1400001
-0.034647621 0.54213339 2.1400001
-0.028533334 0.54417145 2.1400001
-0.15897144 0.55640006 2.1400001
-0.12228572 0.55843812 2.1400001
-0.11413335 0.55843818 2.1400001
-0.10598096 0.55843812 2.1400001
-0.027514286 0.55436194 2.1400001
-0.012228572 0.55843812 2.1400001
-0.0061142864 0.55843812 2.1400001
0.012228572 0.55843812 2.1400001
-0.15761271 0.56387305 2.1400001
-0.12364446 0.5652318 2.1400001
-0.11413335 0.56455243 2.1400003
-0.10462223 0.5652318 2.1400001
-0.097828574 0.56659049 2.1400001
0.0081523815 0.56251431 2.1400001
0.012228572 0.56251431 2.1400001
-0.11413334 0.57066667 2.1400001
-0.10292381 0.57372379 2.1400001
-0.095790476 0.57678097 2.1400001
-0.014266668 0.57270479 2.1400001
-0.0067936517 0.57202542 2.1400001
0.29731905 -0.053312384 2.1530001
0.30347049 -0.053312384 2.1530001
0.29731905 -0.049211431 2.1530001
0.30552095 -0.049211431 2.1530001
0.25836 -0.0348581 2.1530001
0.26246098 -0.036908574 2.1530001
0.25836 -0.024605718 2.1530004
0.26451147 -0.028706668 2.1530001
0.27066287 -0.028706668 2.1530001
0.25836 -0.014353335 2.1530001
0.29731905 -0.012302858 2.1530001
0.30347049 -0.012302858 2.1530001
0.25699303 -0.0054679373 2.1530004
0.30347049 -0.0082019055 2.1530001
0.25630951 0.0041009532 2.1530001
0.26656193 0.0041009528 2.1530001
0.24605715 0.016403811 2.1530001
0.25289208 0.015036827 2.1530004
0.23785526 0.026656192 2.1530001
0.24469018 0.023238732 2.1530004
0.2501581 0.020504761 2.1530001
0.23785526 0.032807622 2.1530001
0.14353333 0.098422863 2.1530001
0.15583619 0.098422863 2.1530001
0.14558381 0.10457429 2.1530001
0.15173525 0.10457429 2.1530001
0.1459939 0.11564686 2.1530001
0.15276048 0.11585192 2.1530001
0.18454286 0.11482668 2.1530004
0.11687715 0.12712952 2.1530001
0.12576255 0.12576255 2.1530004
0.13615163 0.12548915 2.1530001
0.14490032 0.12439556 2.1530004
0.15173525 0.12302858 2.1530001
0.18864381 0.12507905 2.1530001
0.095142096 0.13697182 2.1530001
0.10525779 0.13396446 2.1530004
0.11482668 0.13533144 2.1530001
0.12507905 0.13328096 2.1530001
0.13533144 0.13415974 2.1530001
0.14353333 0.13328096 2.1530001
-0.057413336 0.37728763 2.1530001
-0.054337621 0.38446426 2.1530001
-0.049211431 0.38753998 2.1530001
0.0082019055 0.38753998 2.1530001
0.012302858 0.38753998 2.1530001
-0.053312384 0.39574194 2.1530001
-0.047160953 0.39574194 2.1530001
0.0068349219 0.39505845 2.1530004
0.012302858 0.39574194 2.1530001
-0.063564762 0.40599433 2.1530001
-0.055362858 0.40394384 2.1530001
-0.049211431 0.40394384 2.1530001
-0.054337621 0.41317099 2.1530001
-0.049211435 0.41419622 2.1530004
-0.053312384 0.42239812 2.1530001
-0.049211431 0.42239812 2.1530001
-0.16403809 0.55772954 2.1530001
-0.15378572 0.55567908 2.1530001
-0.16403809 0.56388098 2.1530001
-0.15310223 0.56319749 2.1530004
-0.14558381 0.56388098 2.1530001
-0.10252382 0.56593144 2.1530001
-0.098422863 0.56593144 2.1530001
-0.16403809 0.57003242 2.1530001
-0.15583619 0.57208288 2.1530001
-0.14626731 0.57139939 2.1530004
-0.13943239 0.57003242 2.1530001
-0.12507905 0.5761838 2.1530001
-0.11482668 0.57823431 2.1530004
-0.10662477 0.57823431 2.1530001
-0.096372381 0.57413334 2.1530001
0.23940191 -0.053659048 2.1670001
0.24352953 -0.053659048 2.1670001
0.23940191 -0.047467619 2.1670001
0.24352953 -0.04953143 2.1670001
0.25591239 -0.04127619 2.1670001
0.26003999 -0.04127619 2.1670001
0.25591239 -0.035084762 2.1670001
0.25426134 -0.024765715 2.1670001
0.22701906 -0.012382858 2.1670001
0.24765715 -0.014446668 2.1670001
0.25384855 -0.014446668 2.1670001
0.22701906 -0.0082552386 2.1670001
0.24765715 -0.0061914288 2.1670001
0.25316063 -0.006879366 2.1670003
0.24765715 0.0041276193 2.1670003
0.25178474 0.0041276193 2.1670003
0.24559334 0.014446668 2.1670001
0.25178474 0.012382858 2.1670001
0.24352953 0.020638095 2.1670001
0.12589239 0.09906286 2.1670001
0.13414761 0.09906286 2.1670001
0.14446667 0.09906286 2.1670001
0.15272191 0.09906286 2.1670001
0.12589239 0.10525429 2.1670001
0.13414761 0.10525429 2.1670001
0.14033905 0.10525429 2.1670001
0.18987048 0.1073181 2.1670001
0.11832508 0.11832508 2.1670003
0.1258924 0.11557334 2.1670001
0.13414761 0.11557334 2.1670001
0.14137095 0.11454143 2.1670001
0.18987048 0.11557334 2.1670003
0.097686991 0.12658033 2.1670003
0.10525429 0.12589239 2.1670001
0.11454143 0.12486049 2.1670001
0.12382858 0.12382858 2.1670001
0.13208382 0.12382858 2.1670001
0.1939981 0.1279562 2.1670001
0.085304134 0.13483557 2.1670003
0.094935238 0.13208382 2.1670003
0.047467619 0.14446667 2.1670001
0.055722859 0.14446667 2.1670001
0.061914288 0.14033905 2.1670001
0.084616192 0.14033905 2.1670001
0.090807617 0.14033905 2.1670001
-0.061914288 0.39625144 2.1670001
-0.05778667 0.39625144 2.1670001
-0.061914288 0.40244287 2.1670001
-0.05778667 0.40037906 2.1670001
-0.061914288 0.41482574 2.1670001
-0.05778667 0.41688952 2.1670001
-0.05778667 0.42101717 2.1670001
-0.14653048 0.56135619 2.1670001
-0.13414761 0.57580286 2.1670001
0.24925715 -0.054005716 2.181
0.25548857 -0.054005716 2.181
0.26172 -0.054005716 2.181
0.23679429 -0.041542854 2.181
0.24648762 -0.04431238 2.181
0.25507316 -0.046528 2.181
0.26421258 -0.046528 2.181
0.27210572 -0.047774285 2.181
0.23679429 -0.035311431 2.181
0.24510285 -0.035311431 2.181
0.25341141 -0.035311431 2.181
0.23679429 -0.02908 2.181
0.2462898 -0.025519185 2.181
0.25341141 -0.024925714 2.181
0.23471715 -0.012462857 2.181
0.24302572 -0.014540001 2.181
0.23471715 -0.0083085718 2.181
0.24302572 -0.0062314291 2.181
0.23471715 0.0041542859 2.181
0.24302572 0.0041542863 2.181
0.24233334 0.013847619 2.1810002
0.24094857 0.020771427 2.181
0.12047429 0.099702857 2.181
0.11632 0.10593428 2.181
0.12047429 0.10593428 2.181
0.11493524 0.11493524 2.1810002
