# .PCD v0.7 - Point Cloud Data file format
VERSION 0.7
FIELDS x y z
SIZE 4 4 4
TYPE F F F
COUNT 1 1 1
WIDTH 1480
HEIGHT 1
VIEWPOINT 0 0 0 1 0 0 0
POINTS 1480
DATA ascii
0.22125715 -0.025813336 1.9360001
0.19913144 -0.016594287 1.9360001
0.20466286 -0.016594287 1.9360001
0.21440876 -0.015804082 1.9360001
0.22540575 -0.014289525 1.936
0.23232001 -0.012906667 1.9360001
0.21756953 -0.0055314288 1.9360001
0.22310096 -0.0036876192 1.9360001
0.18806858 0.0073752385 1.9360001
0.19618134 0.0036876195 1.9360001
0.20503163 0.0044251434 1.9360001
0.21240687 0.0022125717 1.9360001
0.22310096 0 1.9360001
0.18806858 0.018438095 1.9360001
0.20650668 0.011062858 1.9360001
0.21296 0.011984762 1.9360001
-0.29648456 0.026550859 1.9360001
-0.29500955 0.034417782 1.9360002
-0.2857905 0.03687619 1.9360001
0.18069334 0.03687619 1.9360001
-0.29224384 0.043329526 1.9360001
-0.28440762 0.044712387 1.936
0.17700572 0.046095241 1.9360001
-0.29132193 0.055314288 1.9360002
-0.28394666 0.055314295 1.936
-0.27657145 0.055314288 1.9360002
-0.26366478 0.055314288 1.9360001
-0.25813335 0.051626671 1.9360001
0.17700572 0.051626671 1.9360001
-0.29316574 0.064533338 1.9360001
-0.28302476 0.063611433 1.9360001
-0.27657145 0.062689528 1.9360001
-0.26550859 0.062689528 1.9360001
0.18622477 0.066377148 1.9360001
0.19360001 0.066377148 1.9360001
-0.29132193 0.070064761 1.9360001
-0.28333205 0.072523177 1.9360001
-0.27657145 0.073752388 1.9360002
-0.26919618 0.077440001 1.9360001
0.18622477 0.070064761 1.9360001
0.19298542 0.071293972 1.9360002
-0.27288383 0.082971431 1.9360001
-0.26919621 0.084815249 1.9360002
-0.26827431 0.096800007 1.9360001
-0.26919618 0.10509715 1.9360001
0.15488 0.10325334 1.9360001
0.16963048 0.12537906 1.9360001
0.17516191 0.12537906 1.9360001
0.14381716 0.13459811 1.9360001
-0.12353525 0.14289524 1.9360001
0.14566097 0.14473905 1.9360001
0.1511924 0.14381716 1.9360001
0.16963048 0.14750476 1.9360001
-0.12537906 0.15488002 1.9360001
0.066377148 0.15488 1.9360001
0.074674286 0.15764572 1.9360001
0.084815249 0.15672381 1.9360001
0.094956197 0.15764572 1.9360001
0.11800382 0.15856762 1.9360001
0.12537906 0.15488002 1.9360002
0.13644192 0.1511924 1.9360001
0.14566097 0.1511924 1.9360001
0.16594286 0.15856762 1.9360001
0.17454731 0.15610921 1.9360002
-0.20466286 0.16963048 1.9360001
-0.12537906 0.16594288 1.9360002
0.10509715 0.16225524 1.9360001
0.11247239 0.16225524 1.9360001
0.16594286 0.16594286 1.9360001
0.17516193 0.16594286 1.9360001
0.18438098 0.16655746 1.9360001
-0.20650668 0.1733181 1.9360001
-0.12414985 0.17577653 1.9360002
0.15856762 0.17516191 1.9360001
0.16594286 0.17516193 1.9360001
0.17516191 0.1733181 1.9360001
-0.21461944 0.18511848 1.9360001
-0.18069334 0.18438096 1.9360001
-0.17516191 0.18622477 1.9360001
-0.12432547 0.18438098 1.9360001
-0.11800382 0.18806858 1.9360001
0.16594286 0.18069334 1.9360001
-0.21480381 0.19544382 1.9360001
-0.17577653 0.19421463 1.9360002
-0.12584002 0.19544384 1.936
-0.21511112 0.20527747 1.9360002
-0.18438096 0.20650668 1.9360001
-0.12353525 0.20466286 1.9360001
-0.22125715 0.21388191 1.9360002
-0.21609449 0.21388192 1.9360001
-0.20466286 0.21756953 1.9360001
-0.19470631 0.21609449 1.9360001
-0.18806858 0.21388192 1.9360001
-0.11431621 0.21019429 1.9360002
-0.10509715 0.21019429 1.9360001
-0.094956197 0.21572572 1.9360001
-0.086659051 0.21756953 1.9360001
-0.21756953 0.22125715 1.9360001
-0.094034292 0.22125715 1.9360001
-0.086659051 0.22125715 1.9360001
0.035401143 0.2256823 1.9360001
0.043790482 0.22448385 1.936
0.17608382 0.56512761 1.9360001
0.18806858 0.56789333 1.9360001
0.16778667 0.57711244 1.9360001
0.17516191 0.57895625 1.9360001
0.18253715 0.57895625 1.9360001
0.13644192 0.58448768 1.9360001
0.14381716 0.58633149 1.9360002
0.15395811 0.58540952 1.9360001
0.16594286 0.58448768 1.9360001
0.1733181 0.58264387 1.9360001
0.18069334 0.58264387 1.9360001
0.14381716 0.59186286 1.9360001
0.15303621 0.59001905 1.9360001
-0.34118858 -0.081588574 1.9470001
-0.33748004 -0.081588574 1.9470001
-0.34118858 -0.07788001 1.9470001
-0.33483109 -0.073641643 1.9470003
-0.33377147 -0.066754296 1.9470003
-0.32450002 -0.063045718 1.9470001
-0.33154631 -0.056370288 1.9470001
-0.32542714 -0.054701433 1.9470001
-0.3300629 -0.046357147 1.9470001
-0.32635432 -0.044502866 1.9470003
0.22807716 -0.040794287 1.9470001
-0.32450002 -0.03523143 1.9470001
-0.31893718 -0.033377144 1.9470001
0.22807717 -0.03523143 1.9470001
0.23364002 -0.033377144 1.9470001
-0.32264572 -0.027814288 1.9470001
-0.31745374 -0.025218287 1.9470001
0.21695144 -0.022251431 1.9470001
0.22668645 -0.02596 1.9470003
0.23512344 -0.025218287 1.9470001
-0.31708288 -0.014834287 1.9470003
0.1965543 -0.014834288 1.9470003
0.20397145 -0.011125716 1.9470003
0.21324287 -0.011125715 1.9470001
0.2225143 -0.018542858 1.9470001
0.23364002 -0.018542858 1.9470001
-0.31522858 -0.0074171433 1.9470001
0.1953181 -0.0049447622 1.9470003
0.20397143 -0.0055628577 1.9470003
0.21324289 -0.0055628577 1.9470001
0.18913715 0.0037085717 1.9470001
0.19284573 0.0018542858 1.9470001
0.20397145 0 1.9470001
-0.3041029 0.013598097 1.9470003
-0.29483145 0.016688572 1.9470001
-0.30516249 0.025430206 1.9470003
-0.3041029 0.034613337 1.9470003
-0.29668573 0.037085716 1.9470001
-0.30039433 0.042648576 1.9470001
-0.29668573 0.046357147 1.9470001
0.17801145 0.040794287 1.9470001
-0.29668576 0.055628575 1.9470003
-0.3016305 0.065518104 1.9470003
-0.29668573 0.063045718 1.9470001
-0.30039433 0.07046286 1.9470001
-0.29483145 0.074171431 1.9470001
-0.28679621 0.076643825 1.9470003
-0.28463286 0.082515717 1.9470001
-0.27721572 0.086224288 1.9470001
-0.27443433 0.09456858 1.9470001
-0.27443433 0.10198572 1.9470001
-0.13350858 0.13536286 1.9470001
-0.12683314 0.13573372 1.9470001
-0.14092572 0.14834286 1.9470001
-0.13536286 0.14463429 1.9470003
-0.12887287 0.14463429 1.9470001
0.13721716 0.14834286 1.9470001
0.14185286 0.14463429 1.9470001
0.17059429 0.14463429 1.9470001
-0.13443571 0.15483287 1.9470001
-0.12980001 0.15576002 1.9470003
0.083442859 0.15205143 1.9470001
0.096422866 0.15576002 1.9470001
0.10384001 0.15761431 1.9470001
0.11496572 0.15761431 1.9470001
0.12980001 0.15205143 1.9470001
0.13350858 0.15205143 1.9470001
0.14092572 0.15205143 1.9470001
-0.21324287 0.16688572 1.9470001
-0.20397145 0.16595857 1.9470001
-0.12980001 0.16503143 1.9470001
-0.21463358 0.17476644 1.9470003
-0.20026287 0.17059429 1.9470001
-0.19470002 0.17059429 1.9470001
-0.18542859 0.17430288 1.9470003
-0.12980001 0.17430288 1.9470003
-0.22399774 0.18617029 1.9470001
-0.21695144 0.18172002 1.9470001
-0.17430288 0.18542859 1.9470001
-0.14216191 0.18790096 1.9470003
-0.13536286 0.18542859 1.9470003
-0.12980001 0.18542859 1.9470001
-0.2225143 0.19470002 1.9470001
-0.21880573 0.19284573 1.9470001
-0.17183048 0.19408193 1.9470003
-0.14278001 0.19470002 1.9470001
-0.13536286 0.19470002 1.9470001
-0.22344145 0.20489858 1.9470001
-0.21880573 0.20211716 1.9470001
-0.18172002 0.20582572 1.9470001
-0.17677526 0.20149907 1.9470003
-0.13536286 0.20211716 1.9470001
-0.12794572 0.20582572 1.9470001
-0.22622287 0.21509716 1.9470003
-0.18666476 0.21509716 1.9470003
-0.10458173 0.2173223 1.9470001
-0.21324289 0.22622287 1.9470003
-0.20397145 0.22622286 1.9470003
-0.19507088 0.22548115 1.9470001
-0.10013144 0.2225143 1.9470001
-0.21509716 0.23364002 1.9470001
0.18542859 0.56555718 1.9470003
0.19284573 0.56370288 1.9470001
0.14648858 0.57853717 1.9470001
0.15576002 0.57853717 1.9470003
0.16441333 0.57606483 1.9470003
0.17615716 0.57482862 1.9470001
0.18357429 0.57112002 1.9470001
0.14463429 0.58410013 1.9470003
0.15650174 0.58372921 1.9470001
0.16317715 0.58410007 1.9470001
-0.34311619 -0.072725713 1.9580001
-0.34311619 -0.065266669 1.9580001
-0.33565718 -0.0634019 1.9580001
-0.34311619 -0.057807621 1.9580001
-0.33814353 -0.05594286 1.9580001
-0.33565715 -0.04661905 1.9580001
-0.32819811 -0.033565715 1.9580001
-0.32695493 -0.026106667 1.9580001
-0.32446858 -0.014918095 1.9580001
0.19393525 -0.011188571 1.9580001
0.19393525 -0.0074590477 1.9580001
-0.305821 0.015539683 1.9580001
-0.31327999 0.029836191 1.9580001
-0.30582094 0.037295237 1.9580001
-0.3045778 0.044754289 1.9580001
-0.30302382 0.055010475 1.9580001
-0.30582094 0.0634019 1.9580001
-0.30395621 0.074590474 1.9580001
-0.2983619 0.078319997 1.9580001
-0.29388651 0.085033141 1.9580001
-0.28593016 0.088265404 1.9580001
-0.28344381 0.095102862 1.9580001
-0.27971429 0.095102862 1.9580001
-0.14438586 0.13479565 1.9580002
-0.13575467 0.13277106 1.9580001
0.1417219 0.13612762 1.9580001
-0.14591762 0.14498523 1.9580001
0.065266669 0.14918095 1.9580001
0.085779056 0.14918095 1.9580001
0.095102862 0.14918095 1.9580001
0.1268038 0.14918095 1.9580001
0.13500877 0.14619733 1.9580001
0.17528762 0.14918095 1.9580001
-0.14545143 0.15477523 1.9580001
-0.13799238 0.15663999 1.9580001
0.065266669 0.15291047 1.9580001
0.074590474 0.15291047 1.9580001
0.089508571 0.15291047 1.9580001
0.095102862 0.15291047 1.9580001
0.10442667 0.15415365 1.9580001
0.11468286 0.15384285 1.9580001
0.12493904 0.15291047 1.9580001
-0.20139429 0.16409905 1.9580001
-0.19580001 0.16782857 1.9580001
-0.1417219 0.16409905 1.9580001
-0.13650058 0.16484496 1.9580001
-0.22190668 0.17528762 1.9580001
-0.18274666 0.17528762 1.9580001
-0.17715238 0.17901714 1.9580001
-0.16036952 0.17901714 1.9580001
-0.15477523 0.17901714 1.9580001
-0.14395963 0.17677943 1.9580001
-0.13612762 0.17528763 1.9580001
-0.17342286 0.18461142 1.9580001
-0.16782857 0.18647619 1.9580001
-0.15291047 0.18647619 1.9580001
-0.14619733 0.18423848 1.9580001
-0.23123048 0.19020571 1.9580001
-0.22750096 0.19580001 1.9580001
-0.16409905 0.19393525 1.9579999
-0.15440229 0.19318934 1.9580001
-0.14918095 0.19393525 1.9580001
-0.23123048 0.20885333 1.9580001
-0.22750096 0.20325905 1.9580001
-0.17404446 0.206367 1.9580001
-0.14358667 0.20139429 1.9580001
-0.13426286 0.20885333 1.9580001
-0.23123048 0.21444762 1.9580001
-0.18274666 0.21444762 1.9580001
-0.17715238 0.21444762 1.9580001
-0.23123048 0.22004192 1.9580001
-0.19020571 0.2256362 1.9580001
-0.18647619 0.22004192 1.9580001
-0.21258286 0.23682477 1.9580001
-0.20512383 0.23496 1.9580001
-0.19580001 0.23309524 1.9580001
-0.16036952 0.23123048 1.9580001
-0.15415365 0.23371683 1.9580001
-0.14731619 0.23496 1.9580001
-0.21258286 0.24241905 1.9580001
0.18647619 0.55942857 1.9580001
0.19207048 0.55942857 1.9580001
0.18647619 0.56315815 1.9580001
0.19207048 0.56315815 1.9580001
0.18461142 0.57807624 1.9580001
0.19020571 0.57807624 1.9580001
-0.33379239 -0.031879049 1.9690001
-0.31691527 0.0075009526 1.9690001
-0.32254097 0.011251429 1.9690001
-0.31597763 0.014064286 1.9690001
-0.32441622 0.024378097 1.9690001
-0.31691527 0.024378095 1.9690001
-0.32254097 0.03000381 1.9690001
-0.31654021 0.03450438 1.9690001
-0.31128952 0.045005716 1.9690001
-0.30753905 0.048756193 1.9690001
-0.30753905 0.056257147 1.9690001
-0.30753905 0.060007621 1.9690001
-0.30753905 0.078760006 1.9690001
-0.3037886 0.085010812 1.9690002
-0.3000381 0.091886669 1.9690001
-0.29478744 0.094512008 1.9690001
-0.28878668 0.095637143 1.9690001
-0.15001905 0.1275162 1.9690001
-0.14626858 0.1275162 1.9690001
0.14626858 0.1275162 1.9690001
-0.15189429 0.13501716 1.9690001
0.060007621 0.13876763 1.9690001
0.13751747 0.13751748 1.9690002
0.14439334 0.13126667 1.9690001
-0.15564477 0.14439334 1.9690001
0.064508192 0.14401829 1.9690001
0.075009525 0.14626858 1.9690002
0.084385723 0.14626858 1.9690001
0.093761906 0.14626858 1.9690002
0.10501333 0.14626858 1.9690002
0.11438952 0.14439334 1.9690001
0.12376573 0.14439335 1.9690001
0.13251683 0.14376827 1.9690002
0.17627239 0.14439334 1.9690001
-0.15526973 0.15301943 1.9690001
0.075009525 0.15001905 1.9690002
0.10595095 0.15095666 1.9690001
0.11438952 0.15001905 1.9690001
0.12189049 0.15001905 1.9690001
-0.19502477 0.16502096 1.9690001
-0.16127048 0.16689619 1.9690001
-0.1533007 0.16548976 1.969
-0.14626858 0.16502097 1.9690002
-0.18377334 0.17439716 1.9690001
-0.16127048 0.17439716 1.9690001
-0.15376952 0.17439717 1.9690001
-0.14626858 0.17439716 1.9690001
-0.17252192 0.1818981 1.9690001
-0.16502097 0.18377334 1.9690001
-0.15626985 0.18502352 1.9690002
-0.23252952 0.19690001 1.9690001
-0.15752001 0.19877525 1.9690001
-0.23252952 0.20440096 1.9690001
-0.16689619 0.20252572 1.9690001
-0.1425181 0.20627619 1.9690001
-0.17252192 0.21565239 1.9690001
-0.1425181 0.21002668 1.9690001
-0.13501714 0.21377715 1.9690002
-0.18330452 0.22549741 1.969
-0.17627239 0.22502857 1.9690001
-0.19252446 0.23502986 1.9690002
-0.16377079 0.23502986 1.9690002
-0.15752001 0.23252952 1.9690001
-0.21002668 0.24190572 1.9690001
-0.20440096 0.24190572 1.9690001
-0.19690001 0.24190572 1.9690001
-0.16377079 0.24128065 1.9690002
-0.15752001 0.24003048 1.9690001
-0.16127048 0.29628763 1.9690001
-0.32434288 0.01697143 1.9800003
-0.3168 0.037714288 1.9800001
-0.3130286 0.045257144 1.9800001
-0.3130286 0.054685719 1.9800001
-0.3130286 0.062228575 1.9800001
-0.30548573 0.082971431 1.9800001
-0.30548573 0.092400007 1.9800001
-0.15462859 0.12822859 1.9800001
-0.16217144 0.13765715 1.9800001
-0.15714286 0.13577144 1.9800003
0.096171439 0.13954286 1.9800001
0.10560001 0.13954286 1.9800003
0.11565715 0.13828573 1.9800003
0.12521146 0.1380343 1.9800001
0.13325715 0.13702857 1.9800003
-0.16217144 0.14520001 1.9800001
0.075428575 0.1433143 1.9800003
0.084857151 0.1433143 1.9800001
0.094285727 0.1433143 1.9800003
0.10560001 0.1433143 1.9800003
0.18102859 0.14520001 1.9800001
-0.16311429 0.15557143 1.9800001
-0.1584 0.1584 1.9800001
0.18102859 0.15085715 1.9800001
-0.19234286 0.16782859 1.9800001
-0.18857144 0.16782859 1.9800001
-0.16594288 0.16594288 1.9800003
-0.1584 0.16217144 1.9800001
-0.18291429 0.17348573 1.9800001
-0.17537144 0.17725715 1.9800001
-0.16782859 0.17537144 1.9800001
-0.16594286 0.1848 1.9800001
-0.23760001 0.19234286 1.9800001
-0.24137144 0.20554286 1.9800001
-0.23760001 0.20554286 1.9800001
-0.16500001 0.20648572 1.9800001
-0.15462857 0.20592001 1.9800001
-0.14708573 0.20742859 1.9800001
-0.24137144 0.21497145 1.9800003
-0.23760001 0.21497145 1.9800003
-0.16594288 0.21497144 1.9800001
-0.1584 0.21497145 1.9800003
-0.14520001 0.21308573 1.9800001
-0.13577144 0.21874289 1.9800003
-0.12634286 0.21685715 1.9800001
-0.17474286 0.2250286 1.9800003
-0.16594288 0.22440001 1.9800003
-0.1584 0.22440001 1.9800001
-0.18480001 0.2357143 1.9800003
-0.1749943 0.23458289 1.9800001
-0.16745146 0.23232 1.9800001
-0.15462857 0.23194286 1.9800001
-0.14520001 0.23382859 1.9800001
-0.19234286 0.24137144 1.9800001
-0.16500001 0.24608573 1.9800001
-0.1584 0.24514288 1.9800001
-0.16594286 0.25457144 1.9800001
-0.16405715 0.2753143 1.9800001
-0.16468573 0.2954286 1.9800003
-0.15462857 0.29605716 1.9800003
-0.17574859 0.30473146 1.9800001
-0.16518858 0.30397716 1.9800001
-0.15462857 0.3017143 1.9800003
-0.31872004 0.045531433 1.9920001
-0.31872001 0.053120002 1.9920001
-0.22006857 0.1365943 1.9920001
-0.17074287 0.1365943 1.9920001
-0.16568381 0.13406476 1.9920001
-0.15936001 0.1328 1.9920001
0.09675429 0.1365943 1.9920001
0.10434286 0.1365943 1.9920001
0.11193143 0.1365943 1.9920001
0.12141715 0.1365943 1.9920001
0.1365943 0.1328 1.9920001
0.14038858 0.1328 1.9920001
0.17833145 0.1365943 1.9920001
-0.1722606 0.14494173 1.9920002
-0.16694859 0.14418288 1.9920001
0.066400006 0.14038858 1.9920001
0.075885728 0.14038858 1.9920001
0.085371435 0.14038858 1.9920001
0.091062859 0.14038858 1.9920001
0.17833145 0.14038858 1.9920001
0.18212572 0.14038858 1.9920001
-0.18212572 0.15746287 1.9920001
-0.17345308 0.15610775 1.9920003
-0.16694857 0.15366858 1.9920001
0.18212572 0.15556572 1.9920001
-0.20109715 0.16694857 1.9920001
-0.18339048 0.16568381 1.9920001
-0.17453715 0.16505143 1.9920003
-0.16315429 0.16315429 1.9920001
-0.18402286 0.17074287 1.9920001
-0.17529601 0.1722606 1.9920002
-0.2428343 0.19730286 1.9920001
-0.23904002 0.19730286 1.9920001
-0.24536383 0.20489144 1.9920001
-0.23904002 0.20109715 1.9920001
-0.15556572 0.20489144 1.9920001
-0.24662858 0.21437715 1.9920001
-0.15366858 0.21437715 1.9920001
-0.14797714 0.21627429 1.9920001
-0.15366858 0.22386287 1.9920003
-0.14645943 0.223104 1.9920002
-0.15556572 0.23145144 1.9920001
-0.09675429 0.23904002 1.9920001
-0.19350858 0.24662858 1.9920001
-0.18592 0.24473146 1.9920003
-0.17529601 0.24511087 1.9920002
-0.15366858 0.24473146 1.9920001
-0.14797714 0.24473144 1.9920001
-0.1935086 0.25421715 1.9920001
-0.18592 0.25421715 1.9920003
-0.17453717 0.25421715 1.9920003
-0.16315429 0.2561143 1.9920001
-0.15664981 0.25475919 1.9920003
-0.19350858 0.26180574 1.9920001
-0.18592 0.26560003 1.9920003
-0.17453717 0.26560003 1.9920003
-0.16543086 0.26484117 1.9920002
-0.15809524 0.26307052 1.9920001
-0.18592 0.27508575 1.9920003
-0.17453715 0.27508569 1.9920003
-0.16505143 0.27318859 1.9920001
-0.15556574 0.27508575 1.9920003
-0.14797714 0.27508572 1.9920001
-0.18592001 0.28457144 1.9920003
-0.17453715 0.28457144 1.9920003
-0.16505143 0.28457147 1.9920003
-0.15556572 0.28457144 1.9920003
-0.14797714 0.28457147 1.9920001
-0.18465525 0.29721904 1.9920003
-0.17453717 0.29595429 1.9920003
-0.16505143 0.29216 1.9920001
-0.15556572 0.29216 1.9920001
-0.18497144 0.30449143 1.9920001
-0.17074287 0.30354288 1.9920001
-0.17359333 0.1297181 2.003
-0.16023999 0.12781048 2.003
-0.15642476 0.12590286 2.003
0.1297181 0.1297181 2.003
0.13544096 0.1297181 2.003
0.14307143 0.1297181 2.003
-0.21746856 0.13544096 2.003
-0.18503904 0.13734858 2.003
-0.176264 0.13505945 2.003
0.074397147 0.13734858 2.003
0.083935246 0.13734858 2.003
0.09347333 0.13544096 2.003
0.11445715 0.13353334 2.003
0.12590286 0.13353334 2.003
0.13353334 0.13353334 2.003
-0.22128381 0.14307143 2.003
-0.19076191 0.14879429 2.003
-0.18503904 0.14497906 2.0030003
-0.17836237 0.14402524 2.003
0.18694668 0.14497906 2.003
0.19457714 0.14497906 2.003
0.20220762 0.14497906 2.003
-0.21365333 0.15642476 2.003
-0.19266953 0.15451714 2.003
-0.18567494 0.15388128 2.003
-0.17931619 0.15451714 2.003
0.18694668 0.15260953 2.003
0.19712064 0.15388128 2.003
0.20411524 0.15260953 2.003
-0.21365333 0.16023999 2.003
-0.19457714 0.16214761 2.0030003
-0.18694668 0.16214761 2.003
0.19839238 0.16023999 2.003
-0.24799049 0.20220762 2.003
-0.14243555 0.22764254 2.003
-0.13734858 0.22509904 2.003
-0.12781048 0.22509904 2.003
-0.15260953 0.23272952 2.003
-0.14688668 0.23272952 2.003
-0.14307143 0.24799049 2.003
-0.13734858 0.24799049 2.003
-0.10301143 0.24226762 2.003
-0.097288571 0.24608287 2.003
-0.15260953 0.25371334 2.003
-0.14497906 0.25562096 2.003
-0.19457714 0.26706669 2.003
-0.15451714 0.26515907 2.003
-0.14688668 0.26325142 2.003
-0.19457714 0.27088189 2.003
-0.16214761 0.27088189 2.003
-0.15642476 0.27088189 2.003
-0.0038152381 0.44638285 2.003
0.0038152381 0.44638285 2.003
0.011445714 0.44638285 2.003
-0.0038152381 0.45019808 2.003
0.0038152381 0.45019811 2.003
-0.17655239 0.12665714 2.0150001
0.11706191 0.12665714 2.0150001
0.1247381 0.12665714 2.0150001
0.13433334 0.12665716 2.0150001
0.18806668 0.12281905 2.0150001
0.19318414 0.12537777 2.0150001
-0.19190477 0.13817143 2.0150001
-0.18499619 0.13203047 2.0150001
-0.16695715 0.13049524 2.0150001
0.064288102 0.1372119 2.0150001
0.074842863 0.13433333 2.0150001
0.0844381 0.13433334 2.0150001
0.095952384 0.13305396 2.0150001
0.10554762 0.13433333 2.0150001
0.11514287 0.13049524 2.0150001
0.1247381 0.13049524 2.0150001
0.18653142 0.13510095 2.0150001
0.19574288 0.13433333 2.0150001
0.2059778 0.13689207 2.0150001
-0.21877143 0.14584765 2.0150001
-0.19420762 0.14508002 2.0150001
0.20725715 0.14584765 2.0150001
-0.21301429 0.15544286 2.0150001
-0.20725715 0.15736191 2.0150001
-0.19958097 0.15544286 2.0150001
0.18806668 0.15736191 2.0150001
0.19318414 0.15608256 2.0150001
0.20533811 0.15736191 2.0150001
-0.21109524 0.1612 2.0150001
-0.20533811 0.16311905 2.0150001
0.18806668 0.16503811 2.0150001
0.19526309 0.16551785 2.0150001
0.20469843 0.16375874 2.0150001
0.19958097 0.17271429 2.0150001
-0.13433333 0.22644764 2.0150001
-0.14200953 0.23604287 2.0150001
-0.13817143 0.23028573 2.0150001
-0.14392859 0.24371907 2.0150001
-0.13433334 0.24819684 2.0150001
-0.10362858 0.24947619 2.0150001
-0.13433334 0.25523335 2.0150003
-0.1247381 0.25715238 2.0150001
-0.097871438 0.25523335 2.0150001
-0.15352382 0.26866665 2.0150001
-0.1448881 0.26770711 2.0150001
-0.13433333 0.26482856 2.0150001
-0.1247381 0.26482856 2.0150003
-0.11898096 0.26290953 2.0150001
-0.095952384 0.26099047 2.0150001
-0.15352382 0.27250478 2.0150001
-0.14584762 0.27506351 2.0150001
-0.14392859 0.28018096 2.0150001
0.0038380953 0.44521904 2.0150001
-0.2123524 0.12741144 2.0270002
-0.19304763 0.12741144 2.0270002
-0.18609792 0.12586705 2.0270002
0.10424572 0.12741145 2.0270002
0.11196762 0.12741144 2.0270002
0.14478573 0.12741144 2.0270002
0.15250763 0.12741144 2.0270002
0.19690858 0.12355049 2.0270002
0.20463049 0.12548096 2.0270004
0.21363938 0.12483748 2.0270002
-0.2200743 0.13127239 2.0270002
-0.21524811 0.13513336 2.0270002
-0.19433461 0.13513336 2.0270002
0.067566678 0.13513334 2.0270002
0.077219054 0.13127239 2.0270002
0.084940962 0.13127239 2.0270002
0.092662863 0.13127239 2.0270002
0.10424572 0.13127241 2.0270002
0.20591748 0.13255939 2.0270002
0.2123524 0.13320287 2.0270002
-0.21621335 0.14478573 2.0270002
-0.20076953 0.14478573 2.0270002
0.21428287 0.14478573 2.0270002
-0.21428287 0.15250763 2.0270002
-0.20527399 0.15315114 2.0270004
0.21428287 0.15250763 2.0270002
0.2200743 0.15250763 2.0270002
0.20656097 0.16602097 2.0270002
0.2123524 0.1640905 2.0270002
-0.11775906 0.22779621 2.0270002
-0.13513334 0.23551813 2.0270004
-0.1138981 0.23551813 2.0270004
-0.10810667 0.23937906 2.0270002
-0.13436115 0.2447844 2.0270002
-0.12548096 0.24710098 2.0270002
-0.11505639 0.24555659 2.0270002
-0.10810667 0.2451705 2.0270002
-0.12548096 0.25289237 2.0270002
-0.11814516 0.25559506 2.0270002
-0.10656229 0.25559506 2.0270002
-0.14478573 0.27412763 2.0270002
-0.13416812 0.27509287 2.0270002
0.19807428 0.11651429 2.039
0.20195809 0.11651429 2.039
-0.2058419 0.12816572 2.039
-0.1967797 0.12557653 2.039
0.085443817 0.12816572 2.039
0.095153332 0.12816572 2.039
0.13399142 0.12428191 2.039
0.19807428 0.1203981 2.039
0.20195809 0.1203981 2.039
-0.21360953 0.13593334 2.039
-0.2058419 0.13641882 2.0389998
-0.19807428 0.13399142 2.039
0.073792383 0.13204953 2.039
0.08544381 0.13204953 2.039
0.21360953 0.13981713 2.039
-0.21360953 0.14564286 2.039
-0.20778382 0.14564286 2.039
0.22137713 0.14564286 2.039
-0.21360953 0.15146858 2.039
0.21360953 0.15923619 2.039
0.21749334 0.16312 2.039
0.21360953 0.17088762 2.039
-0.12428191 0.22914477 2.039
-0.12428191 0.23497048 2.039
-0.13204953 0.24079619 2.039
-0.12428191 0.24273811 2.039
-0.064915106 0.24468002 2.039
-0.056703623 0.24390323 2.039
-0.11392508 0.25374222 2.039
-0.064082861 0.25438952 2.039
-0.05631524 0.25438952 2.039
-0.114184 0.26487586 2.039
-0.10486286 0.26604098 2.039
-0.063111909 0.2631281 2.039
-0.058257144 0.26215714 2.039
-0.11263048 0.27186665 2.039
-0.10486286 0.27186665 2.039
-0.0038838095 0.45052192 2.039
0.20705333 0.1172 2.0510001
0.21096 0.1172 2.0510001
-0.2051 0.12696667 2.0510001
0.076180004 0.12892 2.0510001
0.12501334 0.12501334 2.0510001
0.13478 0.12110668 2.0510001
0.14259334 0.12306001 2.0510001
0.20705333 0.12110668 2.0510001
0.21584335 0.12306 2.0510001
0.22365665 0.12403667 2.0510001
-0.20705333 0.13282667 2.0510001
0.070320003 0.13282667 2.0510001
0.21877334 0.13478 2.0510001
0.22268 0.13478 2.0510001
0.21877334 0.14064001 2.0510001
0.22528446 0.14454667 2.0510001
0.23551621 0.14454669 2.0510004
0.24221335 0.14259334 2.0510001
0.21877334 0.16798668 2.0510001
0.22268 0.16408001 2.0510001
0.20705333 0.17775334 2.0510001
0.213304 0.17580001 2.0510004
-0.07422667 0.24612002 2.0510001
-0.05078667 0.24416669 2.0510001
-0.044926669 0.24416669 2.0510001
-0.071882673 0.25315201 2.0510004
-0.051763337 0.25295669 2.0510001
-0.045317337 0.25471467 2.0510004
-0.070320003 0.26370001 2.0510001
-0.053577147 0.26621145 2.0510004
-0.044926669 0.26565337 2.0510004
-0.039066669 0.26956001 2.0510001
-0.062506668 0.27542001 2.0510001
-0.058600001 0.27542001 2.0510001
-0.013673333 0.28909335 2.0510001
-0.0078133335 0.28909335 2.0510001
-0.013022223 0.29430223 2.0510001
-0.0078133335 0.29300001 2.0510001
-0.0039066668 0.4492667 2.0510001
0.0019533334 0.4492667 2.0510001
0.13622352 0.11657589 2.0630002
0.14473748 0.11395621 2.0630002
0.070731431 0.1296743 2.0630002
0.09627334 0.12574477 2.0630002
0.10413238 0.12574477 2.0630002
0.11395621 0.12574479 2.0630002
0.12770954 0.12181525 2.0630002
0.14932191 0.12378001 2.0630002
0.22791241 0.12770954 2.0630002
0.23577146 0.12770954 2.0630002
0.013753334 0.13360383 2.0630002
0.06483715 0.13360383 2.0630002
0.22791241 0.13556859 2.0630002
0.23577146 0.13556859 2.0630002
0.2436305 0.13753335 2.0630002
0.22791241 0.14146286 2.0630002
0.23184192 0.14539239 2.0630002
0.22791241 0.15325144 2.0630002
0.23655735 0.15482324 2.0630002
0.2436305 0.1552162 2.0630002
0.22267304 0.16373017 2.0630002
0.22005336 0.17289907 2.0630002
-0.074660957 0.2593486 2.0630002
-0.043224767 0.25148955 2.0630002
-0.039295241 0.25738382 2.0630002
-0.066801913 0.26720765 2.0630002
-0.039295241 0.26524287 2.0630002
-0.066801913 0.27113718 2.0630002
-0.053048577 0.2750667 2.0630002
-0.04518953 0.2750667 2.0630002
-0.035365716 0.27428079 2.0630002
-0.02750667 0.2750667 2.0630002
-0.025541907 0.28685525 2.0630002
-0.019647621 0.28685525 2.0630002
-0.025541907 0.29078481 2.0630002
-0.019647621 0.29274958 2.0630002
0.12653716 0.11862858 2.0760002
0.13180953 0.11599239 2.0760002
0.14235429 0.11072001 2.0760002
0.15026288 0.11665144 2.0760002
0.079085723 0.12653716 2.0760002
0.085017145 0.12653716 2.0760002
0.092925727 0.12456001 2.0760002
0.11665144 0.12258286 2.0760002
0.12258286 0.12258286 2.0760002
0.1561943 0.12653716 2.0760002
0.0065904772 0.13708192 2.0760002
0.013840001 0.1384 2.0760002
0.067222863 0.13049145 2.0760002
0.0059314296 0.14235429 2.0760002
0.01449905 0.14367239 2.0760002
0.2293486 0.15817145 2.0760002
0.23330288 0.15817145 2.0760002
0.2293486 0.16410288 2.0760002
0.23462097 0.16344383 2.0760002
0.24121146 0.16212574 2.0760002
0.22737145 0.17201144 2.0760002
0.23528002 0.17003429 2.0760002
0.24121146 0.17003429 2.0760002
-0.079085723 0.25702861 2.0760002
-0.039542861 0.25307432 2.0760002
-0.077108577 0.26493716 2.0760002
-0.033611432 0.26889145 2.0760002
-0.035588574 0.27680001 2.0760002
-0.02570286 0.27482289 2.0760002
-0.017794289 0.27680001 2.0760002
-0.053382862 0.2807543 2.0760002
-0.045474291 0.2807543 2.0760002
-0.032952383 0.2820724 2.0760002
-0.02570286 0.28273144 2.0760002
-0.019771431 0.28273144 2.0760002
-0.03163429 0.29459432 2.0760002
-0.02570286 0.29657146 2.0760002
-0.02570286 0.30052575 2.0760002
-0.017794289 0.30052575 2.0760002
0.1392 0.10738286 2.0880001
0.14516571 0.10738286 2.0880001
0.11533715 0.11931429 2.0880001
0.12527999 0.11732572 2.0880001
0.13522287 0.11136 2.0880001
0.15709715 0.11732572 2.0880001
0.077554286 0.12527999 2.0880001
0.087497145 0.12329143 2.0880001
0.095451429 0.12329143 2.0880001
0.10539428 0.12329143 2.0880001
0.11136 0.12329143 2.0880001
0.15709715 0.12329143 2.0880001
-0.0039771427 0.1392 2.0880001
0.0019885714 0.13721144 2.0880001
0.063634284 0.13124572 2.0880001
0 0.14317714 2.0880001
0.23862858 0.16703999 2.0880001
0.24260572 0.16703999 2.0880001
0.22669715 0.17897142 2.0880001
0.23465145 0.17698285 2.0880003
0.24260572 0.17698285 2.0880001
-0.034468573 0.25718856 2.0880001
-0.025188571 0.25718856 2.0880001
-0.019885715 0.2565257 2.0880001
-0.033805713 0.26447999 2.0880001
-0.023862857 0.26249143 2.0880001
-0.017897144 0.26447999 2.0880001
-0.025188571 0.27177143 2.0880001
-0.017897144 0.27243429 2.0880001
-0.035794284 0.28635427 2.0880001
-0.015908571 0.28436571 2.0880001
-0.033805713 0.29033145 2.0880001
-0.031817142 0.30425143 2.0880001
-0.025851429 0.30623999 2.0880001
-0.017897144 0.30623999 2.0880001
-0.045737144 0.31419429 2.0880001
-0.023862857 0.31021714 2.0880001
-0.063634284 0.33606857 2.0880001
0.12806095 0.10805143 2.1010001
0.13206285 0.10805143 2.1010001
0.11405428 0.11605524 2.1010001
0.12405905 0.11405428 2.1010001
0.0040019052 0.12806097 2.1010003
0.012005715 0.12806095 2.1010001
0.056026667 0.12405904 2.1010003
0.06536445 0.12672698 2.1010003
0.074035242 0.12606001 2.1010001
0.084040008 0.12139112 2.1010003
0.09404476 0.12005714 2.1010001
0.10404953 0.12005715 2.1010003
0.11205333 0.12005714 2.1010001
0.12005714 0.12005714 2.1010001
-0.0040019047 0.13606477 2.1010001
0.0030014287 0.13306333 2.1010001
0.012005715 0.13206285 2.1010001
-0.013339683 0.14140064 2.1010003
-0.0064030476 0.14486896 2.1010001
0.0020009524 0.14807047 2.1010001
0.22810857 0.18408762 2.1010001
0.23411143 0.18408762 2.1010001
-0.032015238 0.2561219 2.1010001
-0.028013334 0.2561219 2.1010001
-0.026679367 0.26679367 2.1010003
-0.054025717 0.28813714 2.1010001
-0.044020951 0.28813714 2.1010003
-0.053358734 0.29347301 2.1010003
-0.044020951 0.29414001 2.1010001
-0.036017142 0.29614094 2.1010001
-0.044020951 0.30014288 2.1010003
-0.036017142 0.30214381 2.1010001
-0.020009523 0.31214857 2.1010001
-0.016007619 0.31214857 2.1010001
-0.060028572 0.3281562 2.1010001
-0.054025717 0.3281562 2.1010001
-0.044821333 0.32335392 2.1010001
-0.060028572 0.33415908 2.1010001
-0.054025717 0.33415908 2.1010001
-0.044020958 0.33415908 2.1010001
-0.036017142 0.33415908 2.1010001
-0.062029526 0.34416381 2.1010001
-0.055026192 0.34316334 2.1010001
-0.044020951 0.34416384 2.1010001
-0.036017142 0.34416384 2.1010003
-0.064030476 0.35216761 2.1010001
-0.042020001 0.35216761 2.1010001
-0.036017142 0.35216761 2.1010001
-0.036017142 0.42820382 2.1010001
-0.054692701 0.43353969 2.1010003
-0.042020001 0.43220571 2.1010001
-0.034016192 0.43220571 2.1010001
-0.056026667 0.44621241 2.1010001
-0.040019047 0.44621241 2.1010001
-0.036017142 0.44421145 2.1010003
0.0020009524 0.44821334 2.1010001
-0.0040019047 0.45421618 2.1010001
0.0020009524 0.45421618 2.1010001
-0.056026667 0.46822286 2.1010001
-0.0080038095 0.4662219 2.1010001
-0.054692701 0.47355875 2.1010003
-0.048022859 0.47222477 2.1010001
-0.054025717 0.50824189 2.1010001
0.11677334 0.10872 2.1140001
0.12402134 0.106304 2.1140001
0.060400002 0.11677334 2.1140001
0.094626665 0.11677334 2.1140001
0.10469334 0.11677334 2.1140001
0.11476 0.11274667 2.1140001
0.1208 0.11274667 2.1140001
0.0020133334 0.12482667 2.1140001
0.063755564 0.12348446 2.1140003
0.073822223 0.12214223 2.1140001
0.084559999 0.1208 2.1140001
-0.020133335 0.13690667 2.1140001
-0.014093334 0.13690667 2.1140001
-0.0060400004 0.13489333 2.1140001
0.056373335 0.13288 2.1140001
0.060400002 0.13288 2.1140001
-0.021744002 0.14415467 2.1140001
-0.014764445 0.14764446 2.1140001
-0.014093334 0.15301333 2.1140001
-0.0060400004 0.15301333 2.1140001
0 0.15301333 2.1140001
-0.056373335 0.29797333 2.1140001
-0.053688891 0.30334222 2.1140001
-0.044293337 0.30602667 2.1140001
-0.042682674 0.31246933 2.1140001
-0.034629334 0.31488535 2.1140001
-0.025166668 0.31710002 2.1140001
-0.014093334 0.31810668 2.1140001
-0.052346665 0.32414669 2.1140001
-0.044293337 0.32616001 2.1140001
-0.034897782 0.3234756 2.1140001
-0.020133335 0.32213336 2.1140001
-0.01208 0.32616001 2.1140001
-0.0080533335 0.32616001 2.1140001
-0.04026667 0.33018667 2.1140001
-0.03355556 0.33421335 2.1140001
-0.026173335 0.33824 2.1140001
-0.01208 0.33421335 2.1140001
-0.0060400004 0.33421335 2.1140001
-0.052346665 0.34629333 2.1140001
-0.032213334 0.34428 2.1140001
-0.024160001 0.34428 2.1140003
-0.014764446 0.34360892 2.1140001
-0.0060400004 0.34226668 2.1140001
-0.060400002 0.35032001 2.1140001
-0.053957332 0.35515198 2.1140001
-0.045299999 0.35736668 2.1140001
-0.033220001 0.35535336 2.1140001
-0.02416 0.35434672 2.1140001
-0.014496 0.35354137 2.1140001
-0.056373335 0.36441335 2.1140001
-0.04026667 0.36240003 2.1140001
-0.03624 0.36240003 2.1140001
-0.056373335 0.37850666 2.1140001
-0.034226667 0.39864001 2.1140001
-0.03624 0.40468001 2.1140001
-0.04026667 0.4147467 2.1140001
-0.036240004 0.4147467 2.1140001
-0.053688891 0.42548448 2.1140001
-0.043488003 0.42521602 2.1140001
-0.03624 0.42481333 2.1140001
-0.028186668 0.42682669 2.1140001
-0.060400002 0.43689334 2.1140001
-0.053688891 0.43353781 2.1140001
-0.044868574 0.43488005 2.1140003
-0.034226667 0.43488002 2.1140001
-0.027180001 0.43488002 2.1140001
-0.053688891 0.44427559 2.1140001
-0.04509867 0.44454405 2.1140001
-0.032213334 0.44494668 2.1140001
-0.024160001 0.44494671 2.1140003
-0.014093334 0.44494668 2.1140001
-0.0060400004 0.44494668 2.1140001
0.0020133334 0.44494668 2.1140001
-0.054360002 0.45300001 2.1140001
-0.04328667 0.45400667 2.1140001
-0.034897782 0.45501336 2.1140001
-0.024160001 0.45300001 2.1140003
-0.014093334 0.45501333 2.1140003
-0.0070466669 0.45400667 2.1140001
-0.054359999 0.46508002 2.1140001
-0.044293337 0.46508002 2.1140001
-0.03624 0.46508002 2.1140001
-0.014093334 0.46508002 2.1140001
-0.0080533335 0.4630667 2.1140001
-0.052346665 0.47514668 2.1140001
-0.043790001 0.47514671 2.1140001
-0.036240004 0.47514671 2.1140001
-0.014093334 0.47514668 2.1140001
-0.052346665 0.48521334 2.1140001
-0.04509867 0.48561603 2.1140001
-0.03624 0.48521334 2.1140001
-0.052346665 0.4932667 2.1140001
-0.04509867 0.49286404 2.1140001
-0.036240004 0.49528003 2.1140001
-0.0040266667 0.49729335 2.1140001
0.0020133334 0.49729335 2.1140001
-0.04026667 0.50333333 2.1140001
-0.03624 0.50333333 2.1140001
-0.0040266667 0.50333333 2.1140001
-0.055031113 0.51675558 2.1140001
-0.044293333 0.51299733 2.1140001
-0.036240004 0.5154134 2.1140001
-0.01208 0.51944005 2.1140001
0.0040266667 0.51541334 2.1140001
-0.052346665 0.52749336 2.1140001
-0.044293337 0.52548003 2.1140003
-0.03624 0.52548003 2.1140001
-0.01208 0.52346665 2.1140001
0.0040266667 0.52447331 2.1140001
-0.052346665 0.53152001 2.1140001
-0.043286666 0.53252667 2.1140001
-0.036240004 0.53554672 2.1140001
-0.01208 0.53554672 2.1140001
-0.020133335 0.57984 2.1140001
-0.016106667 0.57984 2.1140001
0.11546572 0.10736285 2.1270001
0.066848576 0.11749143 2.1270001
0.074951433 0.11749143 2.1270001
0.085080013 0.11749144 2.1270003
0.10533714 0.11344001 2.1270003
-0.0040514288 0.12964572 2.1270001
-0.014180001 0.13369715 2.1270001
-0.0081028575 0.13369715 2.1270001
-0.040514287 0.14990287 2.1270001
-0.036462858 0.14585143 2.1270003
-0.027347146 0.1468643 2.1270001
-0.024308573 0.1539543 2.1270003
-0.056720003 0.30790859 2.1270001
-0.054019049 0.31331047 2.1270003
-0.046591431 0.31601143 2.1270001
-0.052668571 0.32006288 2.1270001
-0.03241143 0.32816571 2.1270001
-0.025118861 0.32654515 2.1270001
-0.014855239 0.32546479 2.1270003
-0.03241143 0.33221716 2.1270001
-0.024308573 0.33424288 2.1270001
-0.014855239 0.33356762 2.1270003
-0.0081028575 0.33221716 2.1270001
-0.020257143 0.34032002 2.1270001
-0.013504764 0.34302101 2.1270003
-0.0060771434 0.34437147 2.1270001
-0.0060771429 0.3545 2.1270001
0 0.35652572 2.1270001
-0.052668571 0.36665428 2.1270001
-0.045376003 0.36705944 2.1270001
-0.033761904 0.36732954 2.1270003
-0.024308575 0.36665428 2.1270001
-0.014855239 0.36462861 2.1270003
-0.0060771434 0.36057717 2.1270001
0 0.36057717 2.1270001
-0.054019049 0.37543243 2.1270003
-0.044565719 0.37475714 2.1270001
-0.036462858 0.37475717 2.1270001
-0.024308573 0.37273145 2.1270003
-0.060771428 0.38488573 2.1270003
-0.054289144 0.38569602 2.1270001
-0.044565722 0.384307 2.1270001
-0.03545 0.38589859 2.1270001
-0.024308573 0.38893718 2.1270003
-0.016205715 0.38488573 2.1270001
-0.060771428 0.39501429 2.1270001
-0.054694287 0.39501429 2.1270001
-0.040514287 0.39501429 2.1270001
-0.034437142 0.39501432 2.1270001
-0.024308573 0.39704001 2.1270003
-0.062797144 0.40109146 2.1270001
-0.053681429 0.40413001 2.1270001
-0.044565719 0.40514284 2.1270001
-0.03241143 0.40716857 2.1270001
-0.027347146 0.40615574 2.1270001
-0.054019049 0.41594669 2.1270003
-0.046591431 0.41527146 2.1270001
-0.03241143 0.41527146 2.1270001
-0.028360002 0.41527146 2.1270001
-0.060771428 0.42945144 2.1270001
-0.055369526 0.42269906 2.1270003
-0.047266673 0.42269906 2.1270003
-0.032411434 0.42540002 2.1270003
-0.028360002 0.4233743 2.1270001
-0.016205715 0.42945144 2.1270001
-0.060771428 0.43350285 2.1270001
-0.021607621 0.43485332 2.1270003
-0.014180001 0.43552858 2.1270001
-0.03241143 0.44160575 2.1270001
-0.022282857 0.44160575 2.1270001
-0.014180001 0.44160575 2.1270001
-0.052668571 0.45781144 2.1270001
-0.046591431 0.45781144 2.1270001
-0.03241143 0.45781144 2.1270001
-0.054694287 0.46186286 2.1270001
-0.045578569 0.46490145 2.1270001
-0.032411434 0.46591431 2.1270003
-0.024308572 0.46591431 2.1270001
-0.03241143 0.47604287 2.1270001
-0.025659051 0.47536764 2.1270003
-0.014180001 0.47806859 2.1270001
-0.0081028575 0.47806859 2.1270001
-0.040514287 0.48617142 2.1270001
-0.03241143 0.48617142 2.1270001
-0.024308573 0.48414573 2.1270001
-0.014180001 0.48617142 2.1270001
-0.0060771434 0.48414573 2.1270001
0 0.4841457 2.1270001
-0.040514287 0.49832571 2.1270001
-0.032411434 0.49427432 2.1270003
-0.024308573 0.49427429 2.1270001
-0.014585144 0.49508458 2.1270001
-0.052668571 0.50440288 2.1270001
-0.045376003 0.50399774 2.1270001
-0.03241143 0.50237715 2.1270001
-0.023498287 0.50399774 2.1270001
-0.014180001 0.50440288 2.1270001
-0.0081028575 0.50237715 2.1270001
0.0020257144 0.50642854 2.1270001
-0.052668571 0.51048005 2.1270001
-0.044565715 0.51250577 2.1270001
-0.033761904 0.51453149 2.1270003
-0.026334288 0.51250577 2.1270001
-0.013504764 0.51723242 2.1270003
-0.0056720003 0.5153417 2.1270001
0 0.51048005 2.1270001
-0.052668571 0.52465999 2.1270001
-0.044565719 0.52263439 2.1270003
-0.03241143 0.52465999 2.1270001
-0.023498287 0.52506512 2.1270001
-0.016205715 0.52465999 2.1270001
-0.0060771434 0.52465999 2.1270001
-0.052668571 0.53884006 2.1270001
-0.046591431 0.53884006 2.1270001
-0.032411434 0.53478861 2.1270003
-0.024308573 0.53478867 2.1270001
-0.014585144 0.53397834 2.1270001
-0.0064822859 0.53559893 2.1270001
0 0.53681433 2.1270001
-0.052668571 0.54289144 2.1270001
-0.044565719 0.54289144 2.1270003
-0.034437142 0.54491717 2.1270001
-0.023498287 0.54451203 2.1270001
-0.014180001 0.54491717 2.1270001
-0.0060771434 0.54491717 2.1270001
0 0.54491717 2.1270001
-0.036462858 0.55504572 2.1270003
-0.020257143 0.55099428 2.1270001
-0.016205715 0.55099428 2.1270001
-0.020257143 0.57935429 2.1270001
-0.016205715 0.57935429 2.1270001
0.11209525 0.10598096 2.1400001
0.095790476 0.11413334 2.1400001
0.10598096 0.11005715 2.1400001
0.11005715 0.11005715 2.1400001
-0.042120636 0.13723175 2.1400001
-0.035326984 0.13723177 2.1400001
-0.024457144 0.13655239 2.1400001
-0.012228572 0.1304381 2.1400001
-0.0081523815 0.1304381 2.1400001
-0.093752384 0.14674285 2.1400001
-0.085600004 0.14470476 2.1400003
-0.075409524 0.14470476 2.1400001
-0.06521906 0.14674285 2.1400001
-0.05434921 0.14538413 2.1400001
-0.044838097 0.14470476 2.1400003
-0.032609526 0.14470476 2.1400001
-0.046876192 0.15081905 2.1400001
-0.033968255 0.15353653 2.1400001
-0.061142862 0.35870478 2.1400001
-0.061142862 0.36481905 2.1400001
-0.061142862 0.37704763 2.1400001
-0.057066668 0.37500954 2.1400001
-0.032609526 0.37704763 2.1400001
-0.024457145 0.37908572 2.1400001
-0.013859048 0.37582478 2.1400001
-0.0071333339 0.3760286 2.1400001
0 0.37908572 2.1400001
-0.044838097 0.38723809 2.1400001
-0.032609526 0.38519999 2.1400001
-0.024457145 0.38520002 2.1400003
-0.014266668 0.38519999 2.1400001
-0.046468575 0.39620575 2.1400001
-0.024457145 0.39539051 2.1400001
-0.015285715 0.39437145 2.1400001
-0.0081523815 0.3913143 2.1400001
-0.063180953 0.40761906 2.1400001
-0.057066668 0.40761906 2.1400001
-0.022419048 0.40558094 2.1400001
-0.016304763 0.40558097 2.1400001
-0.063180953 0.41577148 2.1400003
-0.057066668 0.41373336 2.1400001
-0.022011429 0.4165867 2.1400001
-0.016304765 0.41577145 2.1400001
-0.062501594 0.42664132 2.1400001
-0.022419048 0.42596191 2.1400001
-0.014266668 0.42596191 2.1400001
-0.0081523815 0.42800003 2.1400001
-0.065219052 0.43207622 2.1400001
-0.022419048 0.43207622 2.1400001
-0.012228572 0.43207622 2.1400001
-0.0081523815 0.43411431 2.1400001
-0.0061142864 0.44226664 2.1400001
0.0013587303 0.44294605 2.1400001
-0.024457144 0.47691429 2.1400001
-0.032609526 0.48506671 2.1400001
-0.022419048 0.4809905 2.1400001
-0.012228572 0.49321905 2.1400001
-0.0061142864 0.49525714 2.1400001
0 0.49525714 2.1400001
-0.032609526 0.50952381 2.1400001
-0.028533334 0.50952381 2.1400001
-0.0081523815 0.50544763 2.1400001
-0.032609526 0.51360005 2.1400001
-0.023438096 0.51563811 2.1400001
-0.014946034 0.5149588 2.1400001
-0.0081523815 0.51360005 2.1400001
-0.025476191 0.52277148 2.1400001
-0.0040761908 0.53398103 2.1400001
0 0.53398103 2.1400001
-0.042392384 0.55354673 2.1400001
-0.032609526 0.55232382 2.1400001
-0.025272382 0.55517715 2.1400001
-0.013587303 0.55707943 2.1400001
-0.0061142864 0.55640006 2.1400001
0 0.55640006 2.1400001
-0.022419048 0.56251431 2.1400001
-0.014266667 0.56455243 2.1400001
-0.0061142864 0.56251431 2.1400001
0 0.56251431 2.1400001
-0.020380955 0.57474291 2.1400001
-0.014266668 0.57474291 2.1400003
0.10662477 0.10662477 2.1530001
0.11687715 0.10252382 2.1530001
0.12302858 0.10252382 2.1530001
0.065615244 0.11482667 2.1530001
0.086120002 0.11482667 2.1530001
0.090220951 0.11482667 2.1530001
0.10252382 0.11072572 2.1530001
-0.041009523 0.12712952 2.1530001
-0.036908574 0.12712952 2.1530001
-0.0061514294 0.12712952 2.1530001
-0.094321907 0.13840714 2.1530001
-0.082019046 0.13943239 2.1530001
-0.075867623 0.13943239 2.1530001
-0.065615237 0.1394324 2.1530004
-0.055362862 0.13533145 2.1530001
-0.046477463 0.13396446 2.1530001
-0.034174606 0.13259748 2.1530004
-0.025630953 0.13225572 2.1530001
-0.016403811 0.13123049 2.1530001
-0.096372381 0.14353333 2.1530001
-0.065615237 0.14353333 2.1530004
-0.057413336 0.14353333 2.1530001
-0.012302858 0.36908573 2.1530001
-0.0061514294 0.36908573 2.1530001
-0.061514288 0.37318668 2.1530001
-0.012302858 0.38548952 2.1530001
-0.0068349219 0.3882235 2.1530004
0 0.38959047 2.1530001
-0.012302858 0.3977924 2.1530001
-0.012302858 0.40394384 2.1530001
-0.0061514294 0.40189338 2.1530001
-0.012302859 0.41419622 2.1530004
-0.0061514294 0.41829717 2.1530001
0 0.41829717 2.1530001
-0.065615244 0.42649907 2.1530001
-0.012302858 0.42239812 2.1530001
-0.0061514294 0.42444861 2.1530001
0.0020504764 0.42444861 2.1530001
-0.0041009532 0.43470097 2.1530004
0.0016403812 0.43388078 2.1530001
0.0041009528 0.44290289 2.1530001
-0.1804419 0.54747719 2.1530001
-0.17429048 0.54952765 2.1530001
-0.17429048 0.55362862 2.1530001
-0.16813906 0.55362862 2.1530001
-0.16403809 0.56593144 2.1530001
-0.15993714 0.56593144 2.1530001
-0.032807622 0.56388098 2.1530001
-0.028706668 0.56388098 2.1530001
-0.1546645 0.57354754 2.1530001
-0.14558381 0.5761838 2.1530001
-0.13943239 0.5761838 2.1530001
-0.020504761 0.57003242 2.1530001
-0.0061514294 0.57208288 2.1530001
0.10319048 0.1073181 2.1670001
0.066041909 0.11144572 2.1670001
0.073471621 0.11392229 2.1670001
0.084616192 0.11350953 2.1670001
0.094935238 0.11144572 2.1670003
-0.055722859 0.1279562 2.1670001
-0.046229333 0.12547962 2.1670001
-0.035084762 0.12589239 2.1670001
-0.024765715 0.1279562 2.1670003
-0.014446668 0.1279562 2.1670001
-0.0061914288 0.12382858 2.1670001
0 0.12382858 2.1670001
-0.10319048 0.13621143 2.1670001
-0.095967144 0.13414763 2.1670001
-0.084616192 0.13621143 2.1670001
-0.074297145 0.13621143 2.1670003
-0.063290164 0.13483557 2.1670003
-0.11144572 0.14240286 2.1670001
-0.10525429 0.14240286 2.1670001
-0.086680003 0.14033905 2.1670001
-0.0041276193 0.37767714 2.1670001
0 0.37767714 2.1670001
-0.0041276193 0.3879962 2.1670001
0 0.3879962 2.1670001
-0.0041276193 0.39625144 2.1670001
0 0.39625144 2.1670001
-0.0061914288 0.40450668 2.1670001
0 0.40450668 2.1670003
-0.006879366 0.41551369 2.1670003
0 0.41688952 2.1670001
-0.18574286 0.55722857 2.1670003
-0.1743919 0.56445193 2.1670001
-0.16758133 0.56465828 2.1670001
-0.17336001 0.57373905 2.1670001
-0.16510476 0.57580286 2.1670001
0.087239996 0.10801143 2.181
0.09554857 0.10801143 2.181
0.078931428 0.11216571 2.181
0.083085708 0.11216571 2.181
-0.097625718 0.12878285 2.181
-0.070622854 0.12878285 2.181
-0.064391434 0.12878285 2.181
-0.05608286 0.12462857 2.181
-0.041542854 0.12047429 2.181
-0.035311431 0.12255143 2.181
-0.024925714 0.12462857 2.1810002
-0.01454 0.12462857 2.181
-0.11216571 0.13709143 2.181
-0.10593428 0.1350143 2.181
-0.091394283 0.13293715 2.181
-0.085162848 0.13293715 2.181
-0.074777141 0.13293716 2.1810002
-0.066468574 0.13293715 2.181
-0.12255143 0.1454 2.181
-0.11632 0.14332286 2.181
-0.0041542859 0.41542858 2.181
0 0.41542858 2.181
-0.19109714 0.5566743 2.181
-0.18694285 0.55459714 2.181
-0.34065142 0.56290567 2.181
-0.33483544 0.56581372 2.181
-0.32611144 0.56913716 2.181
-0.21602286 0.56290567 2.181
-0.19421285 0.56809855 2.181
-0.18278857 0.56498283 2.181
-0.17863427 0.56913716 2.181
-0.33441997 0.57536852 2.181
-0.32611144 0.57536852 2.181
-0.31780285 0.57744569 2.181
-0.19608228 0.5749532 2.181
-0.17863427 0.57329142 2.181
0.066864759 0.10865524 2.194
0.075222865 0.1050732 2.1940002
0.085670486 0.10447619 2.194
0.094028577 0.10447618 2.194
0.10238666 0.10447618 2.194
-0.041790478 0.11701333 2.194
-0.15462476 0.12955047 2.194
-0.12119238 0.12955047 2.194
-0.1149238 0.12955047 2.194
-0.10447618 0.12746096 2.194
-0.093332075 0.12676445 2.194
-0.085670479 0.12746096 2.194
-0.075222857 0.12746094 2.194
-0.064078733 0.12397842 2.194
-0.054327618 0.12119238 2.194
-0.045969523 0.12119238 2.194
-0.033432379 0.12119238 2.194
-0.027163807 0.12119238 2.194
-0.014626666 0.12119238 2.194
-0.0083580948 0.12119238 2.194
-0.16507238 0.13372952 2.194
-0.15671429 0.13372952 2.194
-0.13581905 0.13790858 2.194
-0.12432666 0.13686381 2.194
-0.11562032 0.13512254 2.194
-0.10865524 0.13372952 2.194
-0.14208762 0.14417714 2.194
-0.13581905 0.14417715 2.194
-0.12641619 0.14313239 2.194
-0.12397842 0.15183872 2.194
-0.35104001 0.55999237 2.194
-0.34686095 0.55999237 2.194
-0.21452445 0.55859935 2.194
-0.20425095 0.55633569 2.194
-0.19474362 0.55497754 2.194
-0.35312957 0.56626093 2.194
-0.34686095 0.56626093 2.194
-0.21313143 0.56626093 2.194
-0.20477331 0.56626099 2.1940002
-0.19641525 0.56626093 2.194
-0.18805715 0.56835049 2.194
-0.35104001 0.57461905 2.194
-0.34477144 0.57461905 2.194
-0.21313143 0.57461905 2.194
-0.20686284 0.57461905 2.194
-0.18596762 0.57461905 2.194
-0.10093715 0.10934858 2.2080002
0.067291431 0.10514286 2.2080002
0.07990858 0.10514286 2.2080002
0.084114291 0.10093715 2.2080002
0.096731439 0.10093715 2.2080002
0.10304001 0.10093715 2.2080002
-0.10233906 0.1149562 2.2080002
-0.088320009 0.11776001 2.2080002
-0.07149715 0.11776001 2.2080002
-0.065188572 0.11776001 2.2080002
-0.05467429 0.11776002 2.2080002
-0.04626286 0.11776001 2.2080002
-0.035748571 0.11776001 2.2080002
-0.025234288 0.11776002 2.2080002
-0.01472 0.11776001 2.2080002
-0.0063085714 0.11776001 2.2080002
0 0.11776001 2.2080002
-0.13668573 0.12617144 2.2080002
-0.12196572 0.12617144 2.2080002
-0.1149562 0.12476953 2.2080002
-0.10619429 0.12301715 2.2080002
-0.09462858 0.12196572 2.2080002
-0.08621715 0.12196572 2.2080002
-0.076754294 0.12301715 2.2080002
-0.067291431 0.12196572 2.2080002
-0.021028573 0.12196572 2.2080002
-0.0042057144 0.12196572 2.2080002
0 0.12196572 2.2080002
-0.16612571 0.13878858 2.2080002
-0.15392916 0.13626516 2.2080002
-0.14467658 0.13542402 2.2080002
-0.13458288 0.13248003 2.2080002
-0.12617144 0.13248001 2.2080002
-0.15140572 0.1429943 2.2080002
-0.1472 0.1429943 2.2080002
-0.13374172 0.15308802 2.2080002
0.21449146 0.52150863 2.2080002
0.22290288 0.52150863 2.2080002
-0.11220858 0.11856001 2.223
-0.10585714 0.11856001 2.223
-0.094565719 0.11714858 2.223
-0.083838858 0.11601943 2.223
-0.074100003 0.11644286 2.223
-0.065631427 0.11432571 2.223
-0.057162859 0.11432571 2.223
-0.042342857 0.11432571 2.223
-0.03599143 0.11432571 2.223
-0.025405716 0.11432572 2.223
-0.01482 0.11220858 2.223
-0.0063514281 0.11220858 2.223
0 0.11432571 2.223
-0.15243429 0.12702857 2.223
-0.14608286 0.12702857 2.223
-0.13126285 0.12491143 2.223
-0.12561715 0.12420572 2.223
-0.11856001 0.12279429 2.223
-0.14820001 0.13126285 2.223
-0.16090286 0.14396572 2.223
