# .PCD v0.7 - Point Cloud Data file format
VERSION 0.7
FIELDS x y z
SIZE 4 4 4
TYPE F F F
COUNT 1 1 1
WIDTH 443
HEIGHT 1
VIEWPOINT 0 0 0 1 0 0 0
POINTS 443
DATA ascii
-0.073096849 0.068122447 0.57723999
-0.064743593 0.068155445 0.57611376
-0.055333048 0.068530917 0.57500011
-0.045458276 0.068852127 0.57586378
-0.039702859 0.06892857 0.57900006
-0.090906285 0.074876189 0.57640004
-0.084569983 0.074821636 0.57362509
-0.075176448 0.074765176 0.57302475
-0.065209612 0.075253636 0.57228559
-0.055122524 0.075101599 0.57330161
-0.045371115 0.074040726 0.57619667
-0.039289527 0.072151437 0.57833338
-0.08136636 0.086267933 0.57900006
-0.074678995 0.084175006 0.57435703
-0.065925948 0.084044382 0.57165623
-0.054359168 0.083517142 0.57476264
-0.048132587 0.084237821 0.57760733
-0.071904182 0.0078077661 0.5856154
-0.064106211 0.0062779807 0.58451974
-0.055484921 0.007036244 0.58588892
-0.048673905 0.0078506665 0.58880001
-0.080640003 0.014 0.588
-0.074628666 0.014536624 0.58642858
-0.06446059 0.014724578 0.58359993
-0.054788023 0.014672178 0.58509511
-0.048233509 0.015633335 0.58827275
-0.0813381 0.024401428 0.58900005
-0.074810572 0.024484428 0.58569217
-0.064833514 0.025336714 0.58349997
-0.054972805 0.024676904 0.58592504
-0.046351112 0.024107663 0.58804768
-0.081528582 0.035638236 0.5886429
-0.0752334 0.034647781 0.58550686
-0.06549643 0.035432152 0.58242714
-0.055209439 0.035016607 0.58383703
-0.048091531 0.03506406 0.58789474
-0.08110524 0.044745598 0.58731246
-0.075107247 0.044897858 0.58463997
-0.065379746 0.045431424 0.58175337
-0.054905877 0.045183588 0.58278286
-0.047127448 0.045561232 0.58475554
-0.081379659 0.055050824 0.58709097
-0.075014442 0.054929405 0.58333808
-0.065329954 0.055364244 0.58133364
-0.055143889 0.055470135 0.58258164
-0.047874663 0.05536991 0.58636683
-0.080764666 0.064463288 0.58800006
-0.075556993 0.063681103 0.58298147
-0.065363362 0.063197166 0.58057433
-0.054399174 0.063895039 0.58203042
-0.046287104 0.064710394 0.58513629
-0.038887624 0.068274282 0.58000004
-0.082304761 0.07954286 0.58000004
-0.043064762 0.078644373 0.58152938
-0.037491605 0.078043647 0.58527279
-0.082652949 0.083174244 0.58099997
-0.07954286 0.081752382 0.58000004
-0.042763434 0.082767375 0.58273345
-0.035151251 0.084673688 0.58768755
-0.028889047 0.08694762 0.58900005
-0.047761906 0.0089904768 0.59000003
-0.081288897 0.01873016 0.59000003
-0.07979048 0.018542858 0.59000003
-0.047697909 0.012147809 0.59060001
-0.023389526 0.017114287 0.59900004
-0.082259126 0.024902945 0.59042859
-0.07979048 0.021352382 0.59000003
-0.050571434 0.028095238 0.59000003
-0.047895692 0.026573516 0.59066665
-0.027763177 0.028143493 0.5990001
-0.082381167 0.033749841 0.59066671
-0.05057143 0.030904762 0.59000003
-0.048564576 0.030802667 0.59020007
-0.083161905 0.040457144 0.59000003
-0.041074287 0.049060956 0.59900004
-0.03450286 0.047507465 0.59799987
-0.026477227 0.047541939 0.59733337
-0.084497146 0.058454923 0.59016675
-0.034705821 0.054770954 0.59761447
-0.024994023 0.054986887 0.59613699
-0.018932143 0.056085717 0.59787506
-0.083517633 0.063481726 0.59061903
-0.034572154 0.064823426 0.59656763
-0.025159754 0.065020189 0.59607154
-0.017509803 0.067356862 0.59876472
-0.032732699 0.077208266 0.5903334
-0.023058457 0.074351415 0.59622216
-0.016114827 0.075467639 0.59865022
-0.031466667 0.084285721 0.59000009
-0.023587883 0.085298531 0.59370691
-0.015455195 0.083657064 0.5978446
-0.0050554662 0.087566316 0.59768003
0.00037904765 0.088556193 0.59733337
-0.023479564 0.090965725 0.59353846
-0.0025642859 0.090838574 0.59799999
-0.03477782 -0.032497149 0.60861278
-0.029000001 -0.03074 0.60900003
-0.033763744 -0.024780339 0.60860705
-0.027274668 -0.02461499 0.60760003
-0.040600002 -0.011600001 0.60900009
-0.034444138 -0.014903635 0.60805273
-0.026002727 -0.014395929 0.60588253
-0.040751047 -0.0045203809 0.60780001
-0.034703065 -0.0052084676 0.60729194
-0.025990516 -0.0053789672 0.60612786
-0.040861227 0.0040364629 0.60550004
-0.034721661 0.0045091268 0.60558212
-0.026353804 0.0046472847 0.60464704
-0.041223433 0.017782288 0.60620004
-0.035082232 0.014951163 0.6038335
-0.026447181 0.014817238 0.60147536
-0.040266667 0.020708572 0.60400003
-0.034676049 0.025315808 0.60370785
-0.026872577 0.025024243 0.60154927
-0.040288892 0.037985396 0.6043334
-0.035039589 0.03503396 0.60307831
-0.027297702 0.035340428 0.60082936
-0.041549794 0.044670258 0.60255998
-0.035248447 0.042762216 0.60088634
-0.024701297 0.043357752 0.60093999
-0.018493572 0.048311908 0.60212511
-0.043203317 0.055025745 0.60184211
-0.038857143 0.050285716 0.60000002
-0.020952385 0.050666671 0.60000002
-0.018674288 0.051437829 0.60200006
-0.042708524 0.063948721 0.60070282
-0.038857143 0.069142863 0.60000002
-0.020571429 0.061714288 0.60000002
-0.015213335 0.066360906 0.60066688
-0.0069359518 0.069110952 0.60725009
-0.01115743 0.074161723 0.60085005
-0.0051888349 0.075041719 0.60612512
0.0014262272 0.078363232 0.60846162
-0.011431429 0.08116509 0.60016668
-0.0046446803 0.083446898 0.60373914
0.0029073744 0.083600879 0.60717148
-0.040087622 -0.10080858 0.61900002
-0.035843048 -0.1010051 0.61900008
-0.040887486 -0.095152117 0.61835718
-0.035315081 -0.094560526 0.61804837
-0.027890535 -0.093082361 0.61764717
-0.042344637 -0.083793163 0.6181035
-0.035203885 -0.08529631 0.61723959
-0.026989574 -0.085076436 0.61605
-0.043293964 -0.074814133 0.61800003
-0.035171285 -0.075099163 0.61651266
-0.027572179 -0.075693987 0.6147877
-0.042507734 -0.064938508 0.6171599
-0.035171699 -0.06506528 0.61547238
-0.028155379 -0.064187393 0.61590475
-0.041582331 -0.055055454 0.61494446
-0.035066925 -0.054938871 0.61367875
-0.026827643 -0.054900471 0.61413342
-0.043018814 -0.045876425 0.6155625
-0.035037331 -0.044965614 0.61315274
-0.027101956 -0.04480635 0.61269456
-0.043015242 -0.034566641 0.61236596
-0.034967542 -0.036391504 0.61192006
-0.026703725 -0.034782905 0.61211926
-0.042590614 -0.025896538 0.61200023
-0.038486551 -0.025536189 0.61112505
-0.026185716 -0.02909524 0.611
-0.041790899 -0.016626457 0.61133337
-0.039569527 -0.017457144 0.611
-0.041914288 -0.0052399999 0.61125004
-0.093218595 0.026134059 0.6175676
-0.088389337 0.026541593 0.61653346
-0.093414173 0.035217647 0.61672211
-0.088258348 0.035522006 0.61521053
-0.10005715 0.045908578 0.61800003
-0.094559677 0.045194194 0.61703122
-0.088041745 0.045461211 0.61554557
-0.10021905 0.058952384 0.61900002
-0.093782112 0.055018533 0.61659324
-0.087886885 0.054471057 0.61413044
-0.0070330165 0.059775244 0.61533338
-0.10280252 0.065394126 0.61826479
-0.095095061 0.064950868 0.61611128
-0.011975653 0.064463779 0.61534774
-0.0050501488 0.065018184 0.61474997
0.0025705048 0.066669904 0.61803025
-0.1048319 0.070966192 0.618375
-0.095373809 0.070428573 0.61625004
0.0036706256 0.074023947 0.61349028
0.0050565084 0.08324635 0.61266673
-0.043051872 -0.1435657 0.62849998
-0.035999078 -0.14370374 0.62827027
-0.050280001 -0.13348286 0.62849998
-0.044320509 -0.13504453 0.62671441
-0.035140865 -0.13538681 0.62661529
-0.028596852 -0.1344192 0.62857693
-0.052129176 -0.12386822 0.62307417
-0.044989388 -0.12510732 0.62505335
-0.035104003 -0.12525015 0.62358731
-0.029206671 -0.12517688 0.62585723
-0.05235175 -0.11908212 0.62311119
-0.044288024 -0.11487567 0.62370974
-0.034785215 -0.11512372 0.62157369
-0.029011108 -0.11486222 0.62166661
-0.050944764 -0.10366667 0.62200004
-0.044687778 -0.10476808 0.62262923
-0.034753423 -0.10598555 0.62071735
-0.028548658 -0.10451139 0.62080944
-0.045443732 -0.095672466 0.62220454
-0.030704765 -0.095893338 0.62
-0.028047621 -0.09565714 0.61999995
-0.044390753 -0.086925179 0.62028575
-0.046585038 -0.07342042 0.62028575
-0.045825854 -0.067852244 0.62028569
-0.096838102 0.02952381 0.62
-0.10245775 0.0358091 0.6238181
-0.098851301 0.034633145 0.62126672
-0.10184657 0.041685712 0.62333333
-0.099200003 0.041333336 0.62
-0.10129195 0.05597195 0.62163645
-0.098710693 0.055523813 0.62022221
-0.11024191 0.066973656 0.62233335
-0.1070352 0.065837398 0.62073684
0.0035428572 0.063180953 0.62
-0.11018286 0.071085714 0.62200004
-0.10864762 0.071447626 0.62
-0.042546149 -0.16244657 0.63818187
-0.039309524 -0.16086668 0.63500005
-0.051234286 -0.15200725 0.63740009
-0.045016296 -0.15487714 0.63550001
-0.037229456 -0.15426107 0.63307714
-0.051750276 -0.14482428 0.6341579
-0.046857368 -0.14612882 0.63217658
-0.036628999 -0.1487928 0.63166666
-0.05109651 -0.1392051 0.63366675
-0.048977621 -0.13851953 0.63100004
-0.04752 -0.17033143 0.648
-0.05271126 -0.16316503 0.64627284
-0.04733542 -0.16458324 0.64342862
-0.054189753 -0.15579696 0.64300019
-0.048787303 -0.15937208 0.64033341
-0.060160004 -0.17045334 0.65800005
-0.054834291 -0.17065525 0.65400004
-0.049523812 -0.17085715 0.65000004
-0.061691552 -0.16395457 0.65740001
-0.056984767 -0.16530551 0.653
-0.061375719 -0.15826714 0.65425003
-0.058888812 -0.15682976 0.65087503
-0.062276192 -0.17110096 0.66050005
-0.070085719 -0.16565715 0.66900003
-0.065610416 -0.16576079 0.66434377
-0.064014763 -0.15908572 0.66549999
-0.073014423 -0.17139974 0.67585719
-0.072634585 -0.16488422 0.67545176
-0.068625405 -0.16133112 0.67133343
-0.071807615 -0.15740497 0.67680007
-0.065336488 -0.15551904 0.67225015
-0.081567623 -0.17207715 0.68700004
-0.078278571 -0.17201453 0.68349999
-0.081131428 -0.16543812 0.68700004
-0.077781312 -0.16451076 0.68266672
-0.076088957 -0.15803486 0.68400002
-0.086120225 -0.17214757 0.6924119
-0.090342864 -0.16939238 0.69749999
-0.085332371 -0.16535692 0.69497311
-0.081792712 -0.15893938 0.69633341
-0.078540005 -0.1577381 0.69300008
-0.12098667 -0.11035048 0.69800001
-0.11500381 -0.11035048 0.69800001
-0.10569715 -0.11035048 0.69800007
-0.098384768 -0.11035048 0.69800001
-0.12381325 -0.10452734 0.69643599
-0.11486143 -0.10482062 0.6951766
-0.10480299 -0.10502487 0.69610423
-0.095141515 -0.10464352 0.6955626
-0.085903384 -0.10251223 0.69640005
-0.078936189 -0.10149048 0.69650006
-0.11237143 -0.099885717 0.69000006
-0.094393529 -0.099125721 0.69020003
-0.08434286 -0.099457145 0.69620007
-0.079428576 -0.099285714 0.69500005
-0.091702864 -0.17396572 0.708
-0.091702864 -0.16992001 0.708
-0.087061912 -0.16161478 0.70050007
-0.084727623 -0.15878001 0.70050001
-0.12283771 -0.12162401 0.70790005
-0.11476321 -0.12254141 0.70731813
-0.10514075 -0.12333906 0.70767868
-0.096725248 -0.12177809 0.70775008
-0.14176857 -0.11142571 0.70800006
-0.13475166 -0.11322402 0.70634627
-0.12479511 -0.11474731 0.70395255
-0.11513176 -0.11532952 0.70299995
-0.10496286 -0.11564638 0.7024681
-0.095242135 -0.11501214 0.70306116
-0.085271679 -0.11426962 0.7057609
-0.077535249 -0.11184675 0.7074616
-0.1432353 -0.10718835 0.70705879
-0.1353576 -0.10743064 0.70386964
-0.12889221 -0.10647581 0.70050001
-0.092666671 -0.10933334 0.70000005
-0.084442385 -0.10715634 0.70132154
-0.074753314 -0.10541259 0.70485365
-0.068608984 -0.10359022 0.70628577
-0.10134476 -0.22254762 0.71900004
-0.094676182 -0.22347441 0.71835464
-0.08776366 -0.22289 0.71899998
-0.1112738 -0.21193382 0.71900004
-0.10435886 -0.21347392 0.7177273
-0.095016189 -0.21525854 0.71498072
-0.087085001 -0.2138319 0.71483344
-0.1124583 -0.20528115 0.71847826
-0.10524483 -0.20493767 0.71697879
-0.095148757 -0.2052474 0.7136125
-0.086272709 -0.2055579 0.71327502
-0.11234035 -0.19621584 0.7187894
-0.10530116 -0.19506279 0.71794635
-0.095209941 -0.19517918 0.71407187
-0.087139167 -0.19523929 0.71363175
-0.10400742 -0.1857758 0.71879303
-0.09507411 -0.18535119 0.71578544
-0.086925089 -0.18599075 0.71491665
-0.10134476 -0.17940763 0.71900004
-0.095751725 -0.17526992 0.71434206
-0.089634292 -0.17926858 0.71300006
-0.094880261 -0.1651755 0.71779048
-0.089019053 -0.16297334 0.71900004
-0.11093143 -0.14174572 0.71900004
-0.10709675 -0.14133488 0.71900004
-0.099975243 -0.14106096 0.71900004
-0.13220464 -0.1316177 0.71871436
-0.12390623 -0.13281406 0.71671426
-0.11478455 -0.13491265 0.71655995
-0.10514562 -0.13519503 0.71689796
-0.096080013 -0.13439652 0.71702498
-0.08655683 -0.13128148 0.71877778
-0.14295474 -0.12202155 0.71792305
-0.1342252 -0.12427387 0.71519434
-0.12556562 -0.12599301 0.71254289
-0.11512309 -0.12731276 0.71104771
-0.10459216 -0.12775519 0.71041179
-0.094192594 -0.12609901 0.71263176
-0.085411668 -0.12456518 0.71502191
-0.076340422 -0.1223952 0.71814281
-0.15277275 -0.11306345 0.71731246
-0.14514816 -0.11523017 0.71299994
-0.13567366 -0.11806034 0.71133351
-0.12915239 -0.11900952 0.71000004
-0.082585528 -0.11914362 0.71080005
-0.074420691 -0.11556192 0.7125833
-0.065969586 -0.11318944 0.71751505
-0.15399729 -0.1078928 0.71635717
-0.1481981 -0.10737634 0.71100008
-0.071709208 -0.10959429 0.71033335
-0.064697824 -0.10789372 0.71520001
-0.10389181 -0.23263875 0.72786665
-0.09723112 -0.23312509 0.7249167
-0.11238205 -0.22246401 0.72541666
-0.10523266 -0.22512148 0.72372741
-0.095462598 -0.22873636 0.72185725
-0.089142859 -0.22354287 0.72000003
-0.12247328 -0.2139148 0.72331572
-0.11576705 -0.21523555 0.7222051
-0.10665496 -0.21752971 0.72000015
-0.1249144 -0.2046922 0.72515231
-0.11754675 -0.20505117 0.7214644
-0.13052572 -0.19926 0.72900003
-0.1246908 -0.19546457 0.72622234
-0.11682263 -0.19447054 0.72152942
-0.12273097 -0.18495592 0.72600013
-0.11503702 -0.18507308 0.72159171
-0.10736327 -0.18409796 0.72000021
-0.12211918 -0.17512543 0.7267037
-0.11442512 -0.17503543 0.72358817
-0.1048662 -0.17507212 0.72169805
-0.12224208 -0.16543579 0.72747821
-0.11456931 -0.16496734 0.72514564
-0.10480981 -0.16481625 0.72290564
-0.094667763 -0.16052084 0.72028583
-0.088243812 -0.16135906 0.72200006
-0.12120572 -0.15522154 0.72890007
-0.11481606 -0.15492891 0.7262246
-0.10467628 -0.15479162 0.72325987
-0.094911672 -0.15543686 0.7221632
-0.086879164 -0.15384547 0.72403699
-0.13156459 -0.14238934 0.72860003
-0.12467108 -0.14428924 0.7250883
-0.11523625 -0.14512837 0.72126812
-0.10453925 -0.14554164 0.7214762
-0.094680004 -0.14546829 0.72101998
-0.086505435 -0.1451451 0.72528893
-0.14391729 -0.13252628 0.72800004
-0.13495421 -0.1348352 0.72456533
-0.12584436 -0.13735993 0.72147632
-0.11931429 -0.13988572 0.72000003
-0.092576005 -0.13776764 0.72040021
-0.084647678 -0.13565199 0.72357893
-0.077416673 -0.13214779 0.72583336
-0.15436499 -0.12266288 0.72607696
-0.14553721 -0.12601446 0.72285193
-0.13815811 -0.12826972 0.72100008
-0.081371434 -0.12845716 0.72000003
-0.074225686 -0.12653753 0.72262073
-0.066238679 -0.12353119 0.72582608
-0.16019049 -0.11738096 0.72500008
-0.156112 -0.11641242 0.72172004
-0.14948572 -0.11931429 0.72000003
-0.063819051 -0.11753418 0.72054565
-0.058971431 -0.11382858 0.72000003
-0.1120294 -0.23202996 0.73257154
-0.10798689 -0.23376532 0.73100001
-0.11257588 -0.22840701 0.73266667
-0.1099981 -0.22974287 0.73100001
-0.13147825 -0.19481389 0.73542869
-0.1281341 -0.19275773 0.73119998
-0.13207395 -0.18495482 0.73409092
-0.12821023 -0.18490608 0.7316317
-0.13163915 -0.17619465 0.73309094
-0.12781897 -0.17524818 0.73153859
-0.13132262 -0.16409039 0.73345464
-0.12726046 -0.16458617 0.73160732
-0.085187227 -0.16194344 0.73817658
-0.078122854 -0.16117239 0.73900002
-0.13164303 -0.15453973 0.73523539
-0.12587836 -0.15490583 0.73206091
-0.083127998 -0.15564942 0.73785013
-0.078122854 -0.15061525 0.73900002
-0.14237566 -0.14287837 0.73850006
-0.13574737 -0.14535244 0.73520708
-0.12892762 -0.14844096 0.73175001
-0.081715845 -0.14528334 0.73337507
-0.076150618 -0.14348325 0.73685712
-0.15248981 -0.13127702 0.73542863
-0.14506014 -0.13619144 0.73278576
-0.13842857 -0.13808286 0.73225003
-0.080758095 -0.1392381 0.73100001
-0.074260093 -0.13608573 0.7338388
-0.068088442 -0.13318695 0.73271441
-0.15246515 -0.1278922 0.7330001
-0.071011432 -0.12949143 0.73100001
-0.066036835 -0.12836066 0.73116672
-0.16632254 -0.11530293 0.73376667
-0.082976416 -0.16517146 0.7404443
-0.078369528 -0.16463238 0.74000001
-0.081148304 -0.15585309 0.74000007
-0.078432769 -0.15616193 0.74060005
-0.14447619 -0.14306667 0.74000001
-0.076819047 -0.14940953 0.74000001
