# .PCD v0.7 - Point Cloud Data file format
VERSION 0.7
FIELDS x y z
SIZE 4 4 4
TYPE F F F
COUNT 1 1 1
WIDTH 427
HEIGHT 1
VIEWPOINT 0 0 0 1 0 0 0
POINTS 427
DATA ascii
-0.076109618 -0.170747 0.54872733
-0.080820195 -0.16790628 0.54820007
-0.074910231 -0.1650808 0.54610181
-0.066801839 -0.16452315 0.54678571
-0.073860645 -0.15598604 0.54233336
-0.092093349 -0.14287215 0.54825002
-0.084734313 -0.14392069 0.54776073
-0.075471632 -0.14316946 0.54761118
-0.066980302 -0.14212179 0.54663336
-0.091543198 -0.13788433 0.54727274
-0.085318662 -0.13590497 0.54836363
-0.075213462 -0.13698931 0.54843187
-0.063981548 -0.13817745 0.54861534
-0.083823383 0.068622634 0.54651982
-0.075892948 0.065439627 0.54880005
-0.069629207 0.06127429 0.54833341
-0.03503143 0.06849429 0.54900002
-0.10038857 0.078428574 0.54900002
-0.094488949 0.075985976 0.54870313
-0.085066698 0.075037718 0.54796761
-0.075300939 0.075943582 0.54860002
-0.065808997 0.075973868 0.54829586
-0.054638579 0.07692536 0.54899991
-0.047057148 0.074420005 0.54900002
-0.034639284 0.073853567 0.54900002
-0.023606433 0.076482311 0.54879165
-0.10085049 0.082038097 0.54866672
-0.094598062 0.08338502 0.54649997
-0.086127281 0.08247669 0.54763663
-0.074254103 0.082485192 0.5488717
-0.065668084 0.082870029 0.54851216
-0.052808575 0.082524292 0.54899997
-0.022221429 0.081304289 0.54900002
-0.072621912 -0.21600311 0.55862504
-0.066175334 -0.2121262 0.55776191
-0.072472662 -0.20369954 0.5575
-0.06661988 -0.20634107 0.55778372
-0.073628917 -0.19483455 0.5555324
-0.067275465 -0.19486941 0.55522829
-0.074966826 -0.18457316 0.55478227
-0.067724846 -0.18331772 0.55323082
-0.083249427 -0.17287889 0.55565
-0.074613817 -0.17539033 0.55198449
-0.067382291 -0.17521366 0.5525406
-0.081714287 -0.16971429 0.55000001
-0.070714295 -0.16971429 0.55000001
-0.06370651 -0.16756906 0.55388004
-0.058503024 -0.16297953 0.55591673
-0.12680936 -0.14258362 0.55664003
-0.091530167 -0.1472889 0.55233335
-0.082612254 -0.1406803 0.55000001
-0.075952381 -0.1460119 0.55000001
-0.063904762 -0.14038096 0.55000001
-0.13078058 -0.13862249 0.5564
-0.12549715 -0.13979429 0.55600005
-0.092310481 -0.13526845 0.5528
-0.085125908 -0.13758308 0.55022228
-0.073114716 -0.13656731 0.55011117
-0.066636786 -0.13717131 0.5506562
-0.070573337 0.058986668 0.55300003
-0.067417361 0.059367198 0.5511111
-0.10102905 0.069195241 0.55250001
-0.095177352 0.068527415 0.55036849
-0.07548096 0.068651117 0.55166668
-0.066190563 0.06393528 0.55048716
-0.059266031 0.069085084 0.55233335
-0.046336427 0.069108807 0.55287498
-0.033818126 0.067421071 0.55124241
-0.025819279 0.067855626 0.5521819
-0.016620087 0.068991341 0.55490905
-0.10417537 0.075265281 0.55475008
-0.0967758 0.0719897 0.55075008
-0.074920647 0.071659274 0.55025941
-0.063585579 0.071891956 0.5503847
-0.055433039 0.075191416 0.55040246
-0.044899411 0.075153038 0.55114442
-0.035086941 0.075212725 0.55097765
-0.025649555 0.074357517 0.55111933
-0.015591523 0.075083889 0.55371457
-0.0090261903 0.079111427 0.5575
-0.111 0.087214291 0.55500001
-0.10675538 0.083704621 0.55488884
-0.07170371 0.084507935 0.55000001
-0.062973551 0.083343908 0.55000001
-0.0555907 0.083452925 0.54999977
-0.04501994 0.083137244 0.55159581
-0.034936786 0.083396211 0.55140364
-0.025272848 0.082993418 0.55210817
-0.01598452 0.082768902 0.55274463
-0.0082215592 0.08419273 0.55854553
-0.072754011 -0.22347899 0.56260711
-0.067265719 -0.22390831 0.56446874
-0.081403576 -0.21183833 0.56887501
-0.074657187 -0.21518956 0.56292081
-0.067031942 -0.2174256 0.56134629
-0.083364934 -0.20463824 0.56754559
-0.076279968 -0.20622309 0.56204879
-0.064836517 -0.20305073 0.56470847
-0.09165588 -0.19124858 0.56833339
-0.084781431 -0.19474281 0.56541783
-0.077901103 -0.19474712 0.56200004
-0.063025728 -0.19423798 0.56710202
-0.058400095 -0.19329534 0.5682857
-0.092385165 -0.18476658 0.56736362
-0.085276172 -0.18513803 0.56341422
-0.078933336 -0.18986668 0.56
-0.06308765 -0.18458176 0.56513739
-0.057560802 -0.18466492 0.56722224
-0.093847714 -0.17507644 0.56715214
-0.087033153 -0.1757756 0.56115007
-0.063175939 -0.17556898 0.56182355
-0.056675561 -0.17524217 0.56632727
-0.089225717 -0.16990286 0.56100005
-0.060800001 -0.16746667 0.56
-0.058047969 -0.16851811 0.56254542
-0.11578144 -0.15311742 0.56730002
-0.1305981 -0.14023238 0.56200004
-0.12638652 -0.14307493 0.56833339
-0.11860418 -0.14906533 0.56709999
-0.13529964 -0.13627182 0.56477499
-0.12881552 -0.13969961 0.56357145
-0.0090666674 0.069333337 0.56
-0.01082177 0.074381769 0.56014287
-0.0076407143 0.074695468 0.56371886
-0.0053333337 0.084800005 0.56
-0.082298927 -0.23271455 0.57866681
-0.07328704 -0.23355839 0.57484627
-0.066701911 -0.23308101 0.57480776
-0.091091119 -0.22295272 0.57850003
-0.084770389 -0.2247511 0.57542366
-0.079468101 -0.22449096 0.57350004
-0.06283845 -0.22518411 0.57608098
-0.058080692 -0.2242319 0.57752001
-0.092688963 -0.2147691 0.57723337
-0.085562833 -0.21548948 0.57243341
-0.079257146 -0.21768573 0.57000005
-0.062325563 -0.21542074 0.57243246
-0.05580828 -0.21451983 0.57604927
-0.093510762 -0.20473136 0.5750435
-0.088201843 -0.20598137 0.57166672
-0.06286338 -0.20646217 0.57021207
-0.055691358 -0.20500095 0.57369226
-0.094208129 -0.19599384 0.57280481
-0.089028575 -0.19868572 0.57000005
-0.054160737 -0.19543995 0.57380641
-0.049628578 -0.193 0.57900012
-0.09554287 -0.18782859 0.57000005
-0.052789062 -0.18526658 0.57270825
-0.049265463 -0.18485025 0.57827276
-0.051929343 -0.17428216 0.57249993
-0.049003132 -0.17463729 0.5753572
-0.051693905 -0.16694631 0.57630008
-0.048636001 -0.1645463 0.57900006
-0.11329193 -0.15305085 0.57415915
-0.10650121 -0.15559262 0.57590914
-0.13056001 -0.14043429 0.57600003
-0.12378383 -0.1444506 0.57575434
-0.11716953 -0.14967525 0.57850003
-0.042276196 -0.14888573 0.57900012
-0.034034036 -0.14466186 0.57886672
-0.028527621 -0.14043429 0.57600009
-0.13459957 -0.13469924 0.57478356
-0.12872267 -0.13863295 0.57810009
-0.024868743 -0.13436081 0.57615912
-0.019104572 -0.1324122 0.57640004
-0.13818477 -0.12944572 0.57350004
-0.022254284 -0.12776943 0.57772237
-0.017992839 -0.12586538 0.57604003
-0.0042539686 0.078488894 0.57033348
-0.0027190477 0.080483809 0.57100004
-0.083078101 -0.23288381 0.57999998
-0.078583926 -0.23193799 0.58200008
-0.092800006 -0.22316191 0.58000004
-0.07884381 -0.22986858 0.583
-0.054192536 -0.22501341 0.5809474
-0.049527239 -0.22187315 0.583
-0.093904763 -0.21984763 0.58000004
-0.051349629 -0.2156107 0.58116663
-0.048550159 -0.21492213 0.58373332
-0.05073439 -0.20539939 0.58044446
-0.048234031 -0.20506023 0.58350003
-0.050819051 -0.19885716 0.58000004
-0.048149474 -0.1952614 0.58113343
-0.048060108 -0.18720023 0.58077776
-0.051923811 -0.17013334 0.58000004
-0.047832385 -0.17064872 0.58014292
-0.10141089 -0.16104928 0.58600008
-0.097516522 -0.16121557 0.58675003
-0.051393814 -0.16854858 0.58025002
-0.047337782 -0.16804281 0.58066666
-0.11171725 -0.15064062 0.58200002
-0.10402516 -0.15376574 0.58333331
-0.098149687 -0.15847524 0.58833337
-0.050485715 -0.15033524 0.58900005
-0.048399523 -0.15079144 0.58749998
-0.12262665 -0.14197321 0.58548278
-0.11542933 -0.14651829 0.58502811
-0.1061201 -0.14857124 0.58438104
-0.050485715 -0.14921334 0.58900005
-0.043900225 -0.14665715 0.58548933
-0.036668997 -0.14374496 0.58293331
-0.13337807 -0.13255842 0.5847106
-0.12644228 -0.13725635 0.58621949
-0.032945912 -0.13639593 0.5857749
-0.028496539 -0.13365075 0.58254552
-0.13760957 -0.12717529 0.58642864
-0.024204738 -0.12499433 0.58394605
-0.018049525 -0.12191369 0.58087498
-0.020920003 -0.11864708 0.5868572
-0.017695973 -0.11889699 0.58338463
-0.061681151 -0.15351564 0.59745008
-0.055995334 -0.15279083 0.59403449
-0.11658398 -0.14218946 0.59052944
-0.060859241 -0.14794651 0.59610003
-0.054102678 -0.1459762 0.59518039
-0.046194628 -0.14299874 0.59350002
-0.039333336 -0.14103809 0.59000003
-0.13109525 -0.13109525 0.59114295
-0.1241993 -0.133652 0.59427404
-0.11836258 -0.13674428 0.59378266
-0.052308574 -0.13986857 0.597
-0.043009844 -0.13806406 0.59679174
-0.036506083 -0.13382666 0.59351921
-0.13307095 -0.12548569 0.59247053
-0.12791063 -0.12861188 0.59753853
-0.03313167 -0.12679535 0.59656423
-0.027542589 -0.12368444 0.59350008
-0.023756782 -0.11632427 0.59583336
-0.019137144 -0.11651143 0.59100002
-0.065050952 -0.15571858 0.60112494
-0.051983438 -0.1357009 0.60324126
-0.045755211 -0.13389562 0.60260957
-0.038857143 -0.13028572 0.60000002
-0.13150126 -0.12303693 0.60153854
-0.12510924 -0.12440762 0.60385209
-0.11955048 -0.12587239 0.60350001
-0.044220254 -0.12617294 0.606484
-0.036245223 -0.12323618 0.60246515
-0.13031493 -0.11920001 0.60366672
-0.126625 -0.11816132 0.60781246
-0.03404412 -0.11640097 0.6064285
-0.028205017 -0.11475676 0.60189998
-0.12081207 -0.12100667 0.61183333
-0.11577763 -0.12372299 0.61675006
-0.051712859 -0.12324077 0.61420006
-0.046450853 -0.12185068 0.61230439
-0.12265973 -0.11623541 0.61332357
-0.11766008 -0.11595392 0.61612898
-0.052908566 -0.1177785 0.6178335
-0.045048997 -0.11504383 0.61550027
-0.036976855 -0.11296312 0.61200011
-0.04490035 -0.10823117 0.61731827
-0.036888406 -0.10879529 0.61417639
-0.12197629 -0.12661405 0.62336367
-0.11616804 -0.12331743 0.62121731
-0.11355525 -0.11681144 0.62099999
-0.08280839 -0.11293176 0.62763345
-0.074503936 -0.11377171 0.62590563
-0.066257447 -0.11291194 0.62473679
-0.055216033 -0.11281627 0.62212831
-0.082504511 -0.10704175 0.62773919
-0.075682543 -0.10728703 0.62738895
-0.064472429 -0.10691871 0.62647504
-0.055064656 -0.1065281 0.62397957
-0.049352679 -0.10500719 0.62376928
-0.071678862 -0.10559352 0.63140005
-0.069710478 -0.10576762 0.63100004
-0.11292631 0.067261919 0.64793742
-0.10475501 0.067009769 0.648
-0.09507104 0.067283325 0.64797157
-0.086399995 0.068348572 0.648
-0.073213339 0.068906672 0.64600003
-0.11219426 0.073685475 0.64665216
-0.1054183 0.074734807 0.64709079
-0.09549728 0.074143678 0.64772582
-0.086625218 0.074982695 0.64702225
-0.073213339 0.070137143 0.64600003
-0.044434287 0.075908571 0.648
-0.039085716 0.075702861 0.648
-0.10368001 0.080228582 0.648
-0.050133336 0.03634667 0.65800005
-0.045089979 0.037870701 0.6575883
-0.033600576 0.036697097 0.65700001
-0.027669566 0.035587575 0.65604764
-0.050454374 0.0451013 0.65772736
-0.044709109 0.044824921 0.65576202
-0.035283446 0.045169167 0.65577924
-0.026881451 0.042380143 0.65714276
-0.081855424 0.056515552 0.65728569
-0.074836582 0.05644339 0.65616339
-0.06765379 0.055962369 0.6569311
-0.050551116 0.054102223 0.65800005
-0.044948235 0.055353384 0.65612727
-0.034931786 0.055285327 0.65564835
-0.02788119 0.055293094 0.65787506
-0.1110727 0.06420698 0.6503334
-0.10651541 0.064184874 0.65023524
-0.094183676 0.064115644 0.65000004
-0.084824264 0.064289622 0.652426
-0.075184673 0.064876027 0.6525085
-0.06631127 0.064329408 0.65636963
-0.053079695 0.065529026 0.65593547
-0.045479447 0.065287836 0.65399981
-0.035171486 0.065175407 0.65401459
-0.029181246 0.066034868 0.65515387
-0.083571434 0.07057143 0.65000004
-0.050996192 0.071519047 0.65300006
-0.044750616 0.073287912 0.65077513
-0.035122305 0.072983719 0.65060532
-0.02977143 0.072567143 0.65125
-0.054715931 0.036101107 0.66241676
-0.040228572 0.036457144 0.66000003
-0.027028572 0.037714288 0.66000003
-0.073728263 0.048188582 0.66813338
-0.068811432 0.04651143 0.66900003
-0.055154011 0.044007711 0.6633572
-0.03017143 0.049028572 0.66000003
-0.026690111 0.047481325 0.66000003
-0.090720005 0.057328574 0.66150004
-0.085836075 0.054446287 0.66059446
-0.076084979 0.051490691 0.66205555
-0.062658504 0.056465164 0.66125
-0.055463169 0.055324849 0.66140425
-0.03017143 0.050285716 0.66000003
-0.027505118 0.05430381 0.66012496
-0.088628575 0.060342859 0.66000003
-0.061392974 0.063279286 0.66031247
-0.056808691 0.062800229 0.66099995
-0.027256301 0.062341169 0.66044444
-0.061438572 -0.082989521 0.67550009
-0.054871131 -0.083239935 0.67439991
-0.048784763 -0.084089525 0.67400002
-0.055726737 -0.078615628 0.67513341
-0.081976913 0.047653813 0.67049992
-0.075653642 0.046282824 0.67048001
-0.065497145 0.048131909 0.67500007
-0.059023812 0.047538094 0.67000002
-0.071028575 0.05165714 0.67800009
-0.065845951 0.051743105 0.67543477
-0.058704764 0.051685713 0.67000002
-0.052349046 0.02682667 0.68708342
-0.046124425 0.025982207 0.68797129
-0.035599567 0.027931575 0.68823093
-0.028788572 0.028788572 0.68700004
-0.051530346 0.031740956 0.68614298
-0.045389205 0.034108441 0.68598276
-0.035759166 0.032408036 0.68659389
-0.028767619 0.030728571 0.68650007
-0.071759999 0.045666669 0.68500006
-0.068599999 0.045733336 0.68600005
-0.064761907 0.054400001 0.68000001
-0.031199049 0.019914286 0.69700003
-0.062822863 0.024577959 0.69749999
-0.055839594 0.023819124 0.69308329
-0.043809529 0.023156466 0.6900003
-0.034676723 0.024133597 0.69232577
-0.028630478 0.024519239 0.69590008
-0.092795171 -0.11505126 0.70236373
-0.084656693 -0.11330355 0.7019428
-0.075545862 -0.11345927 0.7019642
-0.091192067 -0.10323398 0.70233339
-0.084993035 -0.10507049 0.7027027
-0.075634927 -0.10507979 0.70279145
-0.09121944 -0.097370669 0.70220006
-0.085050471 -0.095096521 0.70317829
-0.075241789 -0.095396556 0.70540822
-0.084874526 -0.084896222 0.70296723
-0.075085446 -0.085144371 0.70394641
-0.069828585 -0.085942864 0.7050001
-0.085004263 -0.07496009 0.70276761
-0.07499437 -0.075217716 0.70361203
-0.08507394 -0.064975783 0.70334357
-0.075061172 -0.065010674 0.70371407
-0.069749348 -0.063042663 0.70420003
-0.090606354 -0.055564448 0.70300007
-0.084782116 -0.055063482 0.70315063
-0.075054735 -0.054951683 0.70365298
-0.069743685 -0.054990754 0.70414293
-0.09027452 -0.045135476 0.70737493
-0.084614761 -0.044990044 0.70508963
-0.074987166 -0.044923216 0.70475888
-0.069445714 -0.044653334 0.70566666
-0.083899446 -0.034950212 0.70381373
-0.074917831 -0.034750409 0.70435303
-0.069749348 -0.036215242 0.70420003
-0.083273597 -0.024790291 0.70349973
-0.074886717 -0.024856139 0.70296466
-0.069430269 -0.025185185 0.70400006
-0.090354286 -0.01416 0.70800006
-0.084615454 -0.014770919 0.70508176
-0.075292483 -0.014895154 0.7042765
-0.069630481 -0.018077143 0.70300001
-0.084702507 -0.0053779599 0.70581651
-0.075171001 -0.0052795243 0.70393765
-0.069828577 -0.0013428571 0.70500004
-0.084730417 0.0046277749 0.70669109
-0.074952707 0.0046405396 0.70606714
-0.069828577 0.0026857145 0.70500004
-0.090877287 0.0171366 0.70757145
-0.084791407 0.014803191 0.7065717
-0.074674144 0.014857489 0.70560014
-0.068189524 0.016036002 0.70749998
-0.090932257 0.021962453 0.70800006
-0.084686428 0.024866803 0.7056967
-0.075134538 0.024936501 0.7052635
-0.068609409 0.023458289 0.70260006
-0.090718091 0.035480004 0.70733339
-0.084756464 0.034979004 0.70628589
-0.075035147 0.034772407 0.70694143
-0.085455827 0.041328207 0.70692313
-0.073561668 0.040905003 0.70700002
-0.092480004 -0.014280001 0.71400005
-0.063075989 0.013731853 0.71300012
-0.031083815 0.0148566 0.71842867
-0.027968097 0.016370952 0.71625006
-0.091280833 0.04235347 0.71071428
-0.089382857 0.043337148 0.71100008
-0.052889526 0.0096166674 0.72125006
-0.048287623 0.0096577778 0.72433341
-0.060510479 0.013064763 0.72200006
-0.054861732 0.014985344 0.72363043
-0.045413643 0.015363417 0.72516322
-0.035860371 0.016268095 0.72175008
-0.028800001 0.018514287 0.72000003
-0.054354291 0.020959048 0.72550005
-0.045557562 0.020706125 0.72471434
-0.035959683 0.020614287 0.7215001
