# .PCD v0.7 - Point Cloud Data file format
VERSION 0.7
FIELDS x y z
SIZE 4 4 4
TYPE F F F
COUNT 1 1 1
WIDTH 585
HEIGHT 1
VIEWPOINT 0 0 0 1 0 0 0
POINTS 585
DATA ascii
-0.13251075 -0.12066885 0.58814287
-0.13270342 -0.1194177 0.58828574
-0.11368001 0.06944 0.588
-0.12060477 0.079655237 0.58900005
-0.11408588 0.075513624 0.58867288
-0.10922074 0.07622353 0.58900005
-0.12178499 0.08440052 0.58777779
-0.11498969 0.084376752 0.58702898
-0.10703787 0.085492305 0.58819228
-0.11106858 0.091435239 0.58900005
-0.10745588 0.091196828 0.58866668
-0.17149785 -0.13352399 0.59590912
-0.1651364 -0.13244547 0.59703583
-0.15480807 -0.13213557 0.59731036
-0.14783485 -0.13055754 0.5990001
-0.16598779 -0.12927239 0.59316671
-0.15384254 -0.12711766 0.59345162
-0.14509349 -0.12609427 0.59409994
-0.13559112 -0.12492572 0.59700006
-0.12843071 -0.12163978 0.59475005
-0.12911144 -0.11952762 0.59200001
-0.13129652 0.0690635 0.59766674
-0.12488319 0.069269046 0.59375
-0.10335691 0.069142148 0.59387505
-0.095152393 0.068934433 0.59678584
-0.088919528 0.069254771 0.59850001
-0.13226029 0.074997634 0.59627593
-0.12486736 0.07505738 0.59170663
-0.11846332 0.075054802 0.59015399
-0.10418057 0.074915439 0.59127384
-0.094854899 0.074979663 0.59571624
-0.089390479 0.072973341 0.59860003
-0.13265969 0.083901435 0.59525001
-0.12683669 0.083214328 0.59151429
-0.10227415 0.083131514 0.5912143
-0.094900973 0.08453647 0.59706855
-0.087101467 0.084871769 0.59881818
-0.11013333 0.091590479 0.59000003
-0.090135239 0.090135239 0.59900004
-0.087853335 0.090135239 0.5990001
-0.18320715 -0.14159493 0.60683334
-0.17342238 -0.14144287 0.60866678
-0.16536281 -0.14182834 0.60766667
-0.15534954 -0.14121829 0.60820001
-0.18325464 -0.13790888 0.6054737
-0.17607209 -0.13727978 0.60340005
-0.16445135 -0.13726661 0.60256255
-0.15481797 -0.13734506 0.60330313
-0.14475922 -0.13447291 0.60318184
-0.13537513 -0.13330518 0.60562229
-0.12889843 -0.1316016 0.60783339
-0.14114286 -0.12914287 0.60000002
-0.13408788 -0.12811905 0.60212505
-0.12468958 -0.1246268 0.60467362
-0.11783572 -0.12246587 0.60750002
-0.12004572 -0.11889143 0.60600001
-0.1174784 -0.11921017 0.60566676
-0.092162624 0.067585722 0.60012496
-0.084843338 0.069086187 0.60200006
-0.078363501 0.068906039 0.60800004
-0.13600001 0.077142864 0.60000002
-0.084710285 0.074978404 0.60300016
-0.07700564 0.075512193 0.60715699
-0.13668571 0.082927145 0.60050005
-0.090285718 0.085714296 0.60000002
-0.084594749 0.082498111 0.60296673
-0.077070624 0.0841638 0.60556418
-0.15553334 -0.15082057 0.61860001
-0.18039048 -0.14314857 0.611
-0.17562385 -0.1444194 0.61181492
-0.16503823 -0.14673902 0.61541176
-0.15465553 -0.14609092 0.61491501
-0.14554524 -0.14459327 0.61523998
-0.13610904 -0.14305986 0.6171515
-0.12948573 -0.14008 0.61800003
-0.14314857 -0.13965715 0.611
-0.13362834 -0.13826533 0.61426103
-0.12522596 -0.13425666 0.61625016
-0.12289611 -0.12863065 0.61290914
-0.11461386 -0.12374812 0.61572981
-0.10956286 -0.12193286 0.61849999
-0.11173672 -0.11813334 0.61677784
-0.10688138 -0.1150083 0.61660004
-0.074138828 0.067579776 0.61297077
-0.065387726 0.067964733 0.61796302
-0.07200557 0.074645028 0.61207902
-0.064638607 0.075094633 0.61650014
-0.058805007 0.075164288 0.61900002
-0.071974762 0.084108427 0.61203718
-0.064859629 0.08479926 0.61511248
-0.058888469 0.083754502 0.61833334
-0.04206191 0.088076435 0.61550003
-0.037629601 0.088637814 0.61292309
-0.04235556 0.091179371 0.61766672
-0.037376761 0.091454096 0.61320001
-0.15455429 -0.16054478 0.62900007
-0.17005715 -0.15234286 0.62
-0.16443422 -0.15397775 0.6239062
-0.1546725 -0.15566231 0.6248669
-0.14515117 -0.15473938 0.6256851
-0.13641308 -0.15354225 0.62678951
-0.16493969 -0.14998096 0.62
-0.14292246 -0.14883703 0.62085718
-0.13435805 -0.14749543 0.62465507
-0.1258519 -0.14299901 0.62593752
-0.11952382 -0.14163619 0.62750006
-0.12222061 -0.13744345 0.62299997
-0.11664476 -0.13403317 0.62602508
-0.11456244 -0.12802899 0.62235719
-0.1057609 -0.1213972 0.62270588
-0.15695049 -0.11980953 0.62900001
-0.10314899 -0.11725748 0.62453574
-0.098673202 -0.11551674 0.62521434
-0.063220739 0.064925425 0.62059253
-0.054900996 0.066573516 0.62459612
-0.047827031 0.067555949 0.62775004
-0.054436833 0.074894421 0.62246674
-0.046594083 0.075049035 0.62623346
-0.060228575 0.088571429 0.62
-0.054675821 0.08440198 0.62232095
-0.04575564 0.084951535 0.6262241
-0.039348572 0.086447626 0.62600005
-0.06042286 0.090634286 0.62200004
-0.059238099 0.090634286 0.62200004
-0.04559524 0.091782376 0.62175
-0.14118858 -0.21056572 0.63900006
-0.13491847 -0.2124836 0.639
-0.14287885 -0.20447837 0.63886207
-0.13533813 -0.20513931 0.63863647
-0.14458632 -0.19458427 0.63767272
-0.13488577 -0.19506928 0.63783586
-0.12901714 -0.19291714 0.63900006
-0.17144328 -0.18431023 0.63900006
-0.16558939 -0.18361469 0.639
-0.15294704 -0.18372808 0.63817865
-0.14482482 -0.18481833 0.63625008
-0.13470556 -0.1850881 0.63768947
-0.12901714 -0.18602002 0.63900006
-0.17147672 -0.17396583 0.63868189
-0.16553058 -0.17532563 0.63850892
-0.15500563 -0.17490816 0.63724005
-0.14506078 -0.17467825 0.63463855
-0.1345091 -0.17476724 0.63645935
-0.12901714 -0.17526858 0.63900006
-0.17253131 -0.16475764 0.63835728
-0.16507068 -0.16510431 0.6369608
-0.15474129 -0.16551808 0.63456535
-0.14473976 -0.16520485 0.63364607
-0.13506234 -0.16521886 0.63653725
-0.17248647 -0.15913829 0.63680005
-0.16654201 -0.15864064 0.63255554
-0.14502984 -0.15985334 0.63100004
-0.13242877 -0.15556806 0.63360018
-0.12648144 -0.15414321 0.63627285
-0.13001144 -0.14927238 0.63200003
-0.12477639 -0.14732525 0.63356
-0.11840115 -0.14155087 0.63300002
-0.18114239 -0.13132952 0.63400006
-0.17564669 -0.13120763 0.63487506
-0.16510002 -0.13123333 0.63500011
-0.15454978 -0.13092534 0.6353333
-0.14930715 -0.13113286 0.63600004
-0.11298329 -0.1345944 0.63195473
-0.10848903 -0.13232929 0.63426667
-0.18152927 -0.12734641 0.63414288
-0.17497931 -0.1265554 0.63496017
-0.16493715 -0.12536629 0.63516396
-0.15508294 -0.12510021 0.63496923
-0.14654402 -0.12455074 0.63853198
-0.13875431 -0.12759715 0.63900006
-0.1111453 -0.12820545 0.63328576
-0.10728371 -0.1270345 0.6348334
-0.16458224 -0.11980572 0.63533342
-0.1551678 -0.11893677 0.63200003
-0.14348648 -0.11770781 0.63840002
-0.13750345 -0.11251122 0.63884622
-0.13327715 -0.10954286 0.63900006
-0.043537941 0.066494621 0.63212907
-0.035743017 0.067211337 0.63594609
-0.028097907 0.067873716 0.63860005
-0.041636314 0.074628927 0.63131261
-0.034961645 0.074942172 0.63409966
-0.027515208 0.074644789 0.63706458
-0.041465715 0.082330473 0.63100004
-0.034727093 0.083860472 0.63274562
-0.026209293 0.085893065 0.63685369
-0.019474287 0.088242859 0.63900006
-0.030428572 0.09128572 0.63900006
-0.025683308 0.091975234 0.63889474
-0.15231028 -0.23294389 0.64581829
-0.14731407 -0.232484 0.64749998
-0.16120572 -0.22287257 0.64360005
-0.15510832 -0.22503217 0.64401644
-0.14516014 -0.22486855 0.64475036
-0.13471618 -0.22441906 0.64450026
-0.12615265 -0.22420289 0.64642876
-0.16328873 -0.21442743 0.64214301
-0.15529206 -0.21511468 0.6434778
-0.14502558 -0.21495946 0.64133924
-0.1344624 -0.21738413 0.64020026
-0.12476266 -0.21480763 0.64238787
-0.11882946 -0.21451937 0.64747053
-0.17050667 -0.20117334 0.64400005
-0.16437122 -0.20440932 0.64150017
-0.15522833 -0.20482063 0.64169091
-0.14717659 -0.2055971 0.64000016
-0.13068192 -0.20406859 0.64000005
-0.12458723 -0.20503941 0.64164364
-0.11824658 -0.20508614 0.64666671
-0.17086934 -0.19486704 0.6426
-0.16529843 -0.19462143 0.6409837
-0.15576445 -0.19483936 0.64109516
-0.14913017 -0.19789207 0.64000005
-0.12443873 -0.19512206 0.64177454
-0.11874221 -0.19623587 0.64749992
-0.17215586 -0.18412632 0.64043754
-0.16457145 -0.18554531 0.63999987
-0.15753298 -0.18609622 0.64065635
-0.12432925 -0.18477532 0.64207232
-0.1191761 -0.18453768 0.64745456
-0.17510353 -0.174922 0.64040011
-0.16224416 -0.17277233 0.64000005
-0.15945144 -0.17627428 0.64000005
-0.1247435 -0.17497127 0.64306849
-0.11969492 -0.17666225 0.64783335
-0.17672694 -0.16608255 0.6402728
-0.16396192 -0.16944763 0.64000005
-0.13072763 -0.16210178 0.64057148
-0.12598494 -0.16566525 0.64419049
-0.17676191 -0.15969524 0.64000005
-0.13104764 -0.15969524 0.64000005
-0.12279667 -0.15414032 0.64308339
-0.11871936 -0.15117207 0.64700007
-0.12141524 -0.14814158 0.64100003
-0.11526711 -0.14488208 0.64610416
-0.10741467 -0.14299782 0.64761537
-0.11214668 -0.13925907 0.64700001
-0.10968191 -0.13925906 0.64700001
-0.16883811 -0.12068572 0.64000005
-0.14227381 -0.12410849 0.64005011
-0.13457663 -0.12415586 0.64241177
-0.12842901 -0.12359756 0.64478576
-0.16883811 -0.11946667 0.64000005
-0.14191452 -0.11873651 0.64044446
-0.13503487 -0.11640432 0.64525026
-0.12918858 -0.1193143 0.648
-0.13531429 -0.10971429 0.64000005
-0.027749525 0.029600002 0.64750004
-0.04073143 0.039497145 0.648
-0.034810148 0.035467651 0.64648199
-0.027014898 0.034870759 0.64644116
-0.042377152 0.045622863 0.64799994
-0.03513601 0.044996493 0.64718741
-0.027369414 0.044685293 0.64663893
-0.042070318 0.055109814 0.64795643
-0.035098519 0.054796971 0.64649975
-0.026796866 0.054684564 0.64654768
-0.019748572 0.051222861 0.648
-0.042363178 0.061281912 0.6477778
-0.034695193 0.062784486 0.64482927
-0.024829267 0.064517647 0.64524138
-0.018839369 0.065732457 0.64786661
-0.022841189 0.075208187 0.64218932
-0.0162818 0.075565189 0.64594549
-0.031695239 0.08899048 0.64000005
-0.022755876 0.083236054 0.64145845
-0.015129688 0.084526636 0.64556897
-0.0071518472 0.086620793 0.64744002
-0.031695239 0.090209529 0.64000005
-0.012342856 0.092571437 0.648
-0.0078171436 0.091954291 0.648
-0.13283966 -0.24125871 0.65627271
-0.12848 -0.24069145 0.65700001
-0.15104762 -0.23895238 0.65000004
-0.14394124 -0.23643088 0.65095454
-0.13512972 -0.23534684 0.65338331
-0.12772821 -0.23453 0.65614998
-0.12172637 -0.2252018 0.6503334
-0.11770696 -0.22292534 0.6523158
-0.11540045 -0.21405831 0.6522069
-0.10979048 -0.21084763 0.65500003
-0.113694 -0.20506558 0.65213341
-0.1091615 -0.20558588 0.6544286
-0.11494533 -0.19467916 0.65154743
-0.1166444 -0.18536213 0.65288574
-0.12009525 -0.17292064 0.65000004
-0.11799318 -0.17521006 0.65303445
-0.12149519 -0.16396888 0.65086955
-0.11865631 -0.16557069 0.65383327
-0.12278615 -0.15776381 0.65188885
-0.21134412 -0.14066689 0.65355563
-0.11266667 -0.14238095 0.65000004
-0.21489114 -0.13637954 0.65531576
-0.0043399441 0.01271552 0.65588236
0 0.012438096 0.65300006
-0.024586668 0.029339051 0.65083337
-0.050133336 0.037600003 0.65800005
-0.044335615 0.037202466 0.65174198
-0.039619051 0.037761904 0.65000004
-0.023569252 0.035667688 0.65128583
-0.051535144 0.045007817 0.65736842
-0.047049016 0.044997036 0.65197051
-0.022747794 0.045816723 0.65144455
-0.019866124 0.04593987 0.6518572
-0.051965374 0.057850562 0.65381819
-0.046940193 0.055072155 0.65097553
-0.022410737 0.055350304 0.65036362
-0.019623175 0.055564132 0.65066671
-0.051916368 0.062999137 0.65318185
-0.0464596 0.06314978 0.65112507
-0.023523811 0.061285719 0.65000004
-0.01736 0.067889996 0.65100002
-0.012423811 0.07269524 0.65242863
-0.0055749002 0.075420074 0.65330666
0.0017619752 0.0759257 0.65666664
-0.0046377941 0.083541296 0.65205276
0.0018085361 0.084208757 0.65622228
-0.0086666672 0.092238098 0.65000004
-0.12358419 -0.23577231 0.66333342
-0.11676624 -0.23463106 0.66755557
-0.11495132 -0.22454679 0.66651601
-0.1138052 -0.21770203 0.66590911
-0.11298762 -0.20121811 0.66650003
-0.11328597 -0.1937345 0.66826671
-0.11407088 -0.18536364 0.66545457
-0.10958858 -0.18986858 0.66900003
-0.11512588 -0.1752893 0.66602242
-0.12078382 -0.16154066 0.66516674
-0.11717803 -0.16366313 0.66893107
-0.10895143 -0.16119716 0.66900003
-0.12149607 -0.15830667 0.66642857
-0.11527087 -0.15766765 0.66883993
-0.1086999 -0.15675746 0.66788894
-0.20630936 -0.14263639 0.66618752
-0.21373396 -0.13553323 0.66273695
-0.20878193 -0.13897842 0.66633338
-0.0048214463 0.017061938 0.66440743
0.0030827033 0.016061135 0.66854846
-0.021398861 0.025345717 0.66869992
-0.014621343 0.024787238 0.66735929
-0.0050691161 0.024713818 0.66541111
0.0035227158 0.025579125 0.66793633
0.010194286 0.027397145 0.66900003
-0.052986894 0.037149463 0.6604706
-0.020671343 0.034638274 0.66690916
-0.014592803 0.034877323 0.66590625
-0.005055035 0.034769632 0.66383952
0.0040383898 0.035229687 0.66753447
0.010823334 0.037561905 0.66850013
-0.054196578 0.042618543 0.6606667
-0.020676827 0.041356195 0.66466671
-0.014559793 0.04492962 0.66445333
-0.0050496603 0.044823702 0.66287488
0.0044447333 0.045037292 0.66609395
0.010957983 0.044572551 0.66529417
-0.020266667 0.059533335 0.66500002
-0.014481483 0.055040799 0.66415882
-0.0050480617 0.054894321 0.66251779
0.0042269784 0.055125251 0.66567218
0.012021473 0.052589785 0.6674546
-0.014013606 0.06464947 0.66323209
-0.005047109 0.064991407 0.66255349
0.004108184 0.06496685 0.66505098
0.010608889 0.065773338 0.66833341
-0.012598096 0.070752069 0.66133344
-0.0047209524 0.070650473 0.66087496
0.0060946671 0.074204341 0.66257507
0.01306789 0.075402863 0.66695249
0.0066245454 0.08541251 0.66137147
0.01449615 0.085253961 0.6655671
0.020388572 0.08665143 0.66900003
0.0068489807 0.091188297 0.6622858
0.013757142 0.091137148 0.66270012
-0.11294287 -0.2314159 0.67000002
-0.11197057 -0.22664002 0.67055565
-0.10772406 -0.22420502 0.67406237
-0.11130504 -0.21713552 0.67057151
-0.10614019 -0.21478379 0.67357135
-0.1110198 -0.20434403 0.67166662
-0.10522041 -0.20476547 0.67316335
-0.099691436 -0.20130001 0.671
-0.11144457 -0.1960821 0.67020005
-0.10663776 -0.19594285 0.67117071
-0.11156033 -0.18451588 0.67000002
-0.10864505 -0.18447869 0.67011768
-0.11216749 -0.17369778 0.67020011
-0.10530528 -0.17502025 0.67335212
-0.097676203 -0.1750419 0.67883337
-0.11341549 -0.16641273 0.67042106
-0.10571383 -0.16728784 0.67600006
-0.09878134 -0.16860078 0.67880005
-0.1150049 -0.15452404 0.67021734
-0.10975239 -0.15378097 0.67000002
-0.20192549 -0.14198159 0.67153329
-0.19604959 -0.14456417 0.67511553
-0.18939202 -0.14301181 0.67640013
-0.21213701 -0.13414004 0.67333341
-0.20582306 -0.1372121 0.6752727
-0.19754478 -0.13870586 0.67785716
0.005246561 0.015030689 0.67000002
-0.031785477 0.027914764 0.67762506
-0.026459385 0.02472629 0.67257512
0.0070596086 0.022754062 0.67023534
0.010229843 0.023015872 0.67133343
-0.050365716 0.034868576 0.67800009
-0.045315992 0.033613235 0.67873681
-0.035837281 0.031587757 0.67885715
0.0085079372 0.032542862 0.67000002
0.011166668 0.033180952 0.67000002
-0.061505187 0.057481486 0.67899996
-0.057220753 0.057151876 0.67868418
0.0089333337 0.056152385 0.67000002
0.011391689 0.056839656 0.67127275
-0.062489815 0.064822018 0.67618525
-0.058128253 0.063942648 0.67816675
0.0085079372 0.068063498 0.67000002
0.011355742 0.063694224 0.67117649
0.0089333337 0.070190482 0.67000002
0.010209524 0.070828572 0.67000002
-0.093385309 -0.17426981 0.68064523
-0.085428573 -0.17345548 0.68565118
-0.078489527 -0.1721532 0.68842864
-0.10263738 -0.16367833 0.6824584
-0.094721064 -0.16459246 0.68209243
-0.085005894 -0.16519547 0.6861766
-0.078742862 -0.16864096 0.68900001
-0.094082296 -0.15792976 0.68676931
-0.088231035 -0.15866533 0.6884287
-0.21072952 -0.13078287 0.68433344
-0.20468403 -0.13331287 0.68313056
-0.19892268 -0.13693638 0.68080008
-0.21068001 -0.1288943 0.68700004
-0.20635349 -0.12820001 0.68628573
-0.11204667 -0.12056381 0.68800002
-0.10992 -0.12038857 0.68700004
-0.11067747 -0.11898921 0.68900001
-0.10703196 -0.1131564 0.68900007
-0.10579385 -0.10730404 0.6870001
-0.043983813 0.029466351 0.68250006
-0.03523048 0.029272383 0.68000001
-0.044275559 0.031964447 0.68033338
-0.035295241 0.031409524 0.68000001
-0.071530044 0.056796882 0.68618184
-0.065624207 0.055537309 0.68235153
-0.058933336 0.053752381 0.68000001
-0.07166741 0.064258739 0.68616676
-0.067515813 0.063672379 0.68360001
-0.055263497 0.066920638 0.68000001
-0.073474124 -0.1714485 0.69336373
-0.067140952 -0.17017905 0.69800001
-0.080960006 -0.16113144 0.69000006
-0.074478403 -0.1647422 0.69283623
-0.06507282 -0.16467921 0.69722456
-0.059087973 -0.16602564 0.69781822
-0.083913706 -0.15616879 0.69108355
-0.07515046 -0.15577058 0.69612491
-0.066396035 -0.15721673 0.69717401
-0.13287938 -0.12737598 0.69728571
-0.12532727 -0.12368803 0.69561779
-0.11769762 -0.12099715 0.69425011
-0.12304763 -0.11722632 0.69747627
-0.11490432 -0.1149177 0.69288486
-0.10848831 -0.11517922 0.69000006
-0.11318204 -0.10796655 0.6944375
-0.10871021 -0.10589388 0.69000012
-0.019942857 0.019942857 0.69800001
-0.080520004 0.069960006 0.69300002
-0.075877681 0.068699047 0.69211107
-0.08144477 0.072172381 0.69525003
-0.077519298 0.072251678 0.69125003
-0.071179055 -0.17305398 0.70066679
-0.066867366 -0.17208071 0.70081836
-0.061333336 -0.16000001 0.70000005
-0.055062767 -0.1638117 0.70390004
-0.048059162 -0.16227335 0.7069999
-0.072424762 -0.15133063 0.70042861
-0.06383156 -0.15394939 0.70156407
-0.05501432 -0.15499097 0.7045179
-0.045111146 -0.15515603 0.70714068
-0.037875 -0.156045 0.70700002
-0.072426036 -0.14931366 0.70200002
-0.064424261 -0.14900886 0.70310533
-0.05493306 -0.14528453 0.70708531
-0.046556555 -0.14688669 0.70748395
-0.053646076 -0.13680936 0.7074762
-0.049897145 -0.13553143 0.708
-0.14070837 -0.1237274 0.70355558
-0.13560893 -0.12341803 0.70191443
-0.12933333 -0.12133334 0.70000005
-0.14025143 -0.11867429 0.708
-0.13416621 -0.11676197 0.70619351
-0.12657902 -0.11402248 0.70288581
-0.12 -0.11133334 0.70000005
-0.12360208 -0.10774478 0.70457155
-0.11715619 -0.10610604 0.70160013
-0.031452067 -0.051671114 0.70766664
-0.025204515 -0.053105682 0.7074815
-0.018205713 -0.053942859 0.708
-0.031343333 -0.048530951 0.70774996
-0.024647031 -0.045574322 0.70732796
-0.018460408 -0.043262862 0.70671433
-0.031522855 -0.035568573 0.70800006
-0.024788041 -0.034899153 0.70770389
-0.017916735 -0.034966532 0.70800012
-0.034051429 -0.02562286 0.708
-0.023949118 -0.025617873 0.70788109
-0.017936785 -0.025181191 0.70737499
-0.022774072 -0.015507195 0.70794457
-0.017980952 -0.017306667 0.70800006
-0.023296615 -0.0045699477 0.70788896
-0.017862856 -0.0024987757 0.70585722
-0.031017143 0.005394286 0.708
-0.022734808 0.0052160374 0.7074517
-0.016653912 0.0050066966 0.70548493
-0.022878315 0.014797771 0.70642871
-0.014939628 0.01493296 0.7018261
-0.0093466667 0.014687619 0.70100009
-0.024211047 0.02017143 0.70600003
-0.015342858 0.02001429 0.70050001
-0.084227256 0.069051728 0.70446157
-0.079060003 0.069006667 0.70350003
-0.091486536 0.071921632 0.70485717
-0.087034084 0.072226867 0.70294452
-0.040571429 -0.15079048 0.71000004
-0.036337804 -0.15183488 0.71335006
-0.052756954 -0.14339201 0.71020001
-0.0437367 -0.14352503 0.71086669
-0.034977984 -0.14521958 0.71412009
-0.029920001 -0.14144 0.71400005
-0.050249524 -0.13920477 0.71300006
-0.04445786 -0.13565023 0.7133202
-0.035091754 -0.13487637 0.71241373
-0.028199667 -0.1348535 0.71391314
-0.042769115 -0.12495321 0.71442866
-0.035231844 -0.12512909 0.71358025
-0.027280891 -0.12477286 0.71393752
-0.13609315 -0.11255975 0.71076196
-0.04164191 -0.11575307 0.71678573
-0.035470869 -0.11502565 0.71357423
-0.025758879 -0.11468647 0.71182352
-0.134297 -0.10871969 0.71275008
-0.12915239 -0.10751429 0.71000004
-0.041085716 -0.10956191 0.71900004
-0.035032306 -0.10499319 0.71340829
-0.02583199 -0.10472913 0.7124905
-0.034984808 -0.095211983 0.71362239
-0.025090417 -0.094947249 0.71208942
-0.018028572 -0.094702177 0.71242881
-0.040780958 -0.086318731 0.71366668
-0.035367407 -0.084915623 0.71258193
-0.025383657 -0.085472703 0.7107501
-0.018508572 -0.088931434 0.71100008
-0.035220001 -0.074780993 0.71277988
-0.025131978 -0.075098962 0.71111083
-0.034931686 -0.065091982 0.71259987
-0.025055917 -0.06502191 0.71117848
-0.01765524 -0.063830487 0.71300018
-0.034883589 -0.055617515 0.71216661
-0.024776682 -0.057489987 0.71044832
-0.018021669 -0.055425357 0.7107501
-0.034650579 -0.045058854 0.71115798
-0.02772381 -0.041022219 0.71000004
-0.018053016 -0.045582861 0.71083343
-0.03472653 -0.034817211 0.71189296
-0.029076191 -0.039219048 0.71000004
-0.016904762 -0.034711115 0.71000004
-0.033324316 -0.025420003 0.71116674
-0.026926493 -0.023729436 0.71004552
-0.018257143 -0.027047619 0.71000004
-0.033004757 -0.015486824 0.7120418
-0.026060803 -0.014560951 0.71023673
-0.017491156 -0.01352898 0.71028584
-0.031179866 -0.0054185041 0.71171439
-0.025817746 -0.0058038095 0.71039486
-0.017482638 -0.0071806591 0.71023083
-0.031170478 0.0060942862 0.71150005
-0.027094895 0.0042628576 0.71015137
-0.032515664 0.015657144 0.71450001
-0.028431475 0.014892881 0.71076202
-0.033496387 0.021600382 0.71769994
-0.0294127 0.020814605 0.71266669
-0.14368445 -0.11090371 0.72377777
-0.042514287 -0.11520001 0.72000003
-0.14469497 -0.10629915 0.72119063
-0.13793771 -0.10430939 0.72057158
