# .PCD v0.7 - Point Cloud Data file format
VERSION 0.7
FIELDS x y z
SIZE 4 4 4
TYPE F F F
COUNT 1 1 1
WIDTH 324
HEIGHT 1
VIEWPOINT 0 0 0 1 0 0 0
POINTS 324
DATA ascii
-0.081952386 0.069300003 0.57750005
-0.077348575 0.069120005 0.57600003
-0.10253101 0.078672595 0.57811111
-0.094975896 0.075673662 0.57857579
-0.083743952 0.074151769 0.57792872
-0.076029651 0.072861202 0.57574373
-0.069480002 0.076097146 0.57900006
-0.091357619 0.005044762 0.58850002
-0.089191437 0.005609524 0.58900005
-0.094992988 0.035246275 0.58894026
-0.089752384 0.03253524 0.58900005
-0.060582858 0.039266668 0.58900005
-0.059460953 0.039266668 0.58900005
-0.10097143 0.043193337 0.58900005
-0.095161162 0.044751089 0.58810031
-0.089752391 0.042258419 0.58900011
-0.062213529 0.046032134 0.58849996
-0.056183279 0.046277359 0.58763051
-0.048720002 0.049280003 0.588
-0.094382316 0.054840397 0.58810455
-0.088176012 0.055669915 0.5884667
-0.063949592 0.05513439 0.58723098
-0.054640159 0.054642536 0.58545649
-0.047665112 0.054388456 0.58818197
-0.11092714 0.067788102 0.58824998
-0.10430932 0.066055514 0.58694726
-0.095073387 0.065347776 0.58616513
-0.086193062 0.066038497 0.58589989
-0.072659813 0.066750109 0.58487487
-0.064757146 0.064816393 0.58539021
-0.054921478 0.065118246 0.58429658
-0.04583912 0.066812098 0.58359623
-0.034996796 0.06766694 0.58453995
-0.025353588 0.066999212 0.58713049
-0.017790206 0.068275921 0.58900005
-0.1114042 0.071953148 0.58840007
-0.10500998 0.072715841 0.58392864
-0.094928816 0.074662939 0.58035415
-0.08603733 0.075831361 0.58088005
-0.074167244 0.076306626 0.58041292
-0.065572247 0.07524053 0.58339745
-0.055450518 0.075411059 0.58222258
-0.04543715 0.075361125 0.58182746
-0.035422027 0.075319208 0.58203691
-0.025140809 0.074953429 0.58465958
-0.016362982 0.078217812 0.58595651
-0.11092486 0.083950996 0.58554548
-0.10485358 0.084654696 0.58214754
-0.094771758 0.082928672 0.58178568
-0.084899388 0.082740098 0.58072501
-0.075355388 0.084212862 0.58114082
-0.065266311 0.083430767 0.58239597
-0.05549955 0.084722772 0.58276492
-0.045087624 0.083045378 0.58167452
-0.035024866 0.084151052 0.58239299
-0.026275206 0.084356397 0.58353359
-0.014888924 0.082899667 0.58318418
-0.0099485721 0.08290413 0.58033335
-0.027113333 0.091299996 0.58100003
-0.050751429 -0.055313334 0.59875
-0.048436515 -0.055845082 0.59833336
-0.070739053 -0.036510479 0.59900004
-0.061705977 -0.033290043 0.59890914
-0.058362223 -0.03231778 0.59883338
-0.06278418 -0.023565924 0.59777778
-0.055655237 -0.024053376 0.59800017
-0.048680641 -0.028143492 0.59900004
-0.063893765 -0.014607325 0.5969848
-0.054929335 -0.014474391 0.59697318
-0.047822122 -0.013095662 0.59777784
-0.064488702 -0.0052460493 0.5963971
-0.054873742 -0.0051250788 0.59569728
-0.04855299 -0.005889697 0.596591
-0.11147207 0.0085314289 0.59716672
-0.10404021 0.0064153671 0.59265894
-0.095489562 0.0055850446 0.59081465
-0.086129412 0.0082576731 0.59111112
-0.064436629 0.0046276059 0.59569347
-0.054794285 0.004504812 0.59531188
-0.047884915 0.0048154686 0.59642434
-0.11100651 0.014444482 0.59682357
-0.10456667 0.014696007 0.59344447
-0.094672725 0.014576958 0.59098709
-0.084849358 0.014738844 0.59303606
-0.076980591 0.015141396 0.59573078
-0.065205626 0.014741957 0.59530574
-0.05535996 0.014688251 0.59319741
-0.049219254 0.014496941 0.59510541
-0.11198941 0.023641549 0.59650004
-0.10474172 0.024945546 0.59223062
-0.094533123 0.024759175 0.59083927
-0.084724888 0.024854816 0.59312344
-0.075711653 0.02455719 0.59685457
-0.065147661 0.024922324 0.59477788
-0.05533427 0.024844773 0.59291339
-0.049155667 0.025428781 0.59477788
-0.11184998 0.036380883 0.5961538
-0.10467481 0.034864195 0.59226024
-0.094961904 0.034182545 0.59000015
-0.08496242 0.034935158 0.59123576
-0.076099612 0.035520509 0.59520018
-0.064974099 0.034930699 0.59268993
-0.055292174 0.03492789 0.59250641
-0.049673527 0.033115048 0.59540004
-0.11180272 0.044684116 0.59510535
-0.10558556 0.045264218 0.59195644
-0.084900573 0.045169059 0.59163201
-0.075946718 0.045817975 0.59676576
-0.066830292 0.044382785 0.59097952
-0.053391676 0.043034777 0.59102857
-0.048483536 0.04558168 0.59128577
-0.11233767 0.055048201 0.59696561
-0.10464926 0.055310678 0.59170502
-0.098670483 0.055740952 0.59000009
-0.083287165 0.054838512 0.59158331
-0.075159356 0.055278834 0.59404224
-0.069044195 0.053957466 0.59100008
-0.044560004 0.058518484 0.59080005
-0.032936279 0.059124164 0.59072733
-0.025537273 0.059445851 0.59333342
-0.11309049 0.064971708 0.59435725
-0.10707249 0.062274493 0.59105259
-0.08247447 0.063156188 0.59106445
-0.076067448 0.063076675 0.59134364
-0.044377398 0.063175939 0.59193331
-0.035203066 0.063030034 0.59165096
-0.02396127 0.062720694 0.59125
-0.017905965 0.064679399 0.59142107
-0.11504543 0.072287612 0.59300005
-0.01634023 0.073559873 0.59100002
-0.11467258 0.08417543 0.59080011
-0.023420287 0.087129049 0.59250009
-0.023938289 0.090783246 0.59280008
-0.061231434 -0.11252002 0.60900009
-0.058602348 -0.11336953 0.60876936
-0.064104259 -0.10467811 0.60858333
-0.056928251 -0.10365417 0.6087001
-0.070760004 -0.095120005 0.60900009
-0.064675406 -0.095044598 0.60784668
-0.055035416 -0.09484861 0.60767603
-0.049798097 -0.093226671 0.60800004
-0.064133011 -0.084931538 0.60664064
-0.054935716 -0.085008994 0.60720313
-0.049716193 -0.082667619 0.60700005
-0.071106091 -0.073777735 0.60738468
-0.064901821 -0.075117536 0.60672355
-0.055102102 -0.074971139 0.6060394
-0.048664562 -0.07360512 0.60831594
-0.070643812 -0.068906665 0.60800004
-0.065180525 -0.065016732 0.60518461
-0.055286288 -0.064962395 0.6053015
-0.048716735 -0.062613621 0.60792857
-0.07099095 -0.056676198 0.60725003
-0.064847499 -0.055043485 0.60344303
-0.055429518 -0.054957569 0.60274684
-0.048639849 -0.054405712 0.60441673
-0.070835844 -0.045971081 0.60336375
-0.064799607 -0.044729341 0.60208338
-0.055066969 -0.044748154 0.6023705
-0.047744773 -0.044191822 0.60400003
-0.070713341 -0.034840576 0.60170001
-0.065673403 -0.035204496 0.60122418
-0.054635432 -0.03515682 0.60122722
-0.047627773 -0.035418559 0.60419357
-0.070592389 -0.028234286 0.60100007
-0.066688433 -0.026440185 0.6004287
-0.05369024 -0.026351141 0.60008126
-0.047813546 -0.022855449 0.60166669
-0.071093336 -0.017582223 0.60200012
-0.068972148 -0.015582025 0.600375
-0.051114019 -0.018126804 0.60014284
-0.047691952 -0.018431863 0.60136366
-0.072489955 0.018313864 0.60088885
-0.11501299 0.022129871 0.59999996
-0.074006982 0.026118824 0.60023099
-0.073964767 0.032603335 0.60049999
-0.072607435 0.042648569 0.60030001
-0.11600164 0.056366537 0.60042858
-0.063727088 -0.14449343 0.61792862
-0.055718236 -0.14365706 0.61761361
-0.07074286 -0.13618001 0.61900002
-0.065010674 -0.13507786 0.61553973
-0.054958258 -0.13510256 0.61564952
-0.049280003 -0.13024001 0.61600006
-0.064735837 -0.12495691 0.61266673
-0.054966826 -0.12485413 0.61352694
-0.04879839 -0.12510638 0.61561543
-0.070898287 -0.1142781 0.61220002
-0.065805785 -0.11535537 0.61172873
-0.054022565 -0.11515453 0.61329693
-0.049210005 -0.1154069 0.61512506
-0.068740323 -0.10893492 0.61166668
-0.053715378 -0.10690926 0.61269706
-0.07099238 -0.090777144 0.611
-0.069440648 -0.092716835 0.611
-0.07105048 -0.086773336 0.61150002
-0.069828577 -0.086703822 0.61100006
-0.071108572 -0.066445716 0.61200005
-0.05029295 -0.068221718 0.61120003
-0.048377145 -0.068195239 0.61200005
-0.064538158 -0.16169773 0.62882352
-0.058927238 -0.16097295 0.62880003
-0.064486027 -0.15519868 0.62509096
-0.055189133 -0.15480353 0.6246112
-0.071559049 -0.14297095 0.62225002
-0.067072734 -0.14682461 0.62072724
-0.054429047 -0.14844714 0.62037498
-0.071433656 -0.13656338 0.62044442
-0.069676191 -0.13935238 0.62
-0.062550984 -0.16512127 0.63153344
-0.057042263 -0.164756 0.63333338
-0.061764576 -0.18826059 0.708
-0.059337147 -0.18812573 0.708
-0.053113125 -0.1145325 0.70630437
-0.045147013 -0.11443692 0.70565921
-0.035826422 -0.11239843 0.70686954
-0.027867621 -0.11147392 0.7068001
-0.052400868 -0.1083316 0.70372736
-0.044812441 -0.10752583 0.70234382
-0.035441466 -0.10651372 0.7039668
-0.027738415 -0.1078254 0.70466667
-0.063226357 -0.21136318 0.71900004
-0.07178589 -0.20599923 0.71899998
-0.064978383 -0.20492116 0.7172178
-0.071340576 -0.19447505 0.71750003
-0.06509047 -0.19541897 0.71482599
-0.059089258 -0.19444136 0.71671432
-0.067112856 -0.18945856 0.71175003
-0.052194078 -0.13116995 0.71899998
-0.045941301 -0.13110079 0.71899998
-0.052912999 -0.12414873 0.71425003
-0.045083381 -0.12480123 0.71479529
-0.035183839 -0.12437046 0.71653652
-0.02553032 -0.1219608 0.71808338
-0.019173333 -0.1205181 0.71900004
-0.056150161 -0.11771302 0.71033335
-0.043276191 -0.11900952 0.71000004
-0.034335844 -0.11714797 0.71084011
-0.024694197 -0.11589902 0.71383333
-0.017850757 -0.11531642 0.71770585
-0.023666667 -0.10954286 0.71000004
-0.072740711 -0.22417702 0.72708684
-0.065729693 -0.22442518 0.72537142
-0.073261514 -0.21481988 0.72508335
-0.065099247 -0.21553139 0.72192109
-0.05763429 -0.21287239 0.72766674
-0.081 -0.20296286 0.72900003
-0.076371789 -0.20472537 0.72606254
-0.060342859 -0.2057143 0.72000003
-0.055948339 -0.20516478 0.72641867
-0.080884293 -0.19891286 0.72900003
-0.075866677 -0.19632325 0.7252084
-0.056302577 -0.19549768 0.72660005
-0.072685719 -0.18925714 0.72000003
-0.057057749 -0.18537021 0.7250455
-0.056042857 -0.1792019 0.72650003
-0.05554286 -0.16176859 0.72900003
-0.054617148 -0.15644573 0.72900003
-0.052655239 -0.14460124 0.72747058
-0.046260707 -0.14339633 0.72816139
-0.052873529 -0.13664688 0.72413331
-0.04483413 -0.13604262 0.72363889
-0.035636067 -0.13321833 0.72412902
-0.026565876 -0.13238144 0.72775
-0.032749116 -0.12865035 0.72071433
-0.024440674 -0.12635268 0.72329032
-0.016397461 -0.1227317 0.7256
-0.0071742861 -0.12612858 0.72900003
-0.013322252 -0.11599187 0.7225911
-0.0085859057 -0.1170301 0.72710001
-0.081598654 -0.22099841 0.73500007
-0.077960476 -0.22145976 0.73412508
-0.055168387 -0.22223334 0.73425019
-0.048933335 -0.22089906 0.73400003
-0.083923995 -0.21414118 0.73432261
-0.077749439 -0.21624832 0.7324546
-0.053771488 -0.21584518 0.73197323
-0.047094572 -0.214137 0.7318697
-0.091786936 -0.20506528 0.73606682
-0.086053938 -0.20526259 0.7332046
-0.050768353 -0.20489421 0.73100007
-0.045247991 -0.20485616 0.7343111
-0.038944129 -0.20175874 0.73900002
-0.091758572 -0.19702619 0.73687506
-0.08538574 -0.19494018 0.73431247
-0.078160957 -0.19305143 0.731125
-0.051837668 -0.19418585 0.73104548
-0.044919465 -0.19520259 0.73572552
-0.038334996 -0.19553562 0.73687512
-0.08384382 -0.18919772 0.73360008
-0.079474285 -0.18962286 0.73200005
-0.052370634 -0.1853171 0.73151743
-0.044710319 -0.1849921 0.73588228
-0.038627077 -0.18540846 0.73742872
-0.052738734 -0.17471693 0.73175704
-0.045090836 -0.17507461 0.73616314
-0.039413333 -0.17313714 0.73900002
-0.052370697 -0.16456166 0.73151743
-0.045758139 -0.16541246 0.7364251
-0.039413333 -0.16891429 0.73900002
-0.051971268 -0.15498993 0.7325002
-0.045561913 -0.15467229 0.73607904
-0.037015092 -0.15185188 0.7386924
-0.052910477 -0.14898476 0.73100001
-0.043154385 -0.14696895 0.73205006
-0.03524971 -0.14455716 0.73520005
-0.029520001 -0.14127335 0.73800004
-0.033813972 -0.13816684 0.73208332
-0.024976054 -0.13469307 0.73442864
-0.015968706 -0.13215056 0.73657167
-0.0098133339 -0.13037714 0.73600006
-0.013967793 -0.12642077 0.73336381
-0.0064720986 -0.12375441 0.73429638
-0.0048885713 -0.11910572 0.7335
-0.038057145 -0.18041906 0.74000001
-0.040876191 -0.17125715 0.74000001
-0.037662446 -0.17463636 0.74069554
-0.042074632 -0.16317213 0.7408182
-0.037741456 -0.16605847 0.74347818
-0.041713201 -0.15798911 0.74057144
-0.037895977 -0.15722933 0.74107689
-0.025455717 -0.14072096 0.74250007
-0.024246668 -0.13754523 0.7406249
-0.018331431 -0.13657525 0.74028575
