# .PCD v0.7 - Point Cloud Data file format
VERSION 0.7
FIELDS x y z
SIZE 4 4 4
TYPE F F F
COUNT 1 1 1
WIDTH 564
HEIGHT 1
VIEWPOINT 0 0 0 1 0 0 0
POINTS 564
DATA ascii
-0.0011180954 -0.13193652 0.58700001
0.0014344217 -0.13217607 0.58628577
-0.0011161906 -0.1294781 0.58600003
-0.0022793652 -0.14056066 0.59833336
0.0034183676 -0.14152043 0.59814292
-0.010839048 -0.1340619 0.59900004
-0.0048673898 -0.13615072 0.59720689
0.0024699161 -0.13809749 0.59541184
0.0069314288 -0.15073374 0.60640001
0.010803174 -0.15085524 0.60766673
-0.011514921 -0.14081779 0.6043334
-0.004594286 -0.14334096 0.60341668
0.0055274186 -0.1457362 0.6026842
0.013315165 -0.14696515 0.6053077
0.020811429 -0.14857048 0.60700005
-0.011887756 -0.13736995 0.60242867
-0.0076643811 -0.13862972 0.60049999
-0.024360001 0.067280002 0.60900003
-0.012180001 0.069600001 0.60900003
-0.0063485717 0.069257148 0.60600001
-0.011819122 0.074479774 0.60876936
-0.005196217 0.075048022 0.60615277
0.0041854405 0.07547462 0.607041
0.010440001 0.077720001 0.60900009
-0.036116906 0.08480072 0.60675001
-0.011303572 0.083758213 0.60862505
-0.0052982015 0.084873788 0.60631746
0.0044376035 0.084368914 0.6068871
0.011938962 0.083502851 0.6073637
-0.0053314287 0.091344766 0.60512501
-0.0043235715 -0.15198308 0.61525005
0.0034249208 -0.15325303 0.61533332
0.015952522 -0.15412453 0.61470383
0.025656778 -0.15468431 0.61450005
-0.012713177 -0.14551154 0.6137917
-0.0066010482 -0.14822078 0.61320007
0.00058190478 -0.14896762 0.611
-0.015129524 -0.13907525 0.611
0.0061311359 -0.1213496 0.61576927
0.016040606 -0.12261298 0.61319524
0.024386251 -0.12372793 0.61534137
0.0066751018 -0.11774477 0.61376196
0.014869365 -0.11786669 0.61216676
0.023524288 -0.11878048 0.61362505
-0.03281378 0.067908235 0.61782366
-0.025466265 0.068559214 0.61336851
-0.016562907 0.068642013 0.61189485
0.0093663502 0.06790667 0.6146667
0.013846816 0.067255691 0.6136539
0.024860138 0.068363816 0.61728585
-0.033046607 0.075238869 0.61762232
-0.025237843 0.075085297 0.61419392
-0.016986541 0.075282894 0.6113261
0.0087966146 0.072440214 0.61122227
0.015095864 0.074558534 0.61386299
0.023415415 0.072498977 0.61750007
-0.034617204 0.084880985 0.61575872
-0.02532395 0.084150739 0.61467868
-0.016283594 0.083524905 0.61154556
0.016509153 0.082461357 0.61500001
0.022360831 0.084744774 0.61793762
-0.037136327 0.091258787 0.61200011
-0.0031112384 -0.16187085 0.62810004
0.0050301189 -0.16258815 0.6261875
0.014273266 -0.16266735 0.62628573
0.020346034 -0.16157208 0.62833333
-0.011737144 -0.15426591 0.62880003
-0.0048246756 -0.1573621 0.62522733
0.0040823617 -0.15777181 0.62295991
0.014137335 -0.15890402 0.62350005
0.0175742 -0.14188901 0.62645453
0.022338232 -0.14291114 0.62671435
-0.0011980953 -0.13658287 0.62900001
0.0048206486 -0.13466084 0.6283766
0.014855325 -0.13524589 0.62701511
0.024581285 -0.13512254 0.62779367
0.031663947 -0.1333309 0.62900001
-0.0026306666 -0.12179506 0.62750006
0.0045037149 -0.12572709 0.62637514
0.013831217 -0.12825535 0.62538892
0.021428574 -0.1297619 0.625
-0.0043196427 -0.11580601 0.62596881
-0.054852899 0.06649439 0.62813473
-0.04442035 0.065312386 0.62606549
-0.037001252 0.065571606 0.6234687
-0.061502229 0.072884135 0.62900001
-0.055030912 0.074844956 0.62744433
-0.044779643 0.074870981 0.62301385
-0.0379229 0.074454747 0.62047821
0.02200838 0.075491816 0.62120003
-0.062013123 0.088494398 0.6287778
-0.055135056 0.08490245 0.62690896
-0.04474901 0.08473812 0.62316138
-0.038676195 0.081485718 0.62
0.018334286 0.088123813 0.62099999
0.021277716 0.086413339 0.62059993
-0.06226857 0.091006994 0.6286667
-0.053804766 0.090722546 0.62533337
-0.047366891 0.091528945 0.62530768
0.018363811 0.090041906 0.62200004
0.02150381 0.091206901 0.62287509
-0.0024342858 -0.2008286 0.63900006
0.00060857146 -0.20082858 0.63900006
-0.0038026187 -0.19470564 0.63877499
0.0040690308 -0.19457085 0.63856912
0.011562858 -0.19109143 0.63900006
-0.011562857 -0.18257144 0.639
-0.0055134743 -0.18505399 0.63681978
0.0049177385 -0.18506284 0.63526565
0.012635441 -0.1845624 0.63821435
-0.011551786 -0.17449048 0.63837504
-0.0054042372 -0.17488228 0.63508952
0.0047668801 -0.1749153 0.63352478
0.014846733 -0.17480645 0.63646561
0.023565369 -0.17137146 0.6389091
0.037122861 -0.17161715 0.63900006
-0.011650793 -0.16480967 0.63713342
-0.006234935 -0.16585656 0.63400012
0.0044309096 -0.16757974 0.63190913
0.01598743 -0.16780879 0.63335001
0.023968348 -0.16725953 0.63652378
0.035352144 -0.16163322 0.63862503
-0.020583494 -0.15377018 0.63566673
-0.016039092 -0.15523311 0.6342501
-0.0092292074 -0.1581016 0.63200009
0.035227757 -0.15851647 0.63771439
-0.017489763 -0.14767237 0.63875002
-0.0041611828 -0.13231409 0.63289654
0.0012019048 -0.13281047 0.63100004
0.028845716 -0.1352143 0.63100004
0.032464027 -0.13484733 0.63123083
-0.011590857 -0.12451988 0.63386667
-0.0061731809 -0.12546426 0.63274008
0.00051510212 -0.12808871 0.63100004
-0.011472382 -0.11895048 0.634
-0.0082339682 -0.11886953 0.63250005
-0.081940316 0.067133762 0.6388889
-0.074624114 0.066732816 0.63700014
-0.064755253 0.066631734 0.63351226
-0.083449535 0.07505729 0.63871431
-0.074435197 0.074998565 0.63625711
-0.065498687 0.075145185 0.63190591
-0.090068571 0.086417153 0.63900006
-0.08438018 0.084721908 0.63787508
-0.075632207 0.084728554 0.63386893
-0.065920621 0.084460743 0.63160366
-0.086417146 0.090068571 0.63900006
-0.077676669 0.090321437 0.63225001
-0.065864377 0.090623617 0.63100004
-0.013072382 -0.22147277 0.64740002
-0.0054119257 -0.22284792 0.64699996
0.0041383677 -0.22274192 0.64696437
0.011725714 -0.22093715 0.648
-0.015087619 -0.2145354 0.64592612
-0.0054450496 -0.2148876 0.64301604
0.0048075626 -0.21499906 0.64433837
0.013271919 -0.21473081 0.64766663
-0.020978812 -0.2054693 0.64787495
-0.015369225 -0.20503332 0.6448096
-0.0058226194 -0.20502123 0.6408928
0.0050881417 -0.20518887 0.64151603
0.015386767 -0.20489341 0.64605182
0.025091104 -0.20438619 0.64705664
0.031093333 -0.20164715 0.64649999
-0.020978812 -0.19559738 0.64787495
-0.01533491 -0.19496797 0.64376581
-0.008313681 -0.19592106 0.64013654
0.0080290483 -0.19817269 0.64024997
0.015485783 -0.19508593 0.64283937
0.025075052 -0.19492932 0.64519382
0.032497507 -0.1952735 0.64569241
-0.02158381 -0.18499953 0.64750004
-0.016007688 -0.18528587 0.64342612
0.017385395 -0.18531168 0.64081824
0.0252022 -0.18488652 0.64222437
0.032673657 -0.18504602 0.64255577
-0.021177666 -0.17535931 0.64709091
-0.016556593 -0.17505842 0.64308524
0.019504763 -0.17859048 0.64000005
0.025386447 -0.17585655 0.64053845
0.033690635 -0.17447482 0.64084452
0.040228572 -0.17066668 0.64000005
-0.020950478 -0.16883619 0.64700001
-0.016476963 -0.16589013 0.64285731
0.026899947 -0.16613805 0.64023542
0.034469023 -0.1666705 0.64044178
0.040228572 -0.16944763 0.64000005
0.06628409 -0.14065634 0.6461429
0.067850165 -0.13940255 0.64766669
0.071588576 -0.13885716 0.648
-0.1131812 0.063374773 0.64762497
-0.10404249 0.06632401 0.64719999
-0.095311627 0.067019187 0.64562517
-0.087135591 0.067070916 0.64181828
-0.10429409 0.075125143 0.64719999
-0.095150888 0.075058356 0.6435442
-0.088404953 0.07425157 0.64046675
-0.10383397 0.083961129 0.64606982
-0.0948558 0.08477857 0.64111453
-0.088787302 0.084520638 0.6400001
-0.094533816 0.090262391 0.64037502
-0.088380955 0.090209529 0.64000005
-0.005251809 -0.23180367 0.65640008
0.0053424099 -0.23432255 0.65764701
0.01400642 -0.23356496 0.65618426
0.021144763 -0.23010477 0.65300006
-0.021493334 -0.22113335 0.65100002
-0.016182186 -0.22318457 0.65052938
-0.0055783335 -0.22712158 0.65068746
0.0065624244 -0.22757089 0.65318185
0.015813773 -0.22508782 0.65217322
0.024368431 -0.22350243 0.65270007
-0.023557568 -0.21493298 0.65183342
-0.01950762 -0.21829858 0.65025002
0.018090408 -0.21522309 0.65017843
0.025307555 -0.21481934 0.65137964
-0.025129082 -0.20510125 0.65261728
0.028476194 -0.2092381 0.65000004
-0.024617376 -0.19568202 0.65396971
-0.024486775 -0.18605821 0.64999992
-0.022993334 -0.17772034 0.65250009
-0.022351112 -0.1637689 0.65800005
0.048204131 -0.15149939 0.65733337
0.052548405 -0.15109196 0.65409094
0.048880003 -0.14914668 0.65800005
0.05515461 -0.14634158 0.6538049
0.062949397 -0.14089443 0.65542859
0.067178637 -0.13772176 0.65526086
0.072389118 -0.13461994 0.65561295
-0.041683428 -0.12157486 0.65530008
-0.038853336 -0.12408 0.65800005
-0.045862742 -0.11601368 0.65451527
-0.12406815 0.067466743 0.65638471
-0.11532917 0.06714166 0.65213162
-0.1055205 0.066244662 0.65025795
-0.13165992 0.077446587 0.65772736
-0.12504548 0.075196154 0.65581679
-0.11473228 0.075037025 0.65115643
-0.10824492 0.071809523 0.65000004
-0.13295391 0.084540203 0.65780574
-0.12526728 0.085073292 0.65516996
-0.11478657 0.084712148 0.65146691
-0.10864287 0.085119046 0.65000004
-0.13177589 0.090843819 0.65783334
-0.12761493 0.091331422 0.65683335
-0.11346 0.090520002 0.65100002
-0.01016381 -0.24012001 0.66700006
-0.0037952382 -0.24066333 0.66325003
0.0044 -0.24011432 0.66000009
-0.021025714 -0.23383144 0.66900003
-0.014497366 -0.23537117 0.66786057
-0.0047376989 -0.23756969 0.66254175
0.002357262 -0.23748812 0.66012496
0.012571429 -0.23760001 0.66000003
-0.029308572 -0.20133716 0.66900003
-0.02864279 -0.19441921 0.66715395
-0.03345 -0.18455905 0.66900009
-0.027444201 -0.18489626 0.66737938
-0.031853162 -0.1747205 0.66891295
-0.025986668 -0.17457259 0.6634652
-0.031092573 -0.16846059 0.66900009
-0.025545891 -0.16523318 0.66230607
-0.025517145 -0.15865593 0.66257155
0.028627619 -0.1539581 0.66800004
0.035894476 -0.15217219 0.66714996
0.04316381 -0.1515137 0.66287506
-0.020962859 -0.14102286 0.66700006
-0.01815857 -0.14112715 0.66900003
0.037648764 -0.14869602 0.66780007
0.045861393 -0.14696313 0.66583729
0.054273587 -0.14291437 0.6648373
0.060853332 -0.14185397 0.66100001
-0.031858839 -0.13167113 0.66611111
-0.024549562 -0.13689432 0.66843992
-0.019114286 -0.13889715 0.66900003
0.058097303 -0.13845873 0.66791672
0.064888656 -0.13512373 0.66445845
0.071290292 -0.1312 0.66360009
-0.040228572 -0.12068572 0.66000003
-0.03555353 -0.12583558 0.66481262
0.06874159 -0.12984763 0.66833341
0.071993649 -0.12916508 0.66700006
-0.043575399 -0.1139641 0.6639716
-0.038585082 -0.11872508 0.66783333
-0.046758097 -0.10862905 0.6680001
-0.14207534 0.06695953 0.66390008
-0.13544494 0.065579422 0.66213048
-0.12906668 0.066209525 0.66000003
-0.15100287 0.077094287 0.66900003
-0.14493722 0.074908137 0.66534066
-0.13579088 0.074408919 0.66080385
-0.14506523 0.082493335 0.66592002
-0.13826111 0.084728219 0.66035992
-0.13603972 0.092410356 0.66071433
-0.023985026 -0.23297997 0.67117238
-0.019142859 -0.23481905 0.67000002
-0.031910475 -0.22394572 0.67279994
-0.027103813 -0.22607175 0.6722002
-0.034434818 -0.21493271 0.6744799
-0.029448763 -0.21638249 0.67220002
-0.034720883 -0.2050181 0.67364806
-0.029404953 -0.20711505 0.67119998
-0.033868317 -0.19516708 0.67173332
-0.0515581 -0.18087304 0.67666668
-0.044892523 -0.18086369 0.67342865
-0.033689525 -0.18454134 0.6703077
-0.062337831 -0.17380656 0.67878574
-0.054323751 -0.17478284 0.67535836
-0.04491986 -0.17518391 0.67378563
-0.036928456 -0.17519028 0.67075616
-0.071133338 -0.16770223 0.67900008
-0.06432686 -0.16545911 0.67812008
-0.054700736 -0.16466966 0.67512655
-0.044990417 -0.1649496 0.67554098
-0.035827387 -0.16727303 0.67429733
-0.054564871 -0.15909292 0.67844445
-0.046791542 -0.15875387 0.67822218
0.028778411 -0.15220605 0.67150009
0.031641696 -0.15210901 0.67044449
-0.013774118 -0.14195429 0.67211765
-0.0089866668 -0.14186096 0.67400002
0.029013334 -0.14933334 0.67200011
0.036392026 -0.14621778 0.67251855
0.044627339 -0.14253531 0.67254061
0.051047619 -0.14038096 0.67000002
-0.024060901 -0.13273759 0.67247367
-0.016103255 -0.13571401 0.67514598
0.046288539 -0.1369468 0.67781484
0.054694265 -0.13541199 0.67529839
0.062950961 -0.13178183 0.67391676
-0.032500319 -0.12263095 0.6723333
-0.026185412 -0.12688737 0.67597359
-0.018409049 -0.12886763 0.67825001
0.066931196 -0.12774494 0.67804348
0.07125143 -0.12902287 0.67400002
-0.041091431 -0.11220223 0.67066669
-0.036003094 -0.1158201 0.67464453
-0.042536184 -0.10710659 0.67345834
-0.039916191 -0.10944762 0.67600006
-0.0928635 0.057553452 0.67816669
-0.084866598 0.055661071 0.67593598
-0.075823575 0.055885337 0.67728001
-0.069285721 0.057830483 0.67900002
-0.10139733 0.064408004 0.67900002
-0.095268354 0.063866809 0.67738104
-0.085431367 0.063730575 0.67521262
-0.075367264 0.063774228 0.67641664
-0.069044106 0.064268731 0.67900002
-0.15059048 0.07912381 0.67000002
-0.15059048 0.080400005 0.67000002
-0.057358097 -0.18049428 0.68050003
-0.084975243 -0.17082033 0.68633342
-0.07188572 -0.17097144 0.68000001
-0.065588877 -0.17421439 0.68052
-0.059580956 -0.17874287 0.68000001
-0.09055429 -0.16207905 0.68900001
-0.084683709 -0.1649106 0.6857695
-0.075177103 -0.16438787 0.68184739
-0.067957342 -0.16288611 0.68086672
-0.040800005 -0.16190478 0.68000001
-0.037561908 -0.16320001 0.68000001
-0.090816773 -0.1566983 0.68900007
-0.085131377 -0.15732852 0.6872502
-0.07456179 -0.15613872 0.68575019
-0.065489627 -0.15662961 0.68385011
-0.055355523 -0.15736516 0.68047065
0.048758861 -0.13252801 0.68080002
0.053378236 -0.13094479 0.68114299
-0.024119664 -0.12279255 0.68241191
-0.018110974 -0.12416433 0.68339127
0.049363811 -0.12990476 0.68200004
0.056173015 -0.12645733 0.68586946
0.063368067 -0.1249147 0.68316674
-0.033343144 -0.11238492 0.68314821
-0.026040001 -0.11631751 0.68585098
-0.017529787 -0.11669125 0.6862728
-0.035683572 -0.10683209 0.68371886
-0.10068668 0.04903524 0.68650007
-0.094428882 0.046781898 0.68628967
-0.086785778 0.048019152 0.6843158
-0.12205144 0.059057146 0.68900001
-0.11413773 0.055985864 0.68597513
-0.10453887 0.05597749 0.68284309
-0.095924005 0.054088973 0.68243605
-0.086626478 0.051092189 0.68080002
-0.12193064 0.062693752 0.6877858
-0.11485319 0.063344412 0.68475693
-0.10548163 0.062996641 0.68138462
-0.099733338 0.060876194 0.68000001
-0.093855239 -0.17052571 0.69400001
-0.10177958 -0.16319163 0.69393337
-0.09485817 -0.16479708 0.69082624
-0.089371435 -0.16954286 0.69000006
-0.1121723 -0.15270755 0.69775003
-0.10430763 -0.15469411 0.6943801
-0.09508539 -0.15433657 0.69068664
-0.084762737 -0.15234776 0.69083339
-0.078285009 -0.15196431 0.69075006
-0.11314297 -0.14477518 0.6974867
-0.10488606 -0.14535034 0.69617325
-0.095740743 -0.1457873 0.69515228
-0.086094864 -0.14796855 0.69113338
-0.11433905 -0.13472511 0.69800007
-0.10902096 -0.13960001 0.69800001
-0.11460495 -0.12843201 0.69800001
0.053934004 -0.12249672 0.69064713
0.06308572 -0.12288572 0.69000006
-0.023682011 -0.1120583 0.6907779
-0.017994286 -0.11202624 0.69384623
0.055023137 -0.11924926 0.69014293
-0.11766287 -0.1083562 0.69800001
-0.031641789 -0.10511714 0.69037509
-0.025106421 -0.10523687 0.69385207
-0.018711431 -0.10504496 0.6967501
-0.025092699 -0.099047624 0.69333339
-0.11832762 -0.087748572 0.69800001
-0.11839759 -0.074383363 0.69800001
-0.12203131 -0.065526538 0.69800007
-0.11734798 -0.065076701 0.69800001
-0.12147015 -0.055477403 0.69800001
-0.1152254 -0.05367336 0.69800001
-0.12165143 -0.041215241 0.69800001
-0.11433905 -0.046021987 0.69800007
-0.12170258 -0.036101688 0.69800007
-0.11308774 -0.035427898 0.69800001
-0.12202075 -0.027476827 0.69800001
-0.11744127 -0.025334815 0.69800001
-0.12142985 -0.012852064 0.69800007
-0.11788443 -0.013442964 0.69800001
-0.12098667 -0.0093066674 0.69800001
-0.11932476 -0.0083095245 0.69800001
-0.12459538 0.0034187757 0.69800007
-0.12342414 0.012187302 0.69800007
-0.12501457 0.026983051 0.69785005
-0.13067321 0.037036739 0.69800007
-0.12614347 0.034713116 0.69748735
-0.062177714 0.033878859 0.69750005
-0.058445029 0.033980608 0.6959092
-0.13128451 0.04651361 0.69771427
-0.12541801 0.045794144 0.69666672
-0.11634776 0.046713468 0.69600004
-0.14092954 0.059828572 0.69800001
-0.13411482 0.055684146 0.69607508
-0.12525859 0.054337382 0.69247305
-0.11767952 0.052162793 0.69160008
-0.14121144 0.062464766 0.69775003
-0.13446309 0.064277552 0.69251126
-0.12693135 0.063277639 0.69004786
-0.12017144 -0.15088192 0.70100003
-0.11618589 -0.15499409 0.70111775
-0.12056731 -0.14462826 0.70200008
-0.11814353 -0.14472492 0.70028573
-0.10177778 -0.14177778 0.70000005
-0.098000005 -0.14133334 0.70000005
-0.12258645 -0.13433295 0.70076013
-0.1149186 -0.1350442 0.7002669
-0.10508849 -0.13565615 0.70138991
-0.098283641 -0.13771775 0.7007274
-0.12391049 -0.12499868 0.70179582
-0.11487799 -0.12450431 0.70082724
-0.10741799 -0.12564896 0.70322216
-0.12361796 -0.11495247 0.70114642
-0.11493824 -0.11475289 0.70102006
-0.10782547 -0.11566392 0.70337039
-0.013858333 -0.11138453 0.70137501
-0.12366313 -0.10464848 0.70104367
-0.11455833 -0.10484882 0.70129102
-0.10874299 -0.10642515 0.70366675
-0.013421061 -0.10569973 0.70065731
-0.0090252385 -0.10429429 0.70200002
-0.12439375 -0.09453541 0.70114303
-0.11517492 -0.094700009 0.70024103
-0.10937797 -0.094705313 0.70028579
-0.12524755 -0.085020237 0.70123088
-0.11519952 -0.084509902 0.70055032
-0.10850685 -0.084437191 0.70204771
-0.12473993 -0.074710242 0.70040494
-0.11389075 -0.074973956 0.70029432
-0.10861596 -0.077250004 0.70074999
-0.13107809 -0.065371431 0.70400006
-0.12669297 -0.064843081 0.7013244
-0.11422222 -0.065259285 0.70000023
-0.13152096 -0.05073905 0.70100003
-0.12594071 -0.054685574 0.70116228
-0.11574592 -0.056903604 0.70018196
-0.10980191 -0.056909524 0.70300001
-0.13173629 -0.044322066 0.70512509
-0.12468625 -0.045278404 0.70204002
-0.1165864 -0.043537084 0.7001614
-0.13227838 -0.0359913 0.70350009
-0.12643912 -0.034464814 0.70086861
-0.11777263 -0.034412194 0.70023346
-0.13090669 -0.024047621 0.70128578
-0.126017 -0.024136174 0.70063853
-0.11632036 -0.024548644 0.70014822
-0.13174027 -0.013534832 0.70064294
-0.12567611 -0.014794456 0.70060891
-0.11639215 -0.01592157 0.69999993
-0.13281053 -0.0051941453 0.70114827
-0.12520416 -0.005103007 0.70058846
-0.11645703 -0.0050177206 0.7015456
-0.13261865 0.0050588436 0.70125014
-0.12468971 0.0048208861 0.70033371
-0.11650342 0.0040820055 0.70284206
-0.13291727 0.014651005 0.70170391
-0.125139 0.015071737 0.70034063
-0.11699945 0.014557621 0.70075017
-0.13337485 0.024574101 0.70097315
-0.12453268 0.023584234 0.70055836
-0.11778124 0.024714898 0.70204002
-0.13347739 0.034482468 0.70075011
-0.1215461 0.035175238 0.70085001
-0.1177004 0.034771618 0.70219058
-0.081106946 0.036026128 0.70800006
-0.075760894 0.036551129 0.70665634
-0.066059105 0.035980854 0.70188224
-0.058580004 0.038380004 0.70700002
-0.13580605 0.044401061 0.70134217
-0.12228922 0.041949108 0.70038885
-0.11801593 0.04220866 0.70045453
-0.081930846 0.045824561 0.70757896
-0.075127341 0.045192491 0.7060349
-0.065069251 0.044926271 0.70604861
-0.05746194 0.045478426 0.70724154
-0.14182813 0.055867687 0.7009232
-0.13846095 0.054006033 0.70008326
-0.082243815 0.051907938 0.70783329
-0.074385196 0.053233232 0.7052592
-0.065218851 0.055135492 0.70603603
-0.057917602 0.055078495 0.70800012
-0.14346668 0.061066668 0.70000005
-0.070026666 0.066660002 0.70700002
-0.064614274 0.064779088 0.70492995
-0.057143215 0.065050416 0.70693767
-0.068055242 0.07007619 0.70749998
-0.11367048 0.019173333 0.71900004
-0.10665167 0.018659763 0.71899998
-0.11430456 0.024924742 0.71879476
-0.10560581 0.024883732 0.71882606
-0.096779689 0.025564447 0.71900004
-0.089019053 0.023966666 0.71900004
-0.11436316 0.035009004 0.71827257
-0.10537921 0.034895994 0.71850008
-0.097167723 0.036566287 0.71899992
-0.08604873 0.035642028 0.71445155
-0.11364153 0.044469334 0.71734273
-0.10552689 0.044676851 0.71718156
-0.095064282 0.04279913 0.71808332
-0.086262599 0.044677891 0.71157163
-0.11171401 0.052433204 0.71900004
-0.10839641 0.052146673 0.71833336
-0.056292858 0.056292851 0.71000004
-0.11372267 0.016530097 0.72020024
-0.10742858 0.016761905 0.72000009
-0.11474287 0.021028575 0.72000003
-0.10182858 0.022285715 0.72000003
-0.095284723 0.025279675 0.72068274
-0.088622853 0.026673095 0.72275007
-0.11314286 0.033600003 0.72000003
-0.094416201 0.034225285 0.72004527
-0.088457145 0.03017143 0.72000003
-0.11588572 0.048685715 0.72000003
-0.091885716 0.042971432 0.72000003
-0.11485049 0.05284889 0.72066683
