# .PCD v0.7 - Point Cloud Data file format
VERSION 0.7
FIELDS x y z
SIZE 4 4 4
TYPE F F F
COUNT 1 1 1
WIDTH 564
HEIGHT 1
VIEWPOINT 0 0 0 1 0 0 0
POINTS 564
DATA ascii
-0.13190678 0.067031845 0.61738884
-0.12501316 0.065851979 0.61614799
-0.11479156 0.066410542 0.61570579
-0.10489007 0.066114262 0.61757636
-0.097847633 0.067687631 0.61891663
-0.1451419 0.079916194 0.61700004
-0.13280255 0.075040534 0.61737204
-0.12467235 0.074917354 0.6145696
-0.11469366 0.074863032 0.61412472
-0.1050064 0.075024173 0.61597329
-0.095359601 0.075261191 0.6173898
-0.088811904 0.076151915 0.61825001
-0.14439875 0.081590794 0.61633343
-0.13341531 0.084190235 0.61743897
-0.12472817 0.084888943 0.61515886
-0.11476147 0.084913068 0.61445057
-0.10488398 0.084757924 0.6147033
-0.095401742 0.084861204 0.61704379
-0.088928103 0.081861913 0.618375
-0.12274478 0.09127783 0.61333334
-0.11504491 0.090262868 0.61542869
-0.10484952 0.090200007 0.61500001
-0.097386666 0.090786673 0.61600012
0.018570477 -0.12220572 0.62900001
0.021312002 -0.12260725 0.6286
-0.13635048 0.06935747 0.62066674
-0.12872382 0.06259048 0.62
-0.093770936 0.066148572 0.62134033
-0.085041277 0.066657089 0.62417769
-0.075246997 0.065689594 0.62591779
-0.065206639 0.06625656 0.62757158
-0.05748887 0.06644585 0.62834489
-0.031100953 0.062201906 0.62800002
-0.026474835 0.062344495 0.62771434
-0.14182979 0.076623559 0.625
-0.13813691 0.075291902 0.6225
-0.090933338 0.070857145 0.62
-0.084304616 0.074505851 0.6215232
-0.074974515 0.074974976 0.62481481
-0.065153152 0.074958682 0.62639123
-0.056990575 0.075094022 0.62781829
-0.15055177 0.085972711 0.62400007
-0.14488931 0.085576214 0.62303704
-0.13814667 0.085663565 0.62099999
-0.090487622 0.087531433 0.62099999
-0.084469222 0.084821038 0.62159026
-0.074775122 0.084865056 0.62315303
-0.064844437 0.085007608 0.6259551
-0.056313988 0.085435726 0.62793094
-0.046117358 0.088110469 0.62794447
-0.14284912 0.091061376 0.62266672
-0.13782731 0.090963379 0.62200004
-0.082863636 0.091435745 0.62200004
-0.075440548 0.090958372 0.62209523
-0.063864768 0.090921208 0.62509096
-0.054973975 0.091399759 0.62753344
-0.045818102 0.094846554 0.62652624
-0.041334286 0.10123906 0.62900001
0.023856003 -0.13023429 0.63900006
0.032254286 -0.13023429 0.63900006
0.049130112 -0.13307372 0.63869238
0.053285401 -0.13371873 0.63820028
-0.0042576194 -0.12040286 0.63850003
0.0055568251 -0.12338303 0.63687497
0.015773939 -0.1261865 0.63727266
0.025002416 -0.12634073 0.63410008
0.031136192 -0.12777334 0.63683337
0.046267617 -0.12731437 0.63840008
0.051525719 -0.12861145 0.63900006
-0.0036400002 -0.1187728 0.63628578
0.00096914294 -0.11937219 0.63560003
-0.064301908 0.062499054 0.63100004
-0.052367728 0.067731425 0.63122231
-0.04529696 0.066888541 0.63417518
-0.035176799 0.066254154 0.63592005
-0.024859199 0.06674213 0.63646173
-0.018257145 0.066942863 0.63900006
-0.052162733 0.074573129 0.63110745
-0.045037273 0.074890703 0.63240576
-0.035078131 0.074997798 0.63506162
-0.024990276 0.074872561 0.63708961
-0.017127741 0.074698582 0.63800013
-0.052026998 0.084080741 0.63139147
-0.044928141 0.083689764 0.63181257
-0.034906667 0.08507058 0.6348694
-0.024628803 0.084975123 0.63733357
-0.017970417 0.08519575 0.63750011
-0.0073028575 0.08033143 0.63900006
-0.044470482 0.096553028 0.63100004
-0.03455162 0.094503239 0.63460004
-0.025324391 0.092576571 0.63695651
-0.018361142 0.09108305 0.63420004
0.0068971436 0.094125718 0.63900006
-0.044129144 0.10152115 0.63300002
-0.039061908 0.10096 0.63100004
-0.0027139049 -0.13096 0.64740002
0.0059402641 -0.13297391 0.64538908
0.015158503 -0.13390318 0.64407164
0.025317168 -0.13413413 0.64434308
0.03374261 -0.13452531 0.64560872
0.044033483 -0.1338219 0.64500004
-0.013397422 -0.12200774 0.64623535
-0.0052647619 -0.12511732 0.64382231
0.0038448672 -0.12712109 0.64148164
0.013902858 -0.12891392 0.64030004
0.042925715 -0.12898064 0.64083338
-0.014273994 -0.11840074 0.64492309
-0.0085572498 -0.11857567 0.64177781
-0.14070858 0.0098742861 0.648
-0.13947429 0.0098742861 0.648
-0.14070858 0.011108572 0.648
-0.11837016 0.019728255 0.64733338
-0.1204 0.020885715 0.64500004
-0.11849143 0.020982858 0.648
-0.13425289 0.046985041 0.64714712
-0.12653397 0.048066135 0.64705551
-0.14214475 0.055889592 0.64653844
-0.13455571 0.054680202 0.64512527
-0.12513913 0.054973118 0.64629507
-0.11514243 0.055615645 0.64724517
-0.10734238 0.055372171 0.64775753
-0.14271609 0.06493067 0.64681077
-0.13485856 0.062469702 0.64443272
-0.12444613 0.062881343 0.64578056
-0.11546759 0.062538527 0.64625001
-0.10769411 0.062853336 0.64764994
-0.013339549 0.068057835 0.6428948
-0.0059163217 0.068154603 0.64331043
0.0048998948 0.069175236 0.64277786
0.01104 0.069920003 0.64400005
-0.013316371 0.075139157 0.64109385
-0.0054995827 0.075209945 0.64204681
0.0047965441 0.075455934 0.6451717
0.014584799 0.07497976 0.64739132
-0.013329742 0.084410384 0.64120013
-0.0053005004 0.084714577 0.64157641
0.005034416 0.085207373 0.64479756
0.014409805 0.084532611 0.64735168
0.020982858 0.082697146 0.648
-0.027123809 0.093561903 0.64000005
-0.0026453971 0.090757474 0.64100003
0.0040863804 0.093624465 0.64525002
0.013156827 0.090854928 0.64750004
0.0053992388 -0.14135671 0.65520012
0.015394546 -0.14338903 0.65597308
0.024700897 -0.14287882 0.65456253
0.033863373 -0.14194186 0.65520012
0.042995982 -0.14164636 0.65744448
-0.012794727 -0.13255987 0.65653855
-0.005553307 -0.13451248 0.65402853
0.0031593069 -0.1373091 0.65236372
0.016749844 -0.13895112 0.65133333
0.025418811 -0.13888001 0.65100002
0.036788166 -0.13811754 0.65157145
0.043092247 -0.13850123 0.65171432
-0.13034667 -0.1222 0.65800005
-0.12297411 -0.12179452 0.65800005
-0.11906667 -0.12157334 0.65800005
-0.022735147 -0.12354418 0.65580004
-0.016023263 -0.12589641 0.65303046
-0.0094971433 -0.12841523 0.6503334
-0.13118224 -0.11739556 0.65800011
-0.12282667 -0.11468001 0.65800005
-0.023015715 -0.11817716 0.65308338
-0.018780239 -0.11780286 0.65187496
-0.13160001 -0.10152001 0.65800011
-0.12454019 -0.10455915 0.65797168
-0.11864889 -0.10862224 0.65800011
-0.13194515 -0.093790859 0.65785003
-0.12484892 -0.094391622 0.65772188
-0.11425123 -0.094461747 0.65800005
-0.13281257 -0.084603779 0.65764123
-0.12471282 -0.084826887 0.6574837
-0.11787271 -0.082376033 0.65775001
-0.13281755 -0.074883327 0.6566841
-0.12468892 -0.075153619 0.65628809
-0.11803733 -0.07527519 0.65744448
-0.13340391 -0.064508401 0.65762526
-0.12454831 -0.064986244 0.65684515
-0.11869067 -0.065424003 0.65800005
-0.13390745 -0.054575562 0.6562683
-0.12497428 -0.054888442 0.65567231
-0.11810255 -0.054723173 0.65729165
-0.13361387 -0.045279749 0.65640539
-0.12489358 -0.045499496 0.65533781
-0.11666214 -0.046366535 0.65790474
-0.13413525 -0.035087291 0.65538299
-0.12500966 -0.035610233 0.65437317
-0.11925848 -0.034630861 0.65630001
-0.13410771 -0.025160249 0.65487254
-0.12533161 -0.025563963 0.65471864
-0.1193764 -0.026039619 0.65420002
-0.14098096 -0.011852382 0.65500003
-0.13501726 -0.015468194 0.65432781
-0.12560704 -0.015143235 0.65373218
-0.11977144 -0.011852382 0.65500003
-0.14150445 -0.0085314289 0.65550005
-0.1352516 -0.0056105955 0.65442169
-0.12514184 -0.0056055342 0.65375006
-0.11979429 -0.005615714 0.65512508
-0.14098096 0.004366667 0.65500003
-0.13504389 0.0049772211 0.65341657
-0.1248718 0.0049702381 0.65233356
-0.11956246 0.0037363269 0.65385717
-0.14172593 0.016726349 0.65299994
-0.13489667 0.015409467 0.65189427
-0.12546712 0.015699537 0.65170407
-0.11885715 0.018571429 0.65000004
-0.14196841 0.025574956 0.65494996
-0.13481161 0.025471279 0.65229708
-0.12540783 0.02546422 0.65342373
-0.11885715 0.022285715 0.65000004
-0.14270078 0.03564588 0.65329415
-0.13480172 0.035408545 0.65226591
-0.12659347 0.035279572 0.65373343
-0.1416766 0.045107871 0.65215796
-0.13511206 0.042883083 0.65096545
-0.12559627 0.044417899 0.65109116
-0.093889229 0.048866086 0.65653861
-0.088760957 0.049380954 0.65633339
-0.15004 0.059520002 0.65100002
-0.1472322 0.057085332 0.65010005
-0.12108572 0.051257145 0.65000004
-0.11458009 0.051437229 0.6500001
-0.10241373 0.055096991 0.65174997
-0.095262155 0.055208743 0.65363646
-0.085579485 0.05541246 0.65622735
-0.078960001 0.058280002 0.65800005
-0.15004 0.060760003 0.65100002
-0.14728262 0.062831178 0.65027279
-0.10283923 0.062874466 0.65013629
-0.094836816 0.063194506 0.65259469
-0.085199103 0.06283538 0.65531582
-0.078422859 0.062308572 0.65800011
0.019317335 0.076649904 0.65010011
0.024005903 0.076980032 0.65319359
0.019411748 0.085496038 0.65050006
0.024871532 0.085278988 0.6527409
0.030544002 0.085372962 0.65720004
0.023856189 0.091615245 0.6518572
-0.112176 -0.16115697 0.66619998
-0.10339114 -0.16439565 0.6672858
-0.095289305 -0.16254561 0.66815633
-0.088562869 -0.1618343 0.66900009
-0.12177333 -0.15079762 0.66250002
-0.11456066 -0.15443423 0.66410017
-0.10459841 -0.15511777 0.66507733
-0.095475398 -0.15492626 0.66787505
-0.08894515 -0.156992 0.66900009
-0.0016990476 -0.1507905 0.66900003
0.0053222729 -0.15316877 0.66651613
0.01456411 -0.15346031 0.66639495
0.024316844 -0.15328903 0.66750002
0.034026541 -0.15222275 0.66820002
0.040777143 -0.15100287 0.66900003
-0.12445293 -0.14474091 0.66269064
-0.11545488 -0.1448288 0.6622541
-0.10563224 -0.14549041 0.66598463
-0.095996194 -0.14909145 0.66900003
-0.011334026 -0.14246857 0.66781825
-0.0048073689 -0.14465235 0.6653685
0.0039223279 -0.14660656 0.66255552
0.013155606 -0.14771782 0.66023082
0.025400639 -0.14818133 0.66226673
0.035250016 -0.14715795 0.66322583
0.04270095 -0.14491534 0.66155559
-0.13007429 -0.13260001 0.66300005
-0.12520218 -0.13543071 0.66175401
-0.11508869 -0.13521756 0.66104811
-0.10720251 -0.13783778 0.6642105
-0.021632258 -0.13377537 0.66546667
-0.015674694 -0.13580158 0.66385722
-0.0065063494 -0.13933462 0.66100001
-0.13074286 -0.12592381 0.66000009
-0.12575133 -0.12617955 0.6601913
-0.11489798 -0.12539454 0.66138798
-0.10931017 -0.12297271 0.66216677
-0.031698734 -0.12108826 0.6656667
-0.025936071 -0.12574518 0.6633479
-0.018857144 -0.12948573 0.66000003
-0.13141496 -0.11447826 0.66046154
-0.12622698 -0.11503702 0.66004992
-0.11501259 -0.11537248 0.66207343
-0.1085482 -0.11588852 0.66420007
-0.032141797 -0.11840149 0.66600007
-0.027928676 -0.11816678 0.66311115
-0.13210577 -0.10635216 0.66052949
-0.12529431 -0.10509118 0.66006893
-0.11554269 -0.10518997 0.66158164
-0.10970286 -0.10907239 0.66200006
-0.13325715 -0.094628572 0.66000003
-0.12110477 -0.098895237 0.66000003
-0.1163255 -0.095127992 0.66002768
-0.11594702 -0.086154468 0.66031241
-0.11754286 -0.0704 0.66000003
-0.11602851 -0.063951902 0.66078115
-0.11500658 -0.053974081 0.66015381
-0.12068572 -0.040228572 0.66000003
-0.11604396 -0.045257147 0.66000003
-0.13964859 -0.03145143 0.66050005
-0.11817143 -0.038971432 0.66000003
-0.10250825 0.047025099 0.66200006
-0.096688144 0.045908917 0.66118187
-0.10308573 0.050285719 0.66000003
-0.080771431 0.054057144 0.66000003
-0.078697145 0.055565715 0.66000003
-0.010346667 -0.21081334 0.67900002
-0.006651429 -0.21136762 0.67900002
-0.011074167 -0.20523585 0.67899996
-0.0053183464 -0.20468129 0.67881179
0.0022992596 -0.20334072 0.67900008
-0.011455237 -0.19424637 0.67899996
-0.0052451049 -0.19494842 0.67816001
0.0035912814 -0.19472896 0.67853338
-0.011121651 -0.18467024 0.67893332
-0.0051652216 -0.18522042 0.67762977
0.0045527695 -0.18523639 0.67740703
0.010508333 -0.18510833 0.67899996
-0.10071429 -0.17271429 0.67500007
-0.095163614 -0.1728849 0.67425805
-0.084935419 -0.17349666 0.67336577
-0.074416116 -0.17291063 0.67257577
-0.065471269 -0.17373635 0.6766113
-0.054611817 -0.17441034 0.67816681
-0.047619544 -0.17467852 0.67886961
-0.011298044 -0.17545715 0.6788947
-0.0052329102 -0.17504512 0.67683327
0.0043486692 -0.1754099 0.67611849
0.0122817 -0.1749894 0.67871439
-0.10688096 -0.16654287 0.67000002
-0.094313785 -0.16724457 0.67069566
-0.084395647 -0.16516161 0.67052943
-0.074862957 -0.16478793 0.67161554
-0.06483268 -0.16508338 0.67553711
-0.055573337 -0.16579378 0.67822021
-0.04754902 -0.16683999 0.67899996
-0.010862476 -0.16668591 0.67889994
-0.0051614903 -0.16503042 0.67689103
0.0044498565 -0.1653192 0.67512685
0.014372605 -0.16545218 0.67668086
0.023003982 -0.16220832 0.67781818
-0.091191754 -0.15345144 0.67011118
-0.084643021 -0.15512197 0.6710847
-0.07527113 -0.15592895 0.67339224
-0.06559515 -0.15737629 0.67616123
-0.058200002 -0.15778667 0.67899996
-0.012532468 -0.15188435 0.67627281
-0.0051999558 -0.15535465 0.67416281
0.0031220107 -0.15749758 0.67133337
0.014284882 -0.15865596 0.67037505
0.023939049 -0.15846559 0.67333335
0.036175873 -0.15449652 0.67033333
-0.10132953 -0.14446478 0.67000002
-0.09648677 -0.14747496 0.67005008
-0.089466669 -0.14953715 0.671
-0.020571429 -0.14142857 0.67500001
-0.015126228 -0.14523327 0.67362165
-0.0079173343 -0.14889295 0.67040008
-0.020449525 -0.13931239 0.671
-0.01917143 -0.13931239 0.671
0.015326858 -0.13082133 0.67600006
0.023704764 -0.13080986 0.67883337
-0.029352382 -0.12825716 0.67000002
-0.0012933334 -0.12416001 0.67900002
0.0075994367 -0.12502152 0.67748153
0.014673475 -0.12535572 0.67709863
0.025088178 -0.12514274 0.67767292
0.031542223 -0.12359195 0.67744446
-0.034500573 -0.11691087 0.67080003
-0.0019396192 -0.11365105 0.67879999
0.0043035327 -0.1152214 0.67808354
0.014161957 -0.11678492 0.67435139
0.024562143 -0.11932191 0.67450005
-0.12502223 0.038368892 0.67900008
-0.1248498 0.042162675 0.67900002
-0.013892431 -0.22206475 0.68578953
-0.0055352389 -0.22369094 0.68547994
0.0043334067 -0.22272274 0.68703842
0.010499048 -0.22179238 0.68900001
-0.023462702 -0.21408123 0.68741673
-0.015081909 -0.21506101 0.6830588
-0.0049458509 -0.21603683 0.68147618
0.0047579482 -0.2149412 0.68294221
0.013239684 -0.21481138 0.68730575
-0.02353733 -0.20511904 0.68634999
-0.016175238 -0.20485051 0.6820001
-0.0025904763 -0.20982859 0.68000001
0.0061477879 -0.20626955 0.68120593
0.014123454 -0.20450881 0.6843127
-0.023499101 -0.19491951 0.68631607
-0.016655875 -0.19495982 0.68189752
0.0083133345 -0.19606128 0.68016666
0.014464266 -0.19482623 0.68371993
0.020998096 -0.19029525 0.68900001
-0.06625016 -0.18218181 0.68644452
-0.050514288 -0.18003809 0.68000001
-0.04921905 -0.18003809 0.68000001
-0.034909334 -0.18137106 0.68900007
-0.023765296 -0.18498281 0.68746334
-0.016399669 -0.18523893 0.68267393
0.015563108 -0.18487214 0.68183666
0.022271473 -0.1838284 0.68585718
-0.10102858 -0.17615239 0.68000001
-0.06431064 -0.17844415 0.68091667
-0.059580956 -0.17874287 0.68000001
-0.042662136 -0.1738971 0.68306899
-0.034731228 -0.17505932 0.68700016
-0.025023447 -0.17509073 0.68717331
-0.016402164 -0.1747842 0.68247736
0.01744521 -0.17546786 0.68170011
0.022345578 -0.17452353 0.68619055
-0.053134736 -0.16199951 0.68040013
-0.044340421 -0.16443643 0.68288374
-0.037564445 -0.16832297 0.68800002
-0.024310639 -0.1654584 0.68668765
-0.015702151 -0.16446134 0.6825555
0.019104764 -0.16773334 0.68000001
0.022769934 -0.16719347 0.68307143
-0.053196192 -0.15894668 0.68119997
-0.047870796 -0.1589943 0.68233341
-0.023954706 -0.15480146 0.68646353
-0.01567143 -0.1560303 0.68276197
-0.023967674 -0.14579225 0.68585724
-0.01914762 -0.1483081 0.68150002
-0.024102857 -0.13875429 0.68400002
0.028523814 -0.13159493 0.68066669
0.035170287 -0.13207161 0.68379992
-0.0033453635 -0.12315026 0.68094748
0.0027315649 -0.12357566 0.68060738
0.029790478 -0.12952381 0.68000001
0.035394508 -0.12709188 0.68138468
0.040285241 -0.12670381 0.68225002
-0.010934095 -0.11298933 0.68340009
-0.0056574526 -0.11498734 0.68224335
0.00064761908 -0.11916191 0.68000001
-0.12267132 0.026994079 0.68325919
-0.1192294 0.025565716 0.68571436
-0.10537308 0.026699215 0.68739152
-0.098653339 0.028746668 0.68600005
-0.12368278 0.03463801 0.68222743
-0.11846296 0.035417143 0.68633342
-0.10454413 0.033651829 0.68830949
-0.096048228 0.035126407 0.68676615
-0.12394828 0.045472734 0.68102634
-0.11895338 0.045584943 0.68557143
-0.096325137 0.041973811 0.6886251
-0.12333734 0.051099997 0.68090004
-0.11831429 0.051641908 0.68637502
-0.031506669 -0.23087239 0.69500011
-0.024519311 -0.23221177 0.6959092
-0.015049274 -0.23337457 0.69655269
-0.0058089984 -0.23349047 0.69648284
0.0011355103 -0.23284246 0.69571435
-0.033481061 -0.22444057 0.69538885
-0.025297811 -0.22503535 0.69415236
-0.016632471 -0.22649504 0.69190478
-0.0039561908 -0.2286903 0.6924001
0.0018506668 -0.22789752 0.69400001
-0.041136511 -0.21231684 0.69666672
-0.035123739 -0.21498139 0.69379681
-0.026887713 -0.2157151 0.69095242
-0.041514806 -0.20349559 0.69290906
-0.034751356 -0.20463479 0.69191706
-0.028280685 -0.20519975 0.69057155
0.021937143 -0.20208763 0.69800001
-0.041808382 -0.19898592 0.69460005
-0.0350109 -0.19457918 0.69087946
-0.028257139 -0.19517145 0.69000018
0.019103335 -0.1972781 0.69162506
0.022070341 -0.19523972 0.6932143
-0.065261289 -0.18664302 0.69176477
-0.040979054 -0.18638858 0.69400001
-0.034683634 -0.18629712 0.69120473
-0.028147619 -0.18586192 0.69000006
0.025686476 -0.1832023 0.69500005
-0.032857142 -0.17118572 0.69000006
0.026611034 -0.17508082 0.69550008
-0.032914881 -0.16609368 0.69034398
-0.028257145 -0.16231428 0.69000006
-0.030228572 -0.15837143 0.69000006
-0.028520001 -0.15587428 0.69000006
-0.030250477 -0.14270429 0.69050002
-0.028365988 -0.14474097 0.69035727
-0.11434405 0.026590774 0.69150007
-0.10286722 0.025233276 0.69082361
-0.097644448 0.02542381 0.69041669
-0.11382615 0.034748044 0.69093639
-0.10689524 0.03789524 0.69000006
-0.091080002 0.036994833 0.69014293
-0.088031165 0.037622452 0.69128573
-0.11419127 0.045203127 0.69125527
-0.10716923 0.043197244 0.69035017
-0.09317641 0.045486055 0.69071454
-0.086613618 0.045480821 0.69084626
-0.11333186 0.052369229 0.69000012
-0.093147948 0.050306987 0.69200003
-0.085782483 0.052276697 0.69073337
-0.0028148151 -0.23748149 0.70000005
0.0051872022 -0.23377949 0.70196891
0.012294764 -0.23226385 0.70416677
0.0093866671 -0.22930287 0.70400006
0.011398096 -0.22930287 0.70400006
0.024913333 -0.21008001 0.70700002
0.025069434 -0.20374173 0.7010324
0.027096696 -0.19516386 0.70194113
0.031875327 -0.19283481 0.70527273
0.027720364 -0.18571475 0.70095247
0.033632442 -0.18363613 0.70193762
0.040057145 -0.18226001 0.70100003
0.029111113 -0.17555557 0.70000005
0.033738367 -0.17484981 0.70197427
0.028655237 -0.16706617 0.70118189
0.034160282 -0.16655424 0.70317638
-0.046114076 -0.103309 0.70744443
-0.046525717 -0.099794291 0.708
0.058160007 -0.14208817 0.71728575
0.06180254 -0.1409854 0.71400005
0.058889527 -0.13969143 0.71900004
0.0661484 -0.13707441 0.71653116
0.072316788 -0.13478114 0.71705264
-0.041697145 -0.11104032 0.71383345
-0.037263032 -0.11291482 0.71500003
-0.042882565 -0.1051509 0.71330446
-0.039605714 -0.10925715 0.71700001
-0.046657145 -0.098047629 0.71000004
0.046710897 -0.14075513 0.72844446
0.05367643 -0.14108263 0.72262508
0.047715001 -0.13733383 0.72875005
0.055538461 -0.13676617 0.72530764
0.064106353 -0.13345024 0.72360009
0.072048575 -0.13037619 0.72050005
-0.031114288 -0.12030858 0.72600001
-0.027747814 -0.12209409 0.72840005
0.067717582 -0.12851152 0.7269091
0.071960829 -0.12878451 0.72257149
-0.033768259 -0.11431953 0.72537041
-0.029140001 -0.11864096 0.72850001
-0.040047623 -0.10495239 0.72500008
-0.037359402 -0.10684532 0.72652632
-0.014330583 -0.13131176 0.73600006
-0.0098133339 -0.13037714 0.73600006
0.043860003 -0.1392381 0.73100001
0.055606842 -0.13217905 0.73400003
0.06112143 -0.13098095 0.7335
-0.023116283 -0.12283364 0.73242867
-0.015738828 -0.12497761 0.73569763
-0.0098044453 -0.12745906 0.73533338
0.057582226 -0.128507 0.73733342
0.06377463 -0.12743212 0.7337274
-0.031518571 -0.11179525 0.73137498
-0.025278168 -0.11512907 0.7349999
-0.016652454 -0.11651026 0.73800015
-0.033102028 -0.10568116 0.73213059
-0.027253579 -0.10657763 0.73791313
-0.012044763 -0.12045714 0.74400008
-0.0099333338 -0.12061905 0.74500006
0.057085715 -0.12756191 0.74000001
-0.021200001 -0.11094667 0.74200004
-0.014841554 -0.11322287 0.74370378
-0.0097349659 -0.11438314 0.74528575
-0.022593115 -0.10688895 0.74138469
-0.016233062 -0.10693403 0.74571443
-0.0091990484 -0.10826571 0.74300003
-0.012142858 -0.10571429 0.75000012
