# .PCD v0.7 - Point Cloud Data file format
VERSION 0.7
FIELDS x y z
SIZE 4 4 4
TYPE F F F
COUNT 1 1 1
WIDTH 505
HEIGHT 1
VIEWPOINT 0 0 0 1 0 0 0
POINTS 505
DATA ascii
-0.087493345 0.05955429 0.57900012
-0.10233143 0.068769842 0.5776667
-0.09499573 0.067920953 0.57659382
-0.085128598 0.066669203 0.57826549
-0.077195697 0.06780611 0.57810533
-0.10133752 0.074814022 0.57828003
-0.094682135 0.074866571 0.57528597
-0.085246094 0.074870385 0.5745765
-0.076988444 0.075231262 0.57731044
-0.10293491 0.084635407 0.57820529
-0.095538758 0.083321713 0.57384628
-0.084571227 0.08324457 0.57381827
-0.077827066 0.082804918 0.57721061
-0.092489049 0.059811428 0.58150005
-0.083350487 0.059513748 0.58014286
-0.074922428 0.058696978 0.58245456
-0.067892961 0.058308955 0.58530009
-0.11234803 0.068976328 0.58814287
-0.10727125 0.068837903 0.5848
-0.093979813 0.063502707 0.58276308
-0.084587678 0.06259501 0.58003122
-0.074039757 0.064426474 0.58250701
-0.067906909 0.064805277 0.58693546
-0.1136701 0.074968211 0.58631474
-0.1064556 0.07536228 0.5816924
-0.071781978 0.074656755 0.58210254
-0.068142727 0.075097293 0.58717859
-0.12083658 0.085139625 0.58740008
-0.11486463 0.084630124 0.58516932
-0.10803021 0.083841696 0.58123082
-0.073746562 0.083285913 0.58097053
-0.066469669 0.083111286 0.58792865
-0.11304452 0.025184106 0.59884232
-0.10953143 0.022819048 0.59900004
-0.1124699 0.037299138 0.59885001
-0.10924619 0.039077621 0.59900004
-0.12169144 0.047187563 0.59741175
-0.11483836 0.045311484 0.5959869
-0.10571556 0.04599702 0.59727532
-0.12254783 0.054984529 0.59612507
-0.11468457 0.055362664 0.59318048
-0.10486703 0.055147793 0.59513491
-0.099262863 0.05362476 0.59900004
-0.14272897 0.068532579 0.59470004
-0.13426238 0.068910241 0.59675002
-0.12385752 0.064896747 0.59581697
-0.11502793 0.065033913 0.59204465
-0.10504899 0.064459726 0.59457761
-0.099450007 0.064883336 0.59500003
-0.064717457 0.066438146 0.59675753
-0.14347856 0.072418503 0.59804761
-0.13420168 0.073366538 0.596771
-0.12502512 0.074991226 0.59425688
-0.11849678 0.074357264 0.59037507
-0.063424185 0.075061962 0.5952096
-0.059329525 0.072450481 0.59900004
-0.13302462 0.086824901 0.59803706
-0.12568624 0.08293853 0.59340537
-0.11874922 0.081663497 0.59000003
-0.063046716 0.083163314 0.59386957
-0.058459926 0.082627706 0.59553856
-0.13748477 0.090135239 0.59900004
-0.11703049 -0.089222223 0.60833335
-0.10788 -0.08004 0.60900003
-0.11064547 -0.07437171 0.6087144
-0.10704298 -0.074409127 0.60870582
-0.11168467 -0.064477243 0.60858619
-0.10651881 -0.064729422 0.60871726
-0.1204702 -0.055603541 0.60814297
-0.11492371 -0.054718852 0.60803282
-0.10529613 -0.054819785 0.60758829
-0.09921784 -0.055250559 0.60890919
-0.12087201 -0.042224001 0.60900003
-0.11513946 -0.045129005 0.60751396
-0.10559348 -0.045394313 0.6073333
-0.099330105 -0.046362102 0.6085
-0.12044191 -0.038796194 0.60800004
-0.11492257 -0.034956846 0.60567164
-0.10528265 -0.034583569 0.60679984
-0.099497907 -0.03239581 0.60740012
-0.12048334 -0.021669049 0.60675007
-0.11451832 -0.025148265 0.60488397
-0.1051141 -0.024914028 0.60545194
-0.12096917 -0.015544524 0.60737503
-0.11462762 -0.014849989 0.60406756
-0.10570887 -0.014885016 0.60519105
-0.12106807 -0.0049251956 0.60481822
-0.11487471 -0.0051171035 0.6034227
-0.10489258 -0.0052476204 0.60441428
-0.12101035 0.0049219052 0.6030001
-0.11469826 0.0045871837 0.60216087
-0.10513338 0.0043297275 0.60472018
-0.12113471 0.015676931 0.60216671
-0.11449182 0.014818124 0.60078752
-0.10621907 0.014873353 0.60328084
-0.12154373 0.024877463 0.60175002
-0.11689663 0.025284125 0.60036117
-0.10640074 0.02522295 0.60096788
-0.12145507 0.035260785 0.60154545
-0.1157252 0.034412581 0.60025507
-0.10567003 0.034792643 0.60139066
-0.12251915 0.042952381 0.60063636
-0.11914286 0.040285718 0.60000002
-0.10298412 0.042031746 0.60000008
-0.096831203 0.047439929 0.60474086
-0.095690258 0.055407878 0.6054545
-0.06425143 0.059377145 0.60237509
-0.056595653 0.059238918 0.60642862
-0.13353607 0.067990899 0.60844451
-0.12881449 0.066580199 0.60059994
-0.094991706 0.060778234 0.60614294
-0.062302019 0.063615881 0.60037047
-0.057615474 0.06521339 0.60473806
-0.15133619 0.074512385 0.60650003
-0.14452769 0.076919496 0.60347068
-0.13700061 0.077741906 0.60187507
-0.055511255 0.075248763 0.60394126
-0.14448909 0.084623255 0.60510176
-0.13650654 0.083869085 0.60102391
-0.053721737 0.08330857 0.60718191
-0.049743496 0.082133971 0.60733342
-0.14138438 0.094337352 0.60321057
-0.13854821 0.094484322 0.60246676
-0.10670381 -0.14030667 0.61900002
-0.1115723 -0.1341489 0.61838889
-0.10472019 -0.13472848 0.61773628
-0.098745242 -0.13205335 0.61900002
-0.11329641 -0.12434752 0.61652261
-0.10467427 -0.12506713 0.61583835
-0.097425692 -0.12404802 0.6177932
-0.11411774 -0.11520912 0.61409086
-0.10502443 -0.11492609 0.61472613
-0.097024716 -0.11520359 0.61591995
-0.11404422 -0.10532466 0.61467308
-0.10526244 -0.10487117 0.61315566
-0.097709194 -0.10533721 0.6156469
-0.1140568 -0.094921164 0.61347938
-0.10492552 -0.095003448 0.61245191
-0.097577937 -0.09447366 0.61421603
-0.11432189 -0.084944077 0.61253226
-0.10496832 -0.085132122 0.61224025
-0.09886843 -0.085831642 0.61400002
-0.12135905 -0.073637143 0.61608344
-0.11608589 -0.07516019 0.61315686
-0.10251092 -0.0755421 0.61213171
-0.098679371 -0.074270368 0.61349994
-0.12084827 -0.064823873 0.61280006
-0.11635768 -0.065247402 0.61116672
-0.10195881 -0.06548854 0.61145717
-0.097722441 -0.064917102 0.6116401
-0.11754476 -0.059354287 0.611
-0.10100143 -0.057630002 0.61125004
-0.099031746 -0.054367624 0.61166668
-0.10183334 -0.041897144 0.61100006
-0.10183334 -0.038987622 0.611
-0.14444996 0.0065091536 0.61822224
-0.13534278 0.0076142591 0.61634284
-0.12902352 0.0090203183 0.61766672
-0.14445387 0.015107136 0.61761409
-0.13499184 0.015260085 0.61627185
-0.12748785 0.014888518 0.61719453
-0.14490119 0.025015052 0.61703169
-0.1350145 0.025241034 0.61637521
-0.12788238 0.02526827 0.6164
-0.15086019 0.035779048 0.61780006
-0.14494824 0.035179935 0.61685526
-0.13491721 0.035194453 0.61592621
-0.12785403 0.035124764 0.6162141
-0.15109883 0.046611853 0.61866665
-0.14505352 0.045021705 0.61615157
-0.13475828 0.045115162 0.61520851
-0.12797768 0.044376303 0.61483335
-0.094035819 0.048647244 0.611
-0.15088972 0.055713333 0.61840004
-0.14482127 0.055112798 0.6156252
-0.13482104 0.054970957 0.6143769
-0.12928453 0.053818338 0.61425
-0.091769241 0.052940764 0.61220002
-0.086648412 0.056369372 0.61658698
-0.15240255 0.06620881 0.61562496
-0.14475803 0.065012239 0.61400002
-0.13582662 0.064416759 0.61310929
-0.090777144 0.061100002 0.611
-0.086875722 0.061139207 0.61433339
-0.053025626 0.064943679 0.61279565
-0.048810631 0.065244928 0.61625016
-0.1606597 0.076814294 0.61566675
-0.15507567 0.075275041 0.61319655
-0.14186572 0.070640951 0.61300004
-0.13872001 0.071108572 0.61200011
-0.051244196 0.074029818 0.61495006
-0.048280541 0.074999094 0.61752391
-0.16100764 0.084032074 0.6170001
-0.15544578 0.084799215 0.6147759
-0.052502483 0.087496005 0.61260003
-0.04944 0.080634288 0.61800003
-0.15219334 0.091080956 0.61700004
-0.1011581 -0.16041714 0.62849998
-0.097972572 -0.16073333 0.62880003
-0.10330696 -0.15359519 0.62364715
-0.095490575 -0.15448458 0.62695062
-0.11156238 -0.14382073 0.62143749
-0.10467666 -0.14487197 0.62034941
-0.095124125 -0.14503452 0.62441432
-0.08903154 -0.14427641 0.62599999
-0.11558083 -0.13410285 0.62081474
-0.095955819 -0.13575335 0.62146813
-0.11651648 -0.12867376 0.62057143
-0.095857285 -0.12873144 0.62079996
-0.15160857 0.0079487627 0.62280005
-0.1488 0.0076761907 0.62
-0.15382974 0.014452817 0.6226486
-0.14971855 0.014433865 0.61999995
-0.15256375 0.024139626 0.62152171
-0.14998096 0.023619048 0.62
-0.15268549 0.034989133 0.6208235
-0.14998096 0.030704763 0.62
-0.15364772 0.045080837 0.62087989
-0.086033337 0.049840003 0.62300003
-0.1602 0.055180002 0.62300003
-0.15582323 0.055031009 0.62174451
-0.090041906 0.052129526 0.62200004
-0.083560139 0.055174593 0.6249311
-0.079074286 0.058706671 0.62900007
-0.16292667 0.067771986 0.625
-0.15622754 0.063743301 0.62177277
-0.081653208 0.062460009 0.62714291
-0.078784384 0.062979437 0.62860006
-0.044740707 0.067274287 0.62567747
-0.039537143 0.069489524 0.62900001
-0.16130954 0.070238099 0.625
-0.15952381 0.070238099 0.625
-0.04417881 0.074520804 0.62626535
-0.038488809 0.072634533 0.62900001
-0.045144085 0.083922945 0.62473577
-0.10156095 -0.1628581 0.63100004
-0.094184831 -0.16411521 0.63400006
-0.087919414 -0.16239005 0.63769239
-0.11358 -0.1502381 0.63100004
-0.090687484 -0.15543562 0.63223088
-0.088201545 -0.15644015 0.63669235
-0.11418096 -0.14843524 0.63100004
-0.090142861 -0.1490362 0.63100004
-0.081484571 0.053920008 0.63190001
-0.077631623 0.055318408 0.63248003
-0.077041909 0.060791433 0.63200009
-0.042326476 0.064813517 0.63130003
-0.038356196 0.067521654 0.6346001
-0.040864762 0.077522866 0.63100004
-0.036647309 0.076295607 0.63380551
-0.040864762 0.081128567 0.63100004
-0.035460338 0.084021859 0.63536745
-0.081541911 -0.17088985 0.64700007
-0.078994289 -0.17033143 0.648
-0.090209529 -0.16761905 0.64000005
-0.084078133 -0.16551781 0.64347935
-0.079487622 -0.16082478 0.64700001
-0.084069684 -0.15503889 0.64319611
-0.079652071 -0.15930541 0.64666671
-0.087207355 -0.14930449 0.64100009
-0.040228572 0.065828577 0.64000005
-0.034958918 0.067192748 0.6424762
-0.032382619 0.074229412 0.64387494
-0.028463004 0.077092759 0.64323092
-0.030992856 0.082902625 0.64125007
-0.02697994 0.085508034 0.64564717
-0.077238098 -0.17093271 0.65583336
-0.080538094 -0.16727142 0.65050006
-0.076311983 -0.16485147 0.65465319
-0.082205988 -0.15216069 0.65250003
-0.078333497 -0.15601866 0.65460873
-0.03156212 0.066704132 0.65122229
-0.02638644 0.067934625 0.65367997
-0.024688501 0.074002586 0.65501869
-0.018173335 0.072275564 0.65800005
-0.023539321 0.084551834 0.65552384
-0.021933334 0.090240002 0.65800005
-0.073133342 -0.17421494 0.66537499
-0.069343813 -0.17113429 0.66800004
-0.071721822 -0.16456738 0.66113633
-0.068351068 -0.16501981 0.66508704
-0.073701642 -0.15591528 0.66217959
-0.068967625 -0.15644555 0.6638183
-0.010194286 -0.11213715 0.66900003
-0.0089199999 -0.11213715 0.66900003
-0.026122857 -0.10958858 0.66900003
-0.020850342 0.077831849 0.66057146
-0.018391537 0.076248467 0.66344446
-0.021423416 0.083771884 0.66164714
-0.018045926 0.084456839 0.66622221
-0.070609525 -0.18101715 0.67400002
-0.066124573 -0.18069486 0.6728
-0.071147308 -0.17808223 0.671
-0.06449195 -0.17535235 0.6737541
-0.059493337 -0.17136668 0.67900002
-0.063905932 -0.16456862 0.67471147
-0.059493341 -0.16684 0.67900002
-0.065994076 -0.15847979 0.67644447
-0.024329351 -0.12058444 0.67872727
-0.015168254 -0.12083633 0.67873335
-0.0086222235 -0.12071112 0.67900008
-0.043172896 -0.11191048 0.67892307
-0.034149233 -0.113108 0.67689645
-0.025096294 -0.11506272 0.67451072
-0.015200187 -0.11552196 0.67475617
-0.0052623018 -0.11695565 0.67658329
0.0029910824 -0.11552276 0.67659092
-0.053026669 -0.10346668 0.67900008
-0.044017695 -0.1085326 0.67871428
-0.034714695 -0.10861961 0.67485726
-0.024981905 -0.10867124 0.6728
-0.019257143 -0.10848191 0.67400002
-0.013631837 0.075505309 0.67573816
-0.008835556 0.075856201 0.67883337
-0.013255903 0.084807388 0.67434889
-0.0086207418 0.085920215 0.67888886
-0.012258233 0.091984242 0.67742866
-0.0071057146 0.091736823 0.6783334
-0.059580956 -0.18003809 0.68000001
-0.057031501 -0.17409812 0.68263352
-0.060876194 -0.16125715 0.68000001
-0.056481592 -0.16558947 0.68347234
-0.022310477 -0.1312381 0.68900001
-0.017060952 -0.1312381 0.68900007
-0.041757144 -0.12215835 0.6877501
-0.034623954 -0.1244678 0.68592125
-0.02523368 -0.12577254 0.68412209
-0.014867226 -0.12624334 0.68375623
-0.0049838931 -0.12533394 0.68413049
0.0038571893 -0.12439016 0.6858049
0.01239471 -0.12190562 0.68900007
-0.052500635 -0.11228048 0.68475008
-0.04481161 -0.11583024 0.68348378
-0.036026761 -0.11794231 0.68155003
0.0049092066 -0.11936805 0.68200004
-0.061474044 -0.10606214 0.68850005
-0.054098763 -0.10620993 0.68303043
-0.046740767 -0.10417395 0.68287104
-0.046386667 -0.099306673 0.68600005
-0.0045581753 0.077632144 0.68500006
0.00052342861 0.078776002 0.68700004
-0.0046091517 0.084929019 0.68347836
0.001135873 0.084257655 0.68760014
-0.0038857143 0.090666667 0.68000001
-0.052780516 -0.17557612 0.69546157
-0.024044191 -0.14147314 0.69740003
-0.015940409 -0.14081416 0.69742858
-0.0079771429 -0.14092954 0.69800001
-0.044064768 -0.1315289 0.69749999
-0.034433756 -0.13447598 0.69523925
-0.025342572 -0.13525228 0.69205016
-0.014935774 -0.13557599 0.69241875
-0.0056797434 -0.13513763 0.69405425
0.0032732836 -0.13248333 0.69442105
0.016506366 -0.13175361 0.69757897
0.023029419 -0.13109632 0.69755554
-0.061158098 -0.12098667 0.69800001
-0.05399007 -0.12342883 0.69606262
-0.045415126 -0.12538652 0.69248581
-0.037913974 -0.12842415 0.69033337
0.0077316673 -0.12814167 0.69087505
0.01513014 -0.12627251 0.69244123
0.021858573 -0.12651619 0.69550008
-0.062816754 -0.11393736 0.69455999
-0.056101058 -0.11600092 0.69202954
-0.048891433 -0.11854857 0.69000006
-0.063434832 -0.10841498 0.69171435
-0.059142858 -0.10908572 0.69000006
-0.061636738 -0.22227702 0.70785719
-0.055349529 -0.2223804 0.70718187
-0.049897145 -0.22183999 0.708
-0.062666617 -0.21463868 0.70500016
-0.054964669 -0.21449938 0.70381618
-0.04553863 -0.21332975 0.70775622
-0.035846137 -0.21248627 0.70770377
-0.029668575 -0.21172571 0.70800006
-0.062859274 -0.20462678 0.70214272
-0.054703958 -0.20473528 0.7026121
-0.045141365 -0.20482738 0.70746452
-0.035044473 -0.20488176 0.70765328
-0.028929528 -0.20427224 0.70769238
-0.062065575 -0.19571193 0.70192319
-0.055013988 -0.19475308 0.70264286
-0.045018598 -0.19503559 0.70715278
-0.034885902 -0.19512048 0.70759642
-0.027468771 -0.19470412 0.70765525
-0.060896005 -0.18805295 0.70420003
-0.054735422 -0.18562083 0.70297503
-0.045002174 -0.18502219 0.7064485
-0.035180561 -0.18497813 0.70730215
-0.027045663 -0.1849664 0.70718437
-0.052038658 -0.17505346 0.70158821
-0.045201782 -0.1750517 0.70584774
-0.035037078 -0.17518719 0.70749009
-0.026945416 -0.17515127 0.70734304
-0.053067286 -0.16452119 0.70445168
-0.044912022 -0.16513194 0.70522833
-0.035061877 -0.16519597 0.7079823
-0.026636368 -0.16493392 0.70746535
-0.053283315 -0.15507159 0.70616138
-0.045080367 -0.15510635 0.70538133
-0.035013102 -0.15490323 0.70754182
-0.024929175 -0.15481973 0.70626551
-0.016425082 -0.15223756 0.7055555
-0.002417143 -0.15254858 0.70500004
-0.052251525 -0.14476484 0.70699996
-0.044957925 -0.14494114 0.70455354
-0.034925584 -0.14523986 0.70327914
-0.025205996 -0.14606512 0.70100021
-0.014602805 -0.14572872 0.70241678
-0.0052410392 -0.14440523 0.7039091
0.0030759186 -0.14292373 0.70533329
0.013470715 -0.14044 0.70725006
-0.060685717 -0.13081144 0.708
-0.053814884 -0.13401009 0.70562971
-0.045569625 -0.1363095 0.70194745
-0.037066668 -0.1392 0.70000005
-0.0026666669 -0.13911113 0.70000005
0.0055503305 -0.13680068 0.70146161
0.014281492 -0.13625617 0.70369565
0.020200001 -0.13736001 0.70700002
-0.061698288 -0.12568705 0.7057001
-0.056337006 -0.1276584 0.7017858
-0.073447198 -0.11375958 0.70677787
-0.067749165 -0.11498024 0.70343751
-0.024274286 -0.11732572 0.708
-0.072488815 -0.10881334 0.70637506
-0.068960957 -0.10913239 0.70300001
-0.053743184 -0.23266922 0.7143333
-0.04498684 -0.23446958 0.71634352
-0.038694423 -0.23604929 0.71457142
-0.061554763 -0.22660381 0.71025002
-0.054521911 -0.22751844 0.7111668
-0.045430101 -0.22460723 0.71380556
-0.035189491 -0.22347818 0.71496773
-0.028329903 -0.22188573 0.71510011
-0.044643689 -0.21806392 0.71025008
-0.034454919 -0.21719639 0.71094453
-0.025279617 -0.21458428 0.71267515
-0.019013334 -0.21050477 0.71300006
-0.023898501 -0.20521051 0.71117783
-0.017822256 -0.20571679 0.71400005
-0.0222566 -0.19529852 0.71132165
-0.017166417 -0.19497649 0.7158519
-0.021654693 -0.18497398 0.71057153
-0.0153918 -0.1846531 0.71647817
-0.021709565 -0.17503445 0.71043497
-0.015028488 -0.17466676 0.71474463
-0.0083838748 -0.17371227 0.71773338
-0.021498943 -0.16530624 0.71038896
-0.015048851 -0.16513446 0.71476454
-0.008485714 -0.16548134 0.71859998
-0.055447619 -0.1501143 0.71000004
-0.036514286 -0.15958096 0.71000004
-0.020736508 -0.15913017 0.71000004
-0.013883048 -0.15665148 0.71192008
-0.0065301014 -0.15350859 0.71127278
0 -0.15032572 0.71100003
-0.056060109 -0.14412731 0.71200007
-0.0036095239 -0.14883177 0.71033335
0.0063700373 -0.1463404 0.71238476
0.012012295 -0.14600988 0.71518189
-0.060007621 -0.13774477 0.71600002
-0.057622861 -0.13664435 0.71178573
-0.07081905 -0.12189143 0.71500003
-0.067105092 -0.12309192 0.71408343
-0.012325714 -0.1205181 0.71900004
-0.0051352377 -0.12081857 0.71875
-0.082280003 -0.11016 0.71400005
-0.07227657 -0.11667582 0.71060008
-0.069068573 -0.11917715 0.71100003
-0.030129526 -0.11298572 0.71900004
-0.024703037 -0.11326537 0.71537489
-0.014878897 -0.11457781 0.71608871
-0.0055441274 -0.11467499 0.71668768
0.0011725171 -0.11164463 0.71728581
-0.082922362 -0.10379194 0.71406901
-0.07798896 -0.10610991 0.71330017
-0.030066669 -0.10728477 0.71750003
-0.024794454 -0.10726163 0.71439147
-0.016281143 -0.10838915 0.71220005
-0.0034095242 -0.10842285 0.71600002
0.00045333334 -0.10854857 0.7153334
-0.090730958 -0.097578578 0.71900004
-0.085207395 -0.09770938 0.71620834
-0.078769527 -0.099140957 0.71300006
-0.042232543 -0.2328081 0.72108352
-0.036996737 -0.23349088 0.72452402
-0.042514287 -0.22902858 0.72000003
-0.035207622 -0.22934724 0.72285724
-0.014693879 -0.19454695 0.72000003
-0.012342858 -0.18788573 0.72000003
-0.010971429 -0.17965715 0.72000003
-0.0096000005 -0.17965715 0.72000003
-0.0066713835 -0.165639 0.72123826
-0.061381228 -0.1428294 0.72300011
-0.061157145 -0.13948858 0.72150004
-0.0034285716 -0.12205715 0.72000003
-0.043328732 -0.11158653 0.7240001
-0.035705261 -0.11260756 0.72095674
-0.0013714286 -0.11520001 0.72000003
0.00126 -0.11667081 0.72133344
-0.043420088 -0.1063071 0.7256819
-0.035656672 -0.1063419 0.72062486
-0.090514287 -0.098742858 0.72000003
