# .PCD v0.7 - Point Cloud Data file format
VERSION 0.7
FIELDS x y z
SIZE 4 4 4
TYPE F F F
COUNT 1 1 1
WIDTH 537
HEIGHT 1
VIEWPOINT 0 0 0 1 0 0 0
POINTS 537
DATA ascii
-0.043840718 0.086420603 0.55712509
-0.054352272 0.066186182 0.5679602
-0.046175692 0.067469276 0.56723702
-0.033150617 0.067389287 0.5682593
-0.029242286 0.066717334 0.56860006
-0.061042752 0.076573759 0.5688889
-0.054882143 0.075024687 0.56684923
-0.04515418 0.074873298 0.56519091
-0.035933126 0.075060397 0.56732953
-0.061750572 0.082950398 0.5673334
-0.055939961 0.082850039 0.5663501
-0.044608206 0.08351244 0.56319994
-0.035081297 0.083240412 0.56681669
-0.025469525 0.085620955 0.56900001
-0.023029575 -0.17240091 0.5786317
-0.018369976 -0.17325969 0.57866681
-0.040700004 -0.16665047 0.57749999
-0.037617888 -0.16550381 0.57711112
-0.024237912 -0.16706094 0.57773799
-0.016974557 -0.16534348 0.57769048
-0.044658933 -0.14202885 0.57478791
-0.034816045 -0.14318569 0.57467312
-0.025668394 -0.14234972 0.57300019
-0.018101225 -0.14093225 0.5735715
-0.044540666 -0.13581021 0.57594299
-0.034890909 -0.13655701 0.57645166
-0.02513759 -0.13673489 0.57376689
-0.017438995 -0.13669552 0.57527781
-0.063639112 0.068725459 0.57333338
-0.059749208 0.068439364 0.57033342
-0.043620002 0.065973967 0.57250005
-0.065325394 0.07480292 0.57373345
-0.059714288 0.071114287 0.57000005
-0.030762929 0.074649386 0.57053858
-0.025576996 0.07582555 0.57285064
-0.018265437 0.077470034 0.57811767
-0.064657144 0.080413334 0.57050002
-0.025553487 0.082649447 0.57128876
-0.018151904 0.081967503 0.5776251
-0.022633838 -0.21241477 0.58894122
-0.023382181 -0.20488161 0.58748233
-0.017347431 -0.2036276 0.58760011
-0.032232638 -0.19189893 0.58893347
-0.02423976 -0.19504952 0.58654147
-0.015814578 -0.19488448 0.58696365
-0.042699836 -0.18339448 0.58855891
-0.034842659 -0.1849346 0.58787209
-0.024856165 -0.18515141 0.58405882
-0.016188085 -0.18511766 0.5836547
-0.05160762 -0.17052953 0.58900005
-0.044225916 -0.17490603 0.5872587
-0.034662388 -0.17522955 0.58495313
-0.025664678 -0.17634256 0.58168179
-0.014446918 -0.17532623 0.5817551
-0.051490955 -0.16700143 0.58450007
-0.045714233 -0.16723993 0.58502638
-0.035623495 -0.1689126 0.58044446
-0.01297975 -0.16758427 0.58063161
-0.0096364636 -0.1674585 0.58057153
-0.03369524 -0.14914286 0.58000004
-0.071859814 0.069199242 0.58219999
-0.06922619 0.069226667 0.58150005
-0.019433334 0.069960006 0.583
-0.074296623 0.07508947 0.58471936
-0.069443807 0.072484761 0.58100003
-0.021561589 0.072976194 0.58050001
-0.01448496 0.076022573 0.5824793
-0.0065865945 0.077182561 0.58792311
-0.073940657 0.082090124 0.58531588
-0.068707861 0.081702627 0.580625
-0.013111659 0.083190218 0.58206892
-0.0069962442 0.083209425 0.58575004
-0.024223672 -0.23143134 0.5988096
-0.019015875 -0.23085271 0.5990001
-0.042300258 -0.22207326 0.59872735
-0.035004418 -0.22304045 0.59815997
-0.024951525 -0.22487643 0.59545004
-0.018024504 -0.22455604 0.59649998
-0.051303878 -0.21258055 0.59853852
-0.044711862 -0.21441832 0.59720355
-0.035133909 -0.21519938 0.59600025
-0.025629949 -0.21565023 0.59114814
-0.017165024 -0.21430704 0.59121197
-0.051945768 -0.2052841 0.5981251
-0.044936456 -0.20483387 0.59469849
-0.03505405 -0.2052338 0.59363902
-0.028635982 -0.20532265 0.59083343
-0.016632384 -0.20857905 0.59000009
-0.052626595 -0.19515009 0.59689295
-0.045104045 -0.19512028 0.59193045
-0.035558335 -0.19597644 0.59082448
-0.029219048 -0.19722858 0.59000003
-0.053927004 -0.18414021 0.59527659
-0.046571814 -0.18625051 0.59086663
-0.053650972 -0.17579265 0.59378582
-0.048841909 -0.17725439 0.5902223
0.0085571427 -0.15060572 0.59900004
-0.076690003 -0.14372002 0.59762502
0.0083126528 -0.14644939 0.5990001
0.013691023 -0.14455415 0.59769696
0.020262858 -0.14071429 0.59100002
-0.083033845 -0.13636465 0.59446675
-0.079265408 -0.13823938 0.59733337
0.018290158 -0.13889928 0.59611112
0.022597739 -0.13660167 0.59412503
-0.094699048 -0.12493429 0.59900004
-0.0828664 0.069026127 0.59828579
-0.079466671 0.069249526 0.59600002
-0.0011333334 0.069133334 0.59500003
0.0017 0.069133334 0.59500003
-0.082485437 0.074316934 0.59690917
-0.078777567 0.073635772 0.59177786
-0.0022487182 0.075480886 0.59046167
0.0041951784 0.075310223 0.59418994
0.01059211 0.078054704 0.59885722
-0.081458509 0.083531328 0.5953334
-0.07849957 0.08424034 0.59181821
-0.0021079762 0.083979882 0.59031254
0.0042736232 0.084428921 0.59205782
0.012751396 0.084393866 0.59796786
-0.035205714 -0.24009144 0.60600001
-0.050872382 -0.23008192 0.60700005
-0.045310792 -0.23114586 0.60600007
-0.034578539 -0.23460646 0.60418367
-0.026095189 -0.23591916 0.60132432
-0.060320001 -0.22040001 0.60900003
-0.05301651 -0.22360463 0.60438102
-0.0455935 -0.22548918 0.60197824
-0.035330124 -0.22659896 0.60108584
-0.061147731 -0.21359789 0.60761112
-0.055248231 -0.21585384 0.60318011
-0.047787812 -0.21927316 0.60020006
-0.062138747 -0.20526409 0.60635996
-0.057150584 -0.20516543 0.60264874
-0.06170392 -0.19513822 0.60361117
-0.05741933 -0.19467935 0.60088104
-0.061308697 -0.18507715 0.60162497
-0.058644533 -0.18602048 0.60075003
-0.062192388 -0.17553461 0.60337037
-0.058200926 -0.17383195 0.60129637
-0.061448574 -0.1694143 0.60300004
-0.057359528 -0.1692031 0.60225004
-0.063581914 -0.15192643 0.6056875
-0.059111431 -0.15473238 0.6085
-0.0049165082 -0.1529699 0.60700011
0.0030361905 -0.15122814 0.60282367
-0.073639028 -0.14440382 0.60263467
-0.067442864 -0.14810388 0.60330772
-0.0027801904 -0.14921142 0.60820001
0.0053357943 -0.14748684 0.60574996
0.012051431 -0.14200591 0.60404772
-0.09043619 -0.13050286 0.60100001
-0.083810113 -0.13270661 0.60302562
-0.077727288 -0.13831821 0.60694122
0.016957439 -0.13701387 0.60625005
0.024320057 -0.13231403 0.60467643
-0.092315771 -0.123748 0.60333347
-0.086945757 -0.12712149 0.60482496
0.026719423 -0.12771976 0.60765231
0.03050819 -0.12700152 0.6067
-0.09327215 -0.11872524 0.60737503
-0.09048 0.069600001 0.60900003
-0.085817538 0.067305967 0.60536844
-0.091199428 0.075703301 0.6078462
-0.087510526 0.075371906 0.60300004
0.015515003 0.074962512 0.60404372
0.022176666 0.077013902 0.60485011
-0.093627587 0.085612759 0.60719514
-0.087323688 0.083987243 0.60373336
0.016550714 0.081647635 0.6009168
0.021967381 0.081117384 0.6030001
-0.095934428 0.090641096 0.60785717
-0.043505505 -0.24179313 0.6182223
-0.038823493 -0.2424453 0.61555558
-0.04369048 -0.23836933 0.61830008
-0.038468573 -0.23897144 0.61200005
-0.062263809 -0.21763238 0.611
-0.061673094 -0.15163594 0.61237502
-0.057301611 -0.15281764 0.61673921
-0.012934258 -0.15481061 0.61545718
-0.0085837236 -0.1527053 0.61199999
0.0023276191 -0.15013143 0.611
-0.071782611 -0.14177956 0.61246669
-0.065113723 -0.14453962 0.61478871
-0.058081388 -0.14712347 0.61545449
-0.011885715 -0.1482995 0.61453843
-0.0054059261 -0.146505 0.61544448
0.0039751772 -0.14409554 0.61387098
0.010474286 -0.14082095 0.611
-0.080563337 -0.1325693 0.61187506
-0.076201558 -0.13536584 0.61531991
0.0082350485 -0.13871562 0.61770004
0.014422785 -0.13428853 0.61388671
0.020948572 -0.13092858 0.611
-0.090925716 -0.12006857 0.61200005
-0.084584586 -0.12431393 0.61554098
-0.078593142 -0.12824553 0.61770004
0.018246926 -0.12914045 0.61636364
0.023490446 -0.12597078 0.6139394
-0.09108635 -0.11702605 0.61441672
-0.08876884 -0.11803862 0.61690915
-0.092749029 0.067034446 0.61356008
-0.089409903 0.066824004 0.61120003
-0.095868737 0.075350642 0.61578381
-0.10204339 0.085787863 0.61577779
-0.097424351 0.083317228 0.61454546
-0.10324244 0.095165409 0.61593014
-0.099026911 0.096385844 0.61662507
-0.10352635 0.10099556 0.61416668
-0.099307626 0.10107048 0.61700004
-0.044876192 -0.2409143 0.62
-0.044876192 -0.23914286 0.62
-0.016174287 -0.17012952 0.62900001
-0.052231748 -0.16144425 0.62322229
-0.049840003 -0.1602 0.62300003
-0.022330629 -0.16242918 0.62557888
-0.016882045 -0.16414511 0.62477773
-0.053374134 -0.15639217 0.62126315
-0.049733337 -0.15748954 0.62166673
-0.021749798 -0.15776408 0.62442857
-0.017549334 -0.1558003 0.6225
-0.064361908 -0.14053334 0.62
-0.054323811 -0.14998096 0.62
-0.0034922857 -0.14195886 0.62159997
0.0011832805 -0.14090964 0.62166673
-0.072508618 -0.13380639 0.62213504
-0.067248672 -0.13627017 0.62255251
-0.0020841667 -0.13661845 0.62612504
0.0044633951 -0.13460433 0.62492311
0.011302222 -0.1319526 0.62099999
-0.081649661 -0.12133293 0.62321436
-0.075126238 -0.12574132 0.62639374
-0.068761274 -0.12758073 0.62599999
0.0074967626 -0.12859023 0.62820011
0.015045077 -0.12544131 0.62527275
0.021542763 -0.1228441 0.62314999
-0.084943585 -0.11545485 0.62550002
-0.078674927 -0.11941017 0.62900007
0.018085336 -0.11833371 0.62880003
0.021091748 -0.11859905 0.62683338
-0.084465712 -0.10902667 0.62900001
-0.10321733 0.066814661 0.62691301
-0.098578766 0.067298457 0.62238473
-0.10414474 0.075548157 0.62532663
-0.099200003 0.073219053 0.62
-0.10444445 0.081629723 0.62353337
-0.018085714 -0.17121144 0.63300002
-0.073222145 -0.12126238 0.63150007
-0.069101505 -0.12238749 0.63171434
-0.0018257144 -0.12049714 0.63900006
0.0051170681 -0.12379407 0.63446051
0.012026096 -0.12146915 0.63140005
-0.081506498 -0.11257786 0.63181823
-0.075514846 -0.11544799 0.63533336
-0.068388097 -0.11842477 0.63687503
0.0073622051 -0.11761935 0.63868421
0.013491211 -0.11724938 0.63311541
-0.081509531 -0.10898571 0.634
-0.078091055 -0.10898781 0.63860005
-0.11143287 0.068070717 0.63675004
-0.10778477 0.068040006 0.63225001
-0.1119492 0.074777782 0.63366675
-0.10871828 0.073060095 0.63163644
-0.11356726 0.086021394 0.63523817
-0.10879551 0.08483135 0.63209093
-0.11471485 0.091628917 0.63394117
-0.017897144 -0.12194743 0.64799994
-0.0058795777 -0.12109187 0.64577776
-0.071812019 -0.11199018 0.64069235
-0.066458985 -0.11323716 0.6440264
-0.055789717 -0.114048 0.648
-0.041502856 -0.11370858 0.648
-0.036897011 -0.1136819 0.64721429
-0.024685714 -0.11602286 0.648
-0.015912382 -0.11561958 0.64796424
-0.0052937204 -0.11514734 0.64624995
0.0036396126 -0.11462291 0.64198148
0.010971429 -0.11398096 0.64000005
-0.072945096 -0.10754456 0.6423794
-0.065195203 -0.10728242 0.64654303
-0.05842286 -0.10820572 0.648
-0.011725714 -0.10923429 0.648
-0.0055519049 -0.10915002 0.64749992
0.00061619049 -0.10906572 0.64700001
-0.11232001 0.059245717 0.648
-0.10985143 0.059245717 0.648
-0.11403458 0.066310391 0.64476186
-0.10954285 0.062640004 0.648
-0.097550347 0.064650297 0.64773327
-0.11761928 0.074710816 0.64526093
-0.12118953 0.086693347 0.64674997
-0.11813762 0.083226323 0.64437509
-0.021209525 -0.13100001 0.65500003
-0.019279048 -0.13060001 0.65300006
-0.02203024 -0.12241811 0.65162498
-0.017202003 -0.12629132 0.65236843
-0.0095990486 -0.12168953 0.65025002
-0.061285719 -0.11344048 0.65000004
-0.055993117 -0.11189463 0.65049994
-0.044127047 -0.11092838 0.65070003
-0.036748681 -0.11209054 0.6521765
-0.024287924 -0.11395143 0.65156841
-0.015619665 -0.11433516 0.65110826
-0.0099047627 -0.11885715 0.65000004
-0.061161913 -0.10548571 0.65000004
-0.054871324 -0.1066127 0.65147221
-0.045513693 -0.10697722 0.65226322
-0.035477091 -0.10720082 0.65363175
-0.025515543 -0.10687687 0.65300006
-0.017384049 -0.10801333 0.65181255
-0.12314954 0.069361582 0.65416676
-0.11231155 0.062349845 0.6503334
-0.10634496 0.064523719 0.65144998
-0.093474403 0.067260958 0.65388894
-0.088430487 0.068890668 0.65760005
-0.12454759 0.075226381 0.65302092
-0.085580744 0.073617049 0.65725017
-0.12576082 0.084122546 0.65440005
-0.092061788 0.057845362 0.66837496
-0.08499828 0.055415556 0.66799992
-0.079005718 0.052245717 0.66900003
-0.092812344 0.063843206 0.66563994
-0.084834166 0.064983279 0.66376269
-0.075057618 0.066779882 0.66645664
-0.069876194 0.065429524 0.66700006
-0.13325235 0.075191073 0.66603458
-0.12948573 0.072914287 0.66000003
-0.081714295 0.072527483 0.66000003
-0.074766725 0.073970459 0.66539997
-0.066129394 0.074194409 0.66853338
-0.059891433 0.073271431 0.66900003
-0.13387646 0.085634343 0.66488236
-0.12948573 0.085485719 0.66000003
-0.13541909 0.092408992 0.66511112
-0.076046675 0.049845718 0.671
-0.10237731 0.056479413 0.67507702
-0.096256994 0.055198465 0.67251205
-0.080719054 0.059023812 0.67000002
-0.076029532 0.055499341 0.67268419
-0.14097336 0.068546668 0.67900008
-0.13719702 0.068502322 0.67314297
-0.10439382 0.064568028 0.6762501
-0.098453723 0.062315047 0.67040008
-0.080825403 0.061682545 0.67000002
-0.076336347 0.061539542 0.67089462
-0.065160416 0.068355791 0.67078578
-0.14246882 0.075821266 0.67700005
-0.13758443 0.074580953 0.67122227
-0.06587106 0.070877671 0.67000002
-0.14228983 0.084123924 0.67433339
-0.13869099 0.083939061 0.67084622
-0.13910477 0.090609528 0.67000002
-0.065240294 0.037337922 0.68648142
-0.056070276 0.037349004 0.68400002
-0.049214289 0.039371431 0.68900001
-0.093151651 0.04682849 0.68295652
-0.089186333 0.046483118 0.68309098
-0.071709208 0.045037784 0.68866676
-0.065283403 0.045042865 0.68542868
-0.055391222 0.044965688 0.68426543
-0.046879787 0.046094537 0.68751425
-0.11225507 0.057019226 0.68600005
-0.10755525 0.057029951 0.68305552
-0.093008816 0.05113095 0.68175006
-0.088984765 0.05066286 0.68200004
-0.071884684 0.05485706 0.68504548
-0.065066956 0.055169601 0.684717
-0.055579845 0.055104937 0.68446672
-0.046712954 0.055072241 0.68712842
-0.15370192 0.069329053 0.68675005
-0.14633663 0.067854293 0.68288887
-0.11229334 0.062281724 0.68550009
-0.10814754 0.063045546 0.68181819
-0.071573965 0.063379437 0.68653345
-0.065172404 0.064442113 0.68425548
-0.055647351 0.064710714 0.68478966
-0.047334 0.064926609 0.68807709
-0.15293029 0.071489148 0.68740004
-0.14729288 0.073881142 0.68170017
-0.14771286 0.080836192 0.68175006
-0.11101525 -0.12896381 0.69800001
-0.092099182 -0.11495647 0.6971429
-0.087946936 -0.1139924 0.69357151
-0.072127752 0.036412321 0.69100004
-0.068948187 0.034210663 0.69080001
-0.045729052 0.038457464 0.69425005
-0.073610775 0.045480955 0.69010019
-0.04509012 0.043356907 0.69243747
-0.11657573 0.058453809 0.69350004
-0.074914292 0.05191429 0.69000006
-0.11533748 0.061508574 0.69200003
-0.044341784 0.065198213 0.69010031
-0.1558705 0.072817788 0.69088888
-0.1158694 -0.13123566 0.70614284
-0.11488273 -0.12476059 0.70688701
-0.106722 -0.12351372 0.70652169
-0.11403726 -0.11504637 0.70745862
-0.10509748 -0.11520282 0.70739311
-0.097939417 -0.11381988 0.70619035
-0.11317327 -0.10536499 0.70732367
-0.10505757 -0.10505858 0.70712268
-0.098797143 -0.10536857 0.70749992
-0.12117879 -0.092955105 0.70800012
-0.11414465 -0.094661057 0.70789802
-0.10526416 -0.095203139 0.70766687
-0.099167913 -0.095746815 0.70723075
-0.12041029 -0.08575657 0.70790005
-0.11462539 -0.084957659 0.70797968
-0.10761601 -0.084487997 0.70800012
-0.12058478 -0.074171439 0.70800012
-0.1146216 -0.074744537 0.70736867
-0.10621556 -0.074416406 0.70757174
-0.12106287 -0.065914296 0.7062
-0.11495779 -0.064659879 0.70640028
-0.10532133 -0.064698763 0.70732629
-0.099653333 -0.063966669 0.70700002
-0.12002286 -0.059337147 0.708
-0.11412043 -0.055663586 0.70742881
-0.10656971 -0.05486387 0.70737511
-0.12092191 -0.041356191 0.70800006
-0.11250796 -0.044994041 0.70751625
-0.10587265 -0.044942975 0.70708722
-0.12069716 -0.037085716 0.708
-0.11354039 -0.035649259 0.70775014
-0.10585715 -0.034934495 0.70741475
-0.11270206 -0.025815513 0.70800012
-0.10613922 -0.025696548 0.70791447
-0.11472178 -0.014529908 0.70795017
-0.1062 -0.013350856 0.70800012
-0.12069715 -0.0013485715 0.708
-0.1127743 -0.0018542861 0.70800006
-0.10788572 -0.0013485716 0.70800006
-0.12017272 0.004345397 0.70800006
-0.113323 0.004263937 0.707811
-0.10693681 0.0035951328 0.7076667
-0.11245912 0.014365216 0.70800012
-0.1062 0.012390002 0.70800012
-0.11193144 0.020228572 0.70800006
-0.045927241 0.035718478 0.70500004
-0.12384381 0.049447622 0.70800006
-0.11459012 0.046316419 0.70776212
-0.10788572 0.049222857 0.70800006
-0.12295172 0.055037949 0.70684004
-0.11559274 0.053721957 0.70656776
-0.10739267 0.0535996 0.7072857
-0.14123867 0.066581719 0.7062
-0.13641244 0.067416489 0.7066521
-0.12569019 0.064630024 0.70637935
-0.11941809 0.061378099 0.70050001
-0.14215857 0.070573807 0.70575005
-0.13514259 0.07196036 0.70688885
-0.12708905 0.071227461 0.70666659
-0.12036191 -0.12036191 0.71000004
-0.11765715 -0.12509525 0.71000004
-0.12065858 -0.11455142 0.71175003
-0.11900952 -0.11292381 0.71000004
-0.12113355 -0.10351133 0.71188891
-0.11805491 -0.10429244 0.71000004
-0.12202604 -0.097891435 0.7105
-0.1181981 -0.097371437 0.71000004
-0.10210477 -0.090609528 0.71000004
-0.10350629 -0.084818885 0.7111764
-0.12171429 -0.077085719 0.71000004
-0.10313715 -0.078504384 0.71060008
-0.10210477 -0.066266671 0.71000004
-0.12087048 -0.050249524 0.71300006
-0.11757199 -0.052088004 0.71030003
-0.10440381 -0.059234288 0.71000004
-0.12084858 -0.044854999 0.71087497
-0.11751067 -0.044889439 0.71022731
-0.12108953 -0.03436419 0.71030003
-0.117891 -0.033504616 0.71015388
-0.10278095 -0.039219048 0.71000004
-0.12183275 -0.025166892 0.71142864
-0.11611158 -0.024497412 0.70999974
-0.10841589 -0.021412699 0.71000004
-0.12130037 -0.016035605 0.71061546
-0.11450158 -0.016228573 0.71000004
-0.10719873 -0.016679365 0.7100001
-0.12090688 -0.0054158736 0.71055561
-0.11534373 -0.0061037866 0.71017051
-0.1063407 -0.00597709 0.71044427
-0.12171429 0.0027047619 0.71000004
-0.11744361 0.0056230575 0.71000004
-0.10608352 0.0070883515 0.71123081
-0.12083562 0.015427239 0.71040004
-0.11689629 0.015295166 0.71011543
-0.10617457 0.016623236 0.71063995
-0.12162802 0.024344763 0.71229422
-0.11531003 0.025334237 0.71124518
-0.10669323 0.02507915 0.71206677
-0.092389576 0.025718277 0.71780944
-0.084613927 0.026049651 0.71391129
-0.074733108 0.026496595 0.71338099
-0.065928072 0.027393397 0.71560013
-0.055027373 0.027032103 0.71629632
-0.12256311 0.036562607 0.71368432
-0.11490519 0.035214752 0.71163481
-0.10601901 0.03516807 0.71273804
-0.092132881 0.034761362 0.71771419
-0.08455392 0.035349697 0.71437269
-0.075954556 0.034169041 0.71346438
-0.064620256 0.033158146 0.71627253
-0.054218233 0.034078952 0.71497613
-0.048653647 0.035075881 0.7128334
-0.12331701 0.044512145 0.71215165
-0.11534655 0.042386416 0.71020007
-0.10595836 0.04445615 0.71190482
-0.092549369 0.044026896 0.71576464
-0.08524856 0.044622816 0.71372575
-0.078969523 0.045073815 0.71175003
-0.13056001 0.059160002 0.71400005
-0.12750715 0.057146192 0.71150005
-0.1043569 0.051248096 0.71037501
-0.090691432 0.051825717 0.71600008
-0.085101999 0.051987369 0.71481818
-0.078806356 0.051632386 0.71333337
-0.13019429 0.061705716 0.71200001
-0.12824191 0.061956193 0.71020001
-0.13861907 0.077085719 0.71000004
-0.09557905 0.019253334 0.72200006
-0.10170821 0.026272004 0.7209335
-0.096750818 0.024411099 0.72069585
-0.065436743 0.024097959 0.72000003
-0.10169155 0.033985887 0.72376478
-0.097167082 0.034570821 0.72132009
-0.10164 0.040794287 0.72600001
-0.098298669 0.040864382 0.72480005
-0.081923813 0.018521907 0.74800009
-0.077247962 0.018181289 0.74776477
-0.082351245 0.021941336 0.74800009
-0.075512387 0.02208381 0.74800009
-0.069338411 0.022321273 0.74800003
-0.093502969 0.016816583 0.75047064
-0.085862443 0.015721342 0.75037038
-0.092997231 0.020839827 0.75218183
-0.086687453 0.021444503 0.7505455
