# .PCD v0.7 - Point Cloud Data file format
VERSION 0.7
FIELDS x y z
SIZE 4 4 4
TYPE F F F
COUNT 1 1 1
WIDTH 539
HEIGHT 1
VIEWPOINT 0 0 0 1 0 0 0
POINTS 539
DATA ascii
-0.04091524 0.069499046 0.58850002
-0.035464421 0.069300443 0.5885455
-0.025127623 0.069031909 0.58850002
-0.063051164 0.073627621 0.58885717
-0.054209709 0.075144097 0.58658153
-0.044453006 0.075317293 0.58722991
-0.034580674 0.074735492 0.58565432
-0.025123093 0.074589133 0.5871973
-0.044221777 0.083894879 0.58849037
-0.03444203 0.08485768 0.58719516
-0.028014839 0.083337449 0.58831578
-0.031811431 0.090411432 0.58600003
-0.042943493 0.008588572 0.59677786
-0.034641452 0.0080661234 0.59680957
-0.028067429 0.0079866666 0.59900004
-0.044221181 0.014640636 0.59730017
-0.035204988 0.014761674 0.5962348
-0.026736666 0.014988096 0.59830791
-0.044526223 0.025312295 0.59700012
-0.035215668 0.024991943 0.59640765
-0.025685584 0.025288759 0.59760857
-0.044893984 0.035229474 0.59662515
-0.03514481 0.035142861 0.59522253
-0.026190164 0.034988068 0.59663951
-0.044691108 0.045257445 0.59597135
-0.035039417 0.045218315 0.5934937
-0.026516607 0.045622855 0.5963819
-0.052143592 0.054866023 0.59872228
-0.044919804 0.054869559 0.59562135
-0.035158966 0.055073623 0.59466243
-0.025398321 0.054677706 0.59596968
-0.019379999 0.056430478 0.59850001
-0.061097145 0.068451434 0.59400004
-0.053053841 0.066622496 0.59645951
-0.044981629 0.065087266 0.59418523
-0.034865774 0.064371705 0.59296107
-0.02524267 0.064801276 0.59471434
-0.018235918 0.067272931 0.5957858
-0.06445387 0.075442605 0.59174412
-0.056061495 0.072852679 0.59234285
-0.048002727 0.071281642 0.59000009
-0.021122539 0.077616937 0.59055561
-0.015302119 0.074447393 0.59383571
-0.0079866657 0.07416191 0.59900004
-0.062636904 0.083197609 0.59833336
-0.054872561 0.082020469 0.59393758
-0.047143333 0.084004529 0.59100002
-0.039333336 0.088219054 0.59000003
-0.023523176 0.085463375 0.59179622
-0.01689845 0.083028935 0.59409374
-0.023681669 0.09127298 0.59387505
-0.024428573 0.0086612254 0.60057139
-0.019493334 0.0086000003 0.60200006
-0.052529126 0.016610971 0.60355175
-0.048749615 0.016112208 0.60027272
-0.022173004 0.014560658 0.60072428
-0.019147402 0.015446302 0.60223085
-0.053013019 0.02517508 0.60256255
-0.048828032 0.022372248 0.6001429
-0.021538666 0.022567809 0.60150003
-0.019037552 0.022479458 0.60314292
-0.052771665 0.034985952 0.60225004
-0.021502096 0.03614324 0.60046667
-0.018676074 0.035776429 0.60106254
-0.052563816 0.044685319 0.60050011
-0.04914286 0.046857145 0.60000002
-0.021890085 0.043779291 0.60091668
-0.018649798 0.042616196 0.60121429
-0.05389379 0.054391038 0.60129732
-0.021559685 0.058573656 0.60100007
-0.018320953 0.058971748 0.60116673
-0.08004 0.069600001 0.60900003
-0.076269999 0.069600001 0.60900003
-0.06682159 0.069523811 0.60833335
-0.054520607 0.063171953 0.60254556
-0.02159762 0.061648335 0.60074997
-0.014756027 0.065703437 0.60195661
-0.0091580953 0.069830477 0.60100001
-0.081568338 0.073310003 0.6085
-0.075080104 0.074573986 0.60597086
-0.066930868 0.07139115 0.60341179
-0.01144762 0.070975244 0.60100001
-0.0091580953 0.070975244 0.60100001
-0.07368239 0.084824614 0.60520709
-0.06709481 0.08524017 0.60161293
-0.08102572 0.01702762 0.61650002
-0.077484258 0.01736773 0.61747068
-0.066400953 0.019979049 0.61700004
-0.072956547 0.025588317 0.61802626
-0.065044411 0.024895811 0.61730456
-0.058756363 0.025538782 0.61581826
-0.080175243 0.03537143 0.61900002
-0.074365504 0.034994047 0.61754704
-0.065220825 0.03525437 0.61695856
-0.058867704 0.035068102 0.61708319
-0.074113704 0.045223352 0.61724132
-0.06508068 0.045158386 0.61641538
-0.059005827 0.046367023 0.61724997
-0.10369968 0.057348575 0.61866665
-0.080595046 0.057971429 0.61860001
-0.074566014 0.05529549 0.61694372
-0.065121405 0.055147663 0.616014
-0.058969412 0.055517875 0.61482364
-0.10552476 0.060131431 0.61900002
-0.091911092 0.066070139 0.61790907
-0.084669299 0.065492451 0.61576587
-0.074937075 0.065096721 0.61405385
-0.065179221 0.065177292 0.61414713
-0.058770902 0.065062858 0.61300004
-0.093427137 0.075598896 0.61688673
-0.086614549 0.07378117 0.61400008
-0.062517144 0.070114285 0.6135
-0.10404497 0.088172577 0.61720008
-0.094169177 0.084077708 0.61674988
-0.10624305 0.09182629 0.6170001
-0.025874736 0.0055540618 0.62758833
-0.012665579 0.0061616334 0.62900001
-0.0095847622 0.0077876193 0.62900001
-0.01877016 0.013578414 0.62900001
-0.080825239 0.026542144 0.62287503
-0.07753513 0.024069464 0.62115616
-0.058457144 0.020076191 0.62
-0.020367621 0.027156828 0.62900007
-0.014496953 0.026797395 0.62899995
-0.0072182412 0.026723001 0.62824231
-0.08250507 0.035566207 0.62106442
-0.07912381 0.03385397 0.62
-0.021449842 0.031580638 0.62566674
-0.014452347 0.036956325 0.62868965
-0.0070573878 0.034844786 0.62802565
-0.083410472 0.044309869 0.62165993
-0.078694366 0.043265808 0.61999995
-0.058323424 0.042709332 0.62110007
-0.020238096 0.048809525 0.625
-0.014202152 0.044962864 0.62612957
-0.0067654429 0.045461364 0.62692869
-0.11071429 0.059523813 0.625
-0.10388572 0.058516666 0.62062496
-0.083247297 0.054812275 0.62197059
-0.07912381 0.050780956 0.62
-0.020747939 0.053509366 0.62541664
-0.014875952 0.054738577 0.62473619
-0.0054137101 0.054827377 0.625
0.00083714299 0.058054101 0.62710011
-0.11207099 0.065068781 0.62768418
-0.10539502 0.065103866 0.62461668
-0.097279243 0.066679373 0.62180001
-0.083392382 0.060325719 0.62100005
-0.01397965 0.065068483 0.6237843
-0.0054001608 0.065257683 0.62360591
0.0022436308 0.064998165 0.62790632
-0.11170425 0.074801698 0.62833339
-0.10511844 0.074865088 0.62489694
-0.098405935 0.074233867 0.62077773
-0.017238414 0.070540637 0.62416673
-0.005156883 0.071143731 0.62063628
0.0023931973 0.071307763 0.62842864
-0.11308036 0.087532267 0.62737507
-0.10395672 0.085056104 0.62233329
-0.096657775 0.083824769 0.6213333
-0.1140308 0.090741597 0.62683332
-0.1089981 0.090041906 0.62200004
-0.02069143 -0.062074289 0.63900006
-0.015541979 -0.061512534 0.63900006
-0.02243495 -0.054341044 0.63891304
-0.015204436 -0.055346154 0.63859385
-0.0097327894 -0.054745577 0.63871431
-0.02409186 -0.044681601 0.63820416
-0.015152442 -0.045460787 0.63643765
-0.0097044902 -0.045059595 0.63685721
-0.023558322 -0.034869544 0.63641191
-0.015140189 -0.035129655 0.63597238
-0.0096948156 -0.035143711 0.6362223
-0.02307089 -0.024899885 0.63502455
-0.015115712 -0.024797944 0.63496858
-0.0089842016 -0.024597086 0.63641185
-0.022944177 -0.015245323 0.63561559
-0.015067884 -0.015069375 0.63285917
-0.0087200003 -0.015630953 0.63595009
-0.021948282 -0.0058942125 0.63338464
-0.015042945 -0.0054157129 0.63179696
-0.0086896205 -0.0049489527 0.6336
-0.021666216 0.0036120643 0.63195246
-0.015288116 0.0046650534 0.63155407
-0.0083356956 0.0045750854 0.63244003
-0.014407723 0.015131497 0.63227266
-0.0075903689 0.015355594 0.63402867
-0.020432381 0.028845716 0.63100004
-0.014993395 0.023183569 0.63128144
-0.0070317462 0.021699209 0.63291669
-0.014600393 0.032806329 0.63102973
-0.0084133334 0.03966286 0.63100004
-0.1239475 0.067178413 0.63795239
-0.11716573 0.067881912 0.63413346
0.0055056694 0.066909857 0.63214296
-0.14468953 0.079031758 0.63833338
-0.12361799 0.074096546 0.63607901
-0.11696123 0.074220948 0.63269234
0.0050261905 0.07593324 0.63502502
-0.14410201 0.081222869 0.63818187
-0.13936287 0.081548572 0.63900006
-0.12468707 0.08617942 0.63812906
-0.1178181 0.088363491 0.6311667
-0.0024196825 0.084652066 0.63488895
0.004686553 0.085319906 0.63413626
-0.12057143 0.090428576 0.63300002
-0.11917715 0.090887621 0.63200003
0.00424881 0.093746662 0.63734394
-0.024213599 -0.13336714 0.64789653
-0.017768383 -0.13326249 0.64779997
-0.024058376 -0.12522799 0.64772928
-0.017910784 -0.12513654 0.64777416
-0.031782862 -0.11448001 0.64799994
-0.025121665 -0.11497287 0.64633858
-0.016249893 -0.1152793 0.6467309
-0.030857144 -0.10516115 0.648
-0.025215479 -0.10514671 0.64562517
-0.01549742 -0.10507338 0.64604843
-0.009870477 -0.10302238 0.64775002
-0.030893335 -0.09514074 0.64588892
-0.025161995 -0.095117599 0.64434427
-0.015359046 -0.095242508 0.64517218
-0.031275239 -0.085131578 0.64571428
-0.025138455 -0.085213147 0.64367205
-0.015543328 -0.085403569 0.64398396
-0.031029683 -0.075576991 0.6451667
-0.025159592 -0.075176053 0.64247692
-0.015489373 -0.07502728 0.64177036
-0.0098133339 -0.071146667 0.64400005
-0.03066667 -0.062560007 0.64400005
-0.025056994 -0.065361984 0.64158052
-0.01553909 -0.066557437 0.64125544
-0.0098133339 -0.069920003 0.64400005
-0.031174479 -0.055984516 0.64266676
-0.026548568 -0.055845577 0.64093018
-0.027185548 -0.04612213 0.64017653
-0.0089676194 -0.04850667 0.64200008
-0.028421713 -0.036105905 0.64039999
-0.14125191 0.068625718 0.64625001
-0.13439699 0.068347111 0.64347059
-0.1284961 0.067500316 0.64044452
-0.16045715 0.078994289 0.648
-0.15542036 0.078700811 0.64638466
-0.14350913 0.075592607 0.64525503
-0.13506144 0.074897677 0.64387953
-0.12810043 0.075872503 0.64016676
0.0091467937 0.073738791 0.64313346
0.012333535 0.076776735 0.64410537
-0.16045715 0.080228575 0.648
-0.15798858 0.080228575 0.648
-0.14307395 0.085654393 0.64507413
-0.1379469 0.086254649 0.64518756
-0.12300358 0.082336359 0.64011765
0.0092598647 0.082281098 0.64200008
0.013195749 0.083889082 0.64550018
-0.15035048 0.093044765 0.64700001
-0.14519811 0.091725096 0.64783329
-0.13801715 0.091519244 0.64580005
0.0064000003 0.095390484 0.64000005
-0.035093334 -0.16042668 0.65800005
-0.040285718 -0.1538019 0.65800011
-0.034645207 -0.15474349 0.65677565
-0.027447142 -0.15288131 0.65687501
-0.040339049 -0.14444458 0.65770006
-0.034880411 -0.1453182 0.65521818
-0.025552414 -0.14488415 0.65258753
-0.019325081 -0.14383577 0.65222228
-0.033997014 -0.13538606 0.65275019
-0.026560377 -0.1360137 0.65053332
-0.017817672 -0.13703956 0.65011102
-0.032675993 -0.12479708 0.65113789
-0.029095236 -0.12442859 0.64999998
-0.01547619 -0.12257143 0.65000004
-0.032351427 -0.1157831 0.65012509
-0.031447619 -0.10721906 0.65000004
-0.15346587 0.068886355 0.65458339
-0.14852144 0.068978101 0.65250003
-0.1625118 0.076374933 0.65789473
-0.15439796 0.074841514 0.6540001
-0.14761589 0.072568886 0.6503334
0.012806667 0.073948577 0.65066671
-0.16280442 0.084483966 0.65767998
-0.15517297 0.08582671 0.65540904
-0.14745685 0.087520801 0.65100002
-0.16018286 0.090728574 0.65700001
-0.15533924 0.090948582 0.65500003
-0.14695242 0.092095234 0.6500001
-0.061711431 -0.17177144 0.66800004
-0.059712384 -0.17151429 0.66700006
-0.042051431 -0.1707543 0.66900003
-0.038865715 -0.1707543 0.66900003
-0.052690271 -0.16266285 0.66833329
-0.045029722 -0.16482502 0.6653139
-0.036662359 -0.16387337 0.66265213
-0.052157998 -0.1562597 0.66877776
-0.045278002 -0.15492134 0.66182441
-0.034796514 -0.15931875 0.6603334
-0.027422095 -0.15673524 0.66040003
-0.05097143 -0.14845429 0.66900003
-0.04505723 -0.14771 0.66233331
-0.17430532 0.067671306 0.6649524
-0.17242765 0.075387791 0.6631819
-0.16583011 0.074356191 0.66019344
-0.15902857 0.0704 0.66000003
-0.17272027 0.084961489 0.66526091
-0.16730992 0.085805319 0.66166663
-0.17165548 0.09119197 0.66700006
-0.16483065 0.091759048 0.66141677
-0.06463708 -0.17169033 0.67623526
-0.055883434 -0.17121029 0.6728
-0.045314051 -0.17152001 0.67012501
-0.039561905 -0.17228572 0.67000002
-0.064542882 -0.16487551 0.6766364
-0.055820577 -0.16638643 0.67108333
-0.049133338 -0.16973335 0.67000002
-0.062663555 -0.15755178 0.67700005
-0.056231458 -0.15457247 0.67169225
-0.05334191 -0.14916238 0.67075002
-0.16184287 -0.11163048 0.67883337
-0.15445335 -0.11180167 0.67856246
-0.14474818 -0.11179144 0.6785
-0.13704784 -0.11162138 0.67877775
-0.1622543 -0.10989286 0.67875004
-0.15390997 -0.10712633 0.67451733
-0.14483772 -0.105783 0.67522454
-0.13542637 -0.10610978 0.67570841
-0.12492137 -0.10485135 0.67891997
-0.1749319 0.096599393 0.67382342
-0.16941562 0.096631244 0.6728
-0.17478968 0.1024351 0.67403567
-0.16916327 0.10193879 0.67500007
-0.081367627 -0.17192191 0.68900001
-0.075571872 -0.17268552 0.68440008
-0.069942862 -0.17161906 0.68000001
-0.08200413 -0.16575713 0.68883342
-0.075432502 -0.16494839 0.68388247
-0.069223285 -0.16622223 0.67999995
-0.073435813 -0.15711771 0.68352014
-0.06580171 -0.15422089 0.68217957
-0.058838863 -0.15111315 0.68040001
-0.062507309 -0.14975557 0.68366671
-0.058344133 -0.14909843 0.68066669
-0.16279691 -0.1211981 0.68787515
-0.15461466 -0.1232511 0.68723089
-0.14465077 -0.12267911 0.6873914
-0.13523659 -0.12192899 0.68737507
-0.12948826 -0.12117651 0.68900001
-0.17349859 -0.11449669 0.68627596
-0.16535659 -0.11552212 0.68397444
-0.15475436 -0.11686664 0.68257135
-0.14527708 -0.11685366 0.68183333
-0.13463312 -0.11567904 0.68253672
-0.12566347 -0.11415023 0.68502086
-0.11664401 -0.11213682 0.68766671
-0.12379608 -0.10740865 0.68035299
-0.11530665 -0.10583742 0.68547994
-0.10717621 -0.1031983 0.68780768
-0.093727618 -0.17262232 0.69300008
-0.085876748 -0.17411754 0.6911177
-0.093716137 -0.16555473 0.69344735
-0.085953459 -0.1647141 0.69112533
-0.092096366 -0.15717424 0.69305891
-0.085564137 -0.15777436 0.69393349
-0.077739052 -0.15641743 0.69342864
-0.10219797 -0.1440492 0.69343758
-0.099571429 -0.14205524 0.69700003
-0.17017905 -0.13029334 0.69800001
-0.16456045 -0.13166787 0.69715387
-0.15455323 -0.13322702 0.69659263
-0.14451371 -0.13359615 0.69566679
-0.13542421 -0.13386111 0.69597381
-0.12640998 -0.13131709 0.69746155
-0.19078667 -0.12098667 0.69800001
-0.18363279 -0.12270078 0.69700003
-0.17488831 -0.12459932 0.69486499
-0.16519755 -0.12577215 0.69241035
-0.15510565 -0.12798688 0.69194746
-0.14485386 -0.12727423 0.69084018
-0.13456406 -0.12701155 0.69087112
-0.12484636 -0.12504488 0.69324499
-0.11599768 -0.12378556 0.69621068
-0.10902096 -0.12098667 0.69800001
-0.19071279 -0.11699811 0.69800001
-0.18469056 -0.11610518 0.69481826
-0.17656626 -0.1184679 0.69036371
-0.1226581 -0.11858325 0.69020003
-0.11421876 -0.11603089 0.69200015
-0.1057362 -0.11420107 0.69511372
-0.099714287 -0.11101525 0.69800001
-0.10359257 -0.10656226 0.69146889
-0.097793423 -0.10486867 0.69579172
-0.10514285 -0.099228576 0.69000006
-0.13553144 -0.22116572 0.708
-0.12445715 -0.22184366 0.70784622
-0.11499579 -0.22305863 0.70789301
-0.10713619 -0.22168358 0.70749998
-0.14443712 -0.21455476 0.70760494
-0.1348222 -0.2151047 0.705796
-0.12498915 -0.21504675 0.70560408
-0.11510878 -0.21503185 0.70744097
-0.10546895 -0.21440589 0.70749003
-0.099344768 -0.21352382 0.70800006
-0.15238857 -0.20228572 0.708
-0.14447486 -0.20441996 0.7064212
-0.13535175 -0.20503592 0.70355076
-0.12526597 -0.20498367 0.70337474
-0.11485069 -0.20455234 0.7055766
-0.10503142 -0.20468059 0.70695937
-0.097713016 -0.20511982 0.70780963
-0.15442857 -0.19202858 0.70500004
-0.14405778 -0.1949895 0.70612836
-0.13515089 -0.19491714 0.70393205
-0.12515476 -0.1952856 0.70404893
-0.11496101 -0.19496089 0.70589322
-0.1064028 -0.19562207 0.70761132
-0.1435681 -0.18508352 0.7070573
-0.13492647 -0.18527175 0.70483941
-0.12471634 -0.18487932 0.70582181
-0.11506335 -0.18541843 0.70746797
-0.10539554 -0.18503946 0.70765984
-0.098675154 -0.18461975 0.70700008
-0.14305918 -0.17518035 0.70745957
-0.13436833 -0.17534581 0.70542878
-0.12512298 -0.17568795 0.70735866
-0.11425128 -0.17549229 0.70751131
-0.10460888 -0.17476901 0.70406002
-0.097986087 -0.17615093 0.70100009
-0.14255472 -0.16531409 0.70752794
-0.13472739 -0.16504022 0.70732176
-0.12530455 -0.16479354 0.7079109
-0.11486942 -0.16462205 0.70800012
-0.10434774 -0.16777326 0.70556015
-0.098772392 -0.16751334 0.70074999
-0.15265828 -0.15130971 0.708
-0.1438296 -0.15428755 0.70780498
-0.1348374 -0.15506393 0.70789808
-0.12706539 -0.15620954 0.70800012
-0.11530287 -0.15845716 0.708
-0.083012544 -0.15597381 0.70094121
-0.078501433 -0.15499809 0.70150006
-0.16312978 -0.14318168 0.70706248
-0.15458228 -0.14452378 0.70438105
-0.14492154 -0.14512658 0.70295745
-0.13476001 -0.14499839 0.70445287
-0.12548761 -0.14459683 0.70600009
-0.11844932 -0.14121164 0.70755559
-0.1926816 -0.13142286 0.70166671
-0.18220952 -0.1311162 0.70600003
-0.17444858 -0.13348782 0.70400017
-0.16487983 -0.13669309 0.70232165
-0.1551955 -0.13784891 0.70050001
-0.14591667 -0.13883333 0.69999993
-0.13415825 -0.13838285 0.70024991
-0.12445679 -0.13605018 0.70188105
-0.11560961 -0.13434181 0.70560485
-0.10923429 -0.13081144 0.708
-0.19225347 -0.12748307 0.70353341
-0.18625814 -0.12729208 0.70152187
-0.17831764 -0.12923096 0.70125002
-0.11267907 -0.12731726 0.70194447
-0.10611665 -0.12411735 0.70524246
-0.099794291 -0.12137143 0.708
-0.10264508 -0.11814255 0.70216674
-0.096063562 -0.11407898 0.70458347
-0.093156353 -0.10694429 0.7029168
-0.13171577 -0.23323409 0.71700001
-0.12520812 -0.23502326 0.71563381
-0.1161797 -0.23341519 0.71322221
-0.14344764 -0.22286141 0.71307689
-0.13430762 -0.22547334 0.71307683
-0.12533577 -0.22717668 0.71255183
-0.11469726 -0.22790146 0.71063161
-0.10592291 -0.22453767 0.71033341
-0.15018478 -0.2124235 0.71033335
-0.14663675 -0.21638097 0.7100001
-0.10311905 -0.21874763 0.71000004
-0.15127067 -0.2045821 0.7103501
-0.14876191 -0.20826668 0.71000004
-0.10007619 -0.20218095 0.71000004
-0.098273024 -0.20060317 0.71000004
-0.1528735 -0.19447531 0.71157575
-0.14876193 -0.19474287 0.7100001
-0.10211562 -0.19424419 0.71007687
-0.098268822 -0.1946781 0.71037501
-0.15350688 -0.18493003 0.71334225
-0.14827013 -0.18453854 0.71000004
-0.10007619 -0.18662858 0.71000004
-0.098273024 -0.185727 0.71000004
-0.16023429 -0.17119049 0.71900004
-0.15386146 -0.17486858 0.71378386
-0.14819728 -0.17505389 0.71007144
-0.1213279 -0.17175239 0.7100001
-0.11833333 -0.17175239 0.71000004
-0.16167872 -0.16599622 0.71746153
-0.1548375 -0.16493185 0.71413475
-0.14771642 -0.16478033 0.71038896
-0.1210381 -0.16769525 0.71000004
-0.11445679 -0.16596213 0.71015388
-0.10568602 -0.16335866 0.71182048
-0.098723814 -0.1643143 0.71000004
-0.16107287 -0.15664333 0.71512508
-0.15537952 -0.15555583 0.71242124
-0.14756571 -0.15798059 0.71010005
-0.12402438 -0.15459892 0.710814
-0.11460244 -0.15485394 0.7110703
-0.10678692 -0.15573058 0.71372426
-0.17454761 -0.14353175 0.71566671
-0.16672359 -0.14608265 0.71194452
-0.15901715 -0.14886668 0.7105
-0.1215473 -0.14820826 0.71166676
-0.11407701 -0.14522837 0.71163982
-0.10814086 -0.14527401 0.71549988
-0.18134668 -0.13465714 0.7105
-0.17433222 -0.13902934 0.71280003
-0.11172744 -0.13773163 0.71099997
-0.10634575 -0.13380748 0.71377414
-0.10292358 -0.12710455 0.71211773
-0.097701177 -0.12329726 0.71594107
-0.092561163 -0.11599649 0.71384621
-0.086714841 -0.11144845 0.71292865
-0.091120005 -0.10608 0.71400005
-0.086553551 -0.10759185 0.7125001
-0.14439423 -0.23406413 0.72574186
-0.13675152 -0.23535453 0.72275007
-0.1513543 -0.22842002 0.72900003
-0.14562266 -0.22892679 0.72500002
-0.1385143 -0.22902858 0.72000003
-0.16121778 -0.17356637 0.72033346
-0.15908572 -0.17554286 0.72000003
-0.10441652 -0.142666 0.72552001
-0.099977143 -0.14024572 0.72900003
-0.10319228 -0.13611989 0.7248947
-0.098131433 -0.1330594 0.72281832
-0.10011429 -0.1289143 0.72000003
-0.094238915 -0.12526123 0.72153574
-0.089390479 -0.12170857 0.72200006
-0.090920001 -0.11836857 0.72050005
-0.088359997 -0.11769353 0.72381836
-0.15440267 -0.22686477 0.73159999
