# .PCD v0.7 - Point Cloud Data file format
VERSION 0.7
FIELDS x y z
SIZE 4 4 4
TYPE F F F
COUNT 1 1 1
WIDTH 510
HEIGHT 1
VIEWPOINT 0 0 0 1 0 0 0
POINTS 510
DATA ascii
-0.14198238 0.069542855 0.6085
-0.13542287 0.069218092 0.6087001
-0.14290418 0.075630784 0.60860598
-0.13481921 0.075187556 0.60839719
-0.12881474 0.076153688 0.6086843
-0.1442866 0.085125916 0.60829431
-0.13499314 0.084784746 0.60821557
-0.12613505 0.085070081 0.60850793
-0.11948001 0.08642 0.60900003
-0.095700003 0.089320004 0.60900003
-0.14386456 0.090671755 0.60855561
-0.13214256 0.094839886 0.60699999
-0.12664713 0.093683027 0.60673934
-0.095700003 0.09048 0.60900003
-0.12870285 0.10042286 0.60600001
-0.16978286 -0.11908381 0.61900002
-0.14105143 0.068194285 0.61200005
-0.13452205 0.068252899 0.61376923
-0.12619498 0.068484902 0.61464286
-0.11257143 0.067985192 0.61422223
-0.10594103 0.06798178 0.61443484
-0.093495242 0.068216197 0.61750001
-0.086078718 0.067269102 0.61872011
-0.16126858 0.078868575 0.61800003
-0.15432578 0.077000819 0.61435008
-0.1464375 0.074632317 0.61140007
-0.13521525 0.070524767 0.61199999
-0.12430888 0.074255399 0.61171639
-0.11512 0.074754767 0.61283779
-0.10535151 0.074920461 0.61456788
-0.09496244 0.07510072 0.61558777
-0.084908731 0.075016871 0.61706769
-0.077431381 0.076686822 0.61889488
-0.16159543 0.083935082 0.61775005
-0.15489757 0.084081762 0.61411768
-0.14838572 0.080884762 0.611
-0.13907525 0.089613333 0.611
-0.12177882 0.082601234 0.61129421
-0.11507264 0.084947795 0.61219162
-0.10504986 0.084569722 0.61391205
-0.095133036 0.084953181 0.6145137
-0.084331602 0.083315097 0.61705661
-0.075332724 0.085250959 0.61831576
-0.13907525 0.090777144 0.611
-0.11423486 0.09639246 0.61647826
-0.097920001 0.090925716 0.61200005
-0.072956957 0.090610676 0.61780006
-0.11458572 0.1006781 0.61700004
-0.18127112 -0.12443715 0.62816668
-0.17503788 -0.1239733 0.62561762
-0.16566421 -0.12307495 0.62559378
-0.15598102 -0.12212461 0.62715393
-0.17222224 -0.11888256 0.62
-0.16428183 -0.11865771 0.6214
-0.15535395 -0.11698875 0.6228683
-0.14522153 -0.11574418 0.62323326
-0.13682719 -0.11376997 0.62799996
-0.13099176 -0.1086273 0.62900007
-0.080563813 0.059238099 0.62200004
-0.079379052 0.059238099 0.62200004
-0.13599524 0.068351053 0.62300009
-0.094235882 0.06760563 0.62183994
-0.083818167 0.064929985 0.62063414
-0.074797541 0.065331668 0.62248063
-0.065223798 0.065520324 0.62489831
-0.054966055 0.065878138 0.62417638
-0.04504016 0.066294789 0.62615687
-0.037749525 0.067517266 0.62668759
-0.02213762 0.069406666 0.62825
-0.017372381 0.069489524 0.62900001
-0.096838102 0.070857145 0.62
-0.080304764 0.071447626 0.62
-0.073906444 0.074221395 0.62004477
-0.065022461 0.07472156 0.62170905
-0.055212811 0.074807979 0.62340295
-0.04523449 0.074996315 0.62496299
-0.035178889 0.075127818 0.62606919
-0.025173796 0.075090073 0.62677193
-0.015290014 0.075057276 0.62839675
-0.0072711995 0.075975746 0.62899989
-0.16297144 0.08384762 0.62
-0.072038107 0.082303308 0.62
-0.065166824 0.084713809 0.62147945
-0.055456571 0.084452815 0.62399995
-0.045526933 0.083820142 0.6245386
-0.035203308 0.084076762 0.62487996
-0.0247449 0.085036017 0.6271283
-0.015984565 0.083921514 0.62847918
-0.0078822058 0.084118918 0.62899995
-0.066939048 0.090041906 0.62200004
-0.021898504 0.092040829 0.62871432
-0.01797143 0.091055244 0.62900007
-0.20217827 -0.13286398 0.63750005
-0.19591694 -0.13184473 0.63809532
-0.18476085 -0.13280094 0.63699996
-0.17483963 -0.13317148 0.63600004
-0.16500083 -0.13292105 0.63541031
-0.15571301 -0.13189416 0.63710523
-0.1471581 -0.13074033 0.63849998
-0.19423458 -0.12691987 0.63496894
-0.18568492 -0.12758727 0.63300002
-0.17423396 -0.12840573 0.63163644
-0.16468892 -0.12768529 0.63131827
-0.15424615 -0.12668513 0.63279498
-0.1453101 -0.12469507 0.63506454
-0.13768886 -0.1230604 0.63705879
-0.14296928 -0.11886643 0.63274997
-0.13372591 -0.11562223 0.63400006
-0.1285502 -0.11268398 0.63715392
-0.13355947 -0.108809 0.63171434
-0.12901714 -0.10902858 0.63600004
-0.00544619 0.0081815477 0.63612497
-0.012314049 0.015507501 0.63849998
-0.0069025229 0.015023763 0.63865012
-0.043525312 0.026901409 0.63603461
-0.036483813 0.027566191 0.63850009
-0.012644764 0.026100954 0.639
-0.0075202044 0.024994897 0.63900006
-0.052951884 0.035620149 0.63557905
-0.045320209 0.035048109 0.63448584
-0.037005644 0.034949943 0.63647169
-0.01415303 0.034793336 0.63826013
-0.0072950954 0.034656908 0.63842517
-0.061262861 0.048280001 0.63900006
-0.05511732 0.045319241 0.63644618
-0.04527447 0.045272473 0.63382798
-0.037392564 0.045107398 0.63676202
-0.014061611 0.04489984 0.63832742
-0.0061780955 0.045368887 0.63828355
0 0.048685715 0.63900006
-0.061378781 0.052684907 0.63900006
-0.05472723 0.054822955 0.63596559
-0.045281913 0.054940786 0.63393742
-0.036379822 0.055160243 0.63560015
-0.014457529 0.055321265 0.6383335
-0.0054602688 0.055238493 0.63739091
0.00040571429 0.054095242 0.639
-0.053793862 0.061642222 0.63455564
-0.045164049 0.061421603 0.63229173
-0.03525072 0.064628236 0.63527465
-0.02069143 0.068768576 0.63900006
-0.014662604 0.065398164 0.63530004
-0.0053764712 0.065103628 0.63577944
0.0024313652 0.066490166 0.63780004
-0.030818095 0.070097148 0.63450003
-0.027329048 0.070456192 0.63775003
-0.011739047 0.072089046 0.63212502
-0.0041379728 0.073867023 0.63205141
0.0040078787 0.075282469 0.63577271
0.011258571 0.077897146 0.63900006
-0.012985144 0.086243689 0.63120008
-0.0041391361 0.08477927 0.63165134
0.0042647622 0.084810264 0.63458449
0.010954286 0.08033143 0.63900006
-0.020432381 0.094349526 0.63100004
-0.017330874 0.096302047 0.63295841
-0.19176722 -0.14245948 0.64722222
-0.1851082 -0.1415025 0.64673334
-0.17480914 -0.14286277 0.64611995
-0.16503356 -0.143287 0.64596784
-0.15533699 -0.14211066 0.6465807
-0.14769606 -0.14117552 0.64771438
-0.20114288 -0.13206351 0.64000005
-0.19451171 -0.13628563 0.64122587
-0.18467069 -0.13741496 0.64085716
-0.17484915 -0.1384804 0.64073336
-0.16451405 -0.13834846 0.64172739
-0.15474617 -0.13640523 0.64217156
-0.14489576 -0.13537942 0.64488679
-0.13763265 -0.13156661 0.64593333
-0.14126953 -0.12906572 0.64075005
-0.13402152 -0.12566848 0.64393193
-0.1275364 -0.12261923 0.64600003
-0.12425565 -0.11506627 0.64336848
-0.12355048 -0.10885171 0.64314294
-0.0036571431 0.0097523816 0.64000005
0.0014298414 0.0093765082 0.64200008
-0.023325125 0.016941477 0.64331055
-0.016646774 0.01745552 0.64111125
-0.0028099383 0.015750643 0.6403479
0.0029945755 0.01567143 0.64463061
-0.034079153 0.025510266 0.64444447
-0.024615504 0.02521353 0.64373678
-0.01626116 0.024561536 0.64056516
-0.0038948145 0.024965083 0.64022231
0.0038470512 0.02546045 0.64566678
-0.05843867 0.037576001 0.64050001
-0.031848256 0.03511183 0.64212507
-0.025123341 0.034921642 0.64328146
-0.018999731 0.034251433 0.64057148
-0.0024392859 0.034767225 0.64045841
0.0040527619 0.034650259 0.64401686
-0.061171435 0.043693658 0.64016676
-0.059733339 0.041447621 0.64000005
-0.032426663 0.045311764 0.64290333
-0.025172146 0.044804852 0.64445323
-0.018910479 0.045139525 0.64050007
-0.0019303177 0.043179847 0.64008331
0.0030608699 0.044861946 0.64186978
-0.062715881 0.056209631 0.64072233
-0.059358101 0.058341905 0.64033341
-0.03133304 0.054296445 0.64178956
-0.02496656 0.054817908 0.64292663
-0.0192942 0.054999135 0.64036369
0.0042871428 0.055205487 0.64256275
-0.062176909 0.06217619 0.64162505
-0.059170481 0.062220003 0.64050007
-0.031196341 0.063703157 0.64130771
-0.025350537 0.064980716 0.64206058
-0.019059047 0.062969767 0.64037508
0.005785434 0.064182028 0.64150012
0.011395557 0.069187306 0.64100003
0.008880347 0.072701469 0.64100009
0.012783969 0.074454211 0.64170849
0.0095116189 0.083408765 0.64020008
0.012491577 0.082461104 0.64100003
-0.18173334 -0.15102667 0.65800005
-0.17509776 -0.15316246 0.65678579
-0.16437286 -0.15366676 0.65602863
-0.1554971 -0.15382537 0.65668195
-0.14786096 -0.15108356 0.65785718
-0.19082795 -0.1482362 0.65766668
-0.18549334 -0.14633876 0.65311116
-0.1753875 -0.14772448 0.65171427
-0.16491735 -0.1480487 0.65072215
-0.15452929 -0.14737505 0.65200001
-0.14460954 -0.14518203 0.65510207
-0.13682202 -0.14113756 0.65766674
-0.14128636 -0.13922161 0.65066671
-0.13488068 -0.13536285 0.65309536
-0.12761036 -0.13230345 0.65643752
-0.13061905 -0.1287619 0.65000004
-0.12495607 -0.12540349 0.65370977
-0.11905429 -0.12092666 0.65450001
-0.17346342 -0.11353757 0.65450013
-0.16042668 -0.11029334 0.65800005
-0.12015685 -0.11582254 0.6503334
-0.11638737 -0.11425068 0.6553216
-0.16042668 -0.10904001 0.65800005
-0.15672654 -0.1077943 0.65750003
-0.11200286 -0.10887429 0.65700001
0.0068200002 0.01736 0.65100002
-0.031866498 0.025899049 0.65027285
-0.029721906 0.025387939 0.65016675
-0.15295978 -0.22187859 0.66850007
-0.14452928 -0.22271587 0.66664296
-0.13767843 -0.22190098 0.66825008
-0.16097371 -0.21191466 0.66860008
-0.15421098 -0.21470705 0.66439033
-0.14482404 -0.21463078 0.66315508
-0.13520525 -0.21498013 0.66629636
-0.12955239 -0.21379682 0.66900009
-0.16262384 -0.20460159 0.66783994
-0.15462859 -0.20477216 0.66348332
-0.14451481 -0.20504273 0.66223043
-0.13481697 -0.20487778 0.66476125
-0.12955517 -0.20560177 0.66884625
-0.16345897 -0.19459569 0.66611439
-0.154502 -0.19483757 0.66280323
-0.14448664 -0.19496505 0.66249973
-0.13528498 -0.19500336 0.66634387
-0.12997715 -0.19496572 0.66900009
-0.16360804 -0.18491668 0.66542125
-0.154985 -0.18467107 0.66225863
-0.14485703 -0.18482894 0.66197109
-0.13562514 -0.18521018 0.66655183
-0.12997715 -0.18859431 0.66900003
-0.17107287 -0.17330286 0.66900009
-0.16437963 -0.17485742 0.66439641
-0.15452151 -0.17470342 0.66223425
-0.14460491 -0.17491612 0.66304672
-0.13755639 -0.17526628 0.66663647
-0.17279992 -0.16392517 0.66624999
-0.16506733 -0.16501059 0.66312778
-0.15490726 -0.16500133 0.66212481
-0.14477329 -0.16500756 0.66382807
-0.13820209 -0.16558047 0.66750002
-0.19490807 -0.15188089 0.66600007
-0.18587169 -0.15276214 0.66212505
-0.17383328 -0.15754789 0.66076469
-0.16600132 -0.15845129 0.66061544
-0.15366039 -0.15847059 0.66029412
-0.14466684 -0.15566301 0.66270381
-0.13838993 -0.15399456 0.66657138
-0.14116763 -0.14871381 0.66025001
-0.13560745 -0.14547502 0.66276193
-0.12857334 -0.14045525 0.66833341
-0.13135238 -0.13875668 0.66150004
-0.12474147 -0.13449872 0.66289657
-0.11906922 -0.13265419 0.66188896
-0.19139771 -0.12335086 0.66900009
-0.18511511 -0.12349422 0.6680001
-0.17566672 -0.12252356 0.66479313
-0.16576643 -0.1213075 0.66687506
-0.15914619 -0.12110333 0.66575003
-0.12200879 -0.12775758 0.66227782
-0.11587946 -0.12251221 0.66438097
-0.10909715 -0.12051429 0.66600001
-0.18504098 -0.11890828 0.66766667
-0.17497958 -0.11833767 0.6632778
-0.16433941 -0.11712626 0.66475004
-0.15749919 -0.11402477 0.66348153
-0.11368006 -0.11658389 0.66197312
-0.10891345 -0.11595493 0.66488892
-0.15337144 -0.10874286 0.66000003
-0.15514238 -0.24079476 0.67875004
-0.16347149 -0.23322354 0.67512113
-0.15506515 -0.23543501 0.6762408
-0.14561252 -0.2350795 0.67810535
-0.13615716 -0.23113193 0.67837501
-0.18080001 -0.2208343 0.67800003
-0.1746309 -0.22331613 0.67634493
-0.16534998 -0.22506382 0.67460358
-0.15547296 -0.2260025 0.67156756
-0.14552583 -0.22798453 0.67116672
-0.13411741 -0.22538888 0.6728158
-0.1277889 -0.22267398 0.67541671
-0.18092574 -0.2149418 0.67571437
-0.17509304 -0.21495229 0.67503476
-0.16561805 -0.21540418 0.67215556
-0.15952381 -0.21822858 0.67000002
-0.13144761 -0.21950477 0.67000002
-0.12552206 -0.2147211 0.67354363
-0.18139155 -0.20480023 0.67433339
-0.17543587 -0.20499535 0.67474961
-0.16718833 -0.20593256 0.67095459
-0.12485044 -0.20500594 0.6743651
-0.18223098 -0.19505852 0.67374068
-0.17550549 -0.19476759 0.67424566
-0.16866288 -0.19553238 0.67166662
-0.13017143 -0.19525716 0.67000002
-0.12602979 -0.19488451 0.67434549
-0.18305629 -0.18508296 0.67496151
-0.17579822 -0.18496133 0.67395979
-0.16928075 -0.18549083 0.67053849
-0.13131361 -0.18268844 0.67071432
-0.12700798 -0.18511227 0.67456096
-0.19055113 -0.17287557 0.67900008
-0.18461962 -0.17508644 0.6755743
-0.17618074 -0.17537323 0.67204654
-0.16973335 -0.17994286 0.67000002
-0.13288911 -0.17483902 0.6724751
-0.12800407 -0.17587845 0.67661756
-0.095060006 -0.17718667 0.67900002
-0.19083963 -0.16446438 0.67880005
-0.18496594 -0.16516626 0.67536944
-0.17684762 -0.16762783 0.67179996
-0.13332593 -0.16475876 0.67392582
-0.12933335 -0.16813335 0.67900008
-0.19028573 -0.15878573 0.67500001
-0.18693475 -0.15866858 0.67449999
-0.13366029 -0.15555313 0.67428845
-0.1315773 -0.14685199 0.67207152
-0.12867469 -0.14422299 0.67646676
-0.1149036 -0.13149884 0.67316657
-0.10917207 -0.13177398 0.67166674
-0.19164127 -0.12442857 0.67000002
-0.18674922 -0.12676826 0.67000002
-0.15556461 -0.12147111 0.67460006
-0.14848 -0.12032001 0.67200005
-0.12032001 -0.12928 0.67200005
-0.11425536 -0.12695916 0.67250019
-0.10893634 -0.12611756 0.67171437
-0.19015239 -0.11996191 0.67000002
-0.15339148 -0.11596824 0.672925
-0.14712395 -0.11436656 0.67600006
-0.14582753 -0.10872676 0.67809087
-0.15305397 -0.24156193 0.68000001
-0.14830476 -0.2409143 0.68000001
-0.14169334 -0.23827468 0.68059999
-0.13426477 -0.23540421 0.68113959
-0.12550703 -0.23271237 0.68296289
-0.11847112 -0.23171559 0.68600005
-0.12398819 -0.22589865 0.68304092
-0.11697752 -0.224636 0.68555576
-0.12167668 -0.21650968 0.68200004
-0.11552234 -0.21495683 0.68491095
-0.10892735 -0.21282777 0.68428576
-0.12061906 -0.20432381 0.67999995
-0.11543852 -0.20519388 0.68507826
-0.10825696 -0.20515653 0.68589664
-0.12151769 -0.19481778 0.68111116
-0.11571247 -0.19511783 0.68570971
-0.10936144 -0.19549923 0.68691677
-0.12277817 -0.18507887 0.68283331
-0.11550968 -0.1852603 0.68577623
-0.10964857 -0.18529049 0.68666673
-0.19132954 -0.17154573 0.68100005
-0.12350652 -0.1744792 0.68273169
-0.11559867 -0.17529228 0.68519682
-0.10526413 -0.174486 0.68546021
-0.094927624 -0.17403212 0.68534046
-0.083467439 -0.17126574 0.68900007
-0.078305408 -0.171047 0.68900001
-0.19267921 -0.16525769 0.68085724
-0.12485059 -0.16481547 0.68343455
-0.11581764 -0.16653848 0.68753654
-0.10517762 -0.16644366 0.68715101
-0.0954144 -0.16631186 0.68718761
-0.085294731 -0.16768636 0.68847841
-0.13009524 -0.15286191 0.68300003
-0.12493936 -0.15496741 0.68445599
-0.1180583 -0.15474805 0.68655556
-0.092532277 -0.15538624 0.68744451
-0.089241907 -0.15420477 0.68900001
-0.033074562 -0.15640192 0.68671435
-0.029314287 -0.15438858 0.68400002
-0.12443715 -0.14555033 0.6846326
-0.11876573 -0.14780001 0.6884287
-0.12098858 -0.13920191 0.68300003
-0.14256874 -0.11259322 0.68000001
-0.13988572 -0.1120381 0.68000001
-0.14182858 -0.1088 0.68000001
-0.022108572 -0.073695257 0.68900007
-0.01514286 -0.074099064 0.68900001
-0.021960506 -0.065006606 0.68900013
-0.015443953 -0.064228229 0.68849987
-0.022603905 -0.053919233 0.68790013
-0.015238026 -0.055164196 0.68801844
-0.023161253 -0.044764176 0.68868744
-0.015063928 -0.045193203 0.68771875
-0.0086722355 -0.044470184 0.68823093
-0.023107396 -0.034928903 0.68747067
-0.015120005 -0.034624219 0.68695265
-0.0081669474 -0.034904208 0.68758827
-0.022942046 -0.024910344 0.68828577
-0.015036261 -0.024832277 0.68616092
-0.0079344604 -0.025758272 0.68390912
-0.022894988 -0.015615494 0.68686676
-0.015021311 -0.015019671 0.68551576
-0.0077483989 -0.014077922 0.68309087
-0.02161905 -0.0052435379 0.68785727
-0.014990818 -0.0052126553 0.68414283
-0.0071552387 -0.005203811 0.68299997
-0.022435362 0.0040779295 0.68413043
-0.014981252 0.0045589586 0.68382776
-0.0071573164 0.0030764502 0.68313628
-0.020937143 0.011122857 0.68700004
-0.015755855 0.012304218 0.68503582
-0.0091200005 0.010422857 0.68400002
-0.090685718 -0.17480001 0.69000006
-0.085879095 -0.17386217 0.69024026
-0.073424138 -0.17171811 0.69111115
-0.064721763 -0.17093992 0.6923846
-0.056651432 -0.17088172 0.69329995
-0.11549644 -0.16356929 0.69150007
-0.10384362 -0.16102324 0.69010007
-0.094565988 -0.16165714 0.6900003
-0.08445286 -0.16335562 0.69068313
-0.074991003 -0.16511324 0.69071454
-0.065307289 -0.16488057 0.69137323
-0.05508367 -0.16498564 0.69356632
-0.045527048 -0.16190173 0.69585007
-0.039080478 -0.16228478 0.69550002
-0.10162181 -0.15627207 0.69138896
-0.095630266 -0.15480794 0.69280851
-0.084573969 -0.15662937 0.69226211
-0.074711792 -0.15536971 0.69401735
-0.064876877 -0.15513726 0.69375831
-0.055002555 -0.15489121 0.69437176
-0.045035385 -0.15480967 0.69418013
-0.03574409 -0.15433455 0.69452095
-0.028396735 -0.15239459 0.69571435
-0.12091429 -0.1426 0.69000006
-0.11894286 -0.1426 0.69000006
-0.095314287 -0.14959048 0.69500005
-0.062626295 -0.14860724 0.69660008
-0.053782415 -0.14691298 0.6971668
-0.044959784 -0.14553861 0.69654715
-0.035091199 -0.1449894 0.69515616
-0.025750522 -0.14416854 0.69409102
-0.019828573 -0.14144382 0.69400001
-0.041687239 -0.13833791 0.69700003
-0.034685615 -0.13515906 0.69581121
-0.025166363 -0.13492812 0.69394016
-0.019038668 -0.1330044 0.69410002
-0.032958452 -0.12474032 0.6943422
-0.025167866 -0.12489778 0.6934002
-0.018089389 -0.12427241 0.6925
-0.032544035 -0.11536328 0.69396567
-0.025010398 -0.1149834 0.6932404
-0.015676573 -0.11477278 0.69404012
-0.030836001 -0.10666952 0.69480014
-0.025127206 -0.10501961 0.69294566
-0.016320687 -0.10541312 0.69321287
-0.030950798 -0.095056042 0.69391674
-0.024987724 -0.094979636 0.69180024
-0.015956344 -0.094952375 0.69118387
-0.031438943 -0.0845346 0.69411117
-0.025003431 -0.084880598 0.69087529
-0.016179722 -0.08507517 0.69088244
-0.031475663 -0.075525284 0.6949445
-0.02602439 -0.075396299 0.69075012
-0.016667534 -0.075571448 0.6900003
-0.031083668 -0.06522359 0.69553864
-0.026092401 -0.065113537 0.69075626
-0.016510716 -0.066782147 0.69000018
-0.031714451 -0.055302609 0.69126093
-0.026681595 -0.055609882 0.69035506
-0.010514286 -0.05191429 0.69000006
-0.0092000002 -0.05191429 0.69000006
-0.02570603 -0.047468148 0.69011116
-0.010514286 -0.038114287 0.69000006
-0.042000003 -0.164 0.70000005
-0.091398098 -0.1507743 0.70050001
-0.089460954 -0.15088192 0.70100003
-0.060085718 -0.14754382 0.70100003
-0.010995812 -0.093330294 0.70400006
-0.0087161902 -0.093196198 0.70400006
-0.036104765 -0.084908575 0.70200008
