# .PCD v0.7 - Point Cloud Data file format
VERSION 0.7
FIELDS x y z
SIZE 4 4 4
TYPE F F F
COUNT 1 1 1
WIDTH 545
HEIGHT 1
VIEWPOINT 0 0 0 1 0 0 0
POINTS 545
DATA ascii
-0.14746952 -0.15013143 0.55900002
-0.14452891 -0.14496963 0.55722904
-0.13573487 -0.14327657 0.55607694
-0.12371154 -0.14131258 0.55489999
-0.11925334 -0.14054857 0.55900002
-0.12274516 -0.13797735 0.55530012
-0.11732493 -0.13655442 0.55648285
-0.090504773 0.076662861 0.55900002
-0.086454071 0.076732285 0.55900002
-0.090730473 0.081684291 0.55875003
-0.087310478 0.081502683 0.55900002
-0.14426537 -0.15308137 0.56724012
-0.13461514 -0.152024 0.56656522
-0.12807988 -0.15210626 0.56778568
-0.15349196 -0.14650017 0.56248146
-0.14562574 -0.14784573 0.56100005
-0.13472572 -0.14759386 0.56280649
-0.12540549 -0.14707486 0.56582057
-0.11568835 -0.14302717 0.56509757
-0.10790831 -0.14114723 0.56814295
-0.11279257 -0.13639139 0.56325805
-0.10455216 -0.1350999 0.56542224
-0.097858943 -0.13250032 0.56733334
-0.10089143 -0.12948573 0.56650007
-0.096297666 -0.12881941 0.56572735
-0.10062382 0.069414288 0.565
-0.096544765 0.069447629 0.56440002
-0.085175171 0.068705976 0.56262958
-0.075353235 0.067742489 0.56655562
-0.11139204 0.075523384 0.56827277
-0.1048446 0.075279757 0.56557333
-0.095555432 0.074900277 0.56235623
-0.083505027 0.073377036 0.56076014
-0.075334504 0.074999519 0.56449395
-0.11183789 0.08322534 0.56799996
-0.10491485 0.083325617 0.56470209
-0.096297383 0.083029203 0.56053197
-0.083307117 0.083569139 0.56024456
-0.075782299 0.082507633 0.56278062
-0.069241904 0.081683815 0.56800002
-0.15335467 -0.15743315 0.57880002
-0.14568277 -0.15794268 0.57581824
-0.13602446 -0.15655117 0.57494754
-0.12388007 -0.15342185 0.57423347
-0.11693841 -0.15144493 0.57650012
-0.12268572 -0.14982858 0.57000005
-0.11433854 -0.14738522 0.57234621
-0.10884286 -0.14358573 0.57000005
-0.12161376 0.068361066 0.57577783
-0.11685351 0.06820827 0.57604176
-0.075113975 0.067140803 0.57083344
-0.066508122 0.06819541 0.57641184
-0.13013715 0.079405718 0.57900006
-0.12399763 0.075691506 0.57562727
-0.11631261 0.074648298 0.57172543
-0.0709254 0.074910797 0.57066679
-0.067502178 0.074993573 0.57533956
-0.13013715 0.083817147 0.57900012
-0.12423183 0.083923869 0.57569641
-0.11742555 0.084498741 0.57251614
-0.067722283 0.08133962 0.57630008
-0.14586926 -0.20155272 0.58882368
-0.15025017 -0.19397907 0.58866668
-0.1447061 -0.19523072 0.5879277
-0.13847463 -0.19414797 0.58832145
-0.15158738 -0.18245156 0.58787489
-0.14472468 -0.1846393 0.58730799
-0.13895318 -0.18747906 0.58791661
-0.1536983 -0.17493805 0.58758688
-0.14488898 -0.17475748 0.58537835
-0.13826261 -0.17366952 0.58754551
-0.15273423 -0.16511424 0.58447224
-0.14473121 -0.16500822 0.582986
-0.13531142 -0.16487402 0.58413237
-0.12593101 -0.16369481 0.58634776
-0.11878699 -0.16081142 0.58833337
-0.14227143 -0.15915 0.58125007
-0.13268381 -0.15922287 0.58050001
-0.12467421 -0.15861414 0.58271426
-0.11542325 -0.15614939 0.58543593
-0.15394658 -0.14279345 0.58788002
-0.14479025 -0.14219995 0.58427501
-0.13517845 -0.14185822 0.58484375
-0.12494171 -0.14062326 0.58780009
-0.1038962 -0.14654104 0.58840007
-0.099510483 -0.14591144 0.58700001
-0.16223639 -0.13435999 0.58711112
-0.15511608 -0.13623761 0.58753639
-0.14478795 -0.13612679 0.58648425
-0.13493432 -0.13512263 0.58714676
-0.12700424 -0.13696001 0.58814287
-0.13350941 -0.12828529 0.58792591
-0.1273362 -0.12509239 0.58900005
-0.15137333 0.069262862 0.58650005
-0.14735155 0.068862647 0.58311117
-0.063403271 0.069273748 0.58257145
-0.15089068 0.071758859 0.58680004
-0.14478263 0.07523641 0.58675438
-0.13482922 0.076447025 0.58233345
-0.12925714 0.075123809 0.58000004
-0.06235845 0.075024426 0.58337504
-0.058687631 0.074579604 0.58852953
-0.14398551 0.08366745 0.58663428
-0.13544473 0.083793253 0.58204168
-0.062935621 0.082786493 0.58210009
-0.059057146 0.081900001 0.58500004
-0.14128053 -0.23360814 0.5977273
-0.13545683 -0.23281039 0.59726214
-0.1425705 -0.22403379 0.59473521
-0.13487716 -0.22477704 0.59555429
-0.12892762 -0.22020382 0.59900004
-0.14381906 -0.21476918 0.59233326
-0.13497686 -0.21512683 0.59525007
-0.12522471 -0.21358305 0.59854007
-0.11934362 -0.21244536 0.59900004
-0.14401023 -0.20625107 0.59106505
-0.13522942 -0.20492747 0.59348238
-0.12492732 -0.20503905 0.59677041
-0.1181183 -0.20418984 0.59876668
-0.15084572 -0.19193429 0.59100002
-0.14931239 -0.19233382 0.5905
-0.13362615 -0.19490667 0.5935607
-0.12493145 -0.19508062 0.59579766
-0.11780777 -0.19526553 0.59869248
-0.15059048 -0.18936191 0.59000003
-0.13498166 -0.18455824 0.59186077
-0.12487482 -0.18485413 0.59431714
-0.11718976 -0.18487661 0.59816682
-0.13424413 -0.1756853 0.59110701
-0.12484127 -0.17524953 0.59265816
-0.11620475 -0.17487438 0.59729052
-0.13092381 -0.16969524 0.59000003
-0.12348446 -0.16780411 0.59096301
-0.1168243 -0.1663142 0.59599996
-0.11232945 -0.15465738 0.59543991
-0.10697951 -0.15312722 0.59319997
-0.1946371 -0.14221512 0.59782147
-0.18990286 -0.14214286 0.597
-0.12418096 -0.14103809 0.59000003
-0.11041334 -0.14928286 0.59150004
-0.10645736 -0.14808594 0.59072232
-0.19966668 -0.1391962 0.59900004
-0.15685999 -0.13212223 0.59033346
-0.13598877 -0.13553677 0.59100008
-0.12404923 -0.13380472 0.59299988
-0.11895811 -0.13300344 0.59480006
-0.12430675 -0.12666911 0.59375513
-0.11796911 -0.12413319 0.59403718
-0.12045144 -0.11932572 0.59100002
-0.1173901 -0.11964877 0.59260005
-0.14211476 0.069075242 0.59450006
-0.062683806 0.066662721 0.5976001
-0.057838008 0.067510478 0.59754544
-0.1608547 0.077907763 0.5977143
-0.15509053 0.076493055 0.59371108
-0.14486881 0.073789358 0.59288245
-0.056939211 0.074293509 0.59534794
-0.16065364 0.083249532 0.59757149
-0.15470481 0.084744938 0.59216934
-0.14890477 0.084004775 0.59000015
-0.056476105 0.082570516 0.59190476
-0.15543684 0.09010794 0.59133339
-0.13236621 -0.24271169 0.60449994
-0.12687801 -0.24199486 0.60609519
-0.13244125 -0.23697722 0.60175008
-0.12600835 -0.23444824 0.60537291
-0.11444087 -0.23119795 0.60799998
-0.13028572 -0.22571428 0.59999996
-0.12507901 -0.22500618 0.60180306
-0.11481554 -0.22457869 0.60543108
-0.10816678 -0.221229 0.60844451
-0.13028572 -0.21942858 0.60000002
-0.12520637 -0.21860316 0.60000008
-0.11493579 -0.21523984 0.60187519
-0.10750039 -0.21442918 0.60720009
-0.11327782 -0.20567752 0.60133344
-0.10720472 -0.20519195 0.60697919
-0.11252995 -0.19496149 0.6007309
-0.10728928 -0.19496512 0.60672724
-0.11216632 -0.18509527 0.60090488
-0.10745507 -0.18535262 0.60647619
-0.11118802 -0.17484079 0.60111117
-0.10791149 -0.17470303 0.60630554
-0.11199406 -0.16526051 0.60214716
-0.10850222 -0.16547915 0.60422236
-0.18276954 -0.15106021 0.60540009
-0.17892572 -0.15171048 0.60800004
-0.19315754 -0.14282741 0.60584623
-0.18720108 -0.14773004 0.60593337
-0.20020838 -0.1372263 0.60340005
-0.19788295 -0.13869677 0.60455006
-0.072240159 0.068225242 0.60200012
-0.068561912 0.067521729 0.60081822
-0.053119682 0.069238737 0.60416669
-0.049259052 0.069542855 0.6085
-0.16141143 0.07440953 0.60100001
-0.071547627 0.070975244 0.60100001
-0.053120423 0.075291254 0.60350013
-0.048719238 0.075578585 0.60784
-0.052892346 0.082856171 0.60327584
-0.047831398 0.083669111 0.60539991
-0.12196191 -0.24125417 0.61400008
-0.11987429 -0.24092382 0.61700004
-0.12184091 -0.23702835 0.61264706
-0.11597274 -0.23374523 0.61245459
-0.1093981 -0.2304343 0.611
-0.11143477 -0.22897953 0.611
-0.1061447 -0.22434223 0.61216676
-0.10275017 -0.21581699 0.6140002
-0.09908656 -0.21184404 0.61522222
-0.10268701 -0.20447586 0.61472356
-0.098490126 -0.20523389 0.61478949
-0.10283704 -0.1948767 0.61530006
-0.099895239 -0.19332668 0.61700004
-0.10319684 -0.18480136 0.61348778
-0.099536337 -0.18631539 0.61685723
-0.10377014 -0.17501284 0.61255121
-0.099085718 -0.17369144 0.61200005
-0.1062754 -0.16795763 0.61537498
-0.18161333 -0.15064611 0.61120003
-0.17708355 -0.1521825 0.61722225
-0.16801429 -0.1509181 0.61900002
-0.19241974 -0.1418364 0.61360002
-0.18507949 -0.14580309 0.61425871
-0.17741883 -0.14915791 0.61822224
-0.20110478 -0.134891 0.61344445
-0.1971015 -0.1369535 0.61513895
-0.051346987 0.068268254 0.61266673
-0.047688831 0.068381131 0.61609101
-0.045361675 0.075053804 0.61503029
-0.043460224 0.084163085 0.61661911
-0.038155887 0.087500252 0.61384213
-0.041211434 0.091363817 0.61233342
-0.037770957 0.091437615 0.61250001
-0.17205232 -0.15258516 0.62066674
-0.16828573 -0.15234286 0.62
-0.19110286 -0.14065652 0.62316668
-0.18387803 -0.14330572 0.62404364
-0.17577599 -0.14638489 0.62248778
-0.16828573 -0.14939049 0.62
-0.2004739 -0.13166247 0.625
-0.1953937 -0.13558969 0.62612498
-0.1853859 -0.13738349 0.62780547
-0.17976192 -0.13869047 0.625
-0.20096001 -0.12918858 0.62800002
-0.19976382 -0.12918858 0.62800002
-0.093169153 -0.12352109 0.62739998
-0.087913148 -0.12153238 0.62370008
-0.091776945 -0.11820551 0.62755555
-0.086664006 -0.11555345 0.62528956
-0.044019397 0.06679175 0.62618196
-0.037958864 0.066110484 0.62800002
-0.042088542 0.073894382 0.6238386
-0.038420685 0.075192757 0.62476194
-0.042270474 0.082432792 0.62142849
-0.037438318 0.083452888 0.62694126
-0.11671349 -0.15362382 0.63883334
-0.12110572 -0.14179716 0.63900006
-0.11709082 -0.14438345 0.63848007
-0.19377519 -0.13210134 0.633237
-0.18860179 -0.13350631 0.6321876
-0.12049714 -0.13997144 0.63900006
-0.11928 -0.13997144 0.63900006
-0.10597759 -0.13239841 0.63723081
-0.099314287 -0.13001144 0.63200003
-0.19646877 -0.12807517 0.63554996
-0.18906288 -0.12861145 0.63900006
-0.10247024 -0.12562764 0.63563335
-0.097870484 -0.12457299 0.63230437
-0.10102286 -0.11928 0.63900006
-0.094537877 -0.11533533 0.63482058
-0.087435916 -0.11114043 0.63128579
-0.091863587 -0.10735533 0.63715386
-0.087843195 -0.10794783 0.63346666
-0.036420241 0.068330236 0.63212502
-0.027017664 0.067818701 0.63681829
-0.034247987 0.075505301 0.63738316
-0.028368793 0.073122203 0.63900006
-0.03431756 0.084173881 0.63712013
-0.02921143 0.08033143 0.63900006
-0.030834287 0.099400006 0.63900006
-0.026046176 0.096268885 0.63755184
-0.031037144 0.10163143 0.63900006
-0.10437714 -0.18142819 0.64620006
-0.11109524 -0.17197144 0.64566672
-0.10629863 -0.17468749 0.64679492
-0.11108572 -0.16848001 0.648
-0.11474286 -0.15573335 0.64000005
-0.10910477 -0.15542859 0.64000005
-0.12351952 -0.14275286 0.64125007
-0.11716403 -0.14384763 0.64000005
-0.12245318 -0.13504918 0.64377797
-0.11526058 -0.13468337 0.64301515
-0.10916881 -0.13310573 0.64037502
-0.19240136 -0.12665817 0.64085722
-0.18954286 -0.12534286 0.64200002
-0.12157714 -0.1296 0.648
-0.11422057 -0.12587869 0.64670217
-0.10719481 -0.12408676 0.64348501
-0.11108572 -0.11972572 0.648
-0.10381664 -0.11606865 0.64516675
-0.097880535 -0.11295492 0.64188898
-0.10161104 -0.10876267 0.64740008
-0.096925817 -0.10719981 0.64409524
-0.044434287 0.059245717 0.648
-0.032836594 0.067665659 0.64099997
-0.028737143 0.066034287 0.64200002
-0.031402621 0.072560951 0.64025003
-0.027663032 0.077392206 0.64681816
-0.031259287 0.085163333 0.64043754
-0.026926441 0.085263357 0.64494878
-0.03222803 0.095812656 0.64021432
-0.026942179 0.091549821 0.64085716
-0.032914288 0.10118096 0.64000005
-0.10270122 -0.17371829 0.6528967
-0.096163034 -0.17446399 0.65722746
-0.11063125 -0.16780649 0.65259999
-0.104992 -0.16585881 0.65566647
-0.098234296 -0.16757582 0.65730774
-0.12341017 -0.12494177 0.65389484
-0.11705054 -0.1219347 0.6508823
-0.12226347 -0.11691543 0.65681815
-0.11493528 -0.11512348 0.65412915
-0.10737297 -0.11280353 0.65114284
-0.12282667 -0.10716 0.65800005
-0.1145179 -0.10700553 0.65693557
-0.10601625 -0.10721099 0.65344828
-0.033763811 0.029385716 0.65650004
-0.054456782 0.036878519 0.65383339
-0.045191847 0.036677726 0.65082616
-0.035455853 0.035419129 0.65444607
-0.029973334 0.038716193 0.65566671
-0.061196666 0.046576511 0.65791672
-0.054976191 0.045316327 0.65462059
-0.04529256 0.045293052 0.65146905
-0.035574671 0.045469765 0.6541428
-0.029942859 0.044490159 0.65500003
-0.060931906 0.054744165 0.657875
-0.054744933 0.055361114 0.65314305
-0.045216709 0.055045884 0.65023828
-0.035433337 0.055327445 0.65278143
-0.029377146 0.055236511 0.65166676
-0.062822521 0.066043615 0.65775007
-0.054872289 0.064070404 0.6532793
-0.045412604 0.063383833 0.65064293
-0.036022794 0.062971562 0.65224987
-0.029942859 0.061757147 0.65500003
-0.062040001 0.070186667 0.65800005
-0.024108889 0.077323288 0.65300006
-0.022959368 0.082635343 0.65566665
-0.093527429 -0.17220686 0.6609
-0.10104827 -0.16159345 0.66222221
-0.095150858 -0.16570923 0.6646111
-0.1010196 -0.15679267 0.66771436
-0.12302112 -0.11238212 0.66007692
-0.11942858 -0.11062858 0.66000003
-0.12306967 -0.10839253 0.66041666
-0.11942858 -0.10874286 0.66000003
-0.064238101 0.048807144 0.66125005
-0.064654171 0.053991474 0.66343999
-0.082908913 0.067953944 0.66723531
-0.07506232 0.066336863 0.66538781
-0.066069029 0.064615957 0.66461897
-0.083131164 0.07117416 0.66557145
-0.075955875 0.071114615 0.66275007
-0.021840107 0.074899264 0.66150004
-0.017614603 0.076639593 0.66322219
-0.020407196 0.084981598 0.66044444
-0.017514132 0.0853981 0.66443998
-0.018256191 0.09065143 0.66100001
-0.088057153 -0.17100953 0.67000002
-0.092719696 -0.16285756 0.67104167
-0.086959474 -0.1653067 0.67433351
-0.10081905 -0.15505715 0.67000002
-0.095670529 -0.15628186 0.6744287
-0.089028195 -0.15896115 0.67740005
-0.051733334 0.024573334 0.67900002
-0.043455999 0.027160002 0.67900002
-0.036099046 0.028365716 0.67700005
-0.027160002 0.029100001 0.67900002
-0.059493337 0.032980002 0.67900002
-0.042396959 0.032056 0.67860001
-0.039214287 0.030857144 0.67500001
-0.026901335 0.035023469 0.67900002
-0.025306225 0.043456018 0.6790002
-0.092209153 0.058243241 0.67799997
-0.084900342 0.055714022 0.67443466
-0.075266302 0.055515733 0.67294741
-0.067970157 0.056995403 0.67116666
-0.024250003 0.055613331 0.67900026
-0.091319293 0.062116429 0.677625
-0.08525864 0.063381135 0.67257136
-0.073750578 0.061449014 0.67063159
-0.068195164 0.062500782 0.67090911
-0.025359578 0.064893149 0.67858654
-0.012747223 0.076549456 0.67783344
-0.0079715876 0.076268256 0.67866671
-0.012729581 0.084257208 0.67637146
-0.0072543919 0.083465286 0.67877781
-0.011377524 0.091024004 0.67880005
-0.0058200001 0.09182667 0.67899996
-0.082370758 -0.16339758 0.68375003
-0.079258695 -0.16530044 0.68727285
-0.10169282 -0.15224138 0.68527275
-0.094360486 -0.15283991 0.68487501
-0.085706547 -0.15633039 0.68555307
-0.10180899 -0.14815348 0.68400007
-0.098678097 -0.1482362 0.68466675
-0.020998096 0.019685715 0.68900001
-0.017248733 0.018555874 0.68766677
-0.052875292 0.027910879 0.68231583
-0.044772621 0.026355257 0.68197787
-0.034857217 0.025012681 0.68185985
-0.025258062 0.025194228 0.68174165
-0.017232161 0.024937959 0.68391436
-0.054582 0.0326446 0.68304545
-0.046884373 0.032831151 0.68147069
-0.031146668 0.034393653 0.68133342
-0.02392135 0.034924116 0.68070972
-0.015632303 0.035458107 0.68536747
-0.031492192 0.047628574 0.68320006
-0.025199946 0.045744829 0.68044138
-0.016173739 0.045186706 0.68236166
-0.031222858 0.050737146 0.68300003
-0.025958735 0.053644456 0.68000007
-0.015074165 0.055122055 0.68277419
-0.009130667 0.054781716 0.68480009
-0.02104762 0.068647623 0.68000001
-0.014814645 0.064852059 0.68284476
-0.0091599999 0.066082865 0.68700004
-0.022441713 0.072392389 0.68110001
-0.015384255 0.072099626 0.68243355
-0.0083085718 0.074003056 0.68160009
-0.010361905 0.089371435 0.68000001
-0.0065687089 0.087891154 0.68000001
-0.0086349212 0.091098413 0.68000001
-0.076654933 -0.1630042 0.69073695
-0.094235554 -0.15099621 0.69033337
-0.083329782 -0.1525704 0.69217247
-0.077353366 -0.15513781 0.69567585
-0.09342248 -0.14894934 0.69080007
-0.085356973 -0.14878464 0.69452959
-0.079771429 -0.14890668 0.69800001
-0.013198573 0.028380001 0.69300008
-0.011838617 0.031805724 0.6905455
-0.072961219 -0.16146322 0.70109099
-0.068960957 -0.16068572 0.70300001
-0.072640345 -0.1542075 0.70160717
-0.067404769 -0.15423879 0.70488238
-0.081608959 -0.14548901 0.70305884
-0.074626319 -0.14576003 0.70532763
-0.06607677 -0.14622304 0.70796686
-0.04562667 0.017756192 0.70800006
-0.046390861 0.022386288 0.708
-0.081847623 -0.14137334 0.71025002
-0.075648837 -0.14108852 0.71036369
-0.063874379 -0.14283149 0.71061915
-0.058669716 -0.14178514 0.71300006
-0.080806673 -0.13852572 0.71300006
-0.074466854 -0.13557667 0.71303856
-0.064912133 -0.13498867 0.71305096
-0.057845645 -0.13537104 0.71457696
-0.073224671 -0.12501994 0.71568561
-0.065398902 -0.12501533 0.71473593
-0.05789987 -0.12446336 0.7152499
-0.071964294 -0.11370556 0.71850002
-0.064619966 -0.1147982 0.7152167
-0.056303255 -0.1147408 0.71738213
-0.071938217 -0.10556 0.71681249
-0.064752005 -0.10496671 0.71569622
-0.055990696 -0.10514548 0.71745694
-0.072651669 -0.093799345 0.71730441
-0.06488058 -0.095342979 0.71523219
-0.054864336 -0.09508995 0.71755105
-0.072617143 -0.084848791 0.7169565
-0.065234005 -0.084947586 0.71429121
-0.055942532 -0.08449471 0.71503854
-0.072397582 -0.074937843 0.71590906
-0.065353937 -0.0748813 0.71477562
-0.056025144 -0.075407617 0.71556532
-0.071728259 -0.067641698 0.71500003
-0.065146998 -0.064988539 0.71425015
-0.055851225 -0.065089241 0.71662766
-0.049302857 -0.067563176 0.71900004
-0.072491564 -0.053065903 0.71806663
-0.064882986 -0.055087257 0.71501732
-0.054911718 -0.054277711 0.71547037
-0.048294093 -0.051278096 0.71220005
-0.071885481 -0.046280477 0.71712506
-0.065333746 -0.04491685 0.71455115
-0.055219762 -0.044976223 0.7135371
-0.048212383 -0.046172574 0.71300012
-0.070918098 -0.03000381 0.71600002
-0.065387577 -0.034843244 0.71379656
-0.055554464 -0.035009455 0.71580368
-0.049193144 -0.035256762 0.71740007
-0.065077342 -0.024990357 0.71619999
-0.055328716 -0.024928475 0.71573234
-0.049217142 -0.028022859 0.71775001
-0.071409911 -0.012585144 0.71820009
-0.065436713 -0.014928332 0.71658325
-0.055794563 -0.015050142 0.71561241
-0.049302857 -0.010956191 0.71900004
-0.071900003 -0.0095866667 0.71900004
-0.06519217 -0.0055142865 0.71591294
-0.055106431 -0.0054431623 0.71437526
-0.049067758 -0.0054533337 0.71557152
-0.063910231 0.0046481052 0.71678692
-0.054812461 0.0047375634 0.71579647
-0.04825088 0.0055372799 0.71500003
-0.063537262 0.0151507 0.71732336
-0.054825701 0.014960319 0.71415108
-0.045262638 0.015098657 0.7112059
-0.034045573 0.015948525 0.71771425
-0.024801735 0.015260386 0.71518177
-0.017334763 0.01506651 0.71375012
-0.06432499 0.024654185 0.71646643
-0.055559944 0.02290358 0.71341187
-0.044569381 0.021036632 0.7107693
-0.03486548 0.020510715 0.717875
-0.025864763 0.020417145 0.71460003
-0.062756911 0.030526191 0.71625
-0.05864381 0.03000381 0.71600002
-0.074057147 -0.11699342 0.72000015
-0.056914289 -0.10011429 0.72000003
-0.075428575 -0.089142859 0.72000003
-0.052132383 -0.072195716 0.72025013
-0.052114289 -0.064609535 0.72000009
-0.049371429 -0.068571433 0.72000003
-0.050919048 -0.041973338 0.72250009
-0.048971429 -0.04138381 0.72425002
-0.051428571 -0.036342859 0.72000003
-0.049371429 -0.036342859 0.72000003
-0.069942862 -0.021257143 0.72000003
-0.050742857 -0.023314288 0.72000003
-0.049371429 -0.022628572 0.72000003
-0.051330615 -0.014693879 0.72000003
-0.049371433 -0.013714286 0.72000003
-0.068571433 0.0027428572 0.72000003
-0.048685715 0.004114286 0.72000003
-0.070910208 0.01693796 0.72385722
-0.068041913 0.015089904 0.72020018
-0.033600003 0.011657143 0.72000003
-0.071120009 0.023859683 0.72266674
-0.069942862 0.023314286 0.72000003
