# .PCD v0.7 - Point Cloud Data file format
VERSION 0.7
FIELDS x y z
SIZE 4 4 4
TYPE F F F
COUNT 1 1 1
WIDTH 547
HEIGHT 1
VIEWPOINT 0 0 0 1 0 0 0
POINTS 547
DATA ascii
0.029664762 -0.13006857 0.59900004
0.035084285 -0.13044888 0.59900004
0.041074287 -0.13006857 0.59900004
0.016892431 -0.12404688 0.59900028
0.025238287 -0.12407433 0.5982334
0.035329506 -0.12478907 0.59829164
0.042215236 -0.12385672 0.59900004
0.015978362 -0.11477462 0.59854096
0.024996048 -0.11477119 0.59658045
0.035214406 -0.11478233 0.59633774
0.044584133 -0.11451357 0.59753132
0.05099877 -0.11315904 0.59878576
0.0091276197 -0.10382667 0.59900004
0.014864676 -0.10575177 0.59834856
0.024725221 -0.1058729 0.59612095
0.03479502 -0.1069271 0.59569055
0.044441473 -0.10760885 0.59588462
0.051046859 -0.10892953 0.59820002
0.02784 -0.1508 0.60900003
0.033134967 -0.15093035 0.60885715
0.007964286 -0.14163524 0.60824996
0.015417934 -0.14393786 0.60690576
0.025008809 -0.14482869 0.60560584
0.034924723 -0.14486668 0.60541272
0.044668131 -0.14404659 0.60653573
0.053723812 -0.14226377 0.60826319
-0.0018025399 -0.13258667 0.60822231
0.0047666105 -0.1346871 0.6061765
0.014915394 -0.13486889 0.60258359
0.025249172 -0.13470612 0.60068935
0.034822356 -0.13541853 0.60100007
0.044852819 -0.13489375 0.6021859
0.05466916 -0.13488474 0.606242
0.060744382 -0.13192153 0.60860002
-0.0038863497 -0.1244177 0.60755557
0.0047253338 -0.12483467 0.60302693
0.012796083 -0.12606131 0.60013902
0.024285715 -0.12866668 0.59999996
0.046297632 -0.12566178 0.6004566
0.054740846 -0.12498198 0.60353744
0.063022017 -0.12439861 0.60772085
-0.004469261 -0.11503457 0.60665506
0.0044268416 -0.1149082 0.60168439
0.011314287 -0.11657143 0.60000008
0.048142862 -0.119 0.59999996
0.055919502 -0.11539213 0.60195315
0.064777575 -0.11589187 0.60723919
-0.0039607696 -0.10497118 0.60663462
0.0046052439 -0.10509923 0.60145456
0.014291838 -0.10126041 0.60021424
0.054331429 -0.10980572 0.60049999
-0.0035080826 -0.096123256 0.60760003
0.0040706256 -0.096931219 0.60288239
0.013608572 -0.099249721 0.60030001
0.025308572 -0.16009143 0.61800003
0.037468575 -0.1604823 0.61860001
0.041030861 -0.16082211 0.61900002
0.0059503587 -0.15328327 0.61709374
0.015328201 -0.15387069 0.61538768
0.024888635 -0.15517989 0.61419165
0.035413377 -0.15518677 0.61418748
0.044801157 -0.15450436 0.61576474
0.052921809 -0.15264119 0.6166842
-0.0037312312 -0.14323521 0.61689657
0.00426132 -0.14568108 0.61364907
0.013051619 -0.14872114 0.61190003
0.04807505 -0.14889181 0.61260003
0.055827186 -0.14656594 0.61370277
0.06304092 -0.14328067 0.61634785
-0.01189748 -0.13314342 0.61729413
-0.0059641842 -0.13539638 0.61370593
0.00038793654 -0.13934541 0.61133337
0.05896635 -0.13926922 0.611
0.064974301 -0.13516574 0.61383021
0.072396196 -0.13207486 0.61800003
-0.013456055 -0.12463492 0.61563265
-0.0081594279 -0.12646076 0.61190009
0.068056084 -0.1257645 0.61180007
0.072486475 -0.12529472 0.6151787
-0.01409918 -0.11498911 0.61558616
-0.0090220636 -0.11466619 0.61116672
0.069871433 -0.11586928 0.61137503
0.073441237 -0.11506388 0.61400008
-0.013980701 -0.10519402 0.61558336
-0.0086415038 -0.10455109 0.61131591
-0.013054562 -0.095472261 0.61662221
-0.0074931034 -0.09385062 0.61221218
-0.011200953 -0.089607619 0.61900002
-0.0078323819 -0.0896108 0.61633337
0.014727619 -0.16052356 0.62228578
0.023514669 -0.16118591 0.62039995
0.033466127 -0.16158259 0.62114286
0.046357684 -0.16189975 0.62400001
0.054272611 -0.16154455 0.62741172
-0.0037326533 -0.15201306 0.62314296
0.00059365085 -0.15316319 0.62333333
0.015091907 -0.15907431 0.62150007
0.021257143 -0.15942858 0.62
0.047358096 -0.15922096 0.62150002
0.056494649 -0.15680256 0.62510347
0.064457327 -0.15304703 0.62441927
0.070634931 -0.15039684 0.625
-0.01313494 -0.14401267 0.62678123
-0.0067601465 -0.14699094 0.62292308
0.066373266 -0.14670856 0.62262958
0.072896436 -0.14442587 0.62487805
-0.020594286 -0.13218515 0.6286
-0.016059877 -0.13569309 0.62489748
0.069676191 -0.13876191 0.62
0.07540752 -0.13577758 0.62437141
0.080272384 -0.13358763 0.62900001
-0.021827126 -0.1243111 0.6268
-0.018305715 -0.12561727 0.6225
0.077333264 -0.12503678 0.622931
0.083412945 -0.12326882 0.62682754
-0.022815155 -0.1147174 0.62499988
-0.018895239 -0.11514286 0.61999995
0.078375243 -0.11867119 0.62225002
0.084260851 -0.11831746 0.62744445
-0.023284405 -0.1052828 0.62645108
-0.018623032 -0.10408711 0.62163639
-0.021029588 -0.096696138 0.62726676
-0.017578695 -0.093937568 0.62281477
-0.014318096 -0.087834463 0.62175
-0.0094476193 -0.087980956 0.62
0.0097371433 -0.18074572 0.63900006
0.013631999 -0.18086745 0.639
0.0079582427 -0.17353649 0.63900006
0.01471276 -0.17412318 0.63885456
0.023556018 -0.17191949 0.63868189
0.0055709323 -0.16508871 0.63870007
0.014831527 -0.16677126 0.63603455
0.025191618 -0.16818294 0.63889998
-0.011418096 -0.15204096 0.63100004
-0.0083180955 -0.15334497 0.6329
-0.024896814 -0.1329937 0.6357587
0.084164031 -0.13354684 0.63148594
-0.030409524 -0.12406895 0.63860005
-0.026687123 -0.12585683 0.63574195
0.083925925 -0.12842731 0.63144445
-0.031252459 -0.11593349 0.63861543
-0.027888922 -0.1159981 0.63505274
0.086537145 -0.11538287 0.63100004
-0.026663177 -0.10364318 0.63150007
-0.024550751 -0.094785728 0.63452393
-0.022058416 -0.087285407 0.63550007
-0.018836191 -0.08632458 0.63390005
-0.0042782226 -0.23166907 0.64786661
0.00098742859 -0.23130515 0.648
-0.011314286 -0.2229943 0.648
-0.0054113059 -0.22491471 0.64735478
0.0040663332 -0.2242395 0.64708769
0.011725714 -0.22155429 0.648
-0.012166532 -0.21494207 0.64799988
-0.0055371737 -0.21462084 0.64570326
0.0049702744 -0.21455525 0.64532423
0.013653576 -0.21460174 0.64702559
-0.011849143 -0.20785372 0.64799994
-0.0056540091 -0.20479801 0.64532274
0.0048498502 -0.20494522 0.6440475
0.015157021 -0.20454083 0.64540017
0.021635769 -0.20265885 0.64700001
-0.011108572 -0.19316572 0.648
-0.0054897224 -0.19487847 0.64522415
0.0048889951 -0.19498225 0.64177758
0.01515629 -0.1949859 0.6429832
0.023857186 -0.19398215 0.64585388
-0.011108573 -0.18761143 0.648
-0.0055307727 -0.18470082 0.64484411
0.0047386382 -0.18498451 0.64067113
0.015544127 -0.18546402 0.6404258
0.025282744 -0.18509045 0.64489847
0.032091431 -0.18082286 0.648
-0.0050912271 -0.17496556 0.64505285
0.0031271228 -0.17565866 0.64032596
0.018285716 -0.17798096 0.64000005
0.025594836 -0.17640971 0.64139485
0.033837255 -0.17531054 0.64520591
-0.004754106 -0.16507418 0.64456624
0.00084395608 -0.16705029 0.64015383
-0.0044383337 -0.15909311 0.64187503
0.0012190477 -0.15969524 0.64000005
-0.031085715 -0.12190477 0.64000005
-0.028038096 -0.12190478 0.64000005
-0.032304764 -0.11885715 0.64000005
-0.028338728 -0.092449859 0.64216673
-0.025675857 -0.084670439 0.64445668
-0.01911162 -0.081837721 0.6432001
-0.021306667 -0.079488896 0.64533341
-0.019013334 -0.079120003 0.64400005
-0.021209525 -0.23080954 0.65500003
-0.014524932 -0.23152502 0.65123528
-0.0058089984 -0.23526576 0.65031016
0.0055565634 -0.23422891 0.65093482
0.014805389 -0.23413685 0.65553665
0.020022858 -0.23276572 0.65700001
-0.02335896 -0.22452524 0.65651619
-0.016020259 -0.22537139 0.65134543
-0.0099047627 -0.22904763 0.65000004
0.0086710481 -0.22791505 0.65030003
0.016082088 -0.22543532 0.65311557
0.021361668 -0.22406143 0.6548751
-0.022518935 -0.21516453 0.65676004
-0.017247355 -0.21518195 0.6509999
0.018456144 -0.21545653 0.65204763
0.023137145 -0.21448778 0.65659088
-0.022376733 -0.20519213 0.65739125
-0.016066696 -0.20484847 0.65200007
0.019396827 -0.20882541 0.65000004
0.025952622 -0.20515876 0.65337515
0.031190477 -0.20149049 0.65500003
-0.021202931 -0.19622181 0.65776932
-0.015527783 -0.19533685 0.65270686
0.028072499 -0.19696501 0.65137511
0.032263454 -0.1934112 0.65300006
-0.014804108 -0.18516539 0.65372568
0.034278445 -0.18521847 0.65065789
-0.013770305 -0.17533557 0.65422738
-0.0099047637 -0.17519048 0.65000004
0.038380958 -0.17793198 0.65000004
-0.012565939 -0.16625907 0.65570593
-0.0096085714 -0.16674666 0.65087503
-0.030714286 -0.22130921 0.66266674
-0.02763184 -0.22202721 0.6615001
0.023982858 -0.2208889 0.66266674
-0.031272259 -0.21713451 0.66380006
-0.027045712 -0.21512222 0.66193098
0.02457381 -0.21786526 0.66162503
-0.025759798 -0.20547618 0.66052634
-0.023600636 -0.19574824 0.6603809
-0.020374857 -0.18626629 0.66029996
-0.018857144 -0.1829143 0.66000003
-0.020342859 -0.17624071 0.66750002
-0.017912641 -0.17410694 0.66304553
-0.016605079 -0.16894096 0.66466671
0.089200005 -0.12105715 0.66900003
0.09259811 -0.12233143 0.66900009
0.089200005 -0.11978287 0.66900003
0.092385717 -0.11978287 0.66900003
-0.13146383 0.084952384 0.66900009
-0.128225 0.08665143 0.66899997
-0.024889324 -0.18232234 0.67457902
-0.033177588 -0.17471378 0.67752951
-0.025624659 -0.17503284 0.67310721
-0.032423466 -0.16639912 0.6784091
-0.025036123 -0.16669434 0.67650014
-0.01606313 -0.16518268 0.67590463
0.086390302 -0.12252382 0.67171419
0.086825468 -0.11682822 0.67503333
0.092047356 -0.11663308 0.67185724
-0.018322224 -0.081048891 0.67900002
-0.016166668 -0.078246668 0.67900002
-0.13449687 0.066250555 0.67664862
-0.12747869 0.065752529 0.67310709
-0.13572396 0.074721895 0.67487097
-0.12825716 0.070828572 0.67000002
-0.14288132 0.085437149 0.67768753
-0.13630874 0.085579425 0.67302179
-0.13360307 0.091283046 0.67119998
-0.042838566 -0.17167798 0.68281251
-0.037913259 -0.17389655 0.6809231
-0.044733018 -0.16541155 0.68660003
-0.036374044 -0.16400929 0.68257511
-0.024925176 -0.16159067 0.68023813
-0.018457144 -0.16093333 0.68000001
-0.041195106 -0.15822451 0.68814296
-0.035056617 -0.15731576 0.68631256
-0.025996061 -0.15774417 0.68121439
-0.01855075 -0.15860084 0.6817143
0.079225242 -0.12244143 0.6875
0.08231619 -0.12192763 0.68462503
0.079087615 -0.11575956 0.68761557
0.084028482 -0.11376987 0.68331844
0.090666667 -0.11333334 0.68000001
0.084075756 -0.10840277 0.6861667
-0.016615242 -0.091385409 0.6886667
-0.014406868 -0.084986307 0.68493038
-0.0091777779 -0.081287622 0.68833339
-0.012552143 -0.07908643 0.68487501
-0.0091866674 -0.078742862 0.68900001
-0.14042477 0.049214289 0.68900001
-0.1358543 0.047943722 0.6868
-0.14133207 0.055931959 0.68738902
-0.13605885 0.055486064 0.68457907
-0.1442854 0.064772233 0.68395013
-0.13722856 0.063278519 0.68111116
-0.15197372 0.075068198 0.68900007
-0.14691283 0.074158251 0.68300003
-0.06150014 -0.1628626 0.69757146
-0.055207461 -0.16470668 0.69302058
-0.048336506 -0.16194922 0.69000006
-0.062409919 -0.15472113 0.6965
-0.05514051 -0.1546344 0.69435954
-0.045504987 -0.15479448 0.69194376
-0.038318366 -0.15421033 0.6902858
-0.052700765 -0.14853698 0.69690007
-0.047364287 -0.14834715 0.69075006
0.068267144 -0.12474191 0.69762498
0.073877044 -0.12409402 0.69411629
0.074858718 -0.11506068 0.69451082
0.075289138 -0.10519429 0.69600016
0.081111051 -0.10599601 0.69130009
-0.013380681 -0.09334413 0.69300008
-0.0089661917 -0.092985474 0.697375
0.073612571 -0.099391244 0.69760001
-0.010539684 -0.088272393 0.69166672
-0.0063463491 -0.084351994 0.69483346
-0.0046209525 -0.078368098 0.6944167
0.00066476193 -0.07844191 0.69800001
-0.14457637 0.046763673 0.69492602
-0.13312231 0.046828572 0.6906001
-0.15256628 0.058557149 0.69710004
-0.14596388 0.055240881 0.69160008
-0.16018096 0.065528572 0.69500011
-0.15549919 0.064834177 0.69539475
-0.14916001 0.062040001 0.69300002
-0.16018096 0.072809532 0.69500011
-0.15624908 0.073871821 0.69340014
-0.071979374 -0.16167144 0.70633334
-0.066338181 -0.16390455 0.70412505
-0.081363812 -0.15148954 0.70800006
-0.074894734 -0.15440741 0.70517784
-0.067463286 -0.15492943 0.70182157
-0.082860745 -0.144555 0.70755565
-0.075030975 -0.14507759 0.7062456
-0.065080792 -0.14502089 0.70392537
-0.05633232 -0.14657305 0.70153856
-0.049333334 -0.148 0.70000005
-0.070542224 -0.13838795 0.70766664
-0.066195317 -0.13777363 0.70699996
0.058252703 -0.12351772 0.70793349
0.064187579 -0.12359437 0.70368433
0.058714733 -0.11473233 0.70800012
0.064958319 -0.11510901 0.704328
0.07115598 -0.11429461 0.70044446
-0.0038921905 -0.10263343 0.70525002
0.0018239777 -0.10330454 0.70758826
0.057425279 -0.10536792 0.7074616
0.065096885 -0.10497251 0.70364422
0.070666671 -0.10633334 0.70000005
-0.0045100008 -0.095134519 0.70220011
0.0046044677 -0.095023125 0.70660031
0.012522451 -0.092184491 0.70800012
0.042479999 -0.090354286 0.708
0.058095939 -0.097929873 0.70781821
0.065212555 -0.0970295 0.70462173
0.07123024 -0.097419292 0.70062494
-0.0025103642 -0.086147346 0.70023525
0.0045338334 -0.084858097 0.70347542
0.014559452 -0.08471629 0.70771128
0.022247858 -0.081574291 0.70787501
0.039108574 -0.088331431 0.708
0.041536 -0.088466294 0.708
-0.0013333334 -0.077333339 0.70000005
0.0056081396 -0.078395329 0.70300007
0.015331281 -0.078624621 0.70699996
0.021546667 -0.078106672 0.70700002
-0.054530483 0.029619684 0.70683336
-0.04848 0.029626667 0.70700002
-0.13453729 0.037989844 0.70726663
-0.062708572 0.033040002 0.708
-0.054095604 0.034996185 0.70664877
-0.048603248 0.035046048 0.70764714
-0.14474252 0.042867538 0.70127279
-0.1344292 0.04368199 0.70410651
-0.12602203 0.047707573 0.70360005
-0.11901143 0.049400639 0.70733333
-0.062882483 0.047664195 0.7069
-0.054943491 0.045158051 0.70544475
-0.048349392 0.044112109 0.70514286
-0.15555558 0.058222227 0.70000005
-0.12402058 0.050898291 0.70320004
-0.11918001 0.051846672 0.70700002
-0.063639112 0.054698549 0.70597064
-0.054221809 0.053207092 0.70317256
-0.048898179 0.053887624 0.70245457
-0.064983241 0.061208006 0.70780003
-0.082534611 -0.15243874 0.71033335
-0.093877137 -0.14183649 0.71600008
-0.086767115 -0.14346302 0.71100008
-0.075958736 -0.14087301 0.71000004
-0.10340407 -0.13269213 0.71818179
-0.095268384 -0.13506193 0.71697944
-0.085002698 -0.134976 0.7126835
-0.075169116 -0.13499266 0.71210927
-0.10443766 -0.12513572 0.71821034
-0.094941795 -0.12481759 0.71660274
-0.085651048 -0.1255648 0.71636361
-0.078097522 -0.12916039 0.71680003
0.027732857 -0.12086049 0.71900004
0.035566311 -0.1217293 0.71656245
0.045053121 -0.12306929 0.71437043
0.053228498 -0.12294422 0.71148008
-0.10232299 -0.1179747 0.71900004
-0.095478781 -0.11734902 0.71771991
-0.087840959 -0.11787906 0.71683335
0.0072495244 -0.11030953 0.71350002
0.015698757 -0.11293805 0.71384865
0.024903772 -0.11411509 0.71552062
0.035060458 -0.11481446 0.7146554
0.044882081 -0.11492853 0.71405387
0.053530008 -0.11497945 0.71111363
0.0068654991 -0.10514463 0.71151626
0.014952376 -0.10466503 0.7136125
0.025155444 -0.10469811 0.71383965
0.035376716 -0.10477476 0.71436751
0.044815585 -0.10457498 0.71300006
0.052488573 -0.104502 0.71088254
0.0087904762 -0.098723814 0.71000004
0.015823022 -0.095664173 0.71079993
0.025118573 -0.095039196 0.7127859
0.03531028 -0.095071584 0.71302038
0.044809315 -0.095042966 0.7115106
0.053987421 -0.094800085 0.71148849
0.061467435 -0.093690291 0.71079999
-0.12325715 -0.086280003 0.71900004
0.017919049 -0.087566666 0.71000004
0.025247177 -0.086547978 0.71230239
0.03413929 -0.087472394 0.71337509
0.04530476 -0.089257143 0.71000004
-0.12325714 -0.077378094 0.71900004
-0.10665166 -0.042284049 0.71899998
-0.10750762 -0.039716192 0.71900004
-0.11705399 -0.013131318 0.71899992
-0.11709429 -0.0095866667 0.71900004
-0.12417017 0.0073041273 0.71900004
-0.12150007 0.014239748 0.71886665
-0.11725733 0.013890886 0.71899992
-0.1205181 0.021227621 0.71900004
-0.11600374 0.025513722 0.71899992
-0.076646358 0.026004866 0.71855557
-0.063969932 0.02643369 0.7117188
-0.059249528 0.02729932 0.71157146
-0.1352381 0.037866667 0.71000004
-0.12437145 0.038223762 0.71795231
-0.11510232 0.035019409 0.71809441
-0.10845858 0.039346192 0.71850008
-0.064415485 0.035064824 0.71234381
-0.058890633 0.0352 0.71075004
-0.045886882 0.034979478 0.71088898
-0.1246639 0.043807358 0.7137273
-0.11484613 0.045070197 0.71582681
-0.10819541 0.043526672 0.71600002
-0.063249364 0.04319169 0.71063638
-0.059546668 0.04127619 0.7105
-0.11313669 0.055377811 0.71347505
-0.10839125 0.054467808 0.71310014
-0.072316319 0.057199053 0.71718752
-0.068835624 0.055347051 0.71560001
-0.11084001 0.06188 0.71400005
-0.10864762 0.061114289 0.71300006
-0.090137146 0.068285719 0.71700001
-0.084790282 0.06706927 0.71757138
-0.073082998 0.061417419 0.71428573
-0.068968579 0.060774289 0.71700001
-0.085614577 0.072955631 0.71859998
-0.079432383 0.073269531 0.71900004
-0.098742858 -0.13988572 0.72000003
-0.12080572 -0.12080572 0.72900003
-0.11412641 -0.12103084 0.72581816
-0.10803762 -0.12192762 0.72025013
0.027428573 -0.12251429 0.72000003
0.031268574 -0.12288 0.72000003
-0.12080573 -0.11247429 0.72900003
-0.11438714 -0.11463922 0.72493756
-0.10497282 -0.11434639 0.72073156
-0.09549623 -0.11303605 0.7216
-0.12087508 -0.10452731 0.72525001
-0.1144562 -0.1047286 0.72325981
-0.10458434 -0.10511614 0.72264808
-0.097444654 -0.10510476 0.7238
-0.12073889 -0.095697939 0.72375005
-0.11471961 -0.095052563 0.72425491
-0.10502393 -0.095342778 0.72429782
-0.098579474 -0.09812022 0.72666669
-0.12178157 -0.084169962 0.72281832
-0.11487691 -0.084936522 0.72429979
-0.1058648 -0.08502093 0.7237674
-0.12175621 -0.076053083 0.72420007
-0.11479968 -0.074264929 0.72350919
-0.10585029 -0.07446301 0.72461545
-0.12262045 -0.064255245 0.72488481
-0.11474242 -0.064950846 0.72376907
-0.10643418 -0.064967096 0.72571439
-0.12251064 -0.055562541 0.7247085
-0.11476833 -0.054956235 0.72332054
-0.10658263 -0.055494789 0.7255758
-0.12345093 -0.045481715 0.72279996
-0.11515646 -0.045559686 0.72232074
-0.10743725 -0.046585076 0.72161132
-0.13052572 -0.030548573 0.72900003
-0.12400883 -0.034596547 0.72357893
-0.11491825 -0.034994133 0.72206354
-0.10639115 -0.034647733 0.72264701
-0.13034667 -0.02842667 0.72800004
-0.12467488 -0.02479968 0.72323811
-0.11478553 -0.024744803 0.72171438
-0.10670258 -0.025236193 0.72211546
-0.1240494 -0.015338946 0.7217105
-0.11364933 -0.016020402 0.72139472
-0.10755038 -0.015405238 0.72205013
-0.12344991 -0.0055064126 0.72279984
-0.11482176 -0.0053514983 0.72259259
-0.10830508 -0.0062060319 0.72433329
-0.12311701 0.002943129 0.72161919
-0.11470431 0.0047770818 0.72169852
-0.10898381 0.0080841277 0.72733343
-0.12389681 0.016471341 0.72054559
-0.1130177 0.015825201 0.7216
-0.10713748 0.015038237 0.72525942
-0.12404588 0.025528179 0.72100002
-0.11316861 0.023923283 0.7212413
-0.10757031 0.023976134 0.7229411
-0.083447419 0.026385264 0.7250526
-0.078472205 0.02638343 0.7215001
-0.12521397 0.033409417 0.7208333
-0.11093334 0.031851429 0.72080004
-0.10777938 0.034612339 0.72182614
-0.08372388 0.035224918 0.7263245
-0.077672571 0.034117807 0.72364998
-0.084140964 0.045227841 0.72729427
-0.078051433 0.047996406 0.72455555
-0.09092024 0.05760524 0.72875005
-0.084856644 0.055189434 0.72435719
-0.077275716 0.054696966 0.7224375
-0.091104776 0.062372524 0.72314292
-0.085392386 0.06234974 0.72256529
-0.078615241 0.061757147 0.72250009
-0.084266663 0.075733334 0.72000009
-0.12113715 -0.11904857 0.73100001
-0.11835238 -0.11835238 0.73100001
-0.095302753 0.015518297 0.7364583
-0.088670477 0.018225476 0.73600006
-0.10093714 0.029440001 0.73600006
-0.094668575 0.025815835 0.73686844
-0.088481016 0.024688737 0.73458838
-0.10134857 0.030967619 0.73900002
-0.094624721 0.034704041 0.73514289
-0.088505141 0.033221144 0.73290008
-0.094927676 0.044459853 0.73500013
-0.088526011 0.044262566 0.73146152
-0.091390952 0.051700715 0.731125
-0.10007619 0.023257144 0.74000001
-0.097961903 0.023257144 0.74000001
-0.10371228 0.037741046 0.74480003
-0.098755561 0.036681905 0.74066675
-0.10535248 0.043473966 0.74529171
