# .PCD v0.7 - Point Cloud Data file format
VERSION 0.7
FIELDS x y z
SIZE 4 4 4
TYPE F F F
COUNT 1 1 1
WIDTH 640
HEIGHT 1
VIEWPOINT 0 0 0 1 0 0 0
POINTS 640
DATA ascii
-0.13751143 -0.16104001 0.54900002
-0.16178817 -0.15168363 0.54877782
-0.15423059 -0.15322329 0.54837942
-0.14477228 -0.1548285 0.54832965
-0.13619933 -0.15425012 0.54871637
-0.12932001 -0.15093145 0.54900002
-0.1624518 -0.14669058 0.54867995
-0.15515508 -0.14526166 0.54762989
-0.14497419 -0.14450742 0.54620719
-0.13497905 -0.14488697 0.54722267
-0.12690857 -0.14460996 0.54846162
-0.14362568 -0.13825743 0.54607987
-0.13405621 -0.13646893 0.54612708
-0.1252837 -0.13493407 0.54818082
-0.12308034 -0.12915984 0.54845458
-0.16161259 -0.17118172 0.55820006
-0.15391117 -0.17218505 0.55633336
-0.14475897 -0.1736178 0.55593181
-0.1351359 -0.17291835 0.55708885
-0.12709714 -0.17193055 0.55859089
-0.17144275 -0.16186604 0.55866671
-0.16404997 -0.16405094 0.55526328
-0.15484203 -0.16483966 0.55278897
-0.14499685 -0.16528159 0.55211103
-0.13468042 -0.16526446 0.55276024
-0.12504698 -0.16473053 0.55550629
-0.1163919 -0.16285078 0.55702704
-0.17378385 -0.15458302 0.55644226
-0.16534618 -0.15520509 0.55201781
-0.15660974 -0.15795222 0.55091995
-0.14771429 -0.1592381 0.55000001
-0.13210058 -0.15710352 0.55042315
-0.12473763 -0.15491042 0.5520336
-0.1149501 -0.15496206 0.55582798
-0.10876684 -0.15277082 0.55891669
-0.17271334 -0.14892501 0.55500001
-0.16755784 -0.14728647 0.55176198
-0.12230347 -0.14534402 0.55049992
-0.11505417 -0.14484636 0.55395079
-0.1079754 -0.14504245 0.55819446
-0.12117048 -0.13762783 0.55030006
-0.11493981 -0.13488904 0.5535537
-0.10800274 -0.1351167 0.55821055
-0.12093493 -0.12740096 0.55050004
-0.11433156 -0.12585096 0.55402529
-0.10832598 -0.12595153 0.55809683
-0.1114 -0.11988762 0.55700004
-0.10967048 -0.11925334 0.55900002
-0.12105715 0.079112381 0.5575
-0.11665249 0.07874155 0.55675
-0.1212898 0.084129117 0.55857146
-0.11788746 0.081425399 0.55758339
-0.17064001 -0.18036 0.56700003
-0.16246641 -0.18168992 0.56486672
-0.15428875 -0.18353103 0.56505352
-0.14536773 -0.18413302 0.56604999
-0.13515675 -0.1833647 0.56591833
-0.12785514 -0.18257393 0.56674999
-0.18208 -0.1701581 0.56900001
-0.17384316 -0.17446434 0.56640005
-0.16509059 -0.1757782 0.56292981
-0.15556127 -0.17721649 0.56122231
-0.14456488 -0.17895631 0.56127787
-0.13482054 -0.17776455 0.56117409
-0.12413894 -0.17572935 0.56285179
-0.1156223 -0.17375612 0.56621063
-0.10952286 -0.17048952 0.56650007
-0.18355049 -0.16406949 0.56736839
-0.17565481 -0.16557631 0.56308329
-0.16871916 -0.16860001 0.56022221
-0.12053334 -0.16960001 0.56
-0.11368742 -0.16653368 0.56242508
-0.10638919 -0.16399191 0.56582463
-0.19184798 -0.15198199 0.56845456
-0.18469788 -0.15445584 0.56444639
-0.17902681 -0.15576676 0.56099999
-0.1044757 -0.15521352 0.56333745
-0.09862183 -0.15309158 0.5675385
-0.18704954 -0.14985524 0.56600004
-0.10302787 -0.14515318 0.56301528
-0.097360805 -0.14478561 0.56697786
-0.10301265 -0.13504462 0.56226993
-0.097715616 -0.1349988 0.56634146
-0.1035666 -0.12470537 0.56303859
-0.098402947 -0.12552027 0.56793106
-0.104105 -0.11686967 0.56412506
-0.099535249 -0.11792763 0.56800002
-0.10414858 0.069009975 0.56505883
-0.098290071 0.067681096 0.5652858
-0.11091675 0.073224224 0.56771433
-0.10432905 0.075031452 0.56579286
-0.096013263 0.075421318 0.56638831
-0.11463118 0.085294172 0.56458324
-0.10585753 0.083832651 0.56515789
-0.096036799 0.083245985 0.56669056
-0.1410943 -0.19066668 0.57200003
-0.13543104 -0.19047621 0.57142866
-0.15200001 -0.1889143 0.57000005
-0.14357248 -0.18853249 0.57063645
-0.13450721 -0.18835454 0.57080954
-0.12399536 -0.18361604 0.57284003
-0.11716966 -0.18151608 0.57185721
-0.18022858 -0.17317143 0.57000005
-0.17875668 -0.17495382 0.57050002
-0.11244231 -0.17766459 0.5716843
-0.10576685 -0.17387384 0.57536
-0.098016441 -0.17163214 0.57900006
-0.18710476 -0.16466667 0.57000005
-0.1024046 -0.16657236 0.57324141
-0.097247459 -0.16484028 0.57683724
-0.19140364 -0.15631676 0.5703001
-0.10006095 -0.15933621 0.57100004
-0.094989985 -0.15465957 0.57453436
-0.092558153 -0.14505386 0.57474071
-0.089018665 -0.14278135 0.57840008
-0.093058467 -0.13512035 0.57348329
-0.089100003 -0.13914858 0.57750005
-0.093761973 -0.12473053 0.57423991
-0.088190719 -0.12539668 0.57875001
-0.10056877 -0.11318096 0.57080013
-0.09677323 -0.11590067 0.57463163
-0.097947761 -0.10877715 0.57685721
-0.093738958 0.067846961 0.57369572
-0.087079048 0.069300003 0.57750005
-0.11093715 0.078852385 0.57100004
-0.10965715 0.077085719 0.57000005
-0.091951273 0.073737755 0.57206452
-0.086911224 0.074922815 0.57616931
-0.11327619 0.08130794 0.57000011
-0.091200002 0.080342859 0.57000005
-0.086388141 0.081676193 0.57469237
-0.1016381 -0.17234287 0.58000004
-0.092765115 -0.1638853 0.58196878
-0.089393333 -0.16101906 0.583
-0.091598608 -0.15736775 0.5812667
-0.088436991 -0.15426013 0.5842647
-0.087847076 -0.14531823 0.58676314
-0.090652958 -0.13266249 0.58040005
-0.087034568 -0.13546206 0.58545458
-0.0906616 -0.12118857 0.58283341
-0.08821144 -0.12538478 0.58472407
-0.092854291 -0.11424156 0.58385426
-0.094973728 -0.10821126 0.58550006
-0.088069528 -0.10882477 0.58900005
-0.084936388 0.068495236 0.58330005
-0.073842905 0.068488933 0.58742106
-0.069558099 0.06843619 0.58900005
-0.082075275 0.075324796 0.58103222
-0.076478079 0.074252479 0.58420014
-0.081752382 0.080647632 0.58000004
-0.073562689 0.083770879 0.58682358
-0.1314728 -0.20221189 0.59900004
-0.12437505 -0.20328674 0.59843206
-0.11690983 -0.20267397 0.59880775
-0.1329257 -0.19730963 0.59825003
-0.12485863 -0.19578041 0.59674132
-0.11509749 -0.1948536 0.59788883
-0.11413539 -0.18761487 0.59446156
-0.086044289 -0.15128095 0.5905
-0.084497623 -0.14462072 0.59183347
-0.083689623 -0.13339499 0.59304559
-0.086167388 -0.12360066 0.5933125
-0.090327814 -0.11567049 0.59130007
-0.086708032 -0.11502515 0.5930599
-0.093668461 -0.10465356 0.5916943
-0.087407418 -0.10763599 0.59000009
-0.064082243 0.068706885 0.59711766
-0.073006809 0.077023141 0.59032154
-0.065595619 0.074983135 0.59583336
-0.072485715 0.081288897 0.59000009
-0.064427525 0.082908392 0.59665006
-0.059329525 0.083860002 0.59900004
-0.12121677 -0.23130821 0.60840005
-0.11458315 -0.23261058 0.60794878
-0.10502592 -0.23396441 0.60822397
-0.099167787 -0.23358272 0.60833341
-0.13162667 -0.22101335 0.60750002
-0.12415463 -0.22410844 0.60640007
-0.11494776 -0.22464488 0.60511863
-0.10503348 -0.22456586 0.60634243
-0.098709501 -0.22447793 0.6084348
-0.1336138 -0.21417375 0.60610825
-0.12468018 -0.21480483 0.60274208
-0.11465841 -0.21505527 0.60254079
-0.10485348 -0.2147985 0.60540515
-0.098376997 -0.21473572 0.60819995
-0.1421718 -0.20401408 0.60406256
-0.13541047 -0.20572582 0.602579
-0.12625222 -0.20828335 0.60065001
-0.11420267 -0.20644042 0.60077995
-0.10493 -0.20482099 0.60474998
-0.098240785 -0.20600531 0.60811114
-0.13600001 -0.19942857 0.60000002
-0.11142857 -0.19942857 0.60000002
-0.10530394 -0.19495746 0.60400015
-0.099504419 -0.1942665 0.6087274
-0.11085714 -0.18628572 0.60000002
-0.10492545 -0.18579631 0.60347843
-0.099760003 -0.1885 0.60900003
-0.20184001 -0.16008 0.60900003
-0.20353825 -0.15519312 0.60644835
-0.20634577 -0.1471488 0.6038236
-0.06104343 0.066777907 0.6024
-0.056697156 0.067225635 0.60437155
-0.060840387 0.07730934 0.60040009
-0.055201769 0.074835055 0.60334665
-0.049202293 0.073976576 0.60780001
-0.060672384 0.080705717 0.60100001
-0.055910684 0.08188355 0.60214299
-0.041962646 0.084944449 0.60722232
-0.036387462 0.085770227 0.60431713
-0.04101143 0.090108573 0.60650003
-0.036867432 0.090315439 0.60480005
-0.12104954 -0.2519086 0.61800003
-0.11500192 -0.25163215 0.61606252
-0.1051218 -0.25116506 0.61482346
-0.095028147 -0.25165761 0.61594445
-0.087361321 -0.25150421 0.61723083
-0.13087429 -0.24052572 0.61900002
-0.12401668 -0.24397489 0.61794454
-0.11514944 -0.24507211 0.61403322
-0.10504003 -0.24510233 0.61274618
-0.094557971 -0.24491824 0.61431998
-0.087008685 -0.24529716 0.61812186
-0.13154051 -0.23392688 0.61604995
-0.12541951 -0.2354158 0.61435014
-0.11510225 -0.23792894 0.61122733
-0.10474286 -0.23948614 0.611
-0.094259053 -0.23499146 0.61323875
-0.087078333 -0.23512141 0.61719501
-0.14057143 -0.22140001 0.61500001
-0.13447599 -0.22468229 0.61350012
-0.12811001 -0.22823548 0.61212504
-0.093582913 -0.2251938 0.61319357
-0.088500082 -0.2257169 0.61763632
-0.14078785 -0.21512263 0.61212498
-0.13841613 -0.21694945 0.61184621
-0.093412533 -0.21522002 0.61381972
-0.089261651 -0.21598271 0.61809093
-0.094176583 -0.20476137 0.61457378
-0.095683895 -0.19550054 0.61472571
-0.10048998 -0.18301421 0.61292309
-0.09762454 -0.18569289 0.61611903
-0.10021905 -0.17921524 0.61900002
-0.09825398 -0.17882222 0.61900008
-0.20094708 -0.16183963 0.61479998
-0.19948891 -0.16130477 0.61366671
-0.20266822 -0.15388301 0.61471438
-0.19924143 -0.15834096 0.61350006
-0.20579837 -0.14511181 0.61519301
-0.20776477 -0.13949049 0.61800003
-0.051469143 0.066724584 0.61135
-0.045059666 0.066997789 0.61660463
-0.050667144 0.075130478 0.61150002
-0.044544965 0.074788749 0.61340576
-0.03787918 0.076583616 0.61636668
-0.050417144 0.081308573 0.61200005
-0.045128148 0.083761364 0.61182511
-0.038541272 0.081169531 0.61316675
-0.043785714 0.091074288 0.61300004
-0.12624381 -0.24611051 0.61999995
-0.082556657 -0.24521089 0.62183791
-0.078787796 -0.24328305 0.62394112
-0.082934819 -0.23477225 0.62337494
-0.078958847 -0.23531877 0.62643486
-0.084394351 -0.22491173 0.6239273
-0.085883148 -0.21511351 0.62528336
-0.090587616 -0.20334859 0.62250006
-0.087034822 -0.20592977 0.62476736
-0.091919936 -0.19432904 0.62376666
-0.087802537 -0.19664256 0.62371433
-0.094887398 -0.18512337 0.62135285
-0.20046096 -0.16207391 0.62200004
-0.19712134 -0.16360129 0.62529272
-0.2008097 -0.15374477 0.62400001
-0.19866538 -0.15676269 0.626091
-0.20288615 -0.14457928 0.6245209
-0.20491822 -0.13767879 0.62626314
-0.041334286 0.059305716 0.62900001
-0.035337146 0.059743095 0.62887502
-0.029952383 0.059904765 0.62900001
-0.040864766 0.06517987 0.62057143
-0.03537751 0.065254308 0.62461293
-0.029329844 0.066640958 0.62849998
-0.033703215 0.074179173 0.6227082
-0.027931808 0.074705146 0.62599993
-0.033162944 0.083760984 0.62254536
-0.028068446 0.084823966 0.62580651
-0.08065524 -0.23113143 0.63200003
-0.077124469 -0.23326802 0.63482606
-0.081171021 -0.22519937 0.63199997
-0.077930123 -0.22577229 0.63319254
-0.081328891 -0.21894698 0.63100004
-0.078724772 -0.21934763 0.63100004
-0.092353076 -0.1917607 0.63645458
-0.094760031 -0.18587051 0.63868088
-0.1933106 -0.16285646 0.63522863
-0.18973523 -0.16487905 0.6365
-0.19599053 -0.15513961 0.63575816
-0.20126042 -0.14383166 0.63249999
-0.19761834 -0.1456344 0.63613737
-0.2018586 -0.13581893 0.63355184
-0.19874616 -0.1373017 0.63790476
-0.11135647 -0.1021494 0.63842863
-0.1054387 -0.10286614 0.6355626
-0.11247948 -0.097141899 0.63838893
-0.10628297 -0.097623385 0.6340555
-0.042450488 0.02446229 0.63680005
-0.035015542 0.025243578 0.6359219
-0.02726667 0.02588499 0.63695246
-0.04245374 0.034078196 0.63773698
-0.035028584 0.035028324 0.63411087
-0.028082076 0.034207441 0.63727272
-0.041071706 0.044630609 0.63821429
-0.034822136 0.045538187 0.63558829
-0.028303621 0.044765461 0.63866669
-0.041636635 0.054641176 0.63430768
-0.034905702 0.054810323 0.63316882
-0.027520478 0.056555431 0.63515013
-0.031800427 0.064804025 0.63133335
-0.024819758 0.065081298 0.63364178
-0.019029047 0.06613715 0.63425004
-0.022948153 0.075407371 0.63253665
-0.016546711 0.07531482 0.63725013
-0.022979274 0.084294684 0.63302946
-0.017614366 0.083139047 0.63608336
-0.090538338 -0.19421048 0.64125001
-0.085735686 -0.1938986 0.64286965
-0.093070202 -0.18193428 0.64040005
-0.084945992 -0.18490823 0.64363378
-0.078645401 -0.18501239 0.64683342
-0.093324028 -0.17709717 0.64424336
-0.087155327 -0.17791021 0.6462307
-0.19034971 -0.1639962 0.64060009
-0.18476543 -0.16293202 0.64411777
-0.17820001 -0.16277143 0.648
-0.19146423 -0.15422498 0.64171433
-0.18741246 -0.15653531 0.645154
-0.1928577 -0.14476475 0.64400017
-0.18910702 -0.14579737 0.64731252
-0.2002362 -0.13247335 0.64100003
-0.19456941 -0.13464755 0.64458668
-0.19324715 -0.12608419 0.64600027
-0.18884572 -0.12157714 0.648
-0.11191168 -0.11160097 0.645625
-0.10823619 -0.11093029 0.64280003
-0.12172033 -0.10198223 0.64766669
-0.11518712 -0.10479071 0.64415628
-0.10840071 -0.10763928 0.64125001
-0.1359701 -0.093973912 0.64659995
-0.12312888 -0.096883029 0.64587516
-0.11732146 -0.095934011 0.64159101
-0.023924049 0.018019926 0.64691675
-0.019542858 0.01769143 0.648
-0.045175239 0.029302858 0.64100003
-0.024389207 0.022543175 0.64700007
-0.019748572 0.021600001 0.648
-0.052957289 0.037716396 0.64421064
-0.046118803 0.036332209 0.64214826
-0.023570957 0.035576768 0.64297527
-0.017740136 0.036140338 0.64553583
-0.051675372 0.042464491 0.64485723
-0.044986442 0.044149473 0.64182371
-0.025003646 0.044083029 0.64138246
-0.017417835 0.041312736 0.64481825
-0.053230774 0.056202501 0.64551616
-0.046417873 0.054821536 0.64212847
-0.024076276 0.054424893 0.64330477
-0.016482836 0.056143444 0.64656413
-0.0089409528 0.058891434 0.64750004
-0.052676789 0.061914094 0.64468431
-0.047980111 0.061978836 0.64222223
-0.013455554 0.062479448 0.64475
-0.0088865161 0.064095043 0.64710522
-0.011769313 0.074480958 0.6428889
-0.0065908064 0.075356588 0.6455577
-0.012907211 0.084387079 0.64107156
-0.0074178157 0.084258422 0.6430589
-0.081013657 -0.18124509 0.65100002
-0.076088205 -0.18227953 0.65615386
-0.092449427 -0.1726274 0.65149999
-0.084397919 -0.17398888 0.65359324
-0.076224461 -0.17679496 0.65607154
-0.17466864 -0.16204035 0.65367645
-0.16819485 -0.16157417 0.65757149
-0.091420002 -0.1691581 0.65300006
-0.087132029 -0.16907282 0.65638471
-0.18366933 -0.15424202 0.6516183
-0.17611955 -0.15550047 0.6564309
-0.18434086 -0.14478688 0.65363383
-0.17660974 -0.14571345 0.65759552
-0.1905943 -0.13185449 0.65060008
-0.1847965 -0.13488625 0.65336269
-0.17813408 -0.13533916 0.65790004
-0.19065523 -0.12641621 0.65066671
-0.18464018 -0.12504846 0.65419757
-0.17681608 -0.12414144 0.65758342
-0.12190489 -0.12190526 0.65753335
-0.11750223 -0.12292445 0.65683341
-0.18209198 -0.1178505 0.65671432
-0.17434871 -0.1152277 0.65700006
-0.16810334 -0.11139 0.65800005
-0.13359395 -0.11177458 0.65800005
-0.12478629 -0.11442093 0.65642226
-0.11638369 -0.11556409 0.6527074
-0.17233381 -0.10927048 0.65562505
-0.16379376 -0.10839008 0.65785718
-0.15424319 -0.10537991 0.65778756
-0.1446889 -0.10481291 0.65705895
-0.13507646 -0.10484691 0.65569824
-0.12554041 -0.10559456 0.65268892
-0.1178996 -0.10816382 0.65057153
-0.14317457 -0.098565854 0.65442872
-0.13477293 -0.098130159 0.65212512
-0.12801825 -0.09809415 0.65071434
-0.010653334 0.0081466669 0.65800005
-0.0053025647 0.0081948712 0.65800011
-0.021873018 0.014031748 0.65000004
-0.015289748 0.016245209 0.65338242
-0.0058488892 0.012637778 0.65800005
-0.020030476 0.025664287 0.65725005
-0.01500556 0.025532287 0.65555006
-0.0085233161 0.025481271 0.65674078
-0.013668412 0.034559686 0.65252787
-0.0080277063 0.034884166 0.65621221
-0.011735799 0.045188349 0.65482354
-0.0077372841 0.044951048 0.65692604
-0.062549055 0.059419051 0.65675002
-0.058517464 0.058722861 0.65133333
-0.013796417 0.053121753 0.65159994
-0.0058606518 0.055023562 0.65456152
0.00062476192 0.056228574 0.65600002
-0.062836885 0.063965634 0.65559089
-0.058358226 0.063324958 0.65186673
-0.0040970603 0.065307781 0.65173912
0.0013093508 0.065907888 0.65681821
-0.15040001 0.073320001 0.65800005
-0.14664002 0.074991122 0.65800005
-0.002709524 0.07317286 0.65043747
0.0029222697 0.074623793 0.6544469
-0.0025348417 0.084944203 0.65216666
0.0039100312 0.085251346 0.65529799
-0.0018742858 0.091215238 0.65600002
-0.083424762 -0.17060763 0.66350007
-0.073936515 -0.17300087 0.66135895
-0.065627426 -0.17402866 0.66364145
-0.059712384 -0.17151429 0.66700006
-0.16589181 -0.16161296 0.66080004
-0.082425602 -0.16638853 0.66196293
-0.075138338 -0.16479754 0.66392744
-0.065406859 -0.16557713 0.66681677
-0.057387307 -0.16842832 0.66553342
-0.1718836 -0.15341996 0.66093338
-0.16507073 -0.15505561 0.66183305
-0.15598343 -0.15264097 0.66370976
-0.14883333 -0.15073334 0.66500002
-0.074722379 -0.15898667 0.66775006
-0.061165716 -0.15928572 0.66900003
-0.059891433 -0.15928572 0.66900003
-0.17269994 -0.14389437 0.66060716
-0.16508281 -0.14490984 0.66312134
-0.15519999 -0.1453608 0.66608208
-0.14563507 -0.14468613 0.66632158
-0.13798009 -0.14237264 0.66736364
-0.17352505 -0.13514118 0.66117305
-0.16481034 -0.13483255 0.66359025
-0.15541361 -0.13511737 0.66606271
-0.14526795 -0.13511842 0.66607833
-0.13519667 -0.13468733 0.66530019
-0.12695639 -0.13321023 0.66320008
-0.17246898 -0.12607008 0.66062498
-0.16509442 -0.12499462 0.66220623
-0.15486149 -0.12515759 0.66369659
-0.14498156 -0.12536077 0.66476798
-0.13513947 -0.1253427 0.66401976
-0.12613636 -0.12581448 0.66144186
-0.17097144 -0.11565715 0.66000003
-0.16466182 -0.11575502 0.66066647
-0.15486355 -0.11525629 0.66133821
-0.14517671 -0.11514872 0.6615932
-0.13593224 -0.1167215 0.66092843
-0.12868033 -0.11862065 0.66016674
-0.15253334 -0.10811429 0.66000003
-0.14865714 -0.10905714 0.66000003
-0.012370286 0.014432 0.65999991
-0.0048014284 0.014953335 0.66047734
0.0014650667 0.015210285 0.66320008
-0.0036790974 0.024204662 0.66147381
0.0024316092 0.025093643 0.66402709
-0.0030879264 0.034758896 0.66164517
0.0022137689 0.034568813 0.66588581
-0.0035881235 0.044917148 0.66044098
0.0026021905 0.045152001 0.66495007
-0.071943805 0.059209526 0.66850007
-0.069876194 0.059712384 0.66700006
-0.0017288097 0.052338094 0.66012502
0.0029578309 0.055006672 0.66350013
0.010194286 0.059891433 0.66900003
-0.14215176 0.069806352 0.66633338
-0.13975239 0.069876194 0.66700006
-0.072382003 0.065008573 0.66725004
-0.067525461 0.063963577 0.66126084
0.0057936362 0.064443171 0.66195458
0.013265087 0.066243254 0.6669513
-0.14360884 0.074513733 0.66309106
-0.13668525 0.07560806 0.6665746
0.0078902245 0.075448215 0.6613158
0.014529108 0.075260073 0.66565627
0.020388572 0.076457143 0.66900003
-0.13933524 0.080700956 0.66200006
0.0068802931 0.082736276 0.66123086
0.014592102 0.085166954 0.6648224
0.0012659049 0.093689404 0.66466665
0.018394288 0.090068571 0.66600001
-0.070828572 -0.16080001 0.67000002
-0.065814964 -0.16098233 0.67000002
-0.055800315 -0.16402741 0.67289585
-0.071423493 -0.15716562 0.67119998
-0.064562149 -0.15535149 0.67285925
-0.05486225 -0.15518667 0.67563629
-0.048248574 -0.15594667 0.67850006
-0.14165714 -0.14740001 0.67000002
-0.061641481 -0.14822392 0.67733341
-0.05672143 -0.14761615 0.67808342
0.0046793651 0.022120636 0.67000002
0.0072005256 0.035598688 0.67237926
0.012723007 0.035561454 0.67497379
0.0075650788 0.045062225 0.67116666
0.012661548 0.045770235 0.67509371
-0.074019052 0.059980955 0.67000002
0.0068391208 0.055485133 0.67199993
0.01434344 0.055218756 0.67399985
0.020449525 0.058792382 0.671
-0.13114285 0.069428571 0.67500001
-0.12636763 0.069634289 0.67700005
-0.081780963 0.066829123 0.67842859
-0.077119879 0.064618982 0.67244828
0.016867461 0.062838182 0.67041659
0.021609252 0.064883992 0.67295235
-0.13257347 0.074426524 0.67407417
-0.12612468 0.075067908 0.67656255
-0.081480011 0.071133338 0.67900008
0.019142859 0.070828572 0.67000002
0.022013638 0.075183243 0.67036003
-0.12558368 0.080772251 0.67771441
0.023100656 0.084538445 0.67168415
-0.05066286 -0.1519886 0.68200004
-0.045766037 -0.15252152 0.68460017
-0.054134965 -0.14388272 0.68288094
-0.045362968 -0.14469558 0.6846965
-0.053733457 -0.13850476 0.68600005
-0.046665654 -0.13886744 0.68693334
0.017529596 0.044393085 0.68259251
0.020977618 0.046016436 0.68300009
0.018917007 0.052671026 0.68157154
0.021217778 0.052611433 0.6820001
-0.12228953 0.068300009 0.68300003
-0.11417715 0.06857191 0.68900001
-0.090974107 0.068426289 0.68820006
-0.08621072 0.067274652 0.6825
-0.12185905 0.073563106 0.68136841
-0.11634528 0.074716628 0.68668079
-0.090291433 0.071971431 0.68700004
-0.087047055 0.071668386 0.68409997
-0.12187175 0.080383502 0.68066669
-0.11707772 0.080396585 0.68300003
-0.040801905 -0.14149047 0.69100004
-0.037941501 -0.14195211 0.69371432
-0.051684551 -0.13404275 0.69183344
-0.044760074 -0.13451928 0.69240832
-0.03543739 -0.13480517 0.69221091
-0.051108457 -0.12631327 0.69513339
-0.045049831 -0.12520558 0.69560707
-0.035739757 -0.12588139 0.69594455
-0.045684762 -0.11944833 0.69774997
-0.037669845 -0.11921397 0.69800007
-0.12218668 0.066174649 0.69350016
-0.11533129 0.067502193 0.69210356
-0.10576268 0.066472732 0.69493759
-0.095827803 0.065683275 0.69537503
-0.11202989 0.074215233 0.69007701
-0.10511962 0.074548036 0.69425005
-0.096978635 0.073353909 0.69484627
-0.10858572 0.08028762 0.69100004
-0.031898707 -0.1225039 0.70045453
-0.028511111 -0.12206605 0.70166677
-0.043291658 -0.11547666 0.70119524
-0.034634437 -0.11522942 0.70142317
-0.026547251 -0.11410964 0.70420492
-0.042344522 -0.10552114 0.70575017
-0.034868095 -0.10526576 0.70401776
-0.027056256 -0.10594794 0.70676672
-0.04162953 -0.097201243 0.70664281
-0.034976259 -0.094831429 0.70621467
-0.026720056 -0.094080314 0.70727789
-0.040400006 -0.08753334 0.70700002
-0.034820423 -0.084867679 0.70651078
-0.025412165 -0.085086718 0.7064811
-0.040285714 -0.072514288 0.70500004
-0.035074349 -0.074796088 0.7067275
-0.02584018 -0.075004213 0.70769829
-0.040724657 -0.063932486 0.70744443
-0.034934092 -0.064745821 0.7070002
-0.025899608 -0.065373935 0.70748794
-0.041101906 -0.059295241 0.70749998
-0.03503634 -0.055247862 0.70742881
-0.025735052 -0.053430602 0.70754844
-0.034674142 -0.044782277 0.7058273
-0.025070291 -0.045256283 0.70719379
-0.0347111 -0.035144888 0.7061522
-0.025582783 -0.035011467 0.70697975
-0.034310557 -0.024890602 0.70637524
-0.025416303 -0.02522864 0.7075792
-0.040400002 -0.010773334 0.70700002
-0.034988765 -0.014803264 0.70651042
-0.026008107 -0.014478941 0.70744199
-0.040400006 -0.008080001 0.70700002
-0.034597669 -0.0055567417 0.70580012
-0.02507838 -0.0053612362 0.70675951
-0.040854763 0.0072319051 0.7061249
-0.034806315 0.0048544975 0.70574105
-0.02574297 0.0042125871 0.70562768
-0.041102856 0.010780953 0.70749998
-0.035028096 0.011338731 0.70725006
-0.029500954 0.01072762 0.70400006
-0.1024 0.066 0.69999999
-0.099733338 0.065866672 0.70000005
-0.023720717 -0.10386692 0.71166682
-0.022644287 -0.096752964 0.71190017
-0.018569525 -0.097148567 0.71333337
-0.039219048 -0.083171427 0.71000004
-0.026371429 -0.060857143 0.71000004
-0.039219048 -0.050038096 0.71000004
-0.025794694 -0.057675377 0.7100715
-0.038768258 -0.048234921 0.71000004
-0.039219048 -0.032457143 0.71000004
-0.021187302 -0.021412699 0.71000004
-0.018933333 -0.022314286 0.71000004
-0.021439122 -0.016026666 0.71030784
-0.018946666 -0.015562382 0.7105
