# .PCD v0.7 - Point Cloud Data file format
VERSION 0.7
FIELDS x y z
SIZE 4 4 4
TYPE F F F
COUNT 1 1 1
WIDTH 593
HEIGHT 1
VIEWPOINT 0 0 0 1 0 0 0
POINTS 593
DATA ascii
-0.14023811 -0.14136 0.58900005
-0.13603096 -0.14147219 0.58899999
-0.15207784 -0.13380574 0.58866674
-0.14470054 -0.13499473 0.58817422
-0.13516556 -0.13475643 0.5883972
-0.12757087 -0.13179827 0.58869237
-0.15176001 -0.12936001 0.588
-0.14431329 -0.12851204 0.58713043
-0.13473606 -0.12649095 0.58768338
-0.12749833 -0.1271508 0.58841383
-0.15284908 -0.1616946 0.59805888
-0.14447726 -0.16362715 0.59817076
-0.13523531 -0.1636693 0.59768438
-0.12598228 -0.16150762 0.59775001
-0.1198 -0.16087429 0.59900004
-0.16328365 -0.15293591 0.59782618
-0.15501049 -0.15482658 0.59578693
-0.14478312 -0.15528405 0.59362692
-0.13490978 -0.15543653 0.59334314
-0.12483334 -0.15469171 0.59452015
-0.11591595 -0.15363321 0.5975557
-0.17202006 -0.14237085 0.59869236
-0.16439675 -0.14455748 0.59514296
-0.15527272 -0.14510906 0.59284353
-0.14519437 -0.14518221 0.59067482
-0.13451612 -0.14617188 0.59052455
-0.1251533 -0.14495388 0.59138638
-0.11507293 -0.14484081 0.59471786
-0.10730338 -0.14379869 0.5981515
-0.17283216 -0.13782375 0.59741187
-0.16466698 -0.13645342 0.59297615
-0.156602 -0.13648282 0.59066665
-0.14946668 -0.13935238 0.59000003
-0.13073651 -0.13804129 0.59000009
-0.12424177 -0.13562864 0.59065664
-0.11497688 -0.13497315 0.59334993
-0.10650979 -0.13480909 0.59729522
-0.13232857 -0.12165238 0.59000003
-0.12391124 -0.12400719 0.59030509
-0.1152107 -0.12499056 0.59227258
-0.10698597 -0.12530252 0.59689468
-0.12235591 -0.11837173 0.59100008
-0.11431067 -0.11594101 0.59509343
-0.1069866 -0.11526769 0.59803855
-0.10724953 -0.10953143 0.5990001
-0.16183494 -0.17110667 0.60833335
-0.15471977 -0.17336723 0.60690331
-0.14473093 -0.17421964 0.60551208
-0.1347909 -0.17443314 0.60579604
-0.12546179 -0.17361468 0.60684788
-0.1193819 -0.17096001 0.6085
-0.17227066 -0.16224699 0.60733342
-0.16418955 -0.16424257 0.60437787
-0.15554374 -0.16614474 0.60195118
-0.14599665 -0.16815221 0.60072732
-0.13425945 -0.16831693 0.60095847
-0.12446713 -0.1663207 0.60191303
-0.11513131 -0.16446553 0.60498351
-0.1072138 -0.16198219 0.60717642
-0.17401278 -0.15447886 0.60500014
-0.16663465 -0.15658656 0.60173535
-0.11307934 -0.15753093 0.60130775
-0.10539516 -0.15458302 0.60441446
-0.099346034 -0.15211207 0.60883337
-0.19024001 -0.14732 0.60900003
-0.18314147 -0.14514089 0.60734624
-0.17565759 -0.14591935 0.60263407
-0.16864192 -0.14920524 0.60025001
-0.10325498 -0.14602047 0.60218608
-0.097317331 -0.14394544 0.60625583
-0.18273146 -0.13923593 0.60771435
-0.17891429 -0.13966858 0.60600001
-0.10163089 -0.13479628 0.60039133
-0.095878139 -0.13478562 0.60495728
-0.10206102 -0.12466792 0.6006552
-0.096466437 -0.12527879 0.60527557
-0.10207471 -0.11489571 0.60159475
-0.097361378 -0.11496504 0.60638005
-0.10259491 -0.10776833 0.60324997
-0.09772978 -0.10725748 0.60786372
-0.11632024 0.068148211 0.60575002
-0.091590486 0.068982229 0.60866666
-0.085636482 0.068917967 0.6069231
-0.12363525 0.075916901 0.60798144
-0.11516213 0.075117521 0.60727274
-0.10479797 0.075529687 0.60692745
-0.094952852 0.075054914 0.60772985
-0.085734755 0.073423736 0.60825568
-0.078669526 0.072006673 0.60850006
-0.060320001 0.078880005 0.60900003
-0.13087429 0.084327862 0.60337508
-0.12459075 0.084264256 0.60631651
-0.11513574 0.083779134 0.60747045
-0.10467707 0.08384639 0.6075455
-0.094946072 0.084617898 0.60758686
-0.084758982 0.083357692 0.60860443
-0.076140635 0.085993238 0.60872233
-0.065310717 0.087760009 0.60824996
-0.1212508 0.091321275 0.6043334
-0.11853258 0.091196582 0.6030001
-0.094739057 0.091606803 0.60585713
-0.070527621 0.090182863 0.60700005
-0.068215244 0.090182863 0.60700005
-0.15268859 -0.18220858 0.6158334
-0.14471638 -0.18217038 0.61445004
-0.13590693 -0.18154301 0.61226672
-0.17140713 -0.17268918 0.61445457
-0.16508116 -0.17401119 0.6128751
-0.15516382 -0.17813334 0.61161911
-0.14585906 -0.17908335 0.61200005
-0.13648954 -0.17934401 0.61140007
-0.12090762 -0.17505494 0.61133337
-0.11544015 -0.17335632 0.61270279
-0.10720409 -0.17079376 0.61657155
-0.18293142 -0.16196249 0.61684626
-0.17465837 -0.16579385 0.61259097
-0.16889 -0.16830859 0.61150002
-0.11288953 -0.16933429 0.611
-0.10436357 -0.16572632 0.61356515
-0.097984873 -0.16341089 0.61720008
-0.18472926 -0.15522791 0.61571103
-0.17903367 -0.15650985 0.61166668
-0.10082314 -0.15838967 0.61142862
-0.095271029 -0.15460867 0.61517543
-0.089607619 -0.1509181 0.61900002
-0.19061889 -0.14367898 0.61190915
-0.18710771 -0.14470726 0.61131036
-0.0924365 -0.14555921 0.61289471
-0.088457368 -0.1437376 0.61823529
-0.1904 -0.13949716 0.61200011
-0.18644229 -0.13895886 0.611
-0.09092617 -0.13572319 0.61276191
-0.0874715 -0.13443823 0.61597222
-0.091610529 -0.12376335 0.61160004
-0.088000178 -0.12537412 0.61580557
-0.092300013 -0.11486371 0.61246341
-0.088445954 -0.11551525 0.61692315
-0.093781084 -0.10533193 0.61459619
-0.089607619 -0.10788286 0.61900002
-0.030655237 0.045393337 0.61900002
-0.029038791 0.04629074 0.61881822
-0.032589916 0.056409799 0.61626464
-0.026452081 0.056502059 0.61800009
-0.016273545 0.058231216 0.61761111
-0.0039263493 0.059280634 0.61833334
0.031244762 0.058952384 0.61900002
-0.12468167 0.069331191 0.61175001
-0.094797373 0.066957377 0.61197066
-0.074312605 0.066789433 0.61416662
-0.065312125 0.067888007 0.61416668
-0.055931121 0.067940623 0.61216688
-0.043176048 0.066993929 0.61461544
-0.035017911 0.065053873 0.61416662
-0.025119681 0.064510532 0.61680585
-0.014680782 0.064837284 0.61725003
-0.0056296112 0.064620107 0.61719698
0.0039993883 0.066481851 0.61892873
0.014847712 0.066179097 0.61885709
0.029083177 0.060917463 0.61900008
0.031686906 0.065879285 0.61900002
-0.12712222 0.072069369 0.61275005
-0.097532064 0.070719376 0.61199999
-0.083449461 0.077414893 0.611
-0.074455082 0.075497895 0.61214048
-0.064901009 0.074601144 0.61224997
-0.054894846 0.075176589 0.61249304
-0.044877473 0.075141445 0.61290896
-0.035005268 0.074703678 0.61233729
-0.025051761 0.074897692 0.6153245
-0.01514464 0.075261615 0.61654454
-0.0058728163 0.075630382 0.61652625
0.0047403751 0.075888924 0.61698496
0.014870994 0.07433176 0.61839581
0.024726938 0.07656683 0.61888093
0.032996003 0.074693039 0.61866671
-0.12879494 0.081854604 0.611
-0.11579905 0.080302857 0.611
-0.10628456 0.088020757 0.6120556
-0.082418881 0.081889868 0.61100006
-0.074520849 0.084508218 0.61166072
-0.065426596 0.084415682 0.61187679
-0.055167876 0.082847692 0.61222231
-0.04463008 0.084419332 0.61349994
-0.035336081 0.084328748 0.61177927
-0.025291571 0.084005199 0.61434615
-0.01510903 0.083868831 0.61549997
-0.0056911511 0.083888635 0.61524993
0.0056664119 0.083484061 0.61653328
0.014757461 0.083457001 0.61792606
0.023532044 0.082651377 0.61858833
0.033936143 0.082016334 0.61884218
0.042445716 0.083122864 0.61900002
-0.10666357 0.092387989 0.61493748
-0.12391195 -0.18305746 0.62876934
-0.11801238 -0.18151143 0.62900001
-0.11213143 -0.17644572 0.62760007
-0.10987429 -0.17556001 0.62700003
-0.094092906 -0.16204882 0.62169236
-0.19092064 -0.15470478 0.62
-0.091851853 -0.15811642 0.61999995
-0.087653354 -0.15327159 0.62310714
-0.085562147 -0.14486225 0.6242581
-0.082929373 -0.1353734 0.62600011
-0.078998864 -0.13645259 0.62840003
-0.083270289 -0.12467196 0.62442321
-0.078078963 -0.12299083 0.62800002
-0.084552363 -0.11543691 0.62545842
-0.077872381 -0.11852381 0.62775004
-0.091826968 -0.10177686 0.62300009
-0.087552667 -0.10541371 0.62520015
-0.092936672 -0.097939253 0.62514997
-0.088564768 -0.097540639 0.62833345
-0.001192381 0.0095390482 0.62600005
0.0069477558 0.0077983681 0.62761921
0.014415928 0.0063119917 0.62824994
0.021299474 0.0081204241 0.62900001
-0.022527143 0.018971428 0.62250006
-0.013538415 0.017676281 0.62466663
-0.0049007414 0.015521376 0.62590718
0.0047811903 0.014930636 0.62715262
0.014960442 0.014959134 0.62837505
0.021716284 0.013676371 0.62838089
-0.030883048 0.027318478 0.62360001
-0.02477558 0.02510882 0.62358999
-0.014866537 0.02497736 0.6244446
-0.0053543928 0.02499087 0.62480557
0.0047994526 0.024979552 0.6259498
0.014777536 0.025080422 0.6278969
0.023477061 0.026704594 0.6286363
0.033002079 0.028427534 0.62900007
-0.031779155 0.035811324 0.62433338
-0.02491709 0.035006691 0.62295848
-0.014868482 0.035088602 0.6244688
-0.0053508333 0.035092849 0.62456244
0.004771085 0.035213418 0.62675005
0.01492878 0.035225958 0.62693745
0.024475694 0.035693128 0.62849998
0.034106579 0.036379002 0.62797564
0.042480953 0.039489999 0.62825
-0.032094289 0.040709049 0.62400001
-0.024240168 0.044863001 0.62308586
-0.014826777 0.045077413 0.62370443
-0.0053400546 0.045109544 0.62322229
0.0047665858 0.045256566 0.62530869
0.014860279 0.044854723 0.6268307
0.025074748 0.04468102 0.62819511
0.035090767 0.043986794 0.62817389
0.042160444 0.044693261 0.62826931
-0.023344761 0.053499736 0.62150007
-0.014354886 0.054200161 0.62288243
-0.0053703836 0.054972764 0.62220973
0.0047526462 0.055259354 0.62390298
0.014918581 0.054738466 0.62402833
0.025027117 0.054809336 0.62569159
0.032847628 0.055775974 0.62447619
0.040346667 0.059333336 0.62300003
-0.021364503 0.066884853 0.61999995
-0.018895239 0.06731429 0.62
-0.0011834921 0.064702228 0.62133336
0.0057460307 0.062863238 0.62104768
0.014604447 0.063062854 0.62000012
0.024635406 0.065109096 0.62005121
0.035251122 0.064892113 0.62216133
0.043085363 0.064806163 0.62467444
0.0090539688 0.0744 0.62
0.014324998 0.07642144 0.62024993
0.024839366 0.072589204 0.62000012
0.037698131 0.07486821 0.62062961
0.043107606 0.074909359 0.62252927
0.025852775 0.083879665 0.62023526
0.035760716 0.084327362 0.62000012
0.042755093 0.083681621 0.62036371
-0.11562858 -0.21117428 0.63900006
-0.12239451 -0.20248169 0.63866669
-0.11511529 -0.20370495 0.63859582
-0.10750696 -0.20197837 0.63878572
-0.1322237 -0.1927474 0.63868749
-0.12490804 -0.19525945 0.63702011
-0.11490448 -0.19479586 0.63563478
-0.10621217 -0.19497834 0.63781637
-0.13274065 -0.18789604 0.63641679
-0.12444571 -0.18735182 0.63266683
-0.11424553 -0.18565029 0.63398439
-0.10603864 -0.1850149 0.63747066
-0.11186287 -0.1793641 0.63442862
-0.10675867 -0.17795767 0.63735288
-0.082643569 -0.15143906 0.63225001
-0.082747899 -0.14636824 0.63189292
-0.080591425 -0.13231334 0.63150001
-0.079367623 -0.13227874 0.63133335
-0.080956191 -0.12790573 0.63200003
-0.079044953 -0.12748535 0.63260001
-0.081958286 -0.11400518 0.63547623
-0.079325721 -0.11598381 0.63100004
-0.084249303 -0.1042692 0.63225013
-0.086344771 -0.097206995 0.63400006
0.01742762 0.0090142861 0.63100004
0.022945456 0.0064465804 0.63100004
0.018028572 0.025840953 0.63100004
0.024256626 0.02578632 0.63100004
0.035772219 0.027429206 0.63291669
0.041461587 0.028580319 0.634
0.0024038097 0.03004762 0.63100004
0.026924953 0.033655714 0.63105023
0.03673137 0.03270613 0.63159394
0.042607937 0.034540828 0.63190019
0.025490049 0.045260556 0.63103479
0.035990372 0.047341693 0.63100022
0.044770956 0.041165236 0.63100004
0.035680402 0.052065767 0.63105285
-0.11149716 -0.24109715 0.648
-0.10495812 -0.24264826 0.64740014
-0.096630104 -0.24272954 0.64763343
-0.11320515 -0.23406756 0.64665627
-0.10511515 -0.23482205 0.64544666
-0.095369272 -0.23468505 0.6467936
-0.089169525 -0.23260705 0.64749998
-0.12374408 -0.22263288 0.64726311
-0.11446817 -0.22471097 0.64465469
-0.10468736 -0.22485431 0.64311135
-0.095058344 -0.22486368 0.64572585
-0.088964708 -0.22596921 0.64764702
-0.13165775 -0.21348122 0.64784616
-0.12523031 -0.21516362 0.64526933
-0.11519507 -0.21495119 0.64172232
-0.10507283 -0.21443054 0.64123255
-0.095111974 -0.21487951 0.6444155
-0.089011528 -0.21525662 0.64724994
-0.1338241 -0.20497766 0.64518416
-0.12574381 -0.20607571 0.64166665
-0.11518262 -0.20882568 0.64013338
-0.10401762 -0.20554902 0.64084327
-0.094823174 -0.20505863 0.64465207
-0.08908762 -0.20828269 0.64780003
-0.14112686 -0.19546746 0.64540005
-0.13593829 -0.19606858 0.64186847
-0.12921906 -0.19992381 0.64000005
-0.10123961 -0.19475546 0.64037514
-0.095928468 -0.19510868 0.6445272
-0.13653333 -0.18895239 0.64000005
-0.10140154 -0.18432519 0.64066672
-0.096518889 -0.18501854 0.64476931
-0.1018902 -0.17620687 0.64123088
-0.096895903 -0.1763268 0.64444131
-0.082204759 -0.11062524 0.64175004
-0.079485714 -0.11066858 0.64200002
-0.08278057 -0.10915315 0.64100003
-0.11275975 -0.25206125 0.65464288
-0.10509627 -0.25243685 0.65239298
-0.09644293 -0.25139505 0.65080011
-0.12134731 -0.24422564 0.6567778
-0.11538235 -0.245129 0.65295357
-0.1051401 -0.24808033 0.65066665
-0.093286976 -0.24608943 0.65012109
-0.085512273 -0.24417159 0.65247196
-0.077886485 -0.24142249 0.65740001
-0.12421298 -0.2347075 0.65442228
-0.11782029 -0.23593244 0.65070587
-0.091000006 -0.23895238 0.65000004
-0.084125623 -0.23486 0.65222979
-0.077960245 -0.23551182 0.65733343
-0.13010001 -0.22117049 0.65050006
-0.12544744 -0.22687347 0.65174997
-0.083869323 -0.22484416 0.65342629
-0.078422859 -0.22756952 0.65800011
-0.13443074 -0.21515316 0.65066665
-0.084356591 -0.21547005 0.65352845
-0.090876199 -0.20156191 0.65000004
-0.085705109 -0.20508924 0.65425462
-0.091464587 -0.19431284 0.65090913
-0.085867949 -0.19429605 0.65590167
-0.078542225 -0.19280446 0.65800005
-0.091737032 -0.18517971 0.65469998
-0.08480984 -0.18639503 0.65775549
-0.077617154 -0.18450861 0.65800011
-0.094627589 -0.17428008 0.65396976
-0.093907624 -0.1691581 0.65300006
-0.20195836 -0.14292653 0.65403837
-0.19799675 -0.14566942 0.65723991
-0.2026813 -0.13781856 0.65621048
-0.073532104 -0.23416948 0.66158825
-0.06939429 -0.23341906 0.66240007
-0.075133942 -0.22478063 0.66306335
-0.069247618 -0.22914667 0.66100001
-0.081094474 -0.21344057 0.66110003
-0.077305108 -0.2159512 0.66505897
-0.08143165 -0.20421124 0.66111118
-0.078414902 -0.20624031 0.66211766
-0.082171433 -0.19760002 0.66000003
-0.074447706 -0.19195084 0.66195238
-0.06804233 -0.1916417 0.66288894
-0.091142863 -0.18102857 0.66000003
-0.085056923 -0.18138582 0.6604231
-0.074201681 -0.18434674 0.66071141
-0.065832354 -0.18432835 0.66248083
-0.059077144 -0.18040763 0.66700006
-0.091184013 -0.17733715 0.66029996
-0.0848419 -0.17524244 0.66366678
-0.075128429 -0.17478597 0.6632269
-0.065340012 -0.17469981 0.66492742
-0.055231225 -0.1745736 0.6665625
-0.04664886 -0.17361 0.6672703
-0.039384764 -0.17214954 0.66700006
-0.082889795 -0.16886422 0.66657144
-0.075401179 -0.16876701 0.66666675
-0.063271053 -0.1652139 0.66899991
-0.055007692 -0.16546695 0.66814816
-0.045108028 -0.16520597 0.66754246
-0.038468484 -0.16598758 0.66790462
-0.19422859 -0.15085715 0.66000003
-0.049697146 -0.1561 0.66900003
-0.19680485 -0.14469825 0.66492862
-0.20146729 -0.13440822 0.66138476
-0.19852726 -0.1362125 0.66388005
-0.065085717 -0.17100953 0.67000002
-0.042638097 -0.17412421 0.67020005
-0.070686355 -0.16755937 0.67066669
-0.066323437 -0.16743457 0.67025006
-0.057428576 -0.16258667 0.67000002
-0.044879369 -0.16080001 0.67000002
-0.033903148 -0.16437732 0.67105001
-0.025500808 -0.16310871 0.67115378
-0.018928573 -0.16137619 0.67374998
-0.19364308 -0.1514589 0.6743077
-0.18851779 -0.1512454 0.67866671
-0.051558096 -0.15850286 0.67000002
-0.044558324 -0.15617882 0.67188013
-0.035314601 -0.15505068 0.67176157
-0.025075557 -0.15515202 0.67170036
-0.016957887 -0.15396188 0.67337024
-0.19398136 -0.14508291 0.67535311
-0.18933335 -0.14926952 0.67850006
-0.03339155 -0.14693066 0.6742813
-0.024872553 -0.14549352 0.67469126
-0.014916078 -0.1448019 0.67417639
-0.0058144866 -0.14367868 0.67428935
0.002826032 -0.14224727 0.676
-0.20027429 -0.1348 0.67400002
-0.19600223 -0.13474756 0.67468756
-0.022339394 -0.13779882 0.67899996
-0.014537864 -0.13511217 0.67679322
-0.0050264131 -0.13506211 0.67663336
0.0037115344 -0.13531907 0.67851889
0.010346667 -0.13321334 0.67900002
-0.19576554 -0.12717137 0.67486674
-0.01364517 -0.12929824 0.67785716
-0.0040858677 -0.12715206 0.67868
0.0045001651 -0.12487947 0.67806923
0.015879262 -0.12394447 0.67899996
-0.18919429 -0.11816572 0.67800003
0.0071133343 -0.11676953 0.67900002
0.012625399 -0.11338222 0.67899996
0.0087946681 -0.10786401 0.67900002
0.012987224 -0.10761613 0.67900002
0.021340001 -0.10088 0.67900002
-0.10253013 -0.094422154 0.67810351
-0.098663151 -0.094603084 0.67607689
0.021986667 -0.099586681 0.67900008
-0.10558304 -0.088652126 0.67899996
-0.098578095 -0.089553334 0.67650002
0.017367622 -0.086160637 0.67899996
0.025435558 -0.083851114 0.67900002
0.019400001 -0.078893334 0.67900002
0.016975002 -0.064181685 0.6790002
0.020693336 -0.062511116 0.67900008
0.017072001 -0.054615609 0.67900026
0.022045454 -0.054731511 0.67899996
0.016780287 -0.044521529 0.67897528
0.023049969 -0.0420679 0.67894119
0.015764099 -0.034987457 0.6786741
0.02402029 -0.034991674 0.67865139
0.015093675 -0.025269546 0.67891854
0.02510649 -0.025108911 0.67793679
0.030956192 -0.024940953 0.6771667
0.015553933 -0.014600352 0.6784817
0.025137413 -0.014828784 0.67678118
0.031886537 -0.016124897 0.67735732
0.015026526 -0.0052878652 0.67844474
0.025095852 -0.0051476872 0.67571414
0.032830335 -0.0036656412 0.67684609
0.017291283 0.0011915019 0.67830771
0.024821332 0.0017998732 0.67519993
-0.18533404 -0.15120919 0.68436366
-0.19101842 -0.14304635 0.68066674
-0.18713871 -0.14481844 0.68497914
-0.028768256 -0.14124064 0.68133342
-0.19200669 -0.1346181 0.6832813
-0.18845569 -0.13588354 0.68744451
-0.023422224 -0.13675556 0.67999995
-0.018133335 -0.13276191 0.68000001
0.0077714291 -0.13308573 0.67999995
0.010361905 -0.13146667 0.68000001
-0.19209108 -0.12576209 0.685381
-0.18905969 -0.12599219 0.68822235
-0.011667826 -0.12460613 0.68395644
-0.006240393 -0.12320499 0.68279427
0.0047492068 -0.12261589 0.68000001
0.012332041 -0.12358035 0.68008012
-0.18893716 -0.11928318 0.68566674
-0.0034804763 -0.11707278 0.68387508
0.0037013034 -0.11414872 0.68053079
0.016376795 -0.11592887 0.68063164
0.021239683 -0.11453333 0.68266666
-0.11024 -0.10170952 0.68900001
-0.10643315 -0.10356315 0.68559998
0.0054859584 -0.10485556 0.6809231
0.015903734 -0.10381804 0.68037856
0.021450002 -0.10595208 0.68250012
-0.11294466 -0.094029039 0.68604767
-0.10760259 -0.095397353 0.68239135
0.0059114299 -0.095459983 0.68311357
0.014896189 -0.095208518 0.68006271
0.022638977 -0.094087481 0.68061554
-0.1133071 -0.089056931 0.6820001
-0.1088 -0.089371435 0.68000001
0.00814767 -0.084698148 0.68305266
0.013686025 -0.084209472 0.68065125
0.024099054 -0.084766217 0.68022233
0.007373204 -0.075326368 0.68465531
0.014694738 -0.074974895 0.6809122
0.02376855 -0.074876279 0.68121934
0.007932934 -0.065324314 0.68226314
0.012913399 -0.066342741 0.68026686
0.023660691 -0.065109432 0.68061113
0.0083362469 -0.054989696 0.68264717
0.012247751 -0.055521842 0.68062073
0.02663148 -0.055206429 0.68026334
0.0083491169 -0.046121493 0.68200004
0.011714922 -0.044865236 0.68025011
0.025615601 -0.045518823 0.68047631
0.0090895249 -0.035056055 0.68171436
0.010756572 -0.034602292 0.68040001
0.0090720011 -0.027217526 0.68040001
0.010361905 -0.029790478 0.68000001
0.012952383 -0.018133335 0.68000001
0.032380953 -0.0012952382 0.68000001
0.014506667 0.0018133335 0.68000001
0.032380953 0 0.68000001
-0.18239562 -0.15171126 0.69139999
-0.17502077 -0.15077905 0.69560003
-0.18249188 -0.14494045 0.6917668
-0.17592105 -0.14501721 0.69577974
-0.18338519 -0.13461082 0.69214606
-0.17604479 -0.13484354 0.69647062
-0.18393306 -0.12457491 0.69280648
-0.17666689 -0.12504731 0.69752944
-0.18359444 -0.11650326 0.69406259
-0.17659555 -0.11566997 0.69666672
-0.11436966 -0.1119162 0.69692314
-0.10979715 -0.11178191 0.69450003
-0.12297048 -0.1033019 0.69690925
-0.11516272 -0.10509319 0.69389367
-0.10903239 -0.1083762 0.69175005
-0.1319025 -0.095848501 0.69760007
-0.12492324 -0.09472242 0.69414008
-0.1173336 -0.095824853 0.69078273
-0.12708572 -0.08869525 0.69500005
-0.11894287 -0.089371435 0.69000006
-0.17133334 -0.15066667 0.70000005
-0.17096299 -0.1445926 0.70000005
-0.16593277 -0.14452665 0.70344245
-0.1559336 -0.14214046 0.70490921
-0.14678667 -0.14005333 0.70700002
-0.17111504 -0.13494202 0.70074999
-0.16515778 -0.13503174 0.7040692
-0.15561776 -0.13490394 0.70625043
-0.14516476 -0.13410801 0.70702118
-0.13719167 -0.13146834 0.70700002
-0.17210212 -0.12539551 0.70064002
-0.16529241 -0.12474808 0.70351851
-0.15533218 -0.1250762 0.70607173
-0.14481738 -0.12528487 0.70725036
-0.13459456 -0.12517019 0.70661253
-0.12528992 -0.12348776 0.70337141
-0.11861587 -0.12084508 0.70233339
-0.17195265 -0.11531123 0.70004338
-0.16524228 -0.11510843 0.70212275
-0.15493421 -0.11536462 0.7042504
-0.14473359 -0.11518989 0.70567834
-0.13482888 -0.11537422 0.70540404
-0.12480676 -0.11515591 0.70244676
-0.11739187 -0.11565374 0.70104349
-0.17127365 -0.10899239 0.70066667
-0.16425242 -0.10713243 0.70254266
-0.15459478 -0.10570445 0.70308739
-0.14503023 -0.10478505 0.70334047
-0.13521992 -0.10529257 0.70178449
-0.12688281 -0.10667402 0.70037043
-0.14366879 -0.096982524 0.70029408
-0.13609077 -0.09574987 0.70012534
-0.15079048 -0.1413238 0.71000004
-0.14876191 -0.14064762 0.71000004
-0.15079048 -0.13929525 0.71000004
