# .PCD v0.7 - Point Cloud Data file format
VERSION 0.7
FIELDS x y z
SIZE 4 4 4
TYPE F F F
COUNT 1 1 1
WIDTH 412
HEIGHT 1
VIEWPOINT 0 0 0 1 0 0 0
POINTS 412
DATA ascii
-0.032534286 0.079405718 0.57900006
-0.033884287 0.081540495 0.57850003
-0.04189232 0.056976002 0.5880667
-0.033458151 0.056850363 0.58726472
-0.028827382 0.055977862 0.58775002
-0.04025143 0.060377143 0.58700001
-0.03493765 0.064935543 0.58401316
-0.051572576 0.076236576 0.58859998
-0.045824815 0.076519527 0.58670455
-0.035413519 0.07498011 0.58221346
-0.029340409 0.074857965 0.58285713
-0.043723848 0.084003314 0.58368844
-0.037427653 0.085107163 0.58362967
-0.040045716 0.090102859 0.58400005
-0.038377143 0.090102859 0.58400005
-0.031953745 0.04825034 0.59307146
-0.027304681 0.047579046 0.59413052
-0.040491432 0.054550476 0.5905
-0.033904493 0.052023541 0.59192866
-0.026471905 0.052891664 0.5933125
-0.030384002 0.063019432 0.59079999
-0.027669176 0.063691534 0.59181815
-0.053942859 0.076980948 0.59000003
-0.023428572 0.04914286 0.60000002
-0.024571428 0.050857145 0.60000002
-0.027994286 -0.082765721 0.63900006
-0.017364573 -0.063940577 0.63900006
-0.02069143 -0.052945718 0.63900006
-0.015251885 -0.055131387 0.6387223
-0.009126191 -0.055365082 0.63883334
-0.024131197 -0.045686029 0.63796508
-0.015632108 -0.04491413 0.63839704
-0.0085200006 -0.04138286 0.639
-0.022283351 -0.034387197 0.63772422
-0.015137619 -0.034521483 0.63585961
-0.0086863497 -0.03474794 0.63847631
-0.021723723 -0.024794197 0.63866669
-0.015135476 -0.024821252 0.63568753
-0.0086726537 -0.024456056 0.63752377
-0.021768522 -0.016006215 0.63863164
-0.015132499 -0.015129079 0.63546872
-0.0084874611 -0.015160002 0.63662505
-0.021271432 -0.005471786 0.63812506
-0.015137798 -0.0054496718 0.63567197
-0.0084685721 -0.0054454762 0.6351251
-0.021264764 0.0048635979 0.63794446
-0.015139891 0.0048381756 0.63556951
-0.0081822872 0.0052434937 0.63496673
-0.020950954 0.015912699 0.63458341
-0.015103097 0.015101193 0.63428122
-0.0073224911 0.015173972 0.63535899
-0.020847619 0.021452857 0.63450003
-0.014357725 0.023775607 0.63361716
-0.0080131982 0.024380611 0.63335723
-0.012223175 0.033950716 0.63374996
-0.0061675226 0.034915611 0.63467789
-0.004188708 0.04410293 0.63610715
0.0010416327 0.044646807 0.63842863
-0.036323268 -0.13224491 0.64800006
-0.033633806 -0.12517174 0.64743185
-0.027982257 -0.12322928 0.64763153
-0.04073143 -0.11293715 0.648
-0.034197487 -0.11503825 0.64717984
-0.025384171 -0.11487836 0.64621305
-0.018136019 -0.11374249 0.64650005
-0.031779144 -0.10578829 0.64540011
-0.02515631 -0.10491437 0.64420354
-0.015611527 -0.10500132 0.64638335
-0.0098717464 -0.10427111 0.64783335
-0.030861165 -0.095724449 0.64522225
-0.025146754 -0.09505973 0.64393789
-0.015301815 -0.094886422 0.64271855
-0.0095436191 -0.094093539 0.64230001
-0.030690476 -0.085316196 0.64450002
-0.024958866 -0.085069112 0.64217746
-0.015261637 -0.084847569 0.64093733
-0.0095804082 -0.085002996 0.64014292
-0.030714286 -0.076785713 0.64500004
-0.025080269 -0.075338617 0.64362526
-0.015262145 -0.07510028 0.64109361
-0.0095413337 -0.075962283 0.64220005
-0.024252962 -0.065241463 0.64296401
-0.014593118 -0.06565655 0.64075506
-0.0083770594 -0.064624593 0.64439142
-0.030666668 -0.05336 0.64400005
-0.025135525 -0.055428155 0.6413517
-0.014997333 -0.056694862 0.6401
-0.0083897617 -0.054008096 0.64075005
-0.012190477 -0.045646563 0.64000005
-0.0086203571 -0.046616189 0.64087504
-0.023161905 -0.023161905 0.64000005
-0.023818318 -0.014628572 0.63999999
-0.0067047626 0.027428571 0.64000005
-0.050133336 -0.15165335 0.65800005
-0.04548762 -0.15162277 0.65757889
-0.038853336 -0.15102667 0.65800005
-0.051326986 -0.14395431 0.65800005
-0.044841636 -0.14507163 0.65717876
-0.035181906 -0.14439403 0.65415406
-0.028882666 -0.1455379 0.65359998
-0.051176261 -0.1368551 0.65776932
-0.044570345 -0.13508491 0.65415686
-0.035379454 -0.13524771 0.65128845
-0.027581967 -0.13364471 0.65171874
-0.044731755 -0.1249176 0.65609628
-0.038745068 -0.1245162 0.65063161
-0.024152748 -0.12510179 0.65027767
-0.018942041 -0.1212637 0.65057153
-0.043568093 -0.11805727 0.65456247
-0.038669635 -0.11752191 0.65022224
-0.017952383 -0.11885715 0.65000004
-0.063159503 -0.16225739 0.66760004
-0.056304224 -0.1630249 0.6663599
-0.070510484 -0.15886097 0.66900003
-0.064316116 -0.15491724 0.66608357
-0.055179831 -0.15493906 0.66207016
-0.048659049 -0.1556254 0.6606667
-0.063475445 -0.14756654 0.66586959
-0.056249242 -0.14559145 0.66135007
-0.055581592 -0.13926478 0.6606667
-0.050285716 -0.12508571 0.66000003
-0.04695683 -0.12493905 0.6603334
-0.19125144 -0.10198515 0.66760004
-0.18759607 -0.10238436 0.66771436
-0.19069144 -0.099765718 0.66300005
-0.18793587 -0.099047624 0.66666669
-0.081897996 -0.1733505 0.67888886
-0.07482858 -0.17234229 0.67568189
-0.069004759 -0.17170954 0.67400002
-0.081749365 -0.16707136 0.67870587
-0.074605949 -0.16509549 0.6739037
-0.067212723 -0.16498114 0.67095447
-0.17513892 -0.15088889 0.67900002
-0.16459844 -0.15245998 0.67856532
-0.15528266 -0.15127544 0.67879999
-0.074505784 -0.1555167 0.67455119
-0.068934858 -0.15446439 0.67020005
-0.18365827 -0.14308085 0.67843997
-0.17521721 -0.14506693 0.67707998
-0.1650424 -0.14532895 0.67539996
-0.15500964 -0.14497335 0.676476
-0.14603908 -0.14320359 0.67782843
-0.13968 -0.14162001 0.67900002
-0.071339436 -0.14907049 0.67119998
-0.067820415 -0.14694422 0.67000002
-0.19012001 -0.13062668 0.67900002
-0.18492655 -0.13493176 0.67729551
-0.17494532 -0.13495921 0.67379308
-0.16474816 -0.13526334 0.67309386
-0.15464465 -0.13477731 0.67307156
-0.14468953 -0.13462946 0.67553204
-0.13685715 -0.13450019 0.67847508
-0.19209647 -0.12414219 0.67889994
-0.18522665 -0.12464882 0.67601961
-0.1750287 -0.12502122 0.67318773
-0.16447249 -0.12479412 0.67196923
-0.15485507 -0.12477983 0.67189336
-0.14523119 -0.1248156 0.67388052
-0.13598825 -0.12481052 0.67737782
-0.19340834 -0.11429991 0.67817253
-0.18518302 -0.11493053 0.67566025
-0.17492591 -0.1146917 0.67278147
-0.16447999 -0.11456003 0.67200053
-0.15465745 -0.11463843 0.67319363
-0.14480148 -0.11517337 0.67493927
-0.13693531 -0.11588614 0.67805409
-0.19359867 -0.10757943 0.67355001
-0.18478763 -0.10701957 0.67340004
-0.1747119 -0.10583247 0.67391485
-0.16497065 -0.10462674 0.67400002
-0.15475887 -0.10466819 0.67426527
-0.14519867 -0.10521151 0.67728591
-0.13946447 -0.10777779 0.67900002
-0.16397557 -0.098427951 0.67475003
-0.15471675 -0.096949279 0.67737156
-0.14734089 -0.096681207 0.67811126
-0.092807271 -0.18228813 0.68536365
-0.087727785 -0.18196081 0.68316668
-0.10095557 -0.17503208 0.68833339
-0.095368609 -0.17474978 0.68640012
-0.087295912 -0.17546764 0.68291891
-0.18406144 -0.16011049 0.68900001
-0.17446046 -0.16190337 0.6881054
-0.16521652 -0.16342759 0.68766677
-0.15582845 -0.16163769 0.68588895
-0.14961143 -0.16011049 0.68900001
-0.093835056 -0.16574332 0.68608576
-0.086099774 -0.16397743 0.68238008
-0.19197844 -0.15370758 0.68813342
-0.18490972 -0.15460782 0.68487185
-0.17514437 -0.15604179 0.68350017
-0.16495319 -0.15731533 0.68279165
-0.15460278 -0.15590873 0.68266678
-0.14538947 -0.154111 0.68445462
-0.13720739 -0.1525414 0.68758833
-0.092862867 -0.1589143 0.68666673
-0.083598405 -0.15715504 0.68232
-0.20134783 -0.14104915 0.6882
-0.19462553 -0.1446574 0.68465793
-0.18652339 -0.14694235 0.68131828
-0.14343183 -0.14761268 0.68160886
-0.13516609 -0.14500353 0.68444431
-0.12820077 -0.1410484 0.68820006
-0.20272373 -0.13446017 0.6871053
-0.19514009 -0.13503638 0.68270582
-0.18910477 -0.13815874 0.68000001
-0.13193686 -0.13574187 0.68207419
-0.12579618 -0.13440962 0.68580449
-0.20336875 -0.12493185 0.68628573
-0.19649929 -0.12560482 0.68157154
-0.13147654 -0.12484247 0.68064713
-0.12540264 -0.1249418 0.68518746
-0.20328531 -0.11633062 0.68412125
-0.19748867 -0.11695503 0.68107694
-0.13260166 -0.11367305 0.68106252
-0.12575907 -0.11529525 0.68570673
-0.14118096 -0.10102858 0.68000001
-0.13460353 -0.10462873 0.68204594
-0.12724778 -0.10595924 0.68751436
-0.14282581 -0.095016591 0.68202871
-0.13518567 -0.095349334 0.68466651
-0.1291281 -0.09766525 0.68825006
-0.14194837 -0.088753872 0.68300003
-0.13633478 -0.088505365 0.68331254
-0.13029334 -0.24130857 0.69800001
-0.12511671 -0.24137262 0.69780004
-0.1164395 -0.24083917 0.69681823
-0.13274124 -0.23436338 0.69688904
-0.12486781 -0.23439769 0.6956923
-0.11528951 -0.23435201 0.69671434
-0.10902096 -0.23000763 0.69800001
-0.13319232 -0.22449172 0.69709545
-0.12481935 -0.22510603 0.69645447
-0.11559942 -0.22594263 0.69710231
-0.10902096 -0.22801334 0.69800001
-0.13518085 -0.21471298 0.69684333
-0.12494671 -0.21485339 0.69622034
-0.11889858 -0.21528013 0.69793749
-0.13420998 -0.20533432 0.69750011
-0.12561171 -0.20600328 0.69775617
-0.11965714 -0.20607619 0.69800001
-0.14111947 -0.19657961 0.69800007
-0.13544086 -0.19583531 0.69795924
-0.12763429 -0.19743429 0.69800001
-0.10402381 -0.19036826 0.69566673
-0.11363716 -0.18381642 0.69619238
-0.10470511 -0.18447158 0.6928401
-0.097916394 -0.18424651 0.69221056
-0.1823193 -0.17139168 0.69550008
-0.17675094 -0.17145216 0.69575012
-0.16348459 -0.17145944 0.69779998
-0.15509333 -0.17186096 0.69776928
-0.14824191 -0.17017905 0.69800001
-0.11389389 -0.17485961 0.6958372
-0.10620753 -0.17472915 0.69271445
-0.20047048 -0.16064191 0.69700003
-0.19356963 -0.16227554 0.69319999
-0.18439551 -0.16496831 0.69226331
-0.17580381 -0.16688001 0.69215393
-0.16488419 -0.16804907 0.69115007
-0.15413083 -0.16687211 0.69434291
-0.14532165 -0.16452934 0.69575614
-0.137463 -0.1624019 0.69753855
-0.11300953 -0.16884953 0.69800001
-0.10342934 -0.16757898 0.69450009
-0.098089874 -0.16543536 0.69081825
-0.20359688 -0.15399614 0.6958077
-0.19648321 -0.15604654 0.69196439
-0.14255294 -0.15872845 0.69114292
-0.13415658 -0.15586504 0.69345731
-0.1273921 -0.15189408 0.69669241
-0.21109144 -0.14205526 0.69700003
-0.20533894 -0.14533272 0.69361299
-0.19933335 -0.1485143 0.69000006
-0.13059756 -0.14694722 0.69057149
-0.1248138 -0.14505175 0.69295669
-0.11837125 -0.14239259 0.69670004
-0.2130457 -0.13427083 0.69614822
-0.20728201 -0.13547768 0.6916666
-0.12128274 -0.13641076 0.69050014
-0.11780096 -0.13438256 0.6944375
-0.21299994 -0.12608327 0.69538099
-0.20850685 -0.12558906 0.69099998
-0.1209143 -0.12660953 0.69000006
-0.11647057 -0.12479423 0.6939168
-0.21028572 -0.11894287 0.69000006
-0.12135238 -0.11346667 0.69000006
-0.11670512 -0.11539205 0.69335425
-0.12259909 -0.10385335 0.69168586
-0.11772369 -0.10575537 0.69550008
-0.13058381 -0.092240959 0.69016671
-0.12512638 -0.095162168 0.69373596
-0.11915684 -0.099223495 0.69766665
-0.13159595 -0.088443816 0.69174999
-0.12786151 -0.088327996 0.69419998
-0.1427189 -0.24308059 0.70529413
-0.13485581 -0.24526681 0.70242107
-0.12583655 -0.24583127 0.70033336
-0.11422223 -0.24222223 0.70000005
-0.14390251 -0.23451835 0.70366675
-0.13724211 -0.23618543 0.70055002
-0.11166667 -0.23866665 0.70000005
-0.10527027 -0.23466593 0.7026611
-0.097884193 -0.23213995 0.70720005
-0.15200728 -0.22292779 0.70736367
-0.14494406 -0.22514942 0.7033335
-0.13866667 -0.22523811 0.69999999
-0.11312281 -0.22189477 0.69999993
-0.10539252 -0.22501986 0.70364308
-0.096835487 -0.22780406 0.7079376
-0.15290262 -0.21437289 0.70654845
-0.14515488 -0.21493596 0.70233339
-0.11401194 -0.21447566 0.70080441
-0.10775869 -0.21586365 0.70517141
-0.15498978 -0.20488477 0.70625597
-0.1451069 -0.20499076 0.70079571
-0.13980953 -0.20476192 0.70000011
-0.12339782 -0.20238096 0.70007694
-0.11473045 -0.20494188 0.7034561
-0.10920342 -0.20627239 0.70780003
-0.16112596 -0.19281192 0.70787501
-0.15497473 -0.19499934 0.70440483
-0.14579055 -0.19490676 0.70014918
-0.1336889 -0.19182223 0.69999999
-0.12459969 -0.19520016 0.70045787
-0.11509258 -0.19543378 0.70364571
-0.10870254 -0.1926816 0.70166671
-0.17126858 -0.18070857 0.708
-0.16302036 -0.18422145 0.70731574
-0.15501432 -0.1847963 0.70251989
-0.14554706 -0.1852276 0.70039248
-0.13520524 -0.18511975 0.70022064
-0.12507015 -0.18526088 0.70226556
-0.11731213 -0.18712865 0.70039999
-0.19233792 -0.17093372 0.70220006
-0.18880144 -0.1714562 0.70050007
-0.17281245 -0.17574322 0.70429409
-0.16474427 -0.17652643 0.70485198
-0.15452333 -0.17653017 0.7009033
-0.14469634 -0.17544791 0.70031607
-0.13496928 -0.17488053 0.70113122
-0.12554178 -0.17549093 0.70493376
-0.11941258 -0.17576154 0.7044
-0.19245969 -0.16884446 0.70166671
-0.18933333 -0.16933334 0.70000005
-0.14240001 -0.16880001 0.70000005
-0.1341985 -0.16598998 0.7016741
-0.12726636 -0.16520922 0.70645165
-0.11120001 -0.16826668 0.70000005
-0.1073285 -0.16699535 0.7003637
-0.21180497 -0.15163009 0.70200008
-0.20798571 -0.15555564 0.70040005
-0.13133334 -0.15866667 0.70000005
-0.12483531 -0.15556587 0.70302868
-0.11918001 -0.15150002 0.70700002
-0.2126072 -0.14708571 0.70200008
-0.12088143 -0.14893286 0.70125002
-0.1148324 -0.14506106 0.70515013
-0.10915715 -0.14284953 0.70749998
-0.22259811 -0.13007239 0.70400006
-0.21644446 -0.13511112 0.70000005
-0.11271746 -0.13525312 0.70231587
-0.10907863 -0.13417698 0.70700014
-0.22162859 -0.12643449 0.70390004
-0.21779397 -0.12494689 0.70047063
-0.11153449 -0.12533979 0.70127785
-0.10951017 -0.12430651 0.70616674
-0.11194187 -0.11458082 0.70345169
-0.10923429 -0.11395429 0.70800006
-0.11338651 -0.10481614 0.70347518
-0.10923429 -0.10856 0.708
-0.12160223 -0.092453502 0.70091671
-0.11656599 -0.095786445 0.7050001
-0.12311357 -0.087932058 0.70404768
-0.11951429 -0.089971431 0.70500004
-0.15281905 -0.22584763 0.71000004
-0.10117829 -0.22199695 0.71110004
-0.095932961 -0.22325073 0.71235138
-0.15768763 -0.2125943 0.71000004
-0.10320049 -0.21451156 0.7122249
-0.097177014 -0.21500528 0.71500003
-0.16348574 -0.20242605 0.7132501
-0.1052406 -0.20512517 0.71403503
-0.098297618 -0.20817453 0.71550006
-0.16455072 -0.19594637 0.71150011
-0.10678501 -0.19869195 0.71513331
-0.17052001 -0.18202382 0.7105
-0.16702487 -0.1854149 0.71052951
-0.17040001 -0.17986667 0.71000004
-0.16904762 -0.17986667 0.71000004
-0.12129144 -0.17160431 0.71149999
-0.11795779 -0.17194733 0.7145834
-0.12268367 -0.16549449 0.71402633
-0.11686902 -0.16502124 0.71826923
-0.12117969 -0.157287 0.71083343
-0.11629732 -0.15505695 0.71196985
-0.11140984 -0.14605431 0.71333337
-0.10728128 -0.14277296 0.7166
-0.10572502 -0.13480751 0.71425712
-0.10470589 -0.125072 0.71266669
-0.099210486 -0.12163429 0.71350002
-0.10508139 -0.11525985 0.71224999
-0.099280007 -0.11968 0.71400005
-0.1105581 -0.10203973 0.71157146
-0.10728804 -0.1054266 0.71266675
-0.11245008 -0.093765236 0.71346885
-0.10878109 -0.094737783 0.71806663
-0.12095105 -0.085398301 0.71510011
-0.11629835 -0.086784415 0.71649992
-0.11596524 -0.16640191 0.72049999
-0.12068572 -0.081600003 0.72000003
-0.11758286 -0.083889529 0.72200006
