# .PCD v0.7 - Point Cloud Data file format
VERSION 0.7
FIELDS x y z
SIZE 4 4 4
TYPE F F F
COUNT 1 1 1
WIDTH 570
HEIGHT 1
VIEWPOINT 0 0 0 1 0 0 0
POINTS 570
DATA ascii
-0.10097429 0.058188569 0.59900004
-0.099262863 0.058188573 0.5990001
-0.11181332 0.068457149 0.59900004
-0.10366831 0.066320561 0.59878737
-0.09869238 0.06608016 0.59900004
-0.11464279 0.076002173 0.59832817
-0.10473056 0.075132221 0.59764183
-0.097394787 0.074626401 0.59854287
-0.1133469 0.082395315 0.59804165
-0.10445116 0.083641134 0.5958246
-0.096566096 0.084858283 0.59854072
-0.10378868 0.046589918 0.60772735
-0.095996611 0.045265801 0.60762966
-0.089320004 0.040600002 0.60900003
-0.11116508 0.058829211 0.60166669
-0.10487702 0.055062283 0.60313839
-0.095131204 0.055516317 0.60450011
-0.088191256 0.057465997 0.60645014
-0.1116454 0.0635508 0.60116667
-0.10691217 0.063339718 0.6001178
-0.094559737 0.065127589 0.60220593
-0.08563666 0.064856403 0.60616219
-0.079908572 0.069485717 0.60800004
-0.092700951 0.075180821 0.60122502
-0.085159868 0.0748071 0.60420978
-0.077659152 0.075573839 0.60743904
-0.092766017 0.084001802 0.60107887
-0.085323319 0.083340898 0.60367316
-0.076554962 0.084999815 0.60761118
-0.076886669 0.090182863 0.60700005
-0.095927313 0.039189525 0.61416674
-0.1119609 0.046229601 0.61623085
-0.10560657 0.043162853 0.61150002
-0.093157589 0.044483636 0.61168194
-0.086514577 0.045483179 0.61315686
-0.11215691 0.052025478 0.61900002
-0.10957715 0.050125714 0.61200005
-0.092377663 0.051109273 0.61109096
-0.084942795 0.054336391 0.61318648
-0.074689925 0.058350403 0.61437929
-0.068043098 0.058785718 0.61725008
-0.080790915 0.064400591 0.61130774
-0.0748768 0.064982451 0.61336482
-0.066179 0.065227427 0.61754715
-0.058952384 0.069563814 0.61900002
-0.072878286 0.073946431 0.61239588
-0.065000132 0.075021766 0.61557156
-0.057807855 0.075437009 0.61824256
-0.072003208 0.083584256 0.61126322
-0.065503895 0.084621936 0.61451477
-0.05676493 0.085205108 0.6177358
-0.05882477 0.090591118 0.61766672
-0.12400286 0.059305716 0.62900001
-0.11697096 0.053661183 0.62343746
-0.063527614 0.058057375 0.62124997
-0.05529486 0.057550423 0.62166661
-0.045895956 0.058581423 0.6265834
-0.06165158 0.064240739 0.62015384
-0.054825913 0.064995103 0.62321919
-0.045009408 0.065090626 0.62789398
-0.039365988 0.066751026 0.62900001
-0.053098913 0.074404269 0.62216657
-0.045428805 0.074980609 0.62643409
-0.038179304 0.076757975 0.62900007
-0.052813962 0.082215466 0.62155557
-0.045060322 0.082947239 0.62472928
-0.035952203 0.084392421 0.62866658
-0.11380287 0.02921143 0.63900006
-0.120984 0.041626289 0.63900006
-0.11798116 0.041353654 0.63855553
-0.13104419 0.059079241 0.63819999
-0.12740572 0.059173334 0.63400006
-0.041059051 0.059173334 0.634
-0.038113333 0.059289999 0.63525003
-0.13184108 0.065346673 0.63533342
-0.12853335 0.064665757 0.63376194
-0.035041042 0.065034695 0.63485944
-0.028857145 0.06727647 0.63885719
-0.14421181 0.072235785 0.63821059
-0.13455558 0.074908845 0.63693029
-0.12860382 0.070912383 0.63100004
-0.033941105 0.074482508 0.63320965
-0.02557396 0.075301066 0.63727283
-0.019474287 0.074854285 0.63900006
-0.13639262 0.081349052 0.63862503
-0.040929526 0.087276191 0.63200003
-0.03274034 0.084560148 0.63160729
-0.025984351 0.084978461 0.63666677
-0.031021906 0.090658575 0.63250005
-0.026284836 0.091582432 0.63392311
-0.11269029 -0.061590858 0.64799994
-0.10364839 -0.061695244 0.64779997
-0.099874303 -0.061651431 0.64733338
-0.11418724 -0.055289667 0.64800018
-0.10462387 -0.055397652 0.64799988
-0.11390739 -0.045013472 0.64766693
-0.10960457 -0.046409141 0.648
-0.12301947 -0.033316609 0.64782602
-0.11532145 -0.033960659 0.64782625
-0.10780747 -0.032644104 0.64769226
-0.12259708 -0.025481781 0.64730018
-0.11518337 -0.025256727 0.64674973
-0.10729969 -0.025285328 0.64749998
-0.12179926 -0.015900953 0.64772218
-0.11502048 -0.015376663 0.64582819
-0.10718623 -0.015207722 0.64681584
-0.12222644 -0.0048814476 0.64712006
-0.11495886 -0.0055339877 0.64548451
-0.10709372 -0.0062863491 0.64445484
-0.1228653 0.0046668225 0.64748651
-0.11496452 0.0049190209 0.64551407
-0.10774809 0.0052116523 0.64605868
-0.12262813 0.015634656 0.64522237
-0.11466658 0.015328991 0.64385962
-0.10674547 0.015163987 0.64588368
-0.12292292 0.025100216 0.64566678
-0.11459046 0.024982205 0.64340353
-0.10751963 0.025173055 0.64307415
-0.12223981 0.035073798 0.64248151
-0.11548957 0.034384448 0.64135194
-0.1072819 0.032521639 0.64142853
-0.12347212 0.041273471 0.6400001
-0.13674667 0.068982854 0.64100003
-0.024396017 0.067195103 0.64248502
-0.015676707 0.067940675 0.64673084
-0.0092571434 0.067885719 0.648
-0.16188656 0.07589642 0.64724994
-0.15450178 0.077835612 0.6439231
-0.14423858 0.077086829 0.64097244
-0.13811143 0.072256431 0.64025003
-0.022177316 0.07273975 0.64036369
-0.015086361 0.0749292 0.64383829
-0.0080347462 0.075209655 0.64731026
-0.16410431 0.085049547 0.64329296
-0.15691639 0.083065726 0.64555556
-0.14439763 0.081364647 0.64175004
-0.1391162 0.081761912 0.64066672
-0.021434922 0.083403185 0.63999999
-0.015074679 0.084838383 0.64344102
-0.0074795359 0.083937444 0.64602721
-0.16569716 0.090491429 0.64200002
-0.0129 0.090914287 0.64500004
-0.11380824 -0.11286071 0.65775704
-0.10721222 -0.11363555 0.65800005
-0.12172211 -0.10300464 0.65719038
-0.11464982 -0.10516694 0.65639621
-0.10610823 -0.1041071 0.65744472
-0.098386675 -0.10277334 0.65800005
-0.12305858 -0.094472215 0.65446872
-0.11507892 -0.095174611 0.65395159
-0.10566542 -0.095297001 0.65600002
-0.099436194 -0.097876437 0.6556251
-0.12284175 -0.085607782 0.65363652
-0.11491822 -0.085101105 0.65223461
-0.10550935 -0.085006341 0.6539672
-0.12275232 -0.075290836 0.65165806
-0.11484054 -0.075113855 0.65179724
-0.10538499 -0.075310402 0.65547627
-0.099961907 -0.077470481 0.65600002
-0.12219373 -0.065554217 0.65231043
-0.1150182 -0.065764807 0.65073591
-0.1061162 -0.066058271 0.65064996
-0.12269531 -0.054781329 0.65119451
-0.11489524 -0.054525714 0.64999986
-0.10679749 -0.055554405 0.65013772
-0.12316988 -0.045513414 0.65136361
-0.11629843 -0.044901591 0.65000004
-0.10716141 -0.04518488 0.65077412
-0.12226193 -0.038380958 0.6500001
-0.1140441 -0.038253635 0.65005261
-0.10707876 -0.036304597 0.65039122
-0.12442858 -0.018571429 0.65000004
-0.10585716 -0.01547619 0.65000004
-0.12525398 -0.0059841275 0.6500001
-0.12586096 0.0037219049 0.65100002
-0.16703621 0.06954667 0.65200001
-0.015509048 0.065770477 0.65150005
-0.0043422226 0.068960957 0.65233338
0.0035265801 0.069083296 0.65618199
0.010653334 0.068933338 0.65800005
-0.17189364 0.07581085 0.65576929
-0.16693886 0.075648509 0.65206254
-0.0035069394 0.074566595 0.6515429
0.0044490201 0.075066194 0.65557349
0.011393248 0.074966669 0.65795457
-0.17267168 0.081248812 0.65750003
-0.16500065 0.080950797 0.65050006
-0.15618171 0.084984235 0.65133345
-0.0024807146 0.085008256 0.65149999
0.0049318215 0.085036077 0.65385288
0.01323214 0.085442685 0.6560002
-0.0012438096 0.090798095 0.65300006
0.0049904762 0.090937145 0.65400004
0.013069524 0.090867624 0.65350008
-0.10130572 -0.14272 0.66900003
-0.11053143 -0.13212954 0.66700006
-0.1046982 -0.13357724 0.6670751
-0.098699607 -0.13269198 0.66800004
-0.11159556 -0.12440458 0.66326678
-0.10495643 -0.12495326 0.66272718
-0.096278854 -0.12438227 0.66661721
-0.088562861 -0.12296858 0.66900003
-0.11367742 -0.11779638 0.66045451
-0.10349268 -0.11572677 0.66039985
-0.097094581 -0.11606467 0.66367573
-0.10209789 -0.10685102 0.66038895
-0.098441117 -0.10630052 0.66158831
-0.14321238 0.029279366 0.66833341
-0.13889715 0.029308572 0.66900003
-0.14362875 0.034448147 0.66844451
-0.13599098 0.03535863 0.66749054
-0.12997715 0.034405716 0.66900003
-0.14270361 0.045461908 0.66800004
-0.13592008 0.044327278 0.66641194
-0.14330684 0.055048097 0.66694438
-0.13887756 0.053938232 0.66628569
0.01605376 0.074910045 0.66095001
0.024601873 0.075968072 0.66596311
0.03090143 0.075182855 0.66900009
0.017247016 0.083650991 0.66177279
0.024964714 0.084772281 0.6647799
0.031146524 0.085234307 0.66638464
-0.091180004 -0.15002668 0.67900002
-0.10184001 -0.14089145 0.67000002
-0.094542488 -0.14451209 0.67506379
-0.086315073 -0.14331606 0.67741394
-0.10191293 -0.13819322 0.67000002
-0.094549187 -0.13544822 0.67132074
-0.08609096 -0.13498417 0.67573208
-0.092634656 -0.12713537 0.67081249
-0.087712049 -0.12731016 0.67311758
-0.13719048 0.029352382 0.67000002
-0.1459962 0.037264764 0.67000002
-0.13093714 0.036754288 0.67000002
-0.15109715 0.049074288 0.67800003
-0.14720076 0.048383623 0.67200005
-0.15228847 0.054026257 0.67878574
-0.14832926 0.052855782 0.67214292
0.035873134 0.077498794 0.67250001
0.044075336 0.078048475 0.67559999
0.036360752 0.084183298 0.67272097
0.043979257 0.084068269 0.6746943
0.039857145 0.090000004 0.67500001
0.041785717 0.090000004 0.67500001
-0.082921669 -0.16079929 0.68425
-0.079706669 -0.16202667 0.68600005
-0.090666667 -0.15154286 0.68000001
-0.084089354 -0.1545628 0.68388379
-0.075930558 -0.15314075 0.68834281
-0.083050542 -0.14653838 0.68167871
-0.075995624 -0.14516373 0.68695825
-0.081159055 -0.1376462 0.68175
-0.077268451 -0.13784584 0.68393755
-0.10506492 0.018173004 0.68356514
-0.096758284 0.018969873 0.68900013
-0.11097382 0.025246669 0.68275011
-0.10500341 0.025172811 0.68378681
-0.097445391 0.024725037 0.68835717
-0.11090605 0.031626038 0.68233335
-0.10462353 0.034757826 0.68494666
-0.098023295 0.035981122 0.68856537
-0.10226499 0.042338934 0.68393755
-0.095408969 0.043679327 0.68680626
-0.15542857 0.05504762 0.68000001
-0.088192008 0.057351049 0.68900007
-0.072625712 0.058231428 0.68700004
-0.09055429 0.062994286 0.68900001
-0.087929532 0.061025716 0.68900007
-0.074230805 0.061800011 0.68666667
-0.080229521 -0.16111714 0.69050002
-0.074367508 -0.16347162 0.6937142
-0.06605199 -0.1638301 0.69670969
-0.059828572 -0.16087238 0.69800001
-0.080171429 -0.15902857 0.69000006
-0.074036956 -0.15809363 0.69165009
-0.065318465 -0.15465944 0.69408625
-0.059562672 -0.15661791 0.69800001
-0.071138017 -0.14550771 0.69163638
-0.066888928 -0.14689761 0.69500011
-0.095942855 0.018400002 0.69000006
-0.092939116 0.025173541 0.69035739
-0.085609935 0.026334127 0.6946342
-0.077782869 0.027020955 0.69700015
-0.093741693 0.03417784 0.69080508
-0.085257776 0.035026584 0.69400012
-0.07614255 0.035243694 0.69630635
-0.09145239 0.043590482 0.69000006
-0.085150644 0.044940155 0.69249141
-0.076153561 0.045027073 0.69530946
-0.084321439 0.054284357 0.69256622
-0.076478787 0.054647855 0.69454747
-0.092 0.06308572 0.69000006
-0.084157631 0.061947271 0.69106269
-0.0765981 0.061012384 0.69133341
-0.060931433 -0.17151999 0.70460004
-0.055388737 -0.17225666 0.70556527
-0.04922286 -0.17194286 0.708
-0.062096827 -0.16656119 0.70111114
-0.055124857 -0.16466284 0.70325512
-0.049041405 -0.16553983 0.70733333
-0.061333336 -0.15066667 0.70000005
-0.055531703 -0.15522124 0.70092875
-0.049450796 -0.15770921 0.70166671
-0.061333336 -0.14933334 0.70000005
-0.059333336 -0.14933334 0.70000005
-0.0033714287 -0.12164116 0.70800012
0.0043401187 -0.12351 0.70793766
0.015170794 -0.12304999 0.70795846
0.021209352 -0.12210703 0.70800012
-0.011366532 -0.11231675 0.70800006
-0.0049974215 -0.1145735 0.70731276
0.0047100005 -0.1150951 0.7067191
0.01479442 -0.11497894 0.70600045
0.024653332 -0.11429098 0.70767325
0.031017143 -0.11193144 0.708
-0.011559186 -0.10528491 0.70800012
-0.0053899325 -0.10507917 0.70726556
0.0047104089 -0.10500174 0.70675045
0.014808979 -0.10500236 0.7067554
0.024497485 -0.10535641 0.70752966
0.031017143 -0.10856 0.708
-0.010788572 -0.099794291 0.708
-0.0048691533 -0.096815392 0.70786124
0.0048679882 -0.095138408 0.70751631
0.014816429 -0.094958298 0.70714319
0.02330748 -0.095699951 0.70788115
0.0065742861 -0.08866857 0.70800006
0.015857065 -0.086730585 0.70792007
0.021442289 -0.084420569 0.70800012
0.017674999 -0.077938333 0.70700002
0.021225715 -0.079172865 0.70749998
-0.034238096 -0.18077715 0.71900004
-0.05053588 -0.17552319 0.71066666
-0.044281032 -0.17450924 0.71382844
-0.035053931 -0.1747348 0.71580005
-0.028760001 -0.17119049 0.71900004
-0.043918982 -0.16456504 0.71200007
-0.034879673 -0.16480757 0.71578604
-0.028760001 -0.1662602 0.71900004
-0.045183282 -0.1572551 0.71655548
-0.030814288 -0.15886477 0.71900004
-0.0027390476 -0.14106098 0.71900004
0.0056419051 -0.14178181 0.7183125
0.014776786 -0.14170703 0.71749997
0.023514288 -0.14157647 0.71845454
-0.01397091 -0.13272288 0.71700001
-0.0052761487 -0.13466807 0.71552187
0.0047456278 -0.13469701 0.71387273
0.014770474 -0.13480452 0.71343476
0.024709698 -0.13458271 0.71437246
0.033963758 -0.13425265 0.71716636
-0.022967538 -0.1228637 0.71843481
-0.014832905 -0.12504926 0.71457452
-0.0061548525 -0.12553684 0.71135134
0.0054932213 -0.12776549 0.71047074
0.01488118 -0.1277549 0.71028584
0.025980785 -0.12510991 0.71117765
0.035458285 -0.12495226 0.71473998
0.042306863 -0.122128 0.71880001
-0.02451548 -0.11455645 0.71650004
-0.015634937 -0.11542889 0.71218193
-0.0094666667 -0.11765715 0.71000004
0.028738096 -0.11867142 0.71000004
0.035391867 -0.114879 0.71228576
0.043434285 -0.11455441 0.7176128
-0.030129526 -0.10750762 0.71900004
-0.024580291 -0.10511934 0.71673471
-0.016019247 -0.10460582 0.71133339
0.029365988 -0.10220136 0.7100001
0.035276413 -0.10469625 0.71221572
0.043777097 -0.10516814 0.71627778
-0.023639612 -0.09608952 0.71805125
-0.015081568 -0.094872937 0.71317661
-0.0063604764 -0.092209615 0.7103501
0 -0.09128572 0.71000004
0.028067902 -0.093536288 0.71015012
0.035287119 -0.094989531 0.71242881
0.043894429 -0.095089346 0.71727484
-0.020999366 -0.086280011 0.71899998
-0.014867792 -0.084978737 0.71533352
-0.0055611953 -0.085218005 0.711941
0.0044267862 -0.084635958 0.71047914
0.01381357 -0.083388887 0.71041679
0.025659697 -0.085586108 0.71065915
0.035162587 -0.0864655 0.71271807
0.043283474 -0.087205708 0.71535289
-0.014616 -0.077549718 0.71679997
-0.0054811263 -0.078075685 0.71118206
0.0042874073 -0.078987718 0.71088904
0.013226666 -0.079214178 0.71022224
-0.0020714286 -0.23061906 0.72500002
0.0029727893 -0.23097906 0.72800004
-0.033119369 -0.2235337 0.7265926
-0.024799613 -0.22381338 0.7223863
-0.014917209 -0.22457512 0.72066659
-0.0054692943 -0.2250153 0.72189993
0.0043060584 -0.22491121 0.72668087
0.011786667 -0.22048001 0.72800004
-0.032205641 -0.21599859 0.72747999
-0.024960039 -0.21490049 0.72396082
-0.01517927 -0.21498357 0.72057688
-0.0054889014 -0.21498699 0.72087747
0.0048428574 -0.21488431 0.72549999
0.012291192 -0.21499918 0.72706252
-0.030935813 -0.20614134 0.72830003
-0.02476462 -0.2051615 0.72596312
-0.015106387 -0.2050024 0.72198147
-0.0055223187 -0.20513201 0.7220909
0.0046741883 -0.2050532 0.72639
-0.023853714 -0.19677544 0.72803342
-0.015063882 -0.19520256 0.72492599
-0.0056467 -0.19509356 0.72451842
0.0044254218 -0.19528186 0.72701949
-0.031005716 -0.18053049 0.72350001
-0.023235954 -0.18358669 0.72833341
-0.01525459 -0.18534912 0.72662014
-0.0055280863 -0.18519747 0.72559166
0.0030656925 -0.18514919 0.72793037
-0.030670479 -0.17807619 0.72100008
-0.024713177 -0.1748541 0.72467446
-0.015051653 -0.1751276 0.72745126
-0.0055398298 -0.17519036 0.72708958
0.0044085537 -0.17503597 0.72829431
-0.02485238 -0.16628079 0.72497219
-0.015036194 -0.16830668 0.72875011
-0.0053433813 -0.16594611 0.72860008
0.0027068572 -0.16743866 0.72859997
-0.041485716 -0.15634286 0.72000003
-0.036968946 -0.15693916 0.72000015
-0.0020828573 -0.1513543 0.72900003
0.0047672382 -0.15265942 0.72780007
0.015247327 -0.15170726 0.72761548
0.023600001 -0.15214591 0.72880006
0.030548573 -0.15274286 0.72900003
-0.020828573 -0.14024572 0.72900003
-0.014327039 -0.14324397 0.72673917
-0.0055226986 -0.14560933 0.72455561
0.0043877973 -0.14655881 0.72287506
0.015290989 -0.14667974 0.7222693
0.025222735 -0.14647694 0.72390324
0.034358189 -0.14505032 0.72573173
0.04219592 -0.14163838 0.72800004
-0.03165105 -0.13104533 0.72880006
-0.024129096 -0.13395406 0.7257098
-0.016130736 -0.13689171 0.72195464
-0.0082285721 -0.13988572 0.72000003
0.037406594 -0.13715282 0.72115397
0.044621348 -0.13475542 0.72539479
0.051377144 -0.13052572 0.72900003
-0.033456486 -0.12459201 0.72703123
-0.02621736 -0.12652835 0.72142309
0.046079215 -0.12565495 0.72125632
0.052422978 -0.12413369 0.72662503
-0.040268574 -0.11108572 0.72900003
-0.034335501 -0.11484539 0.72434002
-0.027428573 -0.11931429 0.72000003
0.04815238 -0.11565714 0.72000015
0.053445 -0.11469173 0.72518754
-0.040268574 -0.10900287 0.72900003
-0.034581669 -0.10481172 0.7242291
0.048731428 -0.1045943 0.72000015
0.053843293 -0.10466477 0.72526473
-0.03419685 -0.095444836 0.72554356
-0.026960563 -0.092986442 0.7204119
0.048738465 -0.094523072 0.72000015
0.054850385 -0.095506586 0.72475004
0.062400006 -0.09498667 0.7280001
-0.032535624 -0.085598491 0.72680008
-0.025736745 -0.084649794 0.72251153
0.048685715 -0.088457137 0.72000003
0.051884573 -0.088668577 0.72060007
-0.030548573 -0.079148576 0.72900003
-0.024626741 -0.07755854 0.72415382
-0.019200001 -0.077485718 0.72000003
0.0094761914 -0.22491543 0.73160005
0.011150477 -0.22510096 0.73175007
-0.040721528 -0.21343353 0.73720008
-0.036847681 -0.21421653 0.73306459
0.012937688 -0.21116902 0.73142868
-0.03570671 -0.2047143 0.73500001
0.01387955 -0.20456345 0.73279423
-0.033884667 -0.19521153 0.736525
-0.026696483 -0.19350852 0.73169249
0.0095477551 -0.19373988 0.73100007
0.015184996 -0.19456865 0.73522449
0.021114286 -0.1914362 0.73900002
-0.033235405 -0.18744394 0.73600012
-0.026233209 -0.18671273 0.73152184
-0.018797144 -0.18100953 0.73100001
0.0085870912 -0.18496887 0.73105556
0.015330723 -0.18508571 0.73565221
0.022385495 -0.18373731 0.73807698
-0.016012382 -0.17265524 0.73100001
0.0094681913 -0.17293373 0.73100001
0.015341899 -0.17493995 0.73430771
0.022699336 -0.17505346 0.7379002
-0.023028785 -0.16252054 0.73522228
-0.015495958 -0.16406254 0.73202252
-0.0060916664 -0.16125512 0.73100001
0.0058563203 -0.16367172 0.73115951
0.015412438 -0.16502713 0.73512238
0.021427091 -0.16390944 0.73899996
-0.021516465 -0.1564468 0.73900002
-0.015485228 -0.1549363 0.73476452
-0.0059302333 -0.15516105 0.73141903
0.0049647205 -0.15734853 0.73104352
0.015211293 -0.15685833 0.73292881
0.024811963 -0.15504631 0.73356009
0.034417715 -0.15245201 0.73430002
0.04065524 -0.15000382 0.73600006
-0.024558727 -0.14391132 0.73588902
-0.01667393 -0.1472362 0.73312503
0.039013334 -0.14839047 0.73150003
0.044959862 -0.14473668 0.731893
0.053439651 -0.14121802 0.73472738
-0.040820953 -0.13513143 0.73900002
-0.034925546 -0.13488607 0.73418206
-0.027057335 -0.13821258 0.73220009
0.048733335 -0.13784574 0.73100007
0.054981075 -0.13517533 0.73479074
0.060396571 -0.13343506 0.73740005
-0.042042349 -0.12309951 0.73761547
-0.038071651 -0.12622447 0.7319231
0.056779299 -0.12538965 0.73321748
0.060681913 -0.12417579 0.73842865
-0.043089595 -0.11592308 0.73700005
-0.038986668 -0.11974476 0.73100001
0.05815842 -0.11492445 0.73133337
0.064171746 -0.11477246 0.7364651
-0.043654848 -0.10469367 0.73573542
0.058939785 -0.10544822 0.73138469
0.064118795 -0.10574697 0.73624998
-0.042614609 -0.096151195 0.73650014
-0.038458508 -0.092456602 0.7322858
0.064572647 -0.098571263 0.73545468
-0.041222647 -0.086658418 0.73777783
-0.037521429 -0.084060721 0.73404181
-0.034618042 -0.076432109 0.73550004
-0.026977381 -0.074144281 0.73100001
0.017874287 -0.21513908 0.74800009
-0.038057145 -0.19662857 0.74000001
0.024551503 -0.17489114 0.74138463
-0.027836367 -0.16227293 0.7408182
0.025886003 -0.16527048 0.74354553
0.03497361 -0.16206531 0.74728578
0.04294705 -0.16126439 0.74660003
-0.031281907 -0.15569715 0.74650007
-0.026268037 -0.15504925 0.74354345
0.028496385 -0.15884154 0.74060005
0.036251906 -0.15711914 0.74344987
0.044101432 -0.15474038 0.74432153
-0.027134202 -0.1478658 0.7425456
-0.043222867 -0.13220344 0.74153334
0.064306669 -0.13002667 0.74200004
-0.04514908 -0.12524691 0.74189466
0.063638709 -0.12519601 0.74157888
-0.051222861 -0.11311714 0.74700004
-0.047974151 -0.11440282 0.74280947
-0.052346431 -0.10202786 0.74524999
-0.048463676 -0.1052977 0.74207145
0.066952378 -0.10219047 0.74000001
-0.05179524 -0.099333338 0.74500006
-0.046535898 -0.094295152 0.74421734
-0.044326842 -0.085232817 0.74409086
-0.043014016 -0.077192388 0.74557143
-0.039466668 -0.075409532 0.74000001
-0.050996833 -0.094370805 0.75066674
-0.050000001 -0.093571432 0.75000006
-0.047121093 -0.082149662 0.75285727
-0.045714289 -0.078571431 0.75000006
