# .PCD v0.7 - Point Cloud Data file format
VERSION 0.7
FIELDS x y z
SIZE 4 4 4
TYPE F F F
COUNT 1 1 1
WIDTH 557
HEIGHT 1
VIEWPOINT 0 0 0 1 0 0 0
POINTS 557
DATA ascii
0.016727502 0.066689998 0.58781242
0.020474764 0.068155713 0.58900005
-0.18078907 -0.14324139 0.59900004
-0.17493175 -0.14371531 0.59872895
-0.16465826 -0.14383106 0.59837085
-0.15669057 -0.14381474 0.59872949
-0.18311968 -0.13413781 0.59882873
-0.17508914 -0.13475698 0.59756517
-0.16495888 -0.13481267 0.59726393
-0.15485634 -0.13491656 0.59804094
-0.14781673 -0.1349282 0.59900004
-0.19053906 -0.12550476 0.59900004
-0.18471307 -0.12658028 0.59869075
-0.17498043 -0.12562506 0.59645599
-0.16491102 -0.12479462 0.59598857
-0.1549111 -0.12519434 0.59778732
-0.14774676 -0.12400311 0.59888887
-0.1717 -0.119 0.59500003
-0.16405345 -0.11737085 0.59633321
-0.15484169 -0.11552978 0.59809566
-0.14700697 -0.11657624 0.5986858
-0.0028523812 0.039933335 0.59900004
0.007257543 0.03569233 0.59836853
0.010260001 0.037050478 0.59850001
-0.0030957824 0.043332793 0.59871429
-0.05419524 0.059329525 0.59900004
-0.041644763 0.059329525 0.59900004
-0.039933335 0.059329525 0.59900004
-0.022369403 0.057705358 0.59843749
-0.014613595 0.057805836 0.59789658
-0.0051922747 0.057391167 0.5950278
0.0042208792 0.056178283 0.59678864
0.012482352 0.057645932 0.59894121
-0.05134286 0.069598101 0.59900004
-0.045932252 0.069385312 0.59857154
-0.03253749 0.066626057 0.59840918
-0.024746088 0.065130569 0.59697348
-0.014757747 0.064682104 0.59577793
-0.004885159 0.065043174 0.59391654
0.004528909 0.06508629 0.59433341
0.012990399 0.065113291 0.59579587
0.024010265 0.068105191 0.59699994
-0.060926862 0.073705524 0.59900004
-0.05455986 0.075159244 0.59890431
-0.044992413 0.075292803 0.5986231
-0.035114802 0.075186484 0.59680766
-0.024997646 0.07500276 0.596605
-0.014762097 0.074921981 0.59597564
-0.0052206446 0.074836574 0.59316152
0.0045103705 0.074985065 0.59198552
0.014371276 0.074693665 0.59341097
0.024469048 0.071319364 0.59750003
-0.053054284 0.081387945 0.59900004
-0.045633294 0.083555602 0.59893113
-0.035950068 0.08301957 0.59837854
-0.025104808 0.08286237 0.59709525
-0.014781366 0.082371026 0.59570277
-0.0043713232 0.082595773 0.59444451
0.0044825543 0.082419641 0.59292692
0.012186578 0.081804343 0.59180963
-0.18374227 -0.16173263 0.60812503
-0.17511372 -0.16282484 0.60711443
-0.16486171 -0.16251715 0.60654569
-0.15569749 -0.16242146 0.6076774
-0.14729269 -0.16121058 0.60888892
-0.19272058 -0.15340142 0.60791314
-0.18488164 -0.15524559 0.6054334
-0.17483482 -0.15496439 0.602709
-0.16519268 -0.15511544 0.60220903
-0.15486193 -0.15497443 0.60347003
-0.14530881 -0.15461195 0.60540301
-0.13892885 -0.15198167 0.60781825
-0.200847 -0.1405924 0.60833335
-0.19452828 -0.14507662 0.60653579
-0.18522277 -0.14527676 0.60161227
-0.17408685 -0.14893192 0.60030001
-0.16573596 -0.14929393 0.60007685
-0.15270993 -0.1465003 0.60074288
-0.14477938 -0.14487782 0.60251337
-0.13600801 -0.14432353 0.60674137
-0.12953335 -0.14074668 0.60900009
-0.20239994 -0.13430731 0.60785723
-0.19501776 -0.13495745 0.60325009
-0.18740427 -0.13564442 0.600353
-0.14355987 -0.1348232 0.60081035
-0.13512622 -0.1349037 0.60540009
-0.12882431 -0.13495168 0.60852385
-0.20296457 -0.1287583 0.60680002
-0.19446458 -0.12819408 0.60147369
-0.18895239 -0.1257143 0.60000002
-0.14349405 -0.12565424 0.60108328
-0.13531843 -0.12501144 0.60492933
-0.12819564 -0.12515578 0.60821873
-0.15085715 -0.11142857 0.60000002
-0.14366047 -0.11378398 0.60098004
-0.13550232 -0.11511216 0.60533345
-0.12952934 -0.11665696 0.60880011
-0.14303963 -0.1076012 0.60246152
-0.13623014 -0.1059835 0.60741079
-0.032608893 0.0092088897 0.6043334
-0.023796953 0.0080846678 0.60645008
-0.014867132 0.0066408939 0.60591847
-0.0080364291 0.008324286 0.60275006
-0.051846672 0.019406192 0.60825002
-0.044138681 0.016623084 0.60633361
-0.034678515 0.015177039 0.6052053
-0.025074037 0.015056397 0.6055395
-0.014947959 0.014941046 0.60359281
-0.0068529947 0.014825189 0.60182232
-0.064424448 0.028459683 0.60583341
-0.052953772 0.025973776 0.60786676
-0.045026936 0.024821805 0.60613883
-0.035100766 0.025146693 0.60488397
-0.025352567 0.025344934 0.60497546
-0.014921858 0.025248487 0.60250646
-0.0054379296 0.027402243 0.60260868
0.0045402199 0.028725132 0.60230768
0.010294286 0.029166669 0.60049999
-0.064243592 0.032832067 0.60833341
-0.054664161 0.034194224 0.6076985
-0.045042355 0.034647096 0.6063208
-0.035173904 0.034892205 0.6046418
-0.025284927 0.035057563 0.60345846
-0.014936802 0.035037119 0.60309738
-0.0051575899 0.034962241 0.60185951
0.0036087697 0.034611609 0.60156602
0.010285715 0.033904765 0.60000002
-0.061729796 0.046445906 0.60819054
-0.054832127 0.045231257 0.6071285
-0.045843638 0.043769035 0.60679251
-0.035098944 0.044872221 0.60412496
-0.025286116 0.044830285 0.60350633
-0.014948386 0.044844769 0.60367912
-0.0054641585 0.044978358 0.60176194
0.0045886422 0.04470231 0.60179037
0.011056943 0.044831175 0.6026842
-0.061954491 0.056320008 0.60352635
-0.055535372 0.054626238 0.60419679
-0.044106945 0.053624857 0.60471433
-0.034755811 0.055431236 0.60124999
-0.024061339 0.052528523 0.60268003
-0.015009775 0.053244777 0.60167307
-0.0050499048 0.05091086 0.60200006
0.0050229258 0.051826116 0.60035723
0.011961906 0.054400001 0.60000002
-0.12064 0.069600001 0.60900003
-0.11399444 0.067553744 0.60735732
-0.1055477 0.067569524 0.60812515
-0.094869629 0.068170369 0.60737038
-0.084748037 0.065839201 0.60585475
-0.074066579 0.065774992 0.60581082
-0.064606391 0.065335333 0.60337895
-0.05490775 0.065118574 0.60181856
-0.044585727 0.064918578 0.60124683
-0.035984352 0.064448491 0.60105878
-0.028587937 0.061176829 0.60033339
-0.12298913 0.075858451 0.60829413
-0.11588784 0.073260382 0.60865402
-0.10418842 0.074812703 0.60812062
-0.095156267 0.074863911 0.60630435
-0.085082971 0.074733794 0.60361743
-0.07470049 0.075288855 0.60485142
-0.06552384 0.074823663 0.60186434
-0.055422716 0.074817359 0.60035729
-0.044196196 0.074200317 0.60008329
-0.036571428 0.070857145 0.60000002
-0.12323561 0.083800003 0.60892868
-0.11306383 0.083375625 0.60880011
-0.10480747 0.084645577 0.60805064
-0.095696755 0.082682014 0.60656404
-0.08442951 0.083254993 0.60408908
-0.07504528 0.084886163 0.603365
-0.065545492 0.083516657 0.60198152
-0.056897778 0.082195036 0.60211116
-0.044880204 0.084285229 0.60010535
-0.033069395 0.086224899 0.60014284
0.0019081483 0.08773461 0.6007778
-0.10556 0.09048 0.60900009
-0.076804161 0.091497488 0.60181826
0.0022958731 0.090636835 0.60233343
-0.19100572 -0.17096192 0.61900002
-0.18444866 -0.17150667 0.61769241
-0.1746455 -0.17253309 0.61568004
-0.16438736 -0.17352438 0.61582947
-0.15557595 -0.17309581 0.61771423
-0.2009501 -0.16325943 0.61840004
-0.19448544 -0.16445605 0.61592495
-0.18520182 -0.16669643 0.61370009
-0.1746981 -0.16805246 0.61205012
-0.16505067 -0.16775383 0.6116001
-0.15471447 -0.16746503 0.61346877
-0.14461653 -0.16525313 0.61472344
-0.1371495 -0.16317412 0.61706901
-0.21053809 -0.15114096 0.61750007
-0.20459954 -0.15352365 0.61579996
-0.19699554 -0.15599792 0.61196548
-0.14193754 -0.15918516 0.61180007
-0.13477173 -0.15518716 0.61379689
-0.12766898 -0.1525511 0.61731589
-0.21115145 -0.14396781 0.6170001
-0.20518944 -0.14540792 0.61387503
-0.13196476 -0.14704655 0.61161119
-0.12569039 -0.1446065 0.61547619
-0.212677 -0.13504638 0.61558622
-0.20709565 -0.13576023 0.61200017
-0.12384204 -0.13506821 0.61403042
-0.11947905 -0.13301906 0.61800003
-0.21091317 -0.12860535 0.61380005
-0.20796138 -0.1289943 0.6148572
-0.12355595 -0.12474978 0.61401749
-0.11864045 -0.1255696 0.61811554
-0.13073461 -0.11094984 0.611
-0.12470821 -0.11509419 0.61492765
-0.11908381 -0.11672571 0.61900002
-0.13176137 -0.10433306 0.61178571
-0.12603132 -0.10510728 0.61533338
-0.13082668 -0.099733338 0.61600006
-0.12746358 -0.098592222 0.61754555
-0.062222254 0.02531286 0.611
-0.057151865 0.024166005 0.61121219
-0.063082427 0.035855237 0.61145961
-0.057554714 0.038671538 0.6111111
-0.062624179 0.042733923 0.61146158
-0.058772385 0.040733334 0.611
-0.05004381 0.052953336 0.611
-0.048880003 0.052953336 0.611
-0.15102477 0.068220958 0.61600012
-0.14768064 0.069151752 0.61533338
-0.13188635 0.068549633 0.61577785
-0.12476583 0.067142248 0.61493546
-0.11929047 0.068664767 0.611
-0.10523232 0.065761298 0.61105883
-0.09892381 0.067500956 0.611
-0.080700003 0.065973341 0.61849999
-0.077525847 0.068165302 0.61400008
-0.16142249 0.079188578 0.61500001
-0.15447308 0.076025106 0.6156441
-0.1451458 0.075127892 0.6145891
-0.13428392 0.075320914 0.61439699
-0.12662534 0.073364504 0.61227298
-0.11470216 0.076006256 0.61163056
-0.10896001 0.07622201 0.61144447
-0.078110002 0.071369052 0.61550003
-0.16147505 0.081323817 0.61520004
-0.1544321 0.082495302 0.61611104
-0.14485824 0.08339151 0.61451221
-0.13519657 0.084820174 0.61253405
-0.12725621 0.082912616 0.61129177
-0.11568042 0.083491787 0.61127084
-0.10515068 0.084972702 0.6111111
-0.097926266 0.087618247 0.611
-0.13460287 0.092145912 0.61236686
-0.10674159 0.092379056 0.61133337
-0.18219398 -0.18120447 0.62450004
-0.17522769 -0.18158351 0.6255334
-0.16691691 -0.18106097 0.62537497
-0.19081286 -0.1727681 0.62125003
-0.18453313 -0.17624773 0.62178123
-0.17521127 -0.17810535 0.62299997
-0.16578414 -0.17816953 0.62266672
-0.15254201 -0.17524609 0.62127274
-0.14717799 -0.17289421 0.62455553
-0.2056988 -0.16313072 0.62400001
-0.14136383 -0.16987494 0.6236667
-0.13307999 -0.16490546 0.62403333
-0.12760234 -0.16289474 0.62609094
-0.20686096 -0.1590762 0.62325001
-0.13070476 -0.15909335 0.62100005
-0.12409208 -0.15557003 0.62376595
-0.11707599 -0.15288916 0.62744457
-0.2202381 -0.14345238 0.625
-0.21638402 -0.14509569 0.62335986
-0.12155684 -0.14754297 0.62161112
-0.11676744 -0.14442129 0.62557989
-0.21681143 -0.1398019 0.62200004
-0.11596996 -0.13488027 0.62456357
-0.11441594 -0.12459987 0.62531585
-0.10902667 -0.12160667 0.62900001
-0.12058668 -0.11112763 0.62066674
-0.11602562 -0.1151319 0.62462145
-0.10902667 -0.11980953 0.62900001
-0.12126654 -0.10434676 0.62253851
-0.1173505 -0.10625575 0.62699997
-0.12296849 -0.096931726 0.62478793
-0.11974604 -0.098191112 0.6286667
-0.14219095 -0.20383562 0.639
-0.13632001 -0.20408311 0.639
-0.15092573 -0.19109143 0.63900006
-0.14488275 -0.19479918 0.63860011
-0.13710715 -0.1952233 0.6388889
-0.15376352 -0.18490253 0.63797784
-0.14498013 -0.18515672 0.63693559
-0.13605766 -0.18522488 0.63798261
-0.15095904 -0.17862478 0.63150001
-0.14367527 -0.17672785 0.63325715
-0.1357618 -0.17495233 0.63528007
-0.13341144 -0.16946858 0.63100004
-0.11338096 -0.15157905 0.63460004
-0.11201082 -0.14497162 0.63378799
-0.10856906 -0.1440993 0.63775003
-0.11143236 -0.13573956 0.63288003
-0.10770654 -0.13314652 0.63696301
-0.11099535 -0.12622266 0.63111115
-0.10762268 -0.1252508 0.63653857
-0.11150339 -0.11452468 0.63410723
-0.10908714 -0.11637691 0.638125
-0.11428286 -0.10500561 0.6336391
-0.12112356 -0.094109938 0.63228577
-0.11797735 -0.096449926 0.63517249
-0.1322743 -0.25097147 0.648
-0.12695512 -0.25073636 0.64800006
-0.13366945 -0.24416344 0.64694446
-0.12495167 -0.24498287 0.64630353
-0.11748894 -0.24431081 0.64746684
-0.14214933 -0.234117 0.64742309
-0.13446367 -0.23501357 0.64490521
-0.12455975 -0.23501021 0.6442818
-0.11507908 -0.23480597 0.64601636
-0.10985143 -0.23389718 0.648
-0.15058286 -0.22093715 0.648
-0.14424144 -0.22470109 0.64559108
-0.13497759 -0.22447844 0.64291543
-0.12495106 -0.22479823 0.64315295
-0.11506996 -0.22513258 0.64609247
-0.15399766 -0.2145967 0.64665002
-0.14505425 -0.21499103 0.64315808
-0.13482706 -0.21474898 0.64132208
-0.12486096 -0.21478131 0.64232379
-0.11661013 -0.21540731 0.64614594
-0.16170986 -0.20352511 0.64724994
-0.15498157 -0.20483942 0.6445927
-0.14613423 -0.20566081 0.64040005
-0.1329615 -0.20630512 0.64041674
-0.12479459 -0.20497398 0.64269859
-0.11743428 -0.20520422 0.64672214
-0.17020001 -0.19054952 0.64750004
-0.16364712 -0.19385928 0.6449191
-0.15535524 -0.19513531 0.64180017
-0.14841905 -0.19809525 0.64000005
-0.13201919 -0.19522876 0.64044452
-0.1249355 -0.19510499 0.64357907
-0.11799853 -0.19687109 0.64745456
-0.17033143 -0.18884572 0.648
-0.16426066 -0.18745513 0.6439566
-0.15872169 -0.18708143 0.64037502
-0.1312632 -0.18458578 0.64052945
-0.12568904 -0.18525267 0.64452869
-0.13140213 -0.17528753 0.64189488
-0.12640744 -0.17510723 0.64553452
-0.12693307 -0.16936329 0.64700001
-0.10749645 -0.1416277 0.64200008
-0.10652839 -0.13734198 0.64186674
-0.10666666 -0.12312382 0.64000005
-0.10703821 -0.11498567 0.64022583
-0.11262658 -0.10402819 0.64506674
-0.10808239 -0.10813697 0.64554995
-0.11443278 -0.095000476 0.64446974
-0.10985143 -0.097508572 0.648
-0.11578415 -0.088683166 0.64666665
0.0055490481 -0.049333334 0.64750004
-0.0020558732 -0.0016450796 0.64766669
0 -0.0018514286 0.648
-0.0015419049 0.0018514285 0.64775002
0.0018102856 0.0036205712 0.64799994
-0.0021942856 0.018377142 0.648
0.0012342858 0.01839086 0.64799994
-0.0032914288 0.021600001 0.648
0.0053485716 0.024850288 0.64799994
-0.14159095 -0.25050905 0.65350008
-0.13756344 -0.25053906 0.6518001
-0.1156681 -0.25134572 0.65649998
-0.14381893 -0.24461943 0.65181088
-0.13748936 -0.24736817 0.65081823
-0.11273704 -0.2452061 0.65136659
-0.10697641 -0.24330288 0.65360713
-0.15297352 -0.23466747 0.65604168
-0.14723393 -0.23588429 0.65165383
-0.11027524 -0.23480287 0.65050006
-0.10485563 -0.23451447 0.65322065
-0.098796874 -0.23545404 0.65478581
-0.15207419 -0.2263245 0.6515882
-0.14913651 -0.22763114 0.65066671
-0.11036573 -0.22430836 0.6502223
-0.10570739 -0.2252506 0.65482265
-0.1576508 -0.21501589 0.65000004
-0.11206771 -0.2148709 0.65156674
-0.10765319 -0.21577094 0.65560532
-0.16244 -0.20832001 0.65100002
-0.11250709 -0.20509753 0.65279084
-0.10918771 -0.20547138 0.6571539
-0.11428618 -0.19466047 0.65267766
-0.10556065 -0.19391495 0.65557772
-0.098017357 -0.19214796 0.65600008
-0.12093859 -0.18427202 0.65037501
-0.11512276 -0.18480834 0.65277267
-0.10533768 -0.18512222 0.65446866
-0.095153205 -0.1850304 0.65489537
-0.085111879 -0.18259631 0.65711528
-0.077588581 -0.18092082 0.65700001
-0.12157297 -0.1750368 0.65156007
-0.11505676 -0.17594333 0.65636706
-0.10499851 -0.17507567 0.65669149
-0.095159933 -0.17480747 0.65542227
-0.085162543 -0.1748835 0.65620565
-0.075241908 -0.17455247 0.65542859
-0.065660261 -0.17288709 0.6543684
-0.057357147 -0.17061144 0.65700006
-0.12380838 -0.16672875 0.65147209
-0.11874286 -0.16884573 0.65760005
-0.10259429 -0.16884191 0.65800011
-0.095823042 -0.16840243 0.65800005
-0.082767986 -0.16612053 0.65743744
-0.074691296 -0.16494161 0.65676475
-0.065208629 -0.16518778 0.65613204
-0.055366579 -0.16484821 0.65510511
-0.046092249 -0.16266096 0.65599996
-0.0383581 -0.16177016 0.65666676
-0.073684186 -0.15802115 0.65790004
-0.062668309 -0.15579553 0.65753579
-0.05518138 -0.15518311 0.65439999
-0.045549452 -0.15519962 0.65474588
-0.035929561 -0.15452571 0.6536786
-0.02890381 -0.15262382 0.65410006
-0.053444967 -0.14702944 0.65669703
-0.045227427 -0.14544195 0.65468341
-0.03548976 -0.14507031 0.65374994
-0.02600468 -0.14449231 0.65478176
-0.043815933 -0.13916814 0.65554553
-0.034817144 -0.13560466 0.6548422
-0.025678871 -0.13514508 0.6546874
-0.016565217 -0.13431261 0.65578592
-0.03115762 -0.1280793 0.65762502
-0.024302818 -0.12567842 0.6562801
-0.015317063 -0.12505861 0.65574962
-0.008036851 -0.12441906 0.65699989
-0.021299999 -0.11464381 0.65780002
-0.014999647 -0.11525524 0.65710163
-0.0054625766 -0.11492272 0.65644467
0 -0.11137715 0.65700001
-0.11023286 -0.10218143 0.65025002
-0.10732922 -0.10299397 0.65016657
-0.021424955 -0.10601068 0.65399998
-0.014344986 -0.10518058 0.65686685
-0.0052425186 -0.10551921 0.65474576
0.0005341497 -0.10481756 0.65457153
-0.10788 -0.099200003 0.65100002
-0.013329844 -0.095178291 0.6560334
-0.0056111007 -0.095370859 0.65449989
0.0018106912 -0.095284313 0.65487099
-0.013494312 -0.085410312 0.65367579
-0.0056026187 -0.085284755 0.65362495
0.0024257645 -0.084902994 0.65421063
-0.013044241 -0.075359151 0.65519357
-0.0055997618 -0.075267933 0.65315622
0.002733107 -0.075107686 0.65433341
-0.012531136 -0.065101467 0.65534616
-0.0055991672 -0.065319426 0.65318745
0.0030485515 -0.065513551 0.65419155
-0.012281992 -0.054919742 0.65668184
-0.0056023211 -0.055364937 0.65318751
0.0025434287 -0.055045336 0.65154999
-0.011680892 -0.046139058 0.65700001
-0.0054601841 -0.045287676 0.65253246
0.0045105373 -0.044727314 0.65174204
-0.011569144 -0.034579813 0.65310001
-0.0055889278 -0.035389852 0.65195346
0.0044565275 -0.035591856 0.65264624
-0.01075543 -0.027513525 0.6566
-0.0052317674 -0.025651427 0.65286452
0.004525051 -0.02556926 0.6529395
-0.0053803595 -0.015487181 0.65252471
0.0039902511 -0.015722778 0.65357631
-0.0049459306 -0.0066326838 0.6520682
0.0040355101 -0.0055858842 0.65132171
-0.0020679366 0.007855027 0.65122229
0.0050890972 0.0053885062 0.65081054
-0.0021074289 0.013138858 0.65080005
0.0055642687 0.015023811 0.65122622
0.011194286 0.019279048 0.65300006
-0.0024761907 0.021666668 0.65000004
0.0070952391 0.022803288 0.65031815
-0.10057143 -0.23005715 0.66000003
-0.097126462 -0.23310333 0.66339135
-0.10146046 -0.22321346 0.66033334
-0.097488038 -0.22545156 0.66157579
-0.10343172 -0.21422568 0.66186059
-0.098842181 -0.21572153 0.66285723
-0.10540144 -0.20636703 0.6618948
-0.11638907 -0.17282388 0.66152626
-0.092253253 -0.16629386 0.66140908
-0.087387189 -0.16522183 0.66054553
-0.071477555 -0.15804082 0.66000009
-0.06729985 -0.15652242 0.66073686
-0.22984001 -0.14017715 0.66300005
-0.056742858 -0.14690095 0.66200006
-0.2281196 -0.13605784 0.66594738
-0.0038761904 -0.12278096 0.65999997
-0.022887239 -0.11531525 0.66020006
-0.011314286 -0.02577143 0.66000003
-0.22373047 -0.14055809 0.67700005
-0.22586623 -0.13461825 0.67386043
-0.22606954 -0.12803024 0.67725003
-0.22218491 -0.14198345 0.68338472
-0.21890369 -0.14169744 0.68700004
-0.22255976 -0.13468364 0.68440914
-0.21889995 -0.13686125 0.68784618
-0.22399037 -0.12777367 0.6870001
-0.21401401 -0.14135844 0.69358832
-0.20857844 -0.14140826 0.6960001
-0.22080001 -0.13011429 0.69000006
-0.21437068 -0.13456182 0.69384855
-0.20942096 -0.13902414 0.69733334
-0.22111744 -0.12549314 0.69270581
-0.21715002 -0.12586327 0.696325
-0.21574955 -0.11890286 0.69650006
-0.13485095 -0.10097143 0.69749999
-0.13455956 -0.096056886 0.69541943
-0.12954667 -0.098481908 0.69400001
-0.20761038 -0.14164086 0.70522219
-0.21040498 -0.1352865 0.70180005
-0.20541897 -0.13484809 0.70511323
-0.19819397 -0.13684763 0.70783341
-0.21237132 -0.12461494 0.7008065
-0.20554768 -0.12502 0.70565015
-0.19891429 -0.12137144 0.70800006
-0.21174097 -0.11870582 0.70111114
-0.2044162 -0.11610392 0.70648861
-0.19862621 -0.11477751 0.70787507
-0.14766857 -0.11058286 0.708
-0.15358405 -0.10214712 0.70776927
-0.14536761 -0.10458557 0.706182
-0.13822211 -0.10293219 0.70180005
-0.15298556 -0.097707242 0.70782363
-0.14526063 -0.096147768 0.70372725
-0.13933334 -0.095466673 0.69999999
-0.20069335 -0.13253334 0.71000004
-0.1949254 -0.13302623 0.71108109
-0.18567777 -0.13103776 0.71390927
-0.17884001 -0.13056001 0.71400005
-0.20065954 -0.12746191 0.71000004
-0.19437274 -0.12503448 0.71154547
-0.18452589 -0.12504269 0.71427816
-0.17562619 -0.12376933 0.7159754
-0.16716652 -0.121307 0.71691674
-0.19358487 -0.1147802 0.7119019
-0.18496031 -0.11491953 0.7140004
-0.17504369 -0.11448114 0.71410936
-0.16509752 -0.11420518 0.71463269
-0.15495224 -0.11344661 0.71130025
-0.19212361 -0.10797546 0.71255559
-0.18448329 -0.10621316 0.71346873
-0.17503199 -0.10485531 0.71330434
-0.16561952 -0.10453041 0.71269393
-0.15606457 -0.10631078 0.71065873
-0.17220648 -0.09859772 0.71300006
-0.16539811 -0.097272389 0.71175027
-0.15789029 -0.096871622 0.71030003
