# .PCD v0.7 - Point Cloud Data file format
VERSION 0.7
FIELDS x y z
SIZE 4 4 4
TYPE F F F
COUNT 1 1 1
WIDTH 579
HEIGHT 1
VIEWPOINT 0 0 0 1 0 0 0
POINTS 579
DATA ascii
-0.004899221 0.06859827 0.62881827
-0.0053914287 0.070687622 0.62900001
0.0047923811 0.079074286 0.62900001
0.015640751 0.076644748 0.62872726
0.022110306 0.077876188 0.62900007
-0.014976191 0.087460957 0.62900001
0.0057042763 0.084189519 0.62860781
0.014879512 0.083672114 0.62803644
0.023432856 0.082576916 0.6288749
-0.06268286 0.064508572 0.63900006
-0.056368932 0.066866793 0.639
-0.042795599 0.066661187 0.63849998
-0.035188351 0.066744253 0.63711125
-0.026482945 0.067522064 0.63718182
-0.0028085716 0.06715636 0.63241667
0.0041194921 0.066892363 0.63546669
0.012441059 0.06904085 0.63222224
-0.074736454 0.076629467 0.63886112
-0.064432062 0.07628037 0.63880956
-0.055167694 0.075720362 0.63713211
-0.044627011 0.076238461 0.63392019
-0.035012018 0.074846871 0.63382703
-0.024789572 0.074857995 0.63332385
-0.015330681 0.076170899 0.63239217
-0.0050897277 0.075712368 0.63148242
0.0047937594 0.074740112 0.63128984
0.013846421 0.073547229 0.63107437
0.023848955 0.075117163 0.63236678
-0.0820219 0.085402861 0.639
-0.074677087 0.084688805 0.638677
-0.065182403 0.084385693 0.63848406
-0.055298273 0.083934039 0.6379022
-0.045132678 0.083983615 0.63517404
-0.034453325 0.084097996 0.63300014
-0.024702741 0.084954731 0.63265622
-0.015060862 0.084842481 0.63254827
-0.0057703438 0.084503368 0.63191378
0.0027243178 0.084053218 0.63100016
-0.085200004 0.090068571 0.63900006
-0.070594288 0.090068571 0.63900006
-0.067116745 0.090416335 0.63900006
-0.043817144 0.090068571 0.63900006
-0.031088382 0.090853348 0.63260001
-0.024809524 0.091309376 0.63294744
-0.016336871 0.090437561 0.63185716
-0.0072163823 0.0902 0.63140005
0.005794643 0.091753215 0.63225007
-0.10281644 0.058555476 0.6455
-0.094483465 0.058615007 0.64362508
-0.085203573 0.057292681 0.64363348
-0.076421522 0.058634289 0.64400005
-0.069091432 0.059308574 0.64200002
-0.14811429 0.068502858 0.648
-0.1337143 0.068297148 0.648
-0.12385052 0.066638879 0.64787984
-0.11521547 0.066248126 0.6471628
-0.10462281 0.064906955 0.64485991
-0.095351137 0.064770371 0.64481699
-0.08503671 0.064837828 0.64370608
-0.075320981 0.064951658 0.64274675
-0.065973535 0.066243082 0.6411429
-0.054988161 0.067025758 0.64030439
0.009142857 0.067047618 0.64000005
0.010971429 0.067047618 0.64000005
-0.14265354 0.076358296 0.64768416
-0.13485743 0.075272068 0.64721555
-0.12480436 0.075222813 0.64780003
-0.11484211 0.074913777 0.6448195
-0.10500664 0.074914396 0.64477807
-0.095216177 0.074942224 0.64502794
-0.085113689 0.074940316 0.64186543
-0.075153612 0.072711848 0.64042854
-0.066516973 0.072226241 0.64022738
-0.056563806 0.071801908 0.64000005
-0.14156193 0.082346357 0.64766657
-0.13451979 0.084212862 0.6461935
-0.12564524 0.0839682 0.64705545
-0.11344925 0.084004939 0.64191902
-0.10408994 0.083253339 0.64355588
-0.094854064 0.084937029 0.64418668
-0.085694037 0.084330738 0.64081812
-0.076800004 0.088380955 0.64000005
-0.050629526 0.089060009 0.64050007
-0.046459261 0.088584118 0.64000005
-0.13206857 0.090102859 0.648
-0.12898287 0.090102859 0.648
-0.083504766 0.090819061 0.64000005
-0.050594289 0.091412954 0.64160001
-0.045547906 0.092103109 0.64173913
-0.14053868 0.047347434 0.65760005
-0.13483645 0.046195406 0.65711367
-0.12500659 0.047354586 0.65646148
-0.11857286 0.047867145 0.65700001
-0.14269634 0.057216868 0.65580958
-0.1349709 0.055241723 0.656407
-0.12510027 0.055105459 0.65478265
-0.11827078 0.05567202 0.65519232
-0.14377828 0.065311469 0.65198177
-0.13476284 0.064956538 0.65166676
-0.12564978 0.06355188 0.65085286
-0.11574233 0.062036198 0.65066665
-0.15127416 0.076880418 0.65250003
-0.1457234 0.074133292 0.6510272
-0.13466224 0.07224407 0.65020007
-0.12752381 0.071190476 0.6500001
-0.15144275 0.082215883 0.65288895
-0.14645751 0.084007159 0.65200019
0.025579352 -0.13206045 0.6679998
0.035382099 -0.13291392 0.66816664
0.043793205 -0.13271238 0.66871423
0.052882861 -0.13125144 0.66900003
0.016761968 -0.1240056 0.66840005
0.024729941 -0.12493901 0.66590643
0.034727119 -0.12521821 0.66449142
0.045105129 -0.12502238 0.66596854
0.05401317 -0.12528352 0.6684224
0.015528976 -0.11476611 0.66675025
0.02459484 -0.11476878 0.66495204
0.034800183 -0.1154868 0.6630314
0.044997476 -0.11480943 0.66468298
0.055173945 -0.1148559 0.66668272
0.061420571 -0.11264686 0.66900009
0.015843809 -0.10495165 0.66670859
0.024705995 -0.10465771 0.66446185
0.034727085 -0.1054438 0.6629684
0.044831894 -0.10502737 0.66377974
0.055157598 -0.10460097 0.66564089
0.062580347 -0.10449378 0.66863632
0.016596708 -0.095062569 0.66759467
0.024777446 -0.095091358 0.66501796
0.034907825 -0.095340215 0.66418195
0.044644982 -0.096485771 0.6638574
0.054582525 -0.097135328 0.6658622
0.062112004 -0.098766476 0.66820002
0.017395359 -0.087384403 0.6673125
0.0239469 -0.087642953 0.6639396
0.034245629 -0.088562094 0.66466671
-0.1349273 0.041547298 0.66100007
-0.1440846 0.054738626 0.66063631
-0.13954286 0.056571431 0.66000003
0.045482229 -0.15045778 0.67900002
0.015886785 -0.14156312 0.67756248
0.025976928 -0.14409462 0.6761142
0.035154369 -0.14451578 0.67489135
0.044784587 -0.14482538 0.67527276
0.054331485 -0.14374177 0.67615783
0.06262476 -0.14162244 0.67866665
0.0067972909 -0.13394879 0.67742312
0.014675811 -0.13488299 0.67403626
0.024539718 -0.13701996 0.67143244
0.034683008 -0.13770251 0.67057693
0.046197772 -0.13676803 0.67051417
0.055217188 -0.13547058 0.67165917
0.064972937 -0.1349946 0.67603761
0.07267648 -0.13411912 0.6785385
-0.0017228572 -0.12250095 0.67816675
0.004817076 -0.12481046 0.67464918
0.012490723 -0.12624776 0.67074072
0.058704756 -0.12551709 0.67000002
0.065409109 -0.12515622 0.67249024
0.073247969 -0.12446763 0.67759389
-0.0026426839 -0.11454581 0.67777282
0.0043559447 -0.11488876 0.67308062
0.010634921 -0.11623969 0.67000002
0.059980955 -0.11996191 0.67000002
0.065448903 -0.1155079 0.67075509
0.074244052 -0.11463485 0.67654359
0.080186673 -0.11122667 0.67900002
-0.0030301479 -0.10558011 0.67796546
0.0044401838 -0.10498502 0.67322582
0.01093119 -0.10476679 0.67025006
0.066579923 -0.10557604 0.67024237
0.074310042 -0.10529672 0.67446947
0.081689 -0.10604466 0.67894441
-0.0020321088 -0.096332528 0.67885715
0.0044971732 -0.095130011 0.6743651
0.01168513 -0.094807982 0.67019236
0.067000002 -0.099542864 0.67000002
0.070190482 -0.099542864 0.67000002
0.0051014456 -0.085870601 0.67662966
0.013354884 -0.085606739 0.67254287
0.041996192 -0.16011049 0.68900001
0.017551621 -0.15208076 0.68769997
0.025280202 -0.15338044 0.68571436
0.034854647 -0.15404156 0.68380958
0.044575237 -0.15477788 0.68281817
0.054062031 -0.15342575 0.68639135
0.062100191 -0.15157869 0.68780011
-0.0013098413 -0.14146414 0.68766677
0.0052636191 -0.14277151 0.68464005
0.014819339 -0.14636816 0.68293941
0.022969089 -0.14820896 0.68161547
0.05693683 -0.14839889 0.68191671
0.065636948 -0.14582971 0.68336374
0.072180174 -0.14437047 0.68504554
-0.0029417144 -0.13385032 0.68590003
0.0024159607 -0.13611592 0.68213785
0.069295242 -0.1392381 0.68000001
0.075963303 -0.13534275 0.68289477
0.081845477 -0.13248882 0.68612498
-0.010499048 -0.12205144 0.68900001
-0.0055407668 -0.12506215 0.68446344
0 -0.12887619 0.68000001
0.077783614 -0.12523229 0.68060011
0.082730852 -0.12406046 0.68560874
-0.011345524 -0.11501499 0.68720013
-0.0070448616 -0.11540247 0.6828621
0.078491434 -0.11786667 0.68000001
0.083414733 -0.11520387 0.68421221
-0.011113334 -0.1052419 0.68637508
-0.0075194361 -0.1045145 0.68303704
0.08419048 -0.10815238 0.68000001
-0.010677824 -0.096846536 0.68842864
-0.0062676654 -0.094478607 0.68328589
-0.003814637 -0.085628219 0.68444747
0.0016193653 -0.081777148 0.68058336
-0.00196 -0.079023808 0.68575001
0.0015136509 -0.078865722 0.6825
-0.12598859 0.0369654 0.68900007
-0.0017688889 -0.23122606 0.69633341
0.0052000792 -0.23226437 0.69645846
0.012345579 -0.23219185 0.69800007
-0.011886455 -0.22465502 0.6976667
-0.0051864204 -0.22482286 0.69688898
0.0046363943 -0.22515289 0.69532132
0.013328235 -0.22407451 0.69741946
-0.011134761 -0.21721095 0.69800001
-0.0054665208 -0.21481478 0.69715393
0.0046321731 -0.21507528 0.69485927
0.015182628 -0.21507625 0.69670188
0.021532191 -0.21266325 0.69780004
-0.0037112043 -0.2054337 0.69688249
0.0046331631 -0.20517983 0.69496411
0.015318162 -0.20523332 0.69545597
0.022640781 -0.20418458 0.69731838
-0.0029511817 -0.19522534 0.69688904
0.0046346425 -0.19535667 0.69534349
0.015149361 -0.19516599 0.69492054
0.02400545 -0.19471578 0.69686121
-0.001328889 -0.1887016 0.69766665
0.0046417569 -0.18513544 0.69674999
0.01522429 -0.18467957 0.69503105
0.024439506 -0.18493105 0.6967392
0.0062830374 -0.1758768 0.6975137
0.015231294 -0.17485981 0.69546419
0.025104608 -0.17488705 0.69589579
0.031658702 -0.1732769 0.69781816
0.0082360953 -0.16566008 0.6974501
0.015162543 -0.16504794 0.69568235
0.025143785 -0.16541997 0.69475502
0.034288079 -0.16490509 0.69616687
0.043528892 -0.16140573 0.69266671
0.055375651 -0.161706 0.69342864
0.06222368 -0.16110532 0.69085723
0.0076404768 -0.15433705 0.69760001
0.014333232 -0.15606931 0.69436854
0.024470223 -0.15832117 0.69073337
0.032894477 -0.15921298 0.69080001
0.049285717 -0.15902857 0.69000006
0.056280293 -0.15769693 0.69052649
0.064984925 -0.15609467 0.69269466
0.070589334 -0.15387087 0.69400007
-0.0042109089 -0.14180174 0.69400007
0.0042306031 -0.14771736 0.69406664
-0.011724354 -0.13337728 0.69478577
-0.0072787814 -0.13530765 0.69207996
0.084918529 -0.1324944 0.69177788
-0.013765526 -0.12428675 0.69443339
-0.0092000002 -0.12814286 0.69000006
0.087338582 -0.12588479 0.6942001
0.091740005 -0.12202286 0.69633341
-0.015906295 -0.11530391 0.6955834
0.088588983 -0.11491975 0.69121432
0.093453638 -0.11551005 0.69703221
-0.015537305 -0.10485858 0.69434309
0.089100003 -0.10890001 0.69300002
0.092622869 -0.10916191 0.69466674
-0.013493203 -0.09495566 0.69372422
-0.01127746 -0.085973963 0.69373333
-0.0079000005 -0.083593436 0.69115013
-0.12563343 -0.072635777 0.69755554
-0.010620953 -0.078993335 0.69700003
-0.0066003813 -0.07848306 0.69250005
-0.13109183 -0.064880259 0.69706666
-0.1259111 -0.064926803 0.69721621
-0.11766286 -0.062487621 0.69800001
-0.13345303 -0.055509105 0.69784003
-0.12475366 -0.055507619 0.69800001
-0.11932476 -0.05484286 0.69800001
-0.13674477 -0.049121905 0.69700003
-0.13351069 -0.034869228 0.69714308
-0.12494407 -0.034144692 0.69708174
-0.11814165 -0.034673188 0.69731581
-0.13295834 -0.025020801 0.69580007
-0.12528287 -0.025191452 0.69603568
-0.1184912 -0.024495121 0.69749999
-0.13263409 -0.015460449 0.69694138
-0.12461338 -0.015360757 0.69496542
-0.11709657 -0.015091486 0.69579422
-0.13343804 -0.0049644052 0.69468755
-0.12505826 -0.0052933344 0.69478577
-0.1174155 -0.0074238735 0.69626671
-0.13393888 0.0047545177 0.69570732
-0.12495814 0.004628066 0.69421887
-0.11800977 0.0046423813 0.69612497
-0.13383943 0.014965953 0.69534987
-0.12495065 0.015205744 0.69417202
-0.1176781 0.015205557 0.69416678
-0.13426796 0.025131475 0.69447637
-0.1251042 0.024926484 0.69305801
-0.11856654 0.023592655 0.69385725
-0.13345598 0.033553604 0.69303232
-0.12497862 0.033539485 0.69161558
0.0093333339 -0.236 0.70000005
0.016259495 -0.2334103 0.70094115
0.022257525 -0.23211898 0.70386672
-0.02065905 -0.22140637 0.70733333
-0.016032938 -0.22308692 0.7013334
0.017267004 -0.22650577 0.70047057
0.024125146 -0.22473159 0.70272338
-0.020974603 -0.2173852 0.7078889
-0.015330728 -0.21464756 0.70387763
0.026093291 -0.21528713 0.70276582
0.031036902 -0.21424286 0.70462501
-0.013740174 -0.20523137 0.70497733
-0.0082050478 -0.20444885 0.70039999
0.027383663 -0.20517997 0.70123088
0.033855651 -0.20441882 0.70481086
-0.011914648 -0.19559139 0.70609534
-0.0075295893 -0.19450235 0.70150012
0.028607212 -0.19557443 0.70085722
0.034763686 -0.19524838 0.70527661
0.040400002 -0.19122668 0.70700002
-0.010788572 -0.18812573 0.708
-0.0054412456 -0.18491901 0.70301938
0.029333338 -0.18533334 0.70000011
0.034788616 -0.18518397 0.70232671
0.042072311 -0.18525766 0.70703995
-0.051882859 -0.17114763 0.70749998
-0.044143241 -0.17216763 0.70800018
-0.035054203 -0.17275707 0.70781833
-0.024612486 -0.17288595 0.70766675
-0.017047891 -0.17298518 0.70792872
-0.0047603976 -0.17547199 0.70481253
0.0018279366 -0.1738385 0.70085192
0.029333334 -0.18000001 0.70000005
0.035695419 -0.17577329 0.70221961
0.042899426 -0.17440513 0.70508593
-0.061208006 -0.16151354 0.70780003
-0.054709416 -0.16434029 0.70784467
-0.044772573 -0.16749261 0.70800012
-0.034567621 -0.16649806 0.70750022
-0.025271067 -0.16601671 0.70761561
-0.017025713 -0.16924571 0.70800006
-0.0029103237 -0.16570242 0.70703995
0.0031458964 -0.1645913 0.70171446
0.038240638 -0.16763556 0.70033336
0.044951607 -0.16667281 0.70251852
0.053254906 -0.16684294 0.70205891
-0.082570761 -0.15317492 0.70723522
-0.075908236 -0.15360212 0.70755899
-0.062769875 -0.15533093 0.70800018
-0.057432573 -0.15645699 0.70780009
-0.0019705496 -0.15513876 0.70776927
0.002747864 -0.15583794 0.70305717
-0.10183658 -0.14117105 0.70719999
-0.094870716 -0.14275627 0.70738482
-0.08427339 -0.14433783 0.70702249
-0.075895131 -0.14691757 0.70744133
-0.068777144 -0.14901716 0.708
-0.0029649527 -0.14902553 0.70740002
0 -0.14905715 0.70500004
-0.11077452 -0.13262928 0.70599997
-0.10459696 -0.13429454 0.70533347
-0.095134497 -0.13472217 0.70649087
-0.087448008 -0.13797544 0.70740002
-0.015619472 -0.13220276 0.7026667
-0.12208239 -0.12107 0.70625007
-0.11426839 -0.12428705 0.70492309
-0.1050183 -0.12458073 0.70413226
-0.096684314 -0.12607636 0.70702952
-0.020009525 -0.12139048 0.70033336
-0.016557336 -0.12711659 0.70100003
-0.12323418 -0.11495793 0.70503348
-0.11507884 -0.11515662 0.704404
-0.10540647 -0.11522658 0.70512098
-0.09808737 -0.11700599 0.70606673
-0.021370867 -0.11336426 0.70364714
-0.018666668 -0.11066667 0.70000005
-0.13025714 -0.10071429 0.70500004
-0.1242169 -0.10490917 0.70329386
-0.11474317 -0.10508354 0.7036612
-0.10758116 -0.10630406 0.70599991
-0.021603148 -0.10543121 0.70491314
-0.018684445 -0.10632573 0.70066679
-0.13221726 -0.093952261 0.7033751
-0.12490542 -0.09488266 0.7023145
-0.11506945 -0.095310159 0.70376468
-0.020820078 -0.095705502 0.70692313
-0.017593525 -0.094914086 0.70235008
-0.13260625 -0.085457683 0.70235997
-0.12487706 -0.084770367 0.70076221
-0.11512198 -0.084716193 0.70081508
-0.020534694 -0.087512389 0.70528573
-0.015850479 -0.08467719 0.70300007
-0.13139722 -0.074426822 0.70061547
-0.12464982 -0.075865351 0.70024258
-0.11548966 -0.074735619 0.70039248
-0.015205334 -0.078824192 0.70620006
-0.0094266674 -0.078106672 0.70700002
-0.13402429 -0.063177623 0.70012498
-0.12200001 -0.065777779 0.69999999
-0.11727242 -0.065932818 0.70036376
-0.13228571 -0.054380961 0.69999999
-0.12573333 -0.054733336 0.69999993
-0.11764825 -0.054882288 0.70110011
-0.13336204 -0.044676807 0.70015025
-0.1253126 -0.044786915 0.70001829
-0.11736752 -0.044871427 0.70042127
-0.132 -0.038666669 0.70000005
-0.12666667 -0.038666669 0.70000005
-0.11695238 -0.034476191 0.70000011
-0.1156659 -0.025885455 0.70018178
-0.13566667 -0.011666667 0.70000005
-0.13600001 -0.0093333339 0.70000005
-0.11717673 -0.0039291014 0.70083338
-0.11616572 0 0.70100003
-0.14126953 0.028789526 0.70300001
-0.12083906 0.026037142 0.70100003
-0.11858507 0.025141269 0.70083344
-0.021638095 -0.22314286 0.71000004
-0.022097928 -0.2143376 0.71194124
-0.018933333 -0.21097143 0.71000004
-0.020957803 -0.20602654 0.71161544
-0.01821729 -0.20361188 0.71046156
-0.020574393 -0.19468637 0.71477783
-0.016508732 -0.19455868 0.71222234
-0.030620001 -0.18168858 0.71450007
-0.024025964 -0.18402399 0.71548557
-0.015011656 -0.18484974 0.71232009
0.04530476 -0.18121906 0.71000004
-0.055447619 -0.17040001 0.71000004
-0.045710474 -0.17283429 0.71000004
-0.03344468 -0.17669299 0.71009094
-0.025478551 -0.17757763 0.71114296
-0.013534562 -0.17586678 0.71058065
-0.0087984754 -0.17298116 0.71060002
0.04530476 -0.17986667 0.71000004
-0.07295762 -0.16237715 0.71262515
-0.067013614 -0.1625354 0.7127859
-0.053193655 -0.16679367 0.71000004
-0.045104813 -0.16446087 0.71004975
-0.036361787 -0.16218764 0.7103126
-0.02389835 -0.16128902 0.71157914
-0.014611461 -0.16451626 0.7128911
-0.0074494663 -0.16435459 0.71278787
-0.091414288 -0.15032572 0.71100003
-0.087554015 -0.15133443 0.71028578
-0.07362105 -0.15759642 0.71050018
-0.066036433 -0.15426871 0.71024978
-0.053535838 -0.15407504 0.71137774
-0.044958632 -0.1555226 0.71200025
-0.035481676 -0.15732606 0.71148509
-0.025305171 -0.15846124 0.7127859
-0.015002598 -0.15867274 0.71645463
-0.0059972489 -0.15590432 0.71355551
-0.10007619 -0.14605714 0.71000004
-0.092460141 -0.14816791 0.71085715
-0.087343127 -0.14685987 0.71014291
-0.073917672 -0.14311527 0.71100008
-0.06483417 -0.14492404 0.71164584
-0.056083322 -0.14615481 0.71442848
-0.047328003 -0.14932799 0.71400005
-0.090609536 -0.13253334 0.71000004
-0.084994078 -0.13419978 0.71104461
-0.077038601 -0.13702066 0.71144468
-0.061714135 -0.13666067 0.71866667
-0.057469252 -0.13679402 0.71714288
-0.093131579 -0.12382777 0.71019232
-0.088416509 -0.1276651 0.71050012
-0.093990475 -0.11900952 0.71000004
-0.024342857 -0.11224762 0.71000004
-0.025162162 -0.10271174 0.71266669
-0.023905206 -0.095694013 0.71111768
-0.020390477 -0.082920641 0.7136668
-0.01422 -0.078548573 0.71100003
-0.10428523 0.016137382 0.71841669
-0.097492211 0.017329268 0.71820003
-0.11640953 0.028760001 0.71900004
-0.1023719 0.02088524 0.71900004
-0.097181402 0.025363585 0.71899992
-0.083803669 0.026159719 0.71862954
-0.076227047 0.026121603 0.71719998
-0.069160953 0.028760001 0.71900004
-0.094301306 0.035266202 0.71834689
-0.084292635 0.035304371 0.71802014
-0.075354606 0.035494369 0.71793747
-0.066990331 0.034948334 0.7169742
-0.092921719 0.044306673 0.71777773
-0.084659271 0.045062229 0.7168771
-0.075055942 0.045031864 0.71642822
-0.066613853 0.045190163 0.71608084
-0.10454032 0.056150485 0.71899998
-0.093168661 0.055541493 0.71831244
-0.084710799 0.054652102 0.71730584
-0.074819028 0.05508839 0.71416098
-0.065517627 0.055224072 0.71317333
-0.10278819 0.061370861 0.71760005
-0.095374033 0.060555331 0.71809089
-0.084057681 0.062085941 0.71731991
-0.074650526 0.062720172 0.71313065
-0.065871716 0.062201355 0.71264714
-0.11872286 0.0097200004 0.72900003
-0.12075048 0.014572064 0.72866672
-0.11570569 0.015759652 0.72471058
-0.10861715 0.017417142 0.72000009
-0.094285712 0.019200001 0.72000003
-0.12208191 0.027280381 0.72340006
-0.11502368 0.024763737 0.72230184
-0.10550497 0.02498862 0.7207498
-0.093715757 0.024114408 0.72012901
-0.088653341 0.024133969 0.72066683
-0.072411433 0.027702859 0.72000003
-0.069942862 0.026742859 0.72000003
-0.12253667 0.033168338 0.72181249
-0.11485052 0.035075255 0.72212499
-0.10452937 0.03507147 0.72205347
-0.095412239 0.032326534 0.72000003
-0.088555105 0.031934697 0.72000003
-0.074571431 0.031200003 0.72000003
-0.12118857 0.044068575 0.72300005
-0.11480959 0.045280851 0.72281456
-0.10451096 0.045370862 0.72135413
-0.096683212 0.046224263 0.72108704
-0.11373773 0.054652743 0.72240615
-0.1050349 0.054621756 0.72053319
-0.097465605 0.05381503 0.72238892
-0.11283078 0.061919123 0.72238469
-0.10747723 0.062364679 0.72172737
-0.086400002 0.06308572 0.72000003
0.086439468 -0.1120641 0.75635731
0.093138523 -0.11211648 0.75392872
0.086848989 -0.10794791 0.75635713
0.091519184 -0.10789905 0.75242859
-0.0067850342 -0.082253337 0.7557143
-0.0028854425 -0.078554563 0.75771433
0.0017291427 -0.076381713 0.75660008
0.078994289 -0.11264 0.76800001
0.081476957 -0.11155847 0.76660007
0.077803433 -0.10486001 0.76780009
0.082587391 -0.1060469 0.76575005
-0.0027657142 -0.083120361 0.76072741
0.0024938937 -0.083514631 0.7660588
0.0021790476 -0.079802386 0.76174998
0.066529147 -0.11088572 0.7762
0.075067088 -0.11138264 0.77111125
0.058692914 -0.10386667 0.7790001
0.065270476 -0.10486817 0.77659583
0.073473394 -0.10549022 0.77150017
0.0088571431 -0.091523811 0.77500004
0.015331192 -0.092157066 0.77566683
0.021267939 -0.093232706 0.77900004
0.056937907 -0.097270854 0.77846682
0.063510902 -0.098468997 0.77544451
0.0070091779 -0.085770316 0.77090925
0.014077373 -0.08621072 0.77344841
0.023617303 -0.087421112 0.77900016
0.031901903 -0.088286668 0.77900004
0.034255713 -0.10091428 0.78200006
0.046385057 -0.10262066 0.78169239
0.053976461 -0.10502697 0.78060627
0.060914289 -0.10845715 0.78000003
0.026765956 -0.094327621 0.78062499
0.035131533 -0.095053062 0.78155011
0.044563651 -0.095586702 0.7825743
0.052308865 -0.097387254 0.78292316
0.026990479 -0.088647626 0.78000009
0.035904765 -0.088647626 0.78000009
0.051980004 -0.094166674 0.79100001
