# .PCD v0.7 - Point Cloud Data file format
VERSION 0.7
FIELDS x y z
SIZE 4 4 4
TYPE F F F
COUNT 1 1 1
WIDTH 483
HEIGHT 1
VIEWPOINT 0 0 0 1 0 0 0
POINTS 483
DATA ascii
-0.083129115 -0.13299197 0.50830948
-0.074848823 -0.13324472 0.50769234
-0.065999255 -0.13282137 0.50798082
-0.059062861 -0.1307143 0.50833333
-0.09298227 -0.12339278 0.50819445
-0.085090019 -0.12502132 0.50677228
-0.07499674 -0.12471247 0.50601894
-0.065145373 -0.12498716 0.50670004
-0.057454228 -0.12436133 0.5079819
-0.093376264 -0.11890678 0.50752944
-0.08554288 -0.11887821 0.50590914
-0.075168148 -0.11901959 0.50595468
-0.064302176 -0.11891682 0.50663638
-0.056581017 -0.11784629 0.50791895
-0.093437739 -0.15161109 0.51875007
-0.084278114 -0.15263055 0.51780021
-0.075433664 -0.15282318 0.51754349
-0.065694474 -0.15222533 0.51756412
-0.057308808 -0.15068428 0.51875007
-0.10269776 -0.14327943 0.51841933
-0.094799235 -0.14483894 0.51559746
-0.085218862 -0.14494897 0.51320022
-0.075007319 -0.14489329 0.51211363
-0.064860769 -0.14502671 0.51363236
-0.055243161 -0.14458586 0.51632226
-0.047702406 -0.14216906 0.51866674
-0.11115935 -0.13224891 0.51900005
-0.1049828 -0.13484946 0.51646829
-0.094928764 -0.13486549 0.5123443
-0.086070582 -0.1368797 0.51025939
-0.075466119 -0.13860895 0.51000017
-0.064287923 -0.13734321 0.51017666
-0.054749295 -0.1352082 0.5127939
-0.04541475 -0.13446639 0.5168643
-0.11198436 -0.12446688 0.51811767
-0.1045626 -0.12501276 0.51333725
-0.096653856 -0.12627181 0.51062757
-0.052903049 -0.12570037 0.51034629
-0.045081802 -0.12507543 0.51424533
-0.03815449 -0.12226416 0.51852638
-0.11282715 -0.11674014 0.51778966
-0.10455616 -0.11786362 0.51225013
-0.098438106 -0.1186762 0.51000005
-0.05171429 -0.11754286 0.51000011
-0.044173412 -0.11672248 0.51407045
-0.037175704 -0.11547949 0.51774007
-0.091367468 -0.16253318 0.52808332
-0.085076936 -0.16255201 0.52607328
-0.074726716 -0.16332814 0.52631247
-0.065453649 -0.16244972 0.52660477
-0.055419046 -0.16149387 0.5290001
-0.10327479 -0.15401067 0.52600002
-0.095429726 -0.15513885 0.52267504
-0.085767828 -0.15720253 0.52214718
-0.074583553 -0.15781561 0.52187878
-0.064605124 -0.15717486 0.52268428
-0.054808091 -0.15532735 0.52446389
-0.047014095 -0.15235466 0.52721441
-0.11358661 -0.14381953 0.52590925
-0.10639638 -0.14607652 0.52202338
-0.099047624 -0.14956191 0.52000004
-0.051404953 -0.14905563 0.52100009
-0.044174775 -0.14571863 0.52375764
-0.037505377 -0.1427245 0.527143
-0.12190082 -0.13211577 0.52823079
-0.1157603 -0.13541988 0.5248751
-0.10900477 -0.13898143 0.52025002
-0.041513421 -0.13780971 0.52118182
-0.035690989 -0.13452765 0.52486211
-0.029220954 -0.13149428 0.52900004
-0.12290438 -0.12410917 0.52777141
-0.11705135 -0.12523179 0.52253342
-0.034313027 -0.12561145 0.5225715
-0.029658411 -0.12263661 0.52488887
-0.12464384 -0.11532352 0.52714503
-0.1179245 -0.11518663 0.52157575
-0.032289691 -0.11503685 0.52271742
-0.02903167 -0.11504628 0.52712506
-0.030558096 -0.10920762 0.52600002
-0.029165715 -0.10962286 0.528
-0.095185399 -0.16317886 0.53123325
-0.081066668 -0.16618668 0.53200001
-0.079471432 -0.16704285 0.53149998
-0.061022859 -0.16452637 0.53100002
-0.055502921 -0.16285589 0.53048271
-0.046849247 -0.16180474 0.53440738
-0.11231221 -0.15198892 0.53163642
-0.05057143 -0.15980572 0.53100002
-0.04422731 -0.15607823 0.53279161
-0.036472011 -0.15315428 0.5344469
-0.12346593 -0.14245252 0.53569573
-0.11652573 -0.14687648 0.53128576
-0.033807181 -0.14584891 0.53332138
-0.028099822 -0.14348713 0.53537047
-0.12414039 -0.13701773 0.53403854
-0.031269051 -0.13772318 0.53100008
-0.02642848 -0.13491911 0.5344677
-0.12378381 -0.12883572 0.53050005
-0.025821758 -0.12490445 0.53408706
-0.13264763 -0.11186197 0.53486669
-0.12887979 -0.11196508 0.53277785
-0.024386352 -0.1148479 0.53431952
-0.019434286 -0.11558286 0.537
-0.13255937 -0.10910605 0.5353334
-0.0255813 -0.10918407 0.5334546
-0.041837718 -0.16157906 0.54100007
-0.025737621 -0.14533953 0.54600006
-0.021910474 -0.13278794 0.54205561
-0.019179896 -0.13311027 0.54266673
-0.021693222 -0.12670207 0.54235303
-0.019125927 -0.1280307 0.54111111
-0.021490475 -0.11337501 0.54049999
-0.01676672 -0.11470897 0.54678941
-0.021670476 -0.10605817 0.54291314
-0.017745558 -0.10618539 0.54449999
-0.054144543 0.07526499 0.54857582
-0.042650208 0.077382855 0.54899997
-0.039737143 0.078951433 0.54900002
-0.050717145 0.082088575 0.54900002
-0.044712786 0.08194337 0.54857898
-0.081276834 -0.18225178 0.55900002
-0.076413944 -0.18306641 0.55886489
-0.084073663 -0.17707713 0.55872232
-0.076574229 -0.17807806 0.55776924
-0.065296039 -0.1753048 0.55891669
-0.021036191 -0.10076076 0.55220002
-0.017493334 -0.10132419 0.55231583
-0.020837938 -0.096979052 0.55391663
-0.01614777 -0.096370481 0.55357903
-0.052732065 0.068829216 0.55122221
-0.042025715 0.067766838 0.55158341
-0.039954286 0.067817144 0.55200005
-0.061804194 0.077937528 0.55370003
-0.053592842 0.075734347 0.55036581
-0.045560829 0.075148769 0.55121225
-0.061818458 0.082883209 0.55299997
-0.056278039 0.083954297 0.55223066
-0.04718053 0.081430264 0.55044448
-0.057188578 0.090019047 0.55600011
-0.081165291 -0.21447387 0.56900007
-0.075328968 -0.21341006 0.56873184
-0.09104 -0.20050476 0.56900001
-0.084614962 -0.20430358 0.56716144
-0.074948438 -0.20468235 0.5662238
-0.067586899 -0.20354427 0.56792009
-0.091830589 -0.1937526 0.56755561
-0.084937982 -0.1950161 0.56443059
-0.07514707 -0.19485362 0.56361109
-0.065579928 -0.19456106 0.56610817
-0.059609525 -0.19129238 0.56900001
-0.10079429 -0.18316382 0.56900001
-0.094591483 -0.18459567 0.56613636
-0.085108101 -0.18525262 0.5611766
-0.073294207 -0.18601963 0.56019056
-0.065003075 -0.18498456 0.56326175
-0.058087777 -0.18382195 0.56727999
-0.093954712 -0.17823017 0.56405562
-0.086753339 -0.17850655 0.56012499
-0.072041035 -0.17764103 0.56
-0.064642392 -0.17788304 0.56100011
-0.057280872 -0.1774478 0.56695455
-0.09043429 -0.23215143 0.57900006
-0.084450006 -0.23338836 0.57757998
-0.074754581 -0.23367569 0.57749039
-0.068684004 -0.23218191 0.57880002
-0.092347324 -0.22409649 0.57818526
-0.08492355 -0.22489402 0.57457823
-0.074875996 -0.22500433 0.57461363
-0.065638006 -0.22474474 0.57794917
-0.10134604 -0.21040319 0.57833338
-0.093899533 -0.21456417 0.5751459
-0.085150801 -0.21495268 0.57093722
-0.073902331 -0.21677963 0.57057142
-0.065176904 -0.21515717 0.5748027
-0.059051912 -0.21334159 0.57858336
-0.10145247 -0.20640981 0.57836372
-0.094624072 -0.20530194 0.57287091
-0.087677285 -0.20918234 0.5702858
-0.063427858 -0.2057737 0.57248265
-0.056888625 -0.20394038 0.57702643
-0.10190418 -0.19244574 0.57430774
-0.096378051 -0.19549492 0.57143468
-0.062102541 -0.19862096 0.57033342
-0.056169461 -0.19489333 0.57406348
-0.10365845 -0.18500465 0.57414639
-0.098647945 -0.18716002 0.57016677
-0.053904325 -0.18520242 0.57403845
-0.049055718 -0.18244429 0.57875001
-0.10392763 -0.1794108 0.57433337
-0.053025804 -0.17798769 0.57136375
-0.13573053 -0.112306 0.57605892
-0.13611008 -0.10491884 0.57480371
-0.13546762 -0.09778668 0.57900006
-0.10099755 -0.23219702 0.58728576
-0.094776504 -0.23415111 0.58282703
-0.088590801 -0.23685557 0.5801667
-0.071809523 -0.23752382 0.58000004
-0.064205974 -0.23524848 0.58206683
-0.057926014 -0.23335342 0.5866155
-0.10207987 -0.22469833 0.58668971
-0.096814796 -0.22628431 0.58290327
-0.061575089 -0.22640175 0.5804615
-0.056805082 -0.22503185 0.58485961
-0.10210256 -0.21656732 0.58431584
-0.099015005 -0.21631023 0.58162498
-0.060761906 -0.21984763 0.58000004
-0.054490138 -0.21518783 0.58411127
-0.048896194 -0.21234953 0.58675003
-0.053009018 -0.20602313 0.58123535
-0.04895401 -0.20417255 0.58285713
-0.10549606 -0.19623621 0.58300006
-0.05144963 -0.1952886 0.58088887
-0.049557216 -0.19533512 0.58215386
-0.050994288 -0.18734744 0.58200002
-0.049117863 -0.18587822 0.58193749
-0.13389356 -0.12235453 0.58731258
-0.13496223 -0.11665897 0.58643478
-0.13333723 -0.10538898 0.58472425
-0.023560001 -0.10097143 0.58900005
-0.13172826 -0.095808551 0.583718
-0.022234287 -0.098855518 0.58785713
-0.05360768 -0.23417819 0.59058619
-0.048703678 -0.23162425 0.59071434
-0.051765781 -0.22507216 0.59081477
-0.048340198 -0.22563446 0.59250009
-0.050657146 -0.2195143 0.59100002
-0.048460957 -0.21669069 0.59061545
-0.047761906 -0.20060001 0.59000003
-0.12661016 -0.13193366 0.59883338
-0.13111077 -0.12326344 0.59315008
-0.12845767 -0.12532012 0.59755164
-0.13225722 -0.11472828 0.59119046
-0.1290285 -0.11449533 0.59662509
-0.026956193 -0.11078048 0.59575003
-0.13138333 -0.10460127 0.59171426
-0.12791321 -0.1046152 0.59611374
-0.031528126 -0.10309358 0.59826678
-0.026677037 -0.10512353 0.59342545
-0.019169524 -0.10937905 0.59200001
-0.13047239 -0.098417148 0.5905
-0.12640955 -0.094729081 0.59513438
-0.033267435 -0.094506137 0.59778577
-0.02610597 -0.09470588 0.59238321
-0.12404762 -0.08822529 0.59627283
-0.034198832 -0.088005498 0.59765393
-0.028275479 -0.088496663 0.59375
-0.11368001 -0.14036 0.60900003
-0.12297328 -0.13272642 0.60226673
-0.11610091 -0.13507573 0.60723335
-0.12343836 -0.12475673 0.60344297
-0.11827007 -0.1257512 0.60825008
-0.040600002 -0.12296001 0.60900003
-0.036800276 -0.12275655 0.60635722
-0.12419568 -0.11513683 0.60422975
-0.11843316 -0.11416754 0.60850006
-0.034915872 -0.11512084 0.6056
-0.02902912 -0.11554287 0.60271442
-0.12294991 -0.10572274 0.60329419
-0.11776382 -0.10404533 0.60737932
-0.041137006 -0.10396027 0.60835725
-0.036006209 -0.10539266 0.6041801
-0.1215533 -0.095801204 0.60140753
-0.11544523 -0.094813816 0.60613531
-0.10904001 -0.09048 0.60900003
-0.043298483 -0.094443239 0.60734046
-0.037762485 -0.095819369 0.6023044
-0.12052381 -0.087479375 0.60166669
-0.11473978 -0.085938551 0.60387325
-0.1076885 -0.084328987 0.60772729
-0.051844046 -0.083880946 0.60737503
-0.044725161 -0.084695973 0.6043151
-0.038151886 -0.084089018 0.60215801
-0.051771432 -0.079382859 0.60400003
-0.11172572 -0.14111191 0.611
-0.10400151 -0.14135548 0.61278963
-0.094845153 -0.14168246 0.61474067
-0.084568694 -0.14170055 0.61689186
-0.076501586 -0.14142276 0.61844462
-0.068919048 -0.14019334 0.61849999
-0.1123427 -0.13358115 0.61132008
-0.10517909 -0.13487254 0.61413962
-0.095460258 -0.13619289 0.61707807
-0.085514091 -0.13638134 0.61886948
-0.074838489 -0.13825883 0.61900014
-0.064021975 -0.13571185 0.61860776
-0.055491015 -0.13406891 0.61642593
-0.04578343 -0.13079467 0.61309999
-0.11366472 -0.12449014 0.6126774
-0.10490044 -0.1250809 0.61686432
-0.098450482 -0.12733714 0.61900002
-0.060524445 -0.12930223 0.61900008
-0.054285746 -0.12508281 0.61739701
-0.045266408 -0.12510447 0.61313844
-0.039569527 -0.12801905 0.611
-0.11363044 -0.11517674 0.61344451
-0.10589186 -0.11508045 0.6179508
-0.052707437 -0.11515209 0.61824328
-0.045022089 -0.11516442 0.61382347
-0.039569527 -0.11521715 0.611
-0.1132943 -0.10556879 0.61247063
-0.10525601 -0.10493477 0.61702818
-0.097417012 -0.10171171 0.6188572
-0.061715174 -0.10207251 0.61888248
-0.054483306 -0.10491215 0.61714745
-0.045925394 -0.10530948 0.61273092
-0.11085286 -0.096596196 0.611
-0.10509096 -0.095275134 0.61381924
-0.095491529 -0.094493985 0.61718851
-0.085183248 -0.093823992 0.61842597
-0.074764036 -0.093175508 0.61846524
-0.065165497 -0.094552703 0.61748374
-0.055066954 -0.095003456 0.61451364
-0.047835588 -0.096101247 0.61173689
-0.1030444 -0.085873142 0.61173916
-0.095006712 -0.08493761 0.61402947
-0.085280299 -0.084840156 0.61532366
-0.075067855 -0.085038587 0.61577797
-0.064973392 -0.084874429 0.6145938
-0.0562637 -0.085289657 0.61204004
-0.092900477 -0.079462856 0.6135
-0.085389525 -0.078542694 0.61336362
-0.07519643 -0.07905335 0.6145882
-0.06564258 -0.078772001 0.61347061
-0.057139434 -0.07929448 0.61220002
-0.073809534 -0.14200953 0.62
-0.093925081 -0.13195175 0.62
-0.083706811 -0.13256478 0.62021428
-0.074892178 -0.13344586 0.62148249
-0.067326717 -0.13250859 0.62114292
-0.10038096 -0.1216381 0.62
-0.094773889 -0.12500234 0.62093341
-0.085212395 -0.12508774 0.62229782
-0.074840173 -0.12473164 0.62366676
-0.064643927 -0.12500578 0.62198496
-0.058604762 -0.1223762 0.61999995
-0.10088708 -0.1148898 0.62
-0.094743803 -0.11521474 0.62179196
-0.084975779 -0.11468897 0.62395328
-0.074903585 -0.11473361 0.62419462
-0.064667322 -0.11505798 0.62274301
-0.057500552 -0.11491565 0.62014288
-0.10038096 -0.10746668 0.62
-0.094262727 -0.10594679 0.62039363
-0.085134104 -0.10485544 0.62282372
-0.075008787 -0.10512121 0.62275016
-0.065643743 -0.10537194 0.62115401
-0.058752384 -0.10894287 0.62
-0.092114285 -0.098904759 0.62
-0.084125504 -0.098505326 0.61999995
-0.07532312 -0.098140955 0.62009084
-0.069085717 -0.099200003 0.62
-0.033626568 0.02818145 0.64621055
-0.02559356 0.026734965 0.64492881
-0.017100001 0.027465198 0.64336371
-0.033890773 0.035444222 0.64747822
-0.024497014 0.035109907 0.64672738
-0.01680355 0.032435503 0.64700001
-0.034209479 0.046152055 0.64760965
-0.025214167 0.044887412 0.64564073
-0.018756721 0.044127725 0.64455563
-0.05337524 0.058100324 0.64666671
-0.04185351 0.055991694 0.64799994
-0.035055142 0.05500732 0.64692849
-0.025288573 0.054814897 0.64477283
-0.017874923 0.054174453 0.64474094
-0.052868575 0.062537149 0.648
-0.04370869 0.066648722 0.64633352
-0.035521314 0.063411839 0.64487529
-0.026998095 0.061834145 0.64430773
-0.065417156 0.077142864 0.648
-0.046250954 0.070300005 0.64750004
-0.043551952 0.026780335 0.65148401
-0.039456382 0.027793145 0.65140003
-0.013000001 0.029714286 0.65000004
-0.043944161 0.035572547 0.65322733
-0.037835825 0.036448207 0.65123075
-0.02104762 0.037555557 0.65000004
-0.017916191 0.03765003 0.65020001
-0.044080194 0.04271381 0.65094995
-0.036869615 0.042892296 0.65013629
-0.063665718 0.059607856 0.65537506
-0.056254603 0.058486987 0.65146679
-0.046053547 0.058544867 0.65244454
-0.035315238 0.050800957 0.65050006
-0.071175009 0.067261428 0.65700006
-0.065134346 0.065498158 0.65440011
-0.05541835 0.065365575 0.65127617
-0.046487052 0.063015372 0.65083355
-0.091458574 0.077990003 0.65775001
-0.088066332 0.07793922 0.65709096
-0.073892213 0.074803606 0.65588111
-0.066542126 0.07364253 0.65163893
-0.054928418 0.071302705 0.65291667
-0.091354288 0.080091432 0.65700001
-0.087134406 0.081890114 0.65762502
-0.083940327 0.059324451 0.66266674
-0.074784182 0.058779791 0.66200018
-0.10231619 0.06676048 0.66866672
-0.094444007 0.068021342 0.66793329
-0.084716231 0.06511426 0.66378576
-0.075569324 0.06445282 0.66161811
-0.10458393 0.076076165 0.66636544
-0.094967857 0.074975841 0.66556364
-0.084301181 0.074671187 0.66268641
-0.078413337 0.074639499 0.66113341
-0.10259581 0.080812573 0.66500008
-0.09473677 0.081131428 0.66140002
-0.083078176 0.083974212 0.66383338
-0.078297146 0.080822863 0.66300005
-0.11361714 0.059055239 0.67400002
-0.11209109 0.063113615 0.67458826
-0.10624778 0.065165006 0.67304158
-0.09348096 0.065723807 0.67000002
-0.10500492 0.071350798 0.67091668
-0.081038103 0.081676193 0.67000002
-0.053268574 -0.013485715 0.708
-0.043603815 0.012586667 0.70800006
-0.063131958 0.055939365 0.70620692
-0.059085719 0.05774286 0.7050001
-0.06310001 0.061077785 0.70733345
-0.059253335 0.060600001 0.70700002
-0.061457146 -0.090137146 0.71700001
-0.054825023 -0.09233705 0.71334797
-0.045500003 -0.09235777 0.71305579
-0.061039794 -0.08467219 0.71566671
-0.054887477 -0.084936418 0.71346796
-0.045507502 -0.084902659 0.71318758
-0.061300002 -0.075600639 0.71516669
-0.055003244 -0.074695513 0.71300018
-0.045694556 -0.074929856 0.71256411
-0.054630488 -0.06533356 0.71286541
-0.045838408 -0.064628251 0.71308351
-0.061428573 -0.051872384 0.7166667
-0.05478178 -0.054844528 0.71311486
-0.044829793 -0.055019759 0.71321446
-0.038274288 -0.058285717 0.71400011
-0.06148833 -0.044969525 0.71537507
-0.054978475 -0.044795446 0.71264309
-0.044976901 -0.044949129 0.71278709
-0.060755778 -0.034542646 0.71588892
-0.054606713 -0.035341505 0.71255779
-0.045459319 -0.03507334 0.71347618
-0.062117152 -0.025084354 0.71450007
-0.055008445 -0.025125418 0.71304721
-0.045159534 -0.025349159 0.713462
-0.061200004 -0.019040002 0.71400005
-0.054963958 -0.015005242 0.71111536
-0.045278057 -0.01455712 0.71281397
-0.054713216 -0.0055312128 0.71271706
-0.045604758 -0.0062723807 0.7153157
-0.060520008 0.0063733333 0.7166667
-0.054322936 0.0047546602 0.71292865
-0.046121903 0.0050418074 0.71271807
-0.061271083 0.014780717 0.71781248
-0.054324236 0.014935744 0.71291834
-0.046405651 0.014307962 0.71060729
-0.061250675 0.024771685 0.71460009
-0.055600956 0.023947434 0.71442848
-0.048754286 0.020314286 0.71100003
-0.073431753 0.038766351 0.71833342
-0.069651432 0.039605714 0.71700001
-0.080801904 0.049302857 0.71900004
-0.073887043 0.046663158 0.71730763
-0.065651514 0.045223244 0.71471101
-0.082539782 0.055828564 0.71761531
-0.074814014 0.055084221 0.71410716
-0.066826232 0.053374805 0.71153861
-0.090137146 0.062140003 0.71700001
-0.085343756 0.061480012 0.71726668
-0.073653936 0.062123585 0.71193767
-0.067876518 0.061787304 0.71033335
-0.043046236 -0.0026192206 0.72054559
-0.042632382 0 0.72200006
-0.063671328 0.014506878 0.72144449
-0.081664763 0.038755558 0.72666669
-0.076676957 0.039439622 0.7240001
-0.091971435 0.048885714 0.72500002
-0.085069641 0.044968281 0.72394234
-0.077001572 0.043518513 0.72186971
-0.094566762 0.055872183 0.72541028
-0.087318249 0.054214325 0.72168005
-0.09319783 0.061148304 0.72257155
-0.089142859 0.060342859 0.72000003
