# .PCD v0.7 - Point Cloud Data file format
VERSION 0.7
FIELDS x y z
SIZE 4 4 4
TYPE F F F
COUNT 1 1 1
WIDTH 531
HEIGHT 1
VIEWPOINT 0 0 0 1 0 0 0
POINTS 531
DATA ascii
-0.080369525 0.069360003 0.57800001
-0.078578785 0.068343133 0.57871431
-0.081197865 0.078027144 0.57900006
-0.079038098 0.07720001 0.57900006
-0.081335716 0.080784291 0.57900006
-0.078854293 0.080508575 0.57900006
-0.062733509 0.086984247 0.57872736
-0.071148731 0.094691448 0.57807696
-0.068626225 0.094325155 0.57782358
-0.081899054 0.02580381 0.58900005
-0.077411428 0.02580381 0.58900005
-0.083789051 0.037832383 0.58850002
-0.076719999 0.0392 0.588
-0.08129175 0.048214287 0.58866668
-0.077717826 0.047062863 0.58828574
-0.082817979 0.056086596 0.58594871
-0.075305045 0.055238772 0.58671451
-0.066563621 0.058125313 0.58863157
-0.094918519 0.063776083 0.58855563
-0.084701106 0.064922966 0.58437175
-0.075047396 0.064972192 0.58550006
-0.067154169 0.064531498 0.58827281
-0.090951249 0.076983809 0.58660001
-0.085234031 0.074952088 0.58280665
-0.074479446 0.07494054 0.58259118
-0.065030679 0.075191714 0.5874809
-0.059460949 0.075167619 0.58900005
-0.091059625 0.082893334 0.5873
-0.086464152 0.082589641 0.58372003
-0.072083265 0.083881125 0.58300012
-0.06584423 0.084941186 0.58378589
-0.071830153 0.0919054 0.5801667
-0.065416768 0.091495119 0.58013332
-0.08263021 0.027784493 0.59021443
-0.074643649 0.027227374 0.59184778
-0.064647324 0.026655132 0.59546292
-0.057817653 0.027772447 0.59753335
-0.083616331 0.034832232 0.59110194
-0.074853078 0.034857504 0.59359777
-0.064792685 0.034972358 0.59734678
-0.057656769 0.035338279 0.5971874
-0.082185529 0.04384743 0.59025013
-0.074549012 0.044669785 0.59344602
-0.06466607 0.045646328 0.5964548
-0.057636023 0.047101948 0.59686947
-0.093244791 0.058103222 0.59423804
-0.07253693 0.051997464 0.59500009
-0.064678341 0.054302584 0.59198356
-0.055647176 0.05549705 0.59443843
-0.047123309 0.057521898 0.59773916
-0.094323739 0.062316615 0.5908519
-0.089904763 0.063495241 0.59000003
-0.071392387 0.061273336 0.59025002
-0.062795885 0.065936796 0.59186494
-0.055396814 0.065134138 0.5941686
-0.045544442 0.064906329 0.59782714
-0.037425175 0.067045167 0.59881264
-0.092270002 0.07511048 0.59074998
-0.062652379 0.071080953 0.59000003
-0.054968972 0.074922226 0.59180796
-0.045386627 0.074894778 0.59576571
-0.035216488 0.074968487 0.59634596
-0.029099895 0.075078309 0.59522229
-0.094109848 0.083679497 0.59100008
-0.061809529 0.08300136 0.59000009
-0.055274524 0.081923261 0.59232259
-0.045731042 0.082375459 0.59478945
-0.036513843 0.083877698 0.59769785
-0.090885721 0.0081041278 0.60783339
-0.084889323 0.0052103624 0.60786003
-0.09079463 0.015774682 0.60699999
-0.086282164 0.015093336 0.60773081
-0.079908572 0.019687619 0.60800004
-0.091404118 0.024403045 0.60652006
-0.085236192 0.023541203 0.60741311
-0.079908572 0.020845715 0.60800004
-0.065523818 0.038476191 0.60000002
-0.066628031 0.040989392 0.60014284
-0.053916506 0.043765593 0.60460019
-0.045470145 0.045688301 0.60729408
-0.035247155 0.045901619 0.60862154
-0.051343951 0.052333612 0.60671437
-0.044120565 0.054201722 0.60404938
-0.034889333 0.055734862 0.60556358
-0.025483731 0.057870399 0.60817403
-0.018827144 0.058797143 0.60825002
-0.040000003 0.060571432 0.60000002
-0.03351922 0.063975178 0.60325015
-0.025528528 0.065009803 0.60788524
-0.017804628 0.06525062 0.608643
-0.031011431 0.070062861 0.60300004
-0.023590323 0.073865682 0.60416675
-0.017132796 0.073761851 0.60705119
-0.022723956 0.081876196 0.60346168
-0.034781907 -0.040087622 0.61900002
-0.051765084 -0.035295241 0.61766672
-0.041053813 -0.013750477 0.61875004
-0.037039645 -0.012297738 0.61856252
-0.041207109 -0.004715845 0.6189093
-0.037125636 -0.0047152387 0.61876935
-0.093631625 0.0083855242 0.61140007
-0.081880897 0.0059763812 0.61120003
-0.074987695 0.0054484769 0.61476815
-0.066811301 0.0070572086 0.61762059
-0.042163592 0.0045405179 0.61831433
-0.036203776 0.005367172 0.61745101
-0.093872391 0.011667187 0.61254549
-0.081888907 0.014896329 0.61167872
-0.074945323 0.015222737 0.61482722
-0.065874316 0.015124339 0.61701643
-0.050617144 0.015891429 0.61800003
-0.04505768 0.015413785 0.6169855
-0.035518929 0.015263965 0.61707896
-0.080302857 0.024440002 0.611
-0.075327799 0.022711109 0.61478788
-0.066190228 0.021855118 0.61686677
-0.044691116 0.025314633 0.61739993
-0.036209591 0.025144661 0.61596543
-0.044892821 0.035056308 0.61544144
-0.037189312 0.034095582 0.61584079
-0.042986512 0.042503498 0.61133337
-0.033822749 0.045393277 0.61105883
-0.024853222 0.046449132 0.61705774
-0.01827524 0.046572387 0.61900002
-0.034177586 0.050684366 0.61129421
-0.024668127 0.053291209 0.61401975
-0.018592084 0.053983763 0.61621046
-0.0052599497 0.058667373 0.61731577
-0.022209367 0.064688414 0.61100006
-0.015495378 0.065915853 0.61289293
-0.005285535 0.065212578 0.61687517
0.0012524999 0.066721782 0.6186251
-0.012255298 0.075616486 0.61281258
-0.0052735717 0.07503996 0.61558354
0.0024529609 0.074944593 0.61686957
-0.01224 0.080434285 0.61200005
-0.0054294681 0.081543654 0.61364704
0.0019638096 0.080786042 0.61766672
-0.050320003 -0.10423429 0.62900001
-0.046041086 -0.10389199 0.62899995
-0.051870484 -0.094226673 0.62900001
-0.045081422 -0.094851136 0.62806672
-0.038293332 -0.092742383 0.62825012
-0.051876485 -0.085118681 0.62743741
-0.044731103 -0.085288361 0.62623417
-0.038088609 -0.084893338 0.62707406
-0.052532583 -0.075062856 0.62748796
-0.044667386 -0.075041741 0.62533325
-0.036624379 -0.074264772 0.62704456
-0.052961275 -0.065312974 0.62751293
-0.044874009 -0.064733841 0.62486565
-0.036121633 -0.064670965 0.62503994
-0.053029694 -0.055270929 0.6264413
-0.045142159 -0.055237867 0.62363905
-0.036059156 -0.055087276 0.62355977
-0.051665723 -0.044313226 0.62594444
-0.044962198 -0.0451838 0.62281036
-0.036562394 -0.045329604 0.62308502
-0.05118699 -0.036346827 0.62374997
-0.044854861 -0.034829013 0.62155706
-0.036195118 -0.035009176 0.62304151
-0.051026668 -0.025517143 0.62300003
-0.045040645 -0.02489035 0.62225968
-0.03630311 -0.025048161 0.62396234
-0.051108573 -0.011291429 0.62400001
-0.045622922 -0.015006039 0.62179327
-0.035260733 -0.015671404 0.62179989
-0.051108576 -0.0065371431 0.62400007
-0.046554361 -0.0056845476 0.62208164
-0.033858683 -0.0056913062 0.62129039
-0.047344223 0.0045050341 0.62100005
-0.032777458 0.002700106 0.62200004
-0.048419051 0.010628572 0.62
-0.031885717 0.012990477 0.62
-0.070857145 0.023619048 0.62
-0.068495244 0.023619048 0.62
-0.051211853 0.033089951 0.62044442
-0.049600001 0.03601905 0.62
-0.021928256 0.037658293 0.62566674
-0.015488003 0.037451174 0.6255334
-0.0038339049 0.039057907 0.62900001
0.0029857145 0.039411429 0.62700003
-0.023095148 0.041908201 0.62104756
-0.014087459 0.044637825 0.6216169
-0.0054993546 0.045022227 0.62595576
0.0032554627 0.045092251 0.62752956
-0.013175618 0.053004563 0.62223989
-0.0056810882 0.053186655 0.62352377
0.0038486451 0.053401027 0.62630779
0.0058527393 0.064983971 0.62221318
0.01071143 0.064459682 0.62483335
0.0078236824 0.0754444 0.62213337
0.012543619 0.074846193 0.62457132
0.0085970564 0.082310997 0.62054545
0.013046569 0.082931891 0.62075865
-0.053097863 -0.13069072 0.639
-0.049294285 -0.13023429 0.63900006
-0.054347929 -0.12441815 0.63725007
-0.04610737 -0.12497842 0.63700002
-0.060619049 -0.11699952 0.6365
-0.05482582 -0.11518221 0.63393539
-0.045243002 -0.11522466 0.63342184
-0.039700478 -0.11427096 0.634
-0.053967796 -0.10588342 0.63215923
-0.044537053 -0.10565572 0.63116306
-0.038239546 -0.10455871 0.63212001
-0.053504854 -0.095748752 0.63122749
-0.041766193 -0.099457622 0.63100004
-0.037771206 -0.097824767 0.63129425
-0.055375241 -0.089081906 0.63200003
-0.034855239 -0.081128567 0.63100004
-0.055287622 -0.070912383 0.63100004
-0.03425429 -0.078123823 0.63100004
-0.010817143 0.03966286 0.63100004
-0.0078157149 0.038476191 0.63125002
-0.062268101 -0.14179763 0.64733332
-0.055744499 -0.14117049 0.6472857
-0.049371429 -0.14070858 0.648
-0.07035429 -0.13453715 0.648
-0.064267211 -0.13440846 0.64605564
-0.054973047 -0.13533242 0.64289379
-0.048243541 -0.13381062 0.64235717
-0.063038364 -0.12596872 0.64286965
-0.058868308 -0.12697932 0.64100003
-0.071699053 -0.15138191 0.65750003
-0.064491197 -0.15215036 0.65743756
-0.055438101 -0.15073143 0.6540001
-0.072532505 -0.14446841 0.65456516
-0.066070512 -0.14570512 0.65236169
-0.055031497 -0.14617667 0.65156114
-0.049630478 -0.14517106 0.65140003
-0.071241908 -0.138016 0.65160006
-0.068654098 -0.13805144 0.65060008
-0.073292315 -0.16178216 0.66515398
-0.068455003 -0.16205071 0.66400009
-0.080948196 -0.1541324 0.66820014
-0.075167991 -0.15540402 0.6630488
-0.065153264 -0.1569339 0.66087872
-0.081679046 -0.14816445 0.66483343
-0.077655561 -0.14702699 0.66288888
-0.074950568 -0.17265828 0.67778951
-0.083278894 -0.16387254 0.67608345
-0.075774416 -0.1666569 0.6735332
-0.069325715 -0.16689524 0.67400002
-0.090444446 -0.15504827 0.6783334
-0.085479327 -0.15561025 0.67400002
-0.084354289 -0.14953715 0.671
-0.091800004 -0.17114191 0.68850005
-0.08448381 -0.17298169 0.6846087
-0.079125717 -0.17316952 0.68099999
-0.092499435 -0.16433601 0.68444997
-0.087625772 -0.16609752 0.68176204
-0.092370801 -0.15849842 0.68300003
-0.089371435 -0.15931429 0.68000001
-0.092972159 -0.18248206 0.69500011
-0.094959132 -0.17486317 0.69428587
-0.088274859 -0.1777364 0.69169998
-0.097751312 -0.16644703 0.69525003
-0.10334817 -0.18186371 0.70666671
-0.097718664 -0.18260096 0.70180011
-0.1043103 -0.17547609 0.70462871
-0.099368572 -0.17639714 0.70025003
-0.10283215 -0.16837215 0.70225
-0.11435524 -0.23281907 0.71900004
-0.11380743 -0.22610843 0.71899992
-0.10956191 -0.22665621 0.71900004
-0.11093143 -0.19173335 0.71900004
-0.10537857 -0.1910359 0.71383351
-0.11327346 -0.18439136 0.71614283
-0.1054851 -0.1857224 0.7109645
-0.11318874 -0.17524485 0.71341681
-0.10897006 -0.17341645 0.71027279
-0.11068477 -0.16976191 0.71300006
-0.10701303 -0.16877715 0.71266675
-0.14653905 -0.15064763 0.71900004
-0.16390425 -0.1434902 0.71823078
-0.15492591 -0.1445238 0.71708483
-0.14494836 -0.14450164 0.71605873
-0.13499416 -0.14425206 0.71720439
-0.12657873 -0.14341229 0.7177586
-0.17287029 -0.13359763 0.7187894
-0.16509469 -0.13507779 0.71630579
-0.15506423 -0.134663 0.71410203
-0.14510077 -0.13443865 0.71234
-0.1351513 -0.13447833 0.71312499
-0.12474561 -0.13497722 0.71576774
-0.11656817 -0.13425702 0.71817845
-0.17260303 -0.12457085 0.71807694
-0.1648376 -0.12489258 0.71450001
-0.15449685 -0.12468116 0.71148998
-0.14490858 -0.12459429 0.71100014
-0.13482419 -0.12466463 0.71139306
-0.12484582 -0.12482091 0.71350998
-0.11606783 -0.12480229 0.71660364
-0.17287587 -0.11566633 0.718826
-0.16477604 -0.11490311 0.71558475
-0.15468892 -0.11465582 0.71237522
-0.1450149 -0.11502458 0.71112007
-0.13471709 -0.11508598 0.71082145
-0.12455807 -0.11475696 0.71395171
-0.11529914 -0.11468042 0.71772707
-0.17187525 -0.10545333 0.71899998
-0.16516909 -0.10510496 0.71663237
-0.15506506 -0.10473318 0.71410221
-0.14502884 -0.10500524 0.71287727
-0.13488476 -0.10530861 0.71251613
-0.12471987 -0.10495873 0.71564281
-0.11647388 -0.107135 0.71830434
-0.17187524 -0.099290475 0.71900004
-0.16440544 -0.096407168 0.71667552
-0.15454115 -0.095141895 0.71581793
-0.14463037 -0.094840765 0.71539646
-0.13475882 -0.094590344 0.71563792
-0.12630779 -0.095911264 0.71795446
-0.15022857 -0.088771433 0.71700001
-0.14308611 -0.087325096 0.71633339
-0.13518322 -0.087049402 0.71767849
-0.12827873 -0.086508259 0.71900004
-0.13173334 -0.24197334 0.72800004
-0.12600116 -0.2423296 0.72499996
-0.11766525 -0.24117763 0.72250009
-0.099282861 -0.24022287 0.72900003
-0.13332702 -0.23431215 0.72754169
-0.12548251 -0.23510005 0.72391295
-0.11511267 -0.23491989 0.72039986
-0.10522943 -0.23469357 0.72239578
-0.097121306 -0.23349738 0.72759998
-0.13372484 -0.22479729 0.72789657
-0.12514172 -0.22488612 0.7226851
-0.11616073 -0.22364619 0.72019345
-0.10480397 -0.2247659 0.72206771
-0.09627676 -0.22512759 0.72680968
-0.13380228 -0.2149128 0.7279287
-0.12542227 -0.2150041 0.72357124
-0.11489853 -0.21491836 0.72198343
-0.10487413 -0.21480152 0.72398216
-0.09819793 -0.21603701 0.72783339
-0.13453616 -0.20481862 0.72814715
-0.12500551 -0.20511746 0.72517174
-0.11470154 -0.20521592 0.72551793
-0.1061577 -0.2060326 0.7275123
-0.099977151 -0.20828573 0.72900003
-0.13400057 -0.19534652 0.72854185
-0.12452297 -0.19508113 0.72636747
-0.11528768 -0.19535647 0.7247436
-0.10836954 -0.19836216 0.72825009
-0.13269192 -0.18567975 0.72899997
-0.12541461 -0.18523979 0.7276876
-0.11816545 -0.18519893 0.72135729
-0.13145144 -0.17866287 0.72900003
-0.12403012 -0.17797644 0.72856253
-0.11866208 -0.17702021 0.72440004
-0.15546015 -0.16101117 0.72871435
-0.14427415 -0.16157436 0.72884619
-0.13746858 -0.16107431 0.72900003
-0.17152445 -0.15210667 0.7281667
-0.16427456 -0.15421723 0.72599995
-0.15488677 -0.15512446 0.72388107
-0.14494678 -0.15502426 0.72326195
-0.13514869 -0.15549484 0.72532594
-0.12649523 -0.15429436 0.72713339
-0.11941715 -0.1513543 0.72900003
-0.1817781 -0.14223143 0.72850007
-0.17446342 -0.14462426 0.72428572
-0.16594833 -0.14780204 0.72160012
-0.15725714 -0.14948574 0.72000003
-0.13508573 -0.14948572 0.72000003
-0.1231892 -0.14689618 0.72227287
-0.11515244 -0.14490332 0.72477078
-0.10837947 -0.14214349 0.72844452
-0.18399462 -0.13451596 0.72779322
-0.1767734 -0.13610396 0.72208714
-0.11223837 -0.13564678 0.72122228
-0.1058708 -0.13447043 0.72633338
-0.18397097 -0.12493727 0.72633344
-0.17752717 -0.12552837 0.72155571
-0.11076572 -0.12462896 0.72060013
-0.10516061 -0.12512246 0.72428584
-0.09956082 -0.12296409 0.72885722
-0.18397547 -0.11500839 0.72650003
-0.17729732 -0.11416128 0.72128576
-0.11078096 -0.11686042 0.72057158
-0.10547031 -0.11484572 0.7242983
-0.099560574 -0.11608458 0.72900003
-0.19118743 -0.10405829 0.72840005
-0.18542075 -0.10511378 0.72743201
-0.17663167 -0.10508236 0.7223103
-0.12068572 -0.10011429 0.72000003
-0.11360977 -0.10360973 0.72167498
-0.10577878 -0.10568612 0.72609317
-0.099977143 -0.10900287 0.72900003
-0.18858667 -0.099493325 0.72800004
-0.12219535 -0.093268581 0.72127789
-0.11495058 -0.09499146 0.72443086
-0.10808953 -0.096301518 0.72799999
-0.13165715 -0.085028581 0.72000003
-0.12333558 -0.086393289 0.72283322
-0.11648446 -0.086415119 0.72746676
-0.094757147 -0.24005143 0.73700005
-0.14082286 -0.23075429 0.73200005
-0.13786954 -0.23361167 0.731125
-0.093270682 -0.235581 0.73140001
-0.088186406 -0.23171321 0.7315715
-0.14327951 -0.22397134 0.73450005
-0.13854194 -0.22556572 0.73100007
-0.091581963 -0.22403519 0.73200005
-0.087727755 -0.22441983 0.73456669
-0.14434981 -0.21441054 0.73351216
-0.13855383 -0.21514098 0.73106253
-0.094003491 -0.21436644 0.73390013
-0.088486522 -0.21490727 0.73615801
-0.14469503 -0.20534638 0.73655277
-0.13877398 -0.20723271 0.73100007
-0.10245027 -0.20274141 0.73180008
-0.09575367 -0.20534496 0.73547924
-0.08925461 -0.20841652 0.73600006
-0.1507834 -0.19335105 0.73785722
-0.14507851 -0.19506852 0.73588097
-0.13871597 -0.19336691 0.73100001
-0.10334905 -0.19814265 0.73387516
-0.097343653 -0.1985573 0.73800009
-0.15034351 -0.18827938 0.73766673
-0.14495277 -0.18509892 0.73540485
-0.13717337 -0.18417357 0.73112506
-0.15311129 -0.17199892 0.73842865
-0.14462371 -0.17497866 0.73566675
-0.13529946 -0.17502052 0.73118776
-0.12568346 -0.17339943 0.73128235
-0.11672829 -0.17227669 0.73378277
-0.18158287 -0.16046858 0.73900002
-0.17381614 -0.16332553 0.73676217
-0.16507149 -0.16409914 0.73460627
-0.15479526 -0.16635838 0.73408842
-0.14528796 -0.16651951 0.73293108
-0.13492957 -0.16586117 0.73131847
-0.12480959 -0.16473891 0.73214823
-0.1162651 -0.1652094 0.73673165
-0.19002858 -0.15202287 0.73900002
-0.18405804 -0.15385811 0.73742872
-0.17581204 -0.15602633 0.73381263
-0.16814587 -0.15779892 0.73128575
-0.12237556 -0.1568467 0.73194444
-0.11499299 -0.15504672 0.73380005
-0.10830688 -0.15272403 0.73633337
-0.20317924 -0.14187525 0.73820001
-0.19225661 -0.14424354 0.73828578
-0.18576968 -0.14541882 0.73434627
-0.17974001 -0.14839047 0.73150003
-0.11139048 -0.14828858 0.73100001
-0.10548124 -0.14493755 0.73352963
-0.099940956 -0.14076191 0.73900002
-0.20268922 -0.13746525 0.7364167
-0.19538136 -0.13427608 0.73582864
-0.18875381 -0.13616827 0.73133337
-0.10162299 -0.13636151 0.7315715
-0.097030625 -0.13395447 0.73639292
-0.19513354 -0.12506247 0.73605132
-0.18936382 -0.12531431 0.73100007
-0.10025143 -0.12879524 0.73100001
-0.09560322 -0.12514892 0.73476326
-0.19492979 -0.11499362 0.73622864
-0.18936382 -0.11556762 0.73100007
-0.095683597 -0.11497547 0.7344287
-0.19342002 -0.10846254 0.73316669
-0.18936382 -0.1099981 0.73100001
-0.10177393 -0.10281844 0.73131245
-0.097688369 -0.10572913 0.73543489
-0.10433497 -0.094749004 0.73356777
-0.099521428 -0.098817617 0.73850006
-0.11189383 -0.084983863 0.73142105
-0.10594235 -0.086110339 0.73511118
-0.15081905 -0.20015238 0.74000001
-0.14940953 -0.20297143 0.74000001
-0.091950871 -0.20181106 0.74040002
-0.15081905 -0.19874287 0.74000001
-0.09423577 -0.19757123 0.74088895
-0.15248792 -0.18394095 0.74284613
-0.14981334 -0.18161334 0.74200004
-0.17322285 -0.17426781 0.74746674
-0.1670555 -0.17344643 0.74637508
-0.15295038 -0.17632797 0.74093741
-0.14940953 -0.17830476 0.74000001
-0.11138143 -0.17245834 0.74137497
-0.10646436 -0.17252572 0.7424286
-0.17383429 -0.16819048 0.74200004
-0.16658364 -0.16969144 0.74240005
-0.11137684 -0.16517214 0.74115777
-0.10512234 -0.16512084 0.74486554
-0.19204192 -0.1510908 0.74133343
-0.18605715 -0.15598731 0.74000001
-0.11079618 -0.15949143 0.74100006
-0.10487536 -0.15555055 0.74522221
-0.098071121 -0.1514997 0.74800009
-0.20085715 -0.14236191 0.74000001
-0.19518405 -0.14463596 0.74160862
-0.1016916 -0.14682165 0.74245453
-0.09583129 -0.14482275 0.74597353
-0.089047626 -0.14105143 0.74800003
-0.19761525 -0.13897906 0.74000001
-0.092739284 -0.13566419 0.7438333
-0.089700013 -0.13455048 0.74750006
-0.20241047 -0.12235929 0.7437501
-0.091114141 -0.12471209 0.74207699
-0.089016348 -0.1246946 0.74675006
-0.20160039 -0.11719944 0.74220002
-0.091416195 -0.11411583 0.74193746
-0.088884763 -0.11519606 0.74664289
-0.093847059 -0.10472902 0.74391168
-0.089579999 -0.10877429 0.74650002
-0.101044 -0.092575617 0.74090004
-0.097052597 -0.095532745 0.74464285
-0.10101087 -0.086178862 0.74169999
-0.098754115 -0.086717926 0.74745464
-0.1747019 -0.17666572 0.75025004
-0.16726287 -0.17532158 0.7505455
-0.10257144 -0.15657143 0.75000006
-0.099285722 -0.15428571 0.75000006
-0.091785721 -0.14428572 0.75000006
-0.088637285 -0.14296383 0.75057149
-0.087349072 -0.13481459 0.75017399
-0.085098244 -0.12441367 0.75286216
-0.084666222 -0.11494812 0.75310534
-0.09083429 -0.10156286 0.75100005
-0.085972853 -0.10495273 0.75315911
-0.092850357 -0.094855309 0.75266689
-0.087003022 -0.097240791 0.75535309
-0.095939055 -0.087826461 0.75177777
-0.081549212 -0.11677461 0.76000011
-0.091045238 -0.091046669 0.76175004
-0.086602509 -0.093484171 0.76093757
-0.092728257 -0.089106672 0.76066673
