# .PCD v0.7 - Point Cloud Data file format
VERSION 0.7
FIELDS x y z
SIZE 4 4 4
TYPE F F F
COUNT 1 1 1
WIDTH 435
HEIGHT 1
VIEWPOINT 0 0 0 1 0 0 0
POINTS 435
DATA ascii
-0.033787485 0.079029672 0.57228577
-0.026596058 0.079011977 0.57671434
-0.033251084 0.083394632 0.57289469
-0.026618872 0.083457105 0.57511634
-0.043255661 0.058962334 0.58900005
-0.033775654 0.057549354 0.58737499
-0.028113941 0.057553083 0.58827275
-0.051046669 0.069558099 0.58900005
-0.044563245 0.065847263 0.58822811
-0.034592092 0.064862981 0.58651304
-0.027482251 0.066436395 0.58492315
-0.080708578 0.079027623 0.58850002
-0.079587623 0.079027623 0.58850002
-0.051922645 0.074067622 0.58815384
-0.044669669 0.074859761 0.58701271
-0.035159029 0.074717797 0.5849998
-0.025635373 0.075229913 0.58372319
-0.0813381 0.0813381 0.58900005
-0.079655237 0.080777146 0.58900005
-0.04258465 0.081602857 0.58737499
-0.039133336 0.081061907 0.58700001
-0.042774152 0.039522182 0.5977143
-0.05236806 0.046821207 0.59810013
-0.044862226 0.045410857 0.59527397
-0.035806566 0.04615809 0.59552312
-0.028695241 0.047729526 0.59662503
-0.083816648 0.058137033 0.59847373
-0.075623058 0.058517784 0.59868425
-0.067093723 0.059131432 0.59700006
-0.054647308 0.055312738 0.59464294
-0.045248654 0.054672685 0.5911805
-0.035873629 0.053396396 0.5918479
-0.026188765 0.055961054 0.59249997
-0.08457265 0.065303825 0.59743476
-0.075000271 0.064765833 0.59656817
-0.064813942 0.064735487 0.59392434
-0.05531555 0.065237984 0.59169608
-0.045564126 0.063125007 0.59004182
-0.039333336 0.061809525 0.59000003
-0.023436617 0.064827971 0.59087491
-0.019234287 0.069017142 0.59400004
-0.10097431 0.077965088 0.59900004
-0.094160274 0.076285347 0.59900028
-0.084888436 0.074872024 0.59397268
-0.074628055 0.074073471 0.593548
-0.06491565 0.074844405 0.59205854
-0.056613583 0.075726219 0.59027779
-0.019234287 0.070148572 0.59400004
-0.10091092 0.083035983 0.59900004
-0.094802067 0.083988518 0.59794116
-0.087442055 0.082817949 0.59496164
-0.063800007 0.00116 0.60900009
-0.074239999 0.019720001 0.60900003
-0.064694397 0.017357644 0.60873526
-0.058965717 0.019655239 0.60700005
-0.072437219 0.027654359 0.60884625
-0.065182343 0.023396628 0.60859102
-0.059014291 0.021407619 0.60750008
-0.10214648 0.036381811 0.60813642
-0.097827293 0.036145445 0.60823995
-0.07301674 0.034929689 0.60702139
-0.065760523 0.035340089 0.60586441
-0.056102619 0.038596191 0.60262507
-0.10242373 0.045242131 0.60768574
-0.098013014 0.045291025 0.60639286
-0.083077691 0.045672383 0.60600019
-0.075199187 0.044851054 0.60482436
-0.065257914 0.044901598 0.60269254
-0.056198567 0.043529313 0.60141498
-0.047428571 0.040000003 0.60000002
-0.12096974 0.056246985 0.60677779
-0.11506796 0.056311231 0.60767394
-0.10453072 0.055228468 0.60621303
-0.09626773 0.056272592 0.60373086
-0.08277598 0.053897657 0.60261548
-0.075110093 0.053966861 0.60310918
-0.064624354 0.052187905 0.60215622
-0.058683179 0.051061593 0.60016668
-0.12441986 0.066619091 0.60747504
-0.11445767 0.064918712 0.60475749
-0.10359816 0.065822497 0.60355818
-0.094815761 0.065302618 0.60204035
-0.089206539 0.064045727 0.60042858
-0.13229494 0.078448892 0.60791665
-0.1250352 0.075268261 0.60695523
-0.11495285 0.074701324 0.60380012
-0.10522351 0.074310586 0.60229868
-0.096621431 0.074099593 0.60030568
-0.14213334 0.085241102 0.60563165
-0.13600427 0.084889464 0.60802704
-0.12451588 0.084325872 0.60659379
-0.11504143 0.084556609 0.60528815
-0.10562315 0.0818891 0.60096163
-0.094285719 0.080000006 0.60000002
-0.08742857 0.086285718 0.60000002
-0.12120001 0.090034291 0.60600007
-0.11806034 0.09086065 0.60766673
-0.072810695 -0.081152827 0.61884618
-0.068974286 -0.080764771 0.61900002
-0.080764771 -0.071921907 0.61900002
-0.074416302 -0.07456141 0.61892968
-0.066616192 -0.078996196 0.61900002
-0.080919906 -0.064723507 0.61900014
-0.074855387 -0.064851351 0.61837667
-0.067820355 -0.064330749 0.61846435
-0.08106488 -0.054395292 0.61868435
-0.07460767 -0.054765385 0.6178906
-0.067776188 -0.054409891 0.61842316
-0.081190333 -0.046482384 0.61775005
-0.075031519 -0.045119397 0.61660016
-0.06542334 -0.045180831 0.61759675
-0.080927148 -0.035772622 0.61575007
-0.07498461 -0.035149775 0.61509907
-0.065480471 -0.035422001 0.61575395
-0.074941732 -0.025175974 0.61474997
-0.065936171 -0.025010346 0.61492145
-0.080828577 -0.014642858 0.61500001
-0.074878857 -0.015210253 0.61422223
-0.065376081 -0.015064849 0.61490923
-0.080697149 -0.0087723807 0.61400002
-0.074923806 -0.0053591854 0.61349994
-0.065539882 -0.0052714609 0.61446673
-0.080894291 0.0029288891 0.61550009
-0.075222261 0.0045371428 0.61304271
-0.066016495 0.0048525375 0.61158198
-0.074531674 0.015332708 0.61154091
-0.066375442 0.013256025 0.61135906
-0.11011429 0.029285716 0.61500001
-0.10788763 0.029317465 0.61566675
-0.081690162 0.028591111 0.61266673
-0.075583331 0.024409639 0.61142856
-0.065106086 0.025718631 0.61148
-0.059467621 0.026238732 0.6121667
-0.12357335 0.03587776 0.61582589
-0.11424338 0.03623588 0.61474532
-0.10651323 0.034406375 0.61260468
-0.095601089 0.033919051 0.61260015
-0.081690162 0.030925084 0.61266673
-0.078042515 0.034458362 0.61116004
-0.062994041 0.031575497 0.61246669
-0.05974286 0.031042859 0.61500001
-0.12401805 0.045237768 0.61520761
-0.11508936 0.044981819 0.61340612
-0.10757026 0.044912152 0.61150008
-0.12406148 0.052118763 0.61488461
-0.11461812 0.05172104 0.61186218
-0.10847703 0.050910484 0.61142862
-0.12879494 0.064397469 0.611
-0.13392638 0.074076816 0.61329025
-0.12918286 0.079139054 0.611
-0.13599534 0.084032387 0.61118186
-0.081463672 -0.11266491 0.62828583
-0.074935108 -0.11413606 0.62815225
-0.066193283 -0.11307818 0.62862504
-0.08143004 -0.1040381 0.62446159
-0.074883871 -0.10523605 0.6246056
-0.066208571 -0.10496243 0.62550008
-0.082442231 -0.095058233 0.6231426
-0.074674405 -0.094906352 0.62242526
-0.066104464 -0.095119432 0.62479252
-0.082166567 -0.084858112 0.62206894
-0.075498432 -0.085652724 0.62166655
-0.066606976 -0.084730767 0.62199998
-0.081618525 -0.07615608 0.6225
-0.078672387 -0.077491432 0.62042856
-0.066580221 -0.074672796 0.6203481
-0.082371436 -0.064952388 0.62
-0.074990481 -0.064952381 0.62
-0.064063132 -0.065577768 0.62206972
-0.07912381 -0.05786667 0.62
-0.063788801 -0.055678412 0.62127924
-0.059523813 -0.057738096 0.625
-0.1018381 0.0095847622 0.62900007
-0.094656691 0.0077080466 0.62765521
-0.10169657 0.013173189 0.62869245
-0.095134117 0.014517859 0.62751794
-0.088281237 0.012940816 0.6257143
-0.1117833 0.024352593 0.6287778
-0.10456819 0.023918502 0.62792861
-0.096498452 0.022138445 0.62827277
-0.081512384 -0.13087158 0.63871431
-0.074872628 -0.13219097 0.63847828
-0.066889718 -0.13074076 0.63850003
-0.08265882 -0.12399422 0.63444
-0.074989475 -0.12486173 0.63360608
-0.067371979 -0.12426458 0.63454849
-0.082672387 -0.11722068 0.63164294
-0.074397914 -0.11874819 0.63100004
-0.067241274 -0.11781167 0.63113344
-0.10188286 -0.0012057143 0.63300002
-0.12238704 0.0064742863 0.63415992
-0.11543519 0.0056400327 0.63377053
-0.10493564 0.0049123513 0.63289231
-0.09808366 0.0050130161 0.63183337
-0.12312812 0.014877746 0.63423711
-0.11524136 0.015083779 0.63351554
-0.10615235 0.015512158 0.63215685
-0.096873522 0.018028572 0.63100004
-0.12242792 0.022737524 0.63325012
-0.11602125 0.022706438 0.63248485
-0.10760572 0.020798914 0.63171434
-0.093846351 0.020855239 0.63166672
-0.083838731 -0.14246504 0.64616662
-0.075044401 -0.14269525 0.64708579
-0.067780957 -0.14110762 0.64700007
-0.08475861 -0.13636984 0.64223689
-0.074972987 -0.13679835 0.64225018
-0.067469925 -0.13541096 0.64180958
-0.081179693 -0.15076128 0.65233338
-0.075197712 -0.15230134 0.65496004
-0.068828575 -0.15017143 0.65700001
-0.083613344 -0.14542173 0.65066671
-0.074259959 -0.14769615 0.65133339
-0.067395464 -0.14604922 0.65255553
-0.073097147 -0.15601002 0.6645
-0.083280958 -0.16283016 0.67266667
-0.075267337 -0.16379555 0.67251343
-0.069017142 -0.16104001 0.671
-0.084667586 -0.15767096 0.67247623
-0.073269166 -0.15871356 0.67030776
-0.069017142 -0.15976191 0.671
-0.090087622 -0.23225716 0.73900002
-0.084052734 -0.2336445 0.73840016
-0.075398229 -0.2340569 0.73433346
-0.065177821 -0.23358157 0.73106474
-0.055560753 -0.23350045 0.73418427
-0.048914764 -0.23225716 0.73900002
-0.09055683 -0.22850351 0.73900002
-0.084399521 -0.22524776 0.73720515
-0.075446703 -0.2248247 0.73346442
-0.065478228 -0.22499444 0.7314108
-0.055440154 -0.22492057 0.73451668
-0.049266674 -0.2280343 0.73900002
-0.082020946 -0.21625406 0.737737
-0.074621238 -0.21459122 0.73546928
-0.064673841 -0.21502888 0.73332143
-0.056011125 -0.2151991 0.73615783
-0.080234289 -0.20551242 0.73900002
-0.074405417 -0.20496069 0.73702025
-0.064836152 -0.20559037 0.73652953
-0.058013339 -0.20816438 0.73771435
-0.074260339 -0.19696842 0.73807162
-0.067917623 -0.19953001 0.73900002
-0.070174612 -0.13403651 0.73683345
-0.064561211 -0.13403966 0.73685706
-0.05614293 -0.13338275 0.73825943
-0.070696056 -0.12356789 0.73600012
-0.064706482 -0.12465537 0.73484606
-0.054723963 -0.12488853 0.7366938
-0.04846251 -0.12390806 0.73845458
-0.070763811 -0.11677143 0.73566675
-0.064886779 -0.11486444 0.73575485
-0.054732744 -0.11507964 0.73679584
-0.048151046 -0.11558017 0.7384119
-0.07138937 -0.10440023 0.73658836
-0.064561807 -0.10526407 0.73685694
-0.055380434 -0.10596431 0.73768282
-0.048881434 -0.10866429 0.73850006
-0.071531981 -0.098456055 0.73842865
-0.064617507 -0.098905608 0.73850012
-0.057430863 -0.099659435 0.73900002
-0.085506678 -0.24026668 0.74200004
-0.091742858 -0.23218095 0.74100006
-0.085040592 -0.23711589 0.74030763
-0.044318516 -0.23416899 0.74465638
-0.038595621 -0.232428 0.74770015
-0.0922639 -0.22403939 0.74209088
-0.088685088 -0.22300383 0.74100006
-0.050742857 -0.22129525 0.74000001
-0.045169167 -0.22460881 0.74310434
-0.038819458 -0.22529663 0.74692863
-0.092369601 -0.21597707 0.74556518
-0.086297363 -0.21413866 0.74200004
-0.051997319 -0.21389043 0.74135286
-0.046639211 -0.21552162 0.74536592
-0.038468577 -0.21941334 0.74800003
-0.091805711 -0.20709477 0.74725008
-0.085621841 -0.20473716 0.74335569
-0.062019054 -0.20095783 0.74000007
-0.054738849 -0.20458508 0.7423045
-0.048302315 -0.20602466 0.74742866
-0.039893337 -0.20231619 0.74800003
-0.084310792 -0.19553004 0.74488372
-0.076439574 -0.19483955 0.73999995
-0.064194232 -0.19559215 0.74217951
-0.055298395 -0.19497843 0.74448162
-0.049866669 -0.1987543 0.74800003
-0.081211433 -0.18949334 0.74800003
-0.061424498 -0.18751375 0.74500006
-0.056390222 -0.18653432 0.74699986
-0.066251427 -0.1723962 0.74800003
-0.071568005 -0.15407753 0.74550009
-0.065515675 -0.1520808 0.74554539
-0.057251811 -0.15167639 0.7477001
-0.071568802 -0.1447688 0.74346155
-0.065048754 -0.14494833 0.74240488
-0.055131476 -0.14496626 0.74469584
-0.04693478 -0.14331569 0.74672002
-0.070666671 -0.13992001 0.74200004
-0.064838096 -0.13954288 0.74000007
-0.053547308 -0.13696761 0.74088883
-0.045184433 -0.13450356 0.74281263
-0.03860807 -0.13425221 0.74747062
-0.10828192 -0.12252954 0.74800009
-0.043984871 -0.12502794 0.74144119
-0.036976647 -0.12516506 0.74671417
-0.11113143 -0.11564319 0.74800009
-0.10867047 -0.11605334 0.74800009
-0.043523524 -0.11491275 0.74148488
-0.037545156 -0.1152911 0.74631029
-0.11113143 -0.10970667 0.74800003
-0.10899429 -0.1082819 0.74800009
-0.052049529 -0.10204746 0.74036366
-0.045114126 -0.10475452 0.7425921
-0.038688261 -0.10586001 0.74766672
-0.071174674 -0.093342476 0.74139994
-0.06494616 -0.093659051 0.74082494
-0.055044144 -0.094628453 0.74220842
-0.045633163 -0.095320411 0.74576598
-0.039893337 -0.098308586 0.74800003
-0.071358733 -0.086605296 0.74266672
-0.065006547 -0.085720636 0.74312204
-0.055397127 -0.086214021 0.74579477
-0.047375459 -0.086263746 0.74761534
-0.040571433 -0.23885715 0.75000006
-0.038000003 -0.23685716 0.75000006
-0.04177412 -0.21492502 0.75017655
-0.038061719 -0.21777487 0.75120002
-0.095013812 -0.20265973 0.75459999
-0.044278279 -0.20463058 0.75102341
-0.094549797 -0.19668616 0.75572014
-0.087591626 -0.19215229 0.75060004
-0.051428575 -0.19000001 0.75000006
-0.045327019 -0.19519055 0.7528888
-0.090240002 -0.18907429 0.75200003
-0.085872009 -0.18892343 0.75140011
-0.061273146 -0.18238705 0.75160003
-0.05324579 -0.18356077 0.75121444
-0.046160672 -0.18591513 0.7552647
-0.063458093 -0.1743685 0.75035006
-0.055158712 -0.17528984 0.75245768
-0.048184384 -0.17730248 0.75739998
-0.072132669 -0.16439885 0.75278264
-0.064531155 -0.16506197 0.75101852
-0.055893656 -0.16547151 0.7548095
-0.10900763 -0.1501562 0.75800002
-0.064833134 -0.15733269 0.75060868
-0.054293454 -0.15620363 0.7525456
-0.046154287 -0.15332288 0.75478572
-0.038982857 -0.1501562 0.75800002
-0.11329117 -0.1438273 0.75652397
-0.10708883 -0.14416534 0.75591683
-0.042756774 -0.14645615 0.75156528
-0.035329584 -0.14398073 0.75564522
-0.028876191 -0.14149334 0.75800002
-0.11432847 -0.13445538 0.75253338
-0.10624117 -0.13556552 0.75196439
-0.033382531 -0.13539805 0.75277144
-0.028800001 -0.13248001 0.75600004
-0.12248215 -0.12383274 0.75650018
-0.11485486 -0.1251035 0.75123811
-0.10714286 -0.12657143 0.75000006
-0.031426094 -0.12478191 0.75169998
-0.028201587 -0.12469271 0.75608343
-0.12249831 -0.11586639 0.75660008
-0.11549079 -0.11502833 0.75168288
-0.10775511 -0.11530612 0.75000012
-0.032354858 -0.114592 0.75170004
-0.028385907 -0.11614211 0.75650007
-0.12144055 -0.1065943 0.75771433
-0.11503361 -0.1046385 0.75365955
-0.10865829 -0.10293715 0.75060004
-0.033320803 -0.10458011 0.75294739
-0.028876191 -0.10539811 0.75800002
-0.12128001 -0.096735239 0.75800002
-0.11514498 -0.095154479 0.75620836
-0.10929525 -0.095630482 0.75500011
-0.040423404 -0.092687353 0.7502858
-0.034692805 -0.095105253 0.75404
-0.028876191 -0.099622861 0.75800002
-0.11382096 -0.089327239 0.75640005
-0.055 -0.082857147 0.75000006
-0.041911907 -0.087222271 0.75068748
-0.036610361 -0.087346196 0.75562513
-0.094723813 -0.19437221 0.7604
-0.042770959 -0.1826831 0.76118755
-0.050666668 -0.17081906 0.76000005
-0.04503924 -0.17411307 0.76211441
-0.051149208 -0.16599366 0.76000011
-0.045868929 -0.16486578 0.76331592
-0.12434286 -0.1506743 0.76800001
-0.11397722 -0.15402651 0.76466674
-0.04315361 -0.15768738 0.76250011
-0.035428572 -0.15467134 0.76476467
-0.028571703 -0.15224436 0.76642859
-0.1240636 -0.14472823 0.76459378
-0.1170653 -0.14638257 0.76142865
-0.031764507 -0.14749284 0.76118195
-0.027795684 -0.14510934 0.76540011
-0.13019429 -0.13165715 0.76800001
-0.12466061 -0.1350061 0.76339388
-0.024969237 -0.13454059 0.76448482
-0.018942857 -0.13114285 0.76500005
-0.13068192 -0.12361144 0.76800007
-0.12650913 -0.12660354 0.76464289
-0.023372227 -0.12512083 0.76308328
-0.018964082 -0.12545252 0.76585716
-0.13084096 -0.11646508 0.76750004
-0.1271943 -0.11418793 0.76252395
-0.024213009 -0.11512393 0.76340002
-0.019017143 -0.11995429 0.76800001
-0.13079758 -0.10633871 0.76763648
-0.12579784 -0.10470688 0.7642414
-0.025239561 -0.10500749 0.76463342
-0.12465066 -0.097504899 0.7632668
-0.030400001 -0.091200002 0.76000005
-0.027400004 -0.094873659 0.76295257
-0.031692144 -0.088196196 0.76062506
-0.028059684 -0.088294923 0.76200008
-0.12130095 -0.15360144 0.77074999
-0.11817143 -0.15588573 0.7700001
-0.023623662 -0.14331219 0.77273691
-0.022892192 -0.13852571 0.77040005
-0.13200001 -0.1257143 0.7700001
-0.12906668 -0.1276 0.77000004
-0.021161908 -0.11188573 0.7700001
-0.016719509 -0.11377299 0.77200007
-0.13151112 -0.10168889 0.7700001
-0.021190001 -0.10374271 0.77166671
-0.016356371 -0.10530405 0.77396876
-0.13053334 -0.099733338 0.77000004
-0.02291286 -0.095219925 0.77204174
-0.018092277 -0.097545609 0.77722234
-0.0242 -0.089466669 0.77000004
-0.012774287 -0.10444857 0.78900003
