# .PCD v0.7 - Point Cloud Data file format
VERSION 0.7
FIELDS x y z
SIZE 4 4 4
TYPE F F F
COUNT 1 1 1
WIDTH 558
HEIGHT 1
VIEWPOINT 0 0 0 1 0 0 0
POINTS 558
DATA ascii
-0.031233018 -0.12067302 0.55900002
-0.024172224 -0.1220962 0.55847216
-0.014878501 -0.12424176 0.55795068
-0.0058783386 -0.12331101 0.55797857
-0.032692503 -0.1143792 0.55825645
-0.024979951 -0.11492665 0.55739278
-0.014998008 -0.11651193 0.55699962
-0.0060235569 -0.11718771 0.55755109
0.00063885713 -0.11776266 0.55900002
-0.033053972 -0.10872541 0.55825007
-0.028463243 -0.10918362 0.55760002
-0.040607624 -0.14077143 0.56850004
-0.033281974 -0.14261845 0.56753582
-0.024583945 -0.14419383 0.5664286
-0.014986669 -0.14491725 0.56605721
-0.0056201853 -0.14489284 0.56658208
0.0033612526 -0.14285657 0.56794751
-0.042493135 -0.13399857 0.56748283
-0.034936197 -0.13507453 0.56479508
-0.024718743 -0.13499351 0.56267077
-0.014968067 -0.13471557 0.56129664
-0.0053560957 -0.13504142 0.56265432
0.0048970743 -0.13511965 0.56546986
0.012603275 -0.13382636 0.56759381
-0.044800796 -0.12449922 0.56657994
-0.035545133 -0.12521711 0.56259489
-0.025836341 -0.12675461 0.56065392
-0.014933335 -0.12887275 0.56
-0.004040136 -0.12755677 0.56039298
0.0047229216 -0.12510131 0.56177294
0.014790758 -0.12469136 0.56590557
0.021305878 -0.12277793 0.56875008
-0.051009741 -0.11429143 0.56844449
-0.045176711 -0.11500446 0.56512511
-0.037497476 -0.11525213 0.56087816
-0.002488889 -0.11591112 0.56000006
0.0054054973 -0.1180201 0.56080008
0.015487779 -0.11777066 0.56494457
0.021209717 -0.11762344 0.56809998
-0.050864451 -0.10659969 0.56816673
-0.045573313 -0.10689781 0.56509268
-0.037636086 -0.10785419 0.56094438
-0.020954287 -0.16101715 0.57900006
-0.01544 -0.16101715 0.57900012
-0.0016542857 -0.16101715 0.57900006
0.00055142859 -0.16101715 0.57900006
-0.041357145 -0.15109144 0.57900006
-0.033967562 -0.15285501 0.57580006
-0.025142428 -0.1546569 0.57463616
-0.015314409 -0.15533644 0.57426971
-0.0052618724 -0.15504418 0.57465512
0.0040688133 -0.15386286 0.57554549
0.012753199 -0.15129469 0.5785715
-0.050731432 -0.14006287 0.57900006
-0.043911736 -0.14445283 0.57499999
-0.035842787 -0.14665568 0.57151282
-0.026063332 -0.14877549 0.5701251
-0.019000001 -0.14982858 0.57000005
-0.0027142859 -0.14955716 0.57000005
0.0062804385 -0.14670758 0.57128197
0.014890905 -0.14473893 0.57472587
0.022485716 -0.1418808 0.57816672
-0.053110693 -0.13366298 0.5765
-0.046816856 -0.13563004 0.57157487
0.017193271 -0.13569851 0.57124442
0.024039822 -0.13445386 0.57547176
-0.054844711 -0.12490431 0.57492656
-0.049179595 -0.12737116 0.57014298
0.019180954 -0.12883811 0.57000005
0.025696676 -0.1251689 0.57366151
0.031597465 -0.12216334 0.57866669
-0.060657144 -0.11359429 0.57900006
-0.055794679 -0.11482129 0.57410014
0.02617692 -0.11710185 0.57314706
0.031853162 -0.11749317 0.57845461
-0.055635978 -0.10492878 0.57349223
-0.032093335 -0.16046667 0.58100003
-0.025042806 -0.16173448 0.5809474
-0.01636561 -0.16279061 0.58138889
-0.0058450424 -0.16328515 0.58291179
0.0053290846 -0.16225891 0.58500004
0.014370954 -0.16130494 0.58775008
-0.052811433 -0.15082173 0.58739996
-0.044628885 -0.15407339 0.5824092
-0.036411848 -0.15712173 0.58090621
-0.0077333334 -0.15908572 0.58000004
0.0074595558 -0.15808587 0.58146673
0.014694689 -0.15559763 0.58337766
0.024528749 -0.15185802 0.58622235
0.032523178 -0.1527091 0.58877778
-0.060908195 -0.14151847 0.58780003
-0.054110147 -0.14492793 0.58464718
-0.048231948 -0.1473414 0.58261544
0.01919397 -0.14874826 0.5813334
0.025542853 -0.14520198 0.58239138
0.031629048 -0.14077953 0.58775002
-0.061559822 -0.1353943 0.58600003
-0.057155337 -0.13635042 0.58165514
0.028731829 -0.13613655 0.58131588
0.033728257 -0.13444927 0.58469218
-0.063563816 -0.12431329 0.58395243
-0.059677716 -0.12620838 0.58020002
0.029828573 -0.12925714 0.58000004
0.034335922 -0.12575822 0.58241016
-0.064479843 -0.11568867 0.58483338
-0.059657145 -0.11931429 0.58000004
0.036424503 -0.11694819 0.58303452
0.041113656 -0.11774731 0.58733332
-0.063446425 -0.10499267 0.58304179
-0.059657145 -0.10053334 0.58000004
-0.063499421 -0.097359695 0.58483994
-0.058366943 -0.098144755 0.58128572
-0.085393943 0.068440005 0.58843756
-0.090788573 0.078041151 0.58700001
-0.084961377 0.075219043 0.58733356
-0.090805717 0.081307143 0.58675003
-0.085295618 0.082889773 0.58613348
0.012520476 -0.16329955 0.59075004
0.020896193 -0.16039239 0.59300005
0.01857524 -0.15872477 0.59100002
0.023608437 -0.15664136 0.59161913
0.030342858 -0.1534 0.59000003
0.029219048 -0.14890477 0.59000003
0.033152219 -0.1450246 0.59139985
-0.070609048 -0.13129428 0.59549999
-0.066284493 -0.13360219 0.5926429
0.037562858 -0.13740127 0.59300011
0.041470952 -0.13804571 0.59650004
-0.070644453 -0.12882224 0.59500003
-0.067623287 -0.12858073 0.59388888
-0.071478434 -0.11398935 0.59288234
-0.068509459 -0.11437714 0.59076476
-0.071197912 -0.10604148 0.59376192
-0.068286724 -0.10514376 0.59170586
-0.067885719 -0.099565715 0.59400004
-0.088608064 0.066823445 0.59000015
-0.054535717 0.068740003 0.59650004
-0.085079998 0.074777782 0.5903334
-0.074671984 0.076415837 0.59284621
-0.064835012 0.075082555 0.59398627
-0.054887749 0.07489229 0.59677917
-0.047488727 0.07458476 0.59895837
-0.080060959 0.081188574 0.59200001
-0.074083216 0.082204059 0.59310526
-0.064886414 0.084566742 0.59368193
-0.05549993 0.082502589 0.59685719
-0.064233936 0.091278002 0.59161901
-0.031030003 -0.18125001 0.60900003
-0.024003081 -0.1815846 0.60900015
-0.018785525 -0.18136458 0.60880005
-0.033371508 -0.17481482 0.60732698
-0.024994349 -0.17532329 0.60685253
-0.016072925 -0.17486091 0.60812223
-0.034486353 -0.16904557 0.6068334
-0.028255239 -0.16954002 0.60550004
-0.040595919 0.068424493 0.6015715
-0.03596168 0.068638995 0.60235304
-0.071666673 0.071093336 0.60200006
-0.042785235 0.075187996 0.60133326
-0.034618683 0.074672721 0.60289061
-0.025641631 0.076630861 0.60583681
-0.017501976 0.076179944 0.60828578
-0.053785145 0.084913529 0.60080004
-0.041731935 0.083926819 0.60246676
-0.03569952 0.084602952 0.60265017
-0.024796037 0.083332159 0.60500014
-0.016264541 0.083252527 0.60834622
-0.0023200002 0.082359999 0.60900003
0.00088649854 0.084462747 0.60841179
-0.035605721 0.090737149 0.60300004
-0.034259621 -0.2140487 0.61838293
-0.028009312 -0.21203895 0.61844444
-0.042151332 -0.20459837 0.61858064
-0.034788713 -0.20471719 0.61622751
-0.024994824 -0.20481592 0.61659706
-0.018374667 -0.20295429 0.61840004
-0.043083247 -0.19480003 0.61717653
-0.035144009 -0.19471538 0.61377454
-0.02506501 -0.19469894 0.61369836
-0.015817653 -0.19448894 0.61608338
-0.0094222231 -0.19197842 0.61833334
-0.044158254 -0.18473765 0.61663258
-0.035319746 -0.18527378 0.61204606
-0.025412342 -0.18615125 0.61150002
-0.014773394 -0.18528111 0.61309826
-0.0070121335 -0.18321963 0.61762971
-0.043917011 -0.1748119 0.61490196
-0.0388004 -0.1754273 0.61142111
-0.011962032 -0.17734514 0.61173338
-0.0054343478 -0.17689654 0.61490327
0.00064103905 -0.1759652 0.6170001
-0.043937001 -0.16878419 0.61569238
-0.039036192 -0.16895857 0.61175007
-0.01311971 0.076481916 0.61123085
-0.0061298558 0.077872306 0.61178279
0.0063366429 0.07643801 0.61514282
0.013554811 0.077353306 0.61437935
-0.012623779 0.084120072 0.61145175
-0.006104935 0.084734775 0.61198181
0.005899895 0.084656671 0.61461115
0.012754075 0.08227028 0.61505556
-0.0075895241 0.0916581 0.61299998
-0.040670477 -0.24163048 0.62800002
-0.0355644 -0.24182951 0.62803859
-0.029952383 -0.24081714 0.62900001
-0.051333331 -0.23316546 0.62856251
-0.044720609 -0.23444659 0.62652838
-0.035168912 -0.23486358 0.62589288
-0.025089335 -0.23479882 0.62731671
-0.018678477 -0.23300229 0.62860006
-0.052481148 -0.22457403 0.62780005
-0.044670917 -0.22502179 0.62408185
-0.034845185 -0.22482876 0.62145609
-0.025144873 -0.22505924 0.6246112
-0.017604833 -0.22433786 0.62750012
-0.052656911 -0.21486858 0.62656003
-0.045069166 -0.21494488 0.62232888
-0.036541905 -0.21800359 0.62012494
-0.024161905 -0.21583591 0.62252831
-0.015768163 -0.21449435 0.62435699
-0.0085996194 -0.21193524 0.62720007
-0.053655583 -0.20487908 0.62627506
-0.047377504 -0.20524432 0.62178373
-0.020076191 -0.2084381 0.62
-0.014073419 -0.20547302 0.6217171
-0.0074506998 -0.20469287 0.62447053
-0.053069681 -0.196116 0.6258387
-0.048048418 -0.19520083 0.6215806
-0.011658504 -0.19804464 0.62100005
-0.0063700811 -0.19494943 0.62360978
-0.052437954 -0.18427108 0.62400001
-0.049029529 -0.18526238 0.62024993
-0.0039318581 -0.18639027 0.62161279
0.00033795921 -0.18309171 0.62185717
-0.052506141 -0.17506872 0.62451726
-0.049077876 -0.17486534 0.62129414
-0.053200502 -0.16599359 0.62505263
-0.049523812 -0.16956954 0.62400001
0.047204953 -0.10435411 0.62900007
-0.03004762 -0.24338573 0.63100004
-0.026252991 -0.24178529 0.63181818
-0.05552014 -0.23213977 0.63264292
-0.016123034 -0.23392951 0.63137048
-0.060285717 -0.22245429 0.63300002
-0.057359487 -0.22429346 0.6315456
-0.013022076 -0.22583744 0.63187182
-0.0089616925 -0.22270478 0.63200003
-0.061284471 -0.21558037 0.63334996
-0.057300091 -0.21559703 0.63222587
-0.011769948 -0.21788931 0.63200003
-0.0080213752 -0.21660893 0.63177788
-0.06043905 -0.20762162 0.63250005
-0.058287147 -0.20561931 0.63174999
-0.057198279 -0.19438316 0.63300014
-0.056783371 -0.18761244 0.63246673
0.044812124 -0.12130927 0.63745457
0.044886369 -0.11536668 0.63613963
0.044192195 -0.1057207 0.63456678
-0.070787631 -0.093829051 0.63662499
-0.067340299 -0.093964241 0.6374616
-0.070152387 -0.088295244 0.63500011
-0.06728261 -0.087138452 0.6367895
0.036823638 -0.12415605 0.64607418
0.041794445 -0.12314969 0.64066678
0.037647091 -0.11521832 0.64609373
0.040836785 -0.11480072 0.64118749
-0.066264063 -0.10309204 0.64552635
0.037514348 -0.10517672 0.64581257
0.041156638 -0.10415104 0.64105892
-0.063528024 -0.095141068 0.64342117
-0.058914289 -0.09191905 0.64775002
0.037743431 -0.098607816 0.6455
0.041221905 -0.09893477 0.64125001
-0.062638894 -0.085300483 0.64100009
-0.057283197 -0.083760336 0.64502865
-0.057032384 -0.079116195 0.64400005
0.024929527 -0.13141467 0.6577
0.032438096 -0.13100001 0.65500003
0.028434645 -0.12625897 0.65723807
0.032289118 -0.12442332 0.65363634
-0.060995243 -0.11323357 0.65687507
-0.057757564 -0.11315133 0.65761119
0.028826667 -0.11468 0.65800005
0.032434151 -0.1148783 0.65388101
-0.062231172 -0.10485106 0.65188003
-0.057805497 -0.10487136 0.65682358
0.028971905 -0.10383096 0.65775001
0.032430425 -0.10480709 0.65299994
-0.060999524 -0.098157145 0.65025008
-0.055051737 -0.094837993 0.65481836
-0.048462223 -0.090657786 0.65800011
0.026458656 -0.093676314 0.65779436
0.032700863 -0.095646143 0.65502369
-0.052815132 -0.085975528 0.65247071
-0.046480004 -0.083780184 0.65647519
0.024073727 -0.087976374 0.65705884
-0.052770957 -0.078845948 0.65187496
-0.044555876 -0.078509845 0.65599996
-0.03645505 -0.07704515 0.6577
0.0055468902 -0.13664842 0.66899997
0.014580273 -0.13391179 0.66728586
0.02108537 -0.13201906 0.66181821
-0.051441431 -0.12150429 0.66275007
-0.044494543 -0.12280253 0.66693956
-0.038865715 -0.12535787 0.66900009
0.016188946 -0.12597197 0.66770738
0.023365593 -0.12468006 0.66175008
-0.053102765 -0.11542273 0.6615715
-0.045243833 -0.11508384 0.66700006
-0.039502859 -0.11978287 0.66900003
0.016736524 -0.11483796 0.66767573
0.023962075 -0.11507118 0.66232139
-0.052637734 -0.10535139 0.66149998
-0.045003477 -0.10495174 0.66639692
-0.038971908 -0.10396048 0.66900009
0.016507288 -0.10478 0.66677523
0.024086464 -0.10510845 0.66199988
-0.051395919 -0.098300956 0.66042864
-0.04474137 -0.095076732 0.66294545
-0.035639055 -0.094351463 0.66731274
0.0079259258 -0.092001706 0.66877788
0.014449096 -0.094960921 0.66593122
0.022320136 -0.096022576 0.66120684
-0.042181533 -0.086353488 0.66107696
-0.034913965 -0.084947363 0.6635763
-0.025005167 -0.0841382 0.66757154
-0.014362033 -0.08385174 0.6683045
-0.0041796565 -0.084816441 0.66899991
0.0044396189 -0.086042278 0.6667251
0.014255954 -0.087448463 0.6635626
0.020114286 -0.087371431 0.66000003
-0.033196058 -0.07854449 0.66128576
-0.02466619 -0.078440964 0.66420841
-0.016745716 -0.078917146 0.66609997
-0.11670057 0.069155052 0.66740006
-0.11808382 0.070935242 0.66900003
-0.032254096 -0.13081676 0.67199999
-0.024185851 -0.13202985 0.6732856
-0.014721475 -0.13314183 0.67212486
-0.0048933337 -0.13416037 0.67334878
0.0039954088 -0.1329785 0.67112821
0.010209525 -0.13144761 0.67000002
-0.034267217 -0.12446661 0.67113483
-0.025041969 -0.12522498 0.6742968
-0.014838947 -0.12529683 0.67516905
-0.0051708603 -0.12536076 0.67557889
0.0044810111 -0.12498111 0.67298442
0.011864524 -0.1239197 0.67041671
-0.0408381 -0.11485715 0.67000002
-0.035056856 -0.11492044 0.67136681
-0.025054939 -0.11501213 0.67465603
-0.014763237 -0.11522976 0.67634916
-0.005125334 -0.11509638 0.67561817
0.0044872612 -0.11485505 0.67373431
0.011852724 -0.11562348 0.67059988
-0.034388918 -0.10549828 0.67126536
-0.024937604 -0.10490731 0.67483848
-0.014810506 -0.10495114 0.67604667
-0.0051416322 -0.10474522 0.67473179
0.0044001341 -0.10497686 0.67266673
0.011488253 -0.10531254 0.67016667
-0.031824321 -0.097439125 0.67038465
-0.02508473 -0.094882615 0.67187929
-0.014740884 -0.094848402 0.67287505
-0.0051187174 -0.094696313 0.6717959
0.0039717467 -0.095550261 0.67049974
-0.02425728 -0.088733211 0.67028582
-0.015227076 -0.088805459 0.67014295
-0.0066496246 -0.087251127 0.67000002
0.00063809525 -0.089333333 0.67000002
-0.1145981 0.059230477 0.67600006
-0.12182392 0.067442119 0.6708889
-0.11497192 0.064975739 0.67458934
-0.1098362 0.064610668 0.67840004
-0.12257588 0.070863813 0.67033339
-0.11633676 0.070571437 0.6712001
-0.095706671 0.075382866 0.67900002
-0.096388578 0.059014291 0.68849999
-0.10485655 0.065451071 0.68565416
-0.095012374 0.064872384 0.68804669
-0.086461723 0.064251289 0.68892592
-0.076993018 0.062556833 0.68900001
-0.10340907 0.07225062 0.68552381
-0.09414763 0.07386177 0.6865682
-0.087798283 0.074346386 0.68900007
-0.09055429 0.080055244 0.68900001
-0.089241907 0.080055244 0.68900001
-0.083640441 0.067282945 0.6901114
-0.074670732 0.066044413 0.69100004
-0.065803871 0.066907577 0.69366688
-0.058293745 0.066719189 0.69557148
-0.026576383 0.069095619 0.69760007
-0.083077408 0.075225085 0.69050026
-0.075271212 0.075272366 0.69328594
-0.065218739 0.074714534 0.69354254
-0.055410769 0.075464733 0.69701785
-0.046978138 0.074797839 0.69709533
-0.030579051 0.073123813 0.69800007
-0.027089523 0.072207958 0.696706
-0.084311962 0.080515124 0.69044447
-0.074751124 0.081145242 0.69458342
-0.065849148 0.080334105 0.69139999
-0.05448262 0.081389762 0.69762498
-0.049121905 0.080984764 0.69700003
-0.052872859 0.028110795 0.70275009
-0.044911198 0.028825359 0.70387506
-0.036520552 0.02921878 0.70642859
-0.052021984 0.03317114 0.70307708
-0.044844355 0.034799624 0.70414537
-0.037487704 0.034734994 0.70730436
-0.05313259 0.047692593 0.70422232
-0.044807684 0.045088079 0.70424199
-0.034948267 0.045029934 0.70573264
-0.025490386 0.046263363 0.70695263
-0.053012177 0.054638989 0.70332152
-0.044860207 0.054904453 0.7030713
-0.034925174 0.055079415 0.70530635
-0.02462399 0.055335652 0.70690495
-0.018826669 0.053792384 0.70600003
-0.053316843 0.064878449 0.70118427
-0.044818778 0.064887129 0.70239037
-0.034827862 0.064968914 0.70328581
-0.025351407 0.06409663 0.70444906
-0.052761905 0.071619056 0.70000011
-0.042975109 0.073687077 0.70200008
-0.035038479 0.07498017 0.70213044
-0.02936127 0.077407628 0.70066679
-0.032000002 0.080000006 0.70000005
-0.032518335 0.028453812 0.711375
-0.028440002 0.028440002 0.71100003
-0.033007108 0.035455313 0.71065408
-0.027995355 0.035087999 0.71072012
-0.025695238 0.042938098 0.71000004
-0.028042078 0.053378187 0.71027279
-0.12774858 0.055542856 0.72900003
-0.13271068 0.068159819 0.72880006
-0.12768975 0.064615458 0.72866672
-0.13422857 0.071280003 0.72900003
-0.13143431 0.047089528 0.73799998
-0.12663324 0.04738763 0.73777801
-0.11770401 0.04887848 0.73740005
-0.10629334 0.047119599 0.73842871
-0.13400915 0.055262141 0.73429728
-0.12495487 0.054859541 0.73192602
-0.11513367 0.05463421 0.73509616
-0.10549613 0.054899953 0.73787498
-0.099291295 0.055221982 0.73900008
-0.13440874 0.064707108 0.73296165
-0.12370008 0.062169235 0.73345011
-0.11525314 0.062842131 0.73621875
-0.10618576 0.061819647 0.73763174
-0.09909638 0.06249829 0.73900002
-0.082828283 0.064444996 0.73800009
-0.077388577 0.063318372 0.73871434
-0.13604 0.071154289 0.73250002
-0.096971728 -0.10365026 0.74700004
-0.089760005 -0.10400762 0.74800003
-0.094123326 -0.096438579 0.74800009
-0.086249851 -0.09514413 0.74794573
-0.079786673 -0.094746672 0.74800003
-0.093654357 -0.085533217 0.74799985
-0.087677665 -0.086088516 0.74799997
-0.09369038 -0.075512394 0.74799985
-0.089047618 -0.077649526 0.74800009
-0.1011581 -0.061977148 0.74800003
-0.095089667 -0.064853057 0.74799991
-0.10157969 -0.057187095 0.74644452
-0.096961029 -0.056695495 0.74786681
-0.10258286 -0.046304762 0.74800003
-0.093538739 -0.04584017 0.74800003
-0.089760005 -0.042742856 0.74800003
-0.093568608 -0.034418669 0.74791992
-0.086468287 -0.034708276 0.74790895
-0.09455239 -0.027977144 0.74800009
-0.087622859 -0.029207619 0.74800009
-0.10240476 -0.012644762 0.74800009
-0.096578516 -0.012822857 0.74800009
-0.085485719 -0.01424762 0.74800003
-0.1025037 -0.0062531219 0.74800009
-0.095999479 -0.0051586214 0.74799985
-0.086267933 -0.0030847618 0.74722224
-0.10163301 0.004432593 0.74800009
-0.095279686 0.0051679364 0.74762964
-0.086894833 0.0040367735 0.74786085
-0.094657928 0.015458396 0.74770695
-0.085928917 0.014699395 0.74790925
-0.10293904 0.023152383 0.74800003
-0.095164105 0.025853548 0.7474544
-0.086134531 0.025484568 0.74744982
-0.10293061 0.039259866 0.74757153
-0.097142868 0.035134483 0.74780011
-0.085841902 0.03526286 0.74800003
-0.12301513 0.044368163 0.74203569
-0.11517141 0.04523439 0.74395031
-0.10232851 0.045014795 0.74219239
-0.094898894 0.045321241 0.74363279
-0.086053334 0.04639595 0.7470789
-0.079074293 0.049866669 0.74800003
-0.10148571 0.050742857 0.74000001
-0.094075359 0.055008512 0.74181408
-0.085052364 0.055280592 0.74422455
-0.078130864 0.055538673 0.74580002
-0.093786098 0.062588006 0.74165213
-0.086206958 0.062604479 0.74194998
-0.07627701 0.061543681 0.74157149
-0.093701072 -0.10379564 0.7507059
-0.089285716 -0.10142858 0.75000006
-0.10163143 -0.093755722 0.75150001
-0.096363649 -0.095238104 0.75000006
-0.082857147 -0.092857145 0.75000012
-0.10134096 -0.082720004 0.75200003
-0.098376624 -0.084610403 0.75000012
-0.083348982 -0.084979281 0.75075012
-0.10154128 -0.075087309 0.75083339
-0.098392859 -0.074642859 0.75000006
-0.085965715 -0.073941946 0.75151443
-0.10281444 -0.065139055 0.75042862
-0.096168838 -0.066558458 0.75000012
-0.085245311 -0.064914085 0.75248092
-0.10256667 -0.055033334 0.75050008
-0.095042028 -0.055210087 0.75000006
-0.085631207 -0.05530148 0.75235182
-0.078535788 -0.056592658 0.75357157
-0.1012818 -0.044117652 0.75141174
-0.096309535 -0.044285715 0.75000012
-0.086454354 -0.044612348 0.75317079
-0.1011261 -0.035666287 0.75199997
-0.097551025 -0.03581633 0.75000012
-0.085769519 -0.038597144 0.75050008
-0.10158731 -0.025396828 0.75000006
-0.096302517 -0.023025213 0.75000006
-0.086149499 -0.024074428 0.7510733
-0.10178572 -0.016785715 0.75000006
-0.094960518 -0.01566832 0.75006682
-0.086254172 -0.014460246 0.75037223
-0.10142858 -0.0028571431 0.75000006
-0.095238097 -0.006111112 0.75000006
-0.086470589 -0.0072268914 0.75000006
-0.10142858 0.0021428573 0.75000006
-0.099285722 0 0.75000006
-0.083786666 0.007274806 0.75018191
-0.10325033 0.015212533 0.75121051
-0.099591844 0.016326532 0.75000012
-0.085604601 0.014942384 0.75008339
-0.10424785 0.025403375 0.75050014
-0.099428579 0.021714287 0.75000006
-0.083809525 0.020238098 0.75000012
-0.11088 0.032400005 0.75600004
-0.10474494 0.033508513 0.75165629
-0.094606996 0.035205077 0.75100017
-0.085568108 0.0352492 0.75051439
-0.092857145 0.040000003 0.75000012
-0.084086053 0.041790698 0.75047064
-0.081950478 -0.051491909 0.7615
-0.078480005 -0.051593333 0.76300001
-0.082465723 -0.047538668 0.76090014
-0.078972623 -0.047748338 0.76250005
-0.11001905 0.034742858 0.76000011
