# .PCD v0.7 - Point Cloud Data file format
VERSION 0.7
FIELDS x y z
SIZE 4 4 4
TYPE F F F
COUNT 1 1 1
WIDTH 641
HEIGHT 1
VIEWPOINT 0 0 0 1 0 0 0
POINTS 641
DATA ascii
-0.055886302 -0.026563663 0.58861548
-0.041113652 -0.025417779 0.58866668
-0.03864 -0.02128 0.588
-0.090705715 -0.041074287 0.59900004
-0.083361357 -0.04196585 0.59892863
-0.074922085 -0.043075632 0.59817076
-0.064830907 -0.043346584 0.59710896
-0.054908067 -0.04395844 0.59698087
-0.045260772 -0.043726251 0.59758842
-0.036357529 -0.042440489 0.5985927
-0.029664762 -0.041074287 0.59900004
-0.10078414 -0.031186033 0.5990001
-0.093829066 -0.033890627 0.59767455
-0.085063517 -0.035132844 0.59582508
-0.074853055 -0.035214368 0.59402567
-0.065053701 -0.035014603 0.5933634
-0.055218294 -0.034911655 0.59284788
-0.045203179 -0.035041813 0.59332108
-0.035145264 -0.035155341 0.59524721
-0.025117218 -0.034833781 0.59683782
-0.015878927 -0.033109013 0.59776938
-0.10089048 -0.028500002 0.59850001
-0.095047466 -0.027479431 0.59710819
-0.0850088 -0.028319927 0.59380782
-0.07451418 -0.028528893 0.59122217
-0.064525947 -0.027497981 0.59064698
-0.054063912 -0.027470408 0.59088886
-0.045635946 -0.026659168 0.59139985
-0.035555299 -0.027786093 0.59136659
-0.024916301 -0.028881272 0.59461111
-0.01559797 -0.029012697 0.59653348
-0.084457055 -0.061233483 0.60819048
-0.074547231 -0.062703848 0.60806817
-0.064753793 -0.063661508 0.60745466
-0.054821383 -0.063866936 0.60773581
-0.045635682 -0.063277297 0.60780007
-0.036919367 -0.061174735 0.60826665
-0.10092001 -0.051040001 0.60900003
-0.093958192 -0.053912472 0.6076445
-0.084975891 -0.054713916 0.60583329
-0.075000778 -0.054794624 0.60415941
-0.064988911 -0.054659829 0.60297149
-0.055248719 -0.054802787 0.60261852
-0.044807442 -0.054583285 0.60319465
-0.03476679 -0.054869596 0.60498559
-0.025636982 -0.05391961 0.6066227
-0.018040953 -0.052004449 0.60783339
-0.11088222 -0.041919366 0.6085
-0.10408991 -0.04346808 0.60673916
-0.095156446 -0.045026358 0.60376823
-0.085397176 -0.04623428 0.60148156
-0.075250305 -0.047794141 0.60059267
-0.065154664 -0.047965415 0.60011548
-0.054655463 -0.04860504 0.60000002
-0.044131529 -0.048363328 0.60025007
-0.034368683 -0.046712413 0.60097569
-0.025125969 -0.044961218 0.60214287
-0.015184048 -0.044739399 0.60498714
-0.0070750266 -0.041945823 0.60794455
-0.12088048 -0.03101762 0.60875005
-0.11440991 -0.034220733 0.60657686
-0.10530739 -0.035226271 0.60318035
-0.09753409 -0.03694294 0.60117394
-0.020571429 -0.038857143 0.60000002
-0.013600809 -0.036857605 0.60124254
-0.0052403635 -0.035068724 0.60460341
0.0019744623 -0.032769877 0.60796309
-0.12177334 -0.027933545 0.60822225
-0.11480445 -0.028408807 0.60570842
-0.10479818 -0.027673582 0.60166669
-0.097304761 -0.024268953 0.60100001
-0.010666667 -0.028952381 0.60000002
-0.0059160325 -0.029415241 0.60166675
0.0017333333 -0.028880954 0.60650003
-0.073513769 -0.082294814 0.61840922
-0.065223865 -0.082883872 0.61803126
-0.054736614 -0.082653135 0.61775863
-0.04478636 -0.082322888 0.61812007
-0.037054181 -0.081048883 0.61866671
-0.092780612 -0.072610058 0.61800009
-0.084831797 -0.074230656 0.61622041
-0.074839577 -0.074659862 0.61492121
-0.065056473 -0.075242706 0.61431336
-0.054963809 -0.075435072 0.6139583
-0.044937711 -0.075277612 0.61459702
-0.035399452 -0.074654251 0.61645222
-0.025940029 -0.072652355 0.61821204
-0.10313744 -0.063629746 0.6177308
-0.094973005 -0.064976335 0.61459368
-0.085094377 -0.066103049 0.6123262
-0.075959742 -0.06753923 0.61181831
-0.065438844 -0.068740115 0.61166674
-0.054739896 -0.069297254 0.61144453
-0.044212516 -0.0682908 0.61161917
-0.034419756 -0.065569967 0.61238593
-0.025068283 -0.064997427 0.6141845
-0.016531065 -0.06411656 0.61725527
-0.0088428576 -0.060131431 0.61900002
-0.11361033 -0.053296413 0.61732346
-0.10490476 -0.054881435 0.61357576
-0.096910976 -0.057938449 0.61221063
-0.023125717 -0.058398113 0.61142862
-0.014585459 -0.055805843 0.61351663
-0.0058185891 -0.054017279 0.6159445
0.00047161905 -0.051592767 0.61840004
-0.12344997 -0.043217294 0.61769241
-0.11533478 -0.045215599 0.61355561
-0.10695571 -0.047651429 0.61173689
-0.01105619 -0.048880003 0.611
-0.0045130444 -0.045973126 0.61267406
0.0036410459 -0.044166021 0.61586279
0.010906192 -0.040971905 0.61900002
-0.13233319 -0.033261333 0.61743999
-0.12506476 -0.035343375 0.61466676
-0.11786181 -0.03812312 0.6115455
-0.0011638096 -0.039569527 0.611
0.005950944 -0.035953786 0.61292464
0.013035779 -0.034186926 0.61591893
-0.13356535 -0.028064856 0.61780012
-0.12754457 -0.028078098 0.61430001
0.011074286 -0.029142858 0.61200005
-0.081770003 -0.10138882 0.62900001
-0.074692957 -0.10230656 0.62854832
-0.065202504 -0.10229118 0.62809372
-0.054878406 -0.10245457 0.62813175
-0.046002954 -0.10183012 0.62894994
-0.039537143 -0.10064001 0.62900001
-0.092994645 -0.092396192 0.62843758
-0.084854886 -0.094654217 0.62698299
-0.074957162 -0.094635569 0.62520283
-0.064836569 -0.094398744 0.6237694
-0.055042844 -0.094658464 0.62417918
-0.045088835 -0.094647929 0.62584066
-0.03590988 -0.093998641 0.62712502
-0.028020477 -0.091944292 0.62825006
-0.10245345 -0.082507946 0.62827772
-0.094514675 -0.084943123 0.62556666
-0.084784999 -0.084790319 0.62253118
-0.076069385 -0.086158969 0.62118423
-0.064660959 -0.08724001 0.62059999
-0.05511919 -0.08711388 0.62042856
-0.044965066 -0.086878322 0.62165791
-0.034542114 -0.085467495 0.62300009
-0.025226636 -0.085099064 0.62601441
-0.016478181 -0.08223585 0.62818176
-0.11313282 -0.072633073 0.62790906
-0.10512633 -0.074754752 0.62531036
-0.096271768 -0.076233543 0.62153673
-0.08880762 -0.078651428 0.62
-0.030704763 -0.07912381 0.62
-0.023830233 -0.07699202 0.62158978
-0.014831642 -0.074834436 0.6248548
-0.0072779292 -0.072538219 0.62786961
-0.12181101 -0.06236868 0.62833339
-0.11488967 -0.064887136 0.62501669
-0.10635065 -0.066135071 0.62099999
-0.012640866 -0.066711441 0.62136364
-0.0052344394 -0.065021284 0.62500012
0.0020683121 -0.063123204 0.62849998
-0.13092256 -0.050692704 0.62866664
-0.12413117 -0.05465097 0.62579989
-0.11654279 -0.056915641 0.62141663
-0.002366286 -0.057999052 0.62140006
0.0049763219 -0.055269379 0.62552303
0.011182223 -0.051717781 0.62900001
-0.14017715 -0.040735241 0.62900001
-0.13397419 -0.04371554 0.62702858
-0.12622909 -0.046721905 0.62215161
0.0072947629 -0.047549721 0.62249994
0.014363893 -0.044197761 0.62591112
0.020744763 -0.041091431 0.62833333
-0.14221063 -0.033783495 0.62783343
-0.13694946 -0.035819825 0.62349999
0.017200086 -0.036658615 0.62263632
0.022255445 -0.034275241 0.62664288
-0.1446009 -0.028754286 0.62900013
-0.1367435 -0.027321061 0.62066668
0.026029935 -0.028328169 0.62617862
0.031842329 -0.028262014 0.62688893
-0.071202859 -0.12049714 0.63900006
-0.064913869 -0.12162859 0.63882613
-0.056249391 -0.1211057 0.63900006
-0.090474293 -0.11116572 0.63900006
-0.084319957 -0.11362551 0.63731432
-0.074921072 -0.11499373 0.63579649
-0.064769454 -0.11478187 0.6346491
-0.055039708 -0.11492274 0.63507164
-0.045018367 -0.11489965 0.63688713
-0.037068225 -0.11231681 0.63809085
-0.10142858 -0.10142858 0.63900006
-0.094199233 -0.10392462 0.63639027
-0.085294008 -0.10568385 0.63329422
-0.075330622 -0.10759954 0.63169694
-0.064964876 -0.1076759 0.63161123
-0.054916952 -0.10782867 0.63180023
-0.044838883 -0.10650823 0.63207334
-0.034858178 -0.10488028 0.63423425
-0.026015515 -0.1026899 0.6374644
-0.11136858 -0.090677142 0.63900006
-0.10378907 -0.094580375 0.63657153
-0.095743708 -0.095977619 0.63253671
-0.088039525 -0.099457622 0.63100004
-0.033051766 -0.098241456 0.63170594
-0.024197258 -0.095695056 0.6339801
-0.016614586 -0.093843922 0.63745725
-0.0097371433 -0.090068571 0.63900006
-0.12049714 -0.08033143 0.63900006
-0.11342089 -0.08456023 0.63693947
-0.10623987 -0.085782483 0.63272518
-0.099758096 -0.088940956 0.63100004
-0.020432381 -0.088940956 0.63100004
-0.014054573 -0.086462386 0.63350016
-0.0069316262 -0.083321244 0.63617247
-0.12294421 -0.073608495 0.63695836
-0.11593072 -0.07660865 0.63265729
-0.0044775088 -0.076429553 0.63276935
0.0016006927 -0.074073598 0.63700002
-0.13124572 -0.063316382 0.63800001
-0.12546423 -0.065052204 0.63333338
0.0051148469 -0.065780446 0.63332361
0.012123811 -0.060603179 0.63633335
-0.14118858 -0.051120002 0.63900006
-0.13408904 -0.054558776 0.63418931
-0.12810452 -0.05758762 0.63150007
0.0090142861 -0.058893334 0.63100004
0.014638358 -0.05466108 0.63415927
-0.1440479 -0.043880209 0.63607156
-0.13735089 -0.047233861 0.63222224
0.01775543 -0.047637079 0.63260007
0.023286754 -0.04466309 0.63627279
-0.15162446 -0.034006983 0.6376667
-0.14639363 -0.035614084 0.63323694
0.026457421 -0.035965495 0.63294297
0.032172225 -0.03287778 0.63733339
-0.063172996 -0.14126961 0.64799994
-0.056653719 -0.14120229 0.64799994
-0.082860485 -0.13189827 0.64766669
-0.074432254 -0.13374567 0.64654022
-0.064813539 -0.13517705 0.64564908
-0.054697312 -0.13476147 0.64566684
-0.045824241 -0.13335168 0.64672488
-0.039173335 -0.13170953 0.64775002
-0.09196458 -0.1235251 0.64719999
-0.085284598 -0.12499993 0.64496374
-0.075328141 -0.12484726 0.64187038
-0.065209717 -0.12669559 0.64066672
-0.054935746 -0.12579714 0.64093995
-0.044875965 -0.12479153 0.64282781
-0.035594478 -0.12467996 0.64624494
-0.028960001 -0.12077333 0.64700001
-0.10230596 -0.1130844 0.64662504
-0.095377587 -0.11515897 0.64401823
-0.085932337 -0.11804392 0.64063168
-0.041447621 -0.11946668 0.64000005
-0.034002952 -0.11629267 0.64165014
-0.025491534 -0.11450955 0.64503586
-0.018950714 -0.11232334 0.64712501
-0.11198914 -0.10250401 0.64679998
-0.10485728 -0.10500696 0.64356095
-0.097567894 -0.10733388 0.64085716
-0.030476192 -0.10971429 0.64000005
-0.024093989 -0.10691974 0.64137948
-0.015672529 -0.1048063 0.6455577
-0.0098742861 -0.10182858 0.648
-0.12157714 -0.090719998 0.648
-0.11426041 -0.094691239 0.64410263
-0.1078713 -0.096805446 0.64042866
-0.013545319 -0.097238094 0.64179182
-0.0065361923 -0.09443339 0.64575016
-0.12339455 -0.084368676 0.64513791
-0.11786231 -0.086243249 0.64141178
-0.0038431978 -0.086758308 0.64246434
0.0022545243 -0.083185799 0.6445834
-0.13296151 -0.07353127 0.64608341
-0.12692481 -0.076088913 0.64220005
0.006435818 -0.075256243 0.6435855
0.012560714 -0.072431661 0.64725
-0.14187048 -0.060448892 0.64766669
-0.13565935 -0.065665312 0.64373696
-0.12860954 -0.069485717 0.64000005
0.0088839838 -0.067182519 0.64127278
0.014991323 -0.06455154 0.64371127
0.021567143 -0.061002858 0.64700001
-0.14397684 -0.054531798 0.64477152
-0.13784084 -0.057852268 0.64166671
0.018344764 -0.057474446 0.64200014
0.023247076 -0.053589452 0.64353585
-0.15329657 -0.04377313 0.64684218
-0.14722537 -0.046439603 0.64242113
0.027432695 -0.045905001 0.64125001
0.032523513 -0.042604111 0.64489478
-0.16116168 -0.033715479 0.64649999
-0.15591483 -0.035000823 0.64437848
0.035698995 -0.036145154 0.64455831
0.041617494 -0.035110999 0.64781815
-0.16155715 -0.029485716 0.64500004
-0.15537715 -0.028947618 0.64441669
-0.062948577 0.0095657138 0.648
-0.057306129 0.0095216325 0.64800006
-0.06340573 0.013302858 0.64799994
-0.057296842 0.013057444 0.64799988
-0.063668579 0.032811437 0.64799994
-0.057482455 0.033678375 0.64800006
-0.081731431 -0.15132038 0.65710008
-0.07592421 -0.15257542 0.65612507
-0.066211432 -0.15109 0.65375006
-0.056538098 -0.15066737 0.65237498
-0.044308994 -0.15055557 0.65444446
-0.091834076 -0.14248085 0.65744448
-0.085103206 -0.14471875 0.65551007
-0.075188197 -0.14528897 0.65292728
-0.065535501 -0.14592923 0.65133345
-0.054799896 -0.14577869 0.65097833
-0.0450726 -0.14534454 0.65361297
-0.037668571 -0.14299239 0.65714288
-0.10146858 -0.13069843 0.65766668
-0.094207063 -0.13440514 0.65474427
-0.085684769 -0.13614807 0.6514762
-0.075965993 -0.13902041 0.65000004
-0.043996952 -0.13794808 0.65070003
-0.034865223 -0.13524759 0.65383333
-0.027147243 -0.13249697 0.65684998
-0.11083619 -0.12085429 0.65750003
-0.10405235 -0.12401376 0.65494597
-0.096550785 -0.12596218 0.65169448
-0.031687349 -0.12763673 0.65057153
-0.025231274 -0.12517145 0.65356368
-0.018736904 -0.12196143 0.65587503
-0.11247194 -0.11357278 0.65564704
-0.10691407 -0.1158208 0.65244448
-0.021481907 -0.11856636 0.65066671
-0.015256345 -0.11490041 0.65386063
-0.0081433337 -0.1108781 0.65775007
-0.12344953 -0.10189076 0.65750003
-0.11573677 -0.10567071 0.6537028
-0.10859555 -0.10859555 0.6503334
-0.011460952 -0.10810715 0.65050006
-0.0065590744 -0.10466427 0.65391904
-0.13087429 -0.090171427 0.65750003
-0.12460834 -0.095098242 0.65432519
-0.11795619 -0.098115481 0.65100008
-0.0027453066 -0.097065859 0.65092868
0.0028408086 -0.09357357 0.65424246
0.010026667 -0.090240002 0.65800005
-0.13299024 -0.084482223 0.65583336
-0.12795453 -0.087118097 0.65337503
0.0062705856 -0.086030051 0.65428579
0.01092 -0.084630653 0.65690917
-0.13614325 -0.07657817 0.65333343
0.0095022228 -0.07890667 0.65066671
0.01557103 -0.074422553 0.65521044
0.020548573 -0.072420955 0.65780002
-0.14485715 -0.060666669 0.65000004
0.018797334 -0.068091623 0.65350002
0.024177004 -0.064051636 0.65648144
-0.14686249 -0.05879429 0.65120006
0.026960988 -0.056151159 0.65396005
0.033211995 -0.053732909 0.65659255
-0.15859842 -0.041921273 0.65050006
0.029942859 -0.049904764 0.65500003
0.035966042 -0.046053331 0.6543715
0.042650957 -0.041550718 0.65612501
-0.15971431 -0.037142858 0.65000004
0.039619051 -0.039619051 0.65000004
0.043021772 -0.03891347 0.65600002
-0.074180447 -0.012476194 0.65749997
-0.06508515 -0.013857718 0.65680021
-0.055608273 -0.01289051 0.65631044
-0.048625581 -0.011620137 0.65700001
-0.082339503 -0.004108191 0.6573599
-0.074758604 -0.005201689 0.65450954
-0.065298691 -0.0056032441 0.65298444
-0.055384703 -0.0056066653 0.65342194
-0.046520364 -0.0048925006 0.65572929
-0.084097676 0.0048672883 0.65593892
-0.075161539 0.0049673561 0.65220857
-0.065293767 0.0043747616 0.65059412
-0.054906037 0.00446025 0.6508311
-0.045282289 0.0050330926 0.65465331
-0.03904343 0.0087592397 0.65700006
-0.090240002 0.016293334 0.65800005
-0.084935583 0.015067552 0.65553474
-0.07514783 0.015525952 0.65207839
-0.066020571 0.017032174 0.6499998
-0.054094873 0.01648178 0.6500442
-0.045332771 0.015526994 0.65212518
-0.037988033 0.01532149 0.65662509
-0.090240002 0.021306669 0.65800011
-0.084894404 0.025155811 0.65556365
-0.075073473 0.025436163 0.65142214
-0.065026946 0.025391188 0.65028143
-0.055132393 0.025396287 0.65042216
-0.045013417 0.02537811 0.65342039
-0.038281806 0.02451038 0.6572631
-0.084759809 0.034842316 0.65601939
-0.075094856 0.035373509 0.65160954
-0.065261878 0.035833333 0.64999986
-0.054786112 0.035474624 0.65007025
-0.045109186 0.035320714 0.6542092
-0.038520008 0.033302065 0.65766668
-0.084313661 0.044801868 0.65615243
-0.075151667 0.045339677 0.65212524
-0.065085232 0.045249246 0.6508283
-0.055161472 0.045247938 0.65081269
-0.044867396 0.045127008 0.65518928
-0.038495243 0.043508574 0.65800011
-0.083017357 0.054233018 0.65703702
-0.075211376 0.055304941 0.65385491
-0.06513916 0.055213049 0.65135962
-0.055181764 0.055186771 0.65106273
-0.045025129 0.055119008 0.65592748
-0.080873653 0.063746795 0.65793341
-0.074832417 0.065353818 0.65599996
-0.065360181 0.065359801 0.65356243
-0.055324949 0.065438986 0.65424603
-0.046353295 0.064256154 0.65697831
-0.080213338 0.070186667 0.65800005
-0.075066581 0.074641168 0.65681988
-0.06537836 0.075301833 0.65529495
-0.05521322 0.075270526 0.65616417
-0.047213841 0.074016884 0.65750003
-0.072030343 0.08382646 0.65786225
-0.064747013 0.085212968 0.65672415
-0.055058751 0.084554933 0.65723765
-0.048880003 0.080213338 0.65800005
-0.072923176 0.090735659 0.65755558
-0.065585338 0.090742104 0.65710008
-0.055380195 0.090212576 0.65780002
-0.095446922 -0.15140729 0.66645461
-0.087640829 -0.15139592 0.66000009
-0.034558039 -0.15286212 0.6641292
-0.028372701 -0.15224478 0.66700006
-0.10156222 -0.14240064 0.66650003
-0.095343888 -0.14579059 0.66259456
-0.03355391 -0.14595948 0.66172504
-0.025998643 -0.14449017 0.66678959
-0.016929796 -0.14071757 0.66900009
-0.1104762 -0.13206604 0.66666669
-0.10438515 -0.13392134 0.66183335
-0.098638646 -0.13834614 0.66028577
-0.03017143 -0.13954286 0.66000003
-0.023670686 -0.13619277 0.6627028
-0.017595239 -0.13442849 0.66705
-0.12105715 -0.12105715 0.66900003
-0.11466286 -0.1236819 0.667
-0.10817975 -0.12752521 0.66109091
-0.020543493 -0.12913208 0.6603334
-0.014430229 -0.12539954 0.66410875
-0.0079233339 -0.12074143 0.66549999
-0.12213811 -0.11479831 0.66677779
-0.11732604 -0.11559382 0.66320837
-0.011212123 -0.11738772 0.66072726
-0.0051648398 -0.11463112 0.66508126
0.0011460952 -0.11222477 0.66800004
-0.12275852 -0.107469 0.66288894
-0.11960953 -0.10953715 0.66100001
-0.0023380956 -0.10624654 0.66121429
0.0021748694 -0.10501689 0.66658068
-0.1329433 -0.093129829 0.66276926
-0.12948573 -0.095542863 0.66000003
0.0063830949 -0.095600009 0.662
0.010057143 -0.091771431 0.66000003
-0.14157873 -0.082044765 0.66266674
-0.1375912 -0.085008688 0.66118753
0.014880635 -0.08339978 0.66307402
0.02032762 -0.08004 0.66700006
-0.14174992 -0.076861523 0.66150004
-0.13933524 -0.078900322 0.66100007
0.01677195 -0.077869959 0.66327268
0.022674669 -0.073157087 0.66140008
0.025394289 -0.06688001 0.66000003
0.03017143 -0.060342859 0.66000003
0.038371906 -0.047179051 0.66050005
0.040903814 -0.047196664 0.66075003
-0.092385717 -0.020388572 0.66900003
-0.084871113 -0.020793017 0.66833341
-0.074161798 -0.022703987 0.66553134
-0.065176837 -0.022565253 0.66391897
-0.055150729 -0.022779536 0.66623098
-0.048464037 -0.022422567 0.66823089
-0.092889406 -0.014033749 0.66774994
-0.08494316 -0.014426865 0.66418964
-0.07578858 -0.016764347 0.66106248
-0.064623244 -0.018272385 0.66006666
-0.054546811 -0.017313536 0.66271436
-0.044963539 -0.014397904 0.66388023
-0.037562992 -0.011615919 0.66692859
-0.093000449 -0.0049752388 0.6653077
-0.086991236 -0.0059206989 0.66123331
-0.041392267 -0.0059258263 0.66088241
-0.035557531 -0.0048214793 0.66434044
-0.094165772 0.0046071438 0.66333342
-0.089019231 0.0036457144 0.66009998
-0.040228572 0.0018857144 0.66000003
-0.034524962 0.0042225132 0.66306555
-0.028034687 0.0054815044 0.6674211
-0.10113459 0.016831534 0.66833341
-0.095180191 0.014349583 0.66358829
-0.032977279 0.014031286 0.66347516
-0.027736826 0.012988889 0.66694444
-0.10112871 0.022008438 0.6684286
-0.094955072 0.024769561 0.66359627
-0.033494607 0.024829164 0.66214585
-0.027987894 0.026987758 0.66571426
-0.10109334 0.038228571 0.66900003
-0.094718792 0.034920745 0.66394448
-0.089257143 0.037714288 0.66000003
-0.033845395 0.034874931 0.6619246
-0.027810054 0.0347149 0.66608
-0.10066857 0.040777143 0.66900003
-0.094257951 0.044713642 0.66425532
-0.089117453 0.045117464 0.66000003
-0.034211461 0.044944055 0.66282451
-0.028112821 0.043442056 0.66623074
-0.093303382 0.054492269 0.66528136
-0.087670825 0.055435855 0.66089278
-0.03538176 0.054986458 0.66362506
-0.092031904 0.065111898 0.667
-0.086179607 0.065086037 0.66187513
-0.041592836 0.06598831 0.66076189
-0.03581313 0.064544275 0.66520846
-0.029308572 0.061165716 0.66900003
-0.090909787 0.073467195 0.66709089
-0.084610894 0.075135909 0.6629445
-0.0792 0.078571431 0.66000003
-0.042554669 0.075386889 0.66214293
-0.037150018 0.07476797 0.66703045
-0.090474293 0.080280006 0.66900003
-0.08407139 0.084940858 0.66557157
-0.076938763 0.085526697 0.6603142
-0.050495245 0.087161914 0.66000009
-0.04484063 0.085083485 0.66216385
-0.038411852 0.084862024 0.66722232
-0.085162111 0.091429211 0.6661666
-0.077982865 0.091188893 0.6603334
-0.050914288 0.090514287 0.66000003
-0.047891431 0.090742856 0.66166675
-0.10153334 -0.15070286 0.67050004
-0.098266669 -0.15314287 0.67000002
-0.023328785 -0.15216984 0.67227775
-0.018230096 -0.15187468 0.67399997
-0.10360068 -0.1456265 0.67064995
-0.022304442 -0.1469126 0.67133331
-0.01624913 -0.1461162 0.67617238
-0.11328097 -0.13290858 0.67200011
-0.013446825 -0.13490945 0.67270839
-0.0080271438 -0.13132048 0.67425001
-0.1212381 -0.12251429 0.67000002
-0.11687457 -0.12581159 0.67030776
-0.010214604 -0.12725589 0.67033339
-0.0063277599 -0.12637353 0.67496288
-0.0044666668 -0.11868572 0.67000002
0.0058773342 -0.10247315 0.67080003
0.014213783 -0.092421956 0.67117649
0.016053334 -0.087020412 0.67042863
0.021269843 -0.081250802 0.67000002
-0.084089525 -0.030811429 0.67400002
-0.079071432 -0.030857144 0.67500001
-0.090744764 -0.021088572 0.671
-0.084753342 -0.024791325 0.67261535
-0.077674523 -0.026508925 0.67262495
-0.06467057 -0.02718737 0.67126304
-0.054920003 -0.02682 0.67050004
-0.044483427 -0.022945711 0.67115003
-0.037582863 -0.021522222 0.67458338
-0.095714286 -0.012761905 0.67000002
-0.041993096 -0.018043334 0.67062503
-0.035175573 -0.015092141 0.6728
-0.029297143 -0.011823239 0.67460006
-0.10182763 -0.0033650002 0.67350006
-0.098070741 -0.0050505623 0.6706363
-0.031089948 -0.0063904761 0.6707778
-0.028303163 -0.0047881706 0.67221057
-0.10169755 0.0046007619 0.67186666
-0.09942048 0.0033502383 0.67025006
-0.027820954 0.00051047624 0.67000002
-0.10215215 0.013725238 0.67037505
-0.026422739 0.017642621 0.67056251
-0.1038 0.026165556 0.67412496
-0.099542864 0.028076192 0.67000002
-0.025412044 0.02402403 0.67205894
-0.10267227 0.033813223 0.67376471
-0.099542864 0.031266667 0.67000002
-0.10149525 0.043406904 0.67025006
-0.099117465 0.046368256 0.67000002
-0.027213495 0.048350163 0.67241669
-0.10023619 0.057829209 0.67466676
-0.097349837 0.057301275 0.671
-0.030628575 0.055514287 0.67000002
-0.026797369 0.053788744 0.67382354
-0.013968 0.052768003 0.67900002
-0.10013714 0.068683811 0.67400002
-0.096693538 0.065094694 0.67135495
-0.031698007 0.066880867 0.67054552
-0.028799709 0.064185351 0.67084622
-0.10013714 0.070609525 0.67400002
-0.094505139 0.074574225 0.67149991
-0.032547444 0.074604377 0.67059261
-0.029440001 0.071680009 0.67200011
-0.093954295 0.084814727 0.67432356
-0.088963822 0.086027816 0.67010003
-0.035253908 0.083239436 0.67233336
-0.063776195 -0.18280001 0.68877786
-0.063648075 -0.17645924 0.68868005
-0.064291485 -0.16480899 0.68805546
-0.059057146 -0.16142286 0.68900001
-0.064696513 -0.15945208 0.68616676
-0.013028572 -0.13810286 0.68400002
-0.11063492 0.026684765 0.6833334
-0.10851886 0.026517335 0.68230003
-0.017087473 0.054460078 0.6820001
-0.032780536 0.087752379 0.68533337
-0.029314287 0.087291434 0.68400002
-0.097802252 0.093174718 0.68545455
-0.033443034 0.093141817 0.68609089
-0.061159998 -0.19096002 0.69300002
-0.056271434 -0.19067429 0.69516671
-0.073002189 -0.1829083 0.69680959
-0.064754345 -0.18604222 0.69078594
-0.05524436 -0.18485256 0.69623727
-0.048884574 -0.18225487 0.69740003
-0.073743314 -0.17527212 0.69679415
-0.065433607 -0.17451429 0.69070601
-0.054933131 -0.17487371 0.69725466
-0.048574608 -0.17581938 0.69708335
-0.072289526 -0.16634144 0.69600004
-0.064990237 -0.16628535 0.69066674
-0.055059012 -0.16539237 0.69624996
-0.047626533 -0.1637928 0.69585723
-0.045342859 -0.15902857 0.69000006
-0.080802456 -0.18223402 0.70200008
-0.076560423 -0.1860597 0.70105565
-0.05073905 -0.18693334 0.70100003
-0.049403813 -0.18693334 0.70100003
-0.080782317 -0.1749173 0.70100009
-0.076941177 -0.17411765 0.69999993
-0.056000002 -0.17733334 0.70000005
-0.048666667 -0.17066668 0.70000005
-0.081282333 -0.1680599 0.70211112
-0.07702224 -0.16676128 0.70039999
-0.048 -0.16933334 0.70000005
