# .PCD v0.7 - Point Cloud Data file format
VERSION 0.7
FIELDS x y z
SIZE 4 4 4
TYPE F F F
COUNT 1 1 1
WIDTH 1521
HEIGHT 1
VIEWPOINT 0 0 0 1 0 0 0
POINTS 1521
DATA ascii
0.77805716 0.34486857 2.2080002
0.78436571 0.34486857 2.2080002
0.79487997 0.34486863 2.2080002
0.8032915 0.34486857 2.2080002
0.29860574 0.35538286 2.2080002
0.77805716 0.35538286 2.2080002
0.78436577 0.35538286 2.2080002
0.79487997 0.35538289 2.2080002
0.80329144 0.35538286 2.2080002
0.29860574 0.3637943 2.2080002
0.77805716 0.3637943 2.2080002
0.78366476 0.36309335 2.2080002
0.79488009 0.36169145 2.2080002
0.29755431 0.37536001 2.2080002
0.76796347 0.37514973 2.2080002
0.77490288 0.37325716 2.2080002
0.78226286 0.37010288 2.2080002
0.79698288 0.37010288 2.2080002
0.29860574 0.38482288 2.2080002
0.7675429 0.38482288 2.2080002
0.77385145 0.38482288 2.2080002
0.29650289 0.39533716 2.2080002
0.76596576 0.39533713 2.2080002
0.77385145 0.39533713 2.2080002
0.29860574 0.40795431 2.2080002
0.76544005 0.40585145 2.2080002
0.77385145 0.40585142 2.2080002
0.29860574 0.41426289 2.2080002
0.7675429 0.41426286 2.2080002
0.77525336 0.41496384 2.2080002
0.78436577 0.41636574 2.2080002
0.79487997 0.41426286 2.2080002
0.29608232 0.42393598 2.2080002
0.75282288 0.42477715 2.2080002
0.7647391 0.42617908 2.2080002
0.77595431 0.42477712 2.2080002
0.78436577 0.4226743 2.2080002
0.79207629 0.42197335 2.2080002
0.29440001 0.43529144 2.2080002
0.76544005 0.43529144 2.2080002
0.77595431 0.43529144 2.2080002
0.78436577 0.43529144 2.2080002
0.29440001 0.4447543 2.2080002
0.75422478 0.4444038 2.2080002
0.76544005 0.44370291 2.2080002
0.77385145 0.44160002 2.2080002
0.29650286 0.45421717 2.2080002
0.7538743 0.45316574 2.2080002
0.76263624 0.45141336 2.2080002
0.29860574 0.46473145 2.2080002
0.74441147 0.46473145 2.2080002
0.75492573 0.46473145 2.2080002
0.76123434 0.46473145 2.2080002
0.29720384 0.47524571 2.2080002
0.74651432 0.47524571 2.2080002
0.75492573 0.47524574 2.2080002
0.76491433 0.47577146 2.2080002
0.77525336 0.47804955 2.2080002
0.78436577 0.4773486 2.2080002
0.29229715 0.48576003 2.2080002
0.74546289 0.48470858 2.2080002
0.75492573 0.48576003 2.2080002
0.76649147 0.48470858 2.2080002
0.77595431 0.48576 2.2080002
0.78226286 0.48576003 2.2080002
0.74020576 0.49627429 2.2080002
0.75492573 0.49417144 2.2080002
0.76544005 0.49417141 2.2080002
0.77595431 0.49417144 2.2080002
0.74651432 0.50468582 2.2080002
0.75492573 0.50468582 2.2080002
0.76596576 0.50521147 2.2080002
0.77385145 0.50468576 2.2080002
0.75492573 0.51309717 2.2080002
0.76403815 0.51449907 2.2080002
0.77385145 0.51520002 2.2080002
0.36589715 0.52992004 2.2080002
0.80663145 -0.033874288 2.223
0.81721717 -0.033874288 2.223
0.8087486 -0.02964 2.223
0.81510007 -0.02964 2.223
0.82653254 -0.024558857 2.223
0.83627146 -0.023288574 2.223
0.8278029 -0.016937144 2.223
0.83697718 -0.015525716 2.223
0.84262288 -0.014820001 2.223
0.86802858 -0.012702858 2.223
0.8722629 -0.012702858 2.223
0.84474003 -0.006351429 2.223
0.85109144 -0.006351429 2.223
0.8722629 -0.0084685721 2.223
0.83838862 0.002117143 2.223
0.84473997 0.004234286 2.2229998
0.85426718 0.006351429 2.223
0.86379433 0.0084685721 2.223
0.84544581 0.015525716 2.223
0.8553257 0.015243429 2.223
0.86379433 0.014820001 2.223
0.84473997 0.025405718 2.2229998
0.8553257 0.025405716 2.2229998
0.86548805 0.026252573 2.223
0.84474003 0.03599143 2.223
0.8553257 0.033874288 2.223
0.86591148 0.033874288 2.223
0.84474003 0.044460002 2.223
0.86802858 0.046577144 2.223
0.8722629 0.046577144 2.223
0.84473997 0.05504572 2.2229998
0.85638428 0.055045716 2.223
0.86802858 0.052928574 2.223
0.8722629 0.055045713 2.223
0.84544581 0.066337146 2.223
0.83838862 0.074100003 2.223
0.84474003 0.074100003 2.223
0.85250288 0.074805714 2.223
0.83733004 0.085744284 2.223
0.84473997 0.084685721 2.2229998
0.8532086 0.082568571 2.223
0.83627146 0.095271431 2.223
0.84474003 0.095271431 2.223
0.8532086 0.097388573 2.223
0.83697718 0.10303429 2.223
0.84403437 0.10303429 2.223
0.85532576 0.10162286 2.223
0.83627146 0.11326715 2.223
0.83415431 0.15243429 2.223
0.83697718 0.16654857 2.223
0.82850862 0.17642857 2.223
0.83415431 0.17572287 2.223
0.82653254 0.18461487 2.223
0.83415431 0.18419144 2.223
0.82621497 0.19424786 2.2229998
0.83415431 0.19477715 2.223
0.82992005 0.20536287 2.223
0.83415431 0.20536287 2.223
0.82992005 0.2117143 2.223
0.83415431 0.21383144 2.223
0.82992005 0.22441715 2.223
0.29357716 0.23429716 2.223
0.82653266 0.23542628 2.223
0.29498857 0.24276572 2.223
0.30063429 0.24982287 2.223
0.81721717 0.24770573 2.223
0.82356858 0.24558859 2.2229998
0.30063429 0.25405714 2.223
0.81721717 0.25405714 2.223
0.82356858 0.25617427 2.223
0.30063429 0.26252574 2.223
0.82356858 0.26252574 2.223
0.29428285 0.27522862 2.223
0.80451429 0.27946287 2.223
0.81721717 0.27946287 2.223
0.8278029 0.27522859 2.223
0.83697718 0.27805144 2.223
0.84262288 0.27734572 2.223
0.29216573 0.28581429 2.223
0.80536115 0.28539085 2.223
0.81510007 0.28581429 2.223
0.82568574 0.28581429 2.2229998
0.83556575 0.28510857 2.223
0.28793144 0.29428285 2.223
0.29216573 0.29428285 2.223
0.8087486 0.29428285 2.223
0.81721717 0.29428285 2.223
0.82568574 0.29428285 2.223
0.29428285 0.30486858 2.223
0.80769002 0.30381 2.223
0.8143943 0.3020457 2.223
0.82145149 0.30063429 2.223
0.28793144 0.31333715 2.223
0.29640001 0.3154543 2.223
0.29640001 0.32392287 2.223
0.30063429 0.32392287 2.223
0.29640001 0.33450857 2.223
0.30063429 0.33027428 2.223
0.29640001 0.34509432 2.223
0.29640001 0.35567999 2.223
0.29640001 0.36626571 2.223
0.29640001 0.37473428 2.223
0.2949886 0.38532004 2.223
0.29640001 0.39590573 2.223
0.29428285 0.4043743 2.223
0.29640001 0.41496003 2.223
0.29216573 0.42554575 2.223
0.77487433 0.42554575 2.223
0.28793144 0.43613145 2.223
0.29216573 0.43401432 2.223
0.78757715 0.43189716 2.223
0.79463434 0.4333086 2.223
0.28793144 0.44460002 2.223
0.29216573 0.44248289 2.223
0.29216573 0.45518571 2.223
0.29428285 0.46365428 2.223
0.29640001 0.47635716 2.223
0.28793144 0.48482573 2.223
0.29216573 0.48482573 2.223
0.76640576 0.49117717 2.223
0.77064002 0.49117717 2.223
0.74382287 0.50670284 2.223
0.77064002 0.51658285 2.223
0.77275717 0.52081716 2.223
0.80532002 -0.034087621 2.237
0.8181029 -0.034087621 2.237
0.82520455 -0.036928255 2.237
0.8342945 -0.035792001 2.237
0.84579909 -0.034087621 2.237
0.85219049 -0.034087621 2.237
0.86710382 -0.034087621 2.237
0.83514673 -0.029826665 2.237
0.84686428 -0.026630953 2.237
0.854321 -0.025565714 2.2369998
0.86550611 -0.026098333 2.2369998
0.87349528 -0.025565714 2.237
0.854321 -0.014913334 2.237
0.86497331 -0.014913333 2.2369998
0.87349528 -0.01704381 2.237
0.86497337 -0.0063914289 2.2369998
0.87349528 -0.0063914289 2.237
0.85645145 0.0042609526 2.237
0.86497337 0.0021304763 2.2369998
0.87349528 0.0021304763 2.237
0.86071241 0.012782858 2.237
0.85645145 0.038348574 2.237
0.86497337 0.038348574 2.237
0.87349528 0.038348574 2.237
0.85645145 0.044739999 2.237
0.86497337 0.044739995 2.2369998
0.87562573 0.042609524 2.237
0.85645145 0.053261906 2.237
0.86497337 0.055392385 2.237
0.85645145 0.066044763 2.237
0.86213273 0.066754922 2.237
0.86355305 0.07385651 2.237
0.85645145 0.089480005 2.237
0.86619085 0.08582776 2.2369998
0.87349528 0.085219055 2.237
0.85645145 0.093740955 2.237
0.86582547 0.095445335 2.237
0.87349528 0.095871434 2.237
0.85503119 0.10510349 2.237
0.86582553 0.10481943 2.237
0.87349528 0.10439333 2.237
0.84686434 0.11611095 2.237
0.85219049 0.11078477 2.237
0.86923432 0.11078477 2.237
0.87349528 0.11078477 2.237
0.84579903 0.1256981 2.237
0.86071241 0.12782858 2.237
0.84579909 0.13422 2.237
0.86213273 0.13493016 2.237
0.84579903 0.14487238 2.2369998
0.84579909 0.15552476 2.237
0.84792954 0.16404667 2.237
0.84622514 0.17555125 2.237
0.84508896 0.18464129 2.237
0.84366858 0.19387335 2.237
0.29826668 0.20878668 2.237
0.84366864 0.20452572 2.237
0.29826668 0.2151781 2.237
0.84366858 0.21304762 2.237
0.83940762 0.22370002 2.237
0.83940762 0.23435239 2.237
0.83656698 0.2442946 2.237
0.29826668 0.25991809 2.237
0.83514673 0.25565717 2.237
0.29826668 0.26630953 2.237
0.83727717 0.26630953 2.237
0.84579909 0.26844001 2.237
0.85219049 0.26844001 2.237
0.83798736 0.27412128 2.237
0.84579909 0.27270097 2.237
0.85219049 0.27270097 2.237
0.28974476 0.28548381 2.237
0.28974476 0.30465811 2.237
0.28974476 0.31104952 2.237
0.29400572 0.31531048 2.237
0.29400572 0.32596287 2.237
0.29400572 0.33448479 2.237
0.29400572 0.34300667 2.237
0.29400572 0.35578954 2.237
0.29400572 0.36218098 2.237
0.29400572 0.3770943 2.237
0.29400572 0.38774669 2.237
0.29400572 0.3941381 2.237
0.29400572 0.40479049 2.237
0.29400572 0.41544288 2.237
0.29400572 0.42183429 2.237
0.28974476 0.43248668 2.237
0.28974476 0.4474 2.237
0.28974476 0.45592192 2.237
0.28974476 0.46231335 2.237
0.29400572 0.46870479 2.237
0.2961362 0.4750962 2.237
0.28974476 0.48148763 2.237
0.29400572 0.48148763 2.237
0.8192991 -0.042895239 2.2520001
0.8257333 -0.045040004 2.2520001
0.83216763 -0.042895239 2.2520001
0.80643052 -0.038605716 2.2520001
0.81500959 -0.038605716 2.2520001
0.82358861 -0.038605716 2.2520001
0.84718096 -0.038605716 2.2520001
0.86362416 -0.035746034 2.2520001
0.86648387 -0.021447619 2.2520001
0.87592077 0.064342864 2.2520001
0.87720764 0.075066671 2.2520001
0.85790479 0.11581714 2.2520001
0.86433911 0.11367238 2.2520001
0.87399048 0.11474476 2.2520001
0.85790473 0.1243962 2.2520001
0.86391008 0.12353829 2.2520001
0.87420499 0.12525411 2.2520001
0.85790479 0.13512 2.2520001
0.8621943 0.13512 2.2520001
0.87363309 0.13440508 2.2520001
0.85790479 0.14369905 2.2520001
0.86362416 0.14298414 2.2520001
0.87077338 0.1415543 2.2520001
0.85790473 0.15442286 2.2520001
0.8621943 0.1522781 2.2520001
0.85790479 0.16514668 2.2520001
0.85790479 0.17372572 2.2520001
0.85683239 0.18552192 2.2520001
0.85576004 0.19517334 2.2520001
0.30026668 0.2037524 2.2520001
0.85504514 0.20303749 2.2520001
0.29454732 0.21733588 2.2520001
0.84932572 0.21876572 2.2520001
0.85504514 0.21304636 2.2520001
0.29383239 0.2252 2.2520001
0.84932572 0.2252 2.2520001
0.29311749 0.23306413 2.2520001
0.84932572 0.23377904 2.2520001
0.2873981 0.24450286 2.2520001
0.29276001 0.24557525 2.2520001
0.84825337 0.24557525 2.2520001
0.29383239 0.25522667 2.2520001
0.30026668 0.25522667 2.2520001
0.84718096 0.25522667 2.2520001
0.29383239 0.26380572 2.2520001
0.84789586 0.26309082 2.2520001
0.85576004 0.26595047 2.2520001
0.29340345 0.27367166 2.2520001
0.2873981 0.2873981 2.2520001
0.2873981 0.29383239 2.2520001
0.2873981 0.30241144 2.2520001
0.29168764 0.32171431 2.2520001
0.29597715 0.35174096 2.2520001
0.29597715 0.36889905 2.2520001
0.29597715 0.37318859 2.2520001
0.29168764 0.39034668 2.2520001
0.29168764 0.4289524 2.2520001
0.29383239 0.47399241 2.2520001
0.29168764 0.4804267 2.2520001
0.81432134 -0.044600636 2.266
0.8215149 -0.046039369 2.266
0.80712765 -0.038845714 2.266
0.85892195 -0.038845714 2.266
0.86323816 -0.038845714 2.266
0.88266098 0.064742863 2.266
0.87618673 0.12085333 2.266
0.88050288 0.12085333 2.266
0.87402862 0.14675048 2.266
0.86755431 0.15969905 2.266
0.87402868 0.15538287 2.266
0.86755431 0.16617334 2.266
0.87187052 0.16401525 2.266
0.86755431 0.17480573 2.266
0.87187052 0.17696382 2.266
0.29781714 0.18991239 2.266
0.86755431 0.1877543 2.266
0.87187052 0.1877543 2.266
0.29781714 0.19638667 2.266
0.86755431 0.19638667 2.266
0.87187052 0.19422857 2.266
0.29565907 0.20501906 2.266
0.86611557 0.20573843 2.266
0.29493967 0.21293207 2.266
0.86611557 0.21293207 2.266
0.87402862 0.21580954 2.266
0.28810573 0.22552097 2.266
0.85892195 0.2244419 2.266
0.8653962 0.22444193 2.266
0.87402862 0.2287581 2.266
0.28702667 0.23523238 2.266
0.85892195 0.23523238 2.266
0.86539626 0.2352324 2.266
0.87187052 0.23523238 2.266
0.28271049 0.24386477 2.266
0.85892195 0.24386477 2.266
0.8653962 0.24386477 2.266
0.87187052 0.24170667 2.266
0.27623621 0.25033906 2.266
0.28432906 0.25519478 2.266
0.85892195 0.25465524 2.266
0.8649646 0.2555185 2.266
0.87402862 0.25681335 2.266
0.28486857 0.26544574 2.266
0.85892195 0.26328763 2.266
0.86611557 0.26472637 2.266
0.87402868 0.26544571 2.266
0.28486857 0.2740781 2.266
0.86755431 0.27192 2.266
0.87402862 0.27192 2.266
0.28432906 0.28432906 2.266
0.28271049 0.29565907 2.266
0.28342986 0.3050108 2.266
0.28918478 0.31508192 2.266
0.29350096 0.3280305 2.266
0.29350096 0.33234668 2.266
0.29350096 0.34529528 2.266
0.29350096 0.35608572 2.266
0.29350096 0.36471811 2.266
0.29350096 0.3711924 2.266
0.29350096 0.38414097 2.266
0.29350096 0.39708954 2.266
0.29350096 0.40140572 2.266
0.29350096 0.4165124 2.266
0.29350096 0.42514479 2.266
0.28918478 0.44240952 2.266
0.28918478 0.47046477 2.266
0.29350096 0.47909716 2.266
0.28918478 0.48341334 2.266
0.81464291 -0.045620002 2.2810001
0.87764192 -0.03910286 2.2810001
0.88198668 -0.03910286 2.2810001
0.87764192 0.16944572 2.2810001
0.88415909 0.16727334 2.2810001
0.87764192 0.17379048 2.2810001
0.88198668 0.17596287 2.2810001
0.29978859 0.18682477 2.2810001
0.87546957 0.18248001 2.2810001
0.29544383 0.19985905 2.2810001
0.87764192 0.19985905 2.2810001
0.88198668 0.19985905 2.2810001
0.29109907 0.20637619 2.2810001
0.87764192 0.20637619 2.2810001
0.88198668 0.20637619 2.2810001
0.28675431 0.2172381 2.2810001
0.29109907 0.21506572 2.2810001
0.87764192 0.21289334 2.2810001
0.28458193 0.22375524 2.2810001
0.87764192 0.22375524 2.2810001
0.88198668 0.22375524 2.2810001
0.27806476 0.23461716 2.2810001
0.28240955 0.23461716 2.2810001
0.88415909 0.23678954 2.2810001
0.27589238 0.24547906 2.2810001
0.87764192 0.24765144 2.2810001
0.88415903 0.24547906 2.2810001
0.27516827 0.25489271 2.2810001
0.87546957 0.25199619 2.2810001
0.88198668 0.25199619 2.2810001
0.27589238 0.26503047 2.2810001
0.27589238 0.27589238 2.2810001
0.27589238 0.28458193 2.2810001
0.27697855 0.29435766 2.2810001
0.27806476 0.30630574 2.2810001
0.28240955 0.30413336 2.2810001
0.27806476 0.31282288 2.2810001
0.28530607 0.31427112 2.2810001
0.28675431 0.32368478 2.2810001
0.29109907 0.32585716 2.2810001
0.29327145 0.33454669 2.2810001
0.29109907 0.36278763 2.2810001
0.29544383 0.3779943 2.2810001
0.29544383 0.38233906 2.2810001
0.29544383 0.39102858 2.2810001
0.29544383 0.40840763 2.2810001
0.29544383 0.41275239 2.2810001
0.29109907 0.43882096 2.2810001
0.29109907 0.47792384 2.2810001
0.81816953 -0.048127621 2.2970002
0.29314098 0.20126095 2.2970002
0.28730729 0.21438669 2.2970002
0.28001526 0.22532478 2.2970002
0.27564001 0.23626287 2.2970002
0.27235857 0.24391952 2.2970002
0.27126476 0.25595143 2.2970002
0.27126476 0.26251429 2.2970002
0.27126476 0.28657812 2.2970002
0.27272317 0.29605779 2.2970002
0.26688954 0.30189145 2.2970002
0.2734524 0.30189145 2.2970002
0.28220287 0.31939238 2.2970002
0.28439048 0.32376763 2.2970002
0.28876573 0.3325181 2.2970002
0.29314098 0.33689335 2.2970002
0.29314098 0.34126857 2.2970002
0.29314098 0.35439432 2.2970002
0.29314098 0.37408286 2.2970002
0.29314098 0.38502097 2.2970002
0.29314098 0.39377144 2.2970002
0.29314098 0.40252191 2.2970002
0.29314098 0.42439809 2.2970002
0.29314098 0.4353362 2.2970002
0.28876573 0.44627431 2.2970002
0.28876573 0.45064953 2.2970002
0.81910861 -0.044038098 2.312
0.81910861 -0.039634287 2.312
0.29725716 0.19376762 2.312
0.29065144 0.20697905 2.312
0.2847797 0.21431875 2.312
0.89617527 0.21578668 2.312
0.27744001 0.22679621 2.312
0.28184381 0.22019048 2.312
0.89837718 0.22019048 2.312
0.27744001 0.23340191 2.312
0.27303621 0.26863238 2.312
0.27303621 0.2752381 2.312
0.27303621 0.28184381 2.312
0.26863238 0.29285336 2.312
0.27744001 0.30826667 2.312
0.28624764 0.33028573 2.312
0.29065144 0.33909336 2.312
0.29505524 0.34790096 2.312
0.29505524 0.40515047 2.312
0.29505524 0.41616002 2.312
0.29065144 0.44478479 2.312
0.8244229 -0.048756193 2.3270001
0.81999052 -0.039891429 2.3270001
0.29696953 0.18616001 2.3270001
0.3036181 0.18616001 2.3270001
0.28810477 0.19945715 2.3270001
0.29475334 0.19391668 2.3270001
0.30140191 0.19502477 2.3270001
0.28662732 0.20684445 2.3270001
0.29253715 0.20388953 2.3270001
0.27924001 0.21718667 2.3270001
0.28367239 0.21275429 2.3270001
0.27702382 0.22383524 2.3270001
0.27369952 0.23602429 2.3270001
0.27037525 0.24599715 2.3270001
0.26594287 0.25486192 2.3270001
0.27037525 0.25486192 2.3270001
0.26594287 0.26372668 2.3270001
0.27037525 0.26372668 2.3270001
0.26594287 0.27480763 2.3270001
0.27037525 0.27480763 2.3270001
0.26594287 0.28588858 2.3270001
0.27037525 0.28588858 2.3270001
0.26594287 0.29253715 2.3270001
0.27037525 0.30140191 2.3270001
0.27259144 0.31026667 2.3270001
0.29253715 0.34572572 2.3270001
0.29253715 0.3501581 2.3270001
0.29253715 0.36345527 2.3270001
0.29253715 0.37453622 2.3270001
0.29253715 0.42994097 2.3270001
0.29253715 0.43658954 2.3270001
0.28810477 0.44767049 2.3270001
0.29253715 0.44323811 2.3270001
0.28662732 0.45505777 2.3270001
0.28588858 0.46096763 2.3270001
0.82562858 -0.044628572 2.3430002
0.82116574 -0.035702858 2.3430002
0.29454857 0.18744001 2.3430002
0.29008573 0.19413429 2.3430002
0.28413522 0.20529144 2.3430002
0.29454857 0.20082858 2.3430002
0.27669716 0.21868001 2.3430002
0.28116 0.21421716 2.3430002
0.26777145 0.22760572 2.3430002
0.27446574 0.22537428 2.3430002
0.26777145 0.23430002 2.3430002
0.27223429 0.23430002 2.3430002
0.26777145 0.24545716 2.3430002
0.26330858 0.25884572 2.3430002
0.26330858 0.26554 2.3430002
0.25884572 0.27669716 2.3430002
0.26330858 0.27446574 2.3430002
0.26330858 0.28339142 2.3430002
0.26554 0.29454857 2.3430002
0.27669716 0.31686288 2.3430002
0.28116 0.31686288 2.3430002
0.29454857 0.35702857 2.3430002
0.29454857 0.36149144 2.3430002
0.29454857 0.37041715 2.3430002
0.29454857 0.38603717 2.3430002
0.29454857 0.39496285 2.3430002
0.29454857 0.40388858 2.3430002
0.29454857 0.41504574 2.3430002
0.29454857 0.42620289 2.3430002
0.29008573 0.43512857 2.3430002
0.28562286 0.44405431 2.3430002
0.29008573 0.44405431 2.3430002
0.28413525 0.45223621 2.3430002
0.8312667 -0.049426667 2.3590002
0.29206666 0.18872 2.3590002
0.28757334 0.19546001 2.3590002
0.27858669 0.21568 2.3590002
0.26810223 0.22466667 2.3590002
0.27409333 0.22242001 2.3590002
0.26510668 0.23590001 2.3590002
0.26510668 0.24488667 2.3590002
0.2636089 0.25462222 2.3590002
0.26061335 0.26510668 2.3590002
0.25612 0.27634001 2.3590002
0.26061335 0.27409333 2.3590002
0.25387335 0.28308001 2.3590002
0.26061335 0.28532666 2.3590002
0.26286 0.29431334 2.3590002
0.2696 0.30554667 2.3590002
0.29206666 0.38642669 2.3590002
0.29206666 0.40664667 2.3590002
0.29206666 0.42686668 2.3590002
0.28757334 0.43585336 2.3590002
0.29206666 0.43136001 2.3590002
0.28420335 0.4437167 2.3590002
0.29869714 0.1855543 2.3760002
0.30548573 0.1855543 2.3760002
0.28738287 0.19460571 2.3760002
0.28361145 0.20667429 2.3760002
0.27456 0.21572572 2.3760002
0.28059429 0.21270858 2.3760002
0.26701716 0.22402287 2.3760002
0.26249143 0.24665144 2.3760002
0.26249143 0.25344002 2.3760002
0.25796571 0.27154288 2.3760002
0.2489143 0.28059429 2.3760002
0.25570285 0.28512001 2.3760002
0.29417145 0.34395429 2.3760002
0.29417145 0.37563431 2.3760002
0.29417145 0.38242286 2.3760002
0.29417145 0.39600003 2.3760002
0.29417145 0.40278858 2.3760002
0.29417145 0.41636574 2.3760002
0.28964573 0.42541716 2.3760002
0.29417145 0.42315429 2.3760002
0.28738287 0.43673146 2.3760002
0.28059429 0.44352001 2.3760002
0.83833909 -0.050118096 2.3920002
0.84517336 -0.054674286 2.3920002
0.83833909 -0.043283813 2.3920002
0.29387429 0.18680382 2.3920002
0.30754286 0.18224762 2.3920002
0.28704002 0.1936381 2.3920002
0.27564955 0.20958477 2.3920002
0.28248382 0.20275047 2.3920002
0.26881525 0.21869715 2.3920002
0.27337143 0.21414097 2.3920002
0.26425907 0.22780953 2.3920002
0.26425907 0.23464382 2.3920002
0.26425907 0.2414781 2.3920002
0.25970286 0.25970286 2.3920002
0.25970286 0.26653716 2.3920002
0.24603429 0.27792764 2.3920002
0.25286859 0.27792764 2.3920002
0.28476191 0.32804573 2.3920002
0.2915962 0.33715811 2.3920002
0.2915962 0.34399241 2.3920002
0.29501334 0.35424381 2.3920002
0.29615238 0.36677337 2.3920002
0.29615238 0.37360764 2.3920002
0.2915962 0.38499811 2.3920002
0.2915962 0.3941105 2.3920002
0.2915962 0.40322286 2.3920002
0.2915962 0.41461337 2.3920002
0.2855213 0.43587556 2.3920002
0.28248382 0.4419505 2.3920002
0.27792764 0.45106289 2.3920002
0.28248382 0.45334098 2.3920002
0.83970863 -0.050474286 2.4090002
0.84429717 -0.05506286 2.4090002
0.83970863 -0.043591432 2.4090002
0.28908002 0.18813144 2.4090002
0.29366857 0.18354286 2.4090002
0.30284572 0.18354286 2.4090002
0.27990288 0.19730859 2.4090002
0.28449145 0.1950143 2.4090002
0.27837333 0.20495619 2.4090002
0.26613715 0.21566287 2.4090002
0.27072573 0.21336858 2.4090002
0.26613715 0.22254573 2.4090002
0.26154858 0.23631144 2.4090002
0.26154858 0.24548858 2.4090002
0.26154858 0.25466573 2.4090002
0.25696 0.27302003 2.4090002
0.28755048 0.33802477 2.4090002
0.28908002 0.34643716 2.4090002
0.28908002 0.35332 2.4090002
0.29366857 0.35790858 2.4090002
0.29366857 0.36479145 2.4090002
0.29366857 0.3739686 2.4090002
0.29366857 0.38085145 2.4090002
0.28908002 0.39920571 2.4090002
0.28908002 0.40379429 2.4090002
0.28908002 0.41526574 2.4090002
0.28908002 0.42444289 2.4090002
0.28678572 0.43362004 2.4090002
0.27990288 0.44509149 2.4090002
0.27990288 0.45885715 2.4090002
0.84255368 -0.053911116 2.4260001
0.84101337 -0.043899052 2.4260001
0.28418857 0.18945906 2.4260001
0.3003619 0.1848381 2.4260001
0.27725714 0.19870096 2.4260001
0.28187811 0.19408001 2.4260001
0.26801524 0.20794286 2.4260001
0.27417651 0.20486224 2.4260001
0.26801524 0.21256381 2.4260001
0.2633943 0.22642668 2.4260001
0.25877336 0.24028954 2.4260001
0.25877336 0.25877336 2.4260001
0.25877336 0.26570475 2.4260001
0.28649905 0.33732954 2.4260001
0.28649905 0.34657145 2.4260001
0.28649905 0.35350287 2.4260001
0.29112002 0.36505523 2.4260001
0.29112002 0.37660763 2.4260001
0.29112002 0.38584954 2.4260001
0.29112002 0.39509144 2.4260001
0.28649905 0.40202287 2.4260001
0.29112002 0.41126478 2.4260001
0.28649905 0.42512763 2.4260001
0.28649905 0.43436953 2.4260001
0.27571684 0.45439366 2.4260001
0.84690672 -0.060493335 2.4430001
0.85156006 -0.060493335 2.4430001
0.84225339 -0.053513333 2.4430001
0.84225339 -0.044206668 2.4430001
0.28850669 0.18613334 2.4430001
0.29316002 0.18613334 2.4430001
0.30479336 0.18148001 2.4430001
0.3141 0.18148001 2.4430001
0.27920002 0.19544001 2.4430001
0.26989335 0.20242001 2.4430001
0.27454668 0.20009334 2.4430001
0.26524001 0.21638 2.4430001
0.26291335 0.22568667 2.4430001
0.2621378 0.23421778 2.4430001
0.26058668 0.24662668 2.4430001
0.26058668 0.25360668 2.4430001
0.25593334 0.26756668 2.4430001
0.25593334 0.27454668 2.4430001
0.28385335 0.34900001 2.4430001
0.28850669 0.36528668 2.4430001
0.28850669 0.37459335 2.4430001
0.28850669 0.38390002 2.4430001
0.28850669 0.39320669 2.4430001
0.28850669 0.40484002 2.4430001
0.28695557 0.41724893 2.4430001
0.28850669 0.4281067 2.4430001
0.27920002 0.44672 2.4430001
0.28385335 0.44206667 2.4430001
0.27920002 0.45137334 2.4430001
0.84577143 -0.060914289 2.46
0.82937145 -0.05154286 2.46
0.83718103 -0.053104762 2.46
0.84342861 -0.053885717 2.46
0.83874291 -0.046857145 2.46
0.84342861 -0.044514287 2.46
0.84342861 -0.037485715 2.46
0.30925715 0.17805715 2.46
0.31706667 0.17649524 2.46
0.28582859 0.18742858 2.46
0.29754287 0.18274286 2.46
0.27411431 0.19445716 2.46
0.28114286 0.19211429 2.46
0.26708573 0.20382857 2.46
0.26474285 0.2132 2.46
0.2577143 0.22960001 2.46
0.2624 0.22257143 2.46
0.2577143 0.23428573 2.46
0.27645716 0.31862858 2.46
0.28582859 0.34674287 2.46
0.28582859 0.3561143 2.46
0.28582859 0.36314288 2.46
0.28582859 0.37485716 2.46
0.28582859 0.38657144 2.46
0.28582859 0.39594287 2.46
0.28582859 0.4053143 2.46
0.28582859 0.41234288 2.46
0.28348571 0.42405716 2.46
0.28582859 0.43342859 2.46
0.27645716 0.44982859 2.46
0.28270474 0.44201908 2.46
0.27645716 0.45451429 2.46
0.84488004 -0.061360002 2.4780002
0.82600003 -0.054280002 2.4780002
0.83229333 -0.055066671 2.4780002
0.84016001 -0.056640003 2.4780002
0.79768002 -0.047200002 2.4780002
0.80476004 -0.047200002 2.4780002
0.82600003 -0.047200002 2.4780002
0.83308005 -0.044840004 2.4780002
0.8417334 -0.044053335 2.4780002
0.31624001 0.16992001 2.4780002
0.32096002 0.16756001 2.4780002
0.30444002 0.17936 2.4780002
0.31624001 0.17464 2.4780002
0.2832 0.18880001 2.4780002
0.29264 0.18408 2.4780002
0.26904002 0.19588001 2.4780002
0.26432002 0.20532 2.4780002
0.26432002 0.2124 2.4780002
0.25960001 0.24308001 2.4780002
0.25960001 0.25488001 2.4780002
0.25960001 0.26432002 2.4780002
0.25724 0.2832 2.4780002
0.27848002 0.31624001 2.4780002
0.28792 0.34456003 2.4780002
0.2832 0.37524003 2.4780002
0.2832 0.38468003 2.4780002
0.2832 0.39412004 2.4780002
0.2832 0.40356004 2.4780002
0.2832 0.41299999 2.4780002
0.28556001 0.42480001 2.4780002
0.2832 0.43660003 2.4780002
0.27612001 0.44840002 2.4780002
0.82724577 -0.057051431 2.4960001
0.79872 -0.047542859 2.4960001
0.80585146 -0.042788573 2.4960001
0.81536007 -0.042788573 2.4960001
0.825661 -0.044373333 2.4960001
0.83200002 -0.042788573 2.4960001
0.82724577 -0.038034286 2.4960001
0.83200002 -0.038034286 2.4960001
0.31853715 0.1664 2.4960001
0.30744383 0.17432381 2.4960001
0.31378287 0.17353144 2.4960001
0.29476571 0.18224764 2.4960001
0.26624 0.19968 2.4960001
0.28050286 0.19017144 2.4960001
0.26148573 0.22582859 2.4960001
0.25673145 0.24722287 2.4960001
0.26148573 0.25673145 2.4960001
0.25673145 0.26386285 2.4960001
0.25673145 0.27337146 2.4960001
0.25673145 0.28050286 2.4960001
0.28525716 0.35419428 2.4960001
0.28525716 0.36370289 2.4960001
0.28525716 0.37083429 2.4960001
0.28525716 0.42313144 2.4960001
0.79490286 -0.06225143 2.5140002
0.8284229 -0.06225143 2.5140002
0.83321148 -0.06225143 2.5140002
0.79490286 -0.052674286 2.5140002
0.80687428 -0.055068571 2.5140002
0.81645143 -0.055068575 2.5140002
0.82602859 -0.055068571 2.5140002
0.83321148 -0.052674286 2.5140002
0.79729712 -0.045491431 2.5140002
0.80448002 -0.043097146 2.5140002
0.82602859 -0.047885716 2.5140002
0.31125715 0.16760001 2.5140002
0.29689145 0.17717715 2.5140002
0.30168 0.17478287 2.5140002
0.27773714 0.18675429 2.5140002
0.28492001 0.18675429 2.5140002
0.29210287 0.18196572 2.5140002
0.26816002 0.19633144 2.5140002
0.27534288 0.19154286 2.5140002
0.26337144 0.21309143 2.5140002
0.26337144 0.2202743 2.5140002
0.25858286 0.23703429 2.5140002
0.25858286 0.24421716 2.5140002
0.25858286 0.25618857 2.5140002
0.25379428 0.26816002 2.5140002
0.28492001 0.33041143 2.5140002
0.29210287 0.33998859 2.5140002
0.2873143 0.34956571 2.5140002
0.29210287 0.34477717 2.5140002
0.28252572 0.35674858 2.5140002
0.28252572 0.36393145 2.5140002
0.28252572 0.39745143 2.5140002
0.28252572 0.44294286 2.5140002
0.27454481 0.45172191 2.5140002
0.28252572 0.45012572 2.5140002
0.79336005 -0.062697142 2.5320001
0.80541718 -0.062697142 2.5320001
0.81506282 -0.062697142 2.5320001
0.82712001 -0.065108567 2.5320001
0.79416388 -0.05465905 2.5320001
0.80380958 -0.056266669 2.5320001
0.78130287 -0.043405715 2.5320001
0.79416388 -0.045013335 2.5320001
0.76201147 -0.03376 2.5320001
0.77648002 -0.03376 2.5320001
0.78291053 -0.036975238 2.5320001
0.79255629 -0.036975238 2.5320001
0.30625144 0.16880001 2.5320001
0.32313144 0.16397715 2.5320001
0.29660574 0.1760343 2.5320001
0.30866286 0.17362286 2.5320001
0.28696001 0.18326858 2.5320001
0.27008 0.19291429 2.5320001
0.26525715 0.20497143 2.5320001
0.2604343 0.21461715 2.5320001
0.2604343 0.22426286 2.5320001
0.25561145 0.23632 2.5320001
0.2604343 0.23149715 2.5320001
0.25561145 0.24355429 2.5320001
0.25561145 0.25319999 2.5320001
0.25561145 0.26284572 2.5320001
0.28696001 0.33760002 2.5320001
0.28696001 0.34724572 2.5320001
0.28454858 0.35206857 2.5320001
0.28454858 0.37618288 2.5320001
0.27972573 0.38582858 2.5320001
0.28454858 0.38341716 2.5320001
0.27972573 0.39306289 2.5320001
0.28454858 0.39306289 2.5320001
0.27972573 0.40512002 2.5320001
0.28454858 0.40753144 2.5320001
0.27972573 0.41476572 2.5320001
0.28454858 0.41717714 2.5320001
0.28454858 0.42682287 2.5320001
0.27972573 0.43888003 2.5320001
0.28454858 0.4364686 2.5320001
0.2781181 0.4469181 2.5320001
0.27008 0.45576 2.5320001
0.78473622 -0.063167624 2.5510001
0.79202479 -0.063167624 2.5510001
0.82603812 -0.068026669 2.5510001
0.77744764 -0.053449526 2.5510001
0.78473622 -0.055879049 2.5510001
0.79364443 -0.05668889 2.5510001
0.76772958 -0.043731429 2.5510001
0.7750181 -0.046160955 2.5510001
0.78392631 -0.046970796 2.5510001
0.79364449 -0.046970796 2.5510001
0.76530004 -0.038872384 2.5510001
0.7750181 -0.036442861 2.5510001
0.78230667 -0.038872384 2.5510001
0.79202479 -0.034013335 2.5510001
0.31340858 0.16520762 2.5510001
0.33284479 0.16520762 2.5510001
0.28425431 0.17978477 2.5510001
0.29397237 0.17735524 2.5510001
0.30126098 0.17006667 2.5510001
0.32069716 0.17006667 2.5510001
0.33527431 0.17006667 2.5510001
0.27696574 0.18707335 2.5510001
0.28182477 0.18464382 2.5510001
0.26724762 0.19679144 2.5510001
0.25752953 0.20893906 2.5510001
0.26238859 0.20650953 2.5510001
0.25752953 0.21622762 2.5510001
0.25590983 0.22675556 2.5510001
0.25429019 0.23485398 2.5510001
0.2526705 0.24538192 2.5510001
0.2526705 0.25510001 2.5510001
0.2526705 0.2648181 2.5510001
0.25429019 0.27534604 2.5510001
0.25752953 0.28425431 2.5510001
0.28182477 0.32555619 2.5510001
0.28182477 0.33284479 2.5510001
0.28668383 0.3449924 2.5510001
0.29154286 0.3449924 2.5510001
0.28668383 0.37414667 2.5510001
0.28182477 0.38386479 2.5510001
0.27696574 0.40330097 2.5510001
0.27696574 0.41301906 2.5510001
0.28182477 0.42516667 2.5510001
0.28182477 0.43488479 2.5510001
0.27696574 0.44460288 2.5510001
0.27210668 0.45189145 2.5510001
0.77589524 -0.063638099 2.5700002
0.7758953 -0.056295238 2.5700002
0.78323811 -0.058742858 2.5700002
0.73918098 -0.044057146 2.5700002
0.74407619 -0.044057146 2.5700002
0.75876194 -0.044057146 2.5700002
0.76610482 -0.044057146 2.5700002
0.77344763 -0.048952382 2.5700002
0.75876194 -0.039161906 2.5700002
0.76365715 -0.039161906 2.5700002
0.30840001 0.1664381 2.5700002
0.32553333 0.16399048 2.5700002
0.33532381 0.16154286 2.5700002
0.27902859 0.17622858 2.5700002
0.28637144 0.17622858 2.5700002
0.29616189 0.17378096 2.5700002
0.27658099 0.18357143 2.5700002
0.26923811 0.19091429 2.5700002
0.27413335 0.19091429 2.5700002
0.25944763 0.20560001 2.5700002
0.26434287 0.20070477 2.5700002
0.25455239 0.22518095 2.5700002
0.24965715 0.23741905 2.5700002
0.24965715 0.24720953 2.5700002
0.24965715 0.25700003 2.5700002
0.24802542 0.26760638 2.5700002
0.24802542 0.27739683 2.5700002
0.24965715 0.28637144 2.5700002
0.25455239 0.28637144 2.5700002
0.24965715 0.29371428 2.5700002
0.25700003 0.29371428 2.5700002
0.27902859 0.31819049 2.5700002
0.27902859 0.32798097 2.5700002
0.28392383 0.32308573 2.5700002
0.27902859 0.33287621 2.5700002
0.28392383 0.34511429 2.5700002
0.28392383 0.35490477 2.5700002
0.28392383 0.36469525 2.5700002
0.28392383 0.37448573 2.5700002
0.28392383 0.38182858 2.5700002
0.27902859 0.39406669 2.5700002
0.27658099 0.40385717 2.5700002
0.27658099 0.41364765 2.5700002
0.27902859 0.42343813 2.5700002
0.27902859 0.43322861 2.5700002
0.27658099 0.44301909 2.5700002
0.27413335 0.45036191 2.5700002
0.75450861 -0.064108573 2.5890002
0.77423429 -0.064108573 2.5890002
0.74711144 -0.056711432 2.5890002
0.75615245 -0.057533335 2.5890002
0.76683718 -0.056711432 2.5890002
0.77423429 -0.056711432 2.5890002
0.72985148 -0.044382859 2.5890002
0.73807049 -0.046026666 2.5890002
0.74711144 -0.049314287 2.5890002
0.75697428 -0.046848573 2.5890002
0.76683718 -0.049314287 2.5890002
0.77423429 -0.049314287 2.5890002
0.72985148 -0.039451431 2.5890002
0.73478287 -0.039451431 2.5890002
0.75944 -0.039451431 2.5890002
0.32547429 0.16273715 2.5890002
0.28602287 0.1726 2.5890002
0.29342002 0.1726 2.5890002
0.27369428 0.18492858 2.5890002
0.26629716 0.19479144 2.5890002
0.25643429 0.20712 2.5890002
0.26136571 0.20218858 2.5890002
0.25643429 0.21451715 2.5890002
0.24657144 0.22684573 2.5890002
0.25314668 0.22355811 2.5890002
0.24657144 0.23424286 2.5890002
0.25150287 0.23177715 2.5890002
0.24657144 0.24410573 2.5890002
0.24657144 0.2539686 2.5890002
0.24410573 0.26383144 2.5890002
0.24328382 0.2745162 2.5890002
0.24657144 0.28602287 2.5890002
0.24410573 0.29095429 2.5890002
0.28109145 0.32547429 2.5890002
0.27616 0.33533716 2.5890002
0.28109145 0.34273428 2.5890002
0.28109145 0.35506287 2.5890002
0.28109145 0.38958287 2.5890002
0.27616 0.41424 2.5890002
0.27616 0.42656857 2.5890002
0.27616 0.43643147 2.5890002
0.27616 0.44382858 2.5890002
0.76530671 -0.074542858 2.6090002
0.77276099 -0.074542858 2.6090002
0.73300481 -0.064603813 2.6090002
0.74542862 -0.067088574 2.6090002
0.75371104 -0.066260315 2.6090002
0.76365018 -0.067916833 2.6090002
0.77276099 -0.067088574 2.6090002
0.78021526 -0.069573335 2.6090002
0.67585528 -0.054664765 2.6090002
0.73300481 -0.057149526 2.6090002
0.74294388 -0.057149526 2.6090002
0.76530671 -0.054664765 2.6090002
0.67585528 -0.047210477 2.6090002
0.68248129 -0.046382222 2.6090002
0.72389406 -0.046382222 2.6090002
0.73217654 -0.048038732 2.6090002
0.74045908 -0.049695238 2.6090002
0.72306573 -0.039756194 2.6090002
0.73052001 -0.039756194 2.6090002
0.33792764 0.15902478 2.6090002
0.34289715 0.15902478 2.6090002
0.30562574 0.16896382 2.6090002
0.31804955 0.1639943 2.6090002
0.32301906 0.1639943 2.6090002
0.27829334 0.17890286 2.6090002
0.2683543 0.18884191 2.6090002
0.27332383 0.18387239 2.6090002
0.26338476 0.19878095 2.6090002
0.25510225 0.20540698 2.6090002
0.25344571 0.2161743 2.6090002
0.24599144 0.22611335 2.6090002
0.23853715 0.23853715 2.6090002
0.24350667 0.23605239 2.6090002
0.23853715 0.24599144 2.6090002
0.24350667 0.24599144 2.6090002
0.23853715 0.25593048 2.6090002
0.24350667 0.25593048 2.6090002
0.23853715 0.26586953 2.6090002
0.23853715 0.27580857 2.6090002
0.24350667 0.28574765 2.6090002
0.24847619 0.29817143 2.6090002
0.27829334 0.31804955 2.6090002
0.27829334 0.32550383 2.6090002
0.27580857 0.33544287 2.6090002
0.27663684 0.34621015 2.6090002
0.27829334 0.35532096 2.6090002
0.27829334 0.36277527 2.6090002
0.28326288 0.36774477 2.6090002
0.28326288 0.37271431 2.6090002
0.28326288 0.38513809 2.6090002
0.27829334 0.40750095 2.6090002
0.27332383 0.4248943 2.6090002
0.27332383 0.43483335 2.6090002
0.27332383 0.44477239 2.6090002
0.27332383 0.45471144 2.6090002
0.27332383 0.46216574 2.6090002
0.6735248 -0.07010667 2.6290002
0.68354005 -0.07010667 2.6290002
0.75615048 -0.07010667 2.6290002
0.76616573 -0.075114287 2.6290002
0.67435938 -0.061760638 2.6290002
0.68353999 -0.062595241 2.6290002
0.69105148 -0.062595241 2.6290002
0.70440507 -0.061760638 2.6290002
0.71358573 -0.062595241 2.6290002
0.72360098 -0.062595241 2.6290002
0.73111242 -0.062595241 2.6290002
0.74613529 -0.065099053 2.6290002
0.67352486 -0.052579999 2.6290002
0.68604386 -0.055083811 2.6290002
0.69355524 -0.052579999 2.6290002
0.70357049 -0.052580003 2.6290002
0.71358573 -0.052579999 2.6290002
0.72360098 -0.052580003 2.6290002
0.73111242 -0.055083811 2.6290002
0.6735248 -0.045068573 2.6290002
0.69605905 -0.045068573 2.6290002
0.70440507 -0.043399367 2.6290002
0.71358573 -0.042564765 2.6290002
0.72109717 -0.042564765 2.6290002
0.35053334 0.040060952 2.6290002
0.34051812 0.1552362 2.6290002
0.31548002 0.16525143 2.6290002
0.33300668 0.16024381 2.6290002
0.28293049 0.17526667 2.6290002
0.29294574 0.17025906 2.6290002
0.30045715 0.17025906 2.6290002
0.27291524 0.18277811 2.6290002
0.26373461 0.19362795 2.6290002
0.25038096 0.20531239 2.6290002
0.26039621 0.20030478 2.6290002
0.24537334 0.21282381 2.6290002
0.25038096 0.21282381 2.6290002
0.2353581 0.22534287 2.6290002
0.24370413 0.22200446 2.6290002
0.25038096 0.22033525 2.6290002
0.2353581 0.23285429 2.6290002
0.24036573 0.23285429 2.6290002
0.2353581 0.24036573 2.6290002
0.27541906 0.33300668 2.6290002
0.27541906 0.34552574 2.6290002
0.27541906 0.35554096 2.6290002
0.27541906 0.3630524 2.6290002
0.28042668 0.37306762 2.6290002
0.28543431 0.38057905 2.6290002
0.27541906 0.4156324 2.6290002
0.27541906 0.42064002 2.6290002
0.27041143 0.43315905 2.6290002
0.26540381 0.44567811 2.6290002
0.27041143 0.4431743 2.6290002
0.27041143 0.45318955 2.6290002
0.40870288 -0.080731429 2.6490002
0.41374859 -0.080731429 2.6490002
0.61305428 -0.075685717 2.6490002
0.6231457 -0.075685717 2.6490002
0.69630861 -0.070640005 2.6490002
0.70640004 -0.070640005 2.6490002
0.71396863 -0.070640005 2.6490002
0.72406006 -0.070640005 2.6490002
0.7316286 -0.070640005 2.6490002
0.65594286 -0.060548574 2.6490002
0.6635114 -0.06307143 2.6490002
0.67276198 -0.063912384 2.6490002
0.70303625 -0.063912384 2.6490002
0.65594286 -0.052980002 2.6490002
0.6635114 -0.052980002 2.6490002
0.67108005 -0.052980002 2.6490002
0.58025718 -0.040365715 2.6490002
0.59203047 -0.04204762 2.6490002
0.6635114 -0.04541143 2.6490002
0.67108005 -0.04541143 2.6490002
0.59287143 -0.035320003 2.6490002
0.60044003 -0.035320003 2.6490002
0.33554 0.15641715 2.6490002
0.34647241 0.15305334 2.6490002
0.29769716 0.16650857 2.6490002
0.30526572 0.16650857 2.6490002
0.31283429 0.16650857 2.6490002
0.32544857 0.16146286 2.6490002
0.27751431 0.17660001 2.6490002
0.28760573 0.1715543 2.6490002
0.2649 0.18669143 2.6490002
0.27246857 0.18164572 2.6490002
0.25733143 0.19678286 2.6490002
0.26237714 0.19173715 2.6490002
0.24724001 0.2068743 2.6490002
0.25480857 0.20182858 2.6490002
0.24219429 0.21696572 2.6490002
0.23714858 0.22201143 2.6490002
0.24219429 0.22705714 2.6490002
0.27751431 0.32797143 2.6490002
0.27246857 0.34310859 2.6490002
0.28256002 0.38599715 2.6490002
0.28256002 0.40365717 2.6490002
0.27246857 0.42888573 2.6490002
0.26574096 0.43729523 2.6490002
0.2649 0.44402286 2.6490002
0.40416288 -0.081340954 2.6690001
0.53888381 -0.081340954 2.6690001
0.54396766 -0.081340954 2.6690001
0.43720764 -0.076257147 2.6690001
0.53888381 -0.07371524 2.6690001
0.54396766 -0.07371524 2.6690001
0.5981949 -0.072867937 2.6689999
0.60497338 -0.076257147 2.6690001
0.61175179 -0.072867937 2.6689999
0.62276667 -0.071173333 2.6690001
0.63293433 -0.07371524 2.6690001
0.64225465 -0.072867937 2.6689999
0.65072763 -0.071173333 2.6690001
0.70664954 -0.071173333 2.6690001
0.53888381 -0.066089526 2.6690001
0.61514097 -0.061005715 2.6690001
0.62276667 -0.063547626 2.6690001
0.63208705 -0.064394921 2.6689999
0.64310193 -0.063547619 2.6690001
0.65326953 -0.063547626 2.6690001
0.66089529 -0.066089526 2.6690001
0.58972192 -0.050838098 2.6690001
0.59734762 -0.053380005 2.6690001
0.60497338 -0.053380005 2.6690001
0.61259907 -0.050838098 2.6690001
0.64310193 -0.053380005 2.6690001
0.65326953 -0.053380005 2.6690001
0.47787812 -0.045754287 2.6690001
0.48550382 -0.045754287 2.6690001
0.50329715 -0.045754287 2.6690001
0.57955432 -0.040670477 2.6690001
0.58972192 -0.043212384 2.6690001
0.59988952 -0.045754287 2.6690001
0.60497338 -0.043212384 2.6690001
0.61175179 -0.044059683 2.6689999
0.64564383 -0.045754287 2.6690001
0.65326953 -0.045754287 2.6690001
0.66089529 -0.045754287 2.6690001
0.39145336 -0.030502858 2.6690001
0.61005718 -0.035586666 2.6690001
0.34315717 0.14743048 2.6690001
0.35078287 0.14743048 2.6690001
0.32282192 0.15759811 2.6690001
0.33298954 0.15505621 2.6690001
0.34061524 0.15251429 2.6690001
0.28977716 0.16776572 2.6690001
0.29740286 0.16522381 2.6690001
0.30502859 0.16268191 2.6690001
0.31265432 0.16268191 2.6690001
0.32028002 0.16268191 2.6690001
0.27706763 0.17539144 2.6690001
0.28469333 0.17284954 2.6690001
0.2669 0.18301715 2.6690001
0.25588509 0.19487937 2.6689999
0.24656478 0.20589429 2.6690001
0.23893906 0.21860382 2.6690001
0.24402286 0.21352001 2.6690001
0.27960953 0.32536381 2.6690001
0.27452573 0.33553144 2.6690001
0.27452573 0.34061524 2.6690001
0.27452573 0.35332477 2.6690001
0.27452573 0.3634924 2.6690001
0.27960953 0.37620193 2.6690001
0.28469333 0.39653715 2.6690001
0.28469333 0.40162095 2.6690001
0.27960953 0.41433048 2.6690001
0.28469333 0.41178858 2.6690001
0.27452573 0.42704001 2.6690001
0.2694419 0.43212384 2.6690001
0.39965716 -0.081980959 2.6900001
0.51494288 -0.081980959 2.6900001
0.5277524 -0.081980959 2.6900001
0.53543812 -0.081980959 2.6900001
0.57386667 -0.081980959 2.6900001
0.59692383 -0.081980959 2.6900001
0.40734285 -0.074295238 2.6900001
0.41502857 -0.074295238 2.6900001
0.44406351 -0.073441267 2.6899998
0.45260319 -0.073441267 2.6899998
0.46370476 -0.071733333 2.6900001
0.47395241 -0.071733333 2.6900001
0.48420003 -0.074295238 2.6900001
0.4953016 -0.073441267 2.6899998
0.5046953 -0.074295238 2.6900001
0.51408893 -0.073441267 2.6899998
0.5277524 -0.074295238 2.6900001
0.53543812 -0.074295238 2.6900001
0.55593336 -0.071733333 2.6900001
0.56618094 -0.071733333 2.6900001
0.57386667 -0.071733333 2.6900001
0.58923811 -0.074295238 2.6900001
0.59606987 -0.075149208 2.6899998
0.60973334 -0.071733333 2.6900001
0.64047623 -0.071733333 2.6900001
0.34841907 -0.061485715 2.6900001
0.35525084 -0.063193649 2.6899998
0.40990478 -0.066609524 2.6900001
0.41502857 -0.06404762 2.6900001
0.43552384 -0.061485715 2.6900001
0.44406351 -0.063193649 2.6899998
0.45345718 -0.06404762 2.6900001
0.46370479 -0.06404762 2.6900001
0.47395241 -0.06404762 2.6900001
0.4842 -0.06404762 2.6900001
0.49700955 -0.061485715 2.6900001
0.50554925 -0.063193649 2.6899998
0.51494282 -0.06404762 2.6900001
0.52519047 -0.06404762 2.6900001
0.53543812 -0.06404762 2.6900001
0.54653972 -0.063193649 2.6899998
0.55593336 -0.06404762 2.6900001
0.56618094 -0.06404762 2.6900001
0.57557464 -0.063193649 2.6899998
0.5875302 -0.063193649 2.6899998
0.59692383 -0.061485715 2.6900001
0.60802537 -0.063193649 2.6899998
0.61656505 -0.06490159 2.6899998
0.64047623 -0.061485715 2.6900001
0.34841907 -0.053800002 2.6900001
0.35610479 -0.053800002 2.6900001
0.36635238 -0.053800002 2.6900001
0.38428572 -0.056361906 2.6900001
0.41502857 -0.053800002 2.6900001
0.42527622 -0.051238097 2.6900001
0.43296194 -0.053800002 2.6900001
0.44320953 -0.053800002 2.6900001
0.45345715 -0.053800002 2.6900001
0.46370479 -0.053800002 2.6900001
0.47395241 -0.053800002 2.6900001
0.4842 -0.053800002 2.6900001
0.49444765 -0.051238097 2.6900001
0.5046953 -0.053800002 2.6900001
0.51494288 -0.053800002 2.6900001
0.52519047 -0.053800002 2.6900001
0.53543812 -0.053800002 2.6900001
0.54568577 -0.053800002 2.6900001
0.55593336 -0.053800002 2.6900001
0.566181 -0.053800002 2.6900001
0.57642859 -0.053800002 2.6900001
0.58667624 -0.053800002 2.6900001
0.5943619 -0.056361906 2.6900001
0.61741906 -0.056361906 2.6900001
0.62510478 -0.053800002 2.6900001
0.63279051 -0.053800002 2.6900001
0.64047623 -0.053800002 2.6900001
0.34585714 -0.043552384 2.6900001
0.35610479 -0.043552384 2.6900001
0.36635238 -0.043552384 2.6900001
0.3740381 -0.043552384 2.6900001
0.38684762 -0.043552384 2.6900001
0.39709523 -0.043552384 2.6900001
0.41502857 -0.046114288 2.6900001
0.43040001 -0.046114288 2.6900001
0.44320953 -0.046114288 2.6900001
0.45345718 -0.046114288 2.6900001
0.46370476 -0.046114288 2.6900001
0.47395241 -0.046114288 2.6900001
0.49700955 -0.046114288 2.6900001
0.50213337 -0.046114288 2.6900001
0.51494288 -0.046114288 2.6900001
0.52604443 -0.044406354 2.6899998
0.53543812 -0.043552384 2.6900001
0.54568577 -0.043552384 2.6900001
0.55593336 -0.043552384 2.6900001
0.56532699 -0.044406354 2.6899998
0.57728261 -0.044406354 2.6899998
0.58667624 -0.046114288 2.6900001
0.61998099 -0.040990479 2.6900001
0.62510478 -0.043552384 2.6900001
0.63279051 -0.046114288 2.6900001
0.64303815 -0.046114288 2.6900001
0.29547301 -0.032450795 2.6899998
0.30401269 -0.032450795 2.6899998
0.31255239 -0.030742858 2.6900001
0.32536191 -0.030742858 2.6900001
0.33646354 -0.032450795 2.6899998
0.34585714 -0.033304762 2.6900001
0.35610479 -0.033304762 2.6900001
0.36635238 -0.033304762 2.6900001
0.37660003 -0.033304762 2.6900001
0.38684762 -0.033304762 2.6900001
0.39709526 -0.035866667 2.6900001
0.40478095 -0.035866667 2.6900001
0.28693333 -0.02049524 2.6900001
0.29461905 -0.023057144 2.6900001
0.30486667 -0.023057144 2.6900001
0.31511432 -0.023057144 2.6900001
0.32450795 -0.022203177 2.6899998
0.33560956 -0.023057144 2.6900001
0.34585714 -0.023057144 2.6900001
0.35610479 -0.023057144 2.6900001
0.36635238 -0.023057144 2.6900001
0.37574604 -0.023911113 2.6899998
0.38428572 -0.025619049 2.6900001
0.28522539 -0.011955556 2.6899998
0.29461905 -0.012809524 2.6900001
0.30486667 -0.012809524 2.6900001
0.31511432 -0.012809524 2.6900001
0.32536191 -0.012809524 2.6900001
0.33560956 -0.012809524 2.6900001
0.34585714 -0.012809524 2.6900001
0.35610479 -0.012809524 2.6900001
0.36635238 -0.012809524 2.6900001
0.28437144 -0.0051238099 2.6900001
0.29461905 -0.0051238099 2.6900001
0.30486667 -0.0051238099 2.6900001
0.31511432 -0.0051238099 2.6900001
0.32280001 -0.0051238099 2.6900001
0.33817145 -0.0051238099 2.6900001
0.34585714 -0.0051238099 2.6900001
0.35610479 -0.0051238099 2.6900001
0.36635238 -0.0051238099 2.6900001
0.28437144 0 2.6900001
0.29461905 0.002561905 2.6900001
0.30486667 0 2.6900001
0.31511432 0.002561905 2.6900001
0.32536191 0.002561905 2.6900001
0.33560956 0.002561905 2.6900001
0.34585714 0.002561905 2.6900001
0.35610479 0 2.6900001
0.36379048 0.002561905 2.6900001
0.31596828 0.011955556 2.6899998
0.32536191 0.012809524 2.6900001
0.33560956 0.012809524 2.6900001
0.34585714 0.012809524 2.6900001
0.35610479 0.012809524 2.6900001
0.36379048 0.01024762 2.6900001
0.31767622 0.02049524 2.6900001
0.32536191 0.023057144 2.6900001
0.33560956 0.023057144 2.6900001
0.34585714 0.023057144 2.6900001
0.35610479 0.02049524 2.6900001
0.32280001 0.030742858 2.6900001
0.33817145 0.030742858 2.6900001
0.30230477 0.046114288 2.6900001
0.31255239 0.040990479 2.6900001
0.35354286 0.040990479 2.6900001
0.30486667 0.051238097 2.6900001
0.31255239 0.051238097 2.6900001
0.35866669 0.056361906 2.6900001
0.35866669 0.06404762 2.6900001
0.34841907 0.076857142 2.6900001
0.35866669 0.076857142 2.6900001
0.34841907 0.084542863 2.6900001
0.35525084 0.083688892 2.6899998
0.34841907 0.094790481 2.6900001
0.35866669 0.092228577 2.6900001
0.34841907 0.10503809 2.6900001
0.34841907 0.11272381 2.6900001
0.34841907 0.13834286 2.6900001
0.32536191 0.14859048 2.6900001
0.33646354 0.14688255 2.6899998
0.34585714 0.14346667 2.6900001
0.35354286 0.14346667 2.6900001
0.29718095 0.15883811 2.6900001
0.30486667 0.15883811 2.6900001
0.31511432 0.1562762 2.6900001
0.32536191 0.15371428 2.6900001
0.33304763 0.15371428 2.6900001
0.28522539 0.16737778 2.6899998
0.29461905 0.16396192 2.6900001
0.2664381 0.17933334 2.6900001
0.27326986 0.17591746 2.6899998
0.25619048 0.18958096 2.6900001
0.2613143 0.18701905 2.6900001
0.25106668 0.19726667 2.6900001
0.24594286 0.20495239 2.6900001
0.24081905 0.21263811 2.6900001
0.24594286 0.30230477 2.6900001
0.25106668 0.30742857 2.6900001
0.27326986 0.31596828 2.6899998
0.27668571 0.32536191 2.6900001
0.28180954 0.32280001 2.6900001
0.27668571 0.33304763 2.6900001
0.27156192 0.34841907 2.6900001
0.27156192 0.35610479 2.6900001
0.27156192 0.36635238 2.6900001
0.27497777 0.37574604 2.6899998
0.27668571 0.38684762 2.6900001
0.28180954 0.38684762 2.6900001
0.27668571 0.39453334 2.6900001
0.28180954 0.39709526 2.6900001
0.28180954 0.40734285 2.6900001
0.27668571 0.42527622 2.6900001
0.48281622 -0.082620956 2.7110002
0.5267086 -0.082620956 2.7110002
0.5654372 -0.082620956 2.7110002
0.57318288 -0.082620956 2.7110002
0.58609241 -0.082620956 2.7110002
0.5938381 -0.082620956 2.7110002
0.29950097 -0.074875236 2.7110002
0.30466476 -0.074875236 2.7110002
0.3149924 -0.074875236 2.7110002
0.32273811 -0.072293334 2.7110002
0.33306575 -0.072293334 2.7110002
0.34081143 -0.072293334 2.7110002
0.35372096 -0.072293334 2.7110002
0.3640486 -0.072293334 2.7110002
0.38728574 -0.074875236 2.7110002
0.39503145 -0.074875236 2.7110002
0.40277717 -0.074875236 2.7110002
0.4260143 -0.074875236 2.7110002
0.43634194 -0.074875236 2.7110002
0.45957905 -0.077457145 2.7110002
0.46732479 -0.077457145 2.7110002
0.47507051 -0.077457145 2.7110002
0.4802343 -0.077457145 2.7110002
0.49572572 -0.077457145 2.7110002
0.52498728 -0.075735874 2.7110002
0.55769145 -0.077457145 2.7110002
0.5654372 -0.077457145 2.7110002
0.57576478 -0.077457145 2.7110002
0.58609241 -0.074875243 2.7110002
0.26851809 -0.061965715 2.7110002
0.27540317 -0.063686989 2.7110002
0.29777971 -0.063686989 2.7110002
0.30638602 -0.063686989 2.7110002
