# .PCD v0.7 - Point Cloud Data file format
VERSION 0.7
FIELDS x y z
SIZE 4 4 4
TYPE F F F
COUNT 1 1 1
WIDTH 1466
HEIGHT 1
VIEWPOINT 0 0 0 1 0 0 0
POINTS 1466
DATA ascii
-0.023557143 -0.13506095 1.649
0.15704763 -0.13349047 1.649
0.16856445 -0.13401397 1.649
0.17628595 -0.13466834 1.649
0.18501651 -0.13483745 1.6463333
0.19410922 -0.13461904 1.6436667
0.20429182 -0.13473028 1.6450001
0.21254064 -0.13421492 1.645
-0.024499428 -0.12689447 1.6489999
-0.018845715 -0.12877905 1.649
0.0094228573 -0.12249715 1.649
0.015704762 -0.12249715 1.649
0.025704 -0.12350972 1.6458
0.032405715 -0.12334096 1.6463333
0.084734611 -0.12396604 1.6476668
0.093420573 -0.12350972 1.6458
0.10522191 -0.12249715 1.649
0.11684342 -0.12375353 1.6489999
0.1256381 -0.12406763 1.649
0.13192001 -0.12249715 1.649
0.15704763 -0.12877905 1.649
0.16725573 -0.12799382 1.649
0.17550072 -0.12603071 1.649
0.18531621 -0.12720858 1.649
0.19473906 -0.12720859 1.649
0.20521215 -0.12595643 1.6480001
0.21491586 -0.12553853 1.643909
0.0094228573 -0.11621524 1.649
0.015704764 -0.11621524 1.649
0.023243049 -0.11684342 1.6489999
0.094856761 -0.11809981 1.6489999
0.10208096 -0.11935619 1.649
0.12877905 -0.11935619 1.649
0.13506095 -0.11935619 1.649
0.20730287 -0.11935619 1.649
0.21358478 -0.11935619 1.649
0.01256381 -0.10993334 1.649
-0.034718096 -0.13413811 1.6569999
-0.028405715 -0.13413811 1.6570001
0.14360666 -0.13256 1.6570001
0.15307525 -0.13413811 1.6570001
0.16349068 -0.13382247 1.6569999
-0.094685726 -0.12782572 1.6569999
-0.086795241 -0.12782572 1.6570001
-0.03381633 -0.12624763 1.6569998
-0.026038572 -0.12466952 1.6570001
-0.017359048 -0.12624763 1.6570001
0.006312381 -0.12309143 1.6570001
0.063123815 -0.12309143 1.6570001
0.076537624 -0.12388048 1.6570001
0.12940381 -0.12940381 1.6570001
0.13611072 -0.12664215 1.6569998
0.14479023 -0.12585311 1.6569998
0.15465333 -0.12534586 1.6569998
0.16412191 -0.12466953 1.6569999
0.17516857 -0.12309143 1.6570001
0.18621524 -0.12309143 1.6570001
0.19568382 -0.12309143 1.6570001
0.2035743 -0.12309143 1.6570001
-0.026827618 -0.11835714 1.6570001
0.006312381 -0.11677905 1.6570001
0.017359048 -0.11046667 1.6570001
0.026038572 -0.11441191 1.6570001
0.033140004 -0.11993524 1.6570001
0.045238733 -0.11888317 1.6570001
0.056811426 -0.11520094 1.6569999
0.063912861 -0.11599001 1.6570001
0.07574857 -0.11783111 1.6569999
0.085217148 -0.11835714 1.6569999
0.094685718 -0.11520095 1.6570001
0.10494334 -0.1175681 1.6570001
0.11425409 -0.119304 1.6569999
0.12624763 -0.11730508 1.6569999
0.1357162 -0.11520094 1.6569999
0.14518476 -0.11677905 1.6569998
0.15465333 -0.11520096 1.6569997
0.1641219 -0.11520096 1.6569997
0.17464256 -0.1178311 1.6569998
0.18542619 -0.11914619 1.6570001
0.19568382 -0.11768081 1.6569998
0.20470151 -0.11677904 1.6569998
0.21462095 -0.11520096 1.6569999
-0.074170485 0.68647146 1.6570001
-0.073381431 0.71566623 1.6570001
-0.069436193 0.71645528 1.6570001
-0.06628 0.72908002 1.6570001
-0.059967622 0.72908002 1.6570001
-0.22358572 -0.14430001 1.6650001
-0.21629143 -0.14398286 1.6650002
-0.20614286 -0.1443 1.6650001
-0.19662857 -0.1443 1.6650001
-0.23151429 -0.13478571 1.6650001
-0.2251714 -0.13478573 1.6650003
-0.21565716 -0.13478571 1.6650003
-0.20614289 -0.13478571 1.6650003
-0.19536 -0.13446856 1.6650004
-0.18552858 -0.1332 1.6650001
-0.17442858 -0.13383429 1.6650002
-0.10148571 -0.13002858 1.6650001
-0.050742857 -0.13002858 1.6650001
-0.045985717 -0.1332 1.6650001
-0.038057145 -0.13002858 1.6650001
-0.0063428567 -0.13002858 1.6650001
0.14905715 -0.1316143 1.6650001
0.15222858 -0.13002858 1.6650001
0.16174287 -0.13002858 1.6650001
-0.22477502 -0.12408215 1.6650001
-0.21526071 -0.12328929 1.6650001
-0.20614287 -0.12368572 1.6650001
-0.1946104 -0.12368572 1.6650002
-0.18330857 -0.12558858 1.6650002
-0.1760143 -0.12527144 1.6650001
-0.14543267 -0.12277959 1.6650001
-0.13478571 -0.12368572 1.6650003
-0.12685715 -0.12368572 1.6650001
-0.10148571 -0.12685715 1.6650001
-0.095142864 -0.12368572 1.6650001
-0.084835723 -0.12447858 1.6650001
-0.079285719 -0.12685715 1.6650001
-0.050742857 -0.12527144 1.6650001
-0.043946944 -0.12368572 1.6650001
-0.035678573 -0.12130715 1.6650001
-0.022200001 -0.12051429 1.6650001
-0.015857143 -0.12368572 1.6650002
-0.0069771432 -0.12558858 1.6650002
0.0022653062 -0.12413878 1.6650001
0.038057145 -0.12051429 1.6650001
0.041228574 -0.12051429 1.6650001
0.066600002 -0.12241714 1.6650002
-0.21248572 -0.11734286 1.6650001
-0.20614286 -0.11734286 1.6650001
-0.19504286 -0.11734286 1.6650001
-0.1871143 -0.11734286 1.6650001
-0.14377144 -0.11628572 1.6650001
-0.13700572 -0.11607429 1.6650002
-0.034885716 -0.11734286 1.6650001
-0.026005715 -0.11353715 1.6650002
-0.019028572 -0.11734286 1.6650001
0.0047571426 -0.11417143 1.6650001
0.027485713 -0.11311429 1.6650001
0.032507144 -0.11496428 1.6650001
0.044400003 -0.11544001 1.6650002
0.052857142 -0.11417142 1.6650001
0.066071428 -0.11364286 1.6650001
0.076114289 -0.11522857 1.6650001
0.087214291 -0.11417143 1.6650001
0.093557149 -0.11417143 1.6650001
0.10386428 -0.11337857 1.6650001
0.11480572 -0.11544001 1.6650002
0.12289286 -0.11496429 1.6650001
0.13637143 -0.111 1.6650001
0.14588572 -0.111 1.6650001
0.17506287 -0.11226857 1.6650002
0.18473573 -0.11496429 1.6650001
0.19481634 -0.11326531 1.6650001
0.20455715 -0.11258572 1.6650001
-0.025371429 -0.10782857 1.6650001
0.1649143 -0.10782857 1.6650001
-0.10148571 0.67551428 1.6650001
-0.074528575 0.68502861 1.6650001
-0.082457148 0.7072286 1.6650001
-0.075717859 0.70445359 1.6650001
-0.076114289 0.71357149 1.6650001
-0.075321428 0.72546428 1.6650001
-0.069771431 0.72784287 1.6650001
-0.07294286 0.73577148 1.6650001
-0.060257144 0.73735714 1.6650001
-0.056028575 0.73365718 1.6650001
-0.07294286 0.74211431 1.6650001
-0.060257144 0.74211431 1.6650001
-0.22306667 -0.1434 1.6730001
-0.2145689 -0.14871113 1.673
-0.1912 -0.1434 1.673
-0.18673865 -0.1434 1.6730001
-0.18164001 -0.13384001 1.673
-0.17526668 -0.13304333 1.6730001
-0.16783112 -0.13171555 1.673
-0.10675334 -0.13065334 1.6730001
-0.04142667 -0.13384001 1.673
-0.01434 -0.13065334 1.6730001
0.0015933334 -0.13065334 1.6730001
-0.22944 -0.12109334 1.6730001
-0.21988001 -0.12746668 1.6730001
-0.20076001 -0.12428001 1.6730001
-0.18562335 -0.12189001 1.6730001
-0.17399201 -0.12300535 1.6730001
-0.16623779 -0.1237489 1.6730002
-0.15550934 -0.12236802 1.6730001
-0.12428001 -0.12268668 1.6730001
-0.11535732 -0.12555468 1.6730001
-0.10622223 -0.12481112 1.6730002
-0.095600009 -0.12109334 1.673
-0.086039998 -0.12109334 1.673
-0.077117339 -0.12300535 1.6730001
-0.063096002 -0.12300535 1.6730001
-0.054173335 -0.12321779 1.673
-0.046206668 -0.12428001 1.6730001
-0.01434 -0.12109334 1.6730001
-0.0055766669 -0.12189001 1.6730001
0.054810666 -0.12236802 1.6730001
-0.22625335 -0.11631334 1.6730002
-0.21527703 -0.11436594 1.6730002
-0.20474334 -0.11392334 1.6730001
-0.19518334 -0.11392334 1.6730001
-0.18418935 -0.11599467 1.6730001
-0.17526667 -0.11711 1.6730001
-0.16570666 -0.11790667 1.6730001
-0.15614666 -0.11631334 1.6730002
-0.14658667 -0.11335429 1.6730002
-0.13320267 -0.11408267 1.6730001
-0.12746668 -0.11790667 1.6730001
-0.095600002 -0.11790667 1.6730001
-0.074203812 -0.11654095 1.6730002
-0.064370677 -0.11663201 1.6730001
-0.043020003 -0.11790667 1.6730001
-0.035053339 -0.11312667 1.6730002
-0.022306668 -0.11312667 1.6730001
-0.015933335 -0.11551667 1.6730001
-0.0063733333 -0.11790667 1.673
0.0015933334 -0.11312667 1.6730001
0.036646668 -0.11472 1.6730001
0.046206668 -0.11153334 1.6730001
0.052580003 -0.11153334 1.6730001
0.074886672 -0.11153334 1.6730001
0.083915561 -0.11259556 1.673
0.095600009 -0.11153334 1.673
0.10675334 -0.11153334 1.6730001
0.11472001 -0.11153334 1.673
0.12268668 -0.11153334 1.6730001
0.13383999 -0.11153334 1.6730001
0.18482669 -0.11153334 1.673
0.1912 -0.11153334 1.6730001
0.20713334 -0.11153334 1.6730001
0.21350665 -0.11153334 1.673
-0.03186667 -0.10834667 1.6730001
-0.025493335 -0.10834667 1.6730001
-0.01912 -0.10834667 1.6730001
0.01912 -0.10834667 1.6730001
0.027086668 -0.10834667 1.6730001
0.056297779 -0.10728445 1.673
0.063733339 -0.10834667 1.673
0.071700007 -0.10834667 1.6730001
0.10197334 -0.10834667 1.6730001
0.11153334 -0.10834667 1.6730001
0.14977334 -0.10834667 1.6730001
0.15614666 -0.10834667 1.673
0.16570666 -0.10834667 1.6730001
0.17526667 -0.10834667 1.673
0.19598001 -0.10834667 1.6730001
0.20394666 -0.10834667 1.673
-0.10197334 0.68194669 1.6730001
-0.085243337 0.68752337 1.6730001
-0.076480001 0.68619555 1.673
-0.08285334 0.69150668 1.6730001
-0.079666667 0.69150668 1.6730001
-0.10356668 0.70744002 1.6730001
-0.08285334 0.70744002 1.6730001
-0.079666667 0.70425338 1.6730001
-0.10356668 0.71062672 1.6730001
-0.084446669 0.71222007 1.6730001
-0.079666667 0.71700001 1.6730001
-0.08285334 0.72018671 1.6730001
-0.078073338 0.72656 1.6730001
-0.074355558 0.7371822 1.673
-0.065326676 0.73930669 1.6730001
-0.054173335 0.73930669 1.6730001
-0.075417779 0.74408668 1.6730002
-0.063733339 0.74408668 1.6730001
-0.057360001 0.74408668 1.6730001
-0.18410954 -0.14248477 1.6810001
-0.17930667 -0.14088382 1.6810001
-0.16329715 -0.12615505 1.6810001
-0.15529239 -0.1280762 1.6810001
-0.12167237 -0.12487429 1.6810001
-0.11526858 -0.12167237 1.6810001
-0.10406191 -0.12167238 1.6810001
-0.07204286 -0.12167238 1.6810001
-0.06724 -0.12167238 1.6810001
-0.056033336 -0.12167238 1.6810001
0.051230479 -0.12487429 1.6810001
0.060836192 -0.12167238 1.6810001
-0.22413333 -0.11206666 1.6810001
-0.20332097 -0.11206667 1.6810001
-0.19371524 -0.11206667 1.6810001
-0.18571049 -0.11206666 1.6810001
-0.17610477 -0.11334743 1.6810001
-0.1648981 -0.11473493 1.6810001
-0.15529239 -0.11206667 1.6810001
-0.1312781 -0.11206667 1.6810001
-0.12551467 -0.11590896 1.6810001
-0.11526857 -0.11847048 1.6810001
-0.10726382 -0.11847048 1.6810001
-0.096057147 -0.11847048 1.6810001
-0.084164359 -0.11618341 1.681
-0.073643818 -0.11206667 1.6810001
-0.063237622 -0.11286715 1.6810001
-0.054432381 -0.11847048 1.6810001
-0.044186287 -0.1146282 1.6810001
-0.015209048 -0.11366762 1.6810001
-0.0064038099 -0.11366763 1.6810001
0.03842286 -0.11206667 1.6810001
0.041624762 -0.11206667 1.6810001
0.089653336 -0.11206667 1.6810001
0.1280762 -0.11206667 1.6810001
-0.21292667 -0.10886477 1.6810001
-0.20492192 -0.10886476 1.6810001
-0.1953162 -0.10886476 1.6810001
-0.15048952 -0.10886477 1.6810001
-0.14408572 -0.10886476 1.6810001
-0.13608095 -0.10886477 1.6810001
-0.070441909 -0.10886477 1.6810001
-0.036821909 -0.10886477 1.6810001
-0.02561524 -0.10566286 1.6810001
-0.014408572 -0.10886477 1.6810001
-0.0080047622 -0.10886477 1.6810001
0.0048028575 -0.10886477 1.6810001
0.015369144 -0.10694362 1.6810001
0.024814762 -0.10646334 1.6810001
0.035220955 -0.10886476 1.6810001
0.045627143 -0.10806429 1.6810001
0.053631905 -0.10566287 1.6810001
0.06339772 -0.1043821 1.6810001
0.074444294 -0.10646334 1.6810001
0.084850483 -0.10886477 1.6810001
0.099259049 -0.10886477 1.6810001
0.10630324 -0.10694362 1.6810001
0.11590896 -0.10694363 1.6810001
0.1240738 -0.10806429 1.6810001
0.13287905 -0.10886477 1.6810001
0.1448862 -0.10806429 1.6810001
0.15369144 -0.10566286 1.6810001
0.1648981 -0.10566286 1.6810001
0.17690524 -0.10486238 1.6810001
0.18616791 -0.1065777 1.681
0.19478254 -0.10512921 1.6810001
0.20492192 -0.10566286 1.6810001
0.21452762 -0.10726381 1.6810001
0.21452762 -0.083249524 1.6810001
0.2249338 -0.082449049 1.6810001
0.0064038099 0.11847048 1.6810001
-0.10246096 0.67880386 1.6810001
-0.096057147 0.67880386 1.6810001
-0.095656916 0.68480748 1.681
-0.085650943 0.68600816 1.681
-0.094456196 0.69321239 1.6810001
-0.085917778 0.69694799 1.6810001
-0.08405 0.70361865 1.681
-0.07684572 0.70281816 1.6810001
-0.10246096 0.71722668 1.6810001
-0.086451434 0.71402478 1.6810001
-0.10246096 0.72202957 1.6810001
-0.084850475 0.72283006 1.6810001
-0.080848098 0.73483717 1.6810001
-0.07684572 0.73964 1.6810001
-0.085536599 0.74695873 1.681
-0.06724 0.74764478 1.6810001
-0.053365082 0.74604386 1.6810001
-0.046427622 0.74284196 1.6810001
-0.1818762 -0.14485715 1.6900001
-0.13359049 -0.13198096 1.6900001
-0.14807619 -0.1287619 1.6900001
-0.17060953 -0.11266667 1.6900001
-0.16739048 -0.11266667 1.6900001
-0.12339684 -0.11373969 1.6900001
-0.11588573 -0.11427619 1.6900002
-0.10576872 -0.11496598 1.6900003
-0.094961904 -0.1142762 1.6900003
-0.085304767 -0.11266667 1.6900001
-0.074038096 -0.11266667 1.6900001
-0.05472381 -0.1142762 1.6900002
-0.048285715 -0.11427619 1.6900001
-0.22479145 -0.10876857 1.692
-0.21527873 -0.10602223 1.6953334
-0.20451303 -0.10332954 1.6953334
-0.19550695 -0.10420573 1.6945715
-0.18542096 -0.10802667 1.6930001
-0.17424001 -0.10808951 1.6939999
-0.16469206 -0.10817587 1.6953334
-0.15553842 -0.10709777 1.6953335
-0.14456667 -0.10579715 1.6960001
-0.13494021 -0.10652723 1.6948
-0.12603556 -0.10826223 1.6966667
-0.1164343 -0.10834857 1.6980001
-0.10608457 -0.10931887 1.6980002
-0.092716195 -0.10780954 1.6980001
-0.083917044 -0.10650286 1.6944444
-0.075162448 -0.10651157 1.6945714
-0.064533331 -0.10808951 1.6940001
-0.055629719 -0.108672 1.6980002
-0.044759184 -0.10750748 1.6957142
-0.035493337 -0.10486287 1.6940001
-0.025154287 -0.10191087 1.6931999
-0.016135875 -0.10327535 1.6944447
-0.006134477 -0.10394134 1.6948001
0.0046891775 -0.10351967 1.6936364
0.016922858 -0.10232286 1.692
0.025813336 -0.10163619 1.6939999
0.034829717 -0.10513601 1.6932001
0.045211431 -0.10386857 1.6953335
0.05265905 -0.10209397 1.6926666
0.067600004 -0.10300953 1.6900001
0.074038096 -0.10300953 1.6900001
0.083917044 -0.10327536 1.6944447
0.094098352 -0.10493993 1.6929092
0.10498857 -0.10175809 1.6960001
0.11616 -0.1016362 1.6940001
0.12617841 -0.10362477 1.6913334
0.13584343 -0.10389258 1.6940002
0.14479572 -0.10284524 1.6940002
0.15488 -0.1016362 1.6940001
0.16456001 -0.10163619 1.6939999
0.17424001 -0.1016362 1.6939999
0.18509525 -0.10300953 1.6900001
0.19636191 -0.10300953 1.6900001
0.20601904 -0.10300953 1.6900001
0.2156762 -0.10300953 1.6900001
-0.027140573 -0.096934095 1.6964
-0.017788572 -0.097028576 1.6980001
-0.004528 -0.094441153 1.6980002
0.0055795675 -0.094844341 1.6958181
0.015858009 -0.094842941 1.6958183
0.024257146 -0.095411435 1.6980001
0.056214426 -0.096305303 1.6934286
0.06456127 -0.095219679 1.6946669
0.074300952 -0.095293336 1.6960001
0.081935234 -0.094872385 1.6980001
0.092177145 -0.097028576 1.6980001
0.10754 -0.094602861 1.6980001
0.11603001 -0.09419857 1.6980001
0.12597369 -0.094842941 1.6958181
0.13422287 -0.093794286 1.6980001
0.14554286 -0.097028576 1.6980001
0.17788573 -0.093794286 1.6980001
0.18529446 -0.09554895 1.6948
0.19530399 -0.095224008 1.6948
0.20502667 -0.095016055 1.695143
0.21525715 -0.09487208 1.6906158
0.22340193 -0.092708573 1.6900002
0.0059295241 -0.083552383 1.6980001
0.015247347 -0.084553473 1.6980001
0.022640001 -0.084091432 1.6980001
0.058217146 -0.085708573 1.6980001
0.064223684 -0.08501552 1.6980001
0.075197145 -0.086517148 1.6980001
0.080857143 -0.085708573 1.6980001
0.10996572 -0.080857143 1.6980001
0.1132 -0.080857143 1.6980001
0.12678401 -0.086032003 1.6980002
0.13260572 -0.085708573 1.6980001
0.17626858 -0.082474291 1.6980001
0.18435431 -0.084091432 1.6980001
0.19405715 -0.084091425 1.6980001
0.20498399 -0.083289132 1.6948
0.21489796 -0.08421389 1.691143
0.22372381 -0.08369524 1.6900001
0 -0.077622861 1.6980001
0.015093334 -0.076544762 1.6980001
0.097028576 -0.074388571 1.6980001
0.1132 -0.077622861 1.6980001
0.17707714 -0.075197145 1.6980001
0.18425611 -0.074349627 1.6971111
0.19395557 -0.074349634 1.6971111
0.2041128 -0.074603811 1.6956002
0.21486996 -0.073868744 1.6929092
0.22372383 -0.074038096 1.6900002
0.17788573 -0.067919999 1.6980001
0.18481635 -0.065609798 1.6980001
0.19405715 -0.064685717 1.6980001
0.20376001 -0.064685717 1.6980001
0.21465079 -0.064559996 1.6946667
0.22291908 -0.065185718 1.6900001
0.18758857 -0.058217146 1.6980001
0.19729143 -0.05498286 1.6980001
0.20376003 -0.054982856 1.6980001
0.21508001 -0.054982852 1.6980001
0.20052572 -0.048514288 1.6980001
0.21508002 -0.045279998 1.6980001
0.21346286 -0.03881143 1.6980001
0.21993144 -0.0097028576 1.6980001
0.22316572 -0.0080857147 1.6980001
-0.071154289 0.11643429 1.6980001
-0.064038858 0.11772799 1.6980002
-0.0064685717 0.11966857 1.6980001
0.0042920639 0.11929271 1.6926666
0.048514288 0.11805143 1.6980001
0.052745398 0.11840763 1.6953334
0.064685717 0.11966857 1.6980001
0.093794286 0.11966857 1.6980001
-0.012937143 0.1277543 1.6980001
-0.0064576874 0.12680218 1.6945716
0.0048285718 0.12559111 1.690667
0.016112169 0.12567492 1.6917779
0.025399523 0.1261681 1.6930003
0.036039181 0.12706123 1.6980001
0.045280002 0.12573287 1.6980001
0.05498286 0.12613715 1.6980001
0.064685717 0.12613715 1.6980002
0.077622861 0.12937143 1.6980001
0.084091432 0.12613715 1.6980001
0.091638096 0.12505905 1.6980001
-0.012937143 0.13422287 1.6980001
-0.0060566668 0.13519953 1.6950002
0.0048412704 0.13552509 1.6940001
0.016624764 0.13482668 1.6968572
0.025860742 0.13577057 1.6971111
0.032342859 0.13584 1.6980001
0.051748574 0.13260572 1.6980001
-0.0032342859 0.14230858 1.6980001
0.0016171429 0.14230858 1.6980001
-0.10430571 0.66788006 1.6980001
-0.10399619 0.67597306 1.6956002
-0.095745608 0.67813218 1.6944447
-0.085708573 0.67920005 1.6980001
-0.090346672 0.68243623 1.694
-0.083869629 0.68386871 1.6935556
-0.077379055 0.68673402 1.6926666
-0.10300953 0.69692385 1.6900001
-0.099790476 0.69531435 1.6900001
-0.10225651 0.70612317 1.6953334
-0.094961904 0.70497143 1.6900003
-0.086914286 0.7081905 1.6900001
-0.10274972 0.71280992 1.6964
-0.094522953 0.7149213 1.6900004
-0.094961904 0.72428566 1.6900004
-0.10163619 0.73407054 1.694
-0.093710057 0.73322755 1.6900003
-0.086109519 0.73474765 1.6900001
-0.10026286 0.74388576 1.6980001
-0.093687624 0.74462283 1.6960001
-0.085304767 0.74360007 1.6900002
-0.095411435 0.75035429 1.6980001
-0.051504765 0.75164765 1.6900001
-0.046676196 0.75164765 1.6900001
-0.2307162 -0.10723429 1.7060001
-0.22746667 -0.10723429 1.7060001
-0.21528096 -0.10154762 1.7060001
-0.19334668 -0.10073524 1.7060001
-0.18522286 -0.10398477 1.706
-0.17547429 -0.10398477 1.706
-0.16572572 -0.10398477 1.706
-0.15597714 -0.10398477 1.7060001
-0.14785334 -0.10398477 1.7060001
-0.13648 -0.10398477 1.7060001
-0.12510666 -0.10398477 1.7060001
-0.11373333 -0.10398477 1.706
-0.10398477 -0.10723429 1.706
-0.095048577 -0.10398477 1.7060001
-0.084487617 -0.10073524 1.706
-0.074739046 -0.10181842 1.706
-0.064990476 -0.10398477 1.706
-0.053075556 -0.10506795 1.706
-0.046143241 -0.10203506 1.7060001
-0.035744764 -0.10073524 1.706
0.036557145 -0.10154762 1.7060001
0.043868572 -0.10073524 1.7060001
0.097485721 -0.10073524 1.7060001
-0.20472001 -0.095860958 1.7060001
-0.090986669 -0.097485721 1.7060001
-0.077988572 -0.097485721 1.7060001
-0.043868572 -0.095860958 1.7060001
-0.03574476 -0.095164634 1.7060002
-0.025346288 -0.092286482 1.7060001
-0.015783401 -0.093307756 1.7060002
-0.008936191 -0.093423814 1.7060001
0.001624762 -0.090986669 1.7060001
0.027296001 -0.092936382 1.7060001
0.034932382 -0.09667334 1.7060001
0.045493335 -0.094236195 1.7060002
0.053617142 -0.092611432 1.7060001
0.08557079 -0.093694605 1.7060002
0.094700411 -0.093307756 1.7060002
0.10439096 -0.093830004 1.7060002
0.12023239 -0.090986669 1.7060001
0.13972953 -0.094236195 1.706
0.14622857 -0.093830004 1.7060002
0.15532723 -0.096185908 1.7060001
0.16572572 -0.095536008 1.7060001
0.17547429 -0.094700411 1.7060002
-0.20472001 -0.087737143 1.7060001
-0.025996191 -0.084893808 1.7060002
-0.015841426 -0.084893808 1.7060002
-0.0064990474 -0.084487624 1.7060002
0.0037911113 -0.085029207 1.7060002
0.019497143 -0.082862861 1.7060001
0.026402382 -0.084487617 1.7060002
0.032495238 -0.08611238 1.7060001
0.045899525 -0.084893808 1.7060002
0.054313473 -0.084023401 1.7060002
0.066615239 -0.081238098 1.7060001
0.074089147 -0.082537904 1.7060001
0.085416056 -0.084023401 1.7060002
0.094236195 -0.084487617 1.7060002
0.10398477 -0.084487617 1.7060002
0.11419756 -0.085416056 1.7060002
0.12348191 -0.083094962 1.7060002
0.13648 -0.084487617 1.7060001
0.14622858 -0.087737143 1.706
0.15272762 -0.087737143 1.7060001
0.16897525 -0.082862861 1.7060001
0.17417447 -0.08578743 1.7060001
0.20147048 -0.087737143 1.7060001
-0.029245714 -0.074739046 1.706
-0.014947811 -0.075388953 1.7060001
-0.0064990479 -0.076363809 1.7060002
0.0055706124 -0.076131701 1.7060002
0.016247621 -0.074739054 1.706
0.025996191 -0.077988572 1.706
0.032495238 -0.077988572 1.7060001
0.047118098 -0.077988572 1.7060001
0.055241909 -0.077988572 1.706
0.064990476 -0.077988572 1.706
0.074739046 -0.077988572 1.706
0.08557079 -0.075822227 1.7060002
0.092611432 -0.074739046 1.7060002
0.10398477 -0.074739046 1.7060002
0.11373334 -0.074332856 1.7060002
0.12637037 -0.075461164 1.7060002
0.13323048 -0.077988572 1.7060001
0.14622858 -0.077988572 1.7060001
0.16665415 -0.075203262 1.7060002
0.17352457 -0.074089147 1.7060001
0.095860958 -0.066615239 1.7060001
0.10723429 -0.068240002 1.7060001
0.11373334 -0.066615239 1.7060001
0.12835619 -0.068240002 1.7060001
0.16897525 -0.066615239 1.7060001
0.17547429 -0.065532058 1.7060002
0.1835981 -0.061740953 1.7060001
0.18481667 -0.054835718 1.7060002
0.19334668 -0.055241909 1.7060002
0.17709905 -0.045493335 1.7060002
0.18522286 -0.045493335 1.7060002
0.19497144 -0.045493335 1.7060002
0.2051262 -0.045087144 1.7060002
0.17791143 -0.036557145 1.7060001
0.18522286 -0.03574476 1.7060002
0.19497144 -0.03574476 1.7060002
0.20472001 -0.03574476 1.7060002
0.2149328 -0.03574476 1.7060002
0.22178 -0.034932382 1.7060001
0.18587276 -0.027945906 1.7060001
0.19172192 -0.029245716 1.7060001
-0.073114291 0.11373334 1.7060001
0.087737143 0.11698286 1.7060001
0.095048577 0.11617048 1.7060001
0.10463468 0.11568306 1.7060001
0.11156698 0.11589968 1.706
0.12185715 0.11210857 1.7060001
-0.071489528 0.12185715 1.7060001
-0.064990468 0.1240235 1.7060002
-0.026808571 0.12916857 1.7060001
-0.016247621 0.12618984 1.7060002
-0.0064990474 0.12185714 1.7060001
0.029245716 0.12348191 1.7060001
0.034120001 0.12348191 1.7060001
0.043868572 0.12023239 1.7060001
0.058491431 0.12023239 1.7060001
0.064340569 0.12543163 1.7060001
0.074739046 0.12564826 1.7060002
0.084487617 0.12023238 1.706
0.095048577 0.12551285 1.7060002
0.10398477 0.12510666 1.706
0.11308344 0.12510666 1.7060001
0.12185714 0.12510668 1.7060001
-0.026460409 0.13555156 1.7060002
-0.016789205 0.13647999 1.7060002
-0.0097485716 0.13972953 1.7060001
0.014622858 0.13972953 1.7060001
0.036673196 0.13647999 1.7060002
0.045029115 0.13647999 1.7060002
0.055891812 0.13518019 1.7060001
0.064990483 0.13485523 1.7060002
0.075203262 0.13555156 1.7060002
0.084081426 0.1360738 1.7060002
0.094236195 0.13323048 1.706
0.10236001 0.13323048 1.7060001
0.11373333 0.13323048 1.706
-0.012998096 0.14297906 1.7060001
-0.0075822226 0.14406224 1.706
0 0.14622858 1.7060001
0.037369527 0.14297906 1.7060001
-0.097485721 0.65965337 1.7060001
-0.082862861 0.65965337 1.7060001
-0.1029016 0.66723561 1.7060002
-0.094236195 0.66615236 1.7060001
-0.084487617 0.66615242 1.7060002
-0.076363809 0.66615242 1.7060002
-0.093771979 0.67497253 1.7060002
-0.084487617 0.67590094 1.7060002
-0.075203262 0.67497253 1.7060002
-0.064448893 0.675901 1.7060002
-0.081238098 0.68240005 1.7060001
-0.077988572 0.68402481 1.7060001
-0.063365713 0.68240005 1.7060001
-0.073114291 0.69377339 1.7060001
-0.23193334 -0.1029 1.715
-0.22540002 -0.1029 1.715
-0.18620001 -0.10126666 1.715
-0.17640001 -0.10126666 1.715
-0.16496667 -0.10126667 1.715
-0.14373334 -0.10126666 1.715
-0.13393334 -0.10126666 1.715
-0.12413334 -0.10126666 1.715
-0.11596667 -0.10126667 1.715
-0.10453334 -0.10290001 1.715
-0.096366674 -0.10126667 1.715
-0.071866669 -0.10126667 1.715
-0.065333337 -0.10126666 1.715
-0.05635 -0.10208333 1.715
-0.23193334 -0.098000005 1.715
-0.22540002 -0.098000012 1.715
-0.21560001 -0.098000005 1.715
-0.20580001 -0.094266668 1.715
-0.19600001 -0.094733335 1.715
-0.18946667 -0.094733335 1.715
-0.095277786 -0.095277786 1.715
-0.084933341 -0.095141664 1.715
-0.075133331 -0.094733335 1.715
-0.065333337 -0.098000012 1.715
-0.055066671 -0.095666662 1.715
-0.047040004 -0.093426667 1.7149999
-0.035933334 -0.091466673 1.715
0.036586668 -0.092773333 1.7149999
0.15516667 -0.091466673 1.715
0.16442223 -0.093100004 1.715
0.17313334 -0.091466673 1.715
-0.2058 -0.084525004 1.715
-0.19600002 -0.084933333 1.715
-0.18946667 -0.084933341 1.715
-0.052266669 -0.088200003 1.715
-0.045733333 -0.087383337 1.715
-0.035466667 -0.085866675 1.715
-0.026133334 -0.081666671 1.715
-0.0196 -0.081666671 1.715
0.036866669 -0.084466673 1.715
0.042466667 -0.081666671 1.715
0.14373334 -0.083300002 1.715
0.15400001 -0.084000006 1.715
0.16398667 -0.085259996 1.7149999
-0.20580001 -0.075133339 1.715
-0.19640833 -0.075541668 1.715
-0.035466667 -0.076066665 1.715
-0.024500003 -0.075133331 1.715
-0.017966667 -0.074316666 1.715
-0.0065333336 -0.071866669 1.715
0.0049000001 -0.071866669 1.715
0.017422223 -0.072955556 1.715
0.026133334 -0.073500007 1.715
0.038111113 -0.077311113 1.715
0.045266666 -0.074199997 1.715
0.055533331 -0.0735 1.715
0.065333337 -0.073500007 1.715
0.075133331 -0.0735 1.715
0.082755558 -0.072955556 1.715
0.12195555 -0.072955556 1.715
0.13589332 -0.074479997 1.7149999
0.143325 -0.074725002 1.715
0.15353334 -0.075133339 1.715
0.16137335 -0.074479997 1.7149999
-0.21342222 -0.066422224 1.715
-0.20580001 -0.066966668 1.715
-0.026133334 -0.065333337 1.715
-0.016333334 -0.065333337 1.715
-0.0065333331 -0.065333337 1.715
0.0042466666 -0.065986671 1.7149999
0.016333332 -0.065333337 1.715
0.025316669 -0.066150002 1.715
0.045733336 -0.068599999 1.715
0.055941667 -0.065741666 1.715
0.065333337 -0.065333337 1.715
0.074588895 -0.066422224 1.715
0.085341677 -0.065741666 1.715
0.093426667 -0.064026669 1.7149999
0.104125 -0.064925 1.715
0.11433333 -0.064866669 1.715
0.12372501 -0.064925 1.715
0.13434167 -0.064925 1.715
0.14373334 -0.065333337 1.715
0.15353334 -0.065333337 1.715
0.16398667 -0.065006666 1.7149999
0.17476667 -0.062066671 1.715
-0.0294 -0.055533335 1.715
-0.016333334 -0.058800001 1.715
0.0032666668 -0.058800001 1.715
0.016333334 -0.058800001 1.715
0.026133334 -0.055533335 1.715
0.057493336 -0.056186665 1.7149999
0.065333337 -0.055533338 1.715
0.071866669 -0.053900003 1.715
0.086566672 -0.057166666 1.715
0.095141672 -0.055941667 1.715
0.10453334 -0.055941671 1.715
0.113925 -0.055941664 1.715
0.12467778 -0.056622222 1.715
0.13393334 -0.057493336 1.7149999
0.14291668 -0.057983335 1.715
0.15418668 -0.057493336 1.7149999
0.16594668 -0.058146667 1.7149999
0.17640001 -0.055533331 1.715
0.016333334 -0.049000002 1.715
0.024826668 -0.04638667 1.7149999
0.058800001 -0.049000002 1.715
0.065333337 -0.049000002 1.715
0.10780001 -0.049000002 1.715
0.12413334 -0.049000002 1.715
0.17313333 -0.045733336 1.715
0.017966667 -0.0392 1.715
0.16986667 -0.0392 1.715
0.17476667 -0.035933334 1.715
0.21233334 -0.032666668 1.715
0.17885 -0.026950002 1.715
0.18538333 -0.023683336 1.715
0.19640833 -0.025725001 1.715
0.2058 -0.026133336 1.715
0.21560001 -0.026133336 1.715
0.22376668 -0.026133334 1.715
0.18660834 -0.016741667 1.715
0.19600002 -0.016333334 1.715
0.20580001 -0.016333334 1.715
0.21560001 -0.016333332 1.715
0.22376668 -0.016333334 1.715
0.18783334 -0.0098000001 1.715
0.19273335 -0.0065333336 1.715
0.21805 -0.0073500001 1.715
0.22213334 -0.0049000001 1.715
0.19273335 0 1.715
0.10780001 0.10780001 1.715
0.11433333 0.10780001 1.715
0.12413334 0.10780001 1.715
0.13393334 0.10780001 1.715
0.044100001 0.1176 1.715
0.083300002 0.1176 1.715
0.094733335 0.11324444 1.715
0.10371667 0.11188333 1.715
0.11542223 0.11324445 1.715
0.12544 0.11564 1.7149999
0.13393334 0.11433334 1.715
0.14046668 0.11433333 1.715
-0.071866669 0.12740001 1.715
-0.068599999 0.12740001 1.715
-0.056186665 0.12609334 1.7149999
-0.049000002 0.12740001 1.715
-0.035933334 0.12740001 1.715
-0.026133332 0.12413334 1.715
-0.017966667 0.12413334 1.715
0.068599999 0.12086667 1.715
0.071866669 0.12086667 1.715
0.1176 0.12086667 1.715
0.12544 0.12282667 1.7149999
0.13393334 0.12413335 1.715
0.14046668 0.12413334 1.715
-0.064244449 0.13284445 1.715
-0.055533338 0.13393334 1.715
-0.045733336 0.13393335 1.715
-0.035933334 0.13393334 1.715
0.045733336 0.1323 1.715
0.094733335 0.1372 1.715
0.10535 0.13638332 1.715
0.11515 0.13556667 1.715
0.12413335 0.13393334 1.715
0.13066667 0.1323 1.715
-0.052266669 0.14046668 1.715
-0.045733333 0.14210001 1.715
-0.036750004 0.14128335 1.715
-0.025479998 0.14242667 1.7149999
-0.016986666 0.14438668 1.7149999
-0.0065333336 0.147 1.715
0.0065333336 0.14536667 1.715
0.0196 0.14373334 1.715
0.026133334 0.14455001 1.715
0.035933334 0.14591111 1.715
0.046200003 0.14466667 1.715
0.055124998 0.143325 1.715
0.065333337 0.14046668 1.715
0.075133331 0.14155556 1.715
0.084933341 0.14264445 1.715
0.11433333 0.14046668 1.715
0.1225 0.14046668 1.715
0.2068889 0.23628891 1.715
0.20416668 0.28093335 1.715
-0.083300002 0.65986669 1.715
-0.094080001 0.66640002 1.7149999
-0.088200003 0.66313338 1.715
-0.075133339 0.66531116 1.715
-0.094733335 0.67293334 1.715
-0.071866669 0.67293334 1.715
-0.067511111 0.67511111 1.715
-0.073500007 0.68600005 1.715
-0.068599999 0.68600005 1.715
-0.073500007 0.69253337 1.715
-0.23739111 -0.10283303 1.723
-0.15424953 -0.10173905 1.723
-0.11158477 -0.10173905 1.723
-0.23575015 -0.095175244 1.7229999
-0.22645144 -0.093534291 1.7229999
-0.21660574 -0.094237559 1.7229998
-0.18378668 -0.095175244 1.7229998
-0.17394096 -0.095175236 1.7229998
-0.16409522 -0.095175236 1.7229998
-0.15424952 -0.095175244 1.7229998
-0.1444038 -0.095175236 1.7229998
-0.13455811 -0.095175244 1.7229998
-0.12471239 -0.095175244 1.7229998
-0.11486667 -0.095175244 1.7229998
-0.10502096 -0.095175236 1.7229998
-0.095175244 -0.091893338 1.723
-0.085329525 -0.091893338 1.723
-0.072201908 -0.091893338 1.723
-0.065638095 -0.093534291 1.7229999
-0.057433337 -0.091893338 1.723
-0.23301524 -0.086970478 1.723
-0.22645146 -0.085329525 1.7229998
-0.21660572 -0.085329525 1.7229998
-0.18378668 -0.085329518 1.7229998
-0.17394097 -0.086267218 1.7229998
-0.16464223 -0.086423494 1.7229999
-0.15424953 -0.088611431 1.723
-0.14393497 -0.086267218 1.7229998
-0.13346413 -0.086423486 1.7229999
-0.12518123 -0.086267218 1.7229998
-0.11486667 -0.085329525 1.7229998
-0.10502096 -0.085329533 1.7229998
-0.095175244 -0.085329533 1.7229998
-0.085329525 -0.085329525 1.7229998
-0.075483814 -0.085329525 1.7229998
-0.065638095 -0.085329525 1.7229998
-0.05620262 -0.084919296 1.7229998
-0.045946669 -0.083360381 1.7229999
-0.037741907 -0.082047619 1.723
-0.23301524 -0.075483814 1.723
-0.22481048 -0.07876572 1.723
-0.21566804 -0.075952657 1.7229998
-0.19117096 -0.074663341 1.723
-0.18378669 -0.077124767 1.7229999
-0.16212609 -0.075483814 1.7229999
-0.15342906 -0.073842861 1.723
-0.14604476 -0.073842861 1.723
-0.10420048 -0.077945247 1.723
-0.095175244 -0.077124767 1.7229999
-0.085739762 -0.07589405 1.7229998
-0.075483814 -0.077945247 1.723
-0.067279048 -0.07876572 1.723
-0.05579238 -0.07876572 1.723
-0.045536429 -0.07589405 1.7229998
-0.037741907 -0.072201908 1.723
0.035444573 -0.07351467 1.7229999
-0.22481048 -0.065638095 1.7229999
-0.21660571 -0.06470041 1.7229998
-0.20216534 -0.064325333 1.7229999
-0.19472636 -0.06618508 1.7229999
-0.16081335 -0.068920001 1.723
-0.15096763 -0.067279048 1.723
-0.14440382 -0.065638095 1.723
-0.086970478 -0.068920001 1.723
-0.072201908 -0.065638095 1.723
-0.065638095 -0.065638095 1.723
-0.05579238 -0.066732064 1.723
-0.048408099 -0.064817622 1.723
-0.035690717 -0.066048339 1.7229998
0.0082047619 -0.062356193 1.723
0.02691162 -0.064981714 1.7229999
0.036757335 -0.066950858 1.7229999
0.045946669 -0.065227859 1.7229998
0.052510478 -0.062356193 1.723
0.076577783 -0.063450158 1.723
0.082047619 -0.062356193 1.723
-0.23957905 -0.054151431 1.723
-0.22551377 -0.055323541 1.7229998
-0.21496475 -0.05579238 1.7229997
-0.20347808 -0.055792384 1.7229998
-0.049228575 -0.055792384 1.723
-0.033639524 -0.056612857 1.723
-0.024614288 -0.055792388 1.7229999
-0.016409524 -0.054151427 1.7229999
-0.0065638102 -0.055792376 1.7229998
0.0050720349 -0.055494033 1.7229997
0.016409524 -0.055382144 1.7229998
0.025598859 -0.055136003 1.7229999
0.0365698 -0.054854695 1.7229998
0.045946669 -0.055792376 1.7229998
0.05333095 -0.054971904 1.723
0.076421499 -0.056261223 1.7229998
0.084016755 -0.054479621 1.7229999
0.091893338 -0.052510478 1.723
0.10502096 -0.052510478 1.723
0.11814857 -0.052510478 1.723
0.12361842 -0.053604443 1.723
0.1345581 -0.053330958 1.723
0.1450602 -0.05382324 1.7229999
0.15342906 -0.05333095 1.723
0.16409524 -0.054151431 1.7229999
0.17065905 -0.052510478 1.723
-0.22551374 -0.045946669 1.7229998
-0.21451725 -0.046245024 1.7229997
-0.20457207 -0.047040638 1.7229999
-0.026255239 -0.045946669 1.7229998
-0.016409524 -0.046356905 1.7229998
-0.0065638102 -0.045946673 1.7229998
0.0049228575 -0.045946661 1.7229997
0.016409524 -0.045536432 1.7229998
0.02789619 -0.045126192 1.723
0.036100958 -0.045946673 1.7229998
0.045946669 -0.045946673 1.7229998
0.055382144 -0.045536432 1.7229998
0.065638095 -0.045536429 1.7229998
0.075483821 -0.045946673 1.7229998
0.085329525 -0.047587622 1.7229999
0.095585488 -0.046356905 1.7229998
0.10502095 -0.046493653 1.7229999
0.11486668 -0.045946673 1.7229998
0.12471238 -0.045536432 1.7229998
0.1345581 -0.045946669 1.7229998
0.14440382 -0.045946665 1.7229998
0.15424953 -0.045946673 1.7229998
0.16450547 -0.045946669 1.7229998
0.17065905 -0.045946669 1.723
-0.21004193 -0.036100954 1.723
-0.20566602 -0.037194923 1.723
-0.026255237 -0.037741907 1.7229999
-0.015315555 -0.037194923 1.723
-0.0065638097 -0.036100958 1.7229998
0.0049228575 -0.036100958 1.7229997
0.015940679 -0.035163265 1.7229998
0.026255237 -0.036100958 1.7229998
0.035690717 -0.035690717 1.7229998
0.045946669 -0.036100958 1.7229998
0.055792376 -0.036100954 1.7229998
0.065638095 -0.036100954 1.7229998
0.074546121 -0.0365698 1.7229998
0.095175244 -0.03938286 1.723
0.10830286 -0.03938286 1.723
0.11267873 -0.038288891 1.723
0.12635334 -0.036100954 1.7229999
0.13549578 -0.0365698 1.7229998
0.14440382 -0.036100954 1.7229998
0.15424955 -0.036100958 1.7229998
0.16409524 -0.036100954 1.7229998
0.17175303 -0.033913016 1.723
-0.0060168258 -0.027349206 1.7229999
0.0041023809 -0.025434762 1.7229998
0.016956508 -0.026255237 1.7229999
0.02691162 -0.028224383 1.7229999
0.035280477 -0.028716667 1.723
0.04660305 -0.028224383 1.7229999
0.056261223 -0.027192924 1.7229998
0.065227859 -0.026255237 1.7229998
0.074827433 -0.027568001 1.7229999
0.12471239 -0.026255239 1.723
0.13784 -0.026255241 1.723
0.14440382 -0.026255237 1.7229998
0.15424952 -0.026255237 1.7229998
0.16409524 -0.026255237 1.7229998
0.17353073 -0.025845001 1.7229998
-0.0032819049 -0.01969143 1.723
0.0032819051 -0.01969143 1.723
0.013127619 -0.01969143 1.723
0.059074286 -0.018050477 1.723
0.064981714 -0.017722286 1.7229999
0.075483814 -0.016409524 1.723
0.13784 -0.01969143 1.723
0.14440382 -0.018050477 1.7229999
0.15424952 -0.016409524 1.7229998
0.16409524 -0.016409524 1.7229998
0.17394096 -0.016409524 1.7229998
0.18132526 -0.015589048 1.723
0.067826033 -0.007657778 1.723
0.075483814 -0.009845715 1.723
0.15424953 -0.0087517463 1.723
0.16518921 -0.0043758731 1.723
0.17640239 -0.0057433336 1.723
0.18337643 -0.0061535719 1.7229998
0.19428878 -0.0059074285 1.7229999
0.20347808 -0.0065638097 1.7229998
0.21291359 -0.0061535719 1.7229998
0.17722286 0 1.723
0.18488064 0.0043758731 1.7229998
0.19363238 0.0053703897 1.7229997
0.2034781 0.0049228575 1.7229997
0.21496478 0.004922858 1.7229997
0.2242635 0.0060168258 1.7229999
0.18706858 0.016409524 1.723
0.19363241 0.016409524 1.7229998
0.20347808 0.016409524 1.7229998
0.21496479 0.016409524 1.7229997
0.2242635 0.015315555 1.723
0.18706858 0.026255241 1.723
0.19363241 0.026255237 1.7229998
0.2034781 0.026255237 1.7229998
0.21441776 0.025161268 1.7229998
0.18624811 0.03692143 1.723
0.19269469 0.0365698 1.7229998
0.20293111 0.035553969 1.7229999
0.19363239 0.086970478 1.723
0.19231963 0.093862481 1.7229999
0.09845715 0.10830286 1.723
0.10338001 0.10830286 1.723
0.11650762 0.10502096 1.723
0.12471239 0.10502096 1.723
0.13455811 0.10633372 1.7229999
0.14440382 0.10666192 1.7229999
0.15424953 0.10595864 1.7229998
0.18706858 0.10502096 1.723
0.19035049 0.10338001 1.723
-0.12307143 0.11814857 1.723
-0.11267874 0.1170546 1.723
-0.10830286 0.11486667 1.723
-0.075483814 0.11814857 1.723
0.07876572 0.11814857 1.723
0.085329525 0.11486667 1.723
0.093534291 0.11158477 1.723
0.14604476 0.11486667 1.7229999
0.15424953 0.11486667 1.7229998
-0.091893338 0.12635334 1.723
-0.084860682 0.12565008 1.7229998
-0.077124767 0.12471239 1.7229999
-0.052510478 0.12471239 1.723
-0.045946669 0.12690032 1.723
-0.034460001 0.12635334 1.723
0.037741907 0.12143048 1.723
0.075483814 0.12143048 1.723
0.14604476 0.12471239 1.7229999
0.15260857 0.12471239 1.7229999
-0.091893338 0.13127619 1.723
-0.085329525 0.13127619 1.723
-0.075483814 0.13291714 1.7229999
-0.067826033 0.13674603 1.723
0.13549578 0.13502693 1.7229998
0.14495079 0.13346411 1.7229999
0.15260857 0.13127619 1.723
-0.062356193 0.14112191 1.723
-0.055136003 0.14374743 1.7229999
-0.045946669 0.14768572 1.723
-0.036100954 0.14604476 1.723
-0.024614286 0.14768572 1.723
-0.01969143 0.14768572 1.723
0.016409524 0.14604476 1.723
0.026255239 0.14768572 1.723
0.032819048 0.14768572 1.723
0.059074286 0.14768572 1.723
0.065638095 0.14604476 1.7229999
0.073842861 0.14440382 1.723
0.085329525 0.14604476 1.723
0.095175244 0.14276287 1.7229999
0.10502096 0.14112191 1.723
0.11486667 0.14440382 1.723
0.12635334 0.14276287 1.723
0.13127619 0.14112191 1.723
-0.015589047 0.1517881 1.723
-0.0072201909 0.15228039 1.7229999
0 0.15096763 1.723
0.03938286 0.15096763 1.723
0.045946669 0.15096763 1.723
0.054151431 0.15096763 1.723
0.062356193 0.15096763 1.723
0.19625792 0.21594934 1.7229999
0.20207156 0.21660574 1.7229998
0.18706858 0.22973335 1.723
0.19363241 0.22645146 1.7229998
0.20347811 0.22645146 1.7229998
0.18706858 0.23957905 1.723
0.19363239 0.23629716 1.7229998
0.20254041 0.2358283 1.7229998
0.21541232 0.23629713 1.7229997
0.22563097 0.23547666 1.723
0.18706858 0.24286096 1.723
0.19417937 0.24668984 1.7229999
0.20347811 0.24614286 1.7229998
0.21238612 0.24567401 1.7229998
0.19428878 0.25664496 1.7229999
0.20388833 0.25598857 1.7229998
0.21291357 0.25639883 1.7229998
0.18706858 0.26911619 1.723
0.19363239 0.26583427 1.7229998
0.20347811 0.26583427 1.7229998
0.21168286 0.2658343 1.7229999
0.18624811 0.27650046 1.723
0.19363241 0.27568001 1.7229998
0.20347808 0.27568001 1.7229998
0.21238613 0.27521119 1.7229998
0.18542762 0.28552574 1.7229999
0.19363241 0.28552571 1.7229998
0.20300926 0.28646344 1.7229998
0.21168287 0.28552577 1.7229999
0.18472438 0.29584029 1.7229998
0.19363241 0.29537141 1.7229998
0.2034781 0.29537141 1.7229998
0.21004191 0.2937305 1.723
0.18706858 0.30521715 1.723
0.19363239 0.30480692 1.7229998
0.2034781 0.30427948 1.7229998
0.21004191 0.3035762 1.723
0.19035049 0.31178096 1.723
-0.083688572 0.6596629 1.723
-0.091893338 0.66294479 1.723
-0.088611431 0.66294479 1.723
-0.075483814 0.6651327 1.723
-0.068920001 0.67279053 1.723
-0.24083048 -0.094022855 1.7320001
-0.24083048 -0.085775234 1.732
-0.23670667 -0.084950477 1.7320001
-0.17484954 -0.082476191 1.7320001
-0.16385271 -0.083575875 1.732
-0.15505524 -0.08412572 1.7320002
-0.14680763 -0.082476191 1.7320001
-0.13746034 -0.083575875 1.732
-0.12371429 -0.082476191 1.7320001
-0.23423238 -0.075878099 1.7320002
-0.22433525 -0.074228577 1.7320002
-0.18474668 -0.072579049 1.732
-0.17484954 -0.075878099 1.7320002
-0.16742668 -0.075878099 1.7320001
-0.15571505 -0.077197716 1.7320001
-0.1438385 -0.077197716 1.7320001
-0.13526097 -0.075878091 1.7320002
-0.12536383 -0.075878099 1.7320002
-0.11546668 -0.075878091 1.7320002
-0.10622933 -0.073898666 1.7320001
-0.095672391 -0.072579049 1.732
-0.082476191 -0.072579049 1.7320001
-0.075878099 -0.073898658 1.7320001
-0.065509662 -0.074935511 1.7320002
-0.05608381 -0.074228577 1.7320002
-0.049485717 -0.072579049 1.7320001
-0.2342324 -0.065980963 1.7320002
-0.19244444 -0.064881273 1.732
-0.18474668 -0.065980956 1.7320002
-0.17484954 -0.065980956 1.7320002
-0.16536477 -0.065568581 1.7320002
-0.15599784 -0.065509662 1.7320002
-0.14515811 -0.065980956 1.7320002
-0.13484856 -0.066393338 1.7320002
-0.1253638 -0.065980956 1.7320002
-0.11546666 -0.065980956 1.7320002
-0.10556953 -0.065980956 1.7320002
-0.095672384 -0.065980956 1.7320002
-0.085303955 -0.065038368 1.7320002
-0.076290481 -0.065980956 1.7320002
-0.065980956 -0.065980949 1.7320002
-0.055424005 -0.064661339 1.7320001
-0.044207238 -0.066640764 1.7320001
-0.039588574 -0.062681906 1.7320001
0.035464764 -0.064331435 1.7320001
-0.23464477 -0.056496195 1.7320002
-0.19464381 -0.056083813 1.7320002
-0.18474668 -0.056083813 1.7320002
-0.17484954 -0.056083813 1.7320002
-0.16605207 -0.057183493 1.7320002
-0.15505525 -0.057733335 1.7320001
-0.14570795 -0.056633651 1.7320002
-0.13526095 -0.056083817 1.7320002
-0.12536381 -0.056083813 1.7320002
-0.11546666 -0.056083813 1.7320002
-0.10604082 -0.057026397 1.7320002
-0.095672376 -0.05938286 1.732
-0.084675558 -0.057183493 1.7320002
-0.075878091 -0.056083806 1.7320002
-0.065980956 -0.056083813 1.7320002
-0.056083813 -0.056083813 1.7320002
-0.045244087 -0.056083806 1.7320002
-0.038268954 -0.055424005 1.7320001
0.02969143 -0.05938286 1.7320001
0.034639999 -0.05938286 1.7320001
-0.23464477 -0.046186671 1.7320002
-0.2210362 -0.042887621 1.7320001
-0.2023416 -0.043987304 1.732
-0.19464381 -0.046186671 1.7320002
-0.18568924 -0.046657957 1.7320002
-0.17484953 -0.048660956 1.7320001
-0.13526095 -0.047836192 1.7320001
-0.1240442 -0.046846475 1.7320001
-0.11612648 -0.048166096 1.7320001
-0.10886858 -0.049485717 1.7320001
-0.082476191 -0.046186671 1.732
-0.076349393 -0.046186667 1.7320002
-0.067630485 -0.047836192 1.7320001
-0.056083806 -0.046186667 1.7320002
-0.045774288 -0.046599053 1.7320002
-0.036289528 -0.046186667 1.7320002
-0.016495239 -0.042887621 1.7320001
0.085775234 -0.042887617 1.732
0.092373334 -0.042887621 1.7320001
0.10392 -0.042887621 1.7320001
0.16165334 -0.046186667 1.7320001
-0.2342324 -0.036289524 1.7320002
-0.22433525 -0.036289528 1.7320002
-0.21608764 -0.036289528 1.7320002
-0.20344126 -0.035739683 1.7320002
-0.19596343 -0.037609141 1.7320001
-0.1863962 -0.039588574 1.7320001
-0.17484953 -0.039588574 1.7320001
-0.14350858 -0.037939049 1.7320001
-0.12536381 -0.039588574 1.7320001
-0.083795808 -0.036949337 1.7320001
-0.076820686 -0.036289524 1.7320002
-0.057733335 -0.039588574 1.7320001
-0.045086991 -0.037389208 1.7320002
-0.036289528 -0.036289524 1.7320002
-0.02639238 -0.032990478 1.732
-0.017045081 -0.035739683 1.7320002
0.039588574 -0.039588574 1.7320001
0.079177149 -0.034639999 1.7320001
0.085775241 -0.038268957 1.7320001
0.095201083 -0.036289524 1.7320002
0.10622934 -0.036949337 1.7320001
0.11656635 -0.035189848 1.7320002
0.12206477 -0.036289528 1.732
0.13196191 -0.034639999 1.7320001
-0.23093334 -0.02969143 1.7320001
-0.22323556 -0.027492063 1.7320002
-0.21443811 -0.026392382 1.7320002
-0.20454094 -0.02639238 1.7320002
-0.19794287 -0.02639238 1.732
-0.082476191 -0.02969143 1.7320001
-0.076702863 -0.028866667 1.7320001
-0.042887617 -0.02639238 1.732
-0.025732573 -0.028371811 1.7320001
-0.015395557 -0.028591746 1.732
-0.0076977783 -0.024193017 1.732
0.0065980954 -0.028041907 1.7320001
0.015395557 -0.02639238 1.732
0.025567619 -0.023918096 1.7320001
0.037114289 -0.024742857 1.7320001
0.045361906 -0.023918096 1.7320001
0.054434288 -0.023093333 1.7320001
0.069280006 -0.026392382 1.7320001
0.076702863 -0.024742858 1.7320001
0.086600006 -0.028866667 1.7320001
0.095012583 -0.027711999 1.7320001
0.10688915 -0.025072763 1.7320001
0.11546666 -0.02639238 1.7320002
0.12536381 -0.026392382 1.7320002
0.13361144 -0.02639238 1.7320002
0.16495238 -0.026392382 1.7320001
-0.21245869 -0.01583543 1.7320001
-0.20454094 -0.016495239 1.7320002
-0.025072763 -0.017155049 1.7320001
-0.0057733338 -0.017320001 1.7320001
0.0046186671 -0.015835429 1.7320001
0.016495239 -0.018144764 1.7320001
0.02639238 -0.019794287 1.732
0.032990478 -0.016495241 1.732
0.047506284 -0.017814858 1.7320001
0.055141229 -0.016023947 1.7320002
0.066805713 -0.014845714 1.7320001
0.075878091 -0.016495239 1.7320002
0.085775249 -0.016082861 1.7320002
0.095259994 -0.016907621 1.7320002
0.10556953 -0.016907619 1.7320002
0.11629143 -0.018969525 1.7320001
0.12536381 -0.017437825 1.7320002
0.13526095 -0.017045081 1.7320002
0.14515811 -0.01319619 1.732
-0.21113905 -0.0098971436 1.7320001
-0.20454097 -0.0079177152 1.7320001
-0.0032990477 -0.0098971436 1.7320001
0 -0.0049485713 1.7320001
0.056496195 -0.0065980954 1.7320002
0.064881273 -0.0060482542 1.7320002
0.075878091 -0.0056555099 1.7320002
0.085362867 -0.0065980954 1.7320002
0.094022855 -0.0098971436 1.7320001
0.10556952 -0.0098971436 1.732
0.13691048 -0.0065980954 1.7320001
0.14625779 -0.0071479375 1.7320002
0.15505524 -0.005498413 1.7320002
0.16440254 -0.0076977783 1.7320002
0.17287011 -0.0072579049 1.7320001
-0.22323556 0.0076977783 1.732
-0.21113905 0.0032990477 1.7320001
-0.20586058 0.0019794286 1.7320001
0.057733335 0.0016495239 1.7320001
0.066640772 0.0013196191 1.7320001
0.075878091 0.0016495237 1.7320002
0.085775249 0.0016495237 1.7320002
0.094022855 0 1.7320001
0.15670477 0 1.7320001
0.16561219 0.0013196191 1.7320001
0.17594922 0.0038488891 1.7320002
0.18144763 0.0065980949 1.732
-0.22268572 0.013196191 1.7320001
-0.21113905 0.016495239 1.7320001
0.18474667 0.016495241 1.732
0.22598478 0.019794287 1.7320001
-0.20454095 0.026392382 1.7320001
0.21608762 0.02969143 1.7320001
0.22351049 0.027217142 1.7320001
0.18474667 0.034639999 1.7320001
0.19794287 0.034639999 1.7320001
0.20564063 0.037389208 1.732
0.21349551 0.035818238 1.7320002
0.2210362 0.032990478 1.7320001
0.1863962 0.046186671 1.7320002
0.19417252 0.045244087 1.7320002
0.20388114 0.044867046 1.7320001
0.21113905 0.046186667 1.7320001
0.1863962 0.054434292 1.7320001
0.19464381 0.069280006 1.7320001
0.1946438 0.075878099 1.7320002
0.20124191 0.079177149 1.7320001
0.19464381 0.085303955 1.7320002
0.20454097 0.087754667 1.7320001
0.14845715 0.098971434 1.7320001
0.15571505 0.097651809 1.7320001
0.16495238 0.097321905 1.7320002
0.17484953 0.097321905 1.7320002
0.18521798 0.096614972 1.7320002
0.19629334 0.097321905 1.7320001
0.20454095 0.095672376 1.7320002
0.21113905 0.092373334 1.7320001
0.094022855 0.10886858 1.7320001
0.10721906 0.10556953 1.7320001
0.11216763 0.10556953 1.7320001
0.13526095 0.10227048 1.732
0.1451581 0.10227048 1.732
0.15505525 0.10227048 1.7320001
0.16495238 0.10556953 1.7320002
0.17484954 0.10556953 1.7320002
0.18433429 0.10556953 1.7320002
0.19519365 0.10556952 1.7320002
0.20256153 0.10490972 1.7320001
-0.14350858 0.11876572 1.7320001
-0.13460115 0.1174461 1.7320001
-0.12602362 0.11546667 1.7320001
-0.1174461 0.11480685 1.7320001
-0.10490972 0.1174461 1.7320001
-0.095672384 0.11876572 1.7320001
-0.085115433 0.1174461 1.7320001
-0.079177149 0.1171162 1.7320001
0.064331427 0.11876572 1.7320001
0.072579049 0.11876572 1.7320001
0.089074291 0.11216763 1.7320001
0.16495238 0.11546666 1.7320002
0.17418972 0.11348724 1.7320001
0.1863962 0.11216763 1.7320001
0.19244444 0.1132673 1.732
-0.1451581 0.12536381 1.7320001
-0.13526095 0.12495143 1.7320002
-0.12536381 0.12536381 1.7320002
-0.11546668 0.12536381 1.7320002
-0.10556953 0.12536381 1.7320002
-0.096614964 0.12489253 1.7320002
-0.08742477 0.12206477 1.7320001
-0.056083813 0.12206477 1.7320001
-0.043987304 0.12426413 1.732
-0.037939049 0.12536381 1.7320001
-0.023093333 0.12206477 1.7320001
-0.018144764 0.12206477 1.7320001
0.032990478 0.12206477 1.7320001
0.1583543 0.12536381 1.732
0.16385271 0.12646349 1.7320002
-0.13636065 0.13416128 1.732
-0.12495143 0.13484858 1.7320002
-0.11499537 0.13431837 1.7320002
-0.10556953 0.13526097 1.7320002
-0.096084759 0.13567334 1.7320002
-0.085775234 0.13691048 1.7320002
-0.075878091 0.13856001 1.732
0.14405842 0.13746034 1.732
0.15439543 0.13592076 1.7320001
0.1649524 0.13196191 1.732
-0.10556953 0.14185905 1.7320001
-0.094847627 0.14268382 1.7320001
-0.086435057 0.14317867 1.7320001
-0.075878091 0.14185905 1.732
-0.066530801 0.14460827 1.7320002
-0.058283176 0.14735746 1.732
