# .PCD v0.7 - Point Cloud Data file format
VERSION 0.7
FIELDS x y z
SIZE 4 4 4
TYPE F F F
COUNT 1 1 1
WIDTH 1513
HEIGHT 1
VIEWPOINT 0 0 0 1 0 0 0
POINTS 1513
DATA ascii
0.24704954 0.70832384 1.8140001
0.25568762 0.7071721 1.8140001
0.2625981 0.70486861 1.8140001
0.24359429 0.7135067 1.8140001
0.25396001 0.71177906 1.8140001
0.25667483 0.73596573 1.8140001
0.24877715 0.74287623 1.8140001
0.2522324 0.74287623 1.8140001
-0.053851433 0.26752001 1.8240001
-0.045165718 0.26404572 1.8240001
-0.1372343 0.27794287 1.8240001
-0.12333715 0.27446857 1.8240001
-0.10422858 0.27446857 1.824
-0.076434284 0.27099431 1.8240001
-0.066011436 0.27099431 1.824
-0.059062861 0.27099431 1.8240001
-0.15634286 0.28697601 1.8240001
-0.14661486 0.2855863 1.8240001
0.16676572 0.28836572 1.8240001
0.17313524 0.28604952 1.8240002
0.18413715 0.28836572 1.824
0.19108573 0.28836572 1.8240001
-0.18413715 0.29531431 1.8240001
-0.17371428 0.29531428 1.8240002
-0.16560762 0.29415619 1.824
-0.15634286 0.29184002 1.824
0.14939429 0.29878858 1.8240001
0.15808001 0.29878858 1.8240001
0.16502857 0.29531431 1.8240001
0.17458285 0.29270858 1.8240001
0.18463348 0.29432163 1.8240002
0.19282286 0.29531431 1.8240002
0.22582857 0.29878858 1.8240001
-0.19247542 0.30643201 1.8240001
-0.18761142 0.30573717 1.824
0.14852571 0.30660573 1.8240001
0.15677714 0.30617148 1.8240002
0.16329144 0.30226287 1.8240001
0.18761142 0.30573717 1.824
0.19456001 0.30573714 1.8240002
0.20498286 0.3057372 1.8240002
0.21540575 0.30747429 1.8240002
0.22467048 0.30631617 1.8240002
-0.19195428 0.31616002 1.8240001
-0.18761143 0.31268573 1.8240001
0.13897143 0.31963429 1.8240001
0.14418286 0.31442288 1.8240001
0.18587428 0.31616005 1.8240002
0.19456001 0.31615999 1.8240002
0.20498286 0.31616002 1.8240002
0.21540572 0.31665635 1.8240002
0.2235124 0.31731811 1.824
-0.19108573 0.32484573 1.8240001
0.13897143 0.32310858 1.8240001
0.17718858 0.32658288 1.8240001
0.18240002 0.32484573 1.8240001
0.21888001 0.32310858 1.8240001
0.22235429 0.32310858 1.8240001
0.18066287 0.33005714 1.8240001
0.17545143 0.62537146 1.8240001
-0.066011429 0.63753146 1.8240001
-0.055092245 0.63678694 1.8240002
-0.047771428 0.63579428 1.8240001
-0.074697152 0.64621717 1.8240001
-0.068327628 0.64390093 1.824
-0.057325717 0.64447999 1.8240001
-0.04632381 0.64621717 1.824
-0.045165718 0.65316576 1.8240001
-0.038217146 0.65316576 1.8240001
-0.04169143 0.66011429 1.8240001
-0.033005714 0.66011429 1.8240001
0.23798859 0.6653257 1.8240001
0.2432 0.66358858 1.8240001
0.23625144 0.67053717 1.8240001
0.2623086 0.67748576 1.8240001
0.2466743 0.68617141 1.8240001
0.2530438 0.68443424 1.8240002
0.26057145 0.68096 1.8240001
0.22756572 0.69833148 1.8240001
0.25461552 0.69436085 1.8240002
0.26196116 0.69555199 1.8240001
0.25461552 0.70577627 1.8240002
0.26454207 0.70428735 1.8240002
0.27186286 0.70441145 1.8240001
0.2432 0.71396577 1.8240001
0.25014859 0.71570289 1.8240001
0.25362286 0.7365486 1.8240001
0.25362286 0.74349719 1.8240001
-0.046785146 0.25487429 1.8329999
-0.036660001 0.25836572 1.8330001
-0.06459143 0.26884001 1.8330001
-0.055862859 0.26651239 1.8330001
-0.047134288 0.26360285 1.8330001
-0.14431238 0.27815047 1.8330001
-0.13616572 0.27582288 1.8330001
-0.12801905 0.27349529 1.8330001
-0.11521715 0.27582288 1.8330001
-0.10125143 0.27233145 1.8330001
-0.094268583 0.27233145 1.8330001
-0.085540004 0.27233145 1.8330001
-0.076811433 0.27233145 1.8330001
-0.1827181 0.28862476 1.8330001
-0.17457145 0.28629714 1.8329999
-0.1650947 0.28579837 1.8330001
-0.15449572 0.28367856 1.8330001
-0.14664 0.28280571 1.8330001
-0.20250286 0.29677144 1.8330001
-0.19552 0.29502571 1.8330001
-0.18853715 0.29502571 1.8330001
-0.17108001 0.29677144 1.8330001
-0.16758858 0.29677144 1.8330001
0.16758858 0.29677144 1.8330001
0.17282572 0.29677144 1.8330001
-0.20549551 0.30475187 1.8330001
-0.19668382 0.30259049 1.8330001
0.16671573 0.30462715 1.8330001
0.17457145 0.30375433 1.8329999
0.1833 0.30375433 1.8330001
0.22694287 0.30724573 1.8330001
0.2304343 0.30724573 1.8330001
-0.20599431 0.31422856 1.8329999
-0.19813858 0.31422859 1.8330001
0.14664 0.31772003 1.8330001
0.15362287 0.31597432 1.8330001
0.16459593 0.31422859 1.8330001
0.17457144 0.31422856 1.8329999
0.18242714 0.31335574 1.8330001
0.22694287 0.31422859 1.8330001
0.2304343 0.31422859 1.8330001
-0.20389943 0.32400459 1.8329999
-0.19726573 0.32470286 1.8330001
0.14314857 0.32121143 1.8330001
0.174135 0.32426646 1.8330001
0.18155429 0.32295716 1.8330001
-0.20250286 0.33168572 1.8330001
-0.19552003 0.33343145 1.8330001
0.17457144 0.33168572 1.8330001
-0.052371431 0.62845719 1.8330001
-0.048880003 0.62845719 1.8330001
0.17108001 0.62845719 1.8330001
-0.066337146 0.63660383 1.8330001
-0.05656115 0.63334513 1.8329999
-0.044224765 0.63427621 1.8330001
-0.035413064 0.63643754 1.8330001
-0.075065717 0.64416862 1.8330001
-0.043293715 0.64591432 1.8329999
-0.038405716 0.64591432 1.8330001
-0.041897144 0.65464288 1.8330001
-0.038405716 0.65289718 1.8330001
0.22345144 0.66686291 1.8330001
0.23392573 0.66511714 1.8330001
0.24090858 0.66337144 1.8330001
0.21821427 0.67384577 1.8330001
0.22345144 0.67384577 1.8330001
0.23292817 0.67434454 1.8330001
0.24090858 0.67559147 1.8330001
0.25138286 0.67733717 1.8330001
0.23218001 0.68432003 1.8330001
0.24440001 0.68431997 1.8330001
0.25400144 0.68170142 1.8330001
0.22519715 0.69828576 1.8330001
0.23218001 0.69828576 1.8330001
0.24672763 0.69479436 1.8330001
0.25138286 0.69828576 1.8330001
0.23508953 0.7046867 1.8330001
0.2449819 0.70585054 1.8330001
0.25138286 0.70526862 1.8330001
0.24440001 0.71225148 1.8330001
-0.054412384 0.25626478 1.8430001
-0.044466034 0.25743493 1.8430001
-0.038615238 0.25626478 1.8430001
-0.064358734 0.26562604 1.8430001
-0.05704524 0.26416335 1.8430001
-0.15095048 0.27732763 1.8430001
-0.14392953 0.27498731 1.8430001
-0.13515334 0.27381715 1.8430001
-0.12286667 0.27381715 1.8430001
-0.11584572 0.27381715 1.8430001
-0.10601638 0.27171087 1.8430001
-0.094782859 0.27030668 1.8430001
-0.084251434 0.27030668 1.8430001
-0.073720001 0.27030668 1.8430001
-0.20009714 0.28785905 1.8430001
-0.19483143 0.28785905 1.8430001
-0.18675734 0.28575277 1.8430001
-0.16148192 0.2808381 1.8430001
-0.15270571 0.2808381 1.8430001
-0.23286159 0.29722032 1.8430001
-0.22467048 0.29663524 1.8430001
-0.21413907 0.29531881 1.8430002
-0.20477779 0.29370984 1.8430001
-0.19483143 0.29136953 1.8430001
-0.18956572 0.29136953 1.8430001
-0.23344667 0.30541143 1.8430001
-0.22467048 0.30541143 1.8430002
-0.21514206 0.30490994 1.8430002
-0.20711811 0.30190095 1.8430001
-0.23169143 0.31243238 1.8430001
-0.22350033 0.31477273 1.8430001
-0.2158943 0.31594288 1.8430001
0.16499239 0.31945336 1.8430001
-0.2129689 0.32530415 1.8430001
-0.20711811 0.32998478 1.8430001
0.15797144 0.32296383 1.8430001
0.16549389 0.32547134 1.8430002
-0.21062858 0.33349526 1.8430001
-0.20711811 0.33349526 1.8430001
-0.06669905 0.61784381 1.8430001
-0.064592764 0.62486476 1.8430001
-0.055666126 0.62586778 1.8430002
-0.046338286 0.62697107 1.8430001
-0.071379684 0.63773656 1.8430001
-0.064943813 0.633641 1.8430001
-0.057922859 0.63188577 1.8430001
-0.043880954 0.63188577 1.8430001
-0.035104763 0.63422608 1.8430001
-0.026328571 0.63715148 1.8430001
-0.073720001 0.64241719 1.8430001
0.21343696 0.6445235 1.8430001
-0.033349525 0.65996957 1.8430001
-0.028083811 0.65996957 1.8430001
0.2129689 0.65645909 1.8430001
0.22467048 0.65996957 1.8430001
-0.028083811 0.66348004 1.8430001
0.21484116 0.66558635 1.8430001
0.22350033 0.66582036 1.8430001
0.23432429 0.66435766 1.8430001
0.24222286 0.66348004 1.8430001
0.20711811 0.67401147 1.8430001
0.21313608 0.67351002 1.8430002
0.22537258 0.67330939 1.8430001
0.2527543 0.67752194 1.8430001
0.20711811 0.68454289 1.8430001
0.21413907 0.68454289 1.8430002
0.225172 0.68554592 1.8430002
0.23607953 0.68542051 1.8430001
0.24573334 0.68220258 1.8430001
0.25802001 0.68103242 1.8430001
0.20711811 0.69156384 1.8430001
0.21062858 0.69507432 1.8430001
0.22567348 0.69457287 1.8430002
0.23520191 0.69507432 1.8430002
0.24339302 0.69741464 1.8430001
0.23871239 0.70209527 1.8430001
0.2439781 0.70385051 1.8430001
0.24573334 0.7126267 1.8430001
-0.061178416 0.25647876 1.853
-0.10588572 0.26824382 1.853
-0.09529715 0.26824382 1.853
-0.084708571 0.26824382 1.853
-0.07412 0.26824382 1.853
-0.063531429 0.26236129 1.853
-0.16235811 0.27883241 1.853
-0.15353429 0.27706763 1.853
-0.14824 0.27530286 1.853
-0.13412191 0.27177334 1.853
-0.12353334 0.27177334 1.853
-0.11470953 0.27177334 1.853
-0.22236001 0.28942096 1.853
-0.21530096 0.28942096 1.853
-0.2054183 0.28730327 1.853
-0.19588858 0.28589144 1.853
-0.18177047 0.28236192 1.853
-0.16765238 0.28236192 1.853
-0.15882857 0.28236192 1.853
-0.24000762 0.29648 1.853
-0.2353016 0.29412699 1.853
-0.22588952 0.29295048 1.853
-0.21530096 0.29295048 1.853
-0.24141943 0.30353904 1.853
-0.24000762 0.31236285 1.853
-0.2353016 0.31648064 1.853
-0.22941905 0.31765714 1.853
-0.23412509 0.3223632 1.853
-0.22659545 0.32330438 1.853
-0.21883048 0.32824573 1.853
0.14647524 0.32648098 1.853
0.15353429 0.32471621 1.853
-0.21706572 0.33353999 1.853
0.16588762 0.33177525 1.853
-0.060001906 0.62472576 1.853
-0.054707624 0.62296098 1.853
-0.045001429 0.62560815 1.853
-0.038824763 0.62649047 1.853
-0.035295237 0.63413781 1.853
0.16941714 0.63354957 1.853
0.17294668 0.6317848 1.853
0.20824191 0.64943242 1.853
0.2070654 0.65531492 1.853
0.21530096 0.65531492 1.853
0.19765334 0.6635505 1.853
0.20471239 0.66355044 1.853
0.21459505 0.66284454 1.853
0.22647779 0.66355044 1.853
0.23471335 0.66178572 1.853
0.24000762 0.6635505 1.853
0.19765334 0.67413902 1.853
0.20412414 0.67355078 1.853
0.22941905 0.67060953 1.853
0.24706668 0.67766857 1.853
0.18706477 0.68649244 1.853
0.19368263 0.68428648 1.8529999
0.20294762 0.68472767 1.853
0.24706668 0.68119812 1.853
0.25412571 0.68119812 1.853
0.26118478 0.68119812 1.853
0.18706477 0.69178671 1.853
0.19412382 0.69355148 1.853
0.20294762 0.69178671 1.853
0.21600688 0.69672805 1.853
0.22236001 0.69884574 1.853
0.21883048 0.70237529 1.853
0.22236001 0.70237529 1.853
0.29098287 0.12774858 1.863
0.28743431 0.13307142 1.863
0.29453143 0.13307142 1.863
0.30162859 0.13307142 1.863
-0.13484572 0.26969144 1.863
-0.12420001 0.26969144 1.863
-0.11532858 0.26969144 1.863
-0.10645714 0.26969144 1.863
-0.092262864 0.26614287 1.863
-0.074520007 0.26614287 1.863
-0.15791143 0.27678859 1.863
-0.14549144 0.27324 1.863
-0.23065715 0.28743431 1.863
-0.22356002 0.28743431 1.863
-0.21409714 0.28625146 1.863
-0.20581715 0.28388572 1.863
-0.19517143 0.28388572 1.863
-0.18541287 0.28122431 1.863
-0.17476715 0.28122431 1.863
-0.16678286 0.28033715 1.863
-0.15968572 0.28033715 1.863
-0.24307716 0.29453143 1.863
-0.23420572 0.29098287 1.863
-0.22710858 0.29098287 1.863
-0.24485144 0.30517715 1.863
-0.24307716 0.31582287 1.863
-0.24130286 0.32469431 1.863
-0.2377543 0.32646859 1.863
0.14904 0.33001715 1.863
0.15613715 0.33001715 1.863
0.16500857 0.33534002 1.863
0.17033143 0.3371143 1.863
0.17210573 0.34066287 1.863
-0.062100001 0.62454861 1.863
-0.056777146 0.62454861 1.863
-0.046131432 0.62454861 1.863
-0.039034288 0.62454861 1.863
-0.035485715 0.6351943 1.863
0.16536343 0.63590401 1.8630002
0.17033143 0.63164574 1.863
0.16500857 0.64583999 1.863
0.17388001 0.64584011 1.863
0.18452573 0.64761442 1.863
0.19517143 0.6476143 1.863
0.20581715 0.64761442 1.863
0.21291429 0.64584005 1.863
0.1656 0.65412003 1.863
0.17388003 0.65471148 1.863
0.18275145 0.65471148 1.863
0.19517143 0.65471143 1.863
0.20404287 0.65471148 1.863
0.21646287 0.65648574 1.863
0.22356002 0.65648574 1.863
0.17654145 0.66269571 1.863
0.1845257 0.66358286 1.863
0.19415757 0.66307592 1.863
0.20226859 0.6600343 1.863
0.22474287 0.66121715 1.863
0.23065715 0.6600343 1.863
0.17742857 0.67068005 1.863
0.18570858 0.67304581 1.863
0.19415757 0.67473561 1.863
0.20226859 0.67777717 1.863
0.17742857 0.68664861 1.863
0.18452571 0.68487424 1.863
0.19339715 0.68132573 1.863
0.25372288 0.68132573 1.863
0.17565429 0.69197148 1.863
0.18334287 0.69315434 1.863
0.19872001 0.69197148 1.863
0.20404287 0.69906861 1.863
0.20936573 0.70261717 1.863
0.28897715 0.12843429 1.8730001
0.29789621 0.12843429 1.8730001
0.30503142 0.12843429 1.8730001
0.30681524 0.13378572 1.8730001
0.31038287 0.13378572 1.8730001
-0.14270477 0.26757145 1.8730001
-0.13556953 0.26757145 1.8730001
-0.12486666 0.26757145 1.8730001
-0.11059619 0.26757145 1.8730001
-0.10346095 0.26757145 1.8730001
-0.096325718 0.26638225 1.8730001
-0.085622869 0.26757145 1.8730001
-0.074920006 0.26757145 1.8730001
-0.21227333 0.2782743 1.8730001
-0.2051381 0.2782743 1.8730001
-0.19621907 0.2782743 1.8730001
-0.18462428 0.2773824 1.8730001
-0.17481335 0.2782743 1.8730001
-0.1658943 0.27649051 1.8730001
-0.15459682 0.27351749 1.8730001
-0.14627241 0.27113906 1.8730001
-0.2437873 0.28778794 1.8730001
-0.23617637 0.28683659 1.8730001
-0.22476001 0.28362572 1.8730001
-0.21494906 0.2827338 1.8730001
-0.2051381 0.2818419 1.8730001
-0.19621904 0.2818419 1.8730001
-0.17481335 0.28540954 1.8730001
-0.25472799 0.29611239 1.8730001
-0.24884143 0.29522049 1.8730001
-0.25508475 0.30503145 1.8730001
-0.24973334 0.30503142 1.8730001
-0.26043621 0.31395048 1.8730001
-0.25508475 0.31395051 1.8730001
-0.24884143 0.3148424 1.8730001
-0.28362572 0.32643718 1.8730001
-0.25686857 0.32108572 1.8730001
-0.24794954 0.32465336 1.8730001
-0.24527381 0.33268049 1.8730001
-0.23903048 0.33357239 1.8730001
0.14805621 0.33535621 1.8730001
0.15519142 0.33713999 1.8730001
0.16173206 0.33773461 1.8730001
0.16411048 0.34249148 1.8730001
-0.028540954 0.61363047 1.8730001
-0.060649525 0.62433338 1.8730001
-0.055298097 0.62433338 1.8730001
-0.046379048 0.62344146 1.8730001
-0.036865398 0.62552255 1.8730001
0.15697524 0.62433332 1.8730001
0.16292128 0.62552255 1.8730001
-0.035676192 0.63325238 1.8730001
0.15608333 0.63592809 1.8730001
0.16339695 0.6343227 1.8730001
0.15554819 0.64502555 1.8730001
0.16054286 0.64573908 1.8730001
0.18551619 0.64573908 1.8730001
0.19443524 0.64573908 1.8730001
0.15578604 0.6552527 1.8730001
0.16054286 0.65465808 1.8730001
0.18908381 0.65644193 1.8730001
0.15519142 0.66179335 1.8730001
0.16366452 0.6640231 1.8730001
0.17243493 0.66595554 1.8730001
0.18908381 0.66000956 1.8730001
0.1664889 0.67190164 1.8730001
0.17379403 0.67478973 1.8730001
0.18194857 0.67784762 1.8730001
0.17624038 0.68426937 1.8730001
0.18313777 0.68260449 1.8730001
0.17481335 0.69211811 1.8730001
0.28693333 0.12912001 1.8830001
0.29410669 0.12553334 1.883
0.30307335 0.12553334 1.8830001
0.31383336 0.12912001 1.8830001
0.31562668 0.13270667 1.8830001
-0.12194667 0.25824001 1.8830001
-0.11836001 0.25824001 1.8830001
-0.10222 0.25644666 1.8830001
-0.16140001 0.26900002 1.8830001
-0.15243334 0.26900002 1.8830001
-0.14526001 0.26720667 1.8830001
-0.13701066 0.26397866 1.8830001
-0.124816 0.26541334 1.8830001
-0.11537113 0.26541334 1.8830003
-0.10401332 0.26481557 1.8830003
-0.095046669 0.26362002 1.8830001
-0.086079992 0.26541334 1.883
-0.077113338 0.26541334 1.8830001
-0.2421 0.27796668 1.8830001
-0.23492667 0.27976 1.8830001
-0.22596 0.27976 1.883
-0.21609667 0.27707002 1.8830001
-0.20372267 0.2747387 1.8830001
-0.19368 0.27438003 1.8830003
-0.18471333 0.27438003 1.8830001
-0.17574668 0.27438003 1.8830003
-0.16409001 0.27348337 1.8830001
-0.15781334 0.27258667 1.8830001
-0.27617335 0.28693333 1.883
-0.26451665 0.28603667 1.8830001
-0.25537068 0.28549868 1.8830001
-0.24479002 0.28424335 1.8830001
-0.23492667 0.28334668 1.8830001
-0.27617335 0.29410666 1.8830003
-0.26541337 0.29410666 1.8830003
-0.25555 0.29231334 1.8830001
-0.2751486 0.30435428 1.8830003
-0.26541334 0.30486667 1.8830003
-0.28334668 0.31742001 1.8830001
-0.27438003 0.31562665 1.8830003
-0.26586169 0.31562668 1.8830003
-0.28334668 0.32280001 1.8830001
-0.27617335 0.32280001 1.8830001
-0.26397866 0.32495204 1.8830001
-0.25608799 0.32710403 1.8830001
-0.25644666 0.33356002 1.8830001
-0.23492669 0.33535334 1.8830001
-0.22835112 0.33475557 1.883
-0.23492667 0.34073335 1.8830001
0.14526001 0.34073335 1.8830001
0.15512335 0.34432 1.8830001
0.16498667 0.34790668 1.883
0.17395334 0.34790668 1.8830001
0.19726667 0.36225334 1.8830001
0.14705335 0.38736001 1.8830001
0.15064001 0.38736001 1.8830001
0.19726667 0.38556668 1.8830001
0.20085335 0.38556668 1.8830001
0.14705335 0.39094669 1.8830001
0.15064001 0.39274001 1.8830001
-0.023672 0.60758132 1.8830001
-0.016140001 0.60973334 1.8830001
0.12553333 0.60973334 1.883
-0.04304 0.6169067 1.8830001
-0.037660003 0.6169067 1.8830001
-0.024389336 0.61475468 1.8830001
-0.016140001 0.61511332 1.8830001
0.12374 0.61331999 1.8830001
-0.051408891 0.62288445 1.883
-0.044235557 0.6216889 1.883
-0.037660003 0.62228668 1.8830001
-0.027796669 0.62318337 1.8830001
0.12672889 0.6264711 1.883
0.13629334 0.62766671 1.883
0.15303111 0.6264711 1.883
-0.032280002 0.63125336 1.8830001
-0.028693335 0.63125336 1.8830001
0.12643 0.63215005 1.8830001
0.13629334 0.63484001 1.8830003
0.14526001 0.63125336 1.8830001
0.15243334 0.63484001 1.8830003
0.16140001 0.63484001 1.8830001
0.14705335 0.64560002 1.8830001
0.15064001 0.64560002 1.883
0.13988 0.65277338 1.8830001
0.1458578 0.65755558 1.883
0.15207466 0.65564269 1.8830001
0.14526001 0.66532671 1.8830001
0.15064001 0.66532671 1.8830001
0.12598167 0.67384505 1.8830003
0.13629334 0.67474174 1.8830003
0.14526001 0.67429334 1.8830003
0.15467501 0.67384505 1.8830003
0.16259557 0.67668444 1.883
0.13719 0.68415666 1.8830001
0.14346667 0.68326002 1.8830001
0.15781334 0.6814667 1.8830001
0.16498667 0.68290138 1.8830001
0.17216 0.68684667 1.8830001
0.17216 0.69222671 1.8830001
0.3234832 0.012025397 1.8940001
0.3145844 0.11760838 1.8940001
0.32107812 0.11724762 1.8940001
0.28680572 0.12626667 1.8940001
0.29582477 0.12265905 1.8940001
0.30484381 0.12265905 1.8940001
0.31386289 0.12446285 1.8940001
0.32107812 0.12626667 1.8940001
0.28860953 0.1334819 1.8940001
-0.14069715 0.25974858 1.8940001
-0.13708954 0.25974858 1.8940001
-0.11364 0.25974858 1.8940001
-0.10822857 0.25974858 1.8940001
-0.095962666 0.25686246 1.8940001
-0.20202668 0.26696381 1.8940001
-0.19661525 0.26696381 1.8940001
-0.15512763 0.26696381 1.8940001
-0.14610857 0.26516002 1.8940001
-0.1334819 0.26335621 1.8940001
-0.12807047 0.26335621 1.8940001
-0.11544381 0.26516002 1.8940001
-0.10822857 0.26335621 1.8940001
-0.093798101 0.26335621 1.8940001
-0.086582862 0.26335621 1.8940001
-0.072152384 0.26696381 1.8940001
-0.068544768 0.26696381 1.8940001
-0.26335621 0.27778667 1.8940001
-0.25253335 0.27778667 1.8940001
-0.24622002 0.27508098 1.8940001
-0.23449524 0.27778667 1.8940001
-0.22547621 0.27778667 1.8940001
-0.21465334 0.27417907 1.8940001
-0.2056343 0.27177396 1.8940001
-0.19481145 0.27057144 1.8940001
-0.18489048 0.27147335 1.8940001
-0.17496952 0.27057144 1.8940001
-0.16775429 0.27057144 1.8940001
-0.15873525 0.27057144 1.8940001
-0.28319812 0.2850019 1.8940001
-0.27417907 0.28319809 1.8940001
-0.26576129 0.28259686 1.8940001
-0.25523904 0.28229621 1.8940001
-0.24892573 0.2813943 1.8940001
-0.28680572 0.29582477 1.8940001
-0.29221717 0.30484381 1.8940001
-0.28572345 0.30520457 1.8940001
-0.29221717 0.31386289 1.8940001
-0.2850019 0.31341192 1.8940001
-0.29221717 0.32468572 1.8940001
-0.28428039 0.32396421 1.8940001
-0.27417907 0.32739145 1.8940001
-0.26696381 0.32829335 1.8940001
-0.27417907 0.33190095 1.8940001
-0.26696381 0.33190095 1.8940001
-0.22728001 0.33911622 1.8940001
-0.22728001 0.34272382 1.8940001
0.15332381 0.34813523 1.8940001
0.18158348 0.34753397 1.8940001
0.15873525 0.35354668 1.8940001
0.16595048 0.35354671 1.8940001
0.1755708 0.3547492 1.8940001
0.18038096 0.35354668 1.8940001
0.1875962 0.36797714 1.8940001
0.19436049 0.36436954 1.8940001
0.2032292 0.36677459 1.8940001
0.18669429 0.37609431 1.8940001
0.19481143 0.37519243 1.8940002
0.2032292 0.3763949 1.8940001
0.14430477 0.38962287 1.8940001
0.15693143 0.38962287 1.8940001
0.16414666 0.38962287 1.8940001
0.18443953 0.38646623 1.8940001
0.19378069 0.38549989 1.8940001
0.20623557 0.38601527 1.8940001
0.21284953 0.38601527 1.8940001
0.14430477 0.3932305 1.8940001
0.15693143 0.39503431 1.8940001
0.16414666 0.3932305 1.8940001
0.20743811 0.3932305 1.8940001
-0.025974859 0.60680151 1.8940001
-0.01713619 0.60517812 1.8940001
-0.043291431 0.61690289 1.8940001
-0.036978096 0.61600101 1.8940001
0.1178489 0.6157003 1.8940001
-0.04689905 0.62051052 1.8940001
-0.032468572 0.62411809 1.8940001
-0.022848256 0.6265232 1.8940001
0.11814953 0.62321621 1.8940001
0.12523593 0.62411815 1.8940001
0.1334819 0.62772572 1.8940001
-0.032468572 0.63494098 1.8940001
-0.02453181 0.63421947 1.8940001
0.11905143 0.63494098 1.8940001
0.12506413 0.63614351 1.8940001
0.14670984 0.63614351 1.8940001
-0.032468572 0.64215624 1.8940001
-0.028860953 0.64215624 1.8940001
0.12897238 0.64486194 1.8940001
0.13528572 0.64756763 1.8940001
0.14430477 0.64576381 1.8940001
0.1178489 0.65538412 1.8940001
0.12626667 0.65514362 1.8940001
0.13528572 0.65478289 1.8940001
0.14430477 0.65388095 1.8940001
0.1154438 0.66019434 1.8940001
0.12678203 0.66277122 1.8940001
0.13492496 0.66308039 1.8940001
0.14286172 0.66235888 1.8940001
0.11905143 0.67101717 1.8940001
0.12626667 0.67101717 1.8940001
0.13588698 0.67221975 1.8940001
0.14069715 0.67101717 1.8940001
0.13528572 0.68544763 1.8940001
0.14791238 0.68725145 1.8940001
0.15392508 0.6866501 1.8940001
0.16595048 0.68905526 1.8940001
0.15873525 0.69266289 1.8940001
0.16595048 0.69266289 1.8940001
0.31733334 0.0072533335 1.904
0.32277334 0.0072533335 1.904
0.31552002 0.01088 1.9039999
0.30536535 0.11822933 1.904
0.31552002 0.11363556 1.9039999
0.29376 0.12330667 1.904
0.28650668 0.13237333 1.904
-0.13056001 0.25749335 1.904
-0.12512 0.25749335 1.904
-0.090666667 0.25749335 1.904
-0.24298668 0.26837334 1.904
-0.21034667 0.26837334 1.904
-0.20672001 0.26837334 1.904
-0.19584 0.26656002 1.904
-0.18496001 0.26837334 1.9039999
-0.17408001 0.26837334 1.9039999
-0.16440891 0.26716444 1.9039999
-0.15594667 0.26474667 1.9039999
-0.14688 0.26293334 1.904
-0.13056001 0.26112002 1.904
-0.12693334 0.26112002 1.904
-0.28288001 0.27925333 1.904
-0.27562669 0.27925333 1.9039999
-0.26384002 0.27744001 1.904
-0.254592 0.27490133 1.904
-0.2448 0.27200001 1.904
-0.23645866 0.27417603 1.904
-0.22485335 0.27562669 1.9039999
-0.21216001 0.27200001 1.904
-0.29194668 0.28650668 1.904
-0.28650668 0.28288001 1.904
-0.29436445 0.29376 1.9040002
-0.30101335 0.30645335 1.904
-0.29648 0.30373335 1.904
-0.30101335 0.31552002 1.9039999
-0.29738668 0.31552002 1.9039999
-0.30101335 0.32458669 1.904
-0.29617777 0.32398224 1.9039999
-0.29557335 0.33184001 1.904
0.14869334 0.34816 1.904
0.12693334 0.35541335 1.904
0.13056001 0.35541335 1.904
0.15522134 0.35613868 1.904
0.16501334 0.35904002 1.904
0.17226666 0.35904002 1.904
0.1859962 0.35593146 1.9040002
0.15698287 0.36681142 1.9040002
0.16501334 0.36629331 1.9040002
0.17407998 0.36629334 1.9040002
0.18450665 0.36583999 1.9040002
0.20672001 0.36629334 1.904
0.21397334 0.36629331 1.9040002
0.22122668 0.36266667 1.904
0.14748444 0.37596443 1.9039999
0.15594669 0.37536001 1.9040002
0.16501334 0.37536001 1.904
0.17408001 0.37536001 1.9040002
0.18314666 0.37536001 1.904
0.20551111 0.37596443 1.9039999
0.21397334 0.37536001 1.9040002
0.22122668 0.37536001 1.904
0.14724267 0.38515201 1.904
0.15594667 0.38442671 1.9040002
0.16501334 0.38442671 1.9040002
0.17408001 0.38442671 1.9040002
0.18133333 0.38261336 1.904
0.21449144 0.38339046 1.9040002
0.22485334 0.38261333 1.9040002
0.23645866 0.3822507 1.904
0.24570666 0.38442668 1.904
0.25024 0.38442668 1.9039999
0.14144 0.39349335 1.904
0.17317332 0.39258668 1.904
0.21488 0.3944 1.904
0.22304001 0.39168 1.904
-0.02176 0.5984 1.904
-0.026112 0.60347736 1.904
-0.018133335 0.6020267 1.904
0.11786667 0.60928005 1.904
-0.04352 0.61653334 1.904
-0.035057779 0.61532444 1.9039999
0.097920001 0.61653334 1.904
0.10608 0.61562669 1.904
0.11605334 0.61471999 1.904
-0.050773334 0.62378669 1.904
-0.018133335 0.62741333 1.904
0.094293334 0.62378669 1.9040002
0.10517333 0.62378669 1.9040002
0.11333334 0.62469333 1.904
0.13418667 0.62559998 1.904
-0.018133335 0.63466668 1.9039999
0.096106663 0.63104004 1.904
0.10517333 0.6341486 1.9040002
0.11424001 0.63466668 1.9040002
0.13781334 0.63104004 1.904
0.14506668 0.63224894 1.9039999
-0.032640003 0.64917338 1.904
-0.024350476 0.64606476 1.9040002
0.1088 0.64192003 1.904
0.11665779 0.64554673 1.9040002
0.12451556 0.64796448 1.9039999
-0.02448 0.65370667 1.904
-0.014506668 0.65461338 1.904
0.10608 0.65552002 1.904
0.115328 0.65425074 1.904
0.12572445 0.65400892 1.9039999
0.097920001 0.66368002 1.904
0.10517333 0.66368002 1.9040002
0.11514667 0.66549337 1.904
-0.03626667 0.67818671 1.904
-0.026112 0.676736 1.904
0.11786667 0.67093337 1.904
0.12512 0.67093337 1.904
0.13781334 0.67093337 1.904
-0.023573333 0.68362671 1.904
0.15413335 0.69632 1.904
0.16682667 0.69632 1.904
0.17045334 0.6999467 1.904
-0.26474667 0.72896004 1.904
0.31369525 0.0072952383 1.9150001
0.31551906 0.016414287 1.9150001
0.32342222 0.015806349 1.9150001
0.31369525 0.021885715 1.9150001
0.31734288 0.10760477 1.9150001
0.3209905 0.10760477 1.9150001
0.30457622 0.11490001 1.9150001
0.31187144 0.1130762 1.9150001
0.2881619 0.12401905 1.9150001
0.29545715 0.12037143 1.9150001
-0.1896762 0.25898096 1.9150001
-0.1349619 0.25898096 1.9150001
-0.25350952 0.26992381 1.9150001
-0.24439049 0.26992381 1.9150001
-0.23527144 0.26992381 1.9150001
-0.22250476 0.26992381 1.9150001
-0.21520953 0.26870796 1.9150001
-0.20426667 0.26506034 1.9150001
-0.19514763 0.2644524 1.9150001
-0.18602858 0.26445237 1.9150001
-0.17599763 0.26536432 1.9150001
-0.16535874 0.26384446 1.9150001
-0.15684763 0.26262859 1.9150001
-0.14955239 0.26262859 1.9150001
-0.1349619 0.26262859 1.9150001
-0.09119048 0.26262859 1.9150001
-0.082071438 0.26627621 1.9150001
-0.074776188 0.26627621 1.9150001
-0.069304764 0.26627621 1.9150001
-0.28378481 0.27575999 1.9150002
-0.27539524 0.27539524 1.9150001
-0.2671881 0.27448332 1.9150001
-0.25898096 0.27357143 1.9150001
-0.23344763 0.27357143 1.9150001
-0.22615238 0.27357143 1.9150001
-0.21885715 0.27357143 1.9150001
-0.31187144 0.2881619 1.9150001
-0.30457622 0.2881619 1.9150001
-0.29597825 0.28347212 1.9150001
-0.2881619 0.28086668 1.9150001
-0.31323931 0.29591313 1.9150001
-0.30457622 0.29545715 1.9150001
-0.29910478 0.29180953 1.9150001
-0.3209905 0.3064 1.9150001
-0.31369522 0.30457619 1.9150001
-0.30518416 0.30396828 1.9150001
-0.3209905 0.31369525 1.9150001
-0.31369525 0.31369525 1.9150001
-0.3064 0.31369525 1.9150001
0.24256667 0.31734288 1.9150001
-0.32244954 0.32536763 1.9150002
-0.31369525 0.32463813 1.9150001
-0.3064 0.32463813 1.9150001
0.24439049 0.32463813 1.9150001
0.25290158 0.32585397 1.9150001
-0.32190239 0.33466905 1.9150001
-0.31369525 0.33558095 1.9150001
-0.30457622 0.33558095 1.9150001
0.14225715 0.34652382 1.9150001
0.12219524 0.35746667 1.9150001
0.13860953 0.35746667 1.9150001
0.14544883 0.35427505 1.9150001
0.11550794 0.36719367 1.9150001
0.12401904 0.36476192 1.9150001
0.13222618 0.36567384 1.9150001
0.14590478 0.36476195 1.9150001
0.1532 0.36476192 1.9150001
0.22706431 0.36749762 1.9150001
0.23344763 0.36658573 1.9150001
0.10942858 0.37388098 1.9150001
0.11490002 0.37570477 1.9150001
0.12401904 0.37570477 1.9150001
0.1349619 0.3757048 1.9150001
0.1446889 0.37448892 1.9150001
0.22719456 0.37518367 1.9150001
0.23527144 0.37570477 1.9150001
0.24366097 0.37789336 1.9150002
0.10942858 0.38664764 1.9150001
0.11490001 0.38482386 1.9150001
0.12401905 0.38482389 1.9150001
0.1349619 0.38482383 1.9150001
0.14347303 0.38421592 1.9150001
0.23344763 0.38664764 1.9150001
0.24439049 0.38300002 1.9150001
0.10395715 0.39211905 1.9150001
0.11453525 0.39321333 1.9150002
0.12401905 0.39029527 1.9150001
0.13600408 0.3934218 1.9150001
0.14225715 0.39029527 1.9150001
0.21885715 0.39759049 1.9150001
0.22667347 0.39394286 1.9150001
0.23527144 0.39394286 1.9150001
0.24256667 0.39211905 1.9150001
0.21885715 0.40123811 1.9150001
0.22432858 0.40123811 1.9150001
-0.024621429 0.59729767 1.9150001
-0.014134525 0.59501785 1.9150001
0.067480952 0.59820956 1.9150001
0.083895244 0.59820956 1.9150001
-0.034652382 0.60915238 1.9150001
-0.027357142 0.60185719 1.9150001
-0.015806349 0.60307306 1.9150001
0.068392858 0.60459292 1.9150001
0.074776195 0.60550475 1.9150001
0.083895244 0.60550475 1.9150001
0.093926191 0.60732859 1.9150001
-0.041339684 0.61523175 1.9150001
-0.034044445 0.61401588 1.9150001
-0.014590477 0.6128 1.9150001
0.069304764 0.61462379 1.9150001
0.074776188 0.61462379 1.9150001
0.083895244 0.61462384 1.9150001
0.094838105 0.61462384 1.9150001
0.10505144 0.61425906 1.9150002
0.1130762 0.61462379 1.9150001
0.12401905 0.61644763 1.9150001
0.069304764 0.62009525 1.9150001
0.075384125 0.62131113 1.9150001
0.084351197 0.62328696 1.9150001
0.093014285 0.62009525 1.9150001
0.13617778 0.62313491 1.9150001
0.14590478 0.62374288 1.9150001
0.1532 0.62556672 1.9150001
-0.014590477 0.63468575 1.9150001
0.086630955 0.63377386 1.9150001
0.093926199 0.63742143 1.9150001
0.10578096 0.63833338 1.9150001
0.14590476 0.63195002 1.9150001
0.15441588 0.632254 1.9150001
-0.016049523 0.64635813 1.9150002
0.087542862 0.64562857 1.9150001
0.094838098 0.64562863 1.9150001
0.10517302 0.64684445 1.9150001
0.1130762 0.6492762 1.9150001
-0.14408097 0.65657145 1.9150001
0.087542862 0.65474761 1.9150001
0.09483809 0.65474761 1.9150001
0.10505144 0.65438282 1.9150002
0.1130762 0.65292382 1.9150001
0.083895244 0.66751432 1.9150001
0.094382137 0.6638667 1.9150001
-0.03428762 0.67408001 1.9150002
-0.027357142 0.67480958 1.9150001
0.012766667 0.67480958 1.9150001
0.085719049 0.67116195 1.9150001
0.093014285 0.67116195 1.9150001
-0.032828573 0.68210477 1.9150001
0.16779049 0.70399052 1.9150001
0.1714381 0.70763814 1.9150001
-0.27357143 0.7277 1.9150001
-0.26870796 0.72830796 1.9150001
-0.27357143 0.73499525 1.9150001
-0.26870796 0.73560315 1.9150001
0.31716669 0.0165 1.9250001
0.32266667 0.018333334 1.9250001
0.31900001 0.022 1.9250001
0.32266667 0.022 1.9250001
0.31349999 0.10633334 1.9250001
0.28966668 0.11733334 1.9250001
0.2957778 0.11611112 1.9250001
0.30341667 0.11366667 1.9250001
0.31349999 0.11000001 1.9250001
0.28783333 0.12100001 1.9250001
0.28600001 0.1375 1.9250001
-0.19250001 0.25666669 1.9250001
-0.18700001 0.25666669 1.9250001
-0.093500003 0.25666669 1.9250001
-0.066 0.25666669 1.9250001
-0.28416669 0.26766667 1.9250001
-0.27866668 0.26766667 1.9250001
-0.24383335 0.26766667 1.9250001
-0.23466666 0.26766667 1.9250001
-0.22366667 0.26766667 1.9250001
-0.21511112 0.26522222 1.9250001
-0.20533334 0.26216668 1.9250001
-0.19616668 0.26033333 1.9250001
-0.18516667 0.26033333 1.9250001
-0.176 0.26277778 1.9250001
-0.16500001 0.264 1.9250001
-0.15216666 0.26216668 1.9250001
-0.14666668 0.26033333 1.9250001
-0.08433333 0.264 1.9250001
-0.077 0.264 1.9250001
-0.066733338 0.26179999 1.925
-0.058666669 0.26033333 1.9250001
-0.30341667 0.27775002 1.9250001
-0.29480004 0.27573332 1.925
-0.28691667 0.27225 1.9250001
-0.27500001 0.27133334 1.9250001
-0.26399997 0.27133334 1.9250001
-0.23100001 0.27133334 1.9250001
-0.22733334 0.27133334 1.9250001
-0.32266667 0.28966668 1.9250001
-0.31533337 0.28538892 1.9250001
-0.30616668 0.28416669 1.9250001
-0.32450002 0.29516667 1.9250001
-0.31900001 0.29333335 1.9250001
-0.32486668 0.30360001 1.925
-0.3314667 0.31459999 1.925
-0.32633334 0.31533334 1.9250001
0.24658333 0.31625 1.9250001
0.25422224 0.31777778 1.9250001
-0.33000001 0.32450002 1.9250001
-0.32633334 0.32266667 1.9250001
0.24933334 0.32450002 1.9250001
0.25483334 0.32266667 1.9250001
0.26033333 0.32450002 1.9250001
-0.33000001 0.3355 1.9250001
-0.32633334 0.33733335 1.9250001
0.24566667 0.33366668 1.925
0.25544444 0.33244446 1.9250001
0.26033333 0.33183336 1.9250001
-0.32633334 0.34100002 1.9250001
0.092888892 0.35688889 1.9250001
0.10633334 0.35566667 1.9250001
0.11440001 0.35713333 1.925
0.13566667 0.35933334 1.9250001
0.10633334 0.36483335 1.9250001
0.11293334 0.36446667 1.925
0.1375 0.36483335 1.9250001
0.099000007 0.37583333 1.9250001
0.10486667 0.37473336 1.925
0.11000001 0.37033334 1.9250001
0.13933334 0.37033334 1.9250001
0.099000007 0.38500002 1.9250001
0.1045 0.38500002 1.9250001
0.11000001 0.38316667 1.9250001
0.099000007 0.39233336 1.9250001
0.11183333 0.39691669 1.9250001
0.12466668 0.39704761 1.9250001
0.132 0.39783335 1.9250001
0.23466668 0.39233336 1.9250001
0.11733334 0.40333334 1.9250001
0.12283334 0.40333334 1.9250001
-0.14300001 0.59766668 1.9250001
-0.13933334 0.59583336 1.9250001
-0.025666667 0.59583336 1.9250001
-0.014666666 0.59155554 1.9250001
-0.0055000004 0.59400004 1.9250001
0.044 0.59400004 1.9250001
0.051333334 0.59400004 1.9250001
0.066 0.59546673 1.925
0.075166672 0.59766668 1.9250001
0.080666669 0.59766668 1.9250001
-0.034222223 0.60744447 1.9250001
-0.011 0.60500002 1.9250001
-0.0061111115 0.60255557 1.9250001
0.058666665 0.60500002 1.9250001
0.063249998 0.60591668 1.9250001
0.075166672 0.60133338 1.9250001
0.095333338 0.60866672 1.9250001
-0.040333334 0.61233336 1.9250001
-0.014666667 0.6196667 1.9250001
0.058666669 0.6196667 1.9250001
0.064166665 0.616 1.9250001
0.1045 0.61233336 1.9250001
0.11366668 0.61233336 1.9250001
-0.047666669 0.62700003 1.9250001
0.058666669 0.62516665 1.9250001
0.065266669 0.6255334 1.925
0.073333338 0.62700003 1.9250001
-0.011 0.63800001 1.9250001
0.066 0.63066667 1.9250001
0.077 0.63250005 1.9250001
0.081583336 0.63525003 1.9250001
-0.011 0.64533335 1.9250001
0.083416671 0.64441669 1.9250001
-0.01375 0.65541673 1.9250001
0.084333338 0.65450001 1.9250001
-0.014666667 0.66000003 1.9250001
0.0858 0.66440004 1.925
0.075166672 0.671 1.9250001
0.08433333 0.671 1.9250001
-0.036666669 0.68200004 1.9250001
0.0073333336 0.68200004 1.9250001
0.012222223 0.68444443 1.9250001
-0.28416669 0.72966671 1.9250001
-0.27866668 0.72966671 1.9250001
-0.29333335 0.73700005 1.9250001
-0.28600001 0.73516667 1.9250001
-0.27866668 0.73516667 1.9250001
-0.29333335 0.74066669 1.9250001
-0.28600001 0.74066669 1.9250001
-0.27500001 0.74311113 1.9250001
0.31529143 -0.0036876192 1.9360001
0.31344762 0.0073752385 1.9360001
0.31344762 0.011062858 1.9360001
0.28763428 0.099565715 1.9360001
0.28763428 0.10509714 1.9360001
0.29500952 0.10509714 1.936
0.30607238 0.10509714 1.936
0.31529143 0.10325333 1.9360001
0.32082286 0.10325333 1.9360001
0.28763428 0.1143162 1.9360002
0.29427201 0.11210363 1.9360001
0.30422857 0.11062858 1.9360001
0.28468418 0.12464154 1.9360001
0.28579047 0.13459811 1.9360001
0.28640509 0.14381714 1.9360002
0.29395589 0.14434396 1.936
0.28763428 0.15488 1.9360002
0.29500952 0.15488 1.936
0.30238476 0.15856762 1.9360001
0.28763428 0.16963048 1.9360001
0.29623872 0.16717207 1.936
0.30238476 0.16594286 1.9360002
0.29685333 0.17516191 1.9360001
0.30238476 0.17516191 1.9360001
0.29500952 0.18069334 1.9360001
0.30791619 0.21756953 1.9360001
0.30791619 0.22863239 1.9360001
-0.1917562 0.25444573 1.9360001
-0.18438096 0.25628954 1.9360001
-0.14197335 0.25813335 1.9360001
-0.13644192 0.25813335 1.9360001
-0.094034292 0.25444573 1.9360001
-0.085737146 0.25721145 1.9360001
-0.29316571 0.26919621 1.9360001
-0.27472764 0.26919621 1.9360001
-0.26550859 0.26919621 1.9360002
-0.25444573 0.26919621 1.9360002
-0.24707049 0.26550859 1.9360001
-0.23600763 0.26550859 1.9360002
-0.22494477 0.26550859 1.9360002
-0.21388191 0.26182097 1.9360002
-0.17516191 0.26182097 1.9360001
-0.16594286 0.26182097 1.9360002
-0.15672381 0.26182097 1.9360001
-0.14197335 0.26182097 1.9360001
-0.084815241 0.26182097 1.9360002
-0.074981593 0.26305017 1.9360002
-0.32328129 0.27534226 1.9360002
-0.31529143 0.27657145 1.9360001
-0.30607238 0.27472764 1.9360001
-0.29869714 0.27288383 1.9360001
-0.33188573 0.28763428 1.9360001
-0.32451048 0.28394666 1.936
-0.31529143 0.28025907 1.9360001
-0.34516114 0.29574704 1.9360001
-0.33511242 0.29547048 1.936
-0.32819811 0.2913219 1.9360001
-0.3447924 0.30607238 1.936
-0.33557338 0.30607238 1.936
-0.3447924 0.31529143 1.9360001
-0.33926097 0.31529143 1.9360001
0.24522668 0.31344762 1.9360001
0.25444573 0.31467685 1.9360002
0.2664305 0.31621334 1.9360001
-0.3447924 0.32451048 1.936
-0.33741716 0.32451048 1.936
0.26656222 0.32398367 1.936
0.27288383 0.32266667 1.9360001
-0.34294859 0.33188573 1.9360001
-0.33557335 0.33280763 1.9360001
0.25444573 0.33926097 1.9360001
0.26550859 0.33188573 1.9360001
0.099565715 0.35769907 1.9360001
0.10325333 0.35769907 1.9360001
0.077440001 0.36507431 1.9360001
0.088502862 0.36691812 1.9360001
0.0964927 0.36507431 1.936
0.10448253 0.36507431 1.9360002
0.11062858 0.36138669 1.9360001
0.24707049 0.36876193 1.9360001
0.25444576 0.36691812 1.936
0.26182097 0.36876193 1.9360001
0.088502862 0.37244955 1.9360001
0.0948245 0.37561038 1.936
0.10325333 0.37244955 1.9360001
0.24707049 0.37244955 1.9360001
0.25536764 0.37337145 1.9360001
0.095140576 0.38572496 1.9360001
0.095878102 0.39273143 1.9360001
-0.088502862 0.58264381 1.9360001
-0.0061460324 0.58387303 1.9360002
-0.13459811 0.59739429 1.9360001
-0.026735239 0.59462857 1.9360001
-0.015672382 0.59094095 1.9360001
-0.0055314288 0.59001905 1.9360001
0.029500954 0.59739429 1.9360001
0.035646986 0.59616512 1.9360002
0.044251431 0.59278476 1.9360001
0.056236193 0.59555048 1.9360001
0.062689528 0.59555048 1.9360001
0.071908578 0.59739429 1.9360001
-0.15119238 0.60476953 1.9360001
-0.14289525 0.60569143 1.9360001
-0.13459811 0.60108191 1.9360001
-0.034417782 0.60476953 1.9360002
0.035032384 0.60108191 1.9360001
0.045173336 0.60200381 1.9360001
0.05426069 0.60424274 1.936
-0.042407621 0.61583239 1.9360001
-0.011062858 0.61583239 1.9360002
-0.0073752385 0.61214477 1.9360001
0.055928897 0.61583239 1.936
0.10509714 0.61214477 1.9360001
0.11247239 0.61214477 1.9360001
0.055314288 0.62505144 1.9360001
-0.051626667 0.63058287 1.9360001
0.046095241 0.63795811 1.9360001
0.055314295 0.63532406 1.936
0.065147944 0.63672894 1.9360002
0.072523177 0.63672894 1.9360002
-0.0073752385 0.64902097 1.9360001
0.045480639 0.64594793 1.936
0.053839244 0.64385831 1.9360001
0.063918732 0.64287496 1.9360002
0.074981593 0.64410412 1.936
0.081127621 0.64902097 1.9360001
-0.0061460324 0.65516704 1.9360002
0.046095241 0.65270859 1.9360001
0.051626667 0.65270859 1.9360001
0.077440001 0.65639621 1.9360001
0.081127621 0.6545524 1.9360001
-0.18069334 0.66745907 1.9360001
-0.17516191 0.66745907 1.9360001
-0.16594286 0.66500068 1.9360002
-0.0055314288 0.66008383 1.9360001
0.077440001 0.66377145 1.9360002
0.081127621 0.66377145 1.9360002
0.0073752385 0.67483431 1.9360001
0.012906667 0.67667812 1.9360001
0.077440001 0.67114669 1.9360001
0.081127621 0.67114669 1.9360001
0.0073752385 0.68589717 1.9360001
0.0073752385 0.69696003 1.9360001
0.012906667 0.69327241 1.9360001
-0.30238476 0.73568004 1.9360001
-0.29623872 0.73445082 1.936
-0.28763428 0.73752385 1.9360001
-0.32328129 0.7424407 1.9360002
-0.31713524 0.74121147 1.9360001
-0.30238476 0.74121147 1.9360001
-0.29869714 0.74305528 1.9360001
-0.28542173 0.74637413 1.9360001
0.30781144 -0.011125715 1.9470001
0.31522858 -0.011125716 1.9470001
0.30781144 -0.0074171433 1.9470001
0.31522858 -0.0074171438 1.9470001
0.3159703 0.0029668573 1.9470001
0.31337428 0.012980001 1.9470001
0.29668573 0.057482861 1.9470001
0.30410287 0.055628572 1.9470001
0.31337428 0.057482861 1.9470001
0.28926858 0.066754289 1.9470001
0.29483145 0.066754289 1.9470001
0.28926858 0.074171431 1.9470001
0.2939043 0.075098574 1.9470001
0.3022486 0.076025717 1.9470001
0.28926858 0.085297145 1.9470001
0.29483142 0.085297145 1.9470001
0.3003943 0.085297145 1.9470001
0.28926858 0.094568573 1.9470001
0.29483142 0.094568573 1.9470001
0.30410287 0.094568573 1.9470001
0.31275618 0.095186673 1.9470001
0.27814287 0.10754857 1.9470001
0.28370571 0.10754857 1.9470001
0.29483145 0.10013143 1.9470001
0.30410287 0.10013143 1.9470001
0.31522858 0.10013143 1.9470001
0.32264572 0.10013143 1.9470001
0.27591771 0.11570743 1.9470001
0.28370571 0.11496571 1.9470001
0.27628857 0.1251643 1.9470001
0.28308761 0.12856382 1.9470001
0.27628857 0.13536286 1.9470001
0.28308761 0.13474476 1.9470001
0.27721572 0.14370716 1.9470001
0.28333485 0.14537601 1.9470001
0.27721572 0.15483287 1.9470001
0.28370571 0.15576001 1.9470001
0.27628857 0.16317715 1.9470001
0.28648716 0.16410428 1.9470001
0.29421335 0.16441333 1.9470001
0.28926858 0.17615715 1.9470001
0.29297715 0.17615715 1.9470001
0.28926858 0.18542857 1.9470001
0.29446059 0.18617029 1.9470001
0.3022486 0.18542857 1.9470001
0.28926858 0.1947 1.9470001
0.29483145 0.1947 1.9470001
0.3022486 0.1947 1.9470001
0.28926858 0.20211715 1.9470001
0.29421335 0.20273525 1.9470001
0.28926858 0.21324286 1.9470001
0.29483145 0.21324286 1.9470001
0.30357307 0.21509714 1.9470003
0.31152001 0.21324286 1.9470001
0.28926858 0.22251429 1.9470001
0.29421332 0.22745907 1.9470001
0.30363929 0.2257593 1.9470003
0.31152001 0.22436857 1.9470001
0.30410287 0.23364002 1.9470001
0.31152001 0.23364002 1.9470001
-0.20397143 0.25960001 1.9470001
-0.18172 0.25589144 1.9470001
-0.17430286 0.25960001 1.9470001
-0.16688572 0.25960001 1.9470001
-0.15205143 0.25960001 1.9470001
-0.14834286 0.25960001 1.9470001
-0.083442859 0.25589144 1.9470001
-0.076025717 0.25960001 1.9470001
-0.28556001 0.26701716 1.9470001
-0.27258003 0.26701716 1.9470001
-0.26516289 0.26701716 1.9470001
-0.25589144 0.26701716 1.9470001
-0.24291144 0.26516289 1.9470001
-0.2354943 0.26330858 1.9470001
-0.22622287 0.26330858 1.9470001
-0.34304288 0.27628857 1.9470001
-0.33302975 0.27665943 1.9470001
-0.32264572 0.2744343 1.9470001
-0.31522858 0.2744343 1.9470001
-0.3022486 0.27072573 1.9470001
0.31399238 0.2756705 1.9470001
0.32264572 0.2744343 1.9470001
-0.34443358 0.28602356 1.9470003
-0.33500764 0.28432384 1.9470001
0.31152001 0.28741431 1.9470001
-0.35416859 0.29668573 1.9470001
-0.34304285 0.29297715 1.9470001
-0.35416856 0.30410287 1.9470001
0.27258003 0.30781144 1.9470001
0.28926858 0.30410287 1.9470001
-0.35602286 0.31416896 1.9470003
0.2484743 0.31152001 1.9470001
0.25681859 0.31244716 1.9470001
0.26516289 0.31337428 1.9470001
0.27549389 0.31469879 1.9470003
0.28926858 0.31152001 1.9470001
-0.35602286 0.32264572 1.9470001
0.27814287 0.32450002 1.9470001
0.26701716 0.33748001 1.9470001
0.27258003 0.33191717 1.9470001
0.2484743 0.34118858 1.9470001
0.25496429 0.34489715 1.9470001
0.087151431 0.35973144 1.9470001
0.25483185 0.35655266 1.9470003
0.26330858 0.35973144 1.9470001
0.27072573 0.35973144 1.9470001
0.085297145 0.36436716 1.9470001
0.096422859 0.36714858 1.9470001
0.10384 0.36344001 1.9470001
0.24662001 0.36529428 1.9470001
0.25589144 0.36344001 1.9470001
0.26454479 0.36591241 1.9470001
0.27196193 0.36591241 1.9470001
0.066754289 0.37456572 1.9470001
0.073641635 0.37350613 1.9470003
0.086224288 0.37549287 1.9470001
0.096422859 0.37085715 1.9470001
0.24476573 0.37085715 1.9470001
0.26553375 0.37530744 1.9470001
0.27258003 0.37271145 1.9470001
0.072687998 0.38569143 1.9470001
0.085760713 0.38615498 1.9470003
0.072935246 0.39558092 1.9470001
0.086038858 0.39533371 1.9470001
0.092714287 0.39496285 1.9470001
0.077880003 0.40052572 1.9470001
0.081588574 0.40052572 1.9470001
-0.011125715 0.57853717 1.9470001
-0.0074171433 0.57853717 1.9470001
-0.025032859 0.5887357 1.9470001
-0.01430449 0.58701384 1.9470003
-0.0049447622 0.58471805 1.9470001
0 0.58595425 1.9470001
0.029668573 0.58966285 1.9470001
0.03523143 0.58966285 1.9470001
0.044502858 0.58966285 1.9470001
-0.02596 0.59337145 1.9470001
0.0018542858 0.59522569 1.9470001
0.016688572 0.59707999 1.9470001
0.02596 0.59522569 1.9470001
0.034613337 0.59460759 1.9470001
0.044502858 0.59337145 1.9470001
0.053774286 0.59522569 1.9470001
-0.15576001 0.60820574 1.9470001
-0.13536286 0.60820574 1.9470001
-0.040794287 0.60820574 1.9470001
-0.036158573 0.60357004 1.9470001
0.0014834286 0.60375547 1.9470001
0.016688572 0.60264289 1.9470001
0.02596 0.60449725 1.9470003
0.03523143 0.60820574 1.9470001
0.042648572 0.60820574 1.9470001
0.096422859 0.60820574 1.9470001
0.10384 0.60820574 1.9470001
-0.15576001 0.61191434 1.9470001
-0.13721715 0.61191434 1.9470001
-0.043266669 0.61562288 1.9470001
-0.0049447622 0.61562288 1.9470001
0.027814288 0.61191434 1.9470001
0.03523143 0.61191434 1.9470001
0.045739051 0.61438674 1.9470001
0.05192 0.61933148 1.9470001
0.096422859 0.61191434 1.9470001
0.10384 0.61191434 1.9470001
0.11125714 0.61191434 1.9470001
-0.048211429 0.62489432 1.9470001
-0.011125715 0.62674862 1.9470001
-0.0074171433 0.62489432 1.9470001
0.04697524 0.62427622 1.9470001
0.05192 0.62489432 1.9470001
-0.05192 0.63045716 1.9470001
-0.048211429 0.63045716 1.9470001
-0.011125715 0.63045716 1.9470001
0.047284286 0.63509291 1.9470001
0.05192 0.63231146 1.9470001
-0.057482861 0.64343715 1.9470001
-0.011125715 0.64158291 1.9470001
-0.0061809528 0.64652765 1.9470001
0.037085716 0.64529145 1.9470001
0.04172143 0.6462186 1.9470001
0.057482861 0.64900005 1.9470001
0.066754289 0.64900005 1.9470001
0.07046286 0.64900005 1.9470001
-0.0037085717 0.65456289 1.9470001
0.037085716 0.65270859 1.9470001
0.057482861 0.65456289 1.9470001
0.064900003 0.65456289 1.9470001
0.073429719 0.65493375 1.9470001
-0.32388192 0.66630673 1.9470001
-0.31893715 0.66383433 1.9470001
-0.18172 0.66754287 1.9470001
-0.17430286 0.66754287 1.9470001
-0.0055628577 0.66754287 1.9470001
0.0026489797 0.66436416 1.9470003
0.011125715 0.66754287 1.9470001
0.048211429 0.66012573 1.9470001
0.055628572 0.66198003 1.9470001
0.063045718 0.66198003 1.9470001
0.072317146 0.66383433 1.9470001
-0.33006287 0.67310572 1.9470001
-0.32450002 0.67310578 1.9470001
-0.23364002 0.67496002 1.9470001
-0.22807716 0.67496002 1.9470001
-0.0049447622 0.67248768 1.9470001
0.0032450003 0.67449641 1.9470003
0.011125715 0.67310572 1.9470001
0.066754289 0.67125148 1.9470001
0.072317146 0.67310572 1.9470001
-0.27258003 0.68608576 1.9470001
-0.26516289 0.68423146 1.9470001
-0.25774574 0.68237716 1.9470001
-0.012361906 0.6885581 1.9470001
-0.0037085717 0.68608576 1.9470001
0.0030904764 0.6860857 1.9470001
-0.30595714 0.69721144 1.9470001
-0.011125715 0.69721144 1.9470001
0.0055628577 0.6953572 1.9470001
-0.30781144 0.70092005 1.9470001
0.011125715 0.70092005 1.9470001
-0.30595714 0.73615146 1.9470001
-0.29483145 0.73429716 1.9470001
-0.31337428 0.7454229 1.9470001
-0.30781144 0.74542284 1.9470001
0.32322541 -0.028593017 1.9580001
0.30830732 -0.014918096 1.9580001
0.30768573 -0.0055942857 1.9580001
0.31328002 -0.0037295239 1.9580001
0.30861813 0.0046619046 1.9580001
0.31328002 0.0018647619 1.9580001
0.30955049 0.013053333 1.9580001
0.31514478 0.016782857 1.9580001
0.30955049 0.029836191 1.9580001
0.30955049 0.037295241 1.9580001
0.31328002 0.037295241 1.9580001
0.29836193 0.048483811 1.9580001
0.30628717 0.045220483 1.9580001
0.31328002 0.042889528 1.9580001
0.29401082 0.05594286 1.9580001
0.30582097 0.05594286 1.9580001
0.31328002 0.052213334 1.9580001
0.28530857 0.06713143 1.9580001
0.29463241 0.063401908 1.9580001
0.30395621 0.065266669 1.9580001
0.28568152 0.075336382 1.9579999
0.29836193 0.072725713 1.9580001
0.30395621 0.070860952 1.9580001
0.27971429 0.085779049 1.9580001
0.28530857 0.085779049 1.9580001
0.30768573 0.085779049 1.9580001
0.27784953 0.095102862 1.9580001
0.28530857 0.095102862 1.9580001
0.26759332 0.10535906 1.9580001
0.27551857 0.10396048 1.9580001
0.28530857 0.10256191 1.9580001
0.26759332 0.11468286 1.9580001
0.27412 0.11468286 1.9580001
0.26852572 0.12493905 1.9580001
0.27474159 0.12556064 1.9580001
0.26666096 0.13426286 1.9580001
0.27318764 0.13333048 1.9580001
0.26666096 0.14545143 1.9580001
0.27374706 0.14619733 1.9579999
0.26554212 0.15440229 1.9579999
0.27349842 0.15539683 1.9580001
0.25733715 0.16782857 1.9580001
0.26526237 0.16456524 1.9580001
0.27474156 0.16472064 1.9580001
0.28530857 0.16782857 1.9580001
0.25640476 0.17528763 1.9580001
0.2647962 0.17528763 1.9579999
0.27598476 0.17528762 1.9579999
0.28530857 0.17528762 1.9580001
0.26852572 0.18274668 1.9580001
0.27598476 0.18461144 1.9580001
0.28530857 0.18461144 1.9580001
0.27971429 0.19393523 1.9580001
0.28530857 0.19393526 1.9580001
0.27971429 0.20139429 1.9580001
0.28530857 0.20139429 1.9580001
0.29556477 0.20698857 1.9580001
0.3045778 0.20574541 1.9580001
0.27971429 0.21444763 1.9580001
0.30582097 0.21258287 1.9580001
0.29516521 0.22377142 1.9580001
