# .PCD v0.7 - Point Cloud Data file format
VERSION 0.7
FIELDS x y z
SIZE 4 4 4
TYPE F F F
COUNT 1 1 1
WIDTH 1489
HEIGHT 1
VIEWPOINT 0 0 0 1 0 0 0
POINTS 1489
DATA ascii
0.1174781 0.68068194 1.8140001
0.12438858 0.68154573 1.8140001
-0.22235429 -0.069485717 1.8240001
-0.2455162 0.13781334 1.824
0.11812572 0.26752001 1.8240001
0.1216 0.26752001 1.8240001
0.13376001 0.26752001 1.8240001
0.14592001 0.26578286 1.8240001
0.15808001 0.26752001 1.8240001
0.16502857 0.26752001 1.8240001
0.17024 0.26752001 1.8240001
0.045165718 0.27794287 1.824
0.059062861 0.27794287 1.8240001
0.07759238 0.27678478 1.824
0.08338286 0.27794287 1.8240001
0.13549715 0.27099431 1.824
-0.024320001 0.28836572 1.8240001
-0.013897143 0.28836572 1.8240001
-0.0052114287 0.28836572 1.8240001
0.0069485717 0.28836572 1.8240001
0.013897143 0.28604952 1.824
0.020845715 0.28489143 1.8240001
0.077302858 0.28228572 1.8240001
0.08338286 0.28315431 1.8240001
-0.052114289 0.29878858 1.8240001
-0.048640002 0.29878858 1.8240001
-0.033005714 0.29357713 1.8240001
-0.1216 0.30921143 1.8240001
-0.075276196 0.30689526 1.824
-0.067748576 0.30573717 1.8240001
-0.057325717 0.30226287 1.8240001
0.27794287 0.30573717 1.824
-0.13202286 0.31442288 1.8240001
-0.12854858 0.31442288 1.8240001
-0.11638857 0.31268573 1.8240001
-0.10770286 0.31268573 1.8240001
-0.092068575 0.31268573 1.8240001
0.27516344 0.31685489 1.8240001
0.25709715 0.32658288 1.8240001
0.26404575 0.32658288 1.824
0.27099431 0.32310858 1.8240001
0.25709715 0.33353147 1.824
0.26265603 0.33214173 1.8240001
0.059062861 0.34742859 1.8240001
0.064274289 0.34742859 1.8240001
0.059062861 0.35090286 1.8240001
0.065432377 0.35321903 1.8240002
0.068327621 0.36248383 1.824
0.072960004 0.36653715 1.8240001
0.075565718 0.3743543 1.8240001
0.079908572 0.38217145 1.8240001
0.085120007 0.38217145 1.8240001
0.093805708 0.3839086 1.8240002
0.10075429 0.38217145 1.8240001
-0.024320001 0.60800004 1.8240001
-0.052114289 0.61494857 1.8240001
-0.045165718 0.61147434 1.8240001
-0.034048002 0.6142537 1.8240001
-0.026057141 0.61494857 1.8240002
0.095542856 0.61668575 1.8240001
0.10353372 0.61355889 1.8240001
0.11395657 0.61355889 1.8240001
-0.031268574 0.62363434 1.8240001
-0.025478095 0.62305528 1.824
0.086857148 0.62884575 1.8240001
0.092647634 0.6242134 1.8240002
-0.020845715 0.63579428 1.8240001
-0.017371429 0.63926858 1.8240001
0.086857148 0.63405716 1.8240001
0.091721155 0.63648915 1.8240001
-0.031268574 0.64621717 1.824
-0.012739047 0.64505905 1.8240002
-0.0069485717 0.64621717 1.824
0.10353372 0.64691204 1.8240001
-0.031268574 0.65664005 1.8240001
-0.013897143 0.65490294 1.8240001
0.10770286 0.65316576 1.8240001
0.11117715 0.65664005 1.8240001
-0.031268574 0.66011429 1.8240001
-0.027794287 0.66185141 1.8240001
0.11256687 0.66428339 1.8240001
0.079908572 0.67053717 1.8240001
0.10770286 0.67748576 1.8240001
0.11365878 0.6745078 1.8240002
0.11638857 0.68096 1.8240001
-0.22345144 -0.073320001 1.8330001
-0.22345144 -0.066337146 1.8330001
-0.25138286 0.13965715 1.8330001
-0.25138286 0.14489429 1.8330001
-0.24440002 0.14489429 1.8330001
-0.23741715 0.14489429 1.8330001
0.11870857 0.26534858 1.8330001
0.12569143 0.26534858 1.8330001
0.13616572 0.26651239 1.8330001
0.14314857 0.26185715 1.8330001
0.15275002 0.26709428 1.8330001
0.16409715 0.26534858 1.8330001
0.17108001 0.26534858 1.8330001
0.036660001 0.27931431 1.8330001
0.046086859 0.27442631 1.8329999
0.054117143 0.27756858 1.8330001
0.066337146 0.27682042 1.8330001
0.074192859 0.27495003 1.8330001
0.15362287 0.27233145 1.8330001
-0.031422857 0.28978857 1.8330001
-0.024440002 0.28978857 1.8330001
0.0034914287 0.28804284 1.8330001
0.013965716 0.28396952 1.8330001
0.026185716 0.28280571 1.8330001
0.031422857 0.28280571 1.8330001
-0.043642856 0.29677144 1.8330001
-0.036660001 0.29502571 1.8330001
-0.08292143 0.30637288 1.8330001
-0.075065717 0.3037543 1.8330001
-0.066337146 0.3037543 1.8330001
-0.057608575 0.30026287 1.8330001
0.27582288 0.30724573 1.8330001
-0.13267429 0.31073716 1.8330001
-0.12743714 0.31073716 1.8330001
-0.11521715 0.31073716 1.8330001
-0.10299715 0.31422859 1.8330001
-0.094268583 0.31190097 1.8330001
-0.083794288 0.31073716 1.8330001
0.27407718 0.31422859 1.8330001
0.25312859 0.32819429 1.8330001
0.26884001 0.32295716 1.8330001
0.25371048 0.33284953 1.8330001
0.26534858 0.33692288 1.8330001
0.055862859 0.34914288 1.8330001
0.057259429 0.35682401 1.8329999
0.062845714 0.35961714 1.8330001
0.059354287 0.36660001 1.8330001
0.064009525 0.3654362 1.8330001
0.059354287 0.37358287 1.8330001
0.065339588 0.3730841 1.8330001
0.073320001 0.3770743 1.8330001
0.059354287 0.38056573 1.8330001
0.066337146 0.38056573 1.8330001
0.074483812 0.38289335 1.8330001
0.059354287 0.39278573 1.8330001
0.069828577 0.39627713 1.8330001
0.075065717 0.39453146 1.8330001
0.083357856 0.39409503 1.8330001
0.076811433 0.58656001 1.8330001
0.083794288 0.58656001 1.8330001
-0.013965715 0.59354287 1.8330001
0.076811433 0.59354287 1.8330001
0.081466667 0.59121531 1.8330001
-0.023941228 0.60501474 1.8330001
-0.014402144 0.60358077 1.8330001
0.096014291 0.6075086 1.8330001
0.10474285 0.6075086 1.8330001
-0.055862859 0.61798286 1.8330001
-0.045388568 0.61216384 1.8330001
-0.034041427 0.61187285 1.8330001
-0.022694288 0.61361861 1.8330001
-0.01571143 0.611 1.8330001
0.086121909 0.61681908 1.8330001
0.094268583 0.61390954 1.8330001
0.10561572 0.61187285 1.8330001
0.11172572 0.611 1.8330001
-0.020948572 0.62322003 1.8330001
0.085540004 0.62496573 1.8330001
0.090777144 0.62147433 1.8330001
-0.020948572 0.63194859 1.8330001
-0.013965716 0.63893145 1.8330001
0.083794288 0.63544005 1.8330001
-0.013965715 0.64242285 1.8330001
0.08728572 0.64416862 1.8330001
0.095141426 0.64678717 1.8330001
0.097760007 0.65289718 1.8330001
0.10387 0.65638864 1.8330001
0.10707048 0.66569906 1.8330001
0.076811433 0.67035431 1.8330001
0.083794288 0.67471862 1.8330001
0.10648858 0.67384577 1.8330001
-0.21238382 -0.063188575 1.8430001
-0.21062858 -0.059678096 1.8430001
-0.20711811 -0.059678096 1.8430001
0.12637715 0.25977525 1.8430001
0.16323715 0.25977525 1.8430001
0.12813239 0.26328573 1.8430001
0.14392953 0.26504096 1.8430001
0.15446095 0.2667962 1.8430001
0.16674763 0.26328573 1.8430001
0.035104763 0.27732763 1.8430001
0.045636192 0.27206191 1.8430001
0.056167621 0.27615747 1.8430001
0.063188575 0.27381715 1.8430001
0.070209526 0.27381715 1.8430001
0.082496196 0.27030668 1.8430001
-0.0035104763 0.28785905 1.8430001
0.0035104763 0.28785905 1.8430001
0.024573334 0.28259334 1.8430001
0.031594288 0.2808381 1.8430001
-0.052657146 0.29839048 1.8430001
-0.045636192 0.29663524 1.8430001
-0.038615238 0.29488 1.8430001
-0.1333981 0.3089219 1.8430001
-0.12725477 0.30804428 1.8430001
-0.11584572 0.3089219 1.8430001
-0.093027622 0.3089219 1.8430001
-0.086006671 0.30541143 1.8430001
-0.071964763 0.30190095 1.8430001
-0.064943813 0.30190095 1.8430001
0.27557239 0.30541143 1.8430001
0.2808381 0.30190095 1.8430001
-0.11584572 0.31243238 1.8430001
-0.10531429 0.31243238 1.8430001
-0.098293334 0.31243238 1.8430001
0.27206191 0.31594288 1.8430001
0.25977525 0.32647431 1.8430001
0.26504096 0.32471907 1.8430001
0.049146667 0.36157906 1.8430001
0.056167621 0.36391938 1.8430001
0.056167621 0.37562096 1.8430001
0.070209526 0.3773762 1.8430001
0.059678096 0.38615239 1.8430001
0.063188575 0.38439715 1.8430001
0.073720001 0.38732255 1.8430001
0.084251434 0.38966286 1.8430001
-0.013164286 0.58712715 1.8430001
-0.0052657146 0.58976001 1.8430001
-0.021062858 0.59678096 1.8430001
-0.014041906 0.59502572 1.8430001
-0.0052657146 0.59327048 1.8430001
0.073720001 0.59502572 1.8430001
-0.033349525 0.60731238 1.8430001
-0.024573334 0.60204667 1.8430001
-0.014041905 0.60029143 1.8430001
-0.0070209526 0.60380191 1.8430001
0.073720001 0.60430342 1.8430002
0.084251434 0.60380191 1.8430002
0.094782859 0.60380191 1.8430002
0.10180382 0.60731238 1.8430001
-0.042125717 0.61082286 1.8430001
-0.035104763 0.61082286 1.8430001
-0.013164287 0.61521095 1.8430001
-0.0070209526 0.61082286 1.8430001
0.077230476 0.61082286 1.8430001
0.083812624 0.61389452 1.8430002
0.091272384 0.61257809 1.8430001
-0.015797144 0.62486476 1.8430001
0.077230476 0.62837523 1.8430001
0.080740958 0.62486476 1.8430001
-0.021062858 0.63188577 1.8430001
-0.015797144 0.63890672 1.8430001
0.077230476 0.63539624 1.8430001
0.080740958 0.63539624 1.8430001
-0.010531429 0.64592767 1.8430001
0.082496196 0.64592767 1.8430001
0.09419778 0.65645909 1.8430001
0.096538097 0.66523528 1.8430001
0.10355905 0.66523528 1.8430001
0.085421592 0.67401147 1.8430001
0.094782859 0.67401147 1.8430002
0.10180382 0.67401147 1.8430001
0.094782859 0.68103242 1.8430001
0.10180382 0.68103242 1.8430001
-0.22236001 -0.063531429 1.853
-0.21706572 -0.061766669 1.853
-0.2135362 -0.054707624 1.853
-0.20824191 -0.052942861 1.853
0.16412286 0.25765523 1.853
0.12176858 0.2647143 1.853
0.13482782 0.26259661 1.853
0.14118096 0.2647143 1.853
0.15176953 0.2647143 1.853
0.16588762 0.26294953 1.853
0.17294668 0.26294953 1.853
0.026471429 0.27883241 1.853
0.035295237 0.27530286 1.853
0.044119049 0.27177334 1.853
0.056472383 0.27353811 1.853
0.063531429 0.27294984 1.853
0.07412 0.27177334 1.853
-0.0070590479 0.28942096 1.853
0.0035295237 0.28706792 1.853
0.012353334 0.2841267 1.853
0.022941906 0.28236192 1.853
-0.047648571 0.29648 1.853
-0.03706 0.29295048 1.853
-0.13588667 0.30706859 1.853
-0.12353334 0.30706859 1.853
-0.1023562 0.30706859 1.853
-0.091767624 0.30706859 1.853
-0.075884759 0.30177432 1.853
-0.056472383 0.30000955 1.853
0.27647936 0.30118605 1.853
-0.13765143 0.31059811 1.853
-0.11647429 0.31059811 1.853
-0.10588572 0.31059811 1.853
-0.098826669 0.31059811 1.853
0.27177334 0.3158924 1.853
0.25765523 0.32648098 1.853
0.26471433 0.3223632 1.853
0.2505962 0.33354002 1.853
0.049413335 0.3670705 1.853
0.052942861 0.3670705 1.853
0.049413335 0.37236476 1.853
0.053825241 0.37324715 1.853
0.049413335 0.38295335 1.853
0.054354668 0.38542402 1.853
0.067060955 0.38824764 1.853
0.070590481 0.38824764 1.853
0.054707624 0.39177716 1.853
0.067060955 0.39707142 1.853
0.070590481 0.39530668 1.853
-0.013235714 0.58678335 1.853
-0.0052942862 0.58766574 1.853
-0.021177143 0.59648955 1.853
-0.01764762 0.59296 1.853
0 0.59296 1.853
0.088238098 0.59648955 1.853
-0.033530477 0.60707814 1.853
-0.026471429 0.60178387 1.853
-0.0044119051 0.60266626 1.853
0.066178568 0.60354859 1.853
0.070590481 0.60354865 1.853
0.085885078 0.60237211 1.853
0.091767624 0.6000191 1.853
-0.045883808 0.61413717 1.853
-0.038824763 0.61060762 1.853
-0.003529524 0.61060762 1.853
0.066178575 0.61325479 1.853
0.073414102 0.61625487 1.853
-0.010588571 0.62119621 1.853
0.075884759 0.62472576 1.853
-0.015882857 0.63707906 1.853
0.073531747 0.63531429 1.853
0.035295241 0.64943242 1.853
0.074120007 0.64590287 1.853
0.049413335 0.65296191 1.853
0.055295873 0.65413839 1.853
0.063531429 0.65296191 1.853
0.075002387 0.6538443 1.853
0.083826192 0.65560907 1.853
0.077649526 0.6635505 1.853
0.085149765 0.66310924 1.8529999
0.091767624 0.66531527 1.853
0.077649526 0.67237431 1.853
0.086120382 0.67343313 1.853
0.091767624 0.67060953 1.853
-0.23065715 -0.074519999 1.863
-0.22444716 -0.061212856 1.863
-0.21291429 -0.049680002 1.863
-0.20936573 -0.049680002 1.863
0.17210573 0.25904572 1.863
0.046131432 0.26969144 1.863
0.055002861 0.26969144 1.863
0.063874282 0.26969144 1.863
0.072745711 0.26969144 1.863
0.085875437 0.26827198 1.8630002
0.1242 0.26259428 1.863
0.15791143 0.26614287 1.863
0.024840003 0.27678859 1.863
0.035485715 0.27324 1.863
0.053228572 0.27324 1.863
0.060325716 0.27324 1.863
-0.010645715 0.28743431 1.863
-0.0053228573 0.28743431 1.863
0.0035485716 0.2850686 1.863
0.015081429 0.28211144 1.863
0.021291429 0.28033715 1.863
-0.055002861 0.29808 1.863
-0.042582858 0.29453143 1.863
-0.014194286 0.29098287 1.863
-0.13129714 0.30517715 1.863
-0.12774858 0.30517715 1.863
-0.1135543 0.30872571 1.863
-0.10645714 0.30872571 1.863
-0.085165717 0.30517715 1.863
-0.060325716 0.30162859 1.863
0.27324 0.30872571 1.863
0.25904572 0.31937143 1.863
0.26685256 0.31795198 1.8630002
0.27324 0.31227431 1.863
0.2484 0.32469431 1.863
0.25461 0.32469431 1.863
0.26259428 0.32292002 1.863
0.25549716 0.33001715 1.863
0.063874289 0.39477858 1.863
0.070971429 0.39389145 1.863
0.063874289 0.40098858 1.863
-0.022474287 0.58788007 1.863
-0.014194285 0.58480459 1.8630002
-0.0053228573 0.58374 1.863
0.0017742858 0.58728862 1.863
-0.024248572 0.59615999 1.863
0.0021291429 0.59615999 1.8630002
0.065648571 0.59970862 1.863
0.070971429 0.59970862 1.863
-0.034302857 0.60562289 1.863
-0.028388573 0.60325718 1.863
0.0011828572 0.60444003 1.863
0.049680002 0.60680574 1.863
0.056777146 0.60503149 1.863
0.06150857 0.60444003 1.863
-0.047905717 0.61567712 1.863
-0.039034288 0.6103543 1.863
-0.0035485716 0.61745143 1.863
0 0.6103543 1.863
0.049680002 0.61390287 1.863
0.055890005 0.61390287 1.863
0.061745144 0.61390287 1.8630002
-0.010645715 0.62809718 1.863
-0.0070971432 0.62100005 1.863
0.053228572 0.62809718 1.863
0.065293714 0.62525833 1.8630002
0.070971429 0.62632287 1.863
0.055002861 0.63341999 1.863
0.064888172 0.6351943 1.863
0.070971429 0.6351943 1.863
0.039034288 0.64938861 1.863
0.047905717 0.64938861 1.863
0.055002861 0.64761436 1.863
0.063874289 0.64584011 1.863
0.039034288 0.65293717 1.863
0.046131432 0.65293717 1.863
0.055002861 0.65293717 1.863
0.063874282 0.65293717 1.863
0.065057151 0.66240001 1.863
0.072745711 0.66358286 1.863
0.073337138 0.6718629 1.863
0.081617147 0.67245436 1.863
-0.23189525 -0.074919999 1.8730001
-0.2240465 -0.054941334 1.8730001
-0.21405715 -0.045784444 1.8730001
0.067784764 0.26757145 1.8730001
0.074920006 0.26757145 1.8730001
0.082055241 0.26757145 1.8730001
0.15697524 0.26222003 1.8730001
0.16054286 0.26222003 1.8730001
0.016054288 0.2782743 1.8730001
0.026757143 0.27470669 1.8730001
0.035676192 0.27113906 1.8730001
0.07848762 0.27113906 1.8730001
-0.014270477 0.28719336 1.8730001
-0.0053514289 0.28540954 1.8730001
0.0035676192 0.28303111 1.8730001
0.010702858 0.2818419 1.8730001
-0.053514287 0.29611239 1.8730001
-0.048162859 0.29611239 1.8730001
-0.03924381 0.29254478 1.8730001
-0.024973333 0.29254478 1.8730001
-0.13200191 0.30324763 1.8730001
-0.12486666 0.30562603 1.8730001
-0.11416382 0.30681524 1.8730001
-0.10346095 0.30681524 1.8730001
-0.094541907 0.30681524 1.8730001
-0.066000953 0.30324763 1.8730001
-0.098109528 0.31038287 1.8730001
0.26400381 0.3157343 1.8730001
0.27113906 0.31216669 1.8730001
0.24616572 0.32822096 1.8730001
0.25686857 0.32286954 1.8730001
0.24884143 0.33446428 1.8730001
0.25330096 0.33178857 1.8730001
-0.012486667 0.57795429 1.8730001
-0.0053514289 0.57795429 1.8730001
0.0014270477 0.57510024 1.8730001
-0.023189526 0.58687335 1.8730001
-0.014270477 0.58271116 1.8730001
-0.0053514289 0.58152193 1.8730001
0.004077279 0.58407021 1.8730001
0.016054288 0.58508956 1.8730001
0.024973335 0.58508956 1.8730001
-0.028540954 0.59579247 1.8730001
0.0071352385 0.59579247 1.8730001
0.012129906 0.59650594 1.8730001
0.047398366 0.59630209 1.8730001
0.055892702 0.59817082 1.8730001
0.064217135 0.59793299 1.8730001
-0.034784287 0.60471141 1.8730001
0.0071352385 0.60471141 1.8730001
0.014270477 0.60649526 1.8730001
0.035676192 0.60471141 1.8730001
0.046379048 0.60471147 1.8730001
0.054703493 0.60411686 1.8730001
0.060649525 0.60292763 1.8730001
-0.042811431 0.61363047 1.8730001
-0.03924381 0.6100629 1.8730001
0.0041622226 0.61422509 1.8730001
0.035676192 0.61541432 1.8730001
0.045359731 0.61363047 1.8730001
0.053514287 0.61184669 1.8730001
-0.053514287 0.62790096 1.8730001
-0.0047568255 0.62671179 1.8730001
0.0017838096 0.62076575 1.8730001
0.017838096 0.62790096 1.8730001
0.034656875 0.62484306 1.8730001
0.04739837 0.6238237 1.8730001
0.054941334 0.62504691 1.8730001
0.060649525 0.62611717 1.8730001
-0.060649525 0.63503623 1.8730001
-0.010702858 0.63682002 1.8730001
-0.0071352385 0.63146859 1.8730001
0.0053514293 0.63503623 1.8730001
0.014270477 0.63682002 1.8730001
0.027351746 0.63741463 1.8730001
0.035676192 0.63548219 1.8730001
0.046825003 0.63548219 1.8730001
0.057081908 0.63146859 1.8730001
0.060649525 0.63325238 1.8730001
-0.010702858 0.64395523 1.8730001
0.0053514289 0.64217144 1.8730001
0.017838096 0.64217144 1.8730001
0.028540954 0.64395523 1.8730001
0.036122147 0.64529312 1.8730001
0.046379048 0.64573908 1.8730003
0.055298097 0.64395523 1.8730001
0.060649525 0.64217144 1.8730001
-0.0071352385 0.65644193 1.8730001
0.035676192 0.65287429 1.8730001
0.042811431 0.65287429 1.8730001
0.017838096 0.67606384 1.8730001
0.023189526 0.67606384 1.8730001
0.0017838096 0.68319911 1.8730001
0.014270477 0.68141526 1.8730001
0.023189526 0.68141526 1.8730001
-0.23672001 -0.075320005 1.8830001
-0.23313335 -0.068146668 1.8830001
-0.22596002 -0.050213337 1.883
-0.22237334 -0.044833332 1.8830001
-0.21878667 -0.04304 1.8830001
-0.21448269 -0.038018666 1.8830001
-0.21340668 -0.028693335 1.8830001
0.0071733338 0.27976 1.8830001
0.014346667 0.2773689 1.883
0.025106668 0.27378225 1.883
-0.016140001 0.28514001 1.8830001
-0.0053800005 0.28334668 1.8830001
0 0.28334668 1.8830001
-0.060973335 0.29769334 1.8830001
-0.054696672 0.29500335 1.8830001
-0.044833332 0.29410669 1.8830001
-0.034073334 0.29410669 1.8830001
-0.023313334 0.29052001 1.8830001
-0.12553334 0.30486667 1.8830001
-0.11118667 0.30486667 1.8830001
-0.10401334 0.30845335 1.8830001
-0.08608 0.30845335 1.8830001
-0.071733333 0.30486667 1.8830001
-0.062766671 0.30128002 1.8830001
0.050213337 0.38377336 1.8830001
-0.052604448 0.57506222 1.8830003
-0.01076 0.57745337 1.8830001
-0.0053800005 0.57565999 1.8830001
0.0059777782 0.57506222 1.883
0.014346667 0.57565999 1.8830003
0.023313336 0.57565999 1.8830001
-0.025106668 0.58701783 1.883
-0.017933333 0.58283335 1.8830001
0.0071733338 0.58104002 1.8830001
0.013748889 0.58343118 1.8830003
0.024594288 0.58411437 1.8830003
0.035866667 0.58821338 1.883
-0.034073334 0.59897333 1.8830001
-0.028693335 0.59180003 1.8830001
0.015064001 0.59466934 1.8830001
0.024658335 0.59493834 1.8830003
0.036891431 0.59487432 1.8830003
0.04393667 0.59448999 1.8830001
0.053800002 0.59538668 1.883
0.064560004 0.59897333 1.8830001
-0.04304 0.60794002 1.8830001
-0.035866667 0.60375559 1.883
0.014944444 0.60674447 1.8830003
0.025106668 0.60614669 1.8830003
0.036464449 0.60614675 1.8830003
0.071733333 0.60256004 1.8830001
-0.044833332 0.61511338 1.8830001
0.0071733338 0.6169067 1.8830001
0.013629334 0.61475468 1.8830001
0.025106668 0.61331999 1.8830001
0.03497 0.61421669 1.8830001
-0.050213337 0.62049335 1.8830001
0.0044833338 0.62677002 1.8830001
0.014346668 0.62407994 1.8830003
0.025106668 0.62408006 1.8830003
0.039453335 0.62408 1.883
0.04304 0.62766671 1.8830001
-0.062766671 0.63663334 1.8830001
-0.0047822227 0.63723111 1.883
0.0021520001 0.63340533 1.8830001
0.013629334 0.63340533 1.8830001
0.024658335 0.63439173 1.8830003
0.035866667 0.63484001 1.8830001
0.04304 0.63304669 1.8830001
-0.064560004 0.64201337 1.8830001
-0.0053800005 0.64560002 1.8830003
0.0021520001 0.6470347 1.8830001
0.013629334 0.64775205 1.8830001
0.022954667 0.64631736 1.8830001
-0.0047822227 0.65755558 1.883
0.028693335 0.65277338 1.8830001
0.032280002 0.65636003 1.883
-0.0035866669 0.66353333 1.8830001
0.014346668 0.67788005 1.8830001
0.0071733338 0.68505335 1.8830001
0.013629334 0.68505335 1.8830001
0.02152 0.68864 1.8830001
-0.0035866669 0.69222671 1.8830001
0.0011955557 0.69342226 1.883
-0.23810287 -0.068544768 1.8940001
-0.22728001 -0.045095243 1.8940001
-0.22307111 -0.036076192 1.8940001
-0.21465334 -0.032468572 1.8940001
-0.22186857 -0.028860953 1.8940001
0.14610857 0.26696381 1.8940001
0.0036076191 0.27778667 1.8940001
0.010822858 0.27778667 1.8940001
0.063133337 0.27057144 1.8940001
-0.023449525 0.28860953 1.8940001
-0.014430476 0.2850019 1.8940001
-0.0036076191 0.2813943 1.8940001
0.0018038095 0.2813943 1.8940001
-0.063133337 0.29762858 1.8940001
-0.054114286 0.29221717 1.8940001
-0.045095243 0.29221717 1.8940001
-0.036076192 0.29221717 1.8940001
-0.028860953 0.29221717 1.8940001
-0.12626667 0.30484381 1.8940001
-0.11724762 0.30664763 1.8940001
-0.079367623 0.30664763 1.8940001
-0.068544768 0.30304 1.8940001
-0.14069715 0.31025526 1.8940001
-0.13708954 0.31025526 1.8940001
-0.010822858 0.57721907 1.8940001
0.0036076189 0.57180762 1.8940001
0.010822858 0.57000381 1.8940001
0.028860953 0.57541525 1.8940001
0.036076192 0.57577604 1.8940001
0.045095243 0.57541525 1.8940001
0.05050667 0.57361144 1.8940001
-0.054114286 0.58443433 1.8940001
-0.025253333 0.58683938 1.8940001
-0.014430476 0.5808267 1.8940001
0.028860953 0.58443427 1.8940001
0.036076196 0.58443433 1.8940002
0.045095246 0.58443433 1.8940001
-0.034873649 0.59766227 1.8940001
0.032468572 0.59886479 1.8940001
0.045095243 0.59164953 1.8940001
0.05411429 0.59525716 1.8940001
0.064937145 0.59886479 1.8940001
-0.043291431 0.60427618 1.8940001
-0.039683811 0.60427618 1.8940001
0.028860953 0.60247242 1.8940001
0.032468572 0.60427618 1.8940001
0.073956192 0.60427618 1.8940001
0.025253335 0.61690289 1.8940001
-0.054114286 0.62772572 1.8940001
0.018038096 0.62051052 1.8940001
0.025253335 0.62051052 1.8940001
-0.064937145 0.63854861 1.8940001
-0.055918097 0.63313717 1.8940001
-0.010822858 0.65658671 1.8940001
-0.0054114284 0.65658671 1.8940001
0.0036076189 0.65658671 1.8940001
0.014430475 0.65658671 1.8940001
0.023449525 0.65658671 1.8940001
0.0028860953 0.66163743 1.8940001
0.014430476 0.66380191 1.8940002
0.027658412 0.66259938 1.8940001
0.0024050793 0.67221975 1.8940001
0.014430476 0.6746248 1.8940002
0.024050795 0.67342228 1.8940001
0.0072152382 0.68544763 1.8940001
-0.0054114284 0.6998781 1.8940001
0.0060126982 0.69627053 1.8940001
0.014430476 0.69730127 1.8940001
-0.0048101586 0.70468825 1.8940001
0.0018038095 0.70528948 1.8940001
0.013708952 0.70492876 1.8940001
0 0.7125048 1.8940001
0.010822858 0.72152382 1.8940001
-0.26112002 -0.10517333 1.904
-0.25386667 -0.10396444 1.9039999
-0.25024 -0.096106663 1.904
-0.24661334 -0.097920001 1.904
-0.24298668 -0.08704 1.904
0.067093343 0.26837334 1.904
0.14506668 0.26474667 1.904
0.15413335 0.26837334 1.904
0.0036266667 0.27925333 1.904
0.02176 0.27562669 1.904
0.056213334 0.27200001 1.904
-0.02448 0.28560001 1.904
-0.014506668 0.28288001 1.9039999
-0.0072533335 0.28288001 1.904
-0.065280005 0.29617777 1.9039999
-0.047146667 0.29013336 1.904
-0.03626667 0.29376 1.904
-0.029013334 0.29013336 1.904
-0.13781334 0.30826667 1.904
-0.11424001 0.30464002 1.904
-0.1088 0.30826667 1.904
-0.097920001 0.30826667 1.904
-0.083413333 0.30826667 1.904
-0.076160006 0.30464002 1.9039999
-0.068906672 0.30101335 1.904
0.0029013334 0.56793606 1.904
0.01088 0.56938666 1.904
-0.0048355558 0.57543117 1.9039999
0.015232001 0.57518935 1.904
0.023573333 0.57482672 1.904
0.03626667 0.57664001 1.904
0.056213334 0.57664001 1.904
0.061653335 0.57664001 1.904
-0.061653335 0.58752 1.904
-0.054400001 0.58752 1.904
-0.047146667 0.58570671 1.904
-0.025386667 0.58449781 1.9040002
-0.016924446 0.58147556 1.9039999
0.054400001 0.58389336 1.9040002
-0.13237333 0.5984 1.904
-0.061653335 0.59296 1.904
-0.054400001 0.59373719 1.9040002
-0.04352 0.5984 1.904
-0.035360001 0.5965867 1.904
0.055125333 0.59259737 1.904
0.063466668 0.5984 1.904
-0.14688 0.60928005 1.904
-0.061653335 0.60928005 1.904
-0.054400001 0.60383999 1.904
-0.04352 0.6020267 1.904
-0.039893337 0.6020267 1.904
0.077973336 0.60565335 1.904
0.083413333 0.60565335 1.904
-0.14506666 0.61290669 1.9039999
-0.072533339 0.61471999 1.904
-0.063466668 0.61290669 1.904
-0.047146667 0.61653334 1.904
-0.072533339 0.62378669 1.9039999
-0.064675562 0.62499553 1.9040002
-0.054400001 0.62559998 1.904
-0.047146667 0.62016004 1.904
-0.072533339 0.63104004 1.904
-0.064243816 0.6341486 1.9040002
-0.058026668 0.63285339 1.904
-0.068906672 0.64554667 1.9039999
0.0072533335 0.66730666 1.904
0.022968888 0.66488892 1.9039999
0.0042311111 0.67395562 1.9040002
0.025386667 0.67093343 1.9039999
0.0072533335 0.68181336 1.904
-0.28469336 0.69269335 1.904
0.026112 0.69849598 1.904
0.0072533335 0.7053867 1.904
0.025386667 0.70538664 1.9040002
0.032640003 0.70720005 1.904
-0.0058026668 0.71517867 1.904
0.0058026668 0.71517867 1.904
0.015024764 0.71548951 1.9040002
-0.012088888 0.72412443 1.9039999
-0.0048355558 0.72291559 1.9039999
0.0036266665 0.72533339 1.9040002
0.014960001 0.72533339 1.9040002
0.0046628569 0.7356953 1.9040002
0.014506668 0.73621339 1.9040002
0.022968888 0.73742229 1.9039999
0.00544 0.74528003 1.904
0.014506668 0.74528003 1.9040002
0.02176 0.74528003 1.904
0.00544 0.75072002 1.904
0.014506668 0.75072002 1.9039999
0.02176 0.75072002 1.904
-0.25533333 -0.10213333 1.9150001
-0.2480381 -0.09119048 1.9150001
-0.24256667 -0.083895244 1.9150001
-0.21429764 -0.024621429 1.9150001
-0.20791429 -0.0036476192 1.9150001
-0.20426667 0.0036476192 1.9150001
-0.20426667 0.010942858 1.9150001
-0.26627621 0.10942858 1.9150001
-0.26627621 0.1130762 1.9150001
0.058361907 0.26992381 1.9150001
0.062009525 0.26992381 1.9150001
0.074776188 0.26992381 1.9150001
0.083895244 0.26992381 1.9150001
0.13739365 0.26506034 1.9150001
0.14225715 0.26627621 1.9150001
0.15684763 0.26627621 1.9150001
0.018238096 0.27721906 1.9150001
0.051066667 0.27357143 1.9150001
-0.034652382 0.2881619 1.9150001
-0.025533333 0.28451431 1.9150001
-0.014590477 0.28086668 1.9150001
-0.0054714289 0.28086668 1.9150001
-0.072952382 0.29910478 1.9150001
-0.067480952 0.29545715 1.9150001
-0.054714289 0.29180953 1.9150001
-0.041947622 0.29180953 1.9150001
-0.034652382 0.29180953 1.9150001
-0.12401905 0.3064 1.9150001
-0.11490001 0.30275241 1.9150001
-0.10821271 0.30518413 1.9150001
-0.08480715 0.30457622 1.9150001
-0.074776188 0.30275241 1.9150001
-0.10395715 0.31004763 1.9150001
-0.093014285 0.31004763 1.9150001
-0.087542862 0.31004763 1.9150001
0.018238096 0.56902862 1.9150001
0.021885715 0.56902862 1.9150001
-0.04559524 0.57997143 1.9150001
-0.0036476192 0.57267618 1.9150001
0.016414287 0.57267618 1.9150001
0.021885715 0.57267618 1.9150001
-0.042555559 0.58605081 1.9150001
-0.034652382 0.58726668 1.9150001
-0.027357142 0.58361906 1.9150001
0.064927623 0.58507812 1.9150002
-0.1349619 0.59820956 1.9150001
-0.067480952 0.59456199 1.9150001
-0.043771427 0.59560406 1.9150001
-0.034652382 0.59273815 1.9150001
0.063833334 0.59456193 1.9150001
-0.13313809 0.60732859 1.9150001
-0.1130762 0.60732859 1.9150001
-0.10699683 0.60672069 1.9150001
-0.098485716 0.60915238 1.9150001
-0.080247626 0.60915238 1.9150001
-0.075384125 0.60793656 1.9150001
-0.065657146 0.60550481 1.9150001
-0.054714289 0.60550475 1.9150001
-0.047419053 0.60550475 1.9150001
0.069304764 0.60185719 1.9150001
0.074168257 0.60428894 1.9150001
-0.1532 0.61644763 1.9150001
-0.14225715 0.6128 1.9150001
-0.1349619 0.61462384 1.9150001
-0.081463493 0.61523175 1.9150001
-0.075384133 0.61401588 1.9150001
-0.068088889 0.61401588 1.9150001
-0.054714289 0.61462384 1.9150001
-0.047419049 0.61462379 1.9150001
-0.15684763 0.62009525 1.9150001
-0.14499287 0.62100714 1.9150001
-0.1349619 0.62465477 1.9150001
-0.082071431 0.62374288 1.9150001
-0.0766 0.62374288 1.9150001
-0.066265076 0.622527 1.9150001
-0.055235378 0.62270069 1.9150001
-0.23344763 0.63833338 1.9150001
-0.22615239 0.63468575 1.9150001
-0.21794525 0.63377386 1.9150001
-0.13374603 0.63346988 1.9150001
-0.082853071 0.63520682 1.9150001
-0.075688094 0.63559765 1.9150001
-0.069304764 0.63833338 1.9150001
-0.23527144 0.64380479 1.9150001
-0.22676033 0.64502066 1.9150001
-0.21885715 0.64380479 1.9150001
-0.080247626 0.64562857 1.9150001
-0.074776195 0.64562863 1.9150001
-0.069304764 0.64198101 1.9150001
-0.080247626 0.65292382 1.9150001
-0.074776188 0.65474761 1.9150001
-0.069304764 0.65657145 1.9150001
-0.31004763 0.66751432 1.9150001
-0.16535874 0.66508257 1.9150001
-0.069304764 0.66021907 1.9150001
-0.31223622 0.67553914 1.9150002
-0.3064 0.67663336 1.9150001
-0.2881619 0.67845714 1.9150001
-0.20244285 0.67116195 1.9150001
-0.19575556 0.6735937 1.9150001
-0.18785238 0.67480958 1.9150001
-0.29180953 0.68210477 1.9150001
-0.2881619 0.68575239 1.9150001
-0.27539524 0.68940002 1.9150001
-0.22615238 0.68210477 1.9150001
-0.29180953 0.69487143 1.9150001
-0.28451428 0.6930477 1.9150001
0.025533333 0.71675712 1.9150001
0.032828573 0.71675718 1.9150001
-0.0072952383 0.72952384 1.9150001
0.025533335 0.72587615 1.9150001
0.034044445 0.72344446 1.9150001
-0.012766667 0.73499525 1.9150001
-0.0054714289 0.73499525 1.9150001
0.023709524 0.73499525 1.9150001
-0.0036476192 0.7422905 1.9150001
0 0.74411434 1.9150001
0 0.75140953 1.9150001
-0.26400003 -0.10388889 1.9250001
-0.25544447 -0.095333338 1.9250001
-0.24933334 -0.088 1.9250001
-0.24200001 -0.077 1.9250001
-0.23833334 -0.064166665 1.9250001
-0.23466668 -0.047666669 1.9250001
-0.22000001 -0.022 1.9250001
-0.21633334 -0.022 1.9250001
-0.2145 -0.014666668 1.9250001
-0.2138889 -0.0061111115 1.9250001
-0.20900001 -0.0073333336 1.9250001
-0.20900001 0.0036666668 1.9250001
-0.26644444 0.10511111 1.9250001
-0.26179999 0.11293334 1.925
0.066 0.26766667 1.9250001
0.073333338 0.26766667 1.9250001
0.082500003 0.26766667 1.9250001
0.13933334 0.26033333 1.9250001
0.14300001 0.264 1.9250001
0.15766667 0.264 1.9250001
0.16133334 0.264 1.9250001
0 0.27866668 1.9250001
0.012833334 0.27866668 1.9250001
0.055000003 0.27133334 1.9250001
-0.041555557 0.28844443 1.9250001
-0.034833334 0.28600001 1.9250001
-0.025666667 0.28416669 1.9250001
-0.073333338 0.29700002 1.9250001
-0.062333334 0.29333335 1.9250001
-0.13566667 0.308 1.9250001
-0.12100001 0.30433336 1.9250001
-0.10266667 0.308 1.9250001
-0.095333338 0.30616668 1.9250001
-0.082500003 0.30250001 1.9250001
-0.077 0.30066669 1.9250001
-0.040333334 0.58483338 1.9250001
-0.035444446 0.58544451 1.9250001
-0.080666669 0.59766668 1.9250001
-0.074555553 0.59644443 1.9250001
-0.040333334 0.59400004 1.9250001
0.069666669 0.59583336 1.9250001
0.076083332 0.5949167 1.9250001
0.081888892 0.59400004 1.9250001
-0.14300001 0.60500002 1.9250001
-0.13933334 0.60500002 1.9250001
-0.12100001 0.60866672 1.9250001
-0.11733334 0.60866672 1.9250001
-0.10633334 0.60866672 1.9250001
-0.095333338 0.60683334 1.9250001
-0.083809517 0.60604763 1.9250001
-0.0748 0.6042667 1.925
0.069666669 0.60133338 1.9250001
0.075777777 0.60255557 1.9250001
0.080666669 0.60683334 1.9250001
-0.16133334 0.6196667 1.9250001
-0.15766667 0.6196667 1.9250001
-0.12466666 0.616 1.9250001
-0.11419047 0.61704761 1.9250001
-0.1045 0.616 1.9250001
-0.094875008 0.61645836 1.9250001
-0.08653333 0.61526668 1.925
-0.16133334 0.62333333 1.9250001
-0.154 0.62608337 1.9250001
-0.14666668 0.62700003 1.9250001
-0.13566667 0.62333333 1.9250001
-0.12466667 0.62516671 1.9250001
-0.11366668 0.62516671 1.9250001
-0.1045 0.62516665 1.9250001
-0.095333338 0.62516671 1.9250001
-0.088 0.62516665 1.9250001
-0.21450001 0.63800001 1.9250001
-0.20533334 0.63800001 1.9250001
-0.19800001 0.63800001 1.9250001
-0.15033334 0.63066667 1.9250001
-0.14544445 0.63188893 1.9250001
-0.13627779 0.6349445 1.9250001
-0.12466666 0.63433337 1.9250001
-0.1148889 0.63311118 1.9250001
-0.1045 0.63250005 1.9250001
-0.095333338 0.63433337 1.9250001
-0.088 0.63433337 1.9250001
-0.22366667 0.64533335 1.9250001
-0.21450001 0.64533335 1.9250001
-0.20638096 0.64480954 1.9250001
-0.19479167 0.64487511 1.9250001
-0.18553334 0.64533341 1.925
-0.17966667 0.64900005 1.9250001
-0.14422223 0.64288896 1.9250001
-0.13566667 0.64579171 1.9250001
-0.12571429 0.64585716 1.9250001
-0.11458334 0.64808333 1.9250001
-0.10266667 0.64900005 1.9250001
-0.095333338 0.64533341 1.9250001
-0.085066661 0.64753336 1.925
-0.23375 0.65358335 1.9250001
-0.22293334 0.65486676 1.925
-0.21633334 0.65450001 1.9250001
-0.20533334 0.65266669 1.9250001
-0.18516669 0.65450001 1.9250001
-0.17966667 0.65633339 1.9250001
-0.16500001 0.65633339 1.9250001
-0.154 0.65633339 1.9250001
-0.14422223 0.65511113 1.9250001
-0.13566667 0.65450007 1.9250001
-0.12540001 0.65413338 1.925
-0.1155 0.65266669 1.9250001
-0.10266667 0.65450001 1.9250001
-0.095333338 0.65450001 1.9250001
-0.086166665 0.65450007 1.9250001
-0.30341667 0.6664167 1.9250001
-0.29333335 0.66733336 1.9250001
-0.28600001 0.66733336 1.9250001
-0.27683333 0.66366667 1.9250001
-0.23100001 0.66366673 1.9250001
-0.22366667 0.66366673 1.9250001
-0.21541667 0.66366667 1.9250001
-0.20900001 0.66366667 1.9250001
-0.17554167 0.66366673 1.9250001
-0.16499999 0.66261905 1.9250001
-0.154 0.66366673 1.9250001
-0.14483334 0.66366673 1.9250001
-0.13514286 0.66261911 1.9250001
-0.12833335 0.66183335 1.9250001
-0.10266667 0.66733336 1.9250001
-0.095857143 0.66261911 1.9250001
-0.083875008 0.66320837 1.9250001
-0.075166665 0.66550004 1.9250001
-0.31166667 0.6746667 1.9250001
-0.30387503 0.67420834 1.9250001
-0.29516667 0.67466664 1.9250001
-0.28645834 0.67420834 1.9250001
-0.27866668 0.6746667 1.9250001
-0.23100001 0.67833334 1.9250001
-0.22366667 0.67527777 1.9250001
-0.21541668 0.6755833 1.9250001
-0.20716667 0.67833334 1.9250001
-0.19250001 0.6746667 1.9250001
-0.18700001 0.6746667 1.9250001
-0.17526667 0.67246664 1.925
-0.16454168 0.67512506 1.9250001
-0.154 0.67283338 1.9250001
-0.14544445 0.6722222 1.9250001
-0.31349999 0.6875 1.9250001
-0.303875 0.68612504 1.9250001
-0.29553336 0.68566668 1.925
-0.28416669 0.68566674 1.9250001
-0.27545834 0.68612498 1.9250001
-0.26766667 0.68933338 1.9250001
-0.23540001 0.68346673 1.925
-0.22366667 0.68199998 1.9250001
-0.21450001 0.68200004 1.9250001
-0.16683334 0.68200004 1.9250001
-0.30250001 0.6948334 1.9250001
-0.2957778 0.69422227 1.9250001
-0.28416669 0.69300002 1.9250001
-0.30250001 0.70033336 1.9250001
-0.29553336 0.70473331 1.925
-0.28966668 0.704 1.9250001
-0.29516667 0.71316671 1.9250001
-0.28966668 0.71500003 1.9250001
-0.28600001 0.72783345 1.9250001
-0.27573332 0.72820008 1.925
-0.26766667 0.72966671 1.9250001
-0.28600001 0.73516673 1.9250001
-0.27500001 0.73516673 1.9250001
-0.26644444 0.73577785 1.9250001
-0.29333335 0.74433345 1.9250001
-0.28600001 0.74433339 1.9250001
-0.27683336 0.74066669 1.9250001
-0.011 0.74616671 1.9250001
-0.0073333336 0.74616671 1.9250001
-0.0048888889 0.75288892 1.9250001
-0.25075811 -0.084815241 1.9360001
-0.24707049 -0.081127621 1.9360001
-0.24707049 -0.073752381 1.9360001
-0.24338287 -0.064533338 1.9360001
-0.23969525 -0.055314288 1.9360001
-0.22125715 -0.014750477 1.9360002
-0.2120381 0 1.9360001
-0.26366478 0.10509714 1.9360001
-0.25628954 0.11800382 1.9360001
-0.25567493 0.12292064 1.9360002
0.059001908 0.26919621 1.9360001
0.077440001 0.26919621 1.9360001
0.13644192 0.26366478 1.9360001
0.14566095 0.26182097 1.9360001
0.15365081 0.26796702 1.9360002
0.016594287 0.27657145 1.9360001
0.025813334 0.27657145 1.9360001
0.044251431 0.27657145 1.9360002
0.051626667 0.27288383 1.9360001
-0.025813334 0.28394666 1.9360001
-0.0036876192 0.28025907 1.9360001
0.0055314288 0.28025907 1.9360001
-0.081127621 0.29869714 1.9360001
-0.077440001 0.29869714 1.9360001
-0.066377148 0.29500952 1.9360001
-0.047939051 0.2913219 1.9360001
-0.12722287 0.30607238 1.9360001
-0.086659051 0.30238476 1.9360001
0.072523177 0.59493589 1.9360002
-0.084815241 0.60476953 1.9360001
0.084077716 0.60403198 1.9360001
0.094034292 0.60108191 1.9360001
0.084815241 0.61214477 1.9360001
-0.16778667 0.62689525 1.9360001
-0.16778667 0.63058287 1.9360001
-0.15488 0.6370362 1.9360001
-0.14381714 0.63795811 1.9360001
-0.11062858 0.63795811 1.9360001
-0.20281905 0.64902097 1.9360001
-0.18192255 0.6477918 1.9360002
-0.17454731 0.64656258 1.9360002
-0.16594286 0.64638698 1.936
-0.15488 0.64533335 1.936
-0.14627557 0.64410418 1.9360002
-0.12169144 0.64717716 1.9360001
-0.1132626 0.64533335 1.936
-0.10509714 0.64533335 1.936
-0.24522668 0.6545524 1.9360001
-0.2120381 0.65639621 1.9360001
-0.20281905 0.6545524 1.9360001
-0.19452192 0.65547431 1.9360001
-0.18069334 0.65639621 1.9360001
-0.17516191 0.6545524 1.9360001
-0.16594286 0.6545524 1.936
-0.15488 0.6545524 1.936
-0.14627557 0.65393782 1.9360002
-0.11062858 0.65639621 1.9360001
-0.10694095 0.6545524 1.9360001
-0.29500952 0.66653717 1.9360001
-0.28579047 0.66745907 1.9360001
-0.2374827 0.66377145 1.9360001
-0.2120381 0.66192764 1.9360001
-0.20466287 0.66377145 1.936
-0.19544384 0.66377139 1.936
-0.18511848 0.66598403 1.9360001
-0.17516191 0.66008383 1.9360001
-0.12316649 0.66450894 1.9360001
-0.11357868 0.66229641 1.9360001
-0.10509714 0.66469336 1.9360001
-0.29869714 0.67114669 1.9360001
-0.27472764 0.67852193 1.9360001
-0.24338287 0.6729905 1.9360001
-0.23646861 0.67529529 1.936
-0.22494477 0.67729276 1.9360002
-0.21203811 0.67483431 1.936
-0.20466286 0.6729905 1.9360001
-0.19544381 0.6729905 1.936
-0.18499558 0.67483431 1.936
-0.14135875 0.67483431 1.9360002
-0.1352127 0.67360514 1.9360002
-0.12537906 0.67262173 1.9360001
-0.1143162 0.67114669 1.9360002
-0.10694095 0.67114669 1.9360001
-0.094034292 0.67114669 1.9360001
-0.088502862 0.67114669 1.9360001
-0.28394666 0.68220955 1.9360001
-0.27411303 0.68343878 1.9360002
-0.24430478 0.68681908 1.9360001
-0.23785144 0.68220955 1.9360001
-0.17516191 0.68220955 1.9360001
-0.16225524 0.68589717 1.9360001
-0.15580191 0.68313146 1.9360001
-0.14750476 0.68220955 1.9360001
-0.31344762 0.69696003 1.9360001
-0.30976 0.69696003 1.9360001
-0.31344762 0.70433527 1.9360001
-0.30238476 0.70802289 1.9360001
-0.30238476 0.71539813 1.9360002
-0.29500952 0.72277337 1.9360002
-0.29685333 0.73752385 1.9360001
-0.30238476 0.74858671 1.9360001
-0.29777524 0.74397719 1.9360001
-0.28025907 0.74858671 1.9360001
-0.27411303 0.74735755 1.9360002
-0.26796702 0.74612832 1.9360002
-0.26330858 -0.10013143 1.9470001
-0.26330858 -0.096422859 1.9470001
-0.25960001 -0.092714287 1.9470001
-0.25589144 -0.089005716 1.9470001
-0.2484743 -0.077880003 1.9470001
-0.24105716 -0.05192 1.9470001
-0.21880572 -0.0037085717 1.9470001
-0.21509714 0.0037085719 1.9470001
-0.20768 0.0074171433 1.9470001
-0.26330858 0.10384 1.9470001
-0.25663316 0.114224 1.9470001
-0.25218287 0.12238286 1.9470001
0.13721715 0.25960001 1.9470001
0.14463429 0.25960001 1.9470001
0.15205143 0.25960001 1.9470001
0.066754289 0.26701716 1.9470001
0.14834286 0.26701716 1.9470001
0.15483287 0.26423573 1.9470001
-0.0037085717 0.27814287 1.9470001
0.0037085719 0.27814287 1.9470001
0.011125715 0.27814287 1.9470001
0.025960002 0.27814287 1.9470001
0.035849527 0.2769067 1.9470001
0.044502858 0.2744343 1.9470001
0.055628572 0.27072573 1.9470001
-0.025960002 0.28370571 1.9470001
-0.014834287 0.28185144 1.9470001
-0.0074171433 0.28185144 1.9470001
-0.074171431 0.29668573 1.9470001
-0.063045718 0.29297715 1.9470001
-0.055628572 0.29297715 1.9470001
-0.13721715 0.30781144 1.9470001
-0.11867429 0.30410287 1.9470001
-0.10569429 0.30781144 1.9470001
-0.092714287 0.30410287 1.9470001
-0.087151431 0.3003943 1.9470001
-0.14092572 0.31152001 1.9470001
0.089005716 0.60820574 1.9470001
0.094568573 0.60820574 1.9470001
0.10309829 0.60598063 1.9470001
0.11249334 0.60202479 1.9470001
0.089005716 0.61376858 1.9470001
0.092714287 0.61376858 1.9470001
-0.18728286 0.63602006 1.9470001
-0.17536245 0.63469559 1.9470003
-0.16503143 0.63787431 1.9470001
-0.15946858 0.63787431 1.9470001
-0.18357429 0.64343715 1.9470001
-0.17430286 0.64343721 1.9470001
-0.16441333 0.64281911 1.9470001
-0.17801143 0.65270859 1.9470001
-0.29297715 0.66754287 1.9470001
-0.28741431 0.66754287 1.9470001
-0.27258003 0.66754287 1.9470001
-0.26701716 0.66754287 1.9470001
-0.25218287 0.66568863 1.9470001
-0.24476573 0.66568863 1.9470001
-0.11496572 0.66754287 1.9470001
-0.10754857 0.66754287 1.9470001
-0.27258003 0.67310578 1.9470001
-0.26701716 0.67125148 1.9470001
-0.24723811 0.67495996 1.9470001
-0.12609144 0.67866862 1.9470001
-0.11682001 0.67125148 1.9470001
-0.27072573 0.68608576 1.9470001
-0.26701716 0.68608576 1.9470001
-0.25341904 0.68732196 1.9470001
-0.24754716 0.68515855 1.9470001
-0.18357429 0.68608576 1.9470001
-0.12980001 0.68237716 1.9470001
-0.25218287 0.6935029 1.9470001
-0.31275618 0.70586473 1.9470001
-0.32264572 0.71575433 1.9470001
-0.31399238 0.71513623 1.9470001
-0.30781144 0.71390003 1.9470001
-0.31152001 0.72317147 1.9470001
-0.30410287 0.72688001 1.9470001
-0.3003943 0.7342971 1.9470001
-0.29575858 0.73337007 1.9470001
-0.28926858 0.73058861 1.9470001
-0.30503002 0.74634999 1.9470001
-0.26106668 -0.089508578 1.9580001
-0.25547239 -0.083914287 1.9580001
-0.25360763 -0.078320004 1.9580001
-0.24987811 -0.070860952 1.9580001
-0.23868953 -0.044754289 1.9580001
-0.22750096 -0.026106667 1.9580001
-0.22750096 -0.016782857 1.9580001
-0.22004192 0.0037295239 1.9580001
-0.21631239 0.0074590477 1.9580001
-0.26293144 0.10442667 1.9580001
-0.25360763 0.11375048 1.9580001
-0.24987811 0.11188572 1.9580001
-0.27225524 0.2256362 1.9580001
0.048483811 0.26852572 1.9580001
0.057807621 0.26852572 1.9580001
0.065266669 0.26666096 1.9580001
0.075522855 0.26759332 1.9580001
0.083914287 0.26852572 1.9580001
-0.011188572 0.27971429 1.9580001
-0.0074590477 0.27971429 1.9580001
0.0037295239 0.27598476 1.9580001
0.013985716 0.27505237 1.9580001
0.026106665 0.27598476 1.9580001
0.034808889 0.27349842 1.9580001
0.044754285 0.27225524 1.9580001
0.052213334 0.27225524 1.9580001
0.089508578 0.27225524 1.9580001
0.0932381 0.27412 1.9580001
-0.014918095 0.28344381 1.9580001
-0.085779049 0.29836193 1.9580001
-0.072725713 0.29463241 1.9580001
-0.06713143 0.29463241 1.9580001
-0.054078095 0.29090285 1.9580001
-0.04661905 0.29090285 1.9580001
-0.1417219 0.30955049 1.9580001
-0.13426286 0.30675337 1.9580001
-0.12493905 0.30582097 1.9580001
-0.11486933 0.30358326 1.9579999
-0.10256191 0.30582097 1.9580001
-0.095724441 0.30333462 1.9580001
0.11748 0.60791242 1.9580001
0.12307429 0.60791242 1.9580001
0.096967623 0.61723626 1.9580001
0.10535905 0.61443907 1.9580001
0.11561524 0.61257434 1.9580001
0.12493905 0.61164194 1.9580001
0.089508578 0.62283051 1.9580001
0.0932381 0.62283051 1.9580001
-0.16409905 0.6377486 1.9580001
-0.26230985 0.6663416 1.9580001
-0.25609398 0.66509843 1.9580001
-0.26373062 0.67557663 1.9580001
-0.25584537 0.67578971 1.9579999
-0.24987811 0.67317903 1.9580001
-0.27505237 0.68343526 1.9580001
-0.26433003 0.68576622 1.9580001
-0.25547239 0.6843676 1.9580001
-0.1417219 0.68623239 1.9580001
-0.13612762 0.68623239 1.9580001
-0.12493905 0.68623239 1.9580001
-0.27225524 0.69555616 1.9580001
-0.26479623 0.69555616 1.9580001
-0.25733715 0.69555616 1.9580001
-0.18461144 0.69369143 1.9580001
-0.17901716 0.69369143 1.9580001
-0.32260382 0.70674479 1.9580001
-0.2647962 0.70115048 1.9580001
-0.25547239 0.70115048 1.9580001
-0.32260382 0.71420383 1.9580001
-0.32198223 0.72477084 1.9580001
-0.31700954 0.72539246 1.9580001
-0.30955049 0.72539246 1.9580001
-0.32073906 0.73098671 1.9580001
-0.30582097 0.73658097 1.9580001
-0.30830732 0.74590474 1.9580001
-0.27253461 -0.10251302 1.9690002
-0.26628381 -0.093761906 1.9690001
-0.26253334 -0.086260952 1.9690001
-0.25878286 -0.082510479 1.9690001
-0.25690764 -0.076884761 1.9690001
-0.24190572 -0.045005716 1.9690001
-0.23628001 -0.035629526 1.9690001
-0.22877906 -0.022502858 1.9690001
-0.22877906 -0.011251429 1.9690001
-0.22502857 -0.0075009526 1.9690001
-0.2212781 0.0075009526 1.9690001
-0.26253334 0.1031381 1.9690001
-0.25878286 0.10876381 1.9690001
-0.25128192 0.12001524 1.9690001
-0.24753144 0.12001524 1.9690001
0.046880953 0.26628381 1.9690001
0.056257144 0.26628381 1.9690001
0.060007621 0.26628381 1.9690001
0.073134288 0.26628381 1.9690001
0.084385715 0.26628381 1.9690001
-0.0056257145 0.27753526 1.9690001
0 0.27378479 1.9690001
0.026253335 0.27378479 1.9690001
0.033754285 0.27128446 1.9690002
0.04313048 0.27003428 1.9690001
0.05250667 0.27003428 1.9690001
0.091886669 0.27003428 1.9690001
-0.035629526 0.28878668 1.9690001
-0.024378097 0.28316098 1.9690001
-0.016877143 0.28128573 1.9690001
-0.090011433 0.29628763 1.9690001
-0.084385715 0.29628763 1.9690001
-0.078760006 0.29628763 1.9690001
-0.1425181 0.30753905 1.9690001
-0.10595096 0.30472618 1.9690001
-0.095637143 0.3000381 1.9690001
0.11251429 0.61882859 1.9690001
0.12376572 0.61882859 1.9690001
0.13126667 0.61882859 1.9690001
0.097512387 0.62632954 1.9690001
0.10501334 0.62445432 1.9690001
0.11626477 0.6225791 1.9690001
0.10688858 0.63758099 1.9690001
-0.14439334 0.69383812 1.9690001
-0.13689238 0.69383812 1.9690001
-0.32254097 0.73884386 1.9690001
-0.31410241 0.73790628 1.9690001
-0.32254097 0.7425943 1.9690001
-0.3142899 0.74409449 1.9690001
-0.27154288 -0.098057143 1.9800001
-0.26777145 -0.090514287 1.9800001
-0.264 -0.082971431 1.9800001
-0.26022857 -0.075428575 1.9800001
-0.25645715 -0.071657144 1.9800001
-0.24137144 -0.035828575 1.9800001
-0.23382857 -0.022628572 1.9800001
-0.23382857 -0.01697143 1.9800001
-0.23005715 -0.005657143 1.9800001
-0.22628573 -0.0037714287 1.9800001
-0.26022857 0.10371429 1.9800001
-0.25457144 0.10560001 1.9800001
-0.25268573 0.11691429 1.9800001
-0.2489143 0.11691429 1.9800001
-0.27154288 0.23005715 1.9800001
0.03394286 0.26777145 1.9800001
0.041485716 0.26777145 1.9800001
0.052800003 0.26777145 1.9800001
0.065371431 0.26525715 1.9800001
0.075428575 0.264 1.9800001
0.092399999 0.26777145 1.9800001
-0.015085715 0.27908573 1.9800001
-0.005657143 0.2753143 1.9800001
0.024514288 0.27342859 1.9800001
0.03017143 0.27154288 1.9800001
-0.03017143 0.28662857 1.9800001
-0.026400002 0.28285715 1.9800001
-0.096171431 0.29794288 1.9800001
-0.071657144 0.29417145 1.9800001
-0.064114287 0.29417145 1.9800001
-0.056571431 0.2904 1.9800001
-0.04525714 0.2904 1.9800001
-0.14331429 0.30548573 1.9800001
-0.13577144 0.30548573 1.9800001
-0.12634286 0.30548573 1.9800001
-0.10560001 0.3017143 1.9800001
0.10560001 0.62794286 1.9800001
0.11440001 0.62857145 1.9800001
0.12445714 0.62668568 1.9800001
0.13577142 0.62542862 1.9800001
0.14331429 0.62228572 1.9800001
0.1584 0.62605715 1.9800001
0.16217144 0.62417144 1.9800001
0.098057143 0.63737148 1.9800001
0.10560001 0.63642865 1.9800001
0.11565715 0.63611436 1.9800001
0.12445714 0.63586289 1.9800001
0.10685715 0.64491433 1.9800001
0.11502858 0.64302862 1.9800001
0.12351429 0.64208579 1.9800001
0.11502858 0.65245718 1.9800001
0.12068572 0.65245718 1.9800001
-0.32057145 0.73920006 1.9800001
-0.3168 0.73920006 1.9800001
-0.27318859 -0.094857149 1.9920001
-0.26939431 -0.085371435 1.9920001
-0.2656 -0.076834284 1.9920001
-0.2561143 -0.064502858 1.9920002
-0.25042287 -0.053120002 1.9920001
-0.25042287 -0.047428571 1.9920001
-0.24662858 -0.043634288 1.9920001
-0.24536383 -0.034148574 1.9920001
-0.23904 -0.030354287 1.9920001
-0.23777525 -0.025295237 1.9920001
-0.2428343 -0.015177144 1.9920001
-0.23809144 -0.014228571 1.9920001
-0.23524572 -0.0056914287 1.9920001
-0.23145144 0 1.9920001
-0.22765715 0.001897143 1.9920001
-0.22006857 0.011382857 1.9920001
-0.21627429 0.011382857 1.9920001
-0.25042287 0.10434286 1.9920001
-0.25042287 0.11382858 1.9920001
-0.24662858 0.12141715 1.9920001
-0.27318859 0.22765715 1.9920001
-0.26939431 0.22765715 1.9920001
-0.27318859 0.23524572 1.9920001
-0.21248001 0.24662858 1.9920001
-0.20868573 0.24662858 1.9920001
0.026560001 0.26939431 1.9920001
0.03794286 0.2656 1.9920001
0.046480004 0.26465142 1.9920001
0.055017143 0.2656 1.9920001
0.060708575 0.2656 1.9920001
0.085371435 0.2656 1.9920001
0.09296 0.2656 1.9920001
-0.013280001 0.27698287 1.9920001
0.0056914287 0.27698287 1.9920001
0.017074287 0.27698287 1.9920001
0.022765715 0.27318859 1.9920001
-0.27318859 0.28646857 1.9920001
-0.045531426 0.28836572 1.9920001
-0.034148574 0.28710094 1.9920001
-0.024662858 0.28077716 1.9920001
-0.10434286 0.29974857 1.9920001
-0.075885721 0.29595429 1.9920001
-0.062605716 0.29216 1.9920001
-0.053120002 0.29216 1.9920001
-0.11382858 0.30354288 1.9920001
-0.25042287 0.31872001 1.9920001
-0.23524572 0.3123962 1.9920001
-0.25345829 0.32403201 1.9920002
0.14608 0.62985146 1.9920001
0.15366858 0.62985146 1.9920001
0.16694857 0.6279543 1.9920001
0.17074287 0.6279543 1.9920001
0.098651432 0.63744003 1.9920001
0.10244572 0.63744003 1.9920001
0.11193143 0.63744003 1.9920001
0.12521143 0.63554287 1.9920001
0.13532953 0.63617522 1.9920001
0.14418285 0.63554287 1.9920002
0.15651429 0.63459432 1.9920001
0.16441905 0.63491052 1.9920001
0.17074287 0.63364571 1.9920001
0.12710857 0.6488229 1.9920001
0.13469714 0.64502859 1.9920002
0.14291809 0.64439625 1.9920002
0.11572572 0.65261716 1.9920001
0.12597029 0.65413487 1.9920002
0.13469714 0.65451431 1.9920001
