# .PCD v0.7 - Point Cloud Data file format
VERSION 0.7
FIELDS x y z
SIZE 4 4 4
TYPE F F F
COUNT 1 1 1
WIDTH 1493
HEIGHT 1
VIEWPOINT 0 0 0 1 0 0 0
POINTS 1493
DATA ascii
-0.10834667 0.65964001 1.6730001
-0.12109334 0.6692 1.6730001
-0.11472001 0.66410142 1.6730001
-0.10516001 0.66681004 1.6730001
-0.13384001 0.67796338 1.6730001
-0.12428001 0.67398 1.6730001
-0.10277002 0.67477667 1.6730001
-0.10197334 0.68513334 1.6730001
-0.097193331 0.68832004 1.6730001
0.21988001 0.73930669 1.6730001
0.22306667 0.73930669 1.6730001
0.21988001 0.74249333 1.6730001
0.22306667 0.74249333 1.6730001
-0.25455144 0.12487429 1.6810001
-0.024334477 0.255512 1.6810001
-0.017930668 0.25679278 1.6810001
-0.028817143 0.2625562 1.6810001
0.07684572 0.2625562 1.6810001
0.081648573 0.2625562 1.6810001
0.10886477 0.2657581 1.6810001
0.11366762 0.26735905 1.6810001
-0.035220955 0.27536383 1.6810001
0.12487429 0.27376288 1.6810001
0.13512038 0.2753638 1.6810001
0.1447261 0.27408308 1.6810001
0.15048952 0.27536383 1.6810001
0.1648981 0.28657049 1.6810001
-0.14408572 0.29457524 1.6810001
-0.11847048 0.29777715 1.6810001
-0.070441909 0.2961762 1.6810001
-0.064571746 0.29564252 1.6810001
-0.054432385 0.29777715 1.6810001
0.17717206 0.29670987 1.6810001
-0.11847048 0.30738288 1.6810001
-0.081648573 0.30578193 1.6810001
-0.074444294 0.30177954 1.6810001
-0.054432385 0.30418098 1.681
-0.048028573 0.30418095 1.6810001
0.17930667 0.30097905 1.6810001
-0.087251909 0.31458718 1.6810001
-0.054889802 0.31287187 1.681
-0.046961274 0.31378669 1.6810001
-0.02561524 0.31378669 1.6810001
0.1878451 0.31165209 1.6810001
0.19691715 0.31698859 1.6810001
-0.094989844 0.32339239 1.6810001
-0.089653336 0.32019049 1.6810001
-0.057634287 0.32019049 1.6810001
-0.043545909 0.32403278 1.6810001
0.051230479 0.33780098 1.6810001
-0.10726382 0.65959239 1.6810001
0.22573429 0.65318859 1.6810001
-0.12380698 0.66813082 1.6810001
-0.11526858 0.66279429 1.6810001
-0.10374172 0.6653558 1.6810001
-0.099259049 0.66599613 1.6810001
-0.1334127 0.67506832 1.6810001
-0.12727572 0.67480147 1.6810001
-0.099259049 0.67560196 1.6810001
-0.099259049 0.68520766 1.6810001
0.22626793 0.73857266 1.6810001
0.23373906 0.7364381 1.681
0.24014287 0.73964 1.6810001
0.22733524 0.74444294 1.6810001
0.23373906 0.74444294 1.6810001
0.24014287 0.74444294 1.6810001
-0.26197717 0.1132 1.6980001
-0.25505906 0.11662905 1.6950002
-0.24621792 0.1182621 1.6964
-0.23933715 0.11966857 1.6980001
-0.26197717 0.12290286 1.6980001
-0.25349563 0.12449296 1.6932001
-0.2454824 0.12536334 1.6930001
-0.23877335 0.12423048 1.694
-0.10026286 0.25874287 1.6980001
-0.032342859 0.25874287 1.6980001
-0.029108573 0.25874287 1.6980001
-0.10349715 0.26521146 1.6980001
-0.099790476 0.26718095 1.6900001
-0.032292064 0.26478985 1.6953334
-0.029108573 0.26197717 1.6980001
0.10854223 0.26330543 1.6926666
0.11675201 0.26574934 1.6932001
0.12232381 0.26718095 1.6900001
-0.10673143 0.27168 1.6980001
0.11910477 0.27040002 1.6900001
0.12664858 0.27184477 1.694
0.13359049 0.27361906 1.6900001
0.1416381 0.27361906 1.6900001
0.15524572 0.27814859 1.6980001
-0.04184762 0.2832762 1.6900001
0.1545143 0.28005716 1.6900001
0.16095239 0.2832762 1.6900001
0.17382857 0.28971431 1.6900001
-0.15261208 0.29554665 1.6926666
-0.14485714 0.29615238 1.6900001
-0.13519076 0.29484573 1.6957144
-0.12721525 0.29539809 1.6980001
-0.11966857 0.29755428 1.6980001
0.17746668 0.29200953 1.694
0.18026668 0.29454285 1.6900001
-0.15524572 0.30078858 1.6980001
-0.14594714 0.30361858 1.6980001
-0.13530096 0.30294478 1.6980001
-0.12552311 0.30440933 1.6936367
-0.073394284 0.30774099 1.6900002
-0.064380959 0.30580953 1.6900003
0.18670475 0.30688256 1.6900001
-0.19082287 0.31696001 1.6980001
-0.18370743 0.31566629 1.6980002
-0.17546 0.31615144 1.6980001
-0.13260572 0.31372571 1.6980001
-0.12651646 0.31443864 1.6968572
-0.082085714 0.31546667 1.6900002
-0.074038103 0.31546667 1.6900003
-0.064380951 0.31506431 1.6900003
-0.053114288 0.31868574 1.6900001
-0.048285715 0.31868574 1.6900001
-0.02897143 0.31868574 1.6900001
0.19314286 0.31546667 1.6900001
-0.19244002 0.32181144 1.6980001
-0.18435429 0.3201943 1.6980001
-0.17465144 0.3201943 1.6980001
-0.12452 0.3201943 1.6980001
-0.091742858 0.32673332 1.6900001
-0.083823919 0.3256385 1.6926668
-0.074195564 0.32580957 1.6935556
-0.064624764 0.32571125 1.6964
-0.05472381 0.32512382 1.6900003
-0.048285712 0.32512382 1.6900001
-0.02897143 0.32190478 1.6900001
-0.092177145 0.33313143 1.6980001
-0.084091425 0.33313143 1.6980001
-0.07277143 0.33313143 1.6980001
0.046782859 0.33880001 1.694
0.048514288 0.34283429 1.6980001
0.053114288 0.34604764 1.6900001
0.025874287 0.35738859 1.6980001
0.037194289 0.35738859 1.6980001
-0.10349715 0.64524001 1.6980001
-0.10349715 0.65656 1.6980001
-0.093740948 0.65657574 1.697
-0.085708573 0.65979433 1.6980001
0.21810123 0.65615189 1.6945715
0.22493097 0.65467381 1.6900003
0.23177144 0.6534667 1.6900001
-0.12566172 0.66761446 1.6916001
-0.11634286 0.66412258 1.6966667
-0.10469334 0.66304767 1.6964
-0.094429784 0.66513461 1.6936364
-0.087325715 0.6630286 1.6980001
0.21885334 0.66626287 1.6980001
0.22593796 0.66718704 1.6980001
0.23338096 0.66956192 1.6900001
-0.13519999 0.67439049 1.6900001
-0.12554286 0.67278099 1.6900001
-0.093641907 0.67597717 1.6953332
0.21993144 0.67596573 1.6980001
0.2264 0.67596573 1.6980001
0.2345881 0.67640239 1.6900003
0.24418858 0.67920005 1.6980001
-0.1416381 0.68243814 1.6900001
-0.13841905 0.68243814 1.6900001
-0.093692698 0.68602538 1.6962223
-0.087325715 0.68566865 1.6980001
0.22640002 0.68526429 1.6980001
0.23517333 0.68458861 1.6913334
0.24481858 0.68445379 1.694
-0.093056001 0.6934225 1.6964
-0.087325715 0.69213718 1.6980001
0.23650715 0.69537139 1.6980001
0.24557562 0.69600379 1.6964
0.23631354 0.70538586 1.6972001
0.24303812 0.70497149 1.6900002
0.235727 0.71472764 1.6953335
0.24303812 0.71462864 1.6900002
0.2296343 0.72447997 1.6980001
0.23569857 0.72488427 1.6980001
0.2448781 0.72656637 1.6953335
0.2296343 0.73418289 1.6980001
0.23664193 0.73364383 1.6980001
0.24386516 0.73482978 1.6980002
-0.25346288 0.11265016 1.706
-0.24533905 0.1153581 1.7060001
-0.25833714 0.12998095 1.7060001
0.13648 0.27296001 1.706
0.15597714 0.2778343 1.7060001
0.15922667 0.28270859 1.7060001
0.16410096 0.28595811 1.7060001
0.18522286 0.29895622 1.7060001
-0.1624762 0.30708 1.7060001
-0.15551293 0.30638367 1.7060002
-0.14297906 0.30870476 1.7060001
-0.13756318 0.3076216 1.706
0.18847239 0.30870476 1.7060001
0.19172192 0.30870476 1.7060001
-0.19334668 0.31682858 1.7060001
-0.18522286 0.31357905 1.7060001
-0.17547429 0.31357905 1.7060001
-0.15597714 0.31520382 1.706
-0.14576435 0.31427535 1.7060002
-0.13864635 0.31303748 1.706
0.19605462 0.31520382 1.706
0.20309524 0.31845334 1.7060001
-0.14297906 0.32170287 1.7060001
-0.13648 0.32170287 1.7060001
-0.12998095 0.32332763 1.7060001
0.20472001 0.32170287 1.7060001
-0.082862861 0.33632573 1.7060001
-0.077988572 0.33470097 1.7060001
0.019497143 0.33632573 1.7060001
0.023829842 0.33578417 1.706
0.019497143 0.34120002 1.7060001
0.046576511 0.34661588 1.706
0.025996191 0.35744762 1.7060001
0.035744764 0.35528126 1.706
0.044410158 0.3541981 1.706
-0.14622858 0.36232191 1.7060001
0.025996191 0.36069715 1.7060001
0.032495238 0.36069715 1.7060001
-0.19659621 0.38181907 1.7060001
-0.13648 0.3850686 1.7060001
-0.10398477 0.63690668 1.7060001
-0.10398477 0.64611369 1.7060002
-0.095048577 0.64909244 1.7060001
-0.10398477 0.65315431 1.706
-0.094236195 0.65396667 1.7060001
-0.08611238 0.65965337 1.7060001
0.21609335 0.65640384 1.7060001
0.22421713 0.65315431 1.706
-0.12239873 0.66615242 1.706
-0.1153581 0.66290289 1.7060001
-0.08611238 0.66777718 1.7060001
0.21555175 0.66615242 1.706
-0.08643733 0.67655092 1.7060001
0.21771811 0.675901 1.706
-0.08611238 0.68240005 1.7060001
0.21771811 0.68402481 1.7060001
0.22096762 0.68727434 1.7060001
0.22502953 0.69377339 1.7060001
0.23179936 0.69756442 1.706
0.24371429 0.69864762 1.7060001
0.22584191 0.7083962 1.7060001
0.23071618 0.70514661 1.706
0.23071618 0.71489525 1.706
0.22665429 0.72383147 1.7060001
0.2307162 0.7213943 1.7060001
0.22746667 0.73276764 1.7060001
0.23396572 0.7343924 1.7060001
0.23559049 0.74089146 1.7060001
-0.25316668 0.10780001 1.715
-0.24826668 0.10780001 1.715
-0.26133335 0.11106667 1.715
-0.25480002 0.11106667 1.715
-0.245 0.11433333 1.715
-0.23683333 0.12086667 1.715
-0.26460001 0.13066667 1.715
0.14536667 0.2744 1.715
0.1568 0.27766669 1.715
0.16006668 0.27766669 1.715
0.1666 0.28501666 1.715
0.16986667 0.29073334 1.715
0.17476667 0.29073334 1.715
0.18620001 0.29726669 1.715
-0.1666 0.30706668 1.715
0.18865 0.30380002 1.715
0.19273335 0.30706668 1.715
-0.20253333 0.31686667 1.715
-0.19600002 0.31577778 1.715
-0.18620001 0.31196669 1.715
-0.17640001 0.31142223 1.715
-0.16496667 0.314825 1.715
-0.15353334 0.31523335 1.715
-0.1372 0.31686667 1.715
0.19817777 0.31359997 1.715
0.20580001 0.31523335 1.715
-0.20253333 0.32013336 1.715
-0.19926667 0.32176667 1.715
-0.17640001 0.32666668 1.715
-0.16514814 0.32231113 1.715
-0.15323637 0.32547882 1.715
-0.14242668 0.32470667 1.7149999
-0.1361111 0.32612225 1.715
0.20906667 0.32013336 1.715
-0.15516667 0.33320001 1.715
-0.086566672 0.33973333 1.715
0.027766667 0.33973333 1.715
0.035933334 0.33973333 1.715
0.0196 0.34626669 1.715
0.025199998 0.34673333 1.715
0.035933334 0.34626669 1.715
0.042466667 0.34626666 1.715
-0.18456668 0.35933334 1.715
0.02695 0.35525003 1.715
0.035116665 0.35361668 1.715
0.044644445 0.3538889 1.715
-0.16006668 0.36586669 1.715
-0.15353334 0.36750001 1.715
-0.14482222 0.36804447 1.715
-0.20416668 0.37729999 1.715
-0.19599999 0.37729999 1.715
-0.18783334 0.37893334 1.715
-0.15026668 0.37403333 1.715
-0.14569333 0.37501332 1.7149999
-0.20253333 0.3822 1.715
-0.19273335 0.38383335 1.715
-0.18620001 0.38383332 1.715
-0.14128335 0.38628337 1.715
-0.13328001 0.38612002 1.7149999
-0.12740001 0.38710004 1.715
-0.14210001 0.39200002 1.715
-0.10126667 0.6451667 1.715
-0.096366674 0.64680004 1.715
-0.093100004 0.65006667 1.715
-0.086566672 0.65496671 1.715
0.20906667 0.65823334 1.715
0.21396667 0.6566 1.715
0.20580001 0.66640007 1.715
0.21233334 0.66640002 1.715
-0.084933333 0.67456669 1.715
0.20710666 0.67489338 1.7149999
0.21396667 0.67619997 1.715
0.20906667 0.68273336 1.715
0.21429333 0.68534672 1.7149999
0.18293335 0.69253337 1.715
0.19763334 0.69743335 1.715
0.20580001 0.69580001 1.715
0.21723334 0.69580001 1.715
0.22213334 0.6990667 1.715
0.21805 0.70478332 1.715
0.22540003 0.70560002 1.715
0.21886668 0.71213335 1.715
0.22493334 0.71633339 1.715
0.22703335 0.72193336 1.715
-0.26747525 0.09845715 1.723
-0.24942477 0.096816197 1.723
-0.2658343 0.10502096 1.7229999
-0.25533217 0.10436457 1.7229999
-0.24668984 0.10502096 1.7229999
-0.24395494 0.11267873 1.723
-0.2384851 0.1170546 1.723
-0.23301524 0.12143048 1.723
-0.2658343 0.13619906 1.723
-0.23629715 0.14276287 1.723
-0.22973335 0.14112191 1.723
-0.036100954 0.26911619 1.723
0.15753144 0.26911619 1.723
-0.11158477 0.27896193 1.723
-0.10830286 0.27896193 1.723
-0.036100954 0.27239811 1.723
0.12799428 0.27239811 1.723
0.13784 0.27239811 1.723
0.14440382 0.27239811 1.723
0.15424953 0.27403906 1.7229999
0.16327477 0.27650049 1.723
-0.10830286 0.28224382 1.723
0.16737714 0.28224382 1.723
0.1755819 0.28880763 1.723
0.18378668 0.29427746 1.723
0.19035049 0.29865333 1.723
-0.25380063 0.30302921 1.723
-0.24723683 0.30631113 1.7229999
-0.23793811 0.30849907 1.723
-0.18542764 0.30849907 1.723
-0.16081335 0.3035762 1.723
0.19472635 0.30521718 1.723
-0.2450489 0.3139689 1.7229999
-0.23629715 0.31465262 1.7229998
-0.22973335 0.31506285 1.723
-0.21473035 0.3164694 1.7229998
-0.20413449 0.31506285 1.7229999
-0.19363238 0.31287491 1.723
-0.17230001 0.31178096 1.723
-0.16737714 0.31506288 1.723
0.2034781 0.31178096 1.723
-0.21168286 0.32326764 1.723
-0.20544724 0.32556495 1.7229999
-0.19035049 0.32819048 1.723
-0.18378668 0.32819048 1.723
-0.17230001 0.32819048 1.723
-0.16245429 0.32819048 1.723
-0.14768572 0.32654953 1.723
-0.19035049 0.33311334 1.723
-0.18378668 0.33311334 1.723
-0.17353073 0.33434406 1.7229998
-0.16409524 0.33475429 1.7229998
-0.063997142 0.33803621 1.723
-0.059074286 0.33803621 1.723
-0.1657362 0.3413181 1.723
-0.085329525 0.34460005 1.723
-0.077124767 0.3413181 1.723
-0.063997142 0.3413181 1.723
-0.059074286 0.3413181 1.723
0.029537143 0.34624097 1.723
-0.23301524 0.35772765 1.723
-0.19316354 0.35538343 1.7229998
-0.18542762 0.35444573 1.7229999
0.024614286 0.35444573 1.723
-0.23465618 0.36265051 1.723
-0.22316954 0.36265048 1.723
-0.20019619 0.36429143 1.723
-0.19363241 0.36429146 1.7229998
-0.18378668 0.36593238 1.7229999
-0.17722286 0.3659324 1.723
-0.15424953 0.36757335 1.723
-0.14243469 0.36363509 1.7229999
-0.13784 0.36757335 1.723
-0.21332383 0.37468413 1.7229999
-0.20265763 0.37331668 1.723
-0.19316354 0.37319946 1.7229998
-0.18472436 0.37460604 1.7229998
-0.16081335 0.37413716 1.723
-0.15556231 0.37479353 1.7229999
-0.14112191 0.37413716 1.723
-0.13587086 0.37544993 1.7229999
-0.18132524 0.38316241 1.723
-0.17394096 0.38398287 1.7229998
-0.1636264 0.3839829 1.7229998
-0.15424952 0.38398287 1.7229998
-0.14495079 0.38398287 1.7229999
-0.13390172 0.38201374 1.7229999
-0.124056 0.38529563 1.7229999
-0.17394096 0.39054668 1.723
-0.16409524 0.39054668 1.723
-0.15424953 0.39054668 1.723
-0.14768572 0.39054668 1.723
-0.095722228 0.63668954 1.7229999
-0.087517463 0.63887745 1.723
-0.10173905 0.64325339 1.723
-0.094706401 0.64559758 1.7229998
-0.085329525 0.64653522 1.7229998
-0.07876572 0.64981717 1.723
0.1969143 0.64817619 1.723
0.20394693 0.64747298 1.7229998
0.21201105 0.64784801 1.7229999
-0.082047619 0.65638095 1.723
-0.07876572 0.65473998 1.723
0.2034781 0.65638101 1.7229998
0.21250334 0.65391952 1.723
-0.12471239 0.66950858 1.723
-0.082047619 0.66622669 1.723
0.18706858 0.66950858 1.723
0.19363241 0.6678676 1.7229999
0.20216534 0.66491395 1.7229999
-0.082047619 0.67607242 1.723
-0.07876572 0.67279053 1.723
0.19472636 0.67497844 1.7229999
0.20216534 0.67738515 1.7229999
0.19609383 0.68673861 1.723
0.2034781 0.68591809 1.7229998
0.21004191 0.68920004 1.723
0.17722286 0.69576383 1.723
0.18214571 0.69412291 1.723
0.19417937 0.69576383 1.7229999
0.20347811 0.69482619 1.7229998
0.21168286 0.69576383 1.7229999
0.20511904 0.70232767 1.723
0.21266744 0.70495319 1.7229999
-0.32550606 -0.13416128 1.732
-0.30021334 -0.054434288 1.7320001
-0.29361525 -0.054434292 1.7320001
-0.29295546 -0.047506288 1.7320001
-0.28701717 -0.042887621 1.7320001
-0.28701717 -0.039588574 1.7320001
-0.27382097 -0.014845715 1.7320001
-0.27464572 -0.007422857 1.7320001
-0.28173867 0.0072579049 1.7320001
-0.27629524 0.0057733338 1.7320001
-0.28239849 0.01583543 1.7320001
-0.27602032 0.015395557 1.732
-0.26392382 0.02969143 1.7320001
-0.27052191 0.037939049 1.7320001
-0.26392382 0.036289528 1.7320002
-0.25732571 0.036289524 1.732
-0.26392382 0.046186671 1.7320002
-0.25732571 0.044537142 1.7320001
-0.27382097 0.07422857 1.7320001
-0.25732571 0.079177149 1.7320001
-0.27052191 0.085775249 1.732
-0.26144952 0.086599998 1.7320001
-0.25496927 0.086246543 1.7320002
-0.24412954 0.089074291 1.732
-0.27052191 0.094022855 1.7320001
-0.26345253 0.09520109 1.7320002
-0.25496927 0.09520109 1.7320002
-0.24412952 0.095672376 1.7320002
-0.2622743 0.10392001 1.7320001
-0.24215011 0.1049097 1.7320001
-0.23753144 0.10886858 1.7320001
-0.24083048 0.11216763 1.7320001
-0.23643176 0.11546668 1.732
-0.27052191 0.13691048 1.7320001
-0.2622743 0.13691048 1.7320001
-0.24577907 0.13856001 1.7320001
-0.26557335 0.14185905 1.7320001
-0.25072762 0.14350858 1.7320001
-0.24412952 0.14468682 1.7320002
-0.2348922 0.14713754 1.7320001
-0.24165525 0.15588 1.7320001
-0.23470367 0.15411267 1.7320002
-0.24330477 0.1624781 1.7320001
-0.2342324 0.1649524 1.7320001
-0.24193017 0.17704891 1.732
-0.23328981 0.17532082 1.7320002
-0.2276343 0.17649905 1.7320001
-0.24330477 0.18639621 1.7320001
-0.23328981 0.18427539 1.7320002
-0.2276343 0.18144763 1.7320001
-0.2342324 0.1929943 1.7320001
-0.24412954 0.20784001 1.732
-0.25182733 0.21663748 1.732
-0.24522923 0.2144381 1.732
-0.26062477 0.2276343 1.7320001
-0.25402665 0.22433524 1.7320001
-0.26062477 0.23753144 1.7320001
-0.25402668 0.23753144 1.7320001
-0.26062477 0.24083048 1.7320001
-0.25732571 0.24083048 1.7320001
-0.26062477 0.25732571 1.7320001
-0.25402668 0.25567618 1.7320002
-0.26392379 0.26392382 1.7320002
-0.25567618 0.26392385 1.7320002
-0.27052191 0.2754705 1.7320001
-0.26392385 0.273821 1.7320002
-0.25732571 0.27382097 1.732
0.097321913 0.27382097 1.7320001
0.10392 0.27052191 1.7320001
0.13361144 0.27382097 1.7320001
0.14845715 0.27052191 1.7320001
0.16660191 0.27712002 1.7320001
0.17155048 0.27712002 1.7320001
-0.25732571 0.28701717 1.7320001
0.17237526 0.28454286 1.7320001
-0.25512636 0.29471496 1.7320002
-0.24742858 0.29691431 1.7320001
0.18309715 0.29196572 1.7320001
-0.25485143 0.30186287 1.7320001
-0.24412952 0.30406225 1.7320002
-0.23753144 0.30516192 1.7320001
-0.16495238 0.30681145 1.7320001
0.19794287 0.30516192 1.7320001
0.20124191 0.30681145 1.7320001
-0.27382097 0.31670859 1.7320001
-0.25496927 0.31388083 1.7320002
-0.23258287 0.31011048 1.7320001
-0.22480655 0.31340957 1.7320002
-0.2144381 0.31176001 1.7320002
-0.20454097 0.3114301 1.7320001
-0.19546857 0.31093526 1.7320001
-0.18144763 0.31011048 1.7320001
-0.17155048 0.31011048 1.7320001
0.20289144 0.31011048 1.7320001
0.21333842 0.31450924 1.732
-0.27052191 0.32165715 1.7320001
-0.26612321 0.3211073 1.732
-0.25072762 0.32000762 1.7320001
-0.24412954 0.322207 1.732
-0.2342324 0.32165715 1.7320001
-0.22433524 0.32330665 1.7320002
-0.21575773 0.32594591 1.7320001
-0.21278858 0.33320382 1.7320001
-0.19464381 0.33815241 1.7320001
-0.18474667 0.33697414 1.7320002
-0.17814858 0.33980191 1.7320001
-0.14680763 0.33485335 1.7320001
-0.069280006 0.33980191 1.7320001
-0.27052191 0.34475049 1.7320001
-0.18672611 0.34705982 1.7320001
-0.17484953 0.34475052 1.7320002
-0.094022855 0.34475052 1.7320001
-0.069280006 0.34310097 1.7320001
-0.24083048 0.35959619 1.7320001
-0.23423238 0.35684702 1.7320002
-0.22433525 0.35877144 1.7320001
-0.20256153 0.35695699 1.7320001
-0.19629334 0.35299811 1.7320001
-0.13196191 0.35959619 1.7320001
-0.12646349 0.35849652 1.732
-0.24083048 0.36289525 1.7320001
-0.23093334 0.36454478 1.7320001
-0.22433525 0.36454478 1.7320001
-0.21773715 0.36619428 1.732
-0.20454097 0.3668541 1.7320001
-0.17320001 0.36949334 1.7320001
-0.16660191 0.36949334 1.7320001
-0.1330616 0.36839366 1.732
-0.12618858 0.36701906 1.7320001
-0.11766604 0.36729398 1.732
-0.21278858 0.37279239 1.7320001
-0.20619048 0.37279239 1.7320001
-0.18144763 0.37444192 1.7320001
-0.17526191 0.37650383 1.7320002
-0.16660191 0.37609145 1.7320002
-0.13361144 0.37444192 1.7320001
-0.12668343 0.37741107 1.7320001
-0.1171162 0.37939048 1.7320001
-0.16660191 0.38598859 1.7320001
-0.12701333 0.38268954 1.7320001
-0.092373334 0.63671619 1.7320001
-0.085775234 0.63671619 1.732
-0.073678732 0.63561654 1.732
-0.10227048 0.64166474 1.7320001
-0.095672384 0.64166474 1.7320001
-0.083575875 0.64111489 1.732
-0.075878091 0.6449638 1.7320002
0.19464381 0.64991242 1.7320001
-0.074558474 0.65585071 1.7320001
0.18804573 0.65980953 1.7320001
0.19423144 0.65692288 1.7320002
-0.078352384 0.6655829 1.7320001
0.18672611 0.66706741 1.7320001
0.19464381 0.66475809 1.7320002
-0.082476191 0.67960382 1.7320001
-0.079177149 0.67300576 1.7320001
0.1863962 0.67630482 1.7320001
0.19134477 0.67960382 1.7320001
0.1929943 0.68620199 1.7320002
0.18474668 0.69411963 1.7320001
0.19134478 0.6960991 1.732
-0.33161905 -0.1425962 1.7410001
-0.32830286 -0.1425962 1.7410001
-0.334272 -0.13397411 1.7409999
-0.32432348 -0.13596383 1.7409999
-0.31586716 -0.13513476 1.7410001
-0.33161905 -0.12933144 1.7410001
-0.3249867 -0.12933144 1.7410001
-0.29182476 -0.07295619 1.7410001
-0.29514095 -0.066323809 1.7410001
-0.28685051 -0.063007623 1.7410001
-0.29514098 -0.057701714 1.7409999
-0.2851924 -0.056375239 1.7410001
-0.29182476 -0.046426669 1.7410001
-0.28386593 -0.046426669 1.7409999
-0.27745461 -0.044215873 1.7410001
-0.29431191 -0.037307143 1.7410001
-0.2851924 -0.038136192 1.7410001
-0.27856001 -0.036478098 1.7410001
-0.28187621 -0.023213334 1.7410001
-0.27773097 -0.025700478 1.7410001
-0.27524382 -0.017054696 1.7410001
-0.28187621 -0.0066323816 1.7410001
-0.27458057 -0.005969143 1.7409999
-0.28408697 0.0011053969 1.7410001
-0.27429631 0.003789932 1.7410001
-0.2732541 0.016580954 1.7409999
-0.26612428 0.019068096 1.7410001
-0.27192762 0.026529526 1.7410001
-0.26529527 0.025582042 1.7410001
-0.25755748 0.028740317 1.7410001
-0.27441478 0.035649046 1.7410001
-0.25534669 0.036478095 1.7410001
-0.27275667 0.047255717 1.7410001
-0.2570048 0.046426669 1.7410001
-0.27358574 0.053059049 1.7410001
-0.26529524 0.053059053 1.7410001
-0.25866288 0.053059049 1.7410001
-0.27856001 0.06466572 1.7410001
-0.26363713 0.07793048 1.7410001
-0.25534669 0.076272383 1.7410001
-0.2470562 0.07793048 1.7410001
-0.26728496 0.085557714 1.7409999
-0.25203049 0.08456286 1.7410001
-0.24606135 0.084894478 1.7409999
-0.26529524 0.096169524 1.7410001
-0.23793668 0.096169531 1.7410001
-0.23677602 0.10545486 1.7409999
-0.23434414 0.11606666 1.7410001
-0.23213334 0.12269905 1.7410001
-0.25451764 0.13845097 1.7410001
-0.27192762 0.14591239 1.7410001
-0.2648215 0.14685988 1.7410001
-0.25629416 0.14638613 1.7410001
-0.2487143 0.14922857 1.7410001
-0.27192762 0.15254477 1.7410001
-0.26529524 0.15254477 1.7410001
-0.254794 0.15641366 1.7410001
-0.24738784 0.15519771 1.7409999
-0.26529524 0.16249333 1.7410001
-0.25534669 0.16249333 1.7410001
-0.2453981 0.16746762 1.7410001
-0.23213334 0.16415143 1.7410001
-0.22881715 0.16580953 1.7410001
-0.27192762 0.17907429 1.7410001
-0.26363713 0.17907429 1.7410001
-0.25582042 0.1767056 1.7410001
-0.2453981 0.17575811 1.7410001
-0.23876572 0.17575811 1.7410001
-0.22633 0.17492905 1.7410001
-0.26529524 0.18239048 1.7410001
-0.25368857 0.18487762 1.7410001
-0.24606133 0.1843802 1.7409999
-0.23876572 0.18736477 1.7410001
-0.22715905 0.18570668 1.7410001
-0.25203049 0.19399714 1.7410001
-0.2453981 0.19565523 1.7410001
-0.23544954 0.19612898 1.7410001
-0.22881715 0.19565524 1.7410001
-0.25203049 0.20726192 1.7410001
-0.2453981 0.20394574 1.7410001
-0.23710763 0.20228763 1.7410001
-0.25203049 0.2122362 1.7410001
-0.24622715 0.21472335 1.7410001
-0.26363713 0.22715905 1.7410001
-0.25534669 0.22550096 1.7410001
-0.2487143 0.22218478 1.7410001
-0.26363713 0.23544954 1.7410001
-0.25582045 0.2349758 1.7410001
-0.2487143 0.23876572 1.7410001
-0.26308444 0.2453981 1.7410001
-0.25493217 0.24581262 1.7410001
-0.2487143 0.2487143 1.7410001
-0.26463199 0.25600991 1.7409999
-0.25534669 0.25203049 1.7410001
-0.24871428 0.25534669 1.7410001
-0.27192762 0.26529524 1.7410001
-0.25203049 0.26529524 1.7410001
-0.24871428 0.26529524 1.7410001
0.087879047 0.26861143 1.7410001
0.099485718 0.26861143 1.7410001
0.10280191 0.26861143 1.7410001
-0.27524382 0.27192762 1.7410001
-0.25402018 0.27524382 1.7409999
-0.2487143 0.27192762 1.7410001
0.089537144 0.27358574 1.7410001
0.095340483 0.2727567 1.7410001
0.13596381 0.27192762 1.7410001
0.1442543 0.27192762 1.7410001
0.15586096 0.27192762 1.7410001
-0.26418984 0.284087 1.7410001
-0.25667316 0.28452915 1.7409999
0.17741621 0.2851924 1.7410001
0.18239048 0.28850859 1.7410001
-0.25313589 0.29293016 1.7410001
-0.2470562 0.29679906 1.7410001
0.18736477 0.29348284 1.7410001
0.19344445 0.29735175 1.7410001
-0.29182476 0.30674762 1.7410001
-0.28685051 0.30508953 1.7410001
-0.27524382 0.30840573 1.7410001
-0.26197904 0.30674762 1.7410001
-0.24374001 0.30177334 1.7410001
-0.23323874 0.30730033 1.7410001
-0.22633001 0.30757669 1.7410001
-0.18736477 0.30840573 1.7410001
0.19565524 0.30177334 1.7410001
0.20394573 0.30674762 1.7410001
-0.2851924 0.31172192 1.7410001
-0.27358574 0.31503811 1.7410001
-0.26529524 0.31835431 1.7410001
-0.22550096 0.31172192 1.7410001
-0.17741621 0.31172192 1.7410001
0.20892 0.31172192 1.7410001
-0.27192762 0.32830286 1.7410001
-0.26197904 0.32332858 1.7410001
-0.25755748 0.32277587 1.7410001
-0.2453981 0.32830286 1.7410001
-0.23544954 0.32609209 1.7410001
-0.22881715 0.32830286 1.7410001
-0.22384286 0.33161905 1.7410001
-0.21886858 0.33161905 1.7410001
-0.19366553 0.34554705 1.7409999
-0.18349588 0.34598923 1.7410001
-0.10446 0.34820002 1.7410001
-0.099485718 0.34820002 1.7410001
-0.066323809 0.34820002 1.7410001
-0.26861143 0.3531743 1.7410001
-0.24208191 0.35814857 1.7410001
-0.23544952 0.35483238 1.7410001
-0.22550097 0.35814857 1.7410001
-0.21886858 0.35814857 1.7410001
-0.20228763 0.35151622 1.7410001
-0.19565524 0.35151622 1.7410001
-0.12435715 0.35483238 1.7410001
-0.2166578 0.36478099 1.7410001
-0.20892 0.36643904 1.7410001
-0.13762191 0.36809716 1.7410001
-0.1251862 0.36395192 1.7410001
-0.11606666 0.36422825 1.7410001
-0.1083289 0.36699176 1.7410001
-0.21389429 0.37141335 1.7410001
-0.17244191 0.37472954 1.7410001
-0.12435716 0.37472954 1.7410001
-0.11565214 0.37514406 1.7410001
-0.1083289 0.37583494 1.7410001
-0.12269905 0.3846781 1.7410001
-0.11606667 0.38467813 1.7409999
-0.1061181 0.38219097 1.7410001
-0.11938286 0.39131048 1.7410001
-0.086220957 0.63670862 1.7410001
-0.076272383 0.63560319 1.7410001
-0.069640003 0.63670862 1.7410001
0.16746762 0.63505048 1.7410001
0.17244191 0.63670862 1.7410001
-0.079588577 0.64002478 1.7410001
-0.069640003 0.64444637 1.7410001
0.16912572 0.64002478 1.7410001
0.17907429 0.64499909 1.7410001
0.18239048 0.643341 1.7410001
0.19565524 0.64997333 1.7410001
-0.069640003 0.65494764 1.7410001
0.16580953 0.65328956 1.7410001
0.17670558 0.65613204 1.7410001
0.18570668 0.65660578 1.7410001
0.19233905 0.65328956 1.7410001
-0.074614286 0.66655433 1.7410001
0.17741621 0.66655427 1.7410001
0.18371695 0.66589105 1.7409999
-0.076272383 0.67650288 1.7410001
0.17741621 0.6748448 1.7410001
0.1823905 0.67650288 1.7410001
-0.078483179 0.68534607 1.7410001
0.18529215 0.68686593 1.7410001
0.18570668 0.69308382 1.7410001
0.18902287 0.70303243 1.7410001
-0.33500001 -0.14 1.7500001
-0.34434476 -0.13324164 1.7551429
-0.33666667 -0.13000001 1.7500001
-0.32000002 -0.13000001 1.7500001
-0.31467906 -0.13223238 1.7575001
-0.30456096 -0.13100478 1.7522502
-0.29666668 -0.13000001 1.7500001
-0.34509906 -0.1273181 1.7590001
-0.33428574 -0.12368001 1.755
-0.32458144 -0.12406286 1.7545
-0.31271115 -0.12508444 1.7590002
-0.30472004 -0.12389525 1.7579999
-0.29651713 -0.12396762 1.7589999
-0.33462885 -0.11433502 1.7589999
-0.3249962 -0.1139162 1.7589999
-0.31452596 -0.11349739 1.7589999
-0.30437332 -0.11372762 1.756
-0.29626286 -0.11382192 1.7575001
-0.32387939 -0.1049816 1.7589999
-0.31387618 -0.10351048 1.753
-0.30333331 -0.10333334 1.7500001
-0.2949298 -0.10308491 1.7538573
-0.31166667 -0.095000006 1.7500001
-0.30333331 -0.093333334 1.7500001
-0.29383048 -0.093493342 1.753
-0.28680077 -0.09314324 1.7590001
-0.30348793 -0.084113203 1.7564286
-0.29400003 -0.083523817 1.7540001
-0.28446478 -0.083666675 1.757
-0.30154288 -0.077060953 1.7590001
-0.29302636 -0.074510157 1.7515001
-0.28349334 -0.07337714 1.751
-0.27808952 -0.073710479 1.7590002
-0.29000002 -0.06666667 1.7500001
-0.28222224 -0.064444445 1.7500001
-0.27808952 -0.06365905 1.7590002
-0.28166667 -0.052500002 1.7500001
-0.27714095 -0.053430479 1.7530001
-0.29333335 -0.045000002 1.7500001
-0.28666669 -0.046666667 1.7500001
-0.27482316 -0.042923495 1.756
-0.292 -0.032666665 1.7500002
-0.28466669 -0.032666668 1.7500002
-0.27426475 -0.03344762 1.756
-0.2931667 -0.025128571 1.7590001
-0.28533334 -0.023333335 1.7500002
-0.2731508 -0.024527304 1.756
-0.26803809 -0.023453334 1.7590001
-0.28562823 -0.014013715 1.7518002
-0.27046287 -0.013361906 1.7530001
-0.26803809 -0.011726667 1.7590001
-0.28814095 -0.0050257146 1.7590001
-0.27000001 -0.0049999999 1.7500001
-0.26803809 -0.0050257146 1.7590001
-0.27000001 0.0033333332 1.7500001
-0.26720047 0.0041880952 1.7590001
-0.27111113 0.011111111 1.7500001
-0.26459861 0.013788572 1.755625
-0.2546362 0.016752381 1.7590002
-0.28166667 0.023333333 1.7500001
-0.27666667 0.025 1.7500001
-0.26000002 0.021666668 1.7500001
-0.25502774 0.022923265 1.7551429
-0.2819162 0.032731809 1.7536001
-0.27666667 0.030000001 1.7500001
-0.25314716 0.034252383 1.7545
-0.28144002 0.043556191 1.7590001
-0.27666667 0.045000002 1.7500001
-0.25293198 0.043905031 1.7538573
-0.28048 0.05341905 1.7530001
-0.2742762 0.056860954 1.7560002
-0.26333335 0.056666669 1.7500001
-0.25434288 0.053548574 1.757
-0.24793525 0.055282861 1.7590001
-0.28144002 0.060308572 1.7590001
-0.27473906 0.063659042 1.7589999
-0.26333335 0.063333333 1.7500001
-0.25405332 0.06351047 1.755
-0.24659507 0.06432914 1.7590001
-0.27378178 0.073231831 1.7589999
-0.264 0.071333334 1.7500002
-0.25444445 0.071111113 1.7500001
-0.24522816 0.073088676 1.753
-0.27236953 0.080205724 1.7545002
-0.24207392 0.082923815 1.7554001
-0.23788382 0.087112382 1.7590001
-0.24000001 0.090000004 1.7500001
-0.23506667 0.093693331 1.7567501
-0.23288789 0.10308491 1.7538573
-0.23193552 0.11453552 1.7538573
-0.23059143 0.12532571 1.7545002
-0.22783239 0.12061714 1.7590001
-0.26000002 0.13666667 1.7500001
-0.25666669 0.13666667 1.7500001
-0.23333335 0.14666668 1.7500001
-0.27000001 0.15666667 1.7500001
-0.26333335 0.15666667 1.7500001
-0.25666669 0.155 1.7500001
-0.23118286 0.15412191 1.7590002
-0.22448191 0.15579714 1.7590001
-0.27000001 0.16333334 1.7500001
-0.26411748 0.16403176 1.7515001
-0.255 0.16666667 1.7500001
-0.24333334 0.16666667 1.7500001
-0.23453332 0.16082287 1.7590002
-0.22390334 0.16416787 1.7545
-0.21778096 0.16417333 1.7590001
-0.27161106 0.17417488 1.7518002
-0.26357082 0.17199111 1.7590002
-0.25530627 0.17221448 1.7590001
-0.2442762 0.17233095 1.7567501
-0.22286586 0.17323919 1.7538573
-0.21778096 0.17590001 1.7590001
-0.27228457 0.18485866 1.7518002
-0.26333335 0.18583333 1.7500001
-0.25666669 0.185 1.7500001
-0.2222324 0.18380475 1.7545
-0.28144002 0.19265239 1.7590001
-0.27312115 0.1934621 1.7572
-0.26401046 0.19216383 1.7545
-0.25666669 0.19166668 1.7500001
-0.22396572 0.19388764 1.755
-0.25488445 0.20368762 1.7530001
-0.24123429 0.20772953 1.7590001
-0.23453334 0.2060543 1.7590001
-0.22557428 0.20051429 1.7545002
-0.26184049 0.21498953 1.7567501
-0.25710666 0.21369906 1.7530001
-0.24207191 0.21526811 1.7590001
-0.23788382 0.2144305 1.7590002
-0.28144002 0.22783239 1.7590001
-0.27390146 0.22699477 1.7590001
-0.2651273 0.22279082 1.7545
-0.24660414 0.22540444 1.7575001
-0.23788382 0.22113144 1.7590001
-0.30154288 0.23788382 1.7590001
-0.2843717 0.23495214 1.7589999
-0.27427617 0.23413332 1.756
-0.26666668 0.23333335 1.7500001
-0.25196826 0.23636128 1.7560002
-0.2476138 0.23256238 1.7567501
-0.30154288 0.24123429 1.7590001
-0.29149145 0.24123429 1.7590001
-0.28367367 0.24346794 1.7589999
-0.27427617 0.24416763 1.756
-0.26666668 0.24666667 1.7500001
-0.25128573 0.24458477 1.7590001
-0.24862349 0.24527873 1.7560002
-0.30154288 0.25631142 1.7590001
-0.29651713 0.2546362 1.7590001
-0.28144002 0.25798666 1.7590001
-0.27427617 0.25420192 1.756
-0.26666668 0.25166667 1.7500001
-0.24626 0.2546362 1.7589999
-0.29484192 0.26803809 1.7590002
-0.28343368 0.26557589 1.7575001
-0.27583334 0.26250002 1.7500001
-0.24659505 0.26468763 1.7590001
0.083333343 0.26666668 1.7500001
0.093999997 0.26533335 1.7500002
0.10145968 0.26646414 1.7560002
-0.30154288 0.27473906 1.7590002
-0.29484192 0.27473906 1.7589999
-0.28448501 0.27403405 1.7545
-0.27666667 0.27333334 1.7500001
-0.25333333 0.27666667 1.7500001
-0.24679431 0.27501443 1.7577143
0.094999999 0.27000001 1.7500001
0.10666667 0.27000001 1.7500001
0.11000001 0.27000001 1.7500001
0.12666667 0.27333334 1.7500001
0.13346705 0.27161106 1.7518002
0.14333335 0.27000001 1.7500001
0.15205239 0.27236098 1.7545002
0.16666667 0.27666667 1.7500001
0.1708743 0.27808952 1.7590001
-0.29484192 0.28479052 1.7589999
-0.28414857 0.28414476 1.755
-0.27444443 0.28444445 1.7500001
-0.25333333 0.28500003 1.7500001
-0.24625091 0.28456676 1.7557273
0.17666668 0.28 1.7500001
0.1832324 0.28487429 1.7554001
0.19097716 0.28814095 1.7590001
-0.30154288 0.2931667 1.7590001
-0.29400763 0.29400384 1.7540001
-0.28430668 0.29433909 1.756
-0.27395618 0.29400957 1.7540001
-0.26560763 0.29430515 1.7518002
-0.25333333 0.29000002 1.7500001
-0.24522495 0.29385006 1.7549092
-0.23501197 0.2957992 1.7589999
0.18666667 0.29000002 1.7500001
0.19299285 0.29408336 1.7545002
-0.2938419 0.30218381 1.7530001
-0.28346094 0.30349949 1.7533751
-0.27411234 0.30419621 1.755
-0.26560763 0.30297866 1.7518002
-0.24111111 0.30111113 1.7500001
-0.23415239 0.30282179 1.7525715
-0.22446834 0.30517468 1.7551429
-0.21778096 0.30824381 1.7590001
0.20403336 0.30381492 1.756
0.21108001 0.30824381 1.7590001
-0.29000002 0.31166667 1.7500001
-0.28291667 0.3133333 1.7500001
-0.27133334 0.31266668 1.7500002
-0.26533335 0.31400001 1.7500002
-0.22000001 0.31 1.7500001
-0.21405905 0.31106287 1.756
-0.18212953 0.31079715 1.7545002
-0.17422478 0.31159431 1.7590002
0.21221524 0.3124724 1.7545002
0.22113144 0.31829524 1.7590001
-0.28238094 0.32285717 1.7500001
-0.27666667 0.32500002 1.7500001
-0.26666668 0.32666668 1.7500001
-0.255 0.32666668 1.7500001
-0.25 0.32666668 1.7500001
0.22113144 0.32164574 1.7590001
-0.28311527 0.33504763 1.7589999
-0.27368477 0.33417857 1.7522501
-0.26333335 0.33333331 1.7500001
-0.25456214 0.33399022 1.755625
-0.24404845 0.33431786 1.7551429
-0.23447096 0.3329286 1.7522501
-0.22448193 0.3383981 1.7590002
-0.28155762 0.34337431 1.7545002
-0.27333334 0.3429167 1.7500001
-0.26363051 0.34372762 1.7520001
-0.25559345 0.34557772 1.7589999
-0.24458477 0.34844953 1.7590001
-0.12061714 0.34844953 1.7590001
-0.11372763 0.34785524 1.756
-0.10333335 0.34500003 1.7500001
-0.073333338 0.34666669 1.7500001
-0.27000001 0.35000002 1.7500001
-0.26423046 0.35454476 1.756
-0.25559348 0.35562915 1.7589999
-0.24484931 0.35450453 1.757875
-0.23357677 0.35369334 1.7518002
-0.22371334 0.35560572 1.7530001
-0.21526811 0.35766333 1.7590001
-0.20666668 0.35500002 1.7500001
-0.12061714 0.35180002 1.7590001
-0.11460001 0.35380003 1.7508183
-0.10341906 0.35530576 1.7515001
-0.093573332 0.35591713 1.7545
-0.084385246 0.3542462 1.7545002
-0.072035238 0.35180002 1.7590001
0.020000001 0.35666668 1.7500001
-0.26301241 0.36185145 1.7590001
-0.25631142 0.36185145 1.7590001
-0.24793525 0.36520192 1.7590002
-0.21349008 0.36264545 1.7512858
-0.13500001 0.36666667 1.7500001
-0.12333333 0.36000001 1.7500001
-0.11388889 0.36111113 1.7500001
-0.10350477 0.36395618 1.753
-0.095823623 0.36520195 1.7590001
-0.21333334 0.37 1.7500001
-0.11000001 0.37666669 1.7500001
-0.10304525 0.37422788 1.7522501
-0.093813337 0.37525341 1.7589999
-0.087112382 0.37692857 1.7590001
-0.11000001 0.38666669 1.7500001
-0.10133334 0.38333336 1.7500002
-0.093867861 0.3838219 1.7522501
-0.085437149 0.38530478 1.7589999
-0.11305811 0.39342454 1.7522501
-0.10350858 0.39401144 1.753
-0.093542866 0.39423621 1.7540001
-0.10218953 0.40205717 1.7590001
0.14239524 0.61983812 1.7590001
-0.073710479 0.62988955 1.7590002
-0.06365905 0.62905192 1.7590001
-0.082834676 0.63663626 1.7536001
-0.073474757 0.63413167 1.7533751
-0.063951425 0.63494605 1.755625
-0.056958098 0.63324004 1.7590001
-0.063472383 0.64480567 1.7540001
0.15635556 0.64887553 1.7590002
0.16393089 0.646649 1.7564286
0.17400001 0.64533341 1.7500002
0.18000001 0.64333338 1.7500001
-0.07 0.65000004 1.7500001
-0.065600768 0.65534782 1.7572
0.15479201 0.65535319 1.7590001
0.1629747 0.65285856 1.7512858
0.17333335 0.6516667 1.7500001
0.184 0.65200007 1.7500002
0.19000001 0.6516667 1.7500001
-0.07 0.66333336 1.7500001
-0.064862095 0.66270322 1.7554001
0.1550792 0.66291565 1.7589999
0.16380954 0.66238099 1.7500001
0.17166668 0.66333336 1.7500001
-0.071846671 0.67338961 1.7545
-0.067009524 0.67177051 1.7590001
0.15747239 0.6734457 1.7590002
0.16388763 0.67340827 1.756
0.17166668 0.67333335 1.7500001
-0.071477339 0.68206555 1.7536001
-0.065778412 0.68009782 1.756
0.15663476 0.68265957 1.7590001
0.16416553 0.6840983 1.7554001
0.17303032 0.68545449 1.7500001
0.18000001 0.68666667 1.7500001
-0.073710479 0.69019812 1.7590002
0.1624981 0.69019812 1.7590001
0.17400001 0.69466674 1.7500002
0.18000001 0.69500005 1.7500001
0.17666668 0.70000005 1.7500001
0.18000001 0.70166671 1.7500001
-0.35023239 -0.12460191 1.7680001
-0.34484419 -0.12392839 1.768
-0.32329145 -0.12123429 1.7680001
-0.31767878 -0.12404064 1.768
-0.29298288 -0.12460191 1.7680001
-0.28961524 -0.12796953 1.7680001
-0.34518096 -0.11786667 1.7680001
-0.31992382 -0.11786667 1.7680001
-0.29298288 -0.11449905 1.7680001
-0.29298288 -0.10608 1.7680001
-0.28849271 -0.10215112 1.7680001
-0.28400254 -0.094293334 1.7680001
-0.27867049 -0.08334858 1.7680001
-0.27614477 -0.07408762 1.7680001
-0.27614477 -0.063984767 1.7680001
-0.27614477 -0.05388191 1.7680001
-0.27277714 -0.043779049 1.7680001
-0.26940954 -0.040411431 1.7680001
-0.26940954 -0.033676192 1.7680001
-0.26688382 -0.023573335 1.7680001
-0.26604193 -0.013470476 1.7680001
-0.2660419 -0.0050514285 1.7680001
-0.26402134 0.0026940953 1.768
-0.25678095 0.0058933338 1.7680001
-0.24920382 0.0067352382 1.7680001
-0.2626743 0.010102858 1.7680001
-0.25593907 0.011786667 1.768
-0.24920382 0.010102858 1.7680001
-0.25257143 0.025257144 1.7680001
-0.25257143 0.031992383 1.7680001
-0.24920382 0.035360001 1.7680001
-0.28288001 0.043779049 1.7680001
-0.24836192 0.044620954 1.7680001
-0.2458362 0.054723814 1.7680001
-0.2433105 0.063142866 1.7680001
-0.23910096 0.067352384 1.7680001
-0.28288001 0.072403811 1.7680001
-0.24246858 0.070720002 1.7680001
-0.23910098 0.07408762 1.7680001
-0.23741715 0.08419048 1.7680001
-0.2346108 0.094293334 1.7680001
-0.22899811 0.097660959 1.7680001
-0.22765104 0.10506971 1.768
-0.22659266 0.11498014 1.7679999
-0.22563048 0.1229181 1.7680001
-0.21889524 0.12123429 1.7680001
-0.23236573 0.14817524 1.7680001
-0.22563048 0.15356341 1.768
-0.21889524 0.15491049 1.7680001
-0.22563048 0.16164573 1.7680001
-0.21777271 0.16501333 1.7680001
-0.26856762 0.1759581 1.7680001
-0.25257143 0.17680001 1.7680001
-0.21552762 0.17376915 1.768
-0.27614477 0.18521905 1.7680001
-0.21721143 0.18521905 1.768
-0.28512511 0.19756699 1.7680001
-0.27782857 0.19616382 1.7680001
-0.2660419 0.19868954 1.7680001
-0.25930667 0.19868954 1.7680001
-0.21754821 0.1946484 1.768
-0.28422707 0.20609829 1.768
-0.27614477 0.20542476 1.7679999
-0.2660419 0.20542477 1.7679999
-0.25930667 0.20374095 1.7680001
-0.23236573 0.20879239 1.7680001
-0.22630401 0.20609829 1.768
-0.21889524 0.20205715 1.7680001
-0.28422704 0.21552762 1.768
-0.27614477 0.21552762 1.7679999
-0.26806247 0.21485409 1.768
-0.23404954 0.21552761 1.768
-0.22899811 0.21216001 1.7680001
-0.29298288 0.22899811 1.7680001
-0.28624764 0.22563049 1.7679999
-0.27681828 0.22360989 1.768
-0.24246858 0.22563048 1.7680001
-0.23629463 0.22563048 1.768
-0.29538831 0.23621441 1.7679999
-0.28961524 0.23236573 1.7680001
-0.24516268 0.23573335 1.768
-0.23910096 0.23236573 1.7680001
-0.30308571 0.24752 1.7680001
-0.29578921 0.24583621 1.768
-0.28849271 0.24808128 1.7680001
-0.24583621 0.24516268 1.768
-0.30308571 0.25257143 1.7680001
-0.29586938 0.25593907 1.7679999
-0.28666857 0.25551811 1.7679999
-0.24246858 0.25257143 1.7680001
-0.29635048 0.2643581 1.768
-0.28849271 0.26379684 1.7680001
-0.2441524 0.26772571 1.7680001
0.13638857 0.26940954 1.7680001
0.14480762 0.26940954 1.7680001
-0.24246858 0.27614477 1.7680001
0.17680001 0.27951241 1.7680001
-0.24246858 0.28288001 1.7680001
-0.23685588 0.28737018 1.768
0.18690285 0.28456384 1.7680001
0.1919543 0.28624764 1.7680001
-0.23404953 0.29298288 1.7680001
-0.22787558 0.29859558 1.7680001
0.19700572 0.29466668 1.7680001
0.20205715 0.29971811 1.7680001
-0.22394666 0.30308571 1.7680001
-0.21552764 0.30869842 1.7680001
-0.20205715 0.30982095 1.7680001
0.20879239 0.30308571 1.7680001
0.21216001 0.30645335 1.7680001
-0.20542477 0.31318858 1.7680001
-0.19700572 0.31318858 1.7680001
0.21552762 0.31318858 1.7680001
-0.25257143 0.34349713 1.7680001
-0.24535511 0.3444593 1.7679999
-0.23657525 0.34097144 1.7680001
-0.22394666 0.34349716 1.7680001
-0.21889524 0.34349716 1.7680001
-0.25257143 0.35528383 1.7680001
-0.2458362 0.35023239 1.7680001
-0.23573335 0.35191619 1.7680001
-0.22563048 0.35360003 1.7680001
-0.21552761 0.35584509 1.7680001
-0.080822863 0.35696763 1.7680001
-0.077455238 0.35360003 1.7680001
-0.25257143 0.36538666 1.7680001
-0.092048258 0.36594796 1.7680001
-0.086435556 0.36370286 1.7680001
-0.090925716 0.3704381 1.7680001
-0.08419048 0.374367 1.768
-0.090925716 0.3872762 1.7680001
-0.080822863 0.3855924 1.7680001
-0.07408762 0.38559237 1.768
-0.080822863 0.39064384 1.7680001
-0.075771429 0.39064384 1.7680001
-0.073414102 0.6283977 1.768
-0.063984767 0.62772417 1.768
-0.055565715 0.62974477 1.7680001
0.14480762 0.62806094 1.768
0.15154286 0.62974477 1.7680001
-0.081945397 0.63535756 1.7680001
-0.054555427 0.63580656 1.768
0.14564952 0.63900572 1.7680001
0.15558401 0.63850057 1.768
0.16433981 0.63850057 1.768
-0.060617145 0.64321524 1.7680001
-0.057249527 0.64489907 1.7680001
0.14480762 0.64489907 1.7680001
0.15448953 0.64616191 1.7679999
0.16276826 0.64433783 1.7680001
-0.060617145 0.65668571 1.7680001
-0.057249527 0.65331811 1.7680001
0.14817524 0.65500188 1.7680001
0.15154286 0.65500188 1.7680001
-0.060617145 0.66342098 1.7680001
0.14817524 0.6617372 1.7680001
0.15154286 0.66678858 1.7680001
-0.062862225 0.67352384 1.7680001
-0.057249527 0.67015624 1.7680001
0.15322667 0.67352384 1.7680001
-0.063984767 0.68025905 1.7680001
0.15491048 0.68025905 1.7680001
-0.29108953 -0.12185143 1.7770001
-0.29108953 -0.11508191 1.7770001
-0.29108953 -0.10831238 1.7770001
-0.28432 -0.10154286 1.7770001
-0.28178144 -0.095619529 1.7770001
-0.27755049 -0.093080953 1.7770001
-0.2758581 -0.082926676 1.7770001
-0.27416572 -0.074464768 1.7770001
-0.27416572 -0.064310469 1.7770001
-0.27416572 -0.052463811 1.7770001
-0.27247334 -0.045694288 1.7770001
-0.26739621 -0.033847619 1.7770001
-0.26739621 -0.023693334 1.7770001
-0.26739621 -0.013539049 1.7770001
-0.26288319 -0.004513016 1.7770001
-0.26062667 0 1.7770001
-0.25385714 0.0016923811 1.7770001
-0.2504724 0.015231429 1.7770001
-0.24708763 0.011846667 1.7770001
-0.2504724 0.023693332 1.7770001
-0.2504724 0.030462857 1.7770001
-0.24708763 0.037232384 1.7770001
-0.24539524 0.044001907 1.7770001
-0.24370287 0.053309999 1.7770001
-0.2403181 0.062618092 1.7770001
-0.23608716 0.07531096 1.7770001
-0.23439477 0.08377286 1.7770001
-0.23129207 0.092516832 1.7770001
-0.22677906 0.098158099 1.7770001
-0.22339429 0.10577381 1.7770001
-0.22136346 0.11440495 1.7770001
-0.22170192 0.1252362 1.7770001
-0.2318562 0.14723715 1.7770001
-0.22677906 0.14892954 1.7770001
-0.21662478 0.15569906 1.7770001
-0.21662477 0.16585335 1.7770001
-0.21493238 0.1963162 1.7770001
-0.22339429 0.20816287 1.7770001
-0.29278192 0.21493238 1.7770001
-0.28770477 0.21662477 1.7770001
-0.23016381 0.21662477 1.7770001
-0.22677906 0.21324001 1.7770001
-0.29312038 0.22271733 1.7770001
-0.23101 0.22424048 1.7770001
-0.2403181 0.23693334 1.7770001
-0.23524097 0.2318562 1.7770001
-0.30124381 0.24708763 1.7770001
-0.24201049 0.24285668 1.7770001
-0.30124381 0.2504724 1.7770001
-0.24370286 0.25385714 1.7770001
-0.24285668 0.26316524 1.7770001
0.10492762 0.26739621 1.7770001
0.13708286 0.26739621 1.7770001
0.14216 0.26739621 1.7770001
-0.2403181 0.27755049 1.7770001
0.045694288 0.27416572 1.7770001
0.052463811 0.27416572 1.7770001
0.10831238 0.27078095 1.7770001
0.11508191 0.27247334 1.7770001
0.1252362 0.27416572 1.7770001
0.13200572 0.27078095 1.7770001
0.15231429 0.27078095 1.7770001
0.16923811 0.27755049 1.7770001
-0.2403181 0.28093526 1.7770001
-0.23524097 0.28347382 1.7770001
0.18616191 0.28262764 1.7770001
0.19293143 0.28432 1.7770001
-0.23016381 0.29278192 1.7770001
-0.22677906 0.29616669 1.7770001
0.19800858 0.29278192 1.7770001
0.20308572 0.29785907 1.7770001
-0.22170192 0.3029362 1.7770001
-0.21493238 0.30801335 1.7770001
0.20647049 0.30124381 1.7770001
0.21324001 0.30462858 1.7770001
-0.20816287 0.31139812 1.7770001
-0.1963162 0.31139812 1.7770001
0.21662477 0.31139812 1.7770001
0.22000954 0.31647524 1.7770001
-0.2403181 0.34863049 1.7770001
-0.23439477 0.34609193 1.7770001
-0.23354858 0.35201526 1.7770001
-0.074464768 0.35878477 1.7770001
-0.082588196 0.36623126 1.7770001
-0.082926676 0.37232381 1.7770001
-0.076495633 0.37503162 1.7770001
-0.082926676 0.38247812 1.7770001
-0.076157153 0.38247812 1.7770001
-0.060925715 0.61941147 1.7770001
-0.071079999 0.62448859 1.7770001
-0.063633524 0.62482703 1.7770001
-0.055123266 0.62666452 1.7770002
0.13877524 0.6278733 1.7770001
-0.05077143 0.63464284 1.7770001
-0.047386669 0.63802767 1.7770001
0.13877524 0.63295048 1.7770001
0.14486781 0.63768917 1.7770001
0.15344255 0.63746351 1.7770001
-0.052463811 0.64310479 1.7770001
0.14554477 0.64818192 1.7770001
-0.057540953 0.6532591 1.7770001
0.14486781 0.65461296 1.7770001
-0.057540953 0.66341335 1.7770001
0.14385238 0.66341335 1.7770001
-0.060925715 0.67695242 1.7770001
-0.053733096 0.67356765 1.7770002
0.14651184 0.67308414 1.7770002
-0.060925715 0.68033719 1.7770001
-0.055848572 0.68033719 1.7770001
0.14892954 0.6820296 1.7770001
0.15231429 0.6820296 1.7770001
-0.29256383 -0.12587048 1.7860001
-0.28689399 -0.10545904 1.7860001
-0.2789562 -0.098655239 1.7860001
-0.2789562 -0.08844953 1.7860001
-0.27215239 -0.071440004 1.7860001
-0.27215239 -0.064636193 1.7860001
-0.27328637 -0.054430474 1.7860001
-0.27215239 -0.047626667 1.7860001
-0.26761651 -0.041956827 1.7860001
-0.26364762 -0.034019049 1.7860001
-0.26330742 -0.023813333 1.786
-0.25854477 -0.025514286 1.7860001
-0.26364762 -0.013607619 1.7860001
-0.26194668 -0.0068038097 1.7860001
-0.25582322 -0.0047626668 1.786
-0.2453624 0.003827143 1.7860001
-0.24493715 0.013607619 1.786
-0.24833906 0.023813335 1.7860001
-0.24720509 0.034019049 1.7860001
-0.2432362 0.044224761 1.7860001
-0.24153525 0.052729525 1.7860001
-0.23813334 0.054430477 1.7860001
-0.23813334 0.066337146 1.7860001
-0.2330305 0.074841909 1.7860001
-0.23132952 0.085047625 1.7860001
-0.22792763 0.08844953 1.7860001
-0.22622666 0.094402865 1.7860001
-0.22225778 0.10319111 1.7860001
-0.21772189 0.11566476 1.7860001
-0.23132953 0.12927239 1.7860001
-0.22452573 0.12927239 1.7860001
-0.21772189 0.12587048 1.7860001
-0.22282477 0.14968382 1.7860001
-0.21772191 0.14968382 1.7860001
-0.21432 0.15648763 1.7860001
-0.21318603 0.16555937 1.7860001
-0.21432 0.17009525 1.7860001
-0.21432 0.18540382 1.7860001
-0.21432 0.19390857 1.7860001
-0.28916192 0.20411429 1.7860001
-0.22112381 0.20751619 1.7860001
-0.21602096 0.20241334 1.7860001
-0.22452572 0.21517049 1.7860001
-0.22792763 0.22452573 1.7860001
-0.23473144 0.23473144 1.7860001
-0.24153525 0.24833906 1.7860001
-0.23699938 0.24380319 1.7860001
-0.24153525 0.25514284 1.7860001
-0.24153525 0.26704955 1.7860001
0.053069718 0.2646682 1.786
0.065316573 0.26670936 1.786
0.071440004 0.26875049 1.7860001
0.086748578 0.26875049 1.7860001
0.091851436 0.26875049 1.7860001
0.13267429 0.26875049 1.7860001
0.14628191 0.26875049 1.7860001
-0.24153525 0.27385336 1.7860001
-0.23813334 0.2789562 1.7860001
0.044224765 0.27215239 1.7860001
0.054430474 0.27328637 1.7860001
0.064636193 0.27328637 1.7860001
0.073140956 0.27215239 1.7860001
0.11566477 0.27215239 1.7860001
0.12587048 0.27215239 1.7860001
0.15818858 0.2755543 1.7860001
0.16669334 0.2789562 1.7860001
0.17519811 0.2789562 1.7860001
0.18030097 0.2789562 1.7860001
-0.23303048 0.28746098 1.7860001
0.18710476 0.28235811 1.7860001
0.19731048 0.28746098 1.7860001
0.20071238 0.28916192 1.7860001
-0.22622667 0.29596573 1.7860001
0.20496476 0.29596573 1.7860001
0.2109181 0.29936764 1.7860001
-0.22112381 0.30276954 1.7860001
-0.21432 0.30730543 1.7860001
-0.20411427 0.30957335 1.7860001
-0.19560952 0.30957335 1.7860001
0.21517049 0.30532098 1.7860001
-0.19050667 0.31297526 1.7860001
-0.18370287 0.31297526 1.7860001
-0.17349716 0.31297526 1.7860001
0.22452572 0.31722763 1.7860001
0.23303048 0.3180781 1.7860001
0.22792763 0.32318097 1.7860001
0.23132953 0.32318097 1.7860001
-0.23473144 0.35039622 1.7860001
-0.22282477 0.35039622 1.7860001
-0.074841909 0.3657048 1.7860001
0.017009525 0.3623029 1.7860001
-0.07348115 0.37284878 1.786
