# .PCD v0.7 - Point Cloud Data file format
VERSION 0.7
FIELDS x y z
SIZE 4 4 4
TYPE F F F
COUNT 1 1 1
WIDTH 1507
HEIGHT 1
VIEWPOINT 0 0 0 1 0 0 0
POINTS 1507
DATA ascii
-0.17394096 0.24778382 1.7229999
-0.20183715 0.25434762 1.723
-0.1969143 0.25434762 1.723
-0.18214571 0.25598857 1.723
-0.17394096 0.25434762 1.7229999
-0.16409524 0.2559886 1.7229998
-0.17394096 0.26911619 1.723
-0.16655667 0.26501381 1.723
-0.13784 0.26911619 1.723
0.0065638102 0.26474035 1.723
0.037741907 0.2658343 1.723
0.045946669 0.26474035 1.723
0.055792384 0.26255238 1.723
0.068920001 0.26255238 1.723
0.076030798 0.2658343 1.7229999
0.082047619 0.26911619 1.723
0.09845715 0.26911619 1.723
0.10502096 0.26802221 1.723
0.11421029 0.26780343 1.7229999
-0.17722286 0.27239811 1.723
-0.14112191 0.27568004 1.723
-0.13784 0.27568004 1.723
0.085329525 0.27239811 1.723
0.094081275 0.27349207 1.723
0.10338001 0.27239811 1.723
0.12635334 0.27239811 1.723
0.13521448 0.27436724 1.7229999
0.14276287 0.27568001 1.723
0.15589049 0.27403906 1.723
0.16409525 0.27403906 1.723
0.17459734 0.2769928 1.7229999
0.18050477 0.27732098 1.723
-0.14112191 0.28224382 1.723
-0.13674603 0.28552571 1.723
0.18460715 0.28306431 1.723
0.19363241 0.28552571 1.7229998
0.20388836 0.28511548 1.7229998
0.21113586 0.28771368 1.723
-0.1345581 0.29208952 1.723
0.21660571 0.29482445 1.7229999
0.22645144 0.29701239 1.7229999
0.23629713 0.29865333 1.723
0.24286096 0.29701239 1.723
-0.18542764 0.30849907 1.723
-0.13127619 0.30849907 1.723
-0.12799428 0.30849907 1.723
0.22727193 0.30275571 1.723
0.23670739 0.30480689 1.7229998
0.2454865 0.30718631 1.7229999
-0.19035049 0.31178096 1.723
-0.18284898 0.31459403 1.7229998
-0.17591009 0.31571925 1.7229999
-0.13127619 0.31178096 1.723
-0.124056 0.31440648 1.7229999
0.2367074 0.31465262 1.7229998
0.24573262 0.31547308 1.7229998
-0.12143048 0.32162669 1.723
-0.11486667 0.32162669 1.723
0.23793811 0.32326764 1.723
0.2448301 0.32359582 1.7229999
0.24614286 0.33475432 1.7229998
0.25598857 0.3342073 1.7229999
0.26747525 0.33311334 1.723
0.27403906 0.33475429 1.723
-0.082047619 0.63997144 1.723
-0.075483814 0.63997144 1.723
-0.065638095 0.63997144 1.723
0.17612891 0.63887745 1.723
0.18050477 0.63833046 1.723
-0.093534291 0.64653528 1.7229999
-0.085329525 0.64817625 1.7229999
-0.075014964 0.64747298 1.7229998
-0.065638095 0.64653528 1.7229998
0.17328458 0.64587891 1.7229999
-0.063997142 0.65556049 1.723
-0.059074286 0.65473998 1.723
0.16737714 0.65473998 1.723
0.17065905 0.65638095 1.723
-0.062356193 0.66622669 1.723
0.16737714 0.66786766 1.723
0.17065905 0.66622669 1.723
-0.067279048 0.67607242 1.723
0.16737714 0.67771339 1.723
0.17065905 0.67607242 1.723
0.15260857 0.6826362 1.723
0.16573618 0.68591809 1.7229999
0.17147954 0.68673861 1.723
0.1755819 0.69412291 1.723
-0.18804573 0.24742858 1.7320001
-0.16165334 0.24412954 1.7320001
-0.1583543 0.24412954 1.7320001
-0.1929943 0.25402668 1.7320002
-0.18584637 0.25347683 1.7320002
0.072579049 0.25567621 1.7320001
-0.20289142 0.26392385 1.7320002
-0.19464381 0.26392385 1.7320002
-0.18474668 0.26392382 1.7320002
-0.17484954 0.26392382 1.7320002
-0.16330287 0.26722288 1.7320001
-0.0032990477 0.26062477 1.7320001
0.0049485718 0.2622743 1.7320001
0.013196191 0.2622743 1.7320001
0.047836192 0.2622743 1.7320001
0.054434288 0.26062477 1.7320001
0.075878106 0.26172444 1.732
0.082476191 0.26722288 1.7320001
0.10556953 0.26612321 1.732
0.11436699 0.26392382 1.732
-0.19354413 0.27272126 1.7320002
-0.18474668 0.27382097 1.7320002
-0.17418972 0.27580041 1.7320001
-0.16660191 0.27382097 1.7320001
-0.1517562 0.27712002 1.7320001
-0.14570795 0.27382097 1.7320002
0.08742477 0.27052191 1.7320001
0.094022855 0.27052191 1.7320001
0.12206477 0.27052191 1.7320001
0.13526097 0.27217144 1.7320001
0.14598288 0.27464572 1.7320001
0.1517562 0.2754705 1.7320001
0.16825144 0.27382097 1.7320001
0.17320001 0.27382097 1.7320001
0.19629334 0.27712002 1.7320001
0.20124191 0.27712002 1.7320001
-0.19216952 0.28454286 1.7320001
-0.18474668 0.28371811 1.7320002
-0.17484954 0.28371814 1.7320002
-0.16825144 0.28206858 1.7320001
-0.1517562 0.28371811 1.732
-0.14610069 0.2841894 1.7320002
0.1863962 0.28041905 1.7320001
0.19464381 0.28041905 1.732
0.20454097 0.28041905 1.732
0.21278858 0.28371811 1.7320001
-0.21113905 0.29691431 1.7320001
-0.20784001 0.29526478 1.7320001
-0.19417252 0.29455781 1.7320002
-0.18474668 0.29361525 1.7320002
-0.17649905 0.29361525 1.7320002
-0.14350858 0.29031619 1.7320001
-0.13773525 0.29444003 1.7320001
0.21773715 0.29031619 1.7320001
0.22433525 0.29196572 1.7320002
0.23464477 0.29320288 1.7320002
0.24193017 0.29471493 1.732
-0.21113905 0.30351239 1.7320001
-0.20454097 0.30351239 1.7320002
-0.19464381 0.30351236 1.7320002
-0.18474667 0.30351236 1.7320002
-0.17526191 0.30392477 1.7320002
-0.13608572 0.30268764 1.7320001
0.24577907 0.30351239 1.7320001
0.25237715 0.30516192 1.7320001
-0.20454097 0.31011048 1.7320001
-0.19464381 0.31293824 1.7320002
-0.18474668 0.31340954 1.7320001
-0.17374985 0.31230986 1.7320002
-0.16825144 0.31505907 1.7320001
-0.13620354 0.31388086 1.7320002
-0.12866285 0.31670859 1.7320001
0.25457653 0.31395939 1.7320002
-0.17155048 0.32000762 1.7320001
-0.16825144 0.32000762 1.7320001
-0.13460115 0.32132724 1.7320001
-0.12701333 0.32165715 1.7320001
0.24742858 0.32825524 1.7320001
0.25402668 0.32495621 1.7320002
0.26722288 0.32825524 1.7320001
0.27217144 0.32990476 1.7320001
0.25402668 0.33320382 1.7320001
0.27712002 0.33320382 1.7320001
0.28041905 0.33815241 1.7320001
-0.082476191 0.63506669 1.7320001
-0.075878091 0.63671619 1.732
-0.065980956 0.63671619 1.732
-0.092373334 0.6433143 1.7320001
-0.085775249 0.6437856 1.7320002
-0.076427937 0.64276445 1.7320002
-0.065980963 0.64001524 1.732
-0.058723051 0.64595354 1.7320001
0.16660191 0.64991242 1.7320001
0.17265016 0.6433143 1.732
-0.056908574 0.65568572 1.7320001
0.16400981 0.65603924 1.7320002
-0.062681906 0.6697067 1.7320001
-0.05938286 0.66475809 1.7320001
0.16454001 0.66599524 1.7320002
-0.062681906 0.67795432 1.7320001
-0.05938286 0.67300576 1.7320001
0.1649524 0.67696464 1.7320001
-0.062681906 0.68290287 1.7320001
-0.05938286 0.68455243 1.7320001
0.1583543 0.68785143 1.7320001
0.1624781 0.68537718 1.7320001
0.1649524 0.69444954 1.7320001
0.17320001 0.6977486 1.7320001
0.0082904771 0.26363713 1.7410001
0.01768635 0.26418984 1.7410001
0.026529524 0.26529524 1.7410001
0.039794289 0.26529524 1.7410001
0.044215877 0.26308444 1.7410001
0.079588577 0.26197904 1.7410001
0.086220957 0.26584795 1.7410001
0.096998572 0.26778239 1.7410001
0.10446 0.26529524 1.7410001
0.11606667 0.26529524 1.7410001
-0.20339303 0.27303302 1.7410001
-0.19786604 0.27745461 1.7410001
-0.16580953 0.27856001 1.7410001
-0.15530826 0.27413842 1.7410001
0.12767334 0.27192762 1.7410001
0.13430572 0.27192762 1.7410001
0.1442543 0.27192762 1.7410001
0.15696636 0.27303302 1.7410001
0.16580953 0.2727567 1.7410001
0.17575811 0.27303302 1.7410001
0.18570668 0.27745461 1.7410001
0.19233905 0.27856001 1.7410001
0.20726192 0.27856001 1.7410001
0.2122362 0.27856001 1.7410001
-0.20394573 0.28850859 1.7410001
-0.19764496 0.28452915 1.7409999
-0.16746762 0.2851924 1.7410001
-0.15586096 0.2851924 1.7410001
0.21886858 0.28685051 1.7410001
0.22550096 0.28685048 1.7410001
0.23544954 0.28685048 1.7410001
0.24374001 0.28685051 1.7410001
-0.20394574 0.29514098 1.7410001
-0.19731334 0.29182476 1.7410001
-0.17244191 0.29514095 1.7410001
-0.16912572 0.29514095 1.7410001
-0.15254477 0.29348284 1.7410001
-0.14591238 0.29514092 1.7409999
0.24622715 0.29431188 1.7410001
-0.21444698 0.30398414 1.7410001
-0.20560382 0.30508953 1.7410001
-0.17244191 0.30177334 1.7410001
-0.16829666 0.30508953 1.7410001
-0.1425962 0.3050895 1.7410001
-0.13928001 0.30674762 1.7410001
0.2487143 0.30177334 1.7410001
0.25617573 0.30426049 1.7410001
-0.20560382 0.31172192 1.7410001
-0.16912572 0.31172192 1.7410001
-0.1425962 0.31669623 1.7410001
0.25866288 0.31172192 1.7410001
0.26280808 0.31586719 1.7410001
-0.1425962 0.3216705 1.7410001
0.25866288 0.32830286 1.7410001
0.26488072 0.32457218 1.7410001
0.27482927 0.32540119 1.7410001
0.28585562 0.32564992 1.7409999
0.27856001 0.33161905 1.7410001
0.2851924 0.33446148 1.7410001
0.29182476 0.33825144 1.7410001
0.28685051 0.34156764 1.7410001
0.29182476 0.34156764 1.7410001
-0.075609148 0.63538206 1.7409999
-0.066323809 0.63670862 1.7410001
-0.043110479 0.63007623 1.7410001
-0.039794289 0.63007623 1.7410001
-0.026529524 0.63007623 1.7410001
0.16663857 0.63256335 1.7410001
0.17244191 0.63505054 1.7410001
-0.055901498 0.64428848 1.7410001
0.15917715 0.64997333 1.7410001
0.16654645 0.64592022 1.7410001
0.17492905 0.64085382 1.7410001
-0.053059049 0.65992194 1.7410001
0.15785068 0.65726894 1.7409999
0.16249333 0.65328956 1.7410001
-0.055269841 0.66655427 1.7410001
0.15834811 0.66572523 1.7410001
-0.058033332 0.67733192 1.7410001
0.15917715 0.67650288 1.7410001
0.16249333 0.67816097 1.7410001
-0.059691429 0.68313527 1.7410001
0.14922857 0.68645144 1.7410001
0.15669 0.68562239 1.7410001
0.0067009525 0.25798666 1.7590001
0.013401906 0.25798666 1.7590002
0.045000002 0.25666669 1.7500001
0.076666668 0.25666669 1.7500001
0.083333343 0.25666669 1.7500001
0.0040102857 0.26186818 1.7536001
0.013361905 0.26044571 1.7530001
0.023359049 0.26450524 1.7522501
0.033470478 0.26438481 1.757
0.042551432 0.26116765 1.7522502
0.05166667 0.26000002 1.7500001
0.067009524 0.26468763 1.7590001
0.073333338 0.26166669 1.7500001
0.084278107 0.26116765 1.7522502
0.093930006 0.26341811 1.7533751
0.10360477 0.2623381 1.7545
0.11056572 0.26468763 1.7590001
0.12061714 0.26803809 1.7590001
0.13234381 0.26803809 1.7590001
-0.20666668 0.27666667 1.7500001
-0.16250223 0.27602983 1.7530001
0.125 0.27000001 1.7500001
0.13333334 0.27000001 1.7500001
0.14357905 0.27046287 1.7530001
0.15313981 0.27216649 1.7554001
0.16666667 0.27000001 1.7500001
0.1736362 0.27046287 1.7530001
0.18380477 0.2734749 1.7545
0.19383049 0.27570286 1.7545
0.2030143 0.27654046 1.7545002
0.21444228 0.27589563 1.7536001
0.22381182 0.27674931 1.7590001
0.23453332 0.27808952 1.7590002
0.24458475 0.27808952 1.7590002
0.2546362 0.27808952 1.7590002
-0.21000001 0.28 1.7500001
-0.20517714 0.28357619 1.7515001
-0.1628634 0.28464463 1.7551429
-0.15666667 0.28333333 1.7500001
0.21666667 0.28166667 1.7500001
0.22371334 0.28214666 1.7530001
0.23333335 0.28166667 1.7500001
0.24333334 0.28238097 1.7500001
0.25420761 0.28430477 1.756
0.26334745 0.28613067 1.7590001
0.27641428 0.28814095 1.7590001
0.2859073 0.28702411 1.7590002
0.29484192 0.28814095 1.7590002
-0.16398287 0.29450479 1.757
-0.15666667 0.29333335 1.7500001
0.24666667 0.29000002 1.7500001
0.25375 0.29291666 1.7500001
0.26453903 0.2946724 1.7579999
0.27515784 0.29526073 1.7589999
0.28479049 0.29526073 1.7589999
0.29484192 0.29484192 1.7589999
0.30489334 0.29526073 1.7589999
0.31494477 0.29685217 1.7590001
0.37860382 0.29651713 1.7590001
0.38307115 0.29707554 1.7590002
-0.16354024 0.30408666 1.75675
-0.15321666 0.3034974 1.7533751
-0.14666668 0.30333334 1.7500001
0.255 0.30000001 1.7500001
0.26409286 0.30330452 1.7522501
0.27458286 0.30471808 1.7579999
0.28423211 0.30545175 1.7589999
0.29484192 0.30489334 1.7589999
0.30489334 0.30489331 1.7589999
0.31494477 0.30489334 1.7589999
0.3249962 0.30489331 1.7589999
0.33504763 0.307127 1.7590002
0.34342384 0.30824381 1.7590001
0.38297525 0.30437335 1.756
-0.20437905 0.31829524 1.7590001
-0.16428709 0.31330177 1.7551429
-0.15321666 0.31351668 1.7533751
-0.14583334 0.31333333 1.7500001
0.26583335 0.3125 1.7500001
0.27333334 0.31333333 1.7500001
0.28349712 0.31351048 1.751
0.29333332 0.3133333 1.7500001
0.30455047 0.31458667 1.757
0.31452596 0.31452593 1.7589999
0.3383981 0.31326956 1.7590001
0.3417486 0.31326956 1.7590001
0.38362956 0.31159431 1.7590001
-0.16752382 0.32164574 1.7590001
-0.1535081 0.32416597 1.75675
-0.14510897 0.32567468 1.7554001
0.27333334 0.32000002 1.7500001
0.28333333 0.32238099 1.7500001
0.29428571 0.32285717 1.7500001
0.30350855 0.32351622 1.751
0.31459048 0.32462478 1.757
0.32276258 0.32722986 1.7590002
-0.14407049 0.33169717 1.7590002
0.26416668 0.33416668 1.7500001
0.29413143 0.33376405 1.7522501
0.30454478 0.33467051 1.757
0.31446615 0.33409038 1.7589999
0.3249962 0.33337238 1.7589999
0.33281401 0.33393082 1.7590002
0.26666668 0.34 1.7500001
0.29819238 0.3417486 1.7590001
0.30154288 0.3417486 1.7590001
-0.041460194 0.62926358 1.7554001
-0.033800848 0.6273365 1.755
-0.02602743 0.62597102 1.7518002
0.1273181 0.6282143 1.7590001
0.13430074 0.62662417 1.753
0.14351763 0.62579721 1.7522502
0.15248793 0.62829655 1.7530001
0.16138542 0.62996322 1.7530001
-0.071111113 0.63444448 1.7500001
-0.063436188 0.63608867 1.7530001
-0.053485714 0.63513917 1.755
-0.044714667 0.63531476 1.7518002
-0.032952655 0.63615185 1.7551429
-0.02680381 0.63994098 1.7590001
0.1273181 0.63659048 1.7590002
0.13314368 0.63568169 1.7538573
0.14333333 0.63500005 1.7500001
0.15392461 0.63474858 1.7512858
0.16291144 0.63746625 1.7545002
-0.060000002 0.64000005 1.7500001
-0.052267939 0.64277089 1.7515001
-0.043829292 0.64415741 1.7533751
-0.033504765 0.64329147 1.7590002
-0.02680381 0.64329147 1.7590001
0.13363238 0.64480567 1.7540001
0.14333333 0.64333338 1.7500001
0.15333332 0.64333338 1.7500001
0.16285716 0.64238101 1.7500001
-0.05166667 0.65333337 1.7500001
-0.045789842 0.65445971 1.7590002
0.13690096 0.65444762 1.7530001
0.14341334 0.65370482 1.751
0.15333332 0.65333337 1.7500001
0.16166668 0.65000004 1.7500001
-0.050769527 0.66268766 1.7536001
-0.046906669 0.66339433 1.7590002
0.13736953 0.66339433 1.7590001
0.14384 0.66334307 1.7511251
0.15166666 0.66333336 1.7500001
-0.052769523 0.67404842 1.7536001
-0.045231432 0.6734457 1.7589999
0.13736953 0.6767962 1.7590001
0.14381905 0.67341113 1.756
0.15333332 0.67333341 1.7500001
-0.051755238 0.68115997 1.7530001
-0.044393811 0.68098432 1.7590001
-0.036855239 0.68014669 1.7590001
0.14523262 0.68389124 1.757875
0.15333332 0.68333328 1.7500001
0.14574572 0.69019812 1.7590001
0.023573333 0.2626743 1.7680001
0.13807239 0.26940954 1.7680001
0.14480762 0.26940954 1.7680001
0.16838096 0.26940954 1.7680001
0.17343238 0.26940954 1.7680001
0.16332954 0.27277714 1.7680001
0.18858667 0.27277714 1.7680001
0.1919543 0.27277714 1.7680001
0.20710859 0.27614477 1.7680001
0.21216001 0.27614477 1.7680001
0.22899811 0.27614477 1.7680001
0.25930667 0.27614477 1.7680001
0.2626743 0.27951241 1.7680001
0.26772571 0.28456381 1.7680001
0.27614477 0.28568637 1.768
0.28456384 0.28624761 1.7680001
0.30645332 0.28961524 1.7680001
0.31318858 0.28961524 1.7680001
0.27277714 0.29298288 1.7680001
0.28624764 0.29298288 1.7680001
0.30645335 0.29298288 1.7680001
0.31655622 0.29382479 1.7680001
0.32463849 0.29702401 1.768
0.33171049 0.29803431 1.7680001
0.37717333 0.29635051 1.7680001
0.3822248 0.29298288 1.7680001
-0.15827811 0.30982095 1.7680001
0.28737018 0.30533078 1.7680001
0.32665905 0.30645335 1.7680001
0.33507812 0.30561143 1.7680001
0.34282362 0.30443275 1.768
0.35135493 0.30757588 1.7680001
0.37717333 0.30982095 1.7680001
0.38054097 0.30476952 1.7680001
-0.16332954 0.31992382 1.7680001
-0.15827811 0.31992382 1.7680001
0.31992382 0.31992382 1.7680001
0.32497525 0.31655622 1.768
0.33339429 0.31655622 1.7679999
0.34686476 0.31318858 1.7680001
0.35135493 0.31431112 1.7680001
0.37717333 0.31318858 1.7680001
0.3839086 0.31824002 1.768
-0.16417144 0.32497525 1.7680001
0.32553652 0.32441399 1.7680001
0.33339429 0.32497525 1.768
0.34125209 0.32553652 1.7680001
-0.16332953 0.33255237 1.7680001
-0.15625753 0.33339429 1.768
-0.14480762 0.33676192 1.7680001
-0.13470477 0.33339429 1.7680001
0.3342362 0.3308686 1.7680001
0.34181333 0.33171049 1.7680001
0.35135493 0.33451685 1.7680001
0.14649144 0.6196419 1.7680001
0.15154286 0.6196419 1.7680001
-0.043105524 0.6270507 1.768
-0.034518097 0.62469333 1.7680001
-0.023573333 0.62806094 1.7680001
0.1229181 0.62974477 1.7680001
0.13638857 0.62469339 1.7680001
0.14480762 0.62300956 1.7680001
0.15154286 0.62469339 1.7680001
-0.062300958 0.63648003 1.7680001
-0.050514288 0.63311243 1.7680001
-0.047146667 0.63311243 1.7680001
0.12325486 0.63715351 1.768
-0.033676192 0.6499505 1.7680001
0.12516318 0.6465829 1.768
-0.040411431 0.65500188 1.7680001
-0.035360001 0.65500188 1.7680001
0.12460191 0.65331811 1.7680001
0.13302097 0.65668571 1.7680001
-0.04209524 0.66342098 1.768
-0.036201905 0.66257906 1.7680001
0.13335773 0.66342098 1.768
-0.041253336 0.67268193 1.7680001
-0.036201905 0.67436576 1.7680001
0.12796953 0.67015624 1.7680001
0.1358273 0.67127877 1.7680001
0.14144 0.67689145 1.7680001
-0.040411431 0.68025905 1.7680001
-0.03704381 0.68025905 1.7680001
0.14216 0.26739621 1.7770001
0.16923811 0.26739621 1.7770001
0.17262286 0.26739621 1.7770001
0.12692857 0.27078095 1.7770001
0.14554477 0.27078095 1.7770001
0.15569904 0.27078095 1.7770001
0.17939238 0.27078095 1.7770001
0.18446952 0.27078095 1.7770001
0.20647049 0.27416572 1.7770001
0.21493238 0.27416572 1.7770001
0.22339429 0.27416572 1.7770001
0.23354858 0.27642223 1.7770001
0.24370287 0.27755049 1.7770001
0.25385717 0.27755049 1.7770001
0.26570383 0.27755049 1.7770001
0.27247334 0.27755049 1.7770001
0.26739621 0.28093526 1.7770001
0.27416572 0.28178144 1.7770001
0.2851662 0.28178146 1.7770001
0.29447433 0.28432 1.7770002
0.30395162 0.28635085 1.7770001
0.31393668 0.28685856 1.7770001
0.32493716 0.28770477 1.7770001
0.31816763 0.29108953 1.7770001
0.32578334 0.29193574 1.7770001
0.33283493 0.29334605 1.7770001
0.34609193 0.29532051 1.7770001
0.35652828 0.29673082 1.7770001
0.36690822 0.29515126 1.7770001
0.3740162 0.29616669 1.7770001
0.33847621 0.30124381 1.7770001
0.34609193 0.3029362 1.7770001
0.35582316 0.30462855 1.7770002
0.36724669 0.30378237 1.7770001
0.37522504 0.30559567 1.7770002
0.34863049 0.31816763 1.7770001
0.35765651 0.31478286 1.7770001
0.36724669 0.31393671 1.7770001
0.37474149 0.3152664 1.7770002
0.38247812 0.3130905 1.7770001
-0.16585334 0.3283219 1.7770001
0.34592265 0.32290632 1.7770001
0.35540003 0.32409096 1.7770001
0.36893907 0.32493713 1.7770001
0.37570858 0.32493716 1.7770002
0.38586286 0.32662955 1.7770001
-0.16585334 0.33170667 1.7770001
-0.15400667 0.33847621 1.7770001
-0.13708286 0.33847621 1.7770001
-0.1252362 0.33509144 1.7770001
0.34863052 0.33509144 1.7770001
0.35427177 0.33396319 1.7770001
0.36893907 0.33339906 1.7770001
0.37474149 0.3346079 1.7770002
0.38586286 0.33170667 1.7770001
-0.022000954 0.61433429 1.7770001
-0.016923809 0.61433434 1.7770001
-0.060925715 0.62956572 1.7770001
-0.05077143 0.62956572 1.7770001
-0.044678859 0.62550402 1.7770001
-0.033847619 0.62392449 1.7770001
-0.022847142 0.62702709 1.7770001
0.11846667 0.62618095 1.7770001
0.12571974 0.62714803 1.7770002
0.13471353 0.62550402 1.7770001
0.14216 0.62279624 1.7770001
-0.071079999 0.63972002 1.7770001
-0.063464284 0.63633525 1.7770001
-0.054833144 0.6343044 1.7770001
-0.021436825 0.63633531 1.7770001
0.11846667 0.63633525 1.7770001
0.12185143 0.63633525 1.7770001
-0.022847142 0.64564335 1.7770001
0.11846667 0.64648956 1.7770001
0.12185143 0.64987433 1.7770001
-0.030462857 0.65664381 1.7770001
-0.027078096 0.65495145 1.7770001
0.11846667 0.65495145 1.7770001
0.12185143 0.6532591 1.7770001
-0.03130905 0.66425955 1.7770001
-0.027078096 0.66172099 1.7770001
0.10831238 0.66341335 1.7770001
0.11564603 0.66454154 1.7770001
0.1252362 0.66341329 1.7770002
0.13200572 0.66679811 1.7770001
-0.033001427 0.6744138 1.7770001
0.11846667 0.67018288 1.7770001
0.12523618 0.67018288 1.7770001
0.13426222 0.67582417 1.7770001
0.13539048 0.68033719 1.7770001
0.068038099 0.26364762 1.7860001
0.071440004 0.26364762 1.7860001
0.13692667 0.26789999 1.7860001
0.14628191 0.26761654 1.7860001
0.15308572 0.26875049 1.7860001
0.17434762 0.26619905 1.7860001
0.18200192 0.26875049 1.7860001
0.21772191 0.26875049 1.7860001
0.22112381 0.26875049 1.7860001
0.15648763 0.27215239 1.7860001
0.16499239 0.27215239 1.7860001
0.19390857 0.27385336 1.7860001
0.20411429 0.27385336 1.7860001
0.21432 0.27215239 1.7860001
0.22282477 0.27215239 1.7860001
0.23643239 0.2755543 1.7860001
0.24493714 0.2755543 1.7860001
0.25514287 0.2755543 1.7860001
0.26194668 0.2755543 1.7860001
0.2789562 0.2789562 1.7860001
0.28661048 0.27810571 1.7860001
0.29511526 0.27810574 1.7860001
0.30447048 0.2789562 1.7860001
0.29936764 0.28235811 1.7860001
0.30702192 0.28320858 1.7860001
0.31637716 0.28462604 1.7860001
0.32726327 0.28439924 1.786
0.33474746 0.2864404 1.786
0.34495315 0.28576002 1.786
0.35311776 0.28780118 1.786
0.36400384 0.28673199 1.7860001
0.37307557 0.286327 1.7860001
0.33678859 0.29256383 1.7860001
0.34189144 0.29596573 1.7860001
0.35428414 0.29499373 1.7860001
0.36468422 0.29460496 1.786
0.37591046 0.29256383 1.7860001
0.38271427 0.29256383 1.7860001
0.36604497 0.3068518 1.786
0.37761143 0.30276954 1.7860001
0.36513779 0.31751114 1.7860001
0.35379815 0.32743335 1.7860001
0.36442909 0.32700813 1.7860001
0.36332345 0.33474746 1.786
0.38441524 0.33678856 1.7860001
0.39121905 0.33678859 1.7860001
-0.15308572 0.34359241 1.7860001
-0.14628191 0.34359241 1.7860001
0.36400387 0.3401905 1.7860001
0.37080762 0.3401905 1.7860001
0.38101333 0.3401905 1.7860001
-0.013607619 0.60894096 1.7860001
-0.042523813 0.6191467 1.7860001
-0.037420955 0.6191467 1.7860001
-0.02466381 0.61489427 1.7860001
-0.012635647 0.61525875 1.7860001
0.10630952 0.61829627 1.7860001
0.11566477 0.61744577 1.7860001
0.13267429 0.61234289 1.7860001
-0.051028572 0.62935239 1.7860001
-0.045075238 0.62339908 1.7860001
-0.034019049 0.62368256 1.7860001
-0.023813335 0.62424958 1.7860001
-0.017009525 0.62595052 1.7860001
0.10716 0.62595052 1.7860001
0.11523953 0.6255253 1.7860001
0.12519011 0.62390935 1.786
0.13522571 0.62339908 1.7860001
0.14288001 0.62254858 1.7860001
-0.068038099 0.63955814 1.7860001
-0.05613143 0.63275433 1.7860001
-0.017009525 0.63445526 1.7860001
0.10886095 0.63275433 1.7860001
0.11566477 0.63567024 1.7860001
-0.02041143 0.64636195 1.7860001
-0.017009525 0.64636195 1.7860001
0.11566477 0.64636189 1.7860001
-0.022679364 0.65656763 1.7860001
0.1145308 0.65770167 1.7860001
-0.023813333 0.66337144 1.7860001
0.10886095 0.66337144 1.7860001
0.1145308 0.66450542 1.7860001
-0.030617144 0.67527813 1.7860001
-0.027215237 0.67357713 1.7860001
0.12587048 0.67357719 1.7860001
0.11795714 0.25984764 1.7950001
0.12650476 0.25984764 1.7950001
0.13505238 0.25984764 1.7950001
0.14018096 0.25984764 1.7950001
0.11510795 0.26554605 1.7950001
0.12650476 0.2649762 1.7950001
0.13505238 0.2649762 1.7950001
0.1436 0.26440635 1.7950001
0.1504381 0.26668572 1.7950001
0.16496906 0.26583096 1.7950001
0.17095239 0.26326668 1.7950001
0.18120953 0.26668572 1.7950001
0.21540003 0.26668572 1.7950001
0.22223811 0.26668572 1.7950001
0.11966667 0.27010477 1.7950001
0.12650478 0.27010477 1.7950001
0.1572762 0.27010477 1.7950001
0.1641143 0.27010477 1.7950001
0.18804763 0.27010477 1.7950001
0.19716509 0.27238414 1.7950001
0.20445904 0.27147239 1.7950001
0.21369049 0.27010477 1.7950001
0.22793651 0.27124444 1.7950001
0.23505953 0.27266905 1.7950001
0.24617143 0.27352381 1.7950001
0.25642857 0.27437857 1.7950001
0.2649762 0.27523333 1.7950001
0.27266905 0.27608809 1.7950001
0.2829262 0.27608809 1.7950001
0.29403809 0.27466348 1.7950001
0.30429524 0.27694288 1.7950001
0.31284288 0.27694288 1.7950001
0.32822859 0.27694288 1.7950001
0.33506668 0.27694288 1.7950001
0.34600765 0.27557522 1.7950001
0.3547262 0.27608809 1.7950001
0.36515433 0.27557525 1.7950001
0.37267619 0.27694288 1.7950001
0.31540716 0.28121668 1.7950001
0.32412571 0.28172952 1.7950001
0.33592144 0.28121668 1.7950001
0.34418416 0.28321111 1.7950001
0.35606939 0.28280407 1.7950001
0.36583811 0.28172952 1.7950001
0.37609527 0.28264129 1.7950001
0.34532383 0.29061905 1.7950001
0.37951431 0.29061905 1.7950001
0.38464287 0.29061905 1.7950001
0.36925715 0.33848572 1.7950001
-0.16069524 0.34703335 1.7950001
-0.15385716 0.3476032 1.7950001
-0.14274526 0.34788811 1.7950001
-0.13334286 0.34190479 1.7950001
-0.12992382 0.34190479 1.7950001
-0.013248811 0.60559881 1.7950001
-0.0068380958 0.60517144 1.7950001
-0.030771431 0.61884767 1.7950001
-0.023933334 0.61314923 1.7950001
-0.013676191 0.61200953 1.7950001
-0.0068380958 0.61542857 1.7950001
0.097784773 0.61611241 1.7950001
0.10550205 0.61542857 1.7950001
0.11624763 0.61445177 1.7950001
0.1260774 0.61585593 1.7950001
0.13334286 0.61884767 1.7950001
-0.052995242 0.62910479 1.7950001
-0.031911116 0.62340641 1.7950001
-0.012536508 0.62682539 1.7950001
-0.0068380954 0.62226671 1.7950001
0.098012708 0.62340641 1.7950001
0.10257144 0.62739527 1.7950001
0.11624762 0.62226671 1.7950001
0.12650478 0.62226671 1.7950001
0.13505238 0.62226671 1.7950001
-0.056414288 0.63252383 1.7950001
-0.013676191 0.63594288 1.7950001
0.10770001 0.6376524 1.7950001
-0.015955554 0.6462 1.7950001
0.10940953 0.6462 1.7950001
0.11282858 0.6462 1.7950001
-0.020514287 0.65987623 1.7950001
-0.014653062 0.65694565 1.7950001
0.10940953 0.65645719 1.7950001
0.11368334 0.65731192 1.7950001
-0.020514287 0.66500479 1.7950001
0.10940953 0.66329527 1.7950001
-0.023933334 0.67184287 1.7950001
0.12713905 0.2577143 1.8040001
0.13057524 0.2577143 1.8040001
0.16665524 0.2577143 1.8040001
0.12026667 0.26630479 1.8040001
0.1466108 0.26229587 1.8040003
0.15505812 0.26415718 1.804
0.16424993 0.26252496 1.8040001
0.17639111 0.26344129 1.8040003
0.18555431 0.2668775 1.8040003
0.19929905 0.26802287 1.8040001
0.20617144 0.26802287 1.8040003
0.21648002 0.26458669 1.8040003
0.22507048 0.26630479 1.8040001
0.23366098 0.26802287 1.8040003
0.24740572 0.26802287 1.8040001
0.25084192 0.26802287 1.8040001
0.28520381 0.26802287 1.8040001
0.34705526 0.26802287 1.8040001
0.19414476 0.27145904 1.8040001
0.23709716 0.27145904 1.8040001
0.24396951 0.27145904 1.8040003
0.25427809 0.27145904 1.8040003
0.26458669 0.27260444 1.8040003
0.2757543 0.27317715 1.8040001
0.28520381 0.27317715 1.8040001
0.29551238 0.27317715 1.8040001
0.30582097 0.27489525 1.8040003
0.31612954 0.27661335 1.8040001
0.3264381 0.27718604 1.8040003
0.33502859 0.27489525 1.8040001
0.34361902 0.27374986 1.8040003
0.35392761 0.27260444 1.8040003
0.36080003 0.27489525 1.8040001
-0.13401143 0.34705529 1.8040003
-0.12713905 0.34533715 1.8040001
-0.11511238 0.34533715 1.8040001
-0.1099581 0.34533715 1.8040001
-0.17180952 0.35736382 1.8040001
-0.16493715 0.35736382 1.8040003
-0.15548763 0.35306859 1.8040001
-0.14432 0.35392764 1.8040003
-0.13469866 0.35186592 1.8040001
-0.11683048 0.35049143 1.8040001
-0.082468577 0.35392764 1.8040001
-0.079032384 0.35392764 1.8040001
-0.17180952 0.36080003 1.8040001
-0.16356269 0.36286172 1.8040001
-0.15806477 0.36080003 1.8040001
-0.16150096 0.37626287 1.8040001
-0.15806477 0.37798098 1.8040001
-0.16150096 0.38141716 1.8040001
-0.15348317 0.38256255 1.8040003
-0.010308572 0.59789717 1.8040001
-0.022335239 0.60820574 1.8040001
-0.013744761 0.60247874 1.8040003
-0.0045815874 0.60476953 1.8040003
0.0068723811 0.60476953 1.8040001
0.085904755 0.60820574 1.8040003
0.097072378 0.60734665 1.8040001
0.1065219 0.60820574 1.8040001
0.11511239 0.60820574 1.8040001
0.12026667 0.60820574 1.8040001
-0.030925715 0.6185143 1.8040001
-0.022335239 0.61164194 1.8040001
-0.0034361903 0.61507809 1.8040003
0.089340955 0.61507815 1.8040003
0.095067941 0.61393267 1.804
0.1065219 0.61250103 1.8040001
0.11511239 0.61164194 1.8040001
0.12198476 0.61164194 1.8040001
-0.036080003 0.62195051 1.8040001
-0.0045815874 0.62538671 1.8040003
0.089340955 0.62195051 1.8040001
0.093922533 0.62538671 1.8040003
-0.011167619 0.6365543 1.8040001
0.099649526 0.63225907 1.8040001
0.10308572 0.63741338 1.8040001
-0.012599367 0.64714926 1.8040003
0.10480382 0.64256763 1.8040001
-0.013744761 0.66662097 1.8040003
0.10652191 0.66318476 1.8040001
-0.020617144 0.67349339 1.8040001
-0.017180953 0.67005718 1.8040001
-0.024053333 0.68036574 1.8040001
0.15894096 0.25914288 1.8140001
0.16239619 0.25914288 1.8140001
0.17621715 0.25914288 1.8140001
0.17621715 0.2625981 1.8140001
0.18658286 0.26605335 1.8140001
0.19349334 0.26778096 1.8140001
0.20385905 0.26605335 1.8140001
0.21076953 0.26605335 1.8140001
0.22804572 0.26605335 1.8140001
0.23322859 0.26605335 1.8140001
0.24359429 0.26950857 1.8140001
0.25568762 0.26835683 1.8140001
0.26605335 0.26950857 1.8140001
0.27641904 0.26950857 1.8140001
0.28332955 0.26950857 1.8140001
0.29369524 0.26864478 1.8140001
0.30233335 0.26950857 1.8140001
0.33861333 0.26950857 1.8140001
0.34483278 0.26743543 1.8140001
0.35761714 0.26950857 1.8140001
0.3628 0.26950857 1.8140001
0.26950857 0.27296382 1.8140001
0.27641904 0.27296382 1.8140001
0.29369527 0.27296382 1.8140001
0.30406097 0.27296382 1.8140001
0.31442666 0.27469143 1.8140001
0.32565621 0.27555525 1.8140001
0.33515811 0.27296382 1.8140001
0.34379619 0.27296382 1.8140001
0.35934478 0.27296382 1.8140001
0.36452764 0.27296382 1.8140001
-0.12231543 0.34621483 1.8140001
-0.1174781 0.34206858 1.8140001
-0.15548572 0.35934481 1.8140001
-0.14512001 0.35934481 1.8140001
-0.13475429 0.35819301 1.8140001
-0.12525238 0.35329813 1.8140001
-0.093291432 0.35588953 1.8140001
-0.086380959 0.35761714 1.8140001
-0.079470478 0.35934478 1.8140001
-0.17552611 0.36625525 1.8140001
-0.16757904 0.36798286 1.8140001
-0.15548573 0.36674884 1.8140001
-0.14166477 0.36625525 1.8140001
-0.07774286 0.3628 1.8140001
-0.16585143 0.37316573 1.8140001
-0.15548572 0.37489334 1.8140001
-0.14512001 0.37489337 1.8140001
-0.19522096 0.38525909 1.8140001
-0.15433398 0.38122797 1.8140001
-0.14512001 0.38525909 1.8140001
-0.12784381 0.38353145 1.8140001
-0.11402286 0.38698667 1.8140001
-0.11402286 0.39044192 1.8140001
0.0069104764 0.59775621 1.8140001
0.010365714 0.59775621 1.8140001
0.067953013 0.59545273 1.8140001
0.076706283 0.59568304 1.8140001
0.082925715 0.59602857 1.8140001
-0.020731429 0.60812193 1.8140001
-0.016124444 0.60236317 1.8140001
-0.0046069841 0.60236317 1.8140001
0.0034552382 0.60466671 1.8140001
0.078318737 0.60351491 1.8140001
0.084998861 0.60604876 1.8140001
0.09559492 0.60697013 1.8140001
0.1043482 0.60604876 1.8140001
0.11402286 0.60812193 1.8140001
0.12093334 0.60812193 1.8140001
-0.027641905 0.61848766 1.8140001
0.0030233334 0.61460048 1.8140001
0.086380959 0.61503237 1.8140001
0.10711239 0.61157715 1.8140001
0.00086380955 0.62453431 1.8140001
0.088108577 0.62712574 1.8140001
-0.0048373332 0.63645494 1.8140001
0 0.63576382 1.8140001
0.089836195 0.6323086 1.8140001
0.09559492 0.63576382 1.8140001
0.1002019 0.63921905 1.8140001
-0.010365714 0.64612955 1.8140001
-0.0048373332 0.64543849 1.8140001
0.0013820953 0.64682066 1.8140001
0.096746668 0.64440191 1.8140001
0.10227505 0.64751166 1.8140001
-0.010365714 0.65649527 1.8140001
-0.0051828572 0.65822291 1.8140001
0.002303492 0.65534359 1.8140001
0.096746668 0.65649527 1.8140001
0.10365715 0.65649527 1.814
-0.010365714 0.66340572 1.8140001
0.10365715 0.66340572 1.8140001
-0.013129905 0.67584455 1.8140001
0.10711239 0.67031622 1.8140001
-0.020731429 0.68240952 1.8140001
-0.014512001 0.68206406 1.8140001
0.15981714 0.25536001 1.8240001
0.16502857 0.25536001 1.8240001
0.1713981 0.25593904 1.824
0.33700573 0.25362286 1.8240001
0.34569144 0.25709715 1.8240001
0.35090286 0.25709715 1.8240001
0.15634286 0.26057145 1.8240001
0.1737143 0.26057145 1.8240001
0.18413715 0.26288763 1.824
0.19542857 0.26491427 1.8240001
0.20498288 0.26404572 1.824
0.21627429 0.26317716 1.8240001
0.22409144 0.26404572 1.8240001
0.23972572 0.26752001 1.8240001
0.24493715 0.26752001 1.8240001
0.25362289 0.26752001 1.8240001
0.26404572 0.26752001 1.824
0.27446857 0.26752001 1.824
0.28489146 0.26752001 1.824
0.29531431 0.26752001 1.8240001
0.30400002 0.26752001 1.8240001
0.33283657 0.2661303 1.8240001
0.34325942 0.26404572 1.8240001
0.35321903 0.2652038 1.824
0.27794287 0.27099431 1.8240001
0.30921143 0.27099431 1.8240001
0.31685486 0.27238399 1.8240001
0.32484573 0.27273142 1.8240001
0.33353147 0.27099431 1.824
0.35437715 0.27099431 1.8240001
-0.20845716 0.33353144 1.8240001
-0.12333715 0.35785145 1.8240001
-0.11465143 0.35611433 1.8240001
-0.19108573 0.3682743 1.8240001
-0.18297906 0.36595809 1.824
-0.15286858 0.3682743 1.8240001
-0.14765716 0.36653715 1.8240001
-0.13636573 0.36480001 1.8240001
-0.12854858 0.36132574 1.8240001
-0.092068583 0.36480001 1.8240002
-0.085120007 0.36653715 1.8240001
-0.078171432 0.3682743 1.8240001
-0.18066287 0.3717486 1.8240001
-0.17440914 0.37591773 1.8240001
-0.16676572 0.37869716 1.8240001
-0.14649905 0.37522289 1.8240002
-0.13549715 0.37522289 1.8240002
-0.12854858 0.37522283 1.824
-0.092937142 0.3743543 1.8240001
-0.079908572 0.3717486 1.8240001
-0.19224381 0.38332954 1.824
-0.16676572 0.38390857 1.8240001
-0.14592001 0.38425604 1.8240001
-0.13665526 0.38622475 1.8240002
-0.12333715 0.38738286 1.8240001
-0.11638857 0.38738286 1.8240001
-0.13897143 0.39433146 1.8240001
-0.12437943 0.39398402 1.8240001
-0.11812572 0.39259431 1.8240001
0.0069485717 0.59757715 1.8240001
0.067748576 0.59410286 1.8240001
0.076434284 0.5932343 1.8240001
0.085699052 0.59526092 1.824
0.092937149 0.59583998 1.8240001
0.10075429 0.59583998 1.8240001
-0.020845715 0.60800004 1.8240001
-0.012159999 0.60105145 1.8240001
-0.0052114287 0.60105145 1.8240001
0.0011580953 0.60220951 1.824
0.013202285 0.60383093 1.8240001
0.067169525 0.60336763 1.824
0.075565711 0.6053943 1.8240001
0.086857148 0.60452574 1.824
0.093371436 0.60409141 1.8240002
0.10353372 0.60313594 1.8240001
0.11395657 0.60661036 1.8240001
-0.026057143 0.61494863 1.8240001
0.010422857 0.61147434 1.8240001
0.078750484 0.61494857 1.824
0.08338286 0.61842287 1.8240001
-0.034742858 0.62537146 1.8240001
0.0052114287 0.62537146 1.8240001
0.079908572 0.62189716 1.8240001
0.084772572 0.62467659 1.8240001
0.0026057144 0.6366629 1.8240001
0.086857148 0.63405716 1.8240001
0.092068575 0.63926858 1.8240001
0.0046323813 0.64621717 1.824
0.010422857 0.64969146 1.8240001
0.092937142 0.64534855 1.8240001
-0.0057904762 0.65548199 1.824
0.0069485717 0.65316576 1.8240001
0.013897143 0.65490294 1.8240002
0.020845715 0.65490294 1.8240001
0.095542856 0.65490294 1.8240001
-0.0069485717 0.66706288 1.8240001
0.094384767 0.66358858 1.8240002
0.085120007 0.67053717 1.8240001
0.097280003 0.67227435 1.8240001
0.10249144 0.67227429 1.8240001
0.1571143 0.25836572 1.8330001
0.17806287 0.25836572 1.8330001
0.1833 0.25836572 1.8330001
0.21646857 0.25836572 1.8330001
0.22519715 0.25836572 1.8330001
0.2304343 0.25836572 1.8330001
0.32644856 0.25487429 1.8330001
0.33401334 0.25720191 1.8330001
0.3447786 0.25574714 1.8330001
0.18679143 0.26185715 1.8330001
0.19552 0.26185715 1.8330001
0.20948572 0.26185715 1.8330001
0.21472287 0.26185715 1.8330001
0.22519715 0.26185715 1.8330001
0.23322745 0.26395202 1.8329999
0.24440001 0.26534858 1.8330001
0.25574717 0.26447573 1.8330001
0.26534858 0.26360285 1.8330001
0.27512461 0.26395199 1.8329999
0.28629711 0.26534858 1.8330001
0.29502571 0.26534858 1.8330001
0.3037543 0.26534858 1.8330001
0.31422856 0.26884001 1.8330001
0.32520166 0.26634613 1.8330001
0.33605 0.26273 1.8330001
0.34565145 0.26185715 1.8330001
0.35612571 0.26418477 1.8330001
0.36485428 0.26884001 1.8330001
-0.21530478 0.33401334 1.8330001
-0.20774001 0.33866858 1.8330001
-0.11172572 0.35961714 1.8330001
-0.10125143 0.35961714 1.8330001
-0.097760007 0.35961714 1.8330001
-0.19202858 0.36660001 1.8330001
-0.18853715 0.36660001 1.8330001
-0.13267429 0.36660001 1.8330001
-0.12569143 0.36485428 1.8330001
-0.10125143 0.36660001 1.8330001
-0.097760007 0.36485428 1.8330001
-0.19412345 0.37428111 1.8329999
-0.18620951 0.37474665 1.8330001
-0.13442001 0.37009144 1.8330001
-0.12510952 0.37358287 1.8330001
-0.11521715 0.3770743 1.8330001
-0.10334629 0.37497944 1.8329999
-0.096014291 0.37445572 1.8330001
-0.084492579 0.37567773 1.8329999
-0.074716575 0.37428111 1.8329999
-0.069828577 0.3753286 1.8330001
-0.19552 0.38172951 1.8330001
-0.18504572 0.38405716 1.8329999
-0.17507021 0.38505468 1.8330001
-0.13442001 0.38405716 1.8330001
-0.12499315 0.38266057 1.8329999
-0.11405334 0.38405716 1.8330001
-0.10474285 0.38405716 1.8329999
-0.094268583 0.38449362 1.8330001
-0.08429306 0.38305956 1.8330001
-0.076811433 0.38056573 1.8330001
-0.19202858 0.3945314 1.8330001
-0.18504572 0.39104003 1.8330001
-0.17108001 0.39104003 1.8330001
-0.13442001 0.39453143 1.8330001
-0.12918286 0.39104003 1.8330001
-0.11172572 0.39104003 1.8330001
-0.10561572 0.39191288 1.8330001
-0.094268583 0.39336765 1.8330001
-0.085889146 0.39522973 1.8329999
-0.090777144 0.40151429 1.8330001
-0.08728572 0.40151429 1.8330001
0.0034914284 0.59528857 1.8330001
0.013466939 0.59454048 1.8330001
0.020948572 0.59703434 1.8330001
0.066337146 0.59470671 1.8330001
0.075065717 0.59179717 1.8330001
0.083096005 0.59214628 1.8329999
0.094268575 0.59528863 1.8330001
0.10474286 0.59703434 1.8330001
-0.012220001 0.60052574 1.8330001
-0.005237143 0.60052574 1.8330001
0.0017457143 0.60052574 1.8330001
0.014838573 0.60227144 1.8330001
0.023276193 0.60343528 1.8330001
0.059354287 0.60401714 1.8330001
0.062845714 0.60401714 1.8330001
0.094268575 0.60052574 1.8330001
0.10707048 0.60168952 1.8330001
0.11172572 0.60401714 1.8330001
-0.027931429 0.61798286 1.8330001
0.015129524 0.61449146 1.8330001
0.020948572 0.61449146 1.8330001
0.06773372 0.61379319 1.8329999
0.074192859 0.61536431 1.8330001
-0.031422857 0.62496573 1.8330001
0.0069828574 0.62845719 1.8330001
0.010474286 0.62147433 1.8330001
0.068082862 0.62322003 1.8330001
0.075065717 0.62322003 1.8330001
0.080302857 0.62845719 1.8330001
0.0069828574 0.63544005 1.8330001
0.069828577 0.63893145 1.8330001
0.076811433 0.63893145 1.8330001
0.081699431 0.63613832 1.8329999
-0.066337146 0.64940572 1.8330001
0.0069828574 0.64591432 1.8330001
0.010474286 0.64766002 1.8330001
0.076811433 0.64242285 1.8330001
0.084230714 0.64547789 1.8330001
0.090777144 0.64940572 1.8330001
-0.068082862 0.65289718 1.8330001
0.01571143 0.65289718 1.8330001
0.025138289 0.65708691 1.8329999
0.085540004 0.65638858 1.8330001
0.090777136 0.65638858 1.8330001
0.086121909 0.66569906 1.8330001
0.090777144 0.66686291 1.8330001
0.083794288 0.67035431 1.8330001
0.091940962 0.67268199 1.8330001
-0.2852262 0.11847857 1.8430001
-0.27732763 0.11935619 1.8430001
-0.28259334 0.12286667 1.8430001
-0.27732763 0.12286667 1.8430001
0.18956572 0.25977525 1.8430001
0.19483143 0.25977525 1.8430001
0.20360762 0.25977525 1.8430001
0.21343696 0.25766897 1.8430001
0.22379287 0.25714239 1.8430001
0.23520191 0.25860509 1.8430001
0.25977525 0.25977525 1.8430001
0.26504096 0.25977525 1.8430001
0.27381715 0.25977525 1.8430001
0.31945336 0.25977525 1.8430001
0.32647431 0.25977525 1.8430001
0.33700573 0.25802001 1.8430001
0.20536287 0.26328573 1.8430001
0.23871239 0.26328573 1.8430001
0.24573334 0.26328573 1.8430001
0.25450954 0.26328573 1.8430001
0.28434858 0.26328573 1.8430001
0.29488 0.26328573 1.8430001
0.30541143 0.26328573 1.8430001
0.31594288 0.26504096 1.8430001
0.32471907 0.26328573 1.8430001
-0.22116001 0.33700573 1.8430001
-0.22116001 0.34051621 1.8430001
-0.21413906 0.34168637 1.8430001
-0.20360763 0.34227145 1.8430001
-0.19483143 0.36684477 1.8430001
-0.18956572 0.36508954 1.8430001
-0.12286667 0.36860001 1.8430001
-0.11584572 0.36684477 1.8430001
-0.10631729 0.36508957 1.8430002
-0.20009714 0.37562096 1.8430001
-0.12286667 0.37211049 1.8430001
-0.11584572 0.37518215 1.8430002
-0.10706953 0.37386572 1.8430001
-0.20009714 0.38264191 1.8430001
-0.11654781 0.3854503 1.8430001
-0.082496196 0.38966286 1.8430001
-0.073720001 0.38615242 1.8430002
-0.06669905 0.38439715 1.8430001
-0.18605524 0.39580619 1.8430001
-0.17727906 0.39492857 1.8430001
-0.11233524 0.39668381 1.8430001
-0.10355905 0.39668381 1.8430001
-0.09390524 0.39580619 1.8430001
-0.081911117 0.3943435 1.8430001
-0.18517762 0.40107191 1.8430001
-0.17786413 0.40136445 1.8430001
-0.1333981 0.40194952 1.8430001
-0.12988763 0.40194952 1.8430001
-0.11233524 0.40194952 1.8430001
-0.10531429 0.4019495 1.8430001
-0.096538097 0.40194952 1.8430001
0.0017552382 0.58976001 1.8430001
0.012286667 0.58976001 1.8430001
0.026328571 0.58800477 1.8430001
0.075475238 0.58976001 1.8430001
0.082496196 0.58976001 1.8430001
-0.0046806349 0.5956108 1.8430001
0.0035104763 0.59327048 1.8430001
0.015797144 0.59327048 1.8430001
0.022818096 0.59502572 1.8430001
0.059678096 0.59678096 1.8430001
0.063188575 0.59678096 1.8430001
0.071964763 0.59327048 1.8430001
0.087761909 0.59327048 1.8430001
0.094782859 0.59678096 1.8430001
-0.014041905 0.60380191 1.8430001
-0.0052657146 0.60029143 1.8430001
0.024573334 0.60029143 1.8430001
0.058507938 0.60380191 1.8430001
-0.024573334 0.61433333 1.8430001
0.024573334 0.61257809 1.8430001
0.059678096 0.61433333 1.8430001
0.063188575 0.61608857 1.8430001
-0.031594288 0.62486476 1.8430001
0.014041905 0.62486476 1.8430001
0.021062858 0.62486476 1.8430001
0.059678096 0.62486476 1.8430001
0.063188575 0.62486476 1.8430001
0.070209526 0.62135428 1.8430001
0.010531429 0.63890672 1.8430001
0.065821432 0.63451862 1.8430001
0.073720001 0.63539624 1.8430002
-0.070209526 0.64943814 1.8430001
-0.064943813 0.64943814 1.8430001
0.010531429 0.64417243 1.8430001
0.064943813 0.64241719 1.8430001
0.073134921 0.64709783 1.8430001
0.077230476 0.65645909 1.8430001
0.080740958 0.65645909 1.8430001
0.077230476 0.66348004 1.8430001
0.081911117 0.66582036 1.8430001
0.077230476 0.67050099 1.8430001
0.080740958 0.67050099 1.8430001
-0.29295048 0.11470953 1.853
-0.28518552 0.11435658 1.853
0.20824191 0.25765523 1.853
0.22941905 0.25412571 1.853
0.23471335 0.25589049 1.853
0.27883241 0.25765523 1.853
0.31412762 0.25765523 1.853
0.32295144 0.25589049 1.853
0.20471239 0.26118478 1.853
0.24530192 0.26118478 1.853
0.25412571 0.26118478 1.853
0.28589144 0.26118478 1.853
0.29471523 0.26118478 1.853
0.30353907 0.26118478 1.853
0.31412759 0.26118478 1.853
-0.23471335 0.32118669 1.853
-0.21530096 0.3476581 1.853
-0.20383 0.34854048 1.853
-0.19765334 0.3476581 1.853
-0.21177144 0.35295239 1.853
-0.19765334 0.3670705 1.853
-0.20471239 0.37765905 1.853
-0.20471239 0.38295335 1.853
-0.070590481 0.39354193 1.853
0.003529524 0.56472385 1.853
0.001764762 0.58943051 1.853
0.014118095 0.58943051 1.853
0.025412571 0.58660692 1.853
0.034706984 0.5870775 1.853
0.044472001 0.58660686 1.853
0.063531429 0.58943051 1.853
0.074120007 0.58943051 1.853
0.081179053 0.58943051 1.853
-0.0058825403 0.59413654 1.853
0.0070590479 0.59296 1.853
0.01764762 0.59296 1.853
0.025883175 0.59413654 1.853
0.032942224 0.59413654 1.853
0.045883812 0.59472477 1.853
0.063531429 0.59472471 1.853
0.070590481 0.59296 1.853
0.091767624 0.59648955 1.853
-0.010588571 0.6000191 1.853
0.02823619 0.60354859 1.853
0.032648094 0.60443097 1.853
0.047295619 0.60425454 1.853
0.05470762 0.60354859 1.853
0.028236192 0.61590195 1.853
0.032648094 0.61501956 1.853
0.049413335 0.61590195 1.853
0.054354675 0.61484307 1.853
-0.031765714 0.62472576 1.853
0.026471429 0.62472576 1.853
0.034854047 0.62428457 1.8529999
0.046324998 0.62428457 1.8529999
0.054707628 0.62472576 1.853
0.060001906 0.62825525 1.853
-0.035295241 0.6317848 1.853
0.014559288 0.63575554 1.8529999
0.021177143 0.63354957 1.853
0.035295241 0.6317848 1.853
0.047648571 0.6317848 1.853
0.05470762 0.63354957 1.853
0.061766669 0.63707906 1.853
0.015529906 0.64590287 1.853
0.021177143 0.64237338 1.853
0.063531429 0.64678526 1.853
0.015882859 0.65472668 1.853
0.025883175 0.65531492 1.853
0.033530477 0.65649146 1.853
0.065296188 0.65296191 1.853
0.07412 0.65649146 1.853
-0.07412 0.66002095 1.853
0.026471429 0.66002095 1.853
0.035295241 0.6629622 1.853
0.07323762 0.66443288 1.853
0.077649526 0.67060953 1.853
-0.29275715 0.11000572 1.863
-0.28152001 0.1135543 1.863
0.30162859 0.2484 1.863
0.21646287 0.25549716 1.863
0.22356001 0.25549716 1.863
0.26850858 0.25786287 1.863
0.27501428 0.25727144 1.863
0.28477287 0.25638431 1.863
0.29503837 0.25549716 1.863
0.30467024 0.25651103 1.863
0.31582287 0.25638431 1.863
-0.23420572 0.31937143 1.863
-0.22356001 0.34776002 1.863
-0.22119431 0.35367429 1.863
-0.21528 0.35722288 1.863
-0.20759144 0.35663143 1.863
-0.21468857 0.3619543 1.863
-0.20581715 0.3619543 1.863
-0.21409714 0.37733141 1.863
-0.2067043 0.37614858 1.863
-0.21291429 0.38502002 1.863
-0.20936573 0.38502002 1.863
-0.076294288 0.39744002 1.863
-0.065648571 0.39566571 1.863
-0.076294288 0.40098858 1.863
-0.0053228573 0.56777143 1.863
0.0035485716 0.56777143 1.863
0.012420001 0.56777143 1.863
-0.012420001 0.57841718 1.863
-0.0059142858 0.57723433 1.863
0 0.57841718 1.863
0.026614286 0.57841718 1.863
0.03371143 0.57841718 1.863
0.065648571 0.57841718 1.863
0.072154284 0.57605147 1.863
-0.010645715 0.58196574 1.863
-0.0053228573 0.58551431 1.863
0.0030416327 0.58652818 1.863
0.014194286 0.58728862 1.863
0.024130287 0.58480459 1.8630002
0.036077145 0.58433145 1.863
0.046131428 0.58480459 1.8630002
0.055002861 0.58728862 1.863
0.063874289 0.58551425 1.863
0.073337145 0.58669716 1.863
0.081617147 0.58906287 1.863
-0.010645715 0.59793431 1.863
-0.0053228573 0.59261143 1.863
0.0070971432 0.59261143 1.863
0.037851434 0.59852576 1.863
0.046841145 0.59686971 1.8630002
0.055002857 0.59615999 1.863
0.087531425 0.59379429 1.863
0.094037145 0.59793431 1.863
-0.014194286 0.60680574 1.863
0.037260003 0.60503149 1.863
0.044948574 0.60444003 1.863
0.099360004 0.60325718 1.863
-0.021291429 0.61390287 1.863
-0.017742857 0.6103543 1.863
0.03761486 0.61461258 1.8630002
0.044948574 0.61449426 1.863
-0.028388573 0.62100005 1.863
0.039034288 0.62100005 1.863
0.044357143 0.62100005 1.863
-0.035485715 0.63164574 1.863
0.026614286 0.63696861 1.863
0.036077145 0.63637716 1.863
0.044712 0.63661373 1.8630002
0.017742857 0.64938861 1.863
0.025283573 0.64584005 1.863
0.035485715 0.64584005 1.863
0.046131428 0.64584011 1.863
0.055002857 0.64583999 1.863
0.060325716 0.64406574 1.863
0.024840001 0.6543566 1.8630002
0.035485715 0.65471143 1.863
0.043765713 0.65412003 1.863
0.055002861 0.65293717 1.863
0.060325716 0.65471148 1.863
0.021291429 0.6600343 1.863
0.039034288 0.66180861 1.863
0.045117553 0.66307592 1.863
0.056777146 0.66535711 1.863
0.064888172 0.66307592 1.863
0.070971429 0.66358286 1.863
0.044357143 0.67068005 1.863
0.067422859 0.67068005 1.863
-0.29254478 0.10702857 1.8730001
-0.28778794 0.10583936 1.8730001
-0.28540951 0.11059619 1.8730001
-0.27470669 0.11594763 1.8730001
-0.27470669 0.12308285 1.8730001
-0.26757145 0.12486666 1.8730001
-0.24616572 0.12843429 1.8730001
0.30681524 0.24973334 1.8730001
0.31038287 0.24973334 1.8730001
0.21405715 0.25508478 1.8730001
0.22476001 0.25686857 1.8730001
0.26757145 0.25686857 1.8730001
0.28719336 0.25686857 1.8730001
0.29432857 0.25686857 1.8730001
0.30681524 0.25330096 1.8730001
0.31038287 0.25330096 1.8730001
0.2425981 0.26043621 1.8730001
0.25686857 0.26043621 1.8730001
0.26222003 0.26043621 1.8730001
-0.23724668 0.31395051 1.8730001
-0.22654381 0.31216669 1.8730001
-0.22832763 0.34605905 1.8730001
-0.22476001 0.3531943 1.8730001
-0.22297619 0.36389711 1.8730001
-0.21316524 0.36657286 1.8730001
-0.2051381 0.36568096 1.8730001
-0.19800287 0.36389717 1.8730001
-0.22208428 0.37549192 1.8730001
-0.21405713 0.37281621 1.8730001
-0.20692191 0.37281621 1.8730001
-0.22208428 0.38441098 1.8730001
-0.21762477 0.38530287 1.8730001
-0.010702858 0.57795429 1.8730001
-0.0047568255 0.57557589 1.8730001
0.0017838096 0.5761705 1.8730001
0.015162382 0.57438672 1.8730001
0.024973333 0.57795429 1.8730001
0.032108571 0.57795429 1.8730001
0.06493067 0.57652724 1.8730001
0.071352385 0.57438672 1.8730001
-0.015162382 0.58508956 1.8730001
0.0053514289 0.58330572 1.8730001
0.014270477 0.58330578 1.8730001
0.021405715 0.58330572 1.8730001
0.03924381 0.58152193 1.8730001
0.046379048 0.58271116 1.8730001
0.055892702 0.58390039 1.8730001
0.060649525 0.58152193 1.8730001
0.07706058 0.58437604 1.8730001
0.084433652 0.5850895 1.8730001
-0.014270477 0.59650594 1.8730001
0.095136516 0.59698164 1.8730001
-0.014270477 0.60471141 1.8730001
-0.032108571 0.62790096 1.8730001
-0.024973335 0.62076575 1.8730001
-0.035676192 0.63146859 1.8730001
-0.053514287 0.65287429 1.8730001
0.049946669 0.65644193 1.8730001
-0.073136196 0.66357714 1.8730001
0.048757464 0.66238803 1.8730001
0.054941334 0.66286361 1.8730001
0.060649525 0.66714478 1.8730001
0.049946669 0.67071241 1.8730001
0.053514287 0.67071241 1.8730001
0.060649525 0.67071241 1.8730001
