# .PCD v0.7 - Point Cloud Data file format
VERSION 0.7
FIELDS x y z
SIZE 4 4 4
TYPE F F F
COUNT 1 1 1
WIDTH 1453
HEIGHT 1
VIEWPOINT 0 0 0 1 0 0 0
POINTS 1453
DATA ascii
0.024490161 0.24264224 1.7530001
0.033426665 0.24403432 1.755
0.043434285 0.24389523 1.7540001
0.053607624 0.24458477 1.7589999
0.060308572 0.24458475 1.7590002
0.033504762 0.25296095 1.7589999
0.043975003 0.25421739 1.7589999
0.053510476 0.25420192 1.756
0.060000002 0.25 1.7500001
0.05357524 0.26453906 1.7579999
0.053607624 0.27138859 1.7590002
-0.11056572 0.66339433 1.7590001
-0.10453486 0.66540462 1.7590001
-0.11279937 0.67456251 1.7590002
-0.10337006 0.67340177 1.7557274
-0.095377684 0.67193204 1.7525715
-0.12313001 0.68098432 1.7590001
-0.11364587 0.68393177 1.7548465
-0.1045031 0.68385673 1.755625
-0.096915245 0.68342382 1.7545002
-0.11000001 0.69333339 1.7500001
-0.10344596 0.69396734 1.7589999
-0.097163819 0.69354862 1.7590002
0.26468763 0.74380577 1.7590001
-0.030308573 -0.22226286 1.7680001
-0.023573333 -0.22226286 1.7680001
-0.030308573 -0.21721143 1.7680001
-0.022731429 -0.21805334 1.7680001
-0.016838096 -0.21216001 1.7680001
-0.033676192 -0.20205715 1.7680001
-0.020205716 -0.20542477 1.7680001
-0.016838096 -0.20710859 1.7680001
-0.0067352382 -0.20879239 1.7680001
-0.03704381 -0.1919543 1.7680001
-0.033676192 -0.18437715 1.7680001
-0.025257144 -0.18185143 1.7680001
-0.022226285 -0.1751162 1.768
-0.014031746 -0.17455493 1.768
-0.0067352382 -0.1751162 1.7680001
0 -0.17174858 1.7680001
-0.021889525 -0.16501334 1.7680001
-0.013951565 -0.16549443 1.7679999
-0.0067352382 -0.16164573 1.7680001
-0.010102858 -0.15827811 1.7680001
-0.004490159 -0.15491049 1.7680001
0.0025257142 -0.15575239 1.7680001
0.023573333 -0.15154286 1.7680001
-0.0033676191 -0.14817524 1.7680001
0.0033676194 -0.14312382 1.768
0.012796951 -0.14278705 1.768
0.033676192 -0.14817524 1.7680001
0.040411431 -0.14817524 1.7680001
0.004209524 -0.13723047 1.7680001
0.013470477 -0.13638857 1.768
0.023012064 -0.13470477 1.768
0.033676192 -0.13217905 1.7680001
0.04209524 -0.13133715 1.7680001
-0.0033676191 -0.12796953 1.7680001
0.024695875 -0.12404064 1.768
0.033676192 -0.12628573 1.7680001
0.043105524 -0.12392839 1.768
0.025257146 -0.11449904 1.768
0.033676192 -0.11449905 1.7679999
0.042432003 -0.1158461 1.768
0.025593907 -0.10506971 1.768
0.035921272 -0.10327365 1.7680001
0.043779049 -0.10495746 1.768
0.026940951 -0.094293334 1.7680001
0.030308573 -0.094293334 1.7680001
0.024054423 -0.083228298 1.7679999
0.032329146 -0.082843438 1.768
0.040411431 -0.080822863 1.7680001
0.02492038 -0.073414102 1.768
0.034237463 -0.07408762 1.768
0.043779049 -0.070720002 1.7680001
0.025257144 -0.067352384 1.7680001
0.034237463 -0.064546041 1.768
0.043779049 -0.065668575 1.768
0.035360001 -0.053881906 1.7680001
0.04209524 -0.057249527 1.7680001
0.035360001 -0.031992383 1.7680001
0.04209524 -0.031992383 1.7680001
0.21552762 -0.033676192 1.7680001
0.033676192 -0.023573333 1.7680001
0.25818413 -0.021328256 1.7680001
0.2660419 -0.021328256 1.7680001
0.27277714 -0.025257144 1.7680001
0.033676192 -0.015154285 1.7680001
0.04209524 -0.015154285 1.7680001
0.25818413 -0.014593015 1.7680001
0.2643581 -0.016838096 1.7680001
0.04209524 -0.0033676191 1.7680001
0.10608 0.0067352382 1.7680001
0.10776381 0.010102858 1.7680001
0.045462858 0.047146667 1.7680001
0.050514288 0.04209524 1.7680001
0.041533973 0.053881902 1.7680001
0.035360001 0.067352384 1.7680001
0.040411431 0.063984767 1.7680001
0.033255242 0.074087612 1.7679999
0.031655621 0.083516955 1.768
0.030308573 0.094293334 1.7680001
0.016838096 0.10776381 1.7680001
0.024415238 0.10355429 1.7680001
0.004490159 0.11562159 1.7680001
0.011786667 0.11449905 1.7680001
0.0033676191 0.12123429 1.7680001
0.010102858 0.12123429 1.7680001
0.013470476 0.16838096 1.7680001
0.0067352382 0.17848381 1.7680001
0.010102858 0.17343238 1.7680001
0.047146667 0.17680001 1.7680001
0.0050514285 0.18353525 1.7680001
0.04445257 0.18521905 1.768
0.011786667 0.19868954 1.7680001
0.041253336 0.19616382 1.7680001
0.012796951 0.20475125 1.768
0.045462858 0.20458287 1.7680001
0.016838096 0.21216001 1.7680001
0.035360001 0.25930667 1.7680001
0.040411431 0.25930667 1.7680001
0.046304762 0.26520002 1.7680001
0.047146667 0.27277714 1.7680001
-0.11225396 0.66342098 1.7680001
-0.1052381 0.66342098 1.7680001
-0.097660959 0.66678858 1.7680001
-0.1229181 0.67689145 1.7680001
-0.11449905 0.67352384 1.768
-0.097660959 0.67015624 1.7680001
-0.12460191 0.68025905 1.7680001
-0.11449905 0.68025905 1.7680001
0.25425524 0.69709718 1.7680001
0.25593907 0.70383239 1.7680001
0.25593904 0.71056765 1.7680001
0.2643581 0.71561903 1.7680001
0.26828697 0.721793 1.7680001
0.27951241 0.73245716 1.7680001
0.28288001 0.73245716 1.7680001
0.26828697 0.74536639 1.7680001
0.27530286 0.74676961 1.7680001
0.28624761 0.74312133 1.768
0.26738894 0.7536732 1.768
0.27572381 0.7539258 1.7679999
0.28692117 0.75232607 1.768
0.29298288 0.75097907 1.7680001
-0.044566035 -0.23354858 1.7770001
-0.032155238 -0.23016381 1.7770001
-0.023693332 -0.23016381 1.7770001
-0.016923809 -0.23016381 1.7770001
-0.045694288 -0.22339429 1.7770001
-0.03300143 -0.22424048 1.7770001
-0.023693332 -0.22677906 1.7770001
-0.032719363 -0.21436827 1.7770001
-0.024370287 -0.21459392 1.7770001
-0.033170667 -0.20782439 1.7770001
-0.024370287 -0.20850134 1.7770001
-0.040617146 -0.1963162 1.7770001
-0.037232384 -0.19800858 1.7770001
-0.037232384 -0.18616191 1.7770001
-0.031816762 -0.17668459 1.7770001
-0.025385715 -0.17600763 1.7770001
-0.030462855 -0.16585334 1.7770001
-0.02417687 -0.16585335 1.7770002
-0.013539048 -0.16246858 1.7770001
-0.030462857 -0.15739143 1.7770001
-0.023016382 -0.15705296 1.7770001
-0.014103174 -0.15569906 1.7770001
-0.006769524 -0.15400667 1.7770001
-0.011000477 -0.14469858 1.7770001
-0.0054156194 -0.14486781 1.7770001
-0.011000477 -0.1345443 1.7770001
-0.0050771427 -0.13539048 1.7770001
0.0027078097 -0.13335961 1.7770001
0.013539049 -0.13200572 1.7770001
0.020308573 -0.13200572 1.7770001
-0.010154286 -0.1252362 1.7770001
-0.0067695244 -0.1252362 1.7770001
0.004738667 -0.1265901 1.7770001
0.013539047 -0.1252362 1.7770002
0.021436825 -0.12636444 1.7770001
-0.0050771432 -0.11846667 1.7770001
0.006769524 -0.11846667 1.7770001
0.014892953 -0.11643581 1.7770001
0.020308573 -0.11508191 1.7770001
0.045694288 -0.11338952 1.7770001
0.015231429 -0.10831238 1.7770001
0.021154761 -0.10408143 1.7770001
0.022000954 -0.09477333 1.7770001
0.014216 -0.083265148 1.7770001
0.022000954 -0.088003814 1.7770001
0.015231428 -0.074464768 1.7770001
0.022000954 -0.07531096 1.7770001
0.030462857 -0.07784953 1.7770001
0.015231429 -0.066002861 1.7770001
0.023209795 -0.063343406 1.7770002
0.030462857 -0.062618092 1.7770001
0.042309526 -0.060925715 1.7770001
0.034524571 -0.054833144 1.7770001
0.043324955 -0.052125335 1.7770001
0.03554 -0.044001907 1.7770001
0.043518368 -0.044001903 1.7770002
0.026231904 -0.03300143 1.7770001
0.032493718 -0.035201527 1.7770001
0.044848099 -0.036386192 1.7770001
0.026231907 -0.023693334 1.7770001
0.033847623 -0.023693336 1.7770001
0.042309523 -0.023693332 1.7770001
0.27416572 -0.022565082 1.7770001
0.027078096 -0.016923809 1.7770001
0.033847623 -0.01305551 1.7770002
0.042309526 -0.010154286 1.7770001
0.2646884 -0.011508191 1.7770001
0.27303746 -0.014103174 1.7770001
0.28389692 -0.013115952 1.7770002
0.29108953 -0.010154286 1.7770001
0.03554 -0.0050771432 1.7770001
0.042309526 -0.006769524 1.7770001
0.26062667 -0.006769524 1.7770001
0.28432003 -0.0050771427 1.7770001
0.29278192 -0.0050771432 1.7770001
0.036386192 0.0025385716 1.7770001
0.041745398 0.002256508 1.7770001
0.28601238 0.0033847622 1.7770001
0.29108953 0.0033847622 1.7770001
0.023693334 0.016923809 1.7770001
0.037232384 0.013539049 1.7770001
0.041463338 0.014385238 1.7770001
0.037232384 0.020308573 1.7770001
0.040617146 0.020308573 1.7770001
0.037232384 0.047386669 1.7770001
0.044001907 0.043437779 1.7770001
0.036386192 0.053309999 1.7770001
0.040617146 0.05077143 1.7770001
0.015231429 0.067695238 1.7770001
0.023693332 0.067695238 1.7770001
0.033364084 0.063343398 1.7770002
0.013539048 0.072772384 1.7770001
0.023693334 0.074464761 1.7770002
0.025385715 0.084619053 1.7770001
0.024821587 0.095901601 1.7770001
0.015231429 0.10492762 1.7770001
0.022000954 0.10154286 1.7770001
0.0025385716 0.11423571 1.7770001
0.010154286 0.11338952 1.7770001
0.05077143 0.17600763 1.7770001
0.0050771432 0.18954667 1.7770001
0.047386669 0.18954667 1.7770001
0.052125335 0.18548496 1.7770001
0.0059233336 0.19547001 1.7770001
0.046032764 0.19563924 1.7770001
0.013539048 0.20985524 1.7770001
0.047386669 0.20647049 1.7770001
0.05077143 0.20647049 1.7770001
0.062618099 0.20647049 1.7770001
0.006769524 0.21493238 1.7770001
0.011846667 0.21324001 1.7770001
0.047386669 0.21324001 1.7770001
0.03554 0.26570383 1.7770001
0.041745398 0.26626796 1.7770001
0.03554 0.27078095 1.7770001
0.044001907 0.27331954 1.7770001
0.05077143 0.27755049 1.7770001
-0.10154286 0.66679811 1.7770001
-0.098158099 0.66679811 1.7770001
-0.12185143 0.67695242 1.7770001
-0.11677429 0.67695242 1.7770001
-0.093080953 0.67356765 1.7770001
0.23580509 0.69613266 1.7770001
0.24370284 0.69331211 1.7770001
0.25216478 0.69556856 1.7770001
0.23354858 0.70403051 1.7770001
0.24539524 0.70318431 1.7770001
0.25250325 0.70538443 1.7770001
0.26062667 0.70741528 1.7770001
0.23354858 0.71249247 1.7770001
0.24454904 0.71249247 1.7770001
0.25272891 0.71474892 1.7770001
0.26062667 0.71756953 1.7770001
0.25554955 0.72433907 1.7770001
0.26333445 0.725016 1.7770001
0.27416572 0.72772384 1.7770001
0.2572419 0.73110861 1.7770001
0.26739621 0.73449343 1.7770001
0.27374262 0.73491645 1.7770002
0.28262764 0.73110861 1.7770001
0.2545341 0.74667847 1.7770001
0.2646884 0.74532449 1.7770001
0.27464926 0.74368054 1.7770002
0.28319177 0.74408358 1.7770001
0.25385714 0.75480193 1.7770002
0.26231906 0.75480193 1.7770001
0.28601238 0.75480193 1.7770001
0.29278192 0.75141716 1.7770001
-0.052729525 -0.2355819 1.7860001
-0.04082286 -0.23303048 1.7860001
-0.036286984 -0.23359747 1.7860001
-0.051028568 -0.22452573 1.7860001
-0.042864002 -0.22452572 1.786
-0.037420955 -0.22452573 1.7860001
-0.051028568 -0.21432 1.7860001
-0.044224765 -0.21432 1.7860001
-0.037420955 -0.21772191 1.7860001
-0.051028568 -0.20411427 1.7860001
-0.043799527 -0.20411429 1.7860001
-0.037420955 -0.20411429 1.7860001
-0.04082286 -0.19050667 1.7860001
-0.04082286 -0.18710476 1.7860001
-0.034019049 -0.1717962 1.7860001
-0.034019049 -0.16499239 1.7860001
-0.033168573 -0.15563715 1.7860001
-0.02466381 -0.15478668 1.7860001
-0.013607619 -0.15478668 1.7860001
-0.030617144 -0.14968382 1.7860001
-0.021261906 -0.1471324 1.7860001
-0.015648764 -0.1469623 1.786
-0.015648764 -0.13675657 1.786
-0.013607618 -0.12587048 1.7860001
-0.0034019048 -0.12416953 1.7860001
0.0017009524 -0.12416953 1.7860001
-0.011339683 -0.11679874 1.7860001
-0.005102857 -0.11396381 1.7860001
0.0034019048 -0.11517877 1.7860001
0.011906668 -0.11396381 1.7860001
-0.010205715 -0.10545904 1.7860001
-0.0051028575 -0.10545906 1.7860001
0.0034019048 -0.10545905 1.7860001
0.013121634 -0.10448707 1.7860001
-0.010205715 -0.095253326 1.7860001
-0.0051028575 -0.095253341 1.7860001
0.0034019048 -0.095253333 1.7860001
0.01360762 -0.095253326 1.7860001
-0.005102857 -0.08844953 1.7860001
0.003827143 -0.085472859 1.7860001
0.012757143 -0.086748578 1.7860001
0.0068038092 -0.074841909 1.7860001
0.010205715 -0.074841909 1.7860001
0.0034019048 -0.065608166 1.7860001
0.012246857 -0.063275434 1.786
0.0034019048 -0.057832383 1.7860001
0.014032858 -0.054005243 1.7860001
0.023813335 -0.054430481 1.7860001
0.030617144 -0.052729525 1.7860001
0.014458096 -0.043374289 1.7860001
0.023813335 -0.044224765 1.7860001
0.030617142 -0.044224765 1.7860001
0.045925714 -0.044224765 1.7860001
0.01360762 -0.034019049 1.7860001
0.021772191 -0.034699433 1.786
0.014032858 -0.023388097 1.7860001
0.021772193 -0.023813333 1.786
0.2789562 -0.022112381 1.7860001
0.28576002 -0.023813335 1.7860001
0.29256383 -0.022112381 1.7860001
0.015308573 -0.01360762 1.7860001
0.023388097 -0.013182382 1.7860001
0.27782223 -0.012473651 1.7860001
0.28916192 -0.017009525 1.7860001
0.29596573 -0.01360762 1.7860001
0.30447048 -0.011906667 1.7860001
0.0068038097 -0.0034019048 1.7860001
0.014288001 -0.0047626668 1.786
0.023813335 -0.0051028575 1.7860001
0.030617144 -0.005102857 1.7860001
0.26704955 -0.005102857 1.7860001
0.27470383 -0.0059533333 1.7860001
0.29936764 -0.0068038097 1.7860001
0.30447048 -0.0068038097 1.7860001
0.0068038092 0.0034019046 1.7860001
0.01360762 0.0034019048 1.7860001
0.023813335 0.0034019048 1.7860001
0.031977907 0.0040822858 1.786
0.043090794 0.004535873 1.7860001
0.28235811 0.0034019046 1.7860001
0.0068038092 0.01360762 1.7860001
0.01360762 0.01360762 1.7860001
0.023813335 0.013182382 1.7860001
0.032318097 0.01360762 1.7860001
0.014579593 0.023327349 1.7860001
0.023813335 0.023813335 1.7860001
0.033593811 0.024238573 1.7860001
0.044650003 0.024238573 1.7860001
0.017009525 0.032318097 1.7860001
0.023813335 0.034019049 1.7860001
0.034019049 0.034019049 1.7860001
0.044224765 0.034019049 1.7860001
0.051028572 0.035720002 1.7860001
0.016159048 0.045075238 1.7860001
0.023813335 0.044224765 1.7860001
0.033593811 0.043799527 1.7860001
0.04082286 0.04082286 1.7860001
0.0068038097 0.057832383 1.7860001
0.014579593 0.054916468 1.7860001
0.023813335 0.054430481 1.7860001
0.031977907 0.055110861 1.786
0.0038878913 0.065608166 1.7860001
0.013121634 0.06366422 1.7860001
0.023813335 0.062935241 1.7860001
0.0034019048 0.074841902 1.7860001
0.013607619 0.076202676 1.786
0.0038878913 0.084075645 1.7860001
0.01360762 0.085047625 1.7860001
0.02041143 0.085047625 1.7860001
0.0068038097 0.098655239 1.7860001
0.014579593 0.09573932 1.7860001
0.021545397 0.092985399 1.7860001
-0.0034019046 0.10545904 1.7860001
0.0034019048 0.10545906 1.7860001
0.011056191 0.10460857 1.7860001
-0.0034019046 0.11566477 1.7860001
0 0.11226286 1.7860001
0.0068038097 0.17689906 1.7860001
0.056131434 0.17349716 1.7860001
0.062935241 0.17349716 1.7860001
0.085047625 0.17009525 1.7860001
0.0034019048 0.18030097 1.7860001
0.056981906 0.1828524 1.7860001
0.062935241 0.18370287 1.7860001
0.054855719 0.19433381 1.7860001
0.062084764 0.19475904 1.7860001
0.055402454 0.2036283 1.7860001
0.065316573 0.20343392 1.786
0.054430481 0.21431999 1.7860001
0.061234288 0.21261905 1.7860001
0.030617144 0.26704955 1.7860001
0.034019049 0.27612129 1.7860001
0.041956827 0.27782223 1.7860001
0.037420955 0.28235811 1.7860001
0.045925714 0.28235811 1.7860001
0.051028572 0.28235811 1.7860001
-0.10716 0.65996957 1.7860001
-0.10545905 0.66507244 1.7860001
-0.098655239 0.66677338 1.7860001
-0.093552381 0.67357719 1.7860001
-0.086748578 0.67697906 1.7860001
0.22792763 0.68378288 1.7860001
0.2358654 0.68605083 1.7860001
0.24153525 0.68718481 1.7860001
0.22792763 0.69398862 1.7860001
0.23529841 0.69398856 1.7860001
0.24266922 0.69172066 1.7860001
0.22792763 0.70419431 1.7860001
0.23416446 0.70476133 1.7860001
0.24493715 0.70419437 1.786
0.2355819 0.71184856 1.7860001
0.24323621 0.71354949 1.7860001
0.23813334 0.72120386 1.7860001
0.24493714 0.72290474 1.7860001
0.25174096 0.72630668 1.7860001
0.24833906 0.73311055 1.7860001
0.25400889 0.7359454 1.7860001
0.26330742 0.73549187 1.786
0.2789562 0.73311055 1.7860001
0.28235811 0.73140955 1.7860001
0.2466381 0.74841905 1.7860001
0.25465688 0.74404514 1.7860001
0.26330742 0.74433672 1.786
0.24748859 0.75522286 1.7860001
-0.072654769 -0.23676905 1.7950001
-0.06496191 -0.23591429 1.7950001
-0.057269048 -0.23505953 1.7950001
-0.071800001 -0.22223811 1.7950001
-0.06496191 -0.22565715 1.7950001
-0.056414288 -0.22565715 1.7950001
-0.071800001 -0.21881905 1.7950001
-0.064278103 -0.21745142 1.7950001
-0.056414288 -0.2154 1.7950001
-0.037609525 -0.21369049 1.7950001
-0.061542861 -0.20856191 1.7950001
-0.055559523 -0.20599763 1.7950001
-0.047866669 -0.20514287 1.7950001
-0.054704763 -0.19830477 1.7950001
-0.045424491 -0.19488572 1.7950001
-0.042168256 -0.18462856 1.7950001
-0.037609525 -0.18291906 1.7950001
-0.037609525 -0.17437144 1.7950001
-0.041028574 -0.16582382 1.7950001
-0.037609525 -0.16582382 1.7950001
-0.034190476 -0.1504381 1.7950001
-0.027352381 -0.1504381 1.7950001
-0.030771431 -0.14701906 1.7950001
-0.024503177 -0.1436 1.7950001
-0.021653971 -0.13562222 1.7950001
-0.020514287 -0.12650478 1.7950001
-0.017095238 -0.12650478 1.7950001
-0.020514287 -0.11282858 1.7950001
-0.012536508 -0.11510795 1.7950001
0 -0.11624762 1.7950001
-0.020514287 -0.10599048 1.7950001
-0.015043808 -0.10530667 1.7950001
-0.015385713 -0.095733337 1.7950001
-0.013676192 -0.085476205 1.7950001
-0.0051285713 -0.083766676 1.7950001
0 -0.082057148 1.7950001
-0.020514287 -0.071800001 1.7950001
-0.013676191 -0.07521905 1.7950001
-0.0056984127 -0.076358736 1.7950001
0.001709524 -0.075219043 1.7950001
-0.013676191 -0.06496191 1.7950001
-0.0051285718 -0.061542861 1.7950001
0.0034190477 -0.061542861 1.7950001
-0.0051285713 -0.054704759 1.7950001
0.0034190477 -0.054277379 1.7950001
0.010257144 -0.058123812 1.7950001
-0.0051285718 -0.047866669 1.7950001
0.0038464286 -0.044875003 1.7950001
0.012992382 -0.04513143 1.7950001
0.0059833331 -0.033335716 1.7950001
0.0068380958 -0.023933334 1.7950001
0.010257144 -0.027352381 1.7950001
0.0054704761 -0.013676192 1.7950001
0.010257144 -0.013676192 1.7950001
0.0034190479 -0.0045587304 1.7950001
0.010257144 -0.0068380954 1.7950001
0.28036192 -0.0034190477 1.7950001
-0.0034190477 0 1.7950001
0.0020514287 0.0027352381 1.7950001
0.28036192 0.0017095238 1.7950001
-0.011966667 0.015385714 1.7950001
-0.0051285713 0.015385714 1.7950001
0.0020514287 0.01436 1.7950001
-0.011966668 0.023933334 1.7950001
-0.0051285713 0.023933336 1.7950001
0.0034190475 0.023933334 1.7950001
0.010257144 0.025642857 1.7950001
-0.012699321 0.03419048 1.7950001
-0.0051285713 0.0359 1.7950001
0.0034190477 0.034190476 1.7950001
0.012699321 0.03467891 1.7950001
-0.011966668 0.047866669 1.7950001
-0.0068380954 0.047866669 1.7950001
0.0042738095 0.047011904 1.7950001
0.011624763 0.043763809 1.7950001
-0.012536508 0.055844445 1.7950001
-0.0051285713 0.054704767 1.7950001
0.0029916666 0.054277383 1.7950001
0.010257144 0.052995242 1.7950001
-0.0234449 0.06496191 1.7950001
-0.013676192 0.06496191 1.7950001
-0.0051285713 0.06496191 1.7950001
0.0017095238 0.061542861 1.7950001
-0.020514287 0.07521905 1.7950001
-0.013676191 0.075219043 1.7950001
-0.0051285713 0.075219043 1.7950001
-0.020514287 0.082057148 1.7950001
-0.013676192 0.085476197 1.7950001
-0.0051285713 0.08547619 1.7950001
0.0017095238 0.088895239 1.7950001
-0.020514287 0.095733337 1.7950001
-0.013676192 0.095733345 1.7950001
-0.0051285713 0.095733337 1.7950001
0.0029916668 0.095305964 1.7950001
0.010257144 0.094023809 1.7950001
-0.012699321 0.10550205 1.7950001
-0.0068380958 0.10599048 1.7950001
-0.010257144 0.1145381 1.7950001
-0.0068380954 0.1145381 1.7950001
0.068380952 0.16753334 1.7950001
0.076586671 0.16548191 1.7950001
0.085476197 0.1641143 1.7950001
0.095733337 0.1641143 1.7950001
0.10257144 0.16069524 1.7950001
0.0068380954 0.17437144 1.7950001
0.068380952 0.17437144 1.7950001
0.07521905 0.17437145 1.7950001
0.085476205 0.17479883 1.7950001
0.095244907 0.17437145 1.7950001
0.068380952 0.18462859 1.7950001
0.07521905 0.18462859 1.7950001
0.084621429 0.18206429 1.7950001
0.094023809 0.18120953 1.7950001
0.067013338 0.19420192 1.7950001
0.074079365 0.19260634 1.7950001
0.083766669 0.19146667 1.7950001
0.095733337 0.1931762 1.7950001
0.10257144 0.19830477 1.7950001
0.068380952 0.20172381 1.7950001
0.073509529 0.20685239 1.7950001
0.088895239 0.20172381 1.7950001
0.092314288 0.20343333 1.7950001
0.10599048 0.20514286 1.7950001
0.11282858 0.20856191 1.7950001
0.10770001 0.21198095 1.7950001
0.1436 0.21198095 1.7950001
0.025642857 0.2649762 1.7950001
0.027352383 0.27352381 1.7950001
0.027352381 0.28036192 1.7950001
0.033506669 0.28446478 1.7950001
0.043592859 0.28634524 1.7950001
0.0359 0.2923286 1.7950001
0.042738095 0.29061905 1.7950001
-0.087185718 0.58807623 1.7950001
-0.09504953 0.5955981 1.7950001
-0.086160004 0.59354669 1.7950001
-0.099152386 0.60688096 1.7950001
-0.10257144 0.66500479 1.7950001
-0.097442865 0.66500479 1.7950001
-0.094593652 0.67241269 1.7950001
-0.088895239 0.67697144 1.7950001
0.21881905 0.68722862 1.7950001
0.22451746 0.68380952 1.7950001
0.23542587 0.68380958 1.7950001
0.24275239 0.6855191 1.7950001
0.21881905 0.69748574 1.7950001
0.22223811 0.6940667 1.7950001
0.23249525 0.6940667 1.7950001
0.21767938 0.70204449 1.7950001
0.22394763 0.70432383 1.7950001
0.24702621 0.73424053 1.7950001
0.24873573 0.74620712 1.7950001
-0.08590477 -0.24053334 1.8040003
-0.079032384 -0.24053334 1.8040001
-0.083613969 -0.23595177 1.8040003
-0.076577961 -0.23317008 1.804
-0.083613969 -0.22449778 1.8040003
-0.076283433 -0.22541411 1.8040001
-0.074908957 -0.21716723 1.8040001
-0.066146672 -0.21390286 1.8040001
-0.07301905 -0.20703049 1.8040001
-0.065717146 -0.2057419 1.804
-0.058415242 -0.20445335 1.8040001
-0.072160006 -0.19929905 1.8040001
-0.06528762 -0.19929905 1.8040001
-0.054406349 -0.19529016 1.804
-0.061851431 -0.18383619 1.8040001
-0.044670478 -0.18383619 1.8040001
-0.042952385 -0.17524572 1.804
-0.037798095 -0.17524572 1.8040001
-0.043811429 -0.1640781 1.8040001
-0.037798095 -0.16150096 1.8040001
-0.04398324 -0.1566903 1.8040001
-0.037798095 -0.15634668 1.8040001
-0.03207111 -0.14432001 1.8040003
-0.027489524 -0.14088382 1.8040001
-0.030925715 -0.13744763 1.8040001
-0.02519873 -0.13401143 1.8040003
-0.030925715 -0.12713905 1.8040001
-0.025035102 -0.12321198 1.804
-0.017180953 -0.12026667 1.8040001
-0.024053335 -0.11511239 1.8040001
-0.017180953 -0.11511239 1.8040001
-0.022335239 -0.10738096 1.8040001
-0.017180953 -0.1099581 1.8040001
-0.020617144 -0.096213341 1.8040003
-0.020617144 -0.085904762 1.8040001
-0.016035557 -0.077886991 1.8040003
-0.0045815874 -0.074450798 1.8040003
-0.0051542856 -0.067005716 1.8040001
-0.013253877 -0.053997278 1.804
-0.011683049 -0.044670478 1.8040001
-0.005154286 -0.042952381 1.8040001
0 -0.041234288 1.8040001
-0.012599365 -0.035507303 1.804
-0.005154286 -0.036080003 1.8040001
0.0013744762 -0.035049148 1.8040001
-0.0045815874 -0.021762541 1.8040003
0.0017180952 -0.024053333 1.804
-0.0042952383 -0.014603809 1.8040001
0.00085904764 -0.013744763 1.8040001
-0.0045815874 -0.0045815874 1.8040003
0.0017180953 -0.0068723811 1.8040001
0.27833143 -0.0034361905 1.8040001
-0.011453968 0.0022907937 1.8040003
-0.005497905 0.0041234288 1.8040001
0 0.0068723811 1.8040001
0.27833143 0.0017180953 1.8040001
-0.013744763 0.011453968 1.8040003
-0.0051542856 0.010308572 1.8040001
0 0.010308572 1.8040001
-0.017180953 0.027489524 1.8040001
-0.017180953 0.037798095 1.8040001
-0.0051542856 0.030925715 1.8040001
-0.024053333 0.048106667 1.8040001
-0.0034361905 0.048106667 1.8040001
0.0034361905 0.042952385 1.8040001
-0.023480637 0.056124445 1.804
-0.015462858 0.053260952 1.8040001
-0.030925715 0.067005716 1.8040001
-0.025771428 0.06528762 1.8040001
-0.030925715 0.075596198 1.8040001
-0.025035102 0.075596191 1.804
-0.024482857 0.086334288 1.804
-0.02577143 0.096213341 1.804
-0.023623811 0.10609238 1.804
-0.017180953 0.10824001 1.8040001
-0.020617144 0.11339429 1.8040001
-0.014890159 0.11453968 1.8040003
0.075596191 0.16493715 1.8040001
0.0034361905 0.17868191 1.8040001
0.09793143 0.17524572 1.8040001
0.10480382 0.17868191 1.8040001
0.086592004 0.18761602 1.8040001
0.096213333 0.18727238 1.804
0.10308572 0.1872724 1.8040001
0.076168895 0.19700825 1.804
0.086395659 0.19684462 1.804
0.096213341 0.19635375 1.804
0.10652191 0.19643557 1.804
0.076455243 0.2035943 1.8040001
0.085904762 0.20273525 1.8040001
0.09793143 0.20445335 1.8040001
0.1065219 0.20617142 1.8040001
0.14346096 0.20874859 1.8040001
0.15119238 0.20960763 1.8040001
0.13572952 0.21304382 1.8040001
0.024053333 0.27661335 1.8040001
0.027489524 0.28692192 1.8040001
0.030925715 0.28864002 1.8040001
0.027489524 0.2920762 1.8040001
0.030925715 0.2920762 1.8040001
-0.095526099 0.60545677 1.8040001
-0.086886533 0.60427868 1.804
-0.096213333 0.61164194 1.8040001
-0.10537651 0.65860319 1.8040003
-0.09793143 0.65974861 1.8040001
-0.10480382 0.66318476 1.8040001
-0.096213341 0.66433018 1.8040003
-0.089340955 0.66662097 1.8040001
-0.092777148 0.67177528 1.8040001
-0.088481911 0.67435241 1.8040001
-0.077314287 0.67692953 1.8040001
0.21991619 0.67349339 1.8040001
0.22449778 0.67578411 1.8040003
0.23022477 0.67692953 1.8040001
-0.084186673 0.68036574 1.8040001
-0.079032384 0.68036574 1.8040001
0.21905714 0.68466097 1.8040001
0.22541408 0.68311471 1.8040001
0.23022477 0.68036574 1.8040001
0.21785447 0.69479775 1.8040001
0.22592953 0.69496953 1.8040001
0.21476191 0.70098287 1.8040001
0.22678858 0.70270097 1.8040001
0.24568763 0.74908954 1.8040001
-0.086380959 -0.2340924 1.8140001
-0.084653333 -0.22459048 1.8140001
-0.082925715 -0.21422477 1.8140001
-0.078606673 -0.21422477 1.8140001
-0.07774286 -0.20385908 1.8140001
-0.055283815 -0.1900381 1.8140001
-0.048373334 -0.1900381 1.8140001
-0.055283815 -0.18485524 1.8140001
-0.048373334 -0.18485525 1.8140001
-0.064497776 -0.16700317 1.8140001
-0.054707933 -0.16469967 1.8140001
-0.04837333 -0.16585143 1.8140001
-0.055283811 -0.15548572 1.814
-0.04578191 -0.15289429 1.8140001
-0.038007621 -0.15203048 1.8140001
-0.041462857 -0.14857525 1.8140001
-0.035704125 -0.14512001 1.8140001
-0.033170287 -0.13406324 1.8140001
-0.027641905 -0.13302666 1.8140001
-0.033170287 -0.12369753 1.8140001
-0.031097144 -0.11575048 1.8140001
-0.027641905 -0.11402287 1.8140001
-0.02625981 -0.10296609 1.8140001
-0.025914285 -0.095019057 1.8140001
-0.024186667 -0.087072 1.8140001
-0.020731429 -0.07774286 1.8140001
-0.012093334 -0.074287623 1.8140001
-0.020731429 -0.065649524 1.8140001
-0.013820953 -0.065649517 1.8140001
-0.015548572 -0.058739051 1.8140001
-0.013820953 -0.044918098 1.8140001
-0.020731429 -0.038007621 1.8140001
-0.016124444 -0.032248888 1.8140001
-0.0051828572 -0.031097144 1.8140001
-0.013389048 -0.024186667 1.8140001
-0.0057587302 -0.026490159 1.8140001
-0.012669206 -0.014972698 1.8140001
-0.0069104764 -0.012093334 1.8140001
-0.013129905 -0.0048373332 1.8140001
-0.0069104764 -0.0069104764 1.8140001
-0.022113523 0.0041462858 1.8140001
-0.014972698 0.004031111 1.8140001
-0.022459049 0.010365714 1.8140001
-0.01727619 0.013820952 1.8140001
-0.01727619 0.022459049 1.8140001
-0.021883175 0.035704125 1.8140001
-0.01727619 0.031097144 1.8140001
-0.012093334 0.043190476 1.8140001
-0.0051828572 0.043190479 1.8140001
0 0.041462857 1.8140001
-0.031097144 0.051828574 1.8140001
-0.027641905 0.055283811 1.8140001
-0.032824762 0.065649524 1.8140001
-0.032824762 0.07774286 1.8140001
-0.031097144 0.086380959 1.8140001
-0.042614605 0.09559492 1.8140001
-0.03455238 0.09501905 1.8140001
-0.043190479 0.1002019 1.8140001
-0.033861332 0.10158399 1.8140001
0.012093334 0.16930667 1.8140001
0.1048089 0.16585143 1.8140001
0.0034552382 0.17621715 1.8140001
0.10538477 0.17448953 1.8140001
0.11229524 0.17967239 1.8140001
0.10452096 0.18399143 1.8140001
0.11229524 0.18658286 1.8140001
0.10711239 0.19176573 1.8140001
0.11264076 0.19280228 1.8140001
0.12093333 0.19349332 1.8140001
0.082925715 0.20558667 1.8140001
0.11540495 0.2045501 1.8140001
0.12323684 0.20501079 1.8140001
0.13475429 0.2073143 1.8140001
0.1442562 0.20472287 1.8140001
0.15203048 0.2073143 1.8140001
0.1174781 0.21076953 1.8140001
0.12438858 0.21076953 1.8140001
0.13389048 0.21163334 1.8140001
0.021883175 0.27641907 1.8140001
0.024186667 0.28505716 1.8140001
-0.093291432 0.60812193 1.8140001
-0.082925715 0.60812193 1.8140001
-0.093291432 0.61503237 1.8140001
-0.088108577 0.61676002 1.8140001
-0.1002019 0.62712574 1.8140001
-0.095019042 0.6253981 1.8140001
-0.09501905 0.63576382 1.8140001
-0.093291432 0.64612955 1.8140001
-0.089836195 0.64267433 1.8140001
-0.10192952 0.65995049 1.8140001
-0.09501905 0.65995049 1.8140001
-0.089836195 0.65995049 1.8140001
-0.093291432 0.66513336 1.8140001
-0.087072 0.66478783 1.8140001
-0.086380959 0.67377144 1.8140001
0.2159524 0.67722666 1.8140001
-0.082925715 0.68068194 1.8140001
0.21629791 0.68413723 1.8140001
0.22113524 0.68068194 1.8140001
0.21422477 0.69450289 1.8140001
0.21422477 0.70141333 1.8140001
0.24647367 0.74863487 1.8140001
-0.093805715 -0.2432 1.8240001
-0.093805715 -0.23972572 1.8240001
-0.085120007 -0.21366858 1.8240001
-0.08512 -0.20498288 1.8240002
-0.064274289 -0.19629714 1.8240001
-0.048640002 -0.18066287 1.8240001
-0.066011429 -0.17024 1.8240001
-0.055588573 -0.17313524 1.8240002
-0.048640002 -0.17545143 1.8240001
-0.066011436 -0.16444953 1.824
-0.059062861 -0.16676572 1.8240001
-0.064274281 -0.15634286 1.8240002
-0.064274289 -0.14765716 1.8240001
-0.055092245 -0.14691266 1.8240002
-0.046902858 -0.14765716 1.8240001
-0.033874288 -0.11378287 1.8240001
-0.033005718 -0.10422858 1.8240002
-0.031268574 -0.093805708 1.824
-0.031268574 -0.085120007 1.8240001
-0.027794287 -0.085120007 1.8240001
-0.031268574 -0.076434292 1.824
-0.026057145 -0.076434292 1.8240002
-0.031268574 -0.064274289 1.8240001
-0.026057145 -0.066011429 1.8240002
-0.031268574 -0.057325717 1.8240001
-0.023327347 -0.056084901 1.8240002
-0.023161905 -0.04458667 1.8240002
-0.017371429 -0.045165718 1.824
-0.024754286 -0.034308571 1.8240002
-0.024320001 -0.024320001 1.8240002
-0.017371429 -0.024320001 1.8240001
-0.022235427 -0.013897143 1.8240001
-0.016213335 -0.011580952 1.824
-0.022582857 -0.0052114287 1.8240001
-0.017371429 -0.0069485717 1.8240001
-0.022582857 0.015634287 1.8240001
-0.022582859 0.024320001 1.8240002
-0.031268574 0.038217146 1.8240001
-0.025478095 0.034163814 1.8240002
-0.031268574 0.048640002 1.8240001
-0.024320001 0.044731434 1.8240002
-0.017371429 0.045165718 1.824
-0.031268574 0.057325717 1.8240001
-0.024320001 0.052114289 1.8240001
-0.017371429 0.052114289 1.8240001
-0.04169143 0.069485717 1.8240001
-0.03705905 0.067169525 1.824
-0.04169143 0.076434284 1.8240001
-0.03682743 0.075739428 1.8240001
-0.04169143 0.085120007 1.8240001
-0.036480002 0.08512 1.8240001
-0.046034288 0.093805715 1.8240001
-0.035611432 0.092937142 1.8240001
0.10770286 0.16676572 1.8240001
0.11465143 0.16502859 1.8240002
0.1227581 0.16560763 1.824
0.0052114287 0.1737143 1.8240001
0.010422857 0.1737143 1.8240001
0.10770286 0.17024 1.8240001
0.11465144 0.17371431 1.8240002
0.12507431 0.1737143 1.8240002
0.13202286 0.17718858 1.8240001
0 0.18240002 1.8240001
0.11604115 0.18413715 1.8240001
0.12507431 0.18413717 1.8240002
0.13506287 0.18413715 1.8240002
0.14418286 0.18761143 1.8240001
0.11812571 0.19456001 1.824
0.12681143 0.19456001 1.8240002
0.13549715 0.19455999 1.8240002
0.14418286 0.19456001 1.8240002
0.086857148 0.20845716 1.8240001
0.090331435 0.20845716 1.8240001
0.11812572 0.20150858 1.8240001
0.12739049 0.20266668 1.824
0.13549715 0.20324571 1.8240002
0.14592001 0.20324573 1.8240001
0.086857148 0.21193144 1.8240001
0.090331435 0.21193144 1.8240001
0.016213335 0.27678478 1.824
0.020845715 0.27273142 1.8240001
0.015634287 0.28315431 1.8240001
0.020845715 0.28662857 1.8240001
0.013897143 0.29184002 1.8240001
0.023161905 0.29299811 1.824
-0.08338286 0.61494857 1.8240001
-0.10075429 0.62537146 1.8240001
-0.091489531 0.62537146 1.824
-0.086857148 0.62537146 1.8240001
-0.091489531 0.63463622 1.824
-0.093805715 0.64795434 1.8240001
0.18587428 0.64969146 1.8240001
-0.093805715 0.65525037 1.8240001
-0.086857148 0.65664005 1.8240001
0.1858743 0.65490294 1.8240001
0.19386515 0.65525037 1.8240001
0.20150858 0.65664005 1.8240001
-0.10075429 0.66011429 1.8240001
-0.093805723 0.66011429 1.824
-0.085120007 0.66185141 1.8240001
-0.077426933 0.6630922 1.8240002
0.18529524 0.66127235 1.824
0.19456001 0.66150397 1.8240001
0.20324573 0.66185141 1.8240001
-0.083382867 0.67401147 1.824
-0.079908572 0.67401147 1.824
0.20498288 0.67574859 1.8240002
0.21453714 0.67661721 1.8240001
-0.08338286 0.68096 1.8240001
-0.079908572 0.68096 1.8240001
0.20614095 0.68327618 1.8240002
0.21280003 0.68530285 1.8240001
0.20845716 0.69485718 1.824
0.21193142 0.69485712 1.824
0.20845716 0.70180571 1.8240001
0.21193144 0.70354283 1.8240001
-0.097760007 -0.24265429 1.8330001
-0.091940962 -0.23625334 1.8330001
-0.08728572 -0.22345144 1.8330001
-0.090777144 -0.21297716 1.8330001
-0.08728572 -0.21821429 1.8330001
-0.092173718 -0.20669258 1.8329999
-0.054117143 -0.18155429 1.8330001
-0.055862859 -0.17806287 1.8330001
-0.069828577 -0.16235143 1.8330001
-0.073320001 -0.15362287 1.8330001
-0.069828577 -0.15362287 1.8330001
-0.073320001 -0.14489429 1.8330001
-0.067210004 -0.14402142 1.8330001
-0.057608575 -0.14314857 1.8330001
-0.044515718 -0.14402142 1.8330001
-0.038405716 -0.14489429 1.8330001
-0.065464288 -0.13878429 1.8330001
-0.054466289 -0.13756229 1.8329999
-0.047134291 -0.13616572 1.8330001
-0.052371431 -0.12743714 1.8330001
-0.045388576 -0.12612787 1.8330001
-0.038405716 -0.12569143 1.8330001
-0.052371431 -0.11347143 1.8330001
-0.045388576 -0.11521714 1.8329999
-0.038405716 -0.11521715 1.8330001
-0.053535238 -0.10707048 1.8330001
-0.045388576 -0.10474285 1.8329999
-0.038405716 -0.10474285 1.8330001
-0.052371431 -0.096014291 1.8330001
-0.045388576 -0.094268575 1.8330001
-0.036660001 -0.094268583 1.8330001
-0.034914289 -0.076811433 1.8330001
-0.031422857 -0.069828577 1.8330001
-0.031422857 -0.052371431 1.8330001
-0.027931429 -0.054117143 1.8330001
-0.031422857 -0.045388576 1.8330001
-0.026767621 -0.046552379 1.8330001
-0.031422857 -0.034914285 1.8330001
-0.032295715 -0.023567144 1.8330001
-0.031422857 -0.013965715 1.8330001
-0.027058573 -0.013965715 1.8330001
-0.032586668 -0.0046552382 1.8330001
-0.027931429 -0.005237143 1.8330001
-0.032295715 0.0026185715 1.8330001
-0.027058572 0.0026185715 1.8330001
-0.031422857 0.010474286 1.8330001
-0.027931429 0.013965716 1.8330001
-0.031422857 0.022694286 1.8330001
-0.027931429 0.02444 1.8330001
-0.034041431 0.035787143 1.8330001
-0.04364286 0.047134288 1.8330001
-0.034216002 0.045388572 1.8329999
-0.042770002 0.054990001 1.8330001
-0.036660001 0.055862855 1.8330001
-0.052371431 0.069828577 1.8330001
-0.045388576 0.066337146 1.8330001
-0.036660001 0.062845714 1.8330001
-0.052371431 0.073320001 1.8330001
-0.046086859 0.075414859 1.8329999
-0.052371431 0.083794288 1.8330001
-0.047134291 0.083794288 1.8330001
-0.054117143 0.09252286 1.8330001
-0.047134288 0.090777144 1.8330001
0.0052371426 0.16584286 1.8330001
0.011638097 0.16642477 1.8330001
0.12801905 0.16526096 1.8330001
0.13546744 0.16619201 1.8329999
0.14489429 0.16758858 1.8330001
0.15432115 0.16619201 1.8329999
0.16235143 0.16584286 1.8330001
0.0026185715 0.17369857 1.8330001
0.13660215 0.174135 1.8330001
0.14489429 0.17457144 1.8330001
0.15318644 0.17500788 1.8330001
0.16235143 0.17457144 1.8330001
0.13965715 0.18504572 1.8330001
0.14489429 0.1833 1.8330001
0.15362287 0.18504572 1.8329999
0.16366072 0.18548216 1.8330001
0.17224382 0.18620951 1.8330001
0.15362285 0.19552 1.8329999
0.16176952 0.19319241 1.8330001
0.15129524 0.20366667 1.8330001
0.0069828574 0.27931431 1.8330001
0.01326743 0.27512461 1.8329999
0.0069828574 0.28629714 1.8330001
0.012569144 0.28769368 1.8329999
0.013965716 0.29444382 1.8330001
0.15187715 0.58656001 1.8330001
0.14664 0.59528863 1.8330001
0.15100428 0.59441578 1.8330001
0.16293333 0.59470671 1.8330001
0.15187715 0.60052574 1.8330001
-0.083794288 0.62322003 1.8330001
-0.08728572 0.63544005 1.8330001
-0.09252286 0.64242285 1.8330001
-0.08728572 0.64242285 1.8330001
-0.083794288 0.65638864 1.8330001
-0.075647622 0.6587162 1.8330001
0.17806287 0.65638858 1.8330001
0.18155427 0.65638858 1.8330001
-0.073320001 0.66686291 1.8330001
-0.068664767 0.66453528 1.8330001
0.18388192 0.66569906 1.8330001
0.19552001 0.66686291 1.8330001
-0.075065717 0.67384577 1.8330001
-0.068664767 0.67268199 1.8330001
0.18604326 0.673347 1.8330001
0.19552001 0.67384577 1.8329999
0.20424858 0.67210007 1.8330001
0.18853717 0.68431997 1.8330001
0.19552001 0.68432003 1.8329999
0.20250286 0.68781143 1.8330001
0.20424856 0.69479436 1.8330001
0.20483048 0.70294094 1.8330001
-0.10297398 -0.24456318 1.8430001
-0.10180382 -0.23871239 1.8430001
-0.095953017 -0.23403175 1.8430001
-0.093027622 -0.22467048 1.8430001
-0.095484957 -0.21624534 1.8430001
-0.075124189 -0.16569449 1.8430001
-0.077230476 -0.15446095 1.8430001
-0.073720001 -0.14041905 1.8430001
-0.042125717 -0.14041905 1.8430001
-0.038615238 -0.14041905 1.8430001
-0.071379684 -0.13573842 1.8430001
-0.065528892 -0.13456826 1.8430001
-0.057922859 -0.13515334 1.8430001
-0.042125717 -0.13515334 1.8430001
-0.038615238 -0.13515334 1.8430001
-0.070209526 -0.12988763 1.8430001
-0.064943813 -0.12988763 1.8430001
-0.057170618 -0.12587567 1.8430002
-0.045636192 -0.12286667 1.8430001
-0.0567527 -0.11584572 1.8430001
-0.056869715 -0.10461219 1.8430001
-0.056167621 -0.094080761 1.8430001
-0.045636192 -0.094782859 1.8430001
-0.056167621 -0.087761909 1.8430001
-0.042125717 -0.086006671 1.8430001
-0.03686 -0.084251434 1.8430001
-0.037211049 -0.07301791 1.8430001
-0.045636192 -0.064943813 1.8430001
-0.03686 -0.064943813 1.8430001
-0.045636192 -0.056167621 1.8430002
-0.03686 -0.056167621 1.8430001
-0.054412384 -0.04739143 1.8430001
-0.045636192 -0.045636192 1.8430002
-0.035982382 -0.046513811 1.8430001
-0.045636192 -0.036508955 1.8430001
-0.035982382 -0.035982382 1.8430001
-0.03686 -0.024573334 1.8430001
-0.03686 -0.014041905 1.8430001
-0.042125717 -0.0035104763 1.8430001
-0.03686 -0.0052657146 1.8430001
-0.042125717 0 1.8430001
-0.03686 0.0017552382 1.8430001
-0.031594288 0.015797144 1.8430001
-0.031594288 0.028083811 1.8430001
-0.052657146 0.038615238 1.8430001
-0.045636192 0.037737619 1.8430001
-0.03686 0.033349525 1.8430001
-0.052657146 0.045636192 1.8430001
-0.047040381 0.044232003 1.8430001
-0.03744508 0.044466034 1.8430001
-0.054412384 0.05704524 1.8430001
-0.047742479 0.056869715 1.8430001
-0.052657146 0.064943813 1.8430001
-0.049146667 0.063188575 1.8430001
-0.0567527 0.074890159 1.8430001
-0.05757181 0.083549336 1.8430001
-0.0035104763 0.16323715 1.8430001
0.00087761908 0.16411477 1.8430001
0.16850287 0.16850287 1.8430001
0.17201334 0.16850287 1.8430001
0.23169143 0.16850287 1.8430001
0 0.17201334 1.8430001
0.15797144 0.17201334 1.8430001
0.16850287 0.17552382 1.8430001
0.17201334 0.17552382 1.8430001
0.16850287 0.18254477 1.8430001
0.17376858 0.18605524 1.8430001
0.16733271 0.19541651 1.8430001
0.17376858 0.19307619 1.8430001
0.16616255 0.2012673 1.8430001
0.0052657146 0.27732763 1.8430001
0.010531429 0.27381715 1.8430001
0.0035104763 0.28434858 1.8430001
0.0052657146 0.29312477 1.8430001
0.021062858 0.29839048 1.8430001
0.14744 0.58976001 1.8430001
0.14568476 0.59502572 1.8430001
0.15680128 0.5956108 1.8430001
0.16148192 0.59327048 1.8430001
0.14392953 0.60029143 1.8430001
0.15797144 0.60204667 1.8430001
0.16148192 0.60204667 1.8430001
-0.080740958 0.61784381 1.8430001
-0.080740958 0.62486476 1.8430001
-0.052657146 0.62837523 1.8430001
-0.049146667 0.62837523 1.8430001
-0.083373815 0.63627386 1.8430001
-0.084251434 0.64417243 1.8430001
-0.083373815 0.65382624 1.8430001
-0.074422099 0.65716118 1.8430001
0.16569449 0.65786326 1.8430001
0.17482172 0.65786326 1.8430001
-0.070209526 0.66348004 1.8430001
-0.064943813 0.66523528 1.8430001
-0.059678096 0.66699052 1.8430001
0.17727906 0.66523528 1.8430001
-0.065528892 0.67167115 1.8430001
-0.059678096 0.67050099 1.8430001
0.17903429 0.67225623 1.8430001
0.18254477 0.67752194 1.8430001
-0.073720001 0.68395782 1.8430001
-0.06669905 0.68103242 1.8430001
0.18430001 0.68454289 1.8430001
0.18693286 0.6941967 1.8430001
0.19483143 0.69682956 1.8430001
0.20009714 0.69682956 1.8430001
0.19658667 0.70209527 1.8430001
0.20009714 0.70385051 1.8430001
-0.11294477 -0.2505962 1.853
-0.10765048 -0.2505962 1.853
-0.12000381 -0.24000762 1.853
-0.11294477 -0.24706668 1.853
-0.10800344 -0.24283126 1.853
-0.12000381 -0.23647811 1.853
-0.10500334 -0.23559572 1.853
-0.077649526 -0.16235811 1.853
-0.082061432 -0.15529905 1.853
-0.077649526 -0.14471048 1.853
-0.07412 -0.13235715 1.853
-0.071766987 -0.12588635 1.853
-0.064119682 -0.12353335 1.853
-0.072355241 -0.11647429 1.853
-0.064707935 -0.11529779 1.853
-0.061766669 -0.10588572 1.853
-0.060001906 -0.095297143 1.853
-0.046892244 -0.084204361 1.8529999
-0.045883808 -0.074120007 1.853
-0.060001906 -0.063531429 1.853
-0.05470762 -0.063531429 1.853
-0.052942861 -0.056472383 1.853
-0.038824763 -0.044119049 1.853
-0.045883812 -0.033530477 1.853
-0.038824763 -0.033530477 1.853
-0.044119045 -0.02647143 1.853
-0.038824763 -0.028236192 1.853
-0.045001429 -0.011470953 1.853
-0.052942861 -0.003529524 1.853
-0.046589714 -0.0056472388 1.853
-0.038824763 -0.0070590479 1.853
-0.052942861 0.001764762 1.853
-0.046324998 0.0039707148 1.8529999
-0.037648257 0.0058825403 1.853
-0.045883816 0.010588571 1.853
-0.036471751 0.011765081 1.853
-0.045883808 0.024706667 1.853
-0.037060004 0.024706667 1.853
-0.060001906 0.038824763 1.853
-0.054119367 0.035295237 1.853
-0.045883812 0.033177525 1.853
-0.055590004 0.045883812 1.853
-0.056472383 0.054707624 1.853
-0.061766669 0.065296188 1.853
-0.05647238 0.063531429 1.853
-0.064539865 0.073615782 1.8529999
-0.063531429 0.082943812 1.853
-0.0052942857 0.15882857 1.853
-0.010588571 0.16412286 1.853
-0.0061766668 0.16677001 1.853
-0.0052942857 0.17471144 1.853
0.17529969 0.17529969 1.853
0.1764762 0.18177047 1.853
0.18000571 0.18353523 1.853
0.23294859 0.18530001 1.853
0.17471144 0.19765334 1.853
0.18118222 0.19294731 1.853
0.21883048 0.19765334 1.853
0.23294859 0.19588858 1.853
0.15765207 0.2070654 1.853
0.16353461 0.20471239 1.853
0.21883048 0.20118286 1.853
0.22353654 0.20353587 1.853
0.23294859 0.20471239 1.853
0.23471335 0.21177144 1.853
0.24000762 0.21177144 1.853
0.0070590479 0.27530286 1.853
0 0.2841267 1.853
0.0052942857 0.30000955 1.853
0.01764762 0.30000955 1.853
0.14541638 0.58801872 1.853
0.14471048 0.59472477 1.853
0.15529905 0.59648955 1.853
0.14118096 0.60178387 1.853
-0.075884759 0.62649047 1.853
-0.081179053 0.63707906 1.853
-0.077649526 0.63531429 1.853
-0.060001906 0.63531429 1.853
-0.05470762 0.63619667 1.853
-0.081179053 0.64766765 1.853
-0.076237716 0.64660877 1.853
-0.063531429 0.64237338 1.853
0.16588762 0.64766765 1.853
0.17471144 0.64943242 1.853
0.18000571 0.64943242 1.853
-0.091767624 0.65296191 1.853
-0.084708571 0.65296191 1.853
-0.075296506 0.65413839 1.853
0.15882857 0.65649146 1.853
0.16588761 0.65472668 1.853
0.17529969 0.65531492 1.853
0.18000571 0.65649146 1.853
-0.070590481 0.66002095 1.853
0.15882857 0.66178572 1.853
0.16588762 0.66590351 1.853
0.17294668 0.66708004 1.853
-0.061766669 0.67766857 1.853
0.16824062 0.67178607 1.853
0.17435849 0.67484492 1.853
0.17529969 0.68237466 1.853
0.18000571 0.68296289 1.853
-0.072355241 0.69178671 1.853
0.18353525 0.69619858 1.853
0.18706477 0.70237529 1.853
-0.11710286 -0.2519486 1.863
-0.12242572 -0.24307716 1.863
-0.11568344 -0.24414173 1.8630002
-0.1242 -0.2377543 1.863
-0.11532858 -0.2377543 1.863
-0.11000572 -0.20226859 1.863
-0.10468285 -0.20226859 1.863
-0.10290857 -0.19872001 1.863
-0.099360004 -0.19872001 1.863
-0.086940005 -0.17210573 1.863
-0.083391428 -0.16500857 1.863
-0.092262864 -0.15791143 1.863
-0.087294862 -0.15613715 1.8630002
-0.082504287 -0.14637858 1.863
-0.081617147 -0.13662001 1.863
-0.078068577 -0.13484572 1.863
-0.081617147 -0.1242 1.863
-0.075702861 -0.12301714 1.863
-0.067422859 -0.12065143 1.863
-0.075026937 -0.11254042 1.863
-0.067422859 -0.11178 1.863
-0.065057144 -0.10527428 1.863
-0.06476143 -0.095811434 1.863
-0.060325716 -0.085165717 1.863
-0.054648001 -0.084455997 1.8630002
-0.054648001 -0.073810287 1.8630002
-0.062454857 -0.063874289 1.8630002
-0.056777146 -0.056777146 1.863
-0.06121286 -0.034598574 1.863
-0.055357717 -0.034776002 1.8630002
-0.062860414 -0.024840001 1.863
-0.055002857 -0.024840003 1.863
-0.047550861 -0.023420572 1.8630002
-0.053228572 -0.014194286 1.863
-0.046841145 -0.016323429 1.8630002
-0.060325716 -0.0035485716 1.863
-0.055594292 -0.0059142858 1.863
-0.060325716 0.0017742858 1.863
-0.055594292 0.0035485716 1.863
-0.053228572 0.010645715 1.863
-0.046131432 0.01596857 1.863
-0.037851434 0.016560001 1.863
-0.053228572 0.024840003 1.863
-0.046131432 0.024839999 1.863
-0.064584002 0.036905147 1.8630002
-0.056777146 0.03371143 1.863
-0.070971429 0.049680002 1.863
-0.063874289 0.046131436 1.863
-0.070971429 0.053228572 1.863
-0.063874289 0.055002857 1.863
-0.070971429 0.065648571 1.863
-0.066535719 0.062987149 1.863
-0.070971429 0.072745711 1.863
0.17742857 0.17033143 1.863
0.18097715 0.17565429 1.863
0.2327863 0.17529944 1.8630002
0.24130286 0.17565429 1.863
0.27678859 0.17210573 1.863
0.28152001 0.17269714 1.863
0.18629999 0.18452573 1.863
0.19472787 0.18496931 1.863
0.20226859 0.18807429 1.863
0.22356001 0.18097715 1.863
0.23562515 0.18452573 1.8630002
0.24219 0.18452573 1.863
0.18570858 0.19576287 1.863
0.19517143 0.19517143 1.863
0.20581715 0.19517143 1.863
0.21433373 0.19588116 1.8630002
0.22457388 0.19517143 1.863
0.23479713 0.19517143 1.863
0.24130286 0.19517143 1.863
0.28388572 0.19398858 1.863
0.16678286 0.20759144 1.863
0.17458972 0.20510745 1.8630002
0.18275145 0.20226859 1.863
0.19694573 0.20226859 1.863
0.20723657 0.20439772 1.8630002
0.21468858 0.20581715 1.863
0.22356002 0.20723657 1.8630002
0.23420572 0.20581716 1.863
0.24130286 0.20581716 1.863
0.15968572 0.21291429 1.863
0.16323429 0.21291429 1.863
0.23065715 0.21291429 1.863
0.0035485716 0.27678859 1.863
0 0.28033715 1.863
0.0011828572 0.29453143 1.863
-0.042582858 0.57841718 1.863
-0.060325716 0.58906287 1.863
-0.053228572 0.58906287 1.863
-0.043765713 0.58433145 1.863
-0.039034288 0.58374 1.863
0.1383943 0.58728862 1.863
0.14312571 0.58669716 1.863
-0.060325716 0.59261143 1.863
-0.054115716 0.5952729 1.863
0.13555543 0.59686971 1.8630002
0.14194286 0.59793431 1.863
-0.053228572 0.60503149 1.863
0.1383943 0.60325718 1.863
-0.081617147 0.61745143 1.863
-0.054648004 0.61461258 1.8630002
-0.081617147 0.62100005 1.863
-0.074519999 0.62454861 1.863
-0.053228572 0.62100005 1.863
-0.072745711 0.63696861 1.863
-0.065648571 0.63696861 1.863
-0.056777146 0.63874286 1.863
-0.072390854 0.64513034 1.8630002
-0.064465709 0.64643145 1.863
-0.055594292 0.6470229 1.863
0.15791143 0.64938861 1.863
0.16500857 0.64406574 1.863
0.17565429 0.64938861 1.863
-0.070971429 0.65471148 1.863
-0.063874289 0.65471148 1.863
0.15613715 0.65471148 1.863
0.17388001 0.65648574 1.863
0.18275145 0.65648574 1.863
-0.070971429 0.6600343 1.863
-0.065057151 0.66299146 1.863
0.15471771 0.66287315 1.8630002
0.18630001 0.6600343 1.863
0.15968572 0.67245436 1.863
0.16412143 0.67511576 1.863
0.14904 0.6848743 1.863
0.15613715 0.6848743 1.863
0.16500857 0.68310004 1.863
0.17121857 0.68576145 1.863
0.16678286 0.69552004 1.863
0.17388001 0.69552004 1.863
0.18097715 0.69374573 1.863
0.17742857 0.70261717 1.863
0.18097715 0.70261717 1.863
-0.11594763 -0.2051381 1.8730001
-0.11297461 -0.19740826 1.8730001
-0.10524476 -0.19800287 1.8730001
-0.095879763 -0.19577309 1.8730001
-0.096325718 -0.18908381 1.8730001
-0.095136516 -0.17362411 1.8730001
-0.089190483 -0.17838097 1.8730001
-0.10346095 -0.16411048 1.8730001
-0.096771672 -0.16455644 1.8730001
-0.089190483 -0.1658943 1.8730001
-0.096325718 -0.15519142 1.8730001
-0.093649998 -0.1471643 1.8730001
-0.087763436 -0.14555886 1.8730001
-0.092758097 -0.13913715 1.8730001
-0.086642183 -0.13505985 1.8730001
-0.084195808 -0.12486666 1.8730001
-0.083482288 -0.11416382 1.8730001
-0.074920006 -0.10524476 1.8730001
-0.067784764 -0.10346095 1.8730001
-0.074919999 -0.096325718 1.8730003
-0.067784764 -0.096325718 1.8730001
-0.074919999 -0.089190483 1.8730001
-0.065109052 -0.085622862 1.8730001
-0.062433336 -0.074920006 1.8730001
-0.057081908 -0.07848762 1.8730001
-0.061838731 -0.055892702 1.8730001
-0.055298097 -0.053514287 1.8730001
-0.072541595 -0.033297777 1.8730001
-0.066595554 -0.034486983 1.8730001
-0.073136196 -0.024973333 1.8730001
-0.067784764 -0.024973335 1.8730001
-0.071352385 -0.014270477 1.8730001
-0.064217143 -0.014716429 1.8730001
-0.057081908 -0.014270477 1.8730001
-0.071352385 -0.0053514289 1.8730001
-0.064930663 -0.0057081906 1.8730001
-0.071352385 0.0017838096 1.8730001
-0.064811744 0.0035676192 1.8730001
-0.057081908 0.0071352385 1.8730001
-0.062433332 0.014270477 1.8730001
