# .PCD v0.7 - Point Cloud Data file format
VERSION 0.7
FIELDS x y z
SIZE 4 4 4
TYPE F F F
COUNT 1 1 1
WIDTH 1484
HEIGHT 1
VIEWPOINT 0 0 0 1 0 0 0
POINTS 1484
DATA ascii
0.002256508 0.24257462 1.7770001
0.037232384 0.24708763 1.7770001
0.042309526 0.24708763 1.7770001
0.11169714 0.24708763 1.7770001
0.014667302 0.25160065 1.7770001
0.023693332 0.25554955 1.7770001
0.034270715 0.25428027 1.7770002
0.044001907 0.2572419 1.7770001
0.013539049 0.26288319 1.7770001
0.023693334 0.26304439 1.7770002
0.033847623 0.2635279 1.7770002
0.043034829 0.26449496 1.7770002
-0.0050771432 0.27078095 1.7770001
0.027078096 0.27078095 1.7770001
0.03271937 0.27190921 1.7770001
0.044001907 0.27078095 1.7770001
0.030462857 0.28093526 1.7770001
-0.10267112 0.6645416 1.7770001
-0.096465714 0.66341335 1.7770001
-0.076721273 0.66566986 1.7770001
-0.064310484 0.66679811 1.7770001
-0.092516832 0.67131114 1.7770001
-0.084619053 0.67356765 1.7770002
-0.073787816 0.6715368 1.7770001
-0.066002861 0.67018288 1.7770001
-0.085586123 0.68420547 1.7770002
-0.07784953 0.68710667 1.7770001
0.25554955 0.69726098 1.7770001
0.25554955 0.70064574 1.7770001
0.25611368 0.71192831 1.7770001
0.26265755 0.71553868 1.7770001
0.26570383 0.72433901 1.7770001
0.27247334 0.72603142 1.7770001
0.26570383 0.73449332 1.7770001
0.27162713 0.73364723 1.7770001
0.28093526 0.73449337 1.7770001
0.2572419 0.74803239 1.7770001
0.26536536 0.74600154 1.7770001
0.27331951 0.74718618 1.7770001
0.28347385 0.74718618 1.7770001
0.25588804 0.75547886 1.7770001
0.26401144 0.75480199 1.7770002
0.27416572 0.75480199 1.7770002
0.28432 0.75480199 1.7770002
0.29447433 0.75480193 1.7770002
0.30530554 0.75344807 1.7770001
-0.13267429 0.18710476 1.7860001
0.011906667 0.24833906 1.7860001
0.025514286 0.24833906 1.7860001
0.034019049 0.24493715 1.7860001
0.044224765 0.24437018 1.7860001
0.054430481 0.2466381 1.7860001
0.063502222 0.24720509 1.7860001
0.098655246 0.24493714 1.7860001
0.10448707 0.24542315 1.7860001
0.11736572 0.24833906 1.7860001
0.023813331 0.25174096 1.7860001
0.030617144 0.25174096 1.7860001
0.044224765 0.25344193 1.7860001
0.054430481 0.25514287 1.7860001
0.064636193 0.25556812 1.7860001
0.074841909 0.25650364 1.786
0.082779683 0.25627682 1.7860001
0.10886095 0.25174096 1.7860001
0.11226286 0.25174096 1.7860001
0.0068038097 0.26875049 1.7860001
0.014458096 0.26790002 1.7860001
0.023813333 0.26875049 1.7860001
0.047626667 0.26364762 1.7860001
0.054430481 0.26534858 1.7860001
0.064636201 0.26534855 1.7860001
0.071440004 0.26194668 1.7860001
0 0.27215239 1.7860001
0.015308572 0.27215239 1.7860001
0.023813335 0.2755543 1.7860001
0.030617144 0.2789562 1.7860001
0.047626667 0.2755543 1.7860001
0.05329651 0.27442035 1.7860001
0.064636193 0.27215239 1.7860001
0.027215237 0.28576002 1.7860001
0.030617144 0.28746098 1.7860001
0.051028572 0.28235811 1.7860001
-0.10432508 0.6656394 1.7860001
-0.091851436 0.66507244 1.7860001
-0.085728005 0.6654126 1.786
-0.076542862 0.66507244 1.7860001
-0.091851436 0.67017525 1.7860001
-0.085047625 0.67017525 1.7860001
-0.071440004 0.67017525 1.7860001
0.24833906 0.68718481 1.7860001
0.25174096 0.68718481 1.7860001
0.24697828 0.69330823 1.786
0.25471762 0.6944139 1.7860001
0.21772191 0.70079243 1.7860001
0.24748859 0.70504475 1.7860001
0.25378209 0.70555508 1.786
0.24833906 0.71440005 1.7860001
0.25400892 0.71383303 1.7860001
0.24720509 0.72347182 1.7860001
0.25514287 0.72411972 1.7860001
0.26194668 0.72630668 1.7860001
0.25684384 0.73396099 1.7860001
0.26194668 0.73481148 1.7860001
0.27810574 0.73566192 1.7860001
0.28349206 0.7359454 1.7860001
0.25611481 0.74550313 1.7860001
0.26330742 0.74569756 1.786
0.27652627 0.74501711 1.7860001
0.286327 0.74501711 1.7860001
0.2466381 0.75522286 1.7860001
0.25310174 0.75454247 1.786
0.2959657 0.75182098 1.7860001
0.30276954 0.75522286 1.7860001
-0.13334286 0.18462858 1.7950001
0.027352381 0.23933335 1.7950001
0.032480955 0.23762381 1.7950001
0.0068380954 0.24617144 1.7950001
0.013676191 0.24788097 1.7950001
0.023933334 0.24617144 1.7950001
0.030771431 0.24275239 1.7950001
0.047866669 0.24275239 1.7950001
0.051285718 0.24275239 1.7950001
0.06496191 0.24959049 1.7950001
0.073851436 0.24753907 1.7950001
0.085476197 0.24788098 1.7950001
0.094023816 0.24617143 1.7950001
0.06496191 0.25300953 1.7950001
0.07521905 0.25471905 1.7950001
0.086615883 0.25585875 1.7950001
0.095733337 0.2564286 1.7950001
0.1055631 0.25685596 1.7950001
0.1145381 0.25471905 1.7950001
0.075902864 0.2653181 1.7950001
0.084621437 0.26412144 1.7950001
0.097442865 0.26326668 1.7950001
0.10713017 0.26440635 1.7950001
0.0051285718 0.27352381 1.7950001
0.013676192 0.27580318 1.7950001
0.058123812 0.27694288 1.7950001
0.06496191 0.27694288 1.7950001
0.075219043 0.27352384 1.7950001
0.082057148 0.27181429 1.7950001
0.017095238 0.28378096 1.7950001
0.021881906 0.28446478 1.7950001
0.056756187 0.28309715 1.7950001
0.06496191 0.28378093 1.7950001
0.075219043 0.28378093 1.7950001
0.022223812 0.29061905 1.7950001
0.058123812 0.2923286 1.7950001
0.06496191 0.29232857 1.7950001
0.07521905 0.29232857 1.7950001
0.08547619 0.2923286 1.7950001
-0.071800001 0.60346192 1.7950001
-0.066329524 0.60517144 1.7950001
-0.058123812 0.60517144 1.7950001
-0.10257144 0.65987623 1.7950001
-0.096588105 0.6590215 1.7950001
-0.10257144 0.66329527 1.7950001
-0.095733345 0.66329527 1.7950001
-0.084621429 0.66415 1.7950001
-0.076358728 0.66443497 1.7950001
-0.068380952 0.66671431 1.7950001
-0.071800001 0.67013335 1.7950001
-0.06496191 0.67013335 1.7950001
0.23591429 0.68722862 1.7950001
0.24275239 0.68722862 1.7950001
0.23591428 0.69269907 1.7950001
0.24360715 0.69321191 1.7950001
0.21881905 0.70090479 1.7950001
0.22679682 0.70489365 1.7950001
0.2359143 0.70432377 1.7950001
0.24446194 0.70432383 1.7950001
0.23591429 0.71116191 1.7950001
0.24617144 0.71543574 1.7950001
0.24617144 0.72312862 1.7950001
0.25642857 0.72825718 1.7950001
0.24788098 0.73509526 1.7950001
0.25557381 0.73594999 1.7950001
0.24788098 0.74535233 1.7950001
0.25386429 0.74449766 1.7950001
0.29061905 0.74877143 1.7950001
0.24959049 0.75390005 1.7950001
0.30600476 0.75560957 1.7950001
0.025771428 0.23709716 1.8040001
0.014890159 0.24626033 1.8040003
0.022335239 0.24225143 1.8040001
0.11683048 0.2577143 1.8040001
0.1243901 0.25290361 1.8040001
0.087622859 0.26802287 1.8040001
0.095354289 0.26716384 1.8040001
0.10537651 0.2668775 1.8040003
0.11339429 0.26286858 1.8040001
0.010308572 0.27833143 1.8040001
0.086886525 0.27538612 1.804
0.013744761 0.28520381 1.8040003
0.085904762 0.28563336 1.804
0.092777148 0.28692192 1.8040001
0.085904762 0.29379427 1.8040001
0.094495237 0.29379427 1.8040001
-0.085217521 0.60683125 1.8040001
-0.077314287 0.60648763 1.8040001
-0.063569523 0.60476953 1.8040001
-0.058415242 0.60476953 1.8040001
-0.092777148 0.61336005 1.8040001
-0.085475244 0.61464858 1.804
-0.076455243 0.61335999 1.8040001
-0.06528762 0.61278731 1.8040003
-0.058415242 0.61164194 1.8040001
-0.084186673 0.62195051 1.8040001
-0.079032384 0.62195051 1.8040001
-0.094495237 0.65803051 1.8040001
-0.085475244 0.65674192 1.804
-0.076577961 0.65680325 1.804
-0.08590477 0.66318476 1.8040003
-0.074737146 0.66404378 1.8040001
-0.068723813 0.66490287 1.8040001
-0.072160006 0.67005718 1.8040001
-0.06528762 0.67005718 1.8040001
0.21991619 0.67349339 1.8040001
0.22678858 0.67349339 1.8040001
0.23137017 0.67463875 1.8040003
0.22507048 0.6872381 1.8040001
0.23317006 0.68478364 1.804
0.24396951 0.68723804 1.8040003
0.22564317 0.69181967 1.8040003
0.23108383 0.69496953 1.8040001
0.24396953 0.69411051 1.8040001
0.25084192 0.6906743 1.8040001
0.21991619 0.70098287 1.8040001
0.22564317 0.70327371 1.8040003
0.23194286 0.70098287 1.8040001
0.24053334 0.70098287 1.8040001
0.23709716 0.71816385 1.8040001
0.24225143 0.71644574 1.8040001
0.29723048 0.74221718 1.8040001
0.015548572 0.23841144 1.8140001
0.020731429 0.23841144 1.8140001
0.0069104764 0.24532191 1.8140001
0.014684762 0.24359429 1.8140001
0.12266096 0.25914288 1.8140001
0.13426067 0.25470042 1.8140001
0.14166477 0.25568762 1.8140001
0.11632635 0.26605335 1.8140001
0.12266096 0.2625981 1.8140001
0.16930667 0.26778096 1.8140001
0.17621715 0.26778099 1.8140001
0.18450972 0.26536229 1.8140001
0.19176573 0.26432574 1.8140001
-0.0034552382 0.27987429 1.8140001
0.0034552382 0.27987429 1.8140001
0.09501905 0.27641904 1.8140001
0.10266993 0.27592546 1.8140001
0.11229524 0.27296382 1.8140001
0.16792457 0.2771101 1.8140001
0.17276192 0.27469143 1.8140001
0.0057587302 0.28448129 1.8140001
0.010365714 0.28505716 1.8140001
0.086380959 0.28332955 1.8140001
0.09559492 0.28448129 1.8140001
0.10250539 0.28448129 1.8140001
0.16930667 0.28332955 1.8140001
0.010365714 0.29024002 1.8140001
0.096746668 0.29024002 1.8140001
0.10192952 0.29024002 1.8140001
-0.07774286 0.61848766 1.8140001
-0.065649524 0.61848766 1.8140001
-0.072560005 0.65822291 1.8140001
-0.069104761 0.65995049 1.8140001
-0.067377143 0.66513336 1.8140001
-0.065649524 0.67031622 1.8140001
0.22459048 0.67722666 1.8140001
0.22459048 0.68413711 1.814
0.23668383 0.68240952 1.8140001
0.24417017 0.68528891 1.8140001
0.22199906 0.69536674 1.8140001
0.21768001 0.70486861 1.8140001
0.22459048 0.70227712 1.8140001
0.24359429 0.72387242 1.8140001
0.29715049 0.74978667 1.8140001
0.30060571 0.74978667 1.8140001
0.29715049 0.7549696 1.8140001
0.30175748 0.75554544 1.8140001
-0.13897143 0.19629714 1.8240001
-0.14244571 0.20324573 1.8240001
0.0034742858 0.23972572 1.8240001
0.011580952 0.23740955 1.824
0.0034742858 0.2432 1.824
0.010422857 0.2432 1.8240001
0.15634286 0.2466743 1.8240001
0.14649905 0.25362286 1.8240002
0.15692191 0.25478098 1.8240002
0.16537601 0.2543177 1.8240001
0.17371428 0.25536001 1.8240002
0.18205258 0.25431773 1.8240001
0.12646401 0.26543546 1.8240001
0.13593143 0.26447999 1.8240002
0.14591999 0.26404575 1.8240002
0.15808001 0.26404572 1.8240002
0.16502859 0.26404575 1.8240002
0.17371428 0.2623086 1.8240002
0.18326858 0.26144001 1.8240001
0.10770286 0.27794287 1.8240001
0.11604115 0.27585831 1.8240001
0.1250743 0.27446857 1.8240002
0.13506287 0.27403429 1.8240002
0.14383543 0.27377373 1.8240001
0.15894857 0.27360001 1.8240001
0.16468115 0.27377373 1.8240001
0.10596571 0.28575999 1.8240001
0.11291429 0.28489143 1.8240002
0.1239162 0.28604952 1.824
0.13376001 0.28141716 1.8240001
0.14244571 0.28141716 1.8240001
0.15981714 0.28315431 1.8240001
0.16502857 0.28489143 1.8240001
0.10472489 0.29630694 1.8240002
0.11465144 0.29531428 1.8240002
0.12246858 0.29444572 1.8240001
0.10770286 0.30226287 1.8240001
0.11291429 0.30226287 1.8240001
-0.074697152 0.62884575 1.8240001
-0.069485717 0.62884575 1.8240001
-0.08338286 0.65664005 1.8240001
-0.077129148 0.65525037 1.8240001
-0.090331435 0.66011429 1.8240001
-0.067169525 0.66243047 1.824
0.21540573 0.67748576 1.8240001
0.22235429 0.67748576 1.8240001
0.21584001 0.68443435 1.8240002
0.20845716 0.69659436 1.8240001
0.21540573 0.69485712 1.8240002
0.2161006 0.70319545 1.8240001
-0.13616572 0.18388192 1.8330001
-0.14489429 0.19726571 1.8330001
-0.13965715 0.19202858 1.8330001
-0.14664 0.20424858 1.8330001
0.0069828574 0.23741715 1.8330001
0.0034914287 0.24090858 1.8330001
0.15362287 0.24789144 1.8330001
0.16409715 0.24789144 1.8330001
0.17457144 0.24789144 1.8330001
0.1833 0.24789144 1.8330001
0.19901143 0.24789144 1.8330001
0.15245906 0.25371048 1.8330001
0.16235143 0.25138286 1.8330001
0.17457144 0.25138286 1.8330001
0.1876643 0.25400144 1.8330001
0.19552 0.25545618 1.8330001
0.20599429 0.25387675 1.8330001
0.21996 0.25312859 1.8330001
0.22345144 0.25138286 1.8330001
0.15362287 0.26534858 1.8330001
0.1937743 0.26185715 1.8330001
0.13965715 0.27931431 1.8330001
0.14664 0.27931431 1.8330001
0.15318644 0.2762593 1.8330001
0.11870857 0.28629717 1.8330001
0.12627335 0.28571525 1.8330001
0.13666449 0.28729469 1.8330001
0.14524344 0.28699541 1.8329999
0.15362287 0.28629714 1.8329999
0.16235143 0.28978857 1.8330001
0.14489429 0.29502571 1.8330001
0.15187715 0.29502571 1.8330001
0.16409715 0.29328001 1.8330001
-0.066337146 0.57957715 1.8330001
-0.068082862 0.58306861 1.8330001
-0.066337146 0.59703434 1.8330001
-0.082048573 0.60576284 1.8330001
-0.074192859 0.60488999 1.8330001
-0.068082862 0.6040172 1.8330001
-0.057608575 0.60489005 1.8330001
-0.080302857 0.611 1.8330001
-0.075065717 0.611 1.8330001
-0.068082862 0.611 1.8330001
-0.055862859 0.611 1.8330001
-0.069828577 0.63893145 1.8330001
-0.062845714 0.64766002 1.8330001
-0.055862859 0.64853287 1.8330001
-0.084492579 0.65569031 1.8329999
-0.074483812 0.65406102 1.8330001
-0.066337146 0.65682507 1.8330001
-0.064009525 0.66569906 1.8330001
-0.062845714 0.67384577 1.8330001
0.20774001 0.67733717 1.8330001
0.21577029 0.67594063 1.8329999
-0.062845714 0.68082857 1.8330001
-0.059354287 0.68082857 1.8330001
0.20774002 0.68432003 1.8330001
0.21472287 0.68431997 1.8330001
0.20739087 0.69409597 1.8329999
0.20774001 0.70352292 1.8330001
-0.14041905 0.17903429 1.8430001
-0.13690858 0.17903429 1.8430001
-0.14436834 0.18561643 1.8430002
-0.13515334 0.18605524 1.8430001
-0.15095048 0.19483143 1.8430001
-0.14568476 0.19307619 1.8430001
-0.15235467 0.20290554 1.8430001
0.18956572 0.24924383 1.8430001
0.19483143 0.24924383 1.8430001
0.20536287 0.24924383 1.8430001
0.21062858 0.24924383 1.8430001
0.19483143 0.2527543 1.8430001
0.20185238 0.25977525 1.8430001
0.21472414 0.25626478 1.8430001
0.22730334 0.25626478 1.8430001
0.23309562 0.25556269 1.8430001
0.20360762 0.26504096 1.8430001
0.21238382 0.26328573 1.8430001
0.15797144 0.29663524 1.8430001
0.16148192 0.29663524 1.8430001
-0.070209526 0.58976001 1.8430001
-0.064943813 0.58800477 1.8430001
-0.057922859 0.58624953 1.8430001
-0.071964763 0.59678096 1.8430001
-0.065528892 0.5956108 1.8430001
-0.056869715 0.59537679 1.8430001
-0.071964763 0.60029143 1.8430001
-0.063188575 0.60380191 1.8430001
-0.055666126 0.60330045 1.8430002
0.16499239 0.60731238 1.8430001
-0.063188575 0.61257809 1.8430001
-0.056167621 0.61257809 1.8430001
-0.073720001 0.62837523 1.8430001
-0.063188575 0.62837523 1.8430001
-0.057922859 0.62837523 1.8430001
-0.080740958 0.63890672 1.8430001
-0.070209526 0.63890672 1.8430001
-0.065294862 0.63609833 1.8430001
-0.056167625 0.63583505 1.8430002
-0.080740958 0.64241719 1.8430001
-0.07301791 0.64522558 1.8430001
-0.065294862 0.64522558 1.8430001
-0.058273904 0.64522558 1.8430001
-0.073720001 0.65294862 1.8430001
-0.06669905 0.65470386 1.8430001
-0.057922859 0.65821433 1.8430001
0.18956572 0.65996957 1.8430001
0.19483143 0.65996957 1.8430001
0.20009714 0.65996957 1.8430001
-0.059678096 0.66523528 1.8430001
0.18956572 0.66523528 1.8430001
0.19424635 0.6646502 1.8430001
0.20290554 0.66558635 1.8430001
-0.059678096 0.67050099 1.8430001
0.18816152 0.67330939 1.8430001
0.19307619 0.67401147 1.8430001
0.20310615 0.6750145 1.8430002
0.21179874 0.67518163 1.8430001
0.18956572 0.68103242 1.8430001
0.19307619 0.68454289 1.8430001
0.20220344 0.68384081 1.8430001
0.18956572 0.69156384 1.8430001
0.19307619 0.69331908 1.8430001
0.20360763 0.69507432 1.8430001
0.20360763 0.70209527 1.8430001
-0.14647524 0.17294668 1.853
-0.15176953 0.18353523 1.853
-0.14647524 0.18000571 1.853
-0.15441668 0.19324142 1.853
0.21883048 0.26294953 1.853
0.22353654 0.26236129 1.853
-0.061766669 0.58590096 1.853
-0.070590481 0.59648955 1.853
-0.062354922 0.59413654 1.853
-0.054707624 0.59472477 1.853
0.14647524 0.60707814 1.853
0.16588762 0.60531336 1.853
0.17471144 0.60354859 1.853
0.18000571 0.60354859 1.853
0.14647524 0.6123724 1.853
0.15176953 0.6123724 1.853
0.16353461 0.61413717 1.853
-0.07412 0.63531429 1.853
-0.063531429 0.63531429 1.853
-0.056472383 0.63531429 1.853
-0.07647302 0.64472634 1.853
-0.052942861 0.64766765 1.853
-0.049413335 0.64237338 1.853
-0.075884759 0.65296191 1.853
-0.052942861 0.65296191 1.853
-0.049413335 0.65472668 1.853
-0.053825241 0.66443288 1.853
-0.049413335 0.66002095 1.853
0.18706477 0.6635505 1.853
0.19235906 0.66002095 1.853
-0.060001906 0.67766857 1.853
-0.056472383 0.67237431 1.853
0.18353525 0.67502141 1.853
0.19765334 0.67413902 1.853
0.20647715 0.67413908 1.853
0.21177144 0.67413908 1.853
-0.060001906 0.68296289 1.853
-0.056472383 0.68472767 1.853
0.1764762 0.68472767 1.853
0.18353523 0.68428648 1.8529999
0.19588858 0.68561006 1.853
0.18441764 0.69443381 1.853
0.19482972 0.6953162 1.853
0.20118286 0.69531614 1.853
0.19588858 0.70237529 1.853
0.20118286 0.70414007 1.853
-0.15436286 0.17210573 1.863
-0.14637856 0.17565429 1.863
-0.15755658 0.18523544 1.8630002
-0.15968572 0.19517143 1.863
-0.15968572 0.20226859 1.863
-0.062100001 0.58551431 1.863
-0.054648004 0.58622402 1.8630002
-0.053228572 0.59438574 1.863
0.15613715 0.59970862 1.863
0.16678286 0.59970862 1.863
0.17210573 0.59970862 1.863
-0.049680002 0.60503149 1.863
0.14726572 0.60503149 1.863
0.15436287 0.60503149 1.863
0.16441715 0.60444003 1.863
0.17151429 0.60444003 1.863
0.14194286 0.61745143 1.863
0.15732001 0.61272001 1.863
0.16323429 0.61390287 1.863
0.17388001 0.61390281 1.863
0.18275145 0.6103543 1.863
0.14726572 0.62277436 1.863
0.15684685 0.62241948 1.8630002
0.16500857 0.62543577 1.863
0.17476715 0.62188721 1.863
-0.046131432 0.63874286 1.863
0.16500857 0.63164574 1.863
-0.046722859 0.64524859 1.863
-0.047314286 0.65412003 1.863
-0.047905717 0.66358286 1.863
0.18275145 0.66535711 1.863
-0.053228572 0.67600286 1.863
-0.04731429 0.67482001 1.863
0.17742857 0.67777717 1.863
0.18239659 0.67351896 1.8630002
-0.055002861 0.68309999 1.863
-0.049680002 0.68132573 1.863
0.17529945 0.68416458 1.8630002
0.17624573 0.69315434 1.863
0.18334287 0.69433719 1.863
0.18807429 0.70261717 1.863
-0.16173206 0.17243493 1.8730001
-0.15519142 0.17838097 1.8730001
-0.16411048 0.18551619 1.8730001
-0.16553754 0.19550553 1.8730001
-0.053514287 0.57795429 1.8730001
-0.060649525 0.58508956 1.8730001
-0.055892702 0.58271116 1.8730001
-0.049946669 0.5850895 1.8730001
-0.049946669 0.59579241 1.8730001
0.15483467 0.59650594 1.8730001
0.16411048 0.59757626 1.8730001
-0.049946669 0.60292763 1.8730001
0.14627241 0.60411686 1.8730001
0.16232666 0.60471141 1.8730001
-0.048162859 0.61541426 1.8730001
0.14270477 0.61363047 1.8730001
0.16054286 0.6100629 1.8730001
0.18373239 0.61719811 1.8730001
-0.048162859 0.62076575 1.8730001
0.14270477 0.62611717 1.8730001
0.15519142 0.62433338 1.8730001
0.18432699 0.62314415 1.8730001
0.19265144 0.62076575 1.8730001
-0.044595238 0.63682002 1.8730001
0.14627239 0.63146859 1.8730001
0.15697524 0.63325238 1.8730001
0.16268343 0.63646328 1.8730001
-0.042811431 0.64930671 1.8730001
0.15697524 0.64217144 1.8730001
0.1651298 0.6452294 1.8730001
0.17124574 0.64573908 1.8730001
-0.042811431 0.65465808 1.8730001
0.1676781 0.65465808 1.8730001
0.17481335 0.65465814 1.8730001
0.18313777 0.6552527 1.8730001
-0.044000637 0.66357714 1.8730001
0.1676781 0.66000956 1.8730001
0.17719175 0.66238797 1.8730001
0.18551621 0.6625579 1.8730001
0.19265144 0.66357714 1.8730001
-0.045189843 0.67309076 1.8730001
0.17525929 0.67472601 1.8730001
0.18194857 0.67071241 1.8730001
0.13200191 0.68141526 1.8730001
0.17213762 0.68409097 1.8730001
0.17124572 0.6939019 1.8730001
-0.16498667 0.16857333 1.883
-0.16570401 0.17789868 1.8830001
-0.16857333 0.18471333 1.8830001
-0.17216 0.19188666 1.8830001
-0.050213337 0.58104002 1.8830001
-0.045730002 0.58462667 1.8830001
0.15422668 0.58462667 1.8830001
-0.045730002 0.59448999 1.8830001
0.14705335 0.59718001 1.8830001
0.15422669 0.59466934 1.8830001
0.16319335 0.59538668 1.8830001
-0.046626668 0.60614669 1.883
0.13988 0.60794002 1.8830001
0.14466222 0.60375559 1.883
0.15064001 0.60256004 1.8830001
0.16140001 0.60256004 1.8830001
0.19009334 0.62766671 1.8830001
0.14466222 0.63723111 1.883
0.15243334 0.63663334 1.8830001
0.18650667 0.63125336 1.8830001
-0.035866667 0.64918667 1.883
-0.028693335 0.64918667 1.8830001
0.13988 0.6438067 1.8830001
0.14526001 0.64560002 1.8830003
0.15377833 0.64560008 1.8830003
0.16140001 0.64918667 1.8830001
-0.037659999 0.65636003 1.8830003
0.14705335 0.65277338 1.8830001
0.15691668 0.65725672 1.8830001
0.16283467 0.65707737 1.8830001
-0.035866667 0.66353333 1.883
0.15602002 0.66532671 1.8830001
0.16426934 0.66568536 1.8830001
0.17485 0.66622335 1.8830001
-0.04304 0.67250001 1.8830001
-0.039453335 0.67429334 1.883
0.15602002 0.6742934 1.8830001
0.16618222 0.67489117 1.8830003
0.17335556 0.67190224 1.883
0.13808668 0.68505335 1.8830001
0.15602 0.68505335 1.8830003
0.16498666 0.68505329 1.8830003
0.16737777 0.69342226 1.883
-0.17316572 0.1875962 1.8940001
-0.010822858 0.29221717 1.8940001
-0.0072152382 0.29221717 1.8940001
-0.05050667 0.5808267 1.8940001
-0.043291431 0.58443433 1.8940001
-0.037106939 0.58391893 1.8940001
0.14791238 0.58623815 1.8940001
0.15152 0.58623815 1.8940001
-0.043291431 0.59525716 1.8940001
-0.039683811 0.59525716 1.8940001
0.14520666 0.5961591 1.8940001
0.15422571 0.59255147 1.8940001
0.14189969 0.60367495 1.8940001
-0.04689905 0.61690289 1.8940001
0.14069715 0.63854861 1.8940001
0.19661525 0.63133335 1.8940001
0.13588698 0.6469664 1.8940001
0.14069715 0.64215624 1.8940001
-0.032468572 0.65658671 1.8940001
-0.027057145 0.65658671 1.8940001
0.13708954 0.65478289 1.8940001
0.14189969 0.65538412 1.8940001
0.15332381 0.65658671 1.8940001
-0.032468572 0.66199815 1.8940001
-0.027057145 0.66019434 1.8940001
0.14430475 0.66380191 1.8940002
0.15242191 0.66290003 1.8940001
-0.037880003 0.67101717 1.8940001
0.12626667 0.67823243 1.8940001
0.14550729 0.67342228 1.8940001
0.15422572 0.67552674 1.8940001
0.16354539 0.67702991 1.8940001
0.13528572 0.68364382 1.8940001
0.14475571 0.68499672 1.8940001
0.15152 0.68725145 1.8940001
0.16595048 0.68905526 1.8940001
0.15152 0.69266289 1.8940001
-0.17226666 0.17408 1.904
-0.15957335 0.27925333 1.904
-0.16320001 0.28650668 1.904
-0.15776001 0.28650668 1.904
-0.18133333 0.29738668 1.904
-0.17356192 0.2947962 1.9040002
-0.016924446 0.29255113 1.9039999
-0.18133333 0.30101335 1.904
-0.17408001 0.30101335 1.9039999
-0.029013334 0.55850667 1.904
-0.03626667 0.56938666 1.904
-0.038080003 0.57664001 1.904
-0.045333333 0.58208001 1.904
-0.038080003 0.58026671 1.904
0.14506668 0.58752 1.904
-0.03747556 0.59598225 1.9039999
0.13539557 0.59719115 1.9039999
0.14325334 0.59477335 1.9040002
-0.04352 0.6074667 1.904
-0.039893337 0.60565341 1.904
0.13600001 0.60565341 1.904
-0.04352 0.61290669 1.904
0.1088 0.61471999 1.904
0.11363556 0.61532444 1.9039999
0.13600001 0.61290669 1.904
0.1088 0.6219734 1.904
0.11363556 0.62136894 1.9039999
0.19584 0.63829339 1.9039999
0.11696 0.64826667 1.904
0.12512 0.64736003 1.904
0.13297778 0.64494228 1.9040002
0.11786667 0.65280002 1.904
0.12572445 0.65400892 1.9039999
0.13237335 0.65461338 1.904
-0.025386667 0.66730666 1.9039999
0.12548266 0.66440541 1.904
0.13373333 0.66413343 1.9040002
0.12602666 0.67546672 1.904
0.13418667 0.67456001 1.9040002
0.14144 0.67818671 1.904
0.13328001 0.68272007 1.904
0.14325334 0.68181336 1.904
0.15232001 0.68362665 1.904
-0.17690954 0.17873333 1.9150001
-0.18238096 0.18785238 1.9150001
-0.1763016 0.18602858 1.9150001
-0.17873333 0.19332382 1.9150001
-0.16049525 0.27721906 1.9150001
-0.15502381 0.27721906 1.9150001
-0.16292699 0.28329843 1.9150001
-0.15563175 0.28208256 1.9150001
-0.025533333 0.2881619 1.9150001
-0.16487238 0.29326856 1.9150002
-0.025012245 0.29441497 1.9150001
-0.014590477 0.29910478 1.9150001
-0.0054714289 0.29910478 1.9150001
-0.025533333 0.53984761 1.9150001
-0.018238096 0.53984761 1.9150001
-0.036476191 0.54531908 1.9150001
-0.025533333 0.54531908 1.9150001
-0.016414287 0.54531902 1.9150001
-0.046203177 0.55565399 1.9150001
-0.035017144 0.55516762 1.9150002
-0.025989287 0.55398214 1.9150001
-0.017022222 0.55200642 1.9150001
-0.041035719 0.56629288 1.9150001
-0.034652382 0.56538099 1.9150001
-0.025533333 0.56538099 1.9150001
-0.018238096 0.56355715 1.9150001
-0.04422738 0.57586783 1.9150001
-0.033740479 0.57632381 1.9150001
-0.029180953 0.57632381 1.9150001
0.12401904 0.57632375 1.9150001
0.13313809 0.57814765 1.9150001
-0.032828573 0.58361906 1.9150001
-0.027965078 0.58605081 1.9150001
0.12474857 0.58507812 1.9150002
0.1349619 0.5854429 1.9150001
0.14225715 0.58726668 1.9150001
-0.032828573 0.59273815 1.9150001
-0.027357144 0.59456199 1.9150001
-0.012766667 0.59820956 1.9150001
-0.0072952383 0.59820956 1.9150001
0.11490002 0.59456199 1.9150001
0.12401904 0.59456187 1.9150001
0.1349619 0.59410596 1.9150001
0.14225715 0.59091431 1.9150001
-0.040123813 0.60915238 1.9150001
-0.036476191 0.60550481 1.9150001
0.11490001 0.60185719 1.9150001
0.12620762 0.60477525 1.9150002
0.13350287 0.60696375 1.9150002
-0.040123813 0.61644763 1.9150001
0.094838098 0.6128 1.9150001
0.10456508 0.61401588 1.9150001
0.12766667 0.6128 1.9150001
0.13131429 0.61462379 1.9150001
-0.041947622 0.62374288 1.9150001
-0.036476191 0.6273905 1.9150001
-0.029180953 0.62556672 1.9150001
0.09666191 0.62374288 1.9150001
0.10432191 0.62447238 1.9150002
-0.040123813 0.63103813 1.9150001
-0.036476191 0.63286197 1.9150001
-0.026992381 0.63614482 1.9150002
-0.023709524 0.64198101 1.9150001
0.10669287 0.6556595 1.9150001
0.1130762 0.65657145 1.9150001
0.10760477 0.6638667 1.9150001
0.11490002 0.6638667 1.9150001
0.12183048 0.66313714 1.9150002
0.10760477 0.67116195 1.9150001
0.11490001 0.67116195 1.9150001
0.12219524 0.67480958 1.9150001
0.12037143 0.68210477 1.9150001
-0.18333334 0.17966667 1.9250001
-0.18333334 0.18333334 1.9250001
-0.17966667 0.18516667 1.9250001
-0.154 0.28783333 1.9250001
-0.16133334 0.29700002 1.9250001
-0.15473333 0.29553336 1.925
-0.14666668 0.29700002 1.9250001
-0.16500001 0.30250001 1.9250001
-0.154 0.30250004 1.9250001
-0.14666668 0.30066669 1.9250001
-0.023833334 0.30250001 1.9250001
-0.014666667 0.30433336 1.9250001
-0.0073333336 0.30433336 1.9250001
-0.034466665 0.53460002 1.925
-0.026888892 0.53655559 1.9250001
-0.017111111 0.53777784 1.9250001
-0.033 0.54449999 1.9250001
-0.012222223 0.54388887 1.9250001
-0.041250002 0.55366671 1.9250001
-0.033 0.55183339 1.9250001
-0.012222223 0.55366665 1.9250001
-0.044611111 0.56466669 1.9250001
-0.022 0.56100005 1.9250001
-0.018333334 0.56100005 1.9250001
0.11366668 0.56650001 1.9250001
-0.023833334 0.57383335 1.9250001
0.11366668 0.57749999 1.9250001
-0.025666667 0.58483338 1.9250001
0.11366668 0.58483332 1.9250001
-0.022 0.59400004 1.9250001
-0.012833334 0.59766668 1.9250001
-0.0073333336 0.59583336 1.9250001
0.11220001 0.59253341 1.925
0.12100001 0.59033334 1.9250001
-0.033 0.60133338 1.9250001
-0.025142858 0.60604763 1.9250001
-0.0154 0.60500002 1.925
-0.0048888889 0.60377783 1.9250001
0 0.60133338 1.9250001
0.12100001 0.60500002 1.9250001
-0.036666669 0.616 1.9250001
-0.028416667 0.61508334 1.9250001
0.084333338 0.61233336 1.9250001
0.095333338 0.616 1.9250001
0.10266667 0.61600006 1.9250001
-0.035444446 0.62577778 1.9250001
-0.025666669 0.62577778 1.9250001
0.088 0.62516665 1.9250001
0.094416671 0.62424999 1.9250001
0.10266667 0.62333333 1.9250001
-0.033 0.63433337 1.9250001
-0.023833334 0.63433337 1.9250001
0.086166665 0.63616669 1.9250001
0.095333338 0.63433331 1.9250001
-0.033 0.64166671 1.9250001
0.086166665 0.64166671 1.9250001
0.093500003 0.64166671 1.9250001
0.099000007 0.66733336 1.9250001
0.10266667 0.66550004 1.9250001
0.099000007 0.671 1.9250001
0.10266667 0.671 1.9250001
0.1155 0.67833334 1.9250001
0.12100001 0.68200004 1.9250001
-0.21019429 0.03687619 1.9360001
-0.20466286 0.03687619 1.9360001
-0.19913143 0.03687619 1.9360001
-0.21019429 0.040563811 1.9360001
-0.20466286 0.040563811 1.9360001
-0.22310096 0.055314288 1.9360001
-0.21756953 0.055314288 1.9360001
-0.22371556 0.063918732 1.9360002
-0.22494477 0.070064768 1.9360001
-0.18253715 0.17700572 1.9360001
-0.15119238 0.28763428 1.9360001
-0.14750476 0.28763428 1.9360001
-0.15119238 0.29316571 1.9360001
-0.14750476 0.29316571 1.9360001
-0.033188574 0.29685333 1.9360001
-0.026550859 0.3068099 1.9360001
-0.014750477 0.3088381 1.9360001
-0.0073752385 0.30976 1.9360001
-0.023969524 0.31344762 1.9360001
-0.016594287 0.31344762 1.9360001
-0.022125715 0.53839242 1.9360001
-0.014750477 0.53839242 1.9360001
0.088502862 0.55683053 1.9360001
0.095878102 0.55498672 1.936
0.10325333 0.55498672 1.9360001
-0.014750477 0.56420571 1.9360001
0.092190482 0.56051815 1.9360001
0.10509714 0.56789333 1.9360001
0.1143162 0.56420571 1.9360002
-0.047939051 0.57526857 1.9360001
0.099565715 0.57158095 1.9360001
0.1054659 0.57453102 1.9360001
0.1143162 0.57526857 1.9360002
-0.025813334 0.58264381 1.9360001
0.10571174 0.58387303 1.9360002
-0.012906667 0.59739429 1.9360001
0.10694095 0.59186286 1.9360001
-0.018438095 0.60108191 1.9360001
-0.0036876192 0.60108191 1.9360001
0 0.60108191 1.9360001
0.084815241 0.60845715 1.9360001
-0.02335492 0.61829084 1.9360002
-0.014750477 0.61629337 1.936
-0.0061460324 0.61337399 1.9360002
0.077440001 0.61583239 1.9360001
0.084815241 0.61706156 1.936
-0.033188574 0.62689525 1.9360001
-0.023969524 0.62505144 1.9360001
-0.016594287 0.62505144 1.9360001
0.077440001 0.62320763 1.9360001
0.084077716 0.62468266 1.9360001
-0.016594287 0.63427049 1.936
0.086044453 0.63304132 1.9360002
0.092190482 0.63427049 1.9360001
-0.014750478 0.64348954 1.936
0.10325333 0.67852193 1.9360001
0.11800382 0.68589717 1.9360001
-0.19655429 0.037085716 1.9470001
-0.20582572 0.044502858 1.9470001
-0.22375047 0.056864768 1.9470001
-0.21756953 0.055628572 1.9470001
-0.22251429 0.066754289 1.9470001
-0.21695143 0.064900003 1.9470001
-0.22529572 0.073244289 1.9470001
-0.21880572 0.07046286 1.9470001
-0.15205143 0.28370571 1.9470001
-0.14587049 0.28679621 1.9470001
-0.03523143 0.29483145 1.9470001
-0.03523143 0.30410287 1.9470001
-0.027443429 0.31671199 1.9470001
-0.014834288 0.31770095 1.9470001
-0.025960002 0.32412916 1.9470001
-0.016688572 0.32450002 1.9470001
-0.018542858 0.33006287 1.9470001
-0.016070478 0.53650665 1.9470001
-0.011125715 0.54516 1.9470001
-0.0055628577 0.5488686 1.9470001
0.077880003 0.54516006 1.9470001
0.084237561 0.54463023 1.9470003
-0.0074171433 0.55257714 1.9470001
0.077880003 0.55628568 1.9470001
0.08483357 0.55582219 1.9470003
0.094568573 0.55257714 1.9470001
0.10013143 0.55257714 1.9470001
-0.011125715 0.56370288 1.9470001
0.077880003 0.56555712 1.9470001
0.085297145 0.56555712 1.9470001
0.095186673 0.56617522 1.9470001
0.10291286 0.56648427 1.9470001
0.11311144 0.56370288 1.9470001
-0.014834287 0.57112002 1.9470001
0.077880003 0.57482857 1.9470001
0.085826941 0.57376897 1.9470003
0.094568573 0.57482862 1.9470001
0.10013143 0.57482862 1.9470001
-0.022251429 0.58224571 1.9470001
0.089005716 0.58224571 1.9470001
0.095186673 0.58348191 1.9470001
0.10198572 0.58502716 1.9470001
-0.0074171433 0.59707999 1.9470001
0.064900003 0.59707999 1.9470001
0.10384 0.59337145 1.9470001
-0.018542858 0.60078859 1.9470001
-0.0037085717 0.60078859 1.9470001
0 0.60078859 1.9470001
0.066754289 0.60449719 1.9470001
0.074171431 0.60727859 1.9470001
0.083442859 0.60820574 1.9470001
0.10754857 0.60078859 1.9470001
-0.033377144 0.61562288 1.9470001
-0.0037085717 0.61933148 1.9470001
0 0.61191434 1.9470001
0.066754289 0.61562288 1.9470001
0.073707856 0.61515933 1.9470003
0.08406096 0.61438674 1.9470001
0.094568573 0.61562288 1.9470001
-0.033377144 0.62489432 1.9470001
-0.011125715 0.62674862 1.9470001
-0.0055628577 0.62489432 1.9470001
0.066754289 0.62489432 1.9470001
0.073429719 0.62452346 1.9470001
-0.011125716 0.63416576 1.9470001
-0.0059337146 0.63342404 1.9470001
0.075654857 0.63268232 1.9470001
0.081588574 0.63602006 1.9470001
-0.011125715 0.64158291 1.9470001
-0.0074171438 0.64529145 1.9470001
0.077880003 0.64158291 1.9470001
0.081588574 0.64529145 1.9470001
-0.19766477 0.029836191 1.9580001
-0.21444763 0.048483811 1.9580001
-0.20363203 0.046246093 1.9579999
-0.1967324 0.043821905 1.9580001
-0.21407469 0.055942856 1.9579999
-0.20736153 0.055196952 1.9579999
-0.21258287 0.065266669 1.9580001
-0.20885333 0.063401908 1.9580001
-0.23123048 0.078320004 1.9580001
-0.22283906 0.077387623 1.9580001
-0.21444763 0.074590474 1.9580001
-0.23123048 0.082049526 1.9580001
-0.22625779 0.0832927 1.9580001
-0.21444763 0.082049526 1.9580001
-0.23123048 0.10629143 1.9580001
-0.23123048 0.11188572 1.9580001
-0.20388062 0.13674921 1.9580001
-0.20263748 0.14296508 1.9580001
-0.19020572 0.1771524 1.9580001
-0.1864762 0.17528762 1.9580001
-0.19020572 0.18274668 1.9580001
-0.14731619 0.28344381 1.9580001
-0.042267937 0.29711875 1.9580001
-0.037295241 0.29463241 1.9580001
-0.052213334 0.30955049 1.9580001
-0.044288099 0.30582097 1.9580001
-0.037295241 0.30955049 1.9580001
-0.0037295239 0.30955049 1.9580001
0.0012431747 0.30830732 1.9580001
-0.054078095 0.31514478 1.9580001
-0.044754293 0.31514478 1.9580001
-0.035430476 0.31514478 1.9580001
-0.0055942857 0.31514478 1.9580001
0.0027971428 0.31421238 1.9580001
-0.05594286 0.32633334 1.9580001
-0.044288103 0.32493481 1.9580001
-0.03636286 0.32353619 1.9580001
-0.026106667 0.32819811 1.9580001
-0.011188571 0.32446858 1.9580001
-0.0074590477 0.32446858 1.9580001
0.0024863493 0.32695493 1.9580001
0.016782857 0.32819811 1.9580001
-0.055010479 0.33565715 1.9580001
-0.045686666 0.33379239 1.9580001
-0.025360763 0.33341944 1.9579999
-0.0074590477 0.33192763 1.9580001
0 0.33192763 1.9580001
0.015664 0.33789486 1.9579999
0.022377145 0.33752191 1.9580001
-0.05594286 0.34311619 1.9580001
-0.048483811 0.34311619 1.9580001
0.013985716 0.34404856 1.9580001
0.022377145 0.34498096 1.9580001
-0.016782857 0.53518665 1.9580001
-0.024241906 0.54078096 1.9580001
-0.011188572 0.54264569 1.9580001
-0.0065266667 0.54544288 1.9580001
0 0.54824001 1.9580001
0.072725713 0.54637527 1.9580001
0.088265397 0.54326731 1.9580001
-0.0055942857 0.55756378 1.9580001
0 0.55196953 1.9580001
0.073098674 0.55495316 1.9579999
0.089508578 0.55196953 1.9580001
0.095102862 0.55196953 1.9580001
-0.0074590477 0.56315809 1.9580001
0.072725713 0.56502283 1.9580001
0.10691302 0.56564444 1.9580001
0.11188572 0.56315809 1.9580001
-0.011188572 0.57248187 1.9580001
0.075522862 0.57434666 1.9580001
-0.022377145 0.58926481 1.9580001
-0.01864762 0.58180571 1.9580001
0.078320004 0.5836705 1.9580001
0.085033149 0.5847894 1.9579999
0.0932381 0.58926481 1.9580001
-0.022377145 0.59485912 1.9580001
-0.0055942857 0.59672385 1.9580001
0.0037295239 0.59672385 1.9580001
0.057186034 0.59548068 1.9580001
0.065266669 0.59672385 1.9580001
0.072725713 0.59672385 1.9580001
0.10069714 0.59299433 1.9580001
-0.014918096 0.60045338 1.9580001
-0.0037295239 0.60045338 1.9580001
0 0.60045338 1.9580001
0.058740001 0.6032505 1.9580001
0.063401908 0.60604763 1.9580001
0.074057691 0.6041829 1.9580001
0.082049526 0.60791242 1.9580001
0.10442667 0.60045338 1.9580001
0 0.61910099 1.9580001
0.059672382 0.61350667 1.9580001
0.063401908 0.61537147 1.9580001
0.089508578 0.61537147 1.9580001
0 0.6246953 1.9580001
0.059672382 0.62283051 1.9580001
0.063401908 0.6246953 1.9580001
0 0.63401908 1.9580001
0.064893715 0.63476503 1.9579999
0.072725713 0.6377486 1.9580001
-0.0037295239 0.64520764 1.9580001
0 0.64520764 1.9580001
0.065266669 0.64520764 1.9580001
0.0735249 0.64574045 1.9580001
-0.0037295239 0.65266669 1.9580001
0 0.65266669 1.9580001
0.065266669 0.65266669 1.9580001
0.074590474 0.65266669 1.9580001
0.03580343 0.71681458 1.9579999
0.041024763 0.71420383 1.9580001
0.029836191 0.72725719 1.9580001
0.035430476 0.7253924 1.9580001
0.041024763 0.72725719 1.9580001
0.029836191 0.73471624 1.9580001
0.035430476 0.73285151 1.9580001
0.024863491 0.74714798 1.9580001
-0.19502477 0.026253335 1.9690001
-0.19502477 0.034504384 1.9690001
-0.19277449 0.045755815 1.9690001
-0.18602362 0.045755811 1.9690001
-0.20252572 0.054381907 1.9690001
-0.19427468 0.054006863 1.9690001
-0.18471096 0.053444289 1.9690001
-0.21002668 0.067508571 1.9690001
-0.20440096 0.063758098 1.969
-0.19877525 0.060007621 1.9690001
-0.21002668 0.075009525 1.9690002
-0.20533857 0.074071907 1.9690001
-0.19877525 0.071259052 1.9690001
-0.24003048 0.086260952 1.9690001
-0.23502986 0.085010797 1.9690002
-0.22252826 0.085010797 1.9690002
-0.21283954 0.085323334 1.9690001
-0.24003048 0.093761906 1.9690001
-0.23440476 0.093761913 1.969
-0.22556438 0.093761906 1.969
-0.21565239 0.093761906 1.9690001
-0.24096809 0.10595095 1.9690001
-0.2353424 0.10407572 1.9690001
-0.22502857 0.10501333 1.9690001
-0.21659002 0.10501334 1.9690001
-0.24190572 0.11438952 1.9690001
-0.23502986 0.11501461 1.9690002
-0.22502857 0.11438952 1.969
-0.21752763 0.11438952 1.9690001
-0.24190572 0.12001524 1.9690001
-0.23440476 0.12376571 1.969
-0.22502857 0.12376572 1.9690001
-0.21602745 0.12301562 1.9690001
-0.23628001 0.13126667 1.9690001
-0.2244035 0.13439207 1.969
-0.21330836 0.13501714 1.969
-0.20377588 0.13251682 1.9690002
-0.19727506 0.13426706 1.9690001
-0.21190192 0.1425181 1.9690001
-0.21002668 0.15001905 1.9690001
-0.20627619 0.15001905 1.9690001
-0.19502477 0.17627239 1.9690001
-0.19502477 0.1818981 1.9690001
-0.20252572 0.25503239 1.9690002
-0.19727506 0.2542823 1.9690001
-0.20377588 0.26378348 1.9690002
-0.19752508 0.26378348 1.9690002
-0.20627619 0.27190953 1.9690001
-0.19502477 0.27003428 1.9690001
-0.15376952 0.28128573 1.9690001
-0.054381907 0.29628763 1.9690001
-0.047506034 0.29503748 1.9690002
-0.060007621 0.30753905 1.9690001
-0.054381907 0.30378857 1.969
-0.048756193 0.30378857 1.9690001
-0.06150781 0.31579012 1.9690001
-0.056257144 0.31128955 1.9690001
-0.0037504763 0.3187905 1.9690001
0.0056257145 0.3187905 1.9690001
-0.061882861 0.32441622 1.9690001
-0.053756829 0.32379112 1.9690002
-0.048756193 0.32254097 1.9690001
-0.033754285 0.32629144 1.9690001
-0.0037504763 0.32441622 1.9690001
0.0037504763 0.32441622 1.9690001
-0.063289292 0.3333236 1.969
-0.05250667 0.33191717 1.9690001
-0.04500572 0.33754286 1.9690002
-0.035004448 0.33254221 1.9690002
-0.0037504763 0.33191717 1.9690001
0.0037504763 0.33379242 1.9690002
0.011251429 0.33379239 1.9690001
-0.060007621 0.34316856 1.9690001
-0.05250667 0.34316856 1.9690001
-0.045005716 0.34316856 1.9690001
0.0056257145 0.43505526 1.9690001
0.033754285 0.44630668 1.9690002
0.026253335 0.45005715 1.9690001
0.034379367 0.45318255 1.969
0.04313048 0.45755813 1.9690001
0.033754285 0.4613086 1.9690002
0.04313048 0.4613086 1.9690001
0.0018752381 0.5269419 1.9690001
0.046880953 0.52881718 1.9690001
-0.016877143 0.5344429 1.9690001
-0.0075009526 0.5344429 1.9690001
0.0025003175 0.53381777 1.9690002
0.048756193 0.5344429 1.9690001
-0.011251429 0.54006857 1.9690001
-0.0046880953 0.54288149 1.9690001
0.0018752381 0.54381907 1.969
0.011251429 0.54756957 1.9690001
0.048756193 0.54194379 1.9690001
0.053756829 0.54131871 1.9690002
0.063289285 0.54428786 1.969
0.075009525 0.54381907 1.9690002
0.0018752381 0.55507052 1.9690001
0.065633334 0.55319524 1.9690001
-0.0037504763 0.56444669 1.9690001
0.067508571 0.56632191 1.9690001
0.071259052 0.56257147 1.9690001
-0.0075009526 0.57007241 1.9690001
0.071259052 0.57569814 1.9690001
-0.013126668 0.5813238 1.9690001
0.018752381 0.58507431 1.9690001
0.023753017 0.58632451 1.9690002
0.071259052 0.5813238 1.9690001
-0.011251429 0.59445047 1.9690001
0.0062507936 0.59507555 1.9690002
0.018752381 0.59632576 1.9690001
0.022502858 0.59445047 1.9690001
0.054381907 0.59445047 1.9690001
0.060007621 0.59632576 1.9690001
0.086260952 0.59257525 1.9690001
0.097512387 0.59632576 1.9690001
-0.011251429 0.6000762 1.9690001
0.0037504763 0.6038267 1.9690001
0.022502858 0.6000762 1.9690001
0.053756829 0.6038267 1.9690002
0.078760006 0.6038267 1.9690001
0.10126286 0.6000762 1.9690001
0.0037504763 0.61507809 1.9690002
0.056257144 0.61507815 1.9690002
0.056257144 0.62445432 1.9690001
0.060007621 0.6225791 1.9690001
0.0037504763 0.63383049 1.9690002
0.056257144 0.63383049 1.9690002
0.060007621 0.63383055 1.9690002
0 0.64883238 1.9690001
0.054756951 0.645832 1.9690001
0.060007621 0.64508194 1.9690002
0.060007621 0.65445817 1.9690001
0.031879049 0.68258667 1.9690001
0.03000381 0.72384191 1.9690002
0.018752381 0.73696864 1.9690001
0.024378097 0.73696864 1.9690001
0.018752381 0.7425943 1.9690001
0.024378097 0.7425943 1.9690001
-0.1936 -0.11440001 1.9800001
-0.18857144 -0.11691429 1.9800001
-0.19503674 -0.10613878 1.9800003
-0.18731429 -0.10811429 1.9800001
-0.19385144 -0.095040001 1.9800001
-0.18857144 -0.094285719 1.9800001
-0.19234286 -0.082971431 1.9800001
-0.18857144 -0.082971431 1.9800001
-0.19737144 -0.076685719 1.9800001
-0.18731429 -0.074171431 1.9800001
-0.19234286 0.026400002 1.9800001
-0.19234286 0.032057144 1.9800001
-0.18857144 0.032057144 1.9800001
-0.16782857 0.037714288 1.9800001
-0.18197143 0.044314288 1.9800001
-0.17537145 0.04525714 1.9800001
-0.16782857 0.045257147 1.9800001
-0.19988573 0.056571431 1.9800001
-0.18480001 0.056571431 1.9800001
-0.17537144 0.052800003 1.9800001
-0.19674288 0.06411428 1.9800001
-0.18857144 0.060342859 1.9800001
-0.20365715 0.077314287 1.9800001
-0.19862859 0.075428575 1.9800001
-0.20554286 0.084857151 1.9800001
-0.19988573 0.084857151 1.9800001
-0.24137144 0.094285719 1.9800001
-0.22440001 0.094285719 1.9800001
-0.21346287 0.094285712 1.9800001
-0.20491429 0.095542856 1.9800001
-0.19894287 0.095228575 1.9800001
-0.21270859 0.10560001 1.9800001
-0.20742857 0.10182858 1.9800001
-0.19988573 0.10182858 1.9800001
-0.21308573 0.11502858 1.9800001
-0.20554286 0.11691429 1.9800001
-0.24262857 0.12571429 1.9800001
-0.21214287 0.12540001 1.9800001
-0.20648572 0.12351429 1.9800001
-0.24137144 0.13388571 1.9800001
-0.23382857 0.136849 1.9800003
-0.22251429 0.13577144 1.9800001
-0.21874286 0.13577144 1.9800001
-0.22251429 0.14331429 1.9800001
-0.21591429 0.14614287 1.9800001
-0.20742857 0.14708573 1.9800001
-0.21497144 0.15085715 1.9800001
-0.25268573 0.16594286 1.9800001
-0.19422857 0.16971429 1.9800001
-0.19422857 0.17348573 1.9800001
-0.22251429 0.21685715 1.9800001
-0.21874286 0.21685715 1.9800001
-0.23005715 0.22251429 1.9800001
-0.22251429 0.22251429 1.9800001
-0.21874286 0.22251429 1.9800001
-0.22251429 0.24137144 1.9800001
-0.21591429 0.24420001 1.9800001
-0.20516571 0.24514289 1.9800001
-0.19658573 0.24561429 1.9800003
-0.21497144 0.25457144 1.9800001
-0.20742857 0.25457144 1.9800001
-0.19234286 0.25457144 1.9800001
-0.1855543 0.25494856 1.9800001
-0.21443267 0.26292247 1.9800003
-0.20742857 0.264 1.9800001
-0.19422857 0.26305717 1.9800001
-0.18857144 0.26022857 1.9800001
-0.20365715 0.2753143 1.9800001
-0.19665308 0.2753143 1.9800003
-0.15085715 0.28285715 1.9800001
-0.14708573 0.28285715 1.9800001
-0.060342859 0.29794288 1.9800001
-0.054685719 0.29417145 1.9800001
-0.060342859 0.30360001 1.9800001
-0.066 0.31491429 1.9800001
-0.071657144 0.32245716 1.9800001
-0.067885719 0.32434288 1.9800001
0.0075428574 0.32434288 1.9800001
0.015085715 0.32434288 1.9800001
-0.037714288 0.33942857 1.9800001
0.0075428574 0.33754286 1.9800001
0.015085715 0.33565715 1.9800001
-0.041485716 0.34508574 1.9800001
0.0075428574 0.34508574 1.9800001
0.0075428574 0.3545143 1.9800001
0.015085715 0.352 1.9800001
0.01697143 0.40354288 1.9800001
0.022628572 0.40354288 1.9800001
0.025142858 0.41234288 1.9800001
0.0075428574 0.42994288 1.9800001
0.0028285715 0.43465716 1.9800001
0.043371432 0.43748572 1.9800001
0.0012571429 0.4425143 1.9800001
0.018857144 0.45634288 1.9800001
0.024514288 0.45634288 1.9800001
0.03394286 0.45634288 1.9800001
0.041485716 0.45634288 1.9800001
0.0060342858 0.46313143 1.9800001
0.018857144 0.4601143 1.9800001
0.024514288 0.46200001 1.9800001
0.033 0.46577144 1.9800001
0.043371432 0.46765715 1.9800001
0.015085715 0.47897145 1.9800001
0.034697145 0.47293717 1.9800001
0.043371432 0.4714286 1.9800001
0.0075428574 0.48462859 1.9800001
0.011314286 0.48274288 1.9800001
0.0062857145 0.4928 1.9800001
0.024514288 0.4978286 1.9800001
0.03017143 0.4978286 1.9800001
0.024514288 0.50537151 1.9800001
0.033471432 0.50584286 1.9800003
0.044718366 0.50429392 1.9800003
0.024514288 0.51480001 1.9800001
0.03394286 0.51480001 1.9800001
0.041485716 0.51480001 1.9800001
0.0037714287 0.52548569 1.9800001
0.013828572 0.52674288 1.9800001
0.024514288 0.52422857 1.9800001
0.032434285 0.52271998 1.9800001
0.04525714 0.52548569 1.9800001
-0.013828572 0.53680009 1.9800001
-0.004714286 0.53460002 1.9800001
0.005657143 0.53648573 1.9800001
0.011314285 0.53554291 1.9800001
0.03394286 0.53177142 1.9800001
0.044 0.53554291 1.9800001
0.054308575 0.5362972 1.9800001
0.063171431 0.5383715 1.9800001
-0.022628572 0.54308575 1.9800001
0.0075428574 0.54497147 1.9800001
0.013200001 0.54497147 1.9800001
0.045257144 0.54497147 1.9800001
0.056571431 0.54685718 1.9800001
0.067885719 0.54308575 1.9800001
0.071657144 0.54308575 1.9800001
0.0062857145 0.55440003 1.9800001
0.015085714 0.55440003 1.9800003
0.03017143 0.5506286 1.9800001
0.047142856 0.5506286 1.9800001
0.054685716 0.55251431 1.9800001
0.060342859 0.55628574 1.9800001
0.0018857144 0.5657143 1.9800001
0.014008164 0.5657143 1.9800003
0.024891431 0.5664686 1.9800001
0.03394286 0.5657143 1.9800001
0.065622859 0.56496 1.9800001
-0.0050285715 0.57577139 1.9800001
0.018857144 0.57702857 1.9800001
0.024514286 0.57514286 1.9800001
0.03394286 0.57514286 1.9800001
0.067885719 0.57325715 1.9800001
-0.0132 0.58834291 1.9800001
-0.0075428574 0.58268571 1.9800001
0.0075428574 0.58645713 1.9800001
0.014614286 0.58410001 1.9800003
0.024514288 0.58268571 1.9800001
0.03394286 0.58457142 1.9800001
0.041485716 0.58834291 1.9800001
-0.16782857 0.59965718 1.9800001
-0.016163265 0.59534699 1.9800003
-0.0066000004 0.59682858 1.9800001
0.0028285715 0.59588575 1.9800001
0.014614286 0.59541434 1.9800003
0.026400002 0.59588575 1.9800001
0.03394286 0.59588575 1.9800001
0.044314288 0.59871435 1.9800001
0.054057147 0.59337145 1.9800001
0.066 0.59965718 1.9800001
-0.16782857 0.6034286 1.9800001
-0.01697143 0.6034286 1.9800001
0.0075428574 0.60720003 1.9800001
0.015085715 0.6034286 1.9800001
0.024514288 0.60531431 1.9800001
0.036457147 0.60468572 1.9800001
0.044502862 0.60569149 1.9800001
0.098057143 0.6034286 1.9800001
0.10182858 0.60720003 1.9800001
0.0066 0.61380005 1.9800001
0.036205716 0.61549711 1.9800001
0.045257147 0.61474288 1.9800001
0.052800003 0.61474288 1.9800001
0.0050285715 0.62605715 1.9800001
0.025142858 0.62857145 1.9800001
0.034414288 0.62652862 1.9800003
0.045257147 0.62605715 1.9800001
0.052800003 0.62605715 1.9800001
0.0075428574 0.63548577 1.9800001
0.016028572 0.63642859 1.9800001
0.024514288 0.63548577 1.9800001
0.03394286 0.63548577 1.9800001
0.045257147 0.63548571 1.9800001
0.052800003 0.63548577 1.9800001
0.0060342858 0.64566863 1.9800001
0.016028572 0.64208573 1.9800001
0.024514288 0.64302862 1.9800001
0.033188574 0.64265144 1.9800001
0.04752 0.64416003 1.9800001
0.052800003 0.64302862 1.9800001
0.005657143 0.65434289 1.9800001
0.015085715 0.65434283 1.9800001
0.024514288 0.65434289 1.9800001
0.032057144 0.65434289 1.9800001
0.049028572 0.65434289 1.9800001
0.054685719 0.6562286 1.9800001
0.0037714287 0.66000003 1.9800001
0.03017143 0.66188574 1.9800001
0.049028572 0.66000003 1.9800001
0.054685719 0.66000003 1.9800001
-0.0075428574 0.67697144 1.9800001
0.0037714287 0.67885715 1.9800001
0.015085715 0.67885715 1.9800001
0.005657143 0.68262857 1.9800001
0.01584 0.68413717 1.9800001
0.024514288 0.6864 1.9800001
0.026400002 0.69205719 1.9800001
0.034414288 0.69347155 1.9800003
0.041485716 0.69582862 1.9800001
0.035828575 0.7090286 1.9800001
0.041485716 0.7090286 1.9800001
0.035828575 0.71280003 1.9800001
0.041485716 0.71280003 1.9800001
0.018857144 0.72600001 1.9800001
0.024514288 0.72788572 1.9800001
0.032057144 0.72034287 1.9800001
0.016028572 0.73637146 1.9800001
0.024514288 0.73354286 1.9800001
0.013200001 0.74485719 1.9800001
-0.20109715 -0.16694857 1.9920001
-0.19730286 -0.16505143 1.9920001
-0.20109715 -0.1328 1.9920001
-0.19540572 -0.1328 1.9920001
-0.20109715 -0.12521143 1.9920001
-0.19540572 -0.12521143 1.9920002
-0.18700409 -0.12521143 1.9920003
-0.21248001 -0.11572572 1.9920001
-0.20536573 -0.11430287 1.9920003
-0.19730286 -0.11762286 1.9920001
-0.18781716 -0.11572572 1.9920001
-0.20109715 -0.10434286 1.9920001
-0.1897143 -0.098651432 1.9920001
-0.19350858 -0.087268576 1.9920001
-0.18781716 -0.085371435 1.9920001
-0.20109715 -0.07209143 1.9920001
-0.19445714 -0.074937142 1.9920001
-0.18516114 -0.077403426 1.9920002
-0.17833143 -0.075885721 1.9920001
-0.1897143 -0.066400006 1.9920001
-0.20109715 0.013280001 1.9920001
-0.19730286 0.017074287 1.9920001
-0.18592 0.026560001 1.9920001
-0.17833143 0.026560001 1.9920001
