# .PCD v0.7 - Point Cloud Data file format
VERSION 0.7
FIELDS x y z
SIZE 4 4 4
TYPE F F F
COUNT 1 1 1
WIDTH 1486
HEIGHT 1
VIEWPOINT 0 0 0 1 0 0 0
POINTS 1486
DATA ascii
0.036286984 0.23699938 1.7860001
0.042523813 0.23643237 1.7860001
0.057832383 0.23813334 1.7860001
0.062935241 0.23813334 1.7860001
0.013607619 0.24493715 1.7860001
0.027215239 0.24833906 1.7860001
0.034991022 0.24542315 1.7860001
0.044224765 0.24493715 1.7860001
0.054430481 0.24493715 1.7860001
0.064636201 0.24493715 1.7860001
0.075408898 0.24607112 1.7860001
0.082779683 0.24266922 1.7860001
0.035720002 0.25174096 1.7860001
0.044224765 0.25174096 1.7860001
0.055280954 0.25259143 1.7860001
0.066337146 0.25514284 1.7860001
0.073707946 0.25457588 1.7860001
0.023813333 0.26875049 1.7860001
0.057832379 0.26534858 1.7860001
0.064150207 0.26437661 1.7860001
0.071440004 0.26364762 1.7860001
0.032318097 0.2789562 1.7860001
0.057832379 0.2755543 1.7860001
0.064636193 0.27215239 1.7860001
-0.11566476 0.67130923 1.7860001
-0.10772698 0.67584515 1.7860001
-0.10319111 0.68151498 1.7860001
-0.098655239 0.68208194 1.7860001
0.23643239 0.6973905 1.7860001
0.24536239 0.69441384 1.7860001
0.25174096 0.6973905 1.7860001
0.23677258 0.70351398 1.786
0.24493715 0.70419431 1.7860001
0.25174096 0.70079243 1.7860001
0.23699938 0.71326607 1.7860001
0.24437018 0.71326607 1.7860001
0.24833906 0.7229048 1.7860001
0.25514287 0.72630674 1.7860001
0.2646682 0.7266469 1.786
0.25650364 0.73345071 1.786
0.26738971 0.7341311 1.786
0.2755543 0.73651242 1.7860001
0.2466381 0.74841905 1.7860001
0.25627682 0.74558419 1.7860001
0.26492333 0.74459189 1.7860001
0.2755543 0.74459195 1.7860001
0.28576002 0.74841905 1.7860001
0.2466381 0.75522298 1.7860001
0.25471762 0.75564814 1.7860001
0.26308063 0.75749081 1.7860001
0.27691504 0.75658363 1.786
0.28405908 0.75522286 1.7860001
-0.11966667 0.18462856 1.7950001
-0.12308571 0.19488573 1.7950001
-0.11966667 0.19146667 1.7950001
-0.12308572 0.20172381 1.7950001
0.030771431 0.23933335 1.7950001
0.047866669 0.23762381 1.7950001
0.052995242 0.23933335 1.7950001
0.068380952 0.23933335 1.7950001
0.073509529 0.23933335 1.7950001
0.017095238 0.24617144 1.7950001
0.027352381 0.24275239 1.7950001
0.030771431 0.24446192 1.7950001
0.074079365 0.24389207 1.7950001
0.084336512 0.2484508 1.7950001
0.098012708 0.2484508 1.7950001
0.10713016 0.24731113 1.7950001
0.11282858 0.24617143 1.7950001
0.077498414 0.25756827 1.7950001
0.085476197 0.2564286 1.7950001
0.095733345 0.2564286 1.7950001
0.1055631 0.2560012 1.7950001
0.11282858 0.25300953 1.7950001
0.020514287 0.26668572 1.7950001
0.076928571 0.2649762 1.7950001
0.08547619 0.2649762 1.7950001
0.094023809 0.2649762 1.7950001
0.10428096 0.26326668 1.7950001
0.06496191 0.27266905 1.7950001
0.076358728 0.27238414 1.7950001
0.08498776 0.2745007 1.7950001
0.092314288 0.27181429 1.7950001
0.061542861 0.28036192 1.7950001
0.083766669 0.28036192 1.7950001
-0.10257144 0.65987623 1.7950001
-0.097442865 0.65987623 1.7950001
-0.11396826 0.67127305 1.7950001
-0.10599049 0.67412227 1.7950001
-0.096417151 0.67560387 1.7950001
-0.10257144 0.68039048 1.7950001
-0.094756469 0.68332106 1.7950001
0.23933335 0.6855191 1.7950001
0.24275239 0.6855191 1.7950001
0.23847859 0.69492143 1.7950001
0.24275239 0.69235718 1.7950001
0.22679682 0.70489365 1.7950001
0.23249525 0.70432383 1.7950001
0.22907619 0.71458101 1.7950001
0.23386288 0.71389717 1.7950001
0.23728192 0.72347051 1.7950001
0.24412003 0.72552192 1.7950001
0.23933335 0.73338574 1.7950001
0.24617144 0.73509532 1.7950001
0.25471905 0.7385143 1.7950001
0.26326668 0.73680478 1.7950001
0.23933335 0.74706191 1.7950001
0.24617144 0.74535239 1.7950001
0.25437716 0.74535239 1.7950001
0.2649762 0.74193335 1.7950001
0.23819365 0.75446987 1.7950001
0.24275239 0.75560957 1.7950001
0.29318333 0.75817388 1.7950001
-0.12141207 0.1775365 1.8040003
-0.11683048 0.17524572 1.8040001
-0.13057524 0.1855543 1.8040001
-0.12507734 0.18624154 1.8040001
-0.14088382 0.19929905 1.8040001
-0.13263695 0.19723734 1.8040001
-0.12713905 0.19586284 1.8040003
-0.14088382 0.20273525 1.8040001
-0.13401143 0.20273525 1.8040003
-0.12713905 0.20273525 1.8040001
0.089340955 0.24740572 1.8040001
0.09793143 0.24568763 1.8040001
0.10423112 0.24511492 1.8040003
0.11683048 0.24740572 1.8040001
0.089340955 0.25084192 1.8040001
0.092777148 0.25084192 1.8040001
0.11597144 0.25513715 1.8040001
0.12370286 0.2559962 1.804
0.13057524 0.25427809 1.8040001
0.099649526 0.26630479 1.8040001
0.10789639 0.26596117 1.8040001
0.11511239 0.26286858 1.8040001
0.06528762 0.27833143 1.8040001
0.072160006 0.27489525 1.8040001
0.087622859 0.27145904 1.8040001
0.095067941 0.27489525 1.8040003
0.10308572 0.27145904 1.8040001
0.06528762 0.28348571 1.8040001
0.086763814 0.28434476 1.8040001
0.092777148 0.28176764 1.8040001
0.17696381 0.59789717 1.8040001
-0.10308572 0.65803051 1.8040001
-0.096900567 0.65768689 1.8040001
-0.087622859 0.65974861 1.8040001
-0.1065219 0.66662097 1.8040003
-0.09793143 0.66662097 1.8040001
-0.089340955 0.66490287 1.8040001
0.20788953 0.66662097 1.8040001
-0.11511239 0.67005718 1.8040001
-0.10583466 0.67143172 1.8040001
-0.095722452 0.67251164 1.804
-0.08688654 0.67398423 1.804
-0.079032384 0.67692953 1.8040001
0.20846224 0.6712026 1.8040003
0.21304382 0.67177528 1.8040001
-0.086591996 0.68174022 1.8040001
0.22335239 0.69239241 1.8040001
0.23366097 0.69411045 1.804
0.21819809 0.70441908 1.8040001
0.22507048 0.70441908 1.8040001
0.23194286 0.70098287 1.8040001
-0.1261162 0.17794478 1.8140001
-0.13129905 0.18658286 1.8140001
-0.12784381 0.18312763 1.8140001
-0.13820952 0.19349334 1.8140001
0.013820953 0.24359429 1.8140001
0.020731429 0.24532191 1.8140001
0.09444318 0.24647367 1.8140001
0.12266096 0.24877715 1.8140001
0.12266096 0.2522324 1.8140001
0.13129905 0.25914288 1.8140001
0.01727619 0.26950857 1.8140001
0.11575048 0.26950857 1.8140001
0.12482048 0.26562142 1.8140001
0.13129905 0.26432574 1.8140001
0.024186667 0.27641904 1.8140001
0.069104761 0.27987429 1.8140001
0.074287623 0.27987429 1.8140001
0.10250539 0.27411556 1.8140001
0.069104761 0.28332955 1.8140001
0.09501905 0.28678477 1.8140001
0.1002019 0.28678477 1.8140001
0.089836195 0.29196763 1.8140001
0.09501905 0.29024002 1.8140001
0.17794478 0.59775621 1.8140001
0.17794478 0.60466671 1.8140001
0.18312763 0.60466671 1.8140001
-0.11056762 0.65995049 1.8140001
-0.10711239 0.65995049 1.8140001
0.19694857 0.65822291 1.8140001
0.20040381 0.65822291 1.8140001
-0.11171937 0.66570926 1.8140001
-0.10711239 0.66513336 1.8140001
-0.093291432 0.66513336 1.8140001
-0.084653333 0.666861 1.8140001
0.20213144 0.66513336 1.8140001
-0.11575048 0.67031622 1.8140001
-0.093291432 0.67031622 1.8140001
-0.08378952 0.67290759 1.8140001
0.20328319 0.67377144 1.8140001
0.21768001 0.67722666 1.8140001
0.22113524 0.67722666 1.8140001
0.2073143 0.68068194 1.8140001
0.21465668 0.68370533 1.8140001
0.22459047 0.68413723 1.814
0.23265272 0.68644065 1.8140001
0.21471837 0.69450289 1.8140001
0.22459047 0.69400924 1.8140001
0.2349562 0.69104767 1.8140001
0.21508858 0.70314097 1.8140001
0.22459048 0.70314097 1.8140001
-0.12854858 0.17718858 1.8240001
-0.13549715 0.18761143 1.8240001
-0.13636573 0.19369143 1.8240001
0.017371429 0.2432 1.8240001
0.12854858 0.25362286 1.8240001
0.13549715 0.25593904 1.824
0.14505143 0.25622857 1.8240001
0.15981714 0.25362286 1.8240001
0.13758174 0.26335087 1.8240001
0.14418286 0.26404572 1.8240001
0.017371429 0.27446857 1.8240001
0.020845715 0.27446857 1.8240001
0.10596572 0.27794287 1.8240001
0.11291429 0.27446857 1.8240001
0.1216 0.27099431 1.8240001
0.13202286 0.27099431 1.8240001
0.026057145 0.28489146 1.8240002
0.034742862 0.28836572 1.824
0.069485717 0.28836572 1.8240001
0.076434292 0.28662857 1.8240002
0.097280003 0.28315431 1.8240001
0.10364953 0.28431237 1.8240002
0.069485717 0.29357713 1.8240001
0.076434292 0.29184002 1.824
0.085699052 0.29299811 1.824
0.095542863 0.29705143 1.8240001
0.10422858 0.29357716 1.8240002
0.11378285 0.29444572 1.8240001
0.12420572 0.29444572 1.8240001
0.13376001 0.29705143 1.8240001
0.1737143 0.60626292 1.8240001
-0.053272385 0.61379051 1.824
-0.048640002 0.61842287 1.8240001
0.18761143 0.65490294 1.8240001
0.19108573 0.65490294 1.8240001
-0.10075429 0.66011429 1.8240001
-0.090331435 0.66358858 1.8240001
-0.085120007 0.66532576 1.8240001
-0.079908572 0.66706288 1.8240001
0.19629714 0.66358858 1.8240001
-0.079908572 0.67053717 1.8240001
-0.067748576 0.67053717 1.8240001
0.18761143 0.67227435 1.8240001
0.19716571 0.67401147 1.8240001
0.20498288 0.68530291 1.8240001
0.20758858 0.69398856 1.8240001
0.21308954 0.6960153 1.824
0.20845716 0.70354283 1.8240001
0.21540572 0.70528001 1.8240001
-0.13407086 0.17526974 1.8329999
-0.12918286 0.17282572 1.8330001
-0.14314857 0.18853715 1.8330001
-0.13686401 0.18434744 1.8329999
-0.14314857 0.19202858 1.8330001
0.14664 0.25487429 1.8330001
0.15478666 0.25545621 1.8330001
0.16453357 0.25487429 1.8330001
0.17340763 0.25603807 1.8330001
0.13616572 0.26884001 1.8330001
0.14489429 0.26534858 1.8330001
0.15362287 0.26534858 1.8329999
0.16453357 0.26491216 1.8330001
0.17457144 0.26534858 1.8329999
0.18504572 0.26578498 1.8330001
0.0069828574 0.27582288 1.8330001
0.013965716 0.27756858 1.8330001
0.020948572 0.27931431 1.8330001
0.11609001 0.27844146 1.8330001
0.12569143 0.27756858 1.8330001
0.13616572 0.27582288 1.8330001
0.14576715 0.27495003 1.8330001
0.15449572 0.27320433 1.8330001
0.16758858 0.27407718 1.8330001
0.17507021 0.27482533 1.8330001
0.1833 0.27233145 1.8330001
0.017457144 0.28629714 1.8330001
0.020948572 0.28629714 1.8330001
0.10823429 0.28629714 1.8330001
0.11521714 0.28629714 1.8329999
0.125255 0.28673354 1.8330001
0.13442001 0.28978857 1.8330001
0.17282572 0.28455144 1.8330001
0.02444 0.29502571 1.8330001
0.034914285 0.29502571 1.8330001
0.075065717 0.29677144 1.8330001
0.082048573 0.29677144 1.8330001
0.11638096 0.29560763 1.8330001
0.12743714 0.29328001 1.8330001
0.075065717 0.30026287 1.8330001
0.082048573 0.30200857 1.8330001
0.11638096 0.30142668 1.8330001
0.12569143 0.3020086 1.8330001
0.16584286 0.59354287 1.8330001
0.17282572 0.59354287 1.8330001
-0.054117143 0.6075086 1.8330001
0.17282572 0.60576284 1.8330001
-0.065464288 0.61361861 1.8330001
-0.055862863 0.61507338 1.8330001
0.17108001 0.611 1.8330001
-0.054117143 0.62496579 1.8330001
-0.048880003 0.62671149 1.8330001
-0.094268583 0.65813428 1.8330001
-0.083794288 0.65988004 1.8330001
-0.073320001 0.65988004 1.8330001
0.18504572 0.65813434 1.8330001
-0.094268583 0.66337144 1.8330001
-0.083096005 0.66476804 1.8329999
-0.075065717 0.6651172 1.8330001
-0.067035429 0.66546637 1.8329999
-0.057608575 0.66686291 1.8330001
0.18679143 0.6651172 1.8330001
0.1937743 0.66686291 1.8330001
-0.080302857 0.67733717 1.8330001
-0.075065717 0.67384577 1.8330001
-0.067035429 0.6731475 1.8329999
-0.059354287 0.67035431 1.8330001
0.18504572 0.6731475 1.8329999
0.19342515 0.6731475 1.8329999
-0.080302857 0.68257427 1.8330001
-0.076811433 0.68257427 1.8330001
0.1876643 0.68344712 1.8330001
0.19502123 0.68432003 1.8330001
0.20250286 0.68781143 1.8330001
0.20424858 0.6947943 1.8330001
0.20599429 0.70352292 1.8330001
-0.13515334 0.16850287 1.8430001
-0.14129667 0.17640144 1.8430001
-0.13690858 0.17201334 1.8430001
-0.14463162 0.18535315 1.8430001
-0.14626984 0.19541651 1.8430001
-0.14217429 0.20009714 1.8430001
0.16674763 0.24924383 1.8430001
0.17201334 0.24924383 1.8430001
0.17786413 0.25392446 1.8430001
0.18488508 0.25743493 1.8430001
0.19483143 0.25977525 1.8430001
0.18605524 0.26328573 1.8430001
0.19483143 0.26504096 1.8430001
0.20009714 0.26504096 1.8430001
0.14392953 0.27732763 1.8430001
0.15270571 0.27732763 1.8430001
0.16288611 0.27451926 1.8430001
0.0070209526 0.2808381 1.8430001
0.01193562 0.28505069 1.8430001
0.12988763 0.28434858 1.8430001
0.13515334 0.28610381 1.8430001
0.14349072 0.28478739 1.8430002
0.15446097 0.28434858 1.8430002
0.16449091 0.28334561 1.8430002
0.17376858 0.2808381 1.8430001
0.015212064 0.29370984 1.8430001
0.13515334 0.29488 1.8430001
0.14744 0.29312477 1.8430001
-0.073720001 0.57922858 1.8430001
-0.080740958 0.58800477 1.8430001
-0.073281191 0.58668834 1.8430002
-0.081911117 0.5956108 1.8430001
-0.073720001 0.59678096 1.8430001
0.15516306 0.59537679 1.8430001
0.16148192 0.59678096 1.8430001
-0.084251434 0.60263175 1.8430001
-0.073720001 0.60380191 1.8430002
-0.06669905 0.60380191 1.8430001
-0.056167621 0.60555714 1.8430001
-0.047976509 0.60614222 1.8430001
0.16499239 0.60029143 1.8430001
0.17201334 0.60731238 1.8430001
-0.073720001 0.61503541 1.8430001
-0.064943813 0.61345571 1.8430001
-0.059678096 0.61257809 1.8430001
-0.04739143 0.61082286 1.8430001
0.16850287 0.61257809 1.8430001
-0.073720001 0.62135428 1.8430001
-0.064943813 0.62310952 1.8430001
-0.059678096 0.62661999 1.8430001
-0.071379684 0.63773656 1.8430001
-0.06669905 0.63539624 1.8430001
-0.056869715 0.63399208 1.8430001
-0.083081275 0.64534259 1.8430001
-0.073720001 0.64592767 1.8430002
-0.065294862 0.64522558 1.8430001
-0.056167621 0.64241719 1.8430001
-0.091272384 0.65645909 1.8430001
-0.083749942 0.65746212 1.8430002
-0.073720001 0.65645909 1.8430002
-0.063188575 0.65294862 1.8430001
0.17727906 0.65996957 1.8430001
0.18254477 0.65996957 1.8430001
-0.084251434 0.66348004 1.8430001
-0.073720001 0.66348004 1.8430001
-0.064943813 0.66523528 1.8430001
-0.057922859 0.66699052 1.8430001
0.17903429 0.66523528 1.8430001
0.18254477 0.66523528 1.8430001
0.19307619 0.66699052 1.8430001
0.17903429 0.67225623 1.8430001
0.18254477 0.67225623 1.8430001
-0.071964763 0.68454289 1.8430001
0.18371493 0.68454289 1.8430001
0.18605524 0.69156384 1.8430001
0.19658667 0.69156384 1.8430001
0.20185238 0.69682956 1.8430001
0.20360763 0.70385051 1.8430001
-0.15529905 0.16588762 1.853
-0.14541639 0.16800532 1.853
-0.14647524 0.17471144 1.853
-0.15294604 0.18588825 1.853
-0.14824 0.18177047 1.853
-0.15353429 0.19235906 1.853
-0.14824 0.20294762 1.853
0.1764762 0.2505962 1.853
0.18441762 0.25147858 1.853
0.19324145 0.25677285 1.853
0.20118286 0.26118478 1.853
0.16765238 0.28942096 1.853
0.010588571 0.29295048 1.853
0.14294572 0.29471523 1.853
0.15529905 0.29471526 1.853
0.16500524 0.29383284 1.853
-0.056472383 0.58766574 1.853
-0.07412 0.59648955 1.853
-0.063531429 0.59472477 1.853
-0.055295873 0.59531301 1.853
-0.049413335 0.59648955 1.853
0.15176953 0.59648955 1.853
-0.081179053 0.60707814 1.853
-0.062943175 0.60237211 1.853
-0.054707624 0.60178387 1.853
0.12706286 0.60178387 1.853
0.13059239 0.60178387 1.853
0.14824 0.6000191 1.853
0.15459314 0.60496038 1.853
0.16706413 0.60472512 1.853
0.17471144 0.60531336 1.853
0.18000571 0.60531336 1.853
-0.081179053 0.61766666 1.853
-0.075296506 0.61649019 1.853
-0.063531429 0.61060762 1.853
0.16518173 0.61201942 1.853
-0.081179053 0.62119621 1.853
-0.063531429 0.63531429 1.853
-0.049413335 0.63884383 1.853
-0.060884289 0.64502048 1.853
-0.055295873 0.6447264 1.853
-0.086473331 0.65472668 1.853
-0.062649049 0.65472668 1.853
-0.063531429 0.66304624 1.8529999
-0.054707624 0.66708004 1.853
0.16941714 0.6635505 1.853
0.17435849 0.6635505 1.853
0.18353523 0.66002095 1.853
0.17506438 0.67343318 1.853
0.1764762 0.68472767 1.853
0.18000571 0.68472767 1.853
0.16706413 0.69649273 1.853
0.17529969 0.69766921 1.853
0.18294699 0.69531626 1.853
0.19412382 0.69884568 1.853
0.19647683 0.70355177 1.853
0.20118286 0.70414007 1.853
-0.15258858 0.16678286 1.863
-0.15436286 0.17388 1.863
-0.15732001 0.18334287 1.863
-0.15436286 0.19872001 1.863
-0.15377145 0.20345144 1.863
0.18807429 0.2484 1.863
0.19517143 0.24840002 1.863
0.20404287 0.2484 1.863
0.19588116 0.25336802 1.8630002
0.20537359 0.25594074 1.863
0.21409714 0.25668001 1.863
0.22592573 0.25786287 1.863
0.23065715 0.25727144 1.863
0.20581715 0.26436859 1.863
0.22533429 0.26259428 1.863
0.0035485716 0.28566003 1.863
0.0056777145 0.29382172 1.8630002
0.010645715 0.29808 1.863
0.16678286 0.29808 1.863
0.17033143 0.29808 1.863
0.16678286 0.30162859 1.863
0.17033143 0.30162859 1.863
-0.070971429 0.58551431 1.863
-0.067422859 0.58728862 1.863
-0.053228572 0.58728862 1.863
-0.063874289 0.59565306 1.863
-0.053228572 0.59438574 1.863
-0.047905717 0.59261143 1.863
0.14726572 0.59615999 1.863
0.15258858 0.59615999 1.863
0.12242572 0.60503149 1.863
0.14478172 0.60538632 1.8630002
-0.081617147 0.61745143 1.863
0.14549142 0.6103543 1.863
0.15968572 0.61212862 1.863
0.16500857 0.6103543 1.863
0.16500857 0.63874286 1.863
-0.053228572 0.64938861 1.863
-0.049680002 0.64584005 1.863
0.16500857 0.64584005 1.863
0.17033143 0.64761436 1.863
-0.055002861 0.65471148 1.863
0.15684687 0.65506637 1.8630002
0.16500857 0.65471148 1.863
0.17388003 0.65471143 1.863
0.18097715 0.65471148 1.863
-0.060325716 0.66713142 1.863
-0.056777146 0.66180861 1.863
0.14726572 0.66358286 1.863
0.15658073 0.66313928 1.863
0.16500857 0.6635828 1.863
0.17299286 0.66092145 1.863
0.18275145 0.6600343 1.863
0.13307142 0.67777717 1.863
0.15968572 0.67068005 1.863
0.16589572 0.67334151 1.863
0.17033143 0.67422867 1.863
0.1383943 0.68132573 1.863
0.14194286 0.68132573 1.863
0.16678286 0.6848743 1.863
0.17210571 0.6848743 1.863
0.17286614 0.69551998 1.863
0.18363859 0.70527864 1.863
0.19339715 0.70793998 1.863
-0.16232666 0.1676781 1.8730001
-0.16054286 0.17481335 1.8730001
-0.16411048 0.18551619 1.8730001
-0.16268343 0.19550553 1.8730001
-0.16411048 0.2033543 1.8730001
0.21405715 0.24794954 1.8730001
0.22297621 0.24973334 1.8730001
0.21405715 0.25330096 1.8730001
0.2240465 0.25472802 1.8730001
0.21405715 0.2645984 1.8730001
0.22119239 0.26222003 1.8730001
-0.0035676192 0.28719336 1.8730001
0 0.28897715 1.8730001
0 0.29432857 1.8730001
-0.062433332 0.58865714 1.8730001
-0.055298097 0.58508956 1.8730001
-0.049946669 0.58865714 1.8730001
0.13913715 0.58687335 1.8730001
0.14448857 0.58687335 1.8730001
-0.062433332 0.59222478 1.8730001
0.12665048 0.59936005 1.8730001
0.13675873 0.59698159 1.8730001
0.14484535 0.59436536 1.8730001
-0.049946669 0.60649526 1.8730001
0.12486666 0.60292763 1.8730001
0.13628305 0.60435468 1.8730001
0.14270477 0.60292763 1.8730001
-0.049946669 0.6100629 1.8730001
0.099893339 0.61719811 1.8730001
0.10346095 0.61719811 1.8730001
0.11238001 0.61363047 1.8730001
0.13735333 0.6100629 1.8730001
0.099893339 0.62076575 1.8730001
0.10346095 0.62076575 1.8730001
0.11238001 0.62076575 1.8730001
0.12754239 0.63503623 1.8730001
0.1328938 0.63503623 1.8730001
-0.044595238 0.64752293 1.8730001
0.14538048 0.64841485 1.8730001
0.15697524 0.64930671 1.8730001
0.16054286 0.64573908 1.8730001
-0.049946669 0.65287429 1.8730001
0.13913715 0.65287429 1.8730001
0.14627239 0.65465808 1.8730001
0.15459682 0.65406346 1.8730001
0.16054286 0.65287429 1.8730001
0.17481335 0.65287429 1.8730001
-0.053514287 0.66357714 1.8730001
0.13913715 0.6635772 1.8730001
0.14576273 0.66255778 1.8730001
-0.055298097 0.67071241 1.8730001
-0.049946669 0.67071241 1.8730001
0.13913715 0.67427999 1.8730001
0.14582643 0.67383409 1.8730001
0.15483466 0.67499352 1.8730001
0.16232666 0.67784762 1.8730001
0.13913715 0.68141526 1.8730001
0.14627239 0.68587476 1.8730001
0.15519144 0.68498284 1.8730001
0.16309115 0.68498284 1.8730001
0.14984001 0.69211811 1.8730001
0.15519142 0.6939019 1.8730001
0.16366453 0.69523984 1.8730001
0.1658943 0.70282096 1.8730001
-0.17216 0.16857333 1.8830001
-0.16498667 0.16618222 1.883
-0.16642132 0.17646401 1.8830001
-0.16857333 0.18650667 1.8830001
-0.17305666 0.19457667 1.8830001
-0.16857333 0.19368 1.883
-0.17395334 0.20085335 1.8830001
-0.16379112 0.2020489 1.883
-0.0047822227 0.29410669 1.883
0.0035866669 0.30128002 1.8830001
-0.034073334 0.57745337 1.8830001
0.1345 0.57745337 1.8830001
-0.071733333 0.58821338 1.8830001
-0.064560004 0.58821338 1.883
-0.05236534 0.58390939 1.8830001
-0.044833332 0.58104002 1.8830001
-0.037660003 0.58104002 1.8830001
0.13629334 0.5840289 1.8830003
0.14526001 0.58462667 1.8830001
-0.050213337 0.59538668 1.8830001
0.12643 0.59807664 1.8830001
0.13414133 0.59466934 1.8830001
-0.050213337 0.60256004 1.8830001
-0.046626668 0.60256004 1.8830001
0.10401333 0.60973334 1.883
0.12194667 0.60256004 1.8830001
0.10473067 0.61547202 1.8830001
0.1076 0.62228668 1.8830001
0.12194667 0.63842666 1.8830001
0.082493335 0.64739335 1.8830001
0.126968 0.64631736 1.8830001
0.13674167 0.64604837 1.8830003
0.14561868 0.64488268 1.8830001
0.15422668 0.64775199 1.8830001
-0.050213337 0.65994668 1.8830001
-0.046626668 0.65815336 1.8830001
0.12732667 0.65456671 1.8830001
0.13629334 0.65584767 1.8830003
0.15422668 0.65277338 1.8830001
-0.050213337 0.66532671 1.8830001
-0.046626668 0.66532671 1.8830001
0.13629335 0.66532671 1.8830001
-0.050213337 0.67070669 1.8830001
-0.044833332 0.67070669 1.8830001
-0.039453335 0.67070669 1.8830001
0.1345 0.67429334 1.8830003
0.12912001 0.6814667 1.8830001
0.1345 0.6814667 1.8830001
0.14705335 0.68505335 1.8830001
0.15064001 0.68505335 1.883
0.15781334 0.69581336 1.8830001
-0.17677334 0.16955811 1.8940001
-0.17316572 0.17496952 1.8940001
-0.16955811 0.17316572 1.8940001
-0.17316572 0.18398857 1.8940001
-0.16955811 0.18398857 1.8940001
-0.17677334 0.19300762 1.8940001
-0.010822858 0.28680572 1.8940001
-0.0072152382 0.28680572 1.8940001
-0.010822858 0.29221717 1.8940001
-0.037880003 0.55918097 1.8940001
-0.036076192 0.56459242 1.8940001
-0.045696512 0.57601649 1.8940001
-0.037106939 0.57412678 1.8940001
-0.028860953 0.57721907 1.8940001
0.12807047 0.57541525 1.8940001
0.1334819 0.57721907 1.8940001
-0.072152384 0.58623815 1.8940001
-0.064937145 0.5880419 1.8940001
-0.05411429 0.58263052 1.8940001
-0.045696512 0.58323175 1.8940001
-0.039683811 0.5808267 1.8940001
0.12987429 0.58443433 1.8940001
0.13528572 0.5880419 1.8940001
-0.045997147 0.5961591 1.8940001
0.12770972 0.59453565 1.8940001
-0.04689905 0.60968763 1.8940001
0.10101334 0.61690289 1.8940001
0.086582862 0.64937145 1.8940001
0.11905143 0.64576381 1.8940001
0.12265905 0.64756763 1.8940001
0.15512763 0.64666569 1.8940001
0.085380323 0.65538412 1.8940001
0.12265905 0.65297908 1.8940001
-0.043291431 0.66380191 1.8940001
-0.039683811 0.66740954 1.8940001
0.082975239 0.66019434 1.8940001
0.12987429 0.66560572 1.8940001
0.1334819 0.66380191 1.8940001
-0.043291431 0.67101717 1.8940001
-0.039683811 0.67101717 1.8940001
0.12897238 0.67552674 1.8940001
0.1334819 0.67101717 1.8940001
0.12807047 0.68184 1.8940001
-0.18133333 0.17226666 1.904
-0.17770667 0.17589334 1.904
-0.18133333 0.18858667 1.904
-0.17770667 0.18496001 1.9039999
-0.18133335 0.19584 1.9039999
-0.014506667 0.28650668 1.904
-0.0136 0.29466668 1.904
-0.0072533335 0.29738668 1.904
0.08704 0.54762667 1.904
0.090666667 0.54762667 1.904
-0.04352 0.55669332 1.904
-0.03626667 0.55669338 1.9040002
-0.029013334 0.55669332 1.904
0.08704 0.55125338 1.904
0.094293334 0.55608892 1.9039999
-0.044426668 0.56666672 1.904
-0.035057779 0.56576002 1.9039999
-0.029013334 0.56394672 1.904
-0.053674668 0.57518941 1.904
-0.04472889 0.57422227 1.9039999
-0.032640003 0.57482672 1.904
-0.029013334 0.57664001 1.904
0.12451556 0.57422227 1.9039999
-0.055125337 0.58171737 1.904
0.12475733 0.58461869 1.904
-0.065280005 0.59114671 1.904
-0.04352 0.59114671 1.904
0.11968 0.5965867 1.904
0.12451556 0.59477335 1.9039999
0.12330667 0.6020267 1.904
-0.025386667 0.61653334 1.9039999
0.096106663 0.61653334 1.904
0.10336 0.61290669 1.904
-0.024350477 0.6232686 1.9040002
0.08704 0.62559998 1.904
0.094293334 0.62318224 1.9040002
-0.029013334 0.63285339 1.904
0.090666667 0.63104004 1.904
0.10154667 0.64917338 1.904
0.11605334 0.64917338 1.904
0.11968 0.65461338 1.904
-0.039893337 0.66005337 1.904
0.08704 0.66368002 1.904
0.11968 0.66186666 1.904
0.12421333 0.66458666 1.904
0.12602666 0.67546666 1.904
-0.21277779 0.046203177 1.9150001
-0.20381072 0.043771431 1.9150001
-0.21302097 0.053984761 1.9150002
-0.20669842 0.053498417 1.9150001
-0.23344763 0.067480952 1.9150001
-0.22615238 0.066113099 1.9150001
-0.21566549 0.065201193 1.9150001
-0.23527144 0.074776188 1.9150001
-0.22615238 0.074776195 1.9150001
-0.21764128 0.075384133 1.9150001
-0.23435953 0.082983345 1.9150001
-0.22615239 0.083895244 1.9150001
-0.21885715 0.080247626 1.9150001
-0.18238096 0.17873333 1.9150001
-0.18359683 0.18602858 1.9150001
-0.18602858 0.19514763 1.9150001
-0.018238096 0.2881619 1.9150001
-0.02507738 0.2959131 1.9150001
-0.018238096 0.29545715 1.9150001
-0.012766667 0.30275241 1.9150001
-0.0072952383 0.30275241 1.9150001
-0.026262859 0.53474104 1.9150002
-0.025533333 0.54531902 1.9150001
0.083895244 0.54531902 1.9150001
-0.043771431 0.55565399 1.9150001
-0.034652382 0.55443811 1.9150001
-0.026992381 0.55370861 1.9150002
0.0766 0.55443811 1.9150001
0.082853064 0.55495918 1.9150001
0.093014285 0.55808574 1.9150001
-0.051066667 0.56902862 1.9150001
-0.047419053 0.56538099 1.9150001
0.087542862 0.56173337 1.9150001
0.093926199 0.5644691 1.9150001
0.10578096 0.56720477 1.9150001
0.1130762 0.56902862 1.9150001
-0.062009525 0.57997143 1.9150001
-0.055626191 0.57358807 1.9150001
-0.029180953 0.57449996 1.9150001
0.10682314 0.57580268 1.9150001
0.1149 0.57632381 1.9150001
0.12037143 0.57632381 1.9150001
-0.063225396 0.58483493 1.9150001
0.10942858 0.58361906 1.9150001
0.11490001 0.5854429 1.9150001
0.12037143 0.5854429 1.9150001
-0.065657146 0.59091431 1.9150001
-0.043771431 0.59820956 1.9150001
0.11672381 0.59456187 1.9150001
0.12158731 0.59334606 1.9150001
-0.02431746 0.61523175 1.9150001
0.085719049 0.61644763 1.9150001
0.094838105 0.61644763 1.9150001
-0.04559524 0.62374288 1.9150001
-0.029180953 0.6273905 1.9150001
0.084503181 0.62374288 1.9150001
0.09119048 0.62191904 1.9150001
-0.041339684 0.63468575 1.9150001
-0.02480381 0.63541526 1.9150002
-0.014590477 0.63286197 1.9150001
0.069304764 0.63650954 1.9150001
0.083439291 0.63514173 1.9150001
0.09483809 0.65474766 1.9150001
0.10651048 0.65511239 1.9150002
0.11429208 0.65535551 1.9150001
-0.040123813 0.66751432 1.9150001
-0.034652382 0.66569054 1.9150001
0.094317012 0.66282451 1.9150001
0.10630205 0.66282451 1.9150001
0.11490002 0.6638667 1.9150001
-0.040123813 0.67116195 1.9150001
-0.03526032 0.67237782 1.9150001
0.094838105 0.67237782 1.9150001
0.10213333 0.67116195 1.9150001
0.11672381 0.67116195 1.9150001
0.12183048 0.67553914 1.9150002
-0.21266668 0.036666669 1.9250001
-0.20900001 0.036666669 1.9250001
-0.21450001 0.042166665 1.9250001
-0.20900001 0.044 1.9250001
-0.22244446 0.056222226 1.9250001
-0.21633334 0.058666669 1.9250001
-0.20460001 0.055 1.925
-0.19800001 0.055000003 1.9250001
-0.22733334 0.062333334 1.9250001
-0.21266668 0.069666669 1.9250001
-0.20638096 0.066523813 1.9250001
-0.2138889 0.074555561 1.9250001
-0.20533335 0.075166665 1.9250001
-0.22000001 0.084333338 1.9250001
-0.21450002 0.08433333 1.9250001
-0.20680001 0.082866669 1.925
-0.23222224 0.092888892 1.9250001
-0.2255 0.093500003 1.9250001
-0.21266668 0.093500003 1.9250001
-0.18699999 0.176 1.9250001
-0.19066668 0.18700001 1.9250001
-0.18700001 0.18516667 1.9250001
-0.19066668 0.19250001 1.9250001
-0.023833334 0.28966668 1.9250001
-0.023833334 0.30433336 1.9250001
-0.014666667 0.30616668 1.9250001
-0.024933334 0.31386667 1.925
-0.018333334 0.31166667 1.9250001
-0.034833334 0.53900003 1.9250001
-0.025666667 0.53288889 1.9250001
-0.017111113 0.53777784 1.9250001
-0.040333334 0.54633337 1.9250001
-0.034833334 0.54633337 1.9250001
-0.025666669 0.54266667 1.9250001
-0.018333334 0.54633337 1.9250001
-0.042166665 0.55183339 1.9250001
-0.034833334 0.55183339 1.9250001
-0.022 0.55550003 1.9250001
-0.017111111 0.55122226 1.9250001
0.077 0.55366671 1.9250001
-0.054266669 0.5668667 1.925
-0.025666667 0.56650001 1.9250001
0.077 0.56100005 1.9250001
0.08433333 0.56650001 1.9250001
-0.062333334 0.57749999 1.9250001
-0.056833334 0.57200003 1.9250001
0.086777776 0.57322222 1.9250001
0.095333338 0.57566667 1.9250001
0.10266667 0.57933336 1.9250001
-0.066 0.583 1.9250001
0.091666669 0.5866667 1.9250001
0.10388889 0.58544451 1.9250001
-0.066 0.59033334 1.9250001
-0.040333334 0.59766668 1.9250001
0.11146667 0.59473336 1.925
-0.044 0.60500002 1.9250001
-0.02811111 0.60622227 1.9250001
0.11366667 0.60133338 1.9250001
-0.044 0.6196667 1.9250001
-0.026277779 0.61477774 1.9250001
-0.018333334 0.616 1.9250001
0.085249998 0.61508334 1.9250001
0.092888892 0.6147778 1.9250001
-0.040333334 0.62516665 1.9250001
-0.034222223 0.62577778 1.9250001
-0.018333334 0.62516665 1.9250001
0.075166672 0.62516671 1.9250001
0.080666669 0.62516665 1.9250001
-0.040333334 0.63250005 1.9250001
-0.034466665 0.63360006 1.925
-0.015277778 0.63433337 1.9250001
0.067833334 0.63616669 1.9250001
0.075166672 0.63433337 1.9250001
-0.033 0.64166671 1.9250001
0.096555561 0.6722222 1.9250001
0.10511111 0.6722222 1.9250001
0.11366667 0.67650002 1.9250001
-0.22494477 0.051626667 1.9360001
-0.20281905 0.059001908 1.9360001
-0.20281905 0.064533338 1.9360001
-0.19636571 0.065455243 1.9360001
-0.19544381 0.073752381 1.936
-0.22125715 0.088502862 1.9360001
-0.20466286 0.086659051 1.9360001
-0.19728762 0.081127621 1.9360001
-0.23600763 0.095878102 1.9360001
-0.22125715 0.094034292 1.9360001
-0.21326733 0.095878094 1.936
-0.20650667 0.094034292 1.9360001
-0.21388192 0.10509714 1.936
-0.22125715 0.1143162 1.9360001
-0.22125715 0.12906668 1.9360001
-0.21756953 0.12906668 1.9360001
-0.1917562 0.17700572 1.9360001
-0.1917562 0.18253715 1.9360001
-0.018438095 0.28763428 1.9360001
-0.026735239 0.3088381 1.9360001
-0.016594287 0.30976 1.9360001
-0.0073752385 0.30976 1.9360001
0 0.30976 1.9360001
-0.040563811 0.31713524 1.9360001
-0.029500954 0.31344762 1.9360001
-0.014750477 0.31467685 1.9360002
-0.040563811 0.32082286 1.9360001
-0.025286535 0.32345685 1.936
-0.035032384 0.53654861 1.9360001
-0.022125715 0.5347048 1.9360001
-0.016594287 0.53654861 1.9360001
-0.042407621 0.54392385 1.9360001
-0.035032384 0.54576766 1.9360001
-0.015979683 0.54699689 1.9360002
0.077440001 0.54945529 1.9360001
0.074981593 0.55437213 1.9360002
-0.059001908 0.56789333 1.9360001
-0.022125715 0.56420571 1.9360001
-0.018438095 0.56236196 1.9360001
0.073752381 0.56328386 1.9360001
-0.062689528 0.57342476 1.9360001
-0.025813334 0.57526857 1.9360001
0.081127621 0.57158095 1.9360001
-0.066377148 0.58264381 1.9360001
0.088502862 0.58264381 1.9360001
0.095878102 0.58633143 1.9360002
-0.029500954 0.59555048 1.9360001
0.097721905 0.59001905 1.9360001
0.10571174 0.59493589 1.9360002
-0.040563811 0.60476953 1.9360001
-0.029500954 0.60476953 1.9360001
-0.044251431 0.61952001 1.9360001
-0.022125715 0.61214477 1.9360001
-0.015979683 0.61583239 1.9360002
0.075596191 0.6176762 1.9360001
0.083586037 0.61521775 1.936
-0.040563811 0.62320763 1.9360001
-0.035032384 0.62505144 1.9360001
-0.014750477 0.62505144 1.9360001
0.066377148 0.62689525 1.9360001
0.072830476 0.62412953 1.9360001
-0.012906667 0.63242668 1.9360001
0.066377148 0.63427049 1.9360002
0.072830483 0.63334858 1.9360001
-0.03687619 0.64348954 1.9360001
0.075596191 0.64348954 1.9360001
0.11800382 0.68589717 1.9360001
-0.21138857 -0.14278001 1.9470001
-0.20768 -0.14092572 1.9470001
-0.20768 -0.13721715 1.9470001
-0.21138857 -0.12609144 1.9470001
-0.20768 -0.12609144 1.9470001
-0.21138857 -0.11867429 1.9470001
-0.20768 -0.11867429 1.9470001
-0.23364002 0.057482861 1.9470001
-0.22993144 0.055628572 1.9470001
-0.20026286 0.059337147 1.9470001
-0.1947 0.063045718 1.9470001
-0.20026286 0.085297145 1.9470001
-0.20397143 0.092714287 1.9470001
-0.24105716 0.10013143 1.9470001
-0.23364002 0.10384 1.9470001
-0.22622286 0.10384 1.9470003
-0.21880572 0.10013143 1.9470001
-0.23364002 0.11496571 1.9470001
-0.22668645 0.11496571 1.9470003
-0.21615672 0.11443592 1.9470003
-0.22560477 0.12485524 1.9470001
-0.21880572 0.12423715 1.9470001
-0.22251429 0.13536286 1.9470001
-0.21756953 0.13598096 1.9470001
-0.21509714 0.14092572 1.9470001
-0.20026286 0.18542857 1.9470001
-0.19655429 0.18542857 1.9470001
-0.22807716 0.19655429 1.9470001
-0.20026286 0.19284572 1.9470001
-0.19655429 0.19284572 1.9470001
-0.23586516 0.20471315 1.9470001
-0.22622287 0.20026286 1.9470001
-0.2354943 0.21138857 1.9470001
-0.027019592 0.28608981 1.9470003
-0.037085716 0.29668573 1.9470001
-0.029668573 0.29483145 1.9470001
-0.05192 0.30595714 1.9470001
-0.034304287 0.30317572 1.9470001
-0.063045718 0.31708288 1.9470001
-0.056158368 0.31416899 1.9470003
-0.044502858 0.31522858 1.9470001
-0.033377144 0.31708288 1.9470001
-0.012980001 0.31893715 1.9470001
-0.0055628573 0.31522858 1.9470001
0.0037085719 0.31522858 1.9470001
-0.059337147 0.32264572 1.9470001
-0.040794287 0.3263543 1.9470001
-0.035849527 0.32388192 1.9470001
-0.015576 0.32487088 1.9470001
-0.045430001 0.33099002 1.9470001
-0.037085716 0.33006287 1.9470001
-0.027814288 0.33191717 1.9470001
-0.018542858 0.33006287 1.9470001
-0.033377144 0.53403431 1.9470001
-0.02596 0.53403431 1.9470001
-0.016688572 0.53588855 1.9470001
-0.011125716 0.54516006 1.9470001
-0.0074171433 0.5470143 1.9470001
0.077880003 0.5488686 1.9470001
0.083442859 0.5488686 1.9470001
-0.014834287 0.55999428 1.9470001
0.066754289 0.55814004 1.9470001
0.071390003 0.55535859 1.9470001
0.066754289 0.56370288 1.9470001
0.07046286 0.56741142 1.9470001
-0.066754289 0.57482857 1.9470001
0.076025717 0.57297432 1.9470001
0.081588574 0.57853717 1.9470001
-0.066754289 0.58224571 1.9470001
0.08406096 0.58348191 1.9470001
0.094568573 0.59707999 1.9470001
0.10013143 0.59707999 1.9470001
-0.20520763 0.60202479 1.9470001
-0.19432914 0.60375547 1.9470001
-0.033377144 0.60820574 1.9470001
-0.025032857 0.60542434 1.9470001
-0.015761429 0.60727865 1.9470001
0.10384 0.60078859 1.9470001
-0.040794287 0.61562294 1.9470001
-0.033377144 0.61562288 1.9470001
-0.024105715 0.61191434 1.9470001
-0.016070478 0.61315054 1.9470001
0.066754289 0.61747718 1.9470001
0.073641635 0.61456335 1.9470003
0.083442859 0.61191434 1.9470001
-0.040794287 0.62304002 1.9470001
-0.03523143 0.62489432 1.9470001
0.064900003 0.62489432 1.9470001
0.07046286 0.62304002 1.9470001
-0.011125715 0.63231146 1.9470001
0.063045718 0.63416576 1.9470001
0.063972861 0.6462186 1.9470001
0.064900003 0.65270859 1.9470001
0.029668573 0.67681432 1.9470001
0.033377144 0.67681432 1.9470001
-0.22004192 -0.16409905 1.9580001
-0.21444762 -0.16409905 1.9580001
-0.20605621 -0.16130191 1.9580001
-0.22004192 -0.15664001 1.9580001
-0.21444763 -0.15477525 1.9580001
-0.20761018 -0.15539683 1.9580001
-0.21444763 -0.14918096 1.9580001
-0.20512383 -0.14482984 1.9580001
-0.20465763 -0.13379666 1.9580001
-0.20437792 -0.1245661 1.9579999
-0.21258287 -0.11188572 1.9580001
-0.20512383 -0.11623683 1.9580001
-0.19766477 -0.11934476 1.9580001
-0.21258287 -0.1081562 1.9580001
-0.19393525 -0.054078095 1.9580001
-0.19580001 0.059672382 1.9580001
-0.20139429 0.089508578 1.9580001
-0.19766477 0.087643817 1.9580001
-0.20512381 0.096967623 1.9580001
-0.24366224 0.10566985 1.9580001
-0.23868953 0.10442667 1.9580001
-0.24241905 0.11561524 1.9580001
-0.23868953 0.11561524 1.9580001
-0.21258287 0.11748 1.9580001
-0.20885332 0.11561524 1.9580001
-0.24428383 0.12493905 1.9580001
-0.2357059 0.125312 1.9579999
-0.21444763 0.12493905 1.9580001
-0.20885333 0.12680382 1.9580001
-0.24366224 0.13177651 1.9580001
-0.23496 0.13426286 1.9579999
-0.22750096 0.13612762 1.9580001
-0.21407469 0.13351695 1.9579999
-0.20698857 0.1323981 1.9580001
-0.22190668 0.14358667 1.9580001
-0.24241905 0.16596381 1.9580001
-0.24614859 0.1715581 1.9580001
-0.20139429 0.17901716 1.9580001
-0.19642158 0.17653079 1.9580001
-0.24428383 0.18461144 1.9580001
-0.23868953 0.18274668 1.9580001
-0.24428383 0.19766477 1.9580001
-0.23496 0.19455683 1.9580001
-0.22501461 0.19517843 1.9580001
-0.20512381 0.19207048 1.9580001
-0.24568239 0.20559001 1.9580001
-0.23247366 0.20263748 1.9580001
-0.24241905 0.21258287 1.9580001
-0.048483811 0.27971429 1.9580001
-0.043511111 0.28468698 1.9580001
-0.036052063 0.28593016 1.9580001
-0.055010475 0.29742956 1.9580001
-0.044221498 0.29569799 1.9580001
-0.035057522 0.29388648 1.9579999
-0.063401908 0.30582097 1.9580001
-0.057008438 0.30528817 1.9580001
-0.044754293 0.30582097 1.9579999
-0.037295241 0.30768573 1.9580001
-0.065266669 0.31514478 1.9580001
-0.044754285 0.31328002 1.9580001
-0.036052067 0.31452319 1.9580001
-0.065266669 0.32446858 1.9580001
-0.054877281 0.32500133 1.9580001
-0.046619054 0.32446858 1.9580001
-0.035430476 0.32446858 1.9580001
-0.011188572 0.32446858 1.9580001
-0.0055942857 0.32540095 1.9580001
0.0022377144 0.32297677 1.9579999
-0.063401908 0.33192763 1.9580001
-0.05594286 0.33379236 1.9580001
-0.044008382 0.33789486 1.9579999
-0.035430476 0.33565715 1.9580001
-0.013053333 0.33379239 1.9580001
-0.045997459 0.34435937 1.9580001
0.027971428 0.48856765 1.9580001
0.027971428 0.49229717 1.9580001
0.022377145 0.5165391 1.9580001
0.015983675 0.52639574 1.9580001
0.026106669 0.52586287 1.9579999
-0.024241906 0.53332192 1.9580001
-0.014918096 0.53518665 1.9580001
0.016782857 0.53332192 1.9580001
0.024241906 0.53332192 1.9580001
-0.011188572 0.54078096 1.9580001
-0.0055942857 0.54637527 1.9580001
0 0.54824001 1.9580001
0.05594286 0.54824001 1.9580001
0.065266669 0.54637522 1.9580001
0.074590474 0.54824001 1.9580001
0.083914287 0.54824001 1.9580001
-0.011188572 0.55569905 1.9580001
-0.0037295239 0.55196953 1.9580001
0 0.55196953 1.9580001
0.045287076 0.55676466 1.9580001
0.05594286 0.55569911 1.9579999
0.064893715 0.55495316 1.9579999
0.072725713 0.55196953 1.9580001
0.037295241 0.56502283 1.9580001
0.045997459 0.56440127 1.9580001
0.05594286 0.56502283 1.9580001
0.063401908 0.56502283 1.9580001
-0.070860952 0.57807618 1.9580001
0.06713143 0.57061714 1.9580001
0.072725713 0.57621145 1.9580001
-0.21258287 0.58926481 1.9580001
-0.070860952 0.58553529 1.9580001
-0.06713143 0.58180571 1.9580001
0.078320004 0.58180571 1.9580001
0.082049526 0.58926481 1.9580001
-0.20139429 0.59672385 1.9580001
-0.070860952 0.59485912 1.9580001
0.026106667 0.59672385 1.9580001
-0.203632 0.6041829 1.9579999
-0.19580001 0.60045338 1.9580001
-0.070860952 0.60045338 1.9580001
-0.033565715 0.60604763 1.9580001
-0.022377145 0.60604763 1.9580001
-0.014172192 0.60567474 1.9579999
-0.0074590477 0.6041829 1.9580001
0.026106667 0.60231817 1.9580001
-0.2028861 0.61462557 1.9579999
-0.19766478 0.61537147 1.9580001
-0.037295241 0.61537147 1.9580001
-0.011188572 0.61537147 1.9580001
-0.0074590477 0.61350667 1.9580001
0.059672382 0.61537147 1.9580001
0.064893715 0.61462557 1.9579999
0.072725713 0.61164194 1.9580001
-0.037295241 0.6246953 1.9580001
0.059672382 0.6246953 1.9580001
0.063401908 0.62283051 1.9580001
0.057807621 0.63401908 1.9580001
0.057008438 0.64574045 1.9580001
0.057807621 0.65453142 1.9580001
-0.014918095 0.67690861 1.9580001
0.026106667 0.67877334 1.9580001
-0.014918095 0.68250287 1.9580001
0.027971428 0.68436766 1.9580001
0.033565715 0.68623239 1.9580001
-0.2212781 -0.1725219 1.9690001
-0.21377714 -0.1725219 1.9690002
-0.20440096 -0.17439714 1.9690001
-0.21002668 -0.16877143 1.9690001
-0.20440096 -0.16689619 1.9690001
-0.19502476 -0.16502097 1.9690001
-0.1875238 -0.16502096 1.9690002
-0.20402591 -0.15301943 1.9690001
-0.19502477 -0.15752001 1.9690002
-0.19877525 -0.14439334 1.9690001
-0.19783762 -0.13407953 1.9690001
-0.19752508 -0.12376571 1.9690002
-0.20440096 -0.11251429 1.9690001
-0.19596238 -0.11532714 1.9690001
-0.21002668 -0.10688858 1.9690001
-0.20346335 -0.10595096 1.9690001
-0.19752508 -0.10376317 1.9690002
-0.20252572 -0.090011433 1.9690001
-0.19502477 -0.092690334 1.969
-0.18752381 -0.090011433 1.9690001
-0.21002668 -0.084385715 1.9690001
-0.19502477 -0.084385715 1.969
-0.18752381 -0.084385715 1.9690001
-0.21330835 -0.074540719 1.969
-0.204776 -0.07425943 1.9690001
-0.19502477 -0.075009532 1.9690001
-0.18502349 -0.074384443 1.969
-0.21152687 -0.064508192 1.9690001
-0.20440096 -0.060007621 1.9690001
-0.19502477 -0.067508571 1.9690001
-0.21002668 -0.056257144 1.9690001
-0.20440096 -0.056257144 1.9690001
-0.19127429 -0.054381907 1.9690001
-0.18752381 -0.054381907 1.9690001
-0.19502477 0.084385715 1.9690001
-0.20252572 0.095637143 1.9690001
-0.19877525 0.095637143 1.9690001
-0.25128192 0.10876381 1.9690001
-0.24753144 0.10876381 1.9690001
-0.21002668 0.10501333 1.9690002
-0.20627619 0.10501334 1.9690002
-0.25315714 0.11438952 1.9690001
-0.24753144 0.11438952 1.9690001
-0.25278211 0.12301562 1.9690001
-0.24753144 0.12001524 1.9690001
-0.21002668 0.12376572 1.9690001
-0.20627619 0.12189049 1.9690001
-0.25128192 0.13501716 1.9690002
-0.24628128 0.13751747 1.9690002
-0.24190572 0.1425181 1.9690001
-0.23440477 0.14439334 1.9690001
-0.22877906 0.14439334 1.9690001
-0.23252954 0.15001905 1.9690001
-0.22427848 0.15151924 1.9690001
-0.25128192 0.16877143 1.9690001
-0.24753144 0.16877143 1.9690001
-0.23502986 0.16627111 1.9690002
-0.25128192 0.17439714 1.9690001
-0.24303086 0.17477219 1.9690001
-0.23440477 0.17439714 1.9690001
-0.20440096 0.17627239 1.9690001
-0.25128192 0.18377334 1.9690002
-0.24378097 0.18314825 1.969
-0.23440477 0.1818981 1.9690001
-0.22784144 0.18377334 1.9690001
-0.21002668 0.18002287 1.9690001
-0.20627619 0.18377334 1.9690002
-0.25128192 0.19127429 1.9690001
-0.24453107 0.19277449 1.9690001
-0.23628001 0.19127429 1.9690001
-0.22409096 0.19221191 1.9690001
-0.21002668 0.19314954 1.9690001
-0.10501334 0.28878668 1.9690001
-0.060007621 0.28878668 1.9690001
-0.054006863 0.2857863 1.9690001
-0.045943338 0.28597382 1.9690001
-0.033754285 0.28503621 1.9690001
-0.12564096 0.29628763 1.9690001
-0.11251429 0.29441237 1.9690001
-0.10876381 0.29441237 1.9690001
-0.060007621 0.29441237 1.9690001
-0.055006985 0.29378733 1.9690002
-0.046880953 0.29253715 1.9690001
-0.12564096 0.3000381 1.9690001
-0.066258408 0.30378857 1.9690002
-0.071259052 0.31691527 1.9690001
-0.067508571 0.31316477 1.9690001
0.015001905 0.3187905 1.9690002
-0.072509207 0.32504129 1.9690002
-0.0037504763 0.32629144 1.9690001
0.0056257145 0.32629144 1.9690001
0.014064286 0.32347858 1.9690001
-0.071259052 0.33379242 1.9690002
-0.066570953 0.33473003 1.9690001
-0.0075009526 0.33566761 1.9690001
0.0056257145 0.33004192 1.9690001
-0.071259052 0.34129333 1.9690001
-0.063222319 0.34397224 1.969
-0.054381907 0.34504381 1.969
-0.048756193 0.34879431 1.9690001
-0.060007621 0.35254478 1.9690001
-0.054381907 0.35254478 1.9690001
-0.048756193 0.35254478 1.9690001
0.016877143 0.35442001 1.9690001
0.018752381 0.36004573 1.9690001
0.0075009526 0.47631049 1.9690001
0.024378097 0.47631049 1.9690001
-0.0075009526 0.48006096 1.9690001
0.0056257145 0.48287383 1.9690001
0.016252063 0.48631176 1.9690002
0.024378097 0.48381147 1.969
0.03000381 0.48756191 1.9690001
0.0056257145 0.49131238 1.9690001
0.015001905 0.49318767 1.969
0.023440477 0.49600047 1.9690001
0.03000381 0.49881336 1.9690001
0.011251429 0.50256383 1.9690001
0.024378097 0.50631428 1.9690001
0.015626984 0.51506543 1.969
0.024378097 0.51381528 1.9690001
0.03000381 0.51569051 1.9690001
-0.022502858 0.52881718 1.9690001
-0.016877143 0.52881718 1.9690001
0.013501714 0.52356648 1.9690001
0.026253335 0.52131623 1.9690001
0.03450438 0.5258168 1.9690001
0.041255239 0.52881718 1.9690001
-0.03000381 0.53631812 1.9690001
-0.022502858 0.53256762 1.9690001
-0.014064286 0.53350526 1.9690001
0.0075009526 0.5344429 1.9690001
0.011251429 0.53631812 1.9690001
0.033754285 0.5344429 1.9690001
-0.0075009526 0.54194379 1.9690001
0.0075009526 0.54006857 1.9690001
0.015537688 0.5427475 1.969
0.024378097 0.54381901 1.969
0.032816667 0.54100621 1.9690001
0.048756193 0.54569435 1.9690001
0.054381907 0.54569429 1.9690001
0.060007621 0.54756957 1.9690001
0.075009525 0.54756957 1.9690002
0.084385715 0.54756957 1.9690001
-0.0075009526 0.55882096 1.9690001
0.018752381 0.55132002 1.9690001
0.046255875 0.55257016 1.9690002
-0.011251429 0.56257147 1.9690001
0.031879049 0.56632191 1.9690001
0.041255239 0.56632191 1.9690001
-0.071259052 0.57757336 1.9690001
-0.067508571 0.57757336 1.9690001
0.034379367 0.57507306 1.969
0.045943335 0.57382286 1.9690001
0.063758098 0.57382286 1.9690001
-0.21377715 0.58882481 1.9690001
-0.075009525 0.58694959 1.9690001
0.018752381 0.58694959 1.9690001
0.024378097 0.58507437 1.969
0.034223098 0.58460552 1.969
0.041255239 0.58507431 1.9690001
-0.21127684 0.59507561 1.9690002
-0.20627619 0.59632576 1.9690001
0.033754285 0.59632576 1.9690002
0.041255239 0.59632576 1.9690001
0.090011433 0.59632576 1.9690001
-0.21190192 0.60195148 1.9690001
-0.20627619 0.6000762 1.9690001
-0.19252445 0.60132641 1.9690002
-0.024378097 0.6038267 1.9690001
-0.014064286 0.60288912 1.9690001
-0.0056257145 0.6000762 1.9690001
0.0050006351 0.60257655 1.969
0.014533096 0.60335791 1.969
0.02250286 0.6038267 1.9690002
0.033218507 0.60275513 1.969
0.046077281 0.60329092 1.969
0.060007621 0.60757715 1.9690001
-0.037504762 0.61132765 1.9690001
0.0075009526 0.61882859 1.9690001
0.015001905 0.61882859 1.9690002
0.025315715 0.61601573 1.9690001
0.031879049 0.61882859 1.9690001
0.047256004 0.61582822 1.9690001
0.054381907 0.61695337 1.9690001
0.063758098 0.61132765 1.9690002
0.078760006 0.61507809 1.9690001
0.082510479 0.61507809 1.9690001
-0.045005716 0.62632954 1.9690001
-0.011251429 0.62445432 1.9690001
-0.0075009526 0.6225791 1.9690001
0.024378097 0.6225791 1.9690001
0.03000381 0.6225791 1.9690001
0.047506034 0.62382925 1.9690002
0.054381907 0.62445432 1.9690001
-0.28128573 0.63758099 1.9690001
-0.011251429 0.63195527 1.9690001
0.053444289 0.63289285 1.9690001
0.016877143 0.64508188 1.9690001
0.022502858 0.64133143 1.9690001
0.05250667 0.64508194 1.9690002
0.017502222 0.68508703 1.9690002
0.022502858 0.68446195 1.9690001
0.017502222 0.69133776 1.9690002
0.024753144 0.693088 1.9690001
0.03000381 0.6957134 1.9690001
-0.1961143 -0.17348571 1.9800001
-0.18291429 -0.16217144 1.9800001
-0.19988573 -0.15274286 1.9800001
-0.18668573 -0.1584 1.9800001
-0.1936 -0.14582859 1.9800001
-0.19385144 -0.13652572 1.9800001
-0.18762858 -0.13482857 1.9800001
-0.176 -0.13451429 1.9800001
-0.19385144 -0.12521143 1.9800001
-0.18762858 -0.12445715 1.9800001
-0.19611429 -0.11314286 1.9800001
-0.18668573 -0.11691429 1.9800001
-0.20742857 -0.10371429 1.9800001
-0.1961143 -0.10434287 1.9800001
-0.18857144 -0.10182858 1.9800001
-0.20554286 -0.094285719 1.9800001
-0.1961143 -0.098057143 1.9800001
-0.18668573 -0.094285719 1.9800001
-0.20554286 -0.084857143 1.9800001
-0.18480001 -0.084857151 1.9800001
-0.17725715 -0.082971431 1.9800001
-0.20365715 -0.0792 1.9800001
-0.18480001 -0.0792 1.9800001
-0.20554286 -0.066 1.9800001
-0.19737144 -0.06411428 1.9800001
-0.18857144 -0.067885719 1.9800001
-0.19988573 -0.056571431 1.9800001
-0.19517143 0.094285719 1.9800001
-0.20365715 0.10560001 1.9800001
-0.19894287 0.10465715 1.9800001
-0.20617144 0.11440001 1.9800001
-0.20491429 0.12697144 1.9800001
-0.19800001 0.12634286 1.9800001
-0.20365715 0.132 1.9800001
-0.24514288 0.14582859 1.9800001
-0.24262857 0.15211429 1.9800001
-0.23382859 0.15525715 1.9800001
-0.22440001 0.1584 1.9800001
-0.23005715 0.16594286 1.9800001
-0.22534287 0.16500001 1.9800001
-0.23005715 0.17537144 1.9800001
-0.22502859 0.176 1.9800001
-0.21245717 0.176 1.9800001
-0.23571429 0.18857144 1.9800001
-0.22628573 0.1848 1.9800001
-0.21245717 0.18480001 1.9800001
-0.056571431 0.27908573 1.9800001
-0.060342859 0.28474286 1.9800001
-0.056571431 0.28285715 1.9800001
-0.14708573 0.29605716 1.9800001
-0.132 0.29794288 1.9800001
-0.12822857 0.29417145 1.9800001
-0.11502858 0.29228574 1.9800001
-0.10685715 0.29417145 1.9800001
-0.064114287 0.29417145 1.9800001
-0.132 0.3017143 1.9800001
-0.10560001 0.3017143 1.9800001
-0.071657144 0.30737144 1.9800001
-0.067885719 0.3017143 1.9800001
-0.071657144 0.31302857 1.9800001
-0.077314287 0.32434288 1.9800001
0.01697143 0.3281143 1.9800001
-0.076937146 0.33490285 1.9800001
-0.0037714287 0.33565715 1.9800001
0.004714286 0.33660001 1.9800001
0.015085715 0.33511838 1.9800003
0.02262857 0.33565715 1.9800001
0.015085715 0.3432 1.9800001
0.022628572 0.34508574 1.9800001
0.011314286 0.35640001 1.9800001
0.018857144 0.41485715 1.9800001
0.024514288 0.41485715 1.9800001
0.018857144 0.42617145 1.9800001
0.024514288 0.42240003 1.9800001
0.01697143 0.4337143 1.9800001
0.01697143 0.44125715 1.9800001
0.0075428574 0.45257145 1.9800001
0.011314286 0.45445716 1.9800001
0.0075428574 0.46388569 1.9800001
0.012571429 0.46388569 1.9800001
-0.005657143 0.47897145 1.9800001
0.0033000002 0.47472855 1.9800003
0.015085714 0.47520003 1.9800001
0.024514286 0.47331432 1.9800001
-0.0037714287 0.48462859 1.9800001
