# .PCD v0.7 - Point Cloud Data file format
VERSION 0.7
FIELDS x y z
SIZE 4 4 4
TYPE F F F
COUNT 1 1 1
WIDTH 1415
HEIGHT 1
VIEWPOINT 0 0 0 1 0 0 0
POINTS 1415
DATA ascii
-0.0050257142 -0.20437904 1.7589999
0.0033390475 -0.20379239 1.7540001
0.013393334 -0.20587717 1.7575001
0.023407621 -0.2040305 1.756
0.033333335 -0.20333335 1.7500001
0.041812386 -0.20403336 1.756
-0.040000003 -0.19000001 1.7500001
-0.033004526 -0.19341382 1.7545
-0.023344761 -0.19344574 1.751
-0.013375238 -0.1939981 1.756
-0.0050257142 -0.19432761 1.7589999
0.0033504765 -0.19432762 1.7589999
0.012983096 -0.19432762 1.7589999
0.023419047 -0.19658762 1.7567501
0.031666666 -0.19666667 1.7500001
-0.041545905 -0.1836061 1.7590001
-0.03345333 -0.18396193 1.756
-0.023344763 -0.18343621 1.751
-0.013382857 -0.18406479 1.757
-0.00502 -0.1841162 1.7575001
0.0033504765 -0.18427621 1.7589999
0.010889048 -0.1851138 1.7590001
-0.040205717 -0.17757525 1.7590001
-0.032133717 -0.17538324 1.7572
-0.023409525 -0.17392382 1.756
-0.013401904 -0.17422476 1.7589999
-0.0050257142 -0.17422475 1.7589999
0.003350476 -0.1759 1.7589999
0.011168254 -0.17534161 1.7590002
-0.030154286 -0.16417335 1.7590002
-0.023453334 -0.16417333 1.7589999
-0.012923266 -0.16513063 1.7589999
-0.0046906667 -0.16484343 1.7590001
0.0067009525 -0.16752382 1.7590001
-0.030154286 -0.15412192 1.7590002
-0.023453332 -0.15412191 1.7589999
-0.012564286 -0.15495953 1.7590001
-0.0055841268 -0.15635556 1.7590002
0.060308572 -0.15077144 1.7590001
-0.030154286 -0.14407049 1.7590002
-0.023872145 -0.14407049 1.7589999
-0.016752381 -0.14072001 1.7590001
0.060308572 -0.14742096 1.7590001
-0.030154286 -0.13401906 1.7590002
-0.023931975 -0.13497631 1.7589999
-0.016752381 -0.13736953 1.7590001
-0.18204255 -0.04132254 1.7590002
-0.17422478 -0.041880954 1.7589999
-0.1640362 -0.041846666 1.7575001
-0.15333334 -0.040000003 1.7500001
-0.14500001 -0.040000003 1.7500001
-0.19097716 -0.036855239 1.7590001
-0.18331893 -0.033983402 1.7589999
-0.17453 -0.0339 1.757875
-0.16389906 -0.033447623 1.756
-0.15333332 -0.033333335 1.7500001
-0.14401524 -0.032427486 1.7525715
-0.13354041 -0.032547481 1.7589999
-0.12430715 -0.03306238 1.757875
-0.11487049 -0.032998092 1.7545
-0.10609841 -0.031271111 1.7590002
-0.18260096 -0.02680381 1.7590001
-0.17254953 -0.02680381 1.7590001
-0.16266859 -0.024766097 1.7572
-0.15403429 -0.023441905 1.7579999
-0.14407048 -0.023453332 1.7589999
-0.13401905 -0.023453336 1.7589999
-0.12396762 -0.023453334 1.7589999
-0.11439484 -0.024410615 1.7589999
-0.10554001 -0.02680381 1.7590001
-0.2144305 -0.013401906 1.7590002
-0.20437907 -0.013401906 1.7590002
-0.16082287 -0.016752381 1.7590001
-0.152 -0.014666666 1.7500002
-0.14407049 -0.013401904 1.7589999
-0.13497634 -0.013880542 1.7589999
-0.12173396 -0.015635556 1.7590002
-0.11726667 -0.016752381 1.7590001
-0.14072001 -0.0067009525 1.7590001
-0.1356943 -0.0067009525 1.7590001
-0.10051429 0.046906669 1.7590001
-0.08418072 0.074129291 1.7589999
-0.073231839 0.074667759 1.7589999
-0.064496666 0.076223336 1.7590001
-0.090462863 0.085437149 1.7590001
-0.083712377 0.083712384 1.7579999
-0.073710479 0.083761901 1.7589999
-0.06365905 0.083761916 1.7589999
-0.054277718 0.085772194 1.7590001
-0.046906669 0.087112382 1.7590001
-0.083761908 0.090462863 1.7590002
-0.072753198 0.09333469 1.7589999
-0.063659042 0.09381333 1.7589999
-0.053607624 0.09381333 1.7589999
-0.045566477 0.09448342 1.7590001
-0.071476825 0.10163111 1.7590002
-0.063659042 0.10386476 1.7589999
-0.053607624 0.10386477 1.7589999
-0.045566477 0.10453486 1.7590001
-0.063240238 0.11349739 1.7589999
-0.053607624 0.1139162 1.7589999
-0.043975003 0.11349739 1.7589999
-0.061648764 0.12329753 1.7590001
-0.053607624 0.12396762 1.7589999
-0.043556195 0.12396762 1.7589999
-0.034174856 0.12597792 1.7590001
-0.02680381 0.12564287 1.7590001
-0.061648764 0.13468914 1.7590001
-0.053579051 0.13394096 1.7579999
-0.043382864 0.13348381 1.7520001
-0.033809997 0.13316953 1.7533751
-0.061929524 0.14394476 1.7575001
-0.053579051 0.14399047 1.7579999
-0.044285715 0.14380953 1.7500001
-0.035000004 0.14666668 1.7500001
-0.061983809 0.15077144 1.7590001
-0.052490797 0.1535635 1.7589999
-0.04341143 0.15359809 1.753
-0.036666669 0.15000001 1.7500001
-0.050257146 0.16082287 1.7590001
-0.043438096 0.16370858 1.7540001
-0.033333335 0.16666667 1.7500001
-0.022336507 0.16529016 1.7590002
-0.043060239 0.17430928 1.755625
-0.033333335 0.17428572 1.7500001
-0.022832064 0.17489016 1.7545
-0.015077143 0.17757525 1.7590001
-0.043055955 0.18391834 1.755625
-0.033405714 0.18374859 1.7540001
-0.023367621 0.18364763 1.753
-0.013820713 0.1838574 1.7589999
-0.0050257146 0.18427619 1.7590001
0.0022336508 0.18539302 1.7590002
-0.050257146 0.19432764 1.7590002
-0.043386668 0.1935543 1.7520001
-0.033333335 0.19333336 1.7500001
-0.022942383 0.19316311 1.7522501
-0.012564287 0.19181478 1.7590001
-0.051094763 0.20521668 1.7590001
-0.045080002 0.20367907 1.7530001
-0.030000001 0.2 1.7500001
-0.05265034 0.21443047 1.7589999
-0.044415511 0.21444382 1.7551429
-0.061983809 0.22448191 1.7590001
-0.05265034 0.22448193 1.7589999
-0.043556195 0.22448193 1.7589999
-0.033923574 0.2240631 1.7589999
-0.050257146 0.23118286 1.7590001
-0.043556195 0.23453334 1.7589999
-0.035180002 0.23453332 1.7589999
-0.065669335 0.24391468 1.7590001
-0.040205717 0.24123429 1.7590001
-0.036855239 0.24123429 1.7590001
-0.067009524 0.25128573 1.7590001
-0.093813337 0.66674477 1.7590002
-0.12229238 0.6767962 1.7590001
-0.10051429 0.67512095 1.7590001
-0.094770618 0.67296708 1.7589999
-0.087112382 0.67009526 1.7590001
-0.13250001 0.68416667 1.7500001
-0.12419704 0.68420148 1.757
-0.11740001 0.68530834 1.7538573
-0.10051429 0.68014669 1.7590001
-0.097163811 0.68014669 1.7590001
-0.11224096 0.69187337 1.7590001
-0.10302715 0.69522387 1.7590001
-0.097163811 0.69354862 1.7590001
0.26803809 0.72035241 1.7590001
0.27138859 0.72035241 1.7590001
0.28479049 0.74045533 1.7590002
0.24681842 0.75497395 1.7590002
0.25575301 0.75609082 1.7590002
0.025257142 -0.23404953 1.7680001
0.033676192 -0.23404954 1.768
0.043779049 -0.23404953 1.7680001
0.063984767 -0.23910096 1.7680001
0.026940953 -0.22899811 1.7680001
0.035360001 -0.22899811 1.7680001
0.042432003 -0.22495694 1.768
0.050514288 -0.22226286 1.7680001
0.042937145 -0.21636952 1.7680001
0.050514288 -0.21889524 1.7680001
-0.033676192 -0.20205715 1.7680001
0.013470476 -0.20205717 1.7680001
0.047146667 -0.20374095 1.7680001
0.016838096 -0.19532192 1.7680001
0.023573333 -0.19330135 1.768
0.03704381 -0.19868954 1.7680001
0.043779049 -0.19868954 1.7680001
0.015154285 -0.18437715 1.7680001
0.021328256 -0.18746412 1.7680001
-0.042432003 -0.17444268 1.768
-0.035360001 -0.17343238 1.7680001
0.0033676189 -0.17174858 1.7680001
0.014144001 -0.1751162 1.768
0.020205716 -0.17680001 1.7680001
-0.043779053 -0.16501334 1.7679999
-0.035360001 -0.16501336 1.768
-0.015154285 -0.16164573 1.7680001
-0.0067352382 -0.16164573 1.7680001
0.0024054423 -0.16501334 1.7679999
0.010102858 -0.16838096 1.7680001
-0.043779053 -0.15491049 1.7679999
-0.035360001 -0.15491046 1.768
-0.014144001 -0.15423696 1.768
-0.0050514285 -0.15322667 1.7680001
0 -0.15659429 1.7680001
-0.050514292 -0.14480762 1.7680001
-0.043779053 -0.14480764 1.7679999
-0.035360001 -0.14480762 1.768
-0.020205716 -0.14480762 1.7680001
-0.014031746 -0.14593016 1.768
-0.0067352382 -0.14649144 1.7680001
0.060617145 -0.14480762 1.7680001
-0.050514288 -0.13470477 1.7680001
-0.043779053 -0.13512571 1.7679999
-0.035360001 -0.13470477 1.768
-0.021889525 -0.13133715 1.7680001
-0.014817524 -0.13403125 1.768
-0.0067352382 -0.13133715 1.7680001
-0.032329146 -0.12594897 1.768
-0.024695875 -0.12572445 1.768
-0.016838096 -0.12628572 1.7680001
-0.047146667 -0.11281524 1.7680001
-0.030308573 -0.11786667 1.7680001
-0.050514288 -0.10271238 1.7680001
-0.047146667 -0.10439619 1.7680001
-0.050514288 -0.097660959 1.7680001
-0.047146667 -0.095977142 1.7680001
-0.047146667 -0.085874289 1.7680001
-0.20205715 -0.03704381 1.7680001
-0.19476064 -0.033676192 1.768
-0.18858667 -0.031992383 1.7680001
-0.17174858 -0.030308573 1.7680001
-0.23404953 -0.021889525 1.7680001
-0.20205715 -0.020205716 1.7680001
-0.19330135 -0.023573333 1.768
-0.18570015 -0.022611158 1.7679999
-0.1755973 -0.022611158 1.7679999
-0.16669714 -0.021889525 1.7680001
-0.11281524 -0.020205716 1.7680001
-0.10608 -0.021889525 1.7680001
-0.24246858 -0.016838096 1.7680001
-0.23741716 -0.016838096 1.7680001
-0.20374095 -0.016838096 1.7680001
-0.19644445 -0.015715556 1.7680001
-0.18521905 -0.016838096 1.7680001
-0.17848381 -0.016838096 1.7680001
-0.16501334 -0.016838096 1.7680001
-0.13133715 -0.011786667 1.7680001
-0.12572445 -0.012347937 1.768
-0.11449905 -0.013470477 1.7679999
-0.10776381 -0.016838096 1.7680001
-0.13133715 -0.0067352382 1.7680001
-0.12460191 -0.0067352378 1.7680001
-0.11786667 -0.0067352382 1.7680001
-0.091767624 0.024415238 1.7680001
-0.085313015 0.023012064 1.768
-0.10215112 0.035921272 1.7680001
-0.094293334 0.033676192 1.7679999
-0.086211048 0.033676192 1.768
-0.10304914 0.043105524 1.768
-0.094293334 0.043779053 1.7679999
-0.08419048 0.043779049 1.7679999
-0.075210154 0.044901591 1.768
-0.10102858 0.05388191 1.7680001
-0.094966859 0.051861335 1.768
-0.08376953 0.053460952 1.7679999
-0.07408762 0.053881902 1.7679999
-0.08376953 0.064405717 1.7679999
-0.07408762 0.063984767 1.7679999
-0.067352384 0.065668575 1.7680001
-0.090925716 0.07408762 1.7680001
-0.080822863 0.070720002 1.7680001
-0.075771429 0.070720002 1.7680001
-0.063984767 0.072403811 1.7680001
-0.053881902 0.075771429 1.768
-0.047146667 0.077455238 1.7680001
-0.090925716 0.080822863 1.7680001
-0.053040002 0.081664763 1.7680001
-0.046024129 0.08419048 1.7680001
-0.090925716 0.090925716 1.7680001
-0.083348572 0.095135234 1.7680001
-0.077455238 0.095977142 1.7680001
-0.041253336 0.093451433 1.7680001
-0.03704381 0.097660959 1.7680001
-0.080822863 0.10102858 1.7680001
-0.075210154 0.10551873 1.768
-0.041253336 0.10355429 1.7680001
-0.073125444 0.11401796 1.7679999
-0.067352384 0.11786667 1.7680001
-0.040411431 0.11786667 1.7680001
-0.034638368 0.11401796 1.7679999
-0.023573333 0.11281523 1.768
-0.015154285 0.11113143 1.7680001
-0.070720002 0.12123429 1.7680001
-0.066510484 0.12544382 1.7680001
-0.033676192 0.12235683 1.7680001
-0.02289981 0.12527543 1.768
-0.016838096 0.12460191 1.7680001
-0.0033676191 0.12628572 1.7680001
0 0.12628572 1.7680001
0.047146667 0.12628572 1.7680001
0.050514288 0.12628572 1.7680001
-0.066229843 0.13470477 1.7680001
-0.067352384 0.14312381 1.7680001
-0.060617145 0.15659429 1.7680001
-0.056126986 0.15603302 1.7680001
-0.053039998 0.16417143 1.7680001
-0.020205716 0.16838096 1.7680001
-0.016838096 0.16838096 1.7680001
-0.050514288 0.17680001 1.7680001
-0.047146667 0.17174858 1.7680001
-0.020205716 0.17174858 1.7680001
-0.013470476 0.17623873 1.7680001
-0.0050514285 0.17848381 1.7680001
0.0033676189 0.1784838 1.7680001
-0.050514288 0.18521905 1.7680001
-0.047146667 0.18521905 1.7680001
-0.010102858 0.18858667 1.7680001
-0.0050514289 0.18521905 1.7680001
0.0025257142 0.18353525 1.7680001
-0.053881902 0.19532192 1.7680001
-0.015154285 0.19700572 1.7680001
-0.0050514285 0.1919543 1.7680001
0 0.1919543 1.7680001
-0.055004448 0.20430224 1.7680001
-0.057249527 0.21889524 1.7680001
-0.061739683 0.22675304 1.7680001
-0.057249527 0.22563049 1.7680001
-0.063022591 0.23621443 1.7679999
-0.05430286 0.23615429 1.7679999
-0.061459053 0.2466781 1.7680001
-0.053881906 0.24541524 1.7679999
-0.044200003 0.24625714 1.7679999
-0.061964195 0.25526553 1.768
-0.057249527 0.25930667 1.7680001
-0.043358095 0.25636002 1.7679999
-0.043779049 0.2626743 1.7680001
-0.11113143 0.66510475 1.7680001
-0.10439619 0.66510475 1.768
-0.094293341 0.66438311 1.7679999
-0.083516955 0.66544151 1.768
-0.11113143 0.67352384 1.7680001
-0.10481714 0.67310297 1.7679999
-0.08419048 0.67015624 1.7680001
-0.11393779 0.68250412 1.768
-0.10535836 0.68410778 1.7679999
-0.095977142 0.68699431 1.7680001
-0.11225396 0.69148445 1.7680001
-0.10439618 0.69276732 1.7679999
-0.096538417 0.69148445 1.7680001
0.25762287 0.70720005 1.7680001
0.2643581 0.71393526 1.7680001
0.26772571 0.72067052 1.7680001
0.24752 0.74761146 1.7680001
0.25762287 0.74761146 1.7680001
0.2626743 0.74761146 1.7680001
0.24535511 0.75338447 1.7679999
0.25593907 0.75392574 1.7679999
0.26562098 0.7547676 1.7679999
0.27951241 0.75097907 1.7680001
0.28793144 0.75097907 1.7680001
0.29298288 0.75097907 1.7680001
0.067695238 -0.24201047 1.7770001
0.073618576 -0.2411643 1.7770001
0.081234291 -0.2403181 1.7770001
0.044001907 -0.2335486 1.7770001
0.053027939 -0.23467684 1.7770001
0.064310476 -0.23354858 1.7770001
0.074464768 -0.23693334 1.7770001
0.081234291 -0.23693334 1.7770001
0.047386665 -0.22339429 1.7770001
0.053027939 -0.2256508 1.7770001
0.064733572 -0.22381739 1.7770002
0.071079999 -0.22339429 1.7770001
0.047386669 -0.21493238 1.7770001
0.05077143 -0.21493238 1.7770001
0.066002861 -0.21662477 1.7770001
0.071079999 -0.21662477 1.7770001
0.047386669 -0.20985524 1.7770001
0.054156195 -0.20647049 1.7770001
0.060925715 -0.20647049 1.7770001
0.033847619 -0.19462381 1.7770001
0.043324955 -0.19428533 1.7770001
0.05077143 -0.19970097 1.7770001
0.016923809 -0.18616191 1.7770001
0.024370287 -0.18548496 1.7770001
0.030462857 -0.18785429 1.7770001
0.016923809 -0.17262286 1.7770001
0.022000954 -0.17600763 1.7770001
0.006769524 -0.16246858 1.7770001
0.012974921 -0.16585334 1.7770001
-0.003384762 -0.15231429 1.7770001
0.0040617147 -0.156376 1.7770001
0.011846667 -0.15908381 1.7770001
-0.010154286 -0.14385238 1.7770001
-0.0050771432 -0.14554477 1.7770001
0 -0.14892954 1.7770001
-0.05077143 -0.13539049 1.7770001
-0.044001907 -0.13200572 1.7770001
-0.010154286 -0.13539048 1.7770001
-0.006769524 -0.13708286 1.7770001
-0.05077143 -0.1252362 1.7770001
-0.044001907 -0.12523621 1.7770002
-0.03554 -0.12354381 1.7770001
-0.021436825 -0.12297968 1.7770001
-0.012571973 -0.12475266 1.7770002
-0.0054156194 -0.12455925 1.7770001
0.001128254 -0.12297968 1.7770001
-0.043034829 -0.11556544 1.7770002
-0.033847619 -0.11508191 1.7770002
-0.023693332 -0.11508191 1.7770002
-0.013539047 -0.11508191 1.7770002
-0.0050771432 -0.11677429 1.7770001
0.001692381 -0.11846667 1.7770001
-0.044001907 -0.10662 1.7770001
-0.03130905 -0.10577381 1.7770001
-0.024821587 -0.10379937 1.7770001
-0.016923809 -0.10492762 1.7770001
-0.05077143 -0.094773337 1.7770001
-0.044001907 -0.098158099 1.7770001
-0.030462857 -0.098158099 1.7770001
-0.025949841 -0.097029842 1.7770001
-0.013539048 -0.094773337 1.7770001
-0.047386669 -0.081234291 1.7770001
-0.011846667 -0.088003814 1.7770001
-0.05077143 -0.064310469 1.7770001
-0.05077143 -0.057540953 1.7770001
-0.22000954 -0.037232384 1.7770001
-0.21493238 -0.033847619 1.7770001
-0.20647049 -0.032155238 1.7770001
-0.19970097 -0.032155238 1.7770001
-0.2403181 -0.022000954 1.7770001
-0.23270239 -0.022000954 1.7770001
-0.22407123 -0.02233943 1.7770001
-0.21324001 -0.020308573 1.7770001
-0.20590635 -0.023693332 1.7770001
-0.19885477 -0.023693334 1.7770001
-0.23354858 -0.016923809 1.7770001
-0.21493238 -0.016923809 1.7770001
-0.20985524 -0.016923809 1.7770001
-0.1963162 -0.015231429 1.7770001
-0.11169714 -0.010154286 1.7770001
-0.10425067 -0.014892953 1.7770001
-0.11508191 -0.006769524 1.7770001
-0.11169714 0.006769524 1.7770001
-0.10831238 0.006769524 1.7770001
-0.092516832 0.0056412704 1.7770001
-0.08631143 0.0050771432 1.7770001
-0.11169714 0.010154286 1.7770001
-0.092234768 0.014385238 1.7770001
-0.08631143 0.013539047 1.7770001
-0.10154286 0.027078096 1.7770001
-0.095901586 0.023693332 1.7770001
-0.10154286 0.030462857 1.7770001
-0.072208256 0.041745398 1.7770001
-0.067695238 0.045694288 1.7770001
-0.093927145 0.056694761 1.7770001
-0.088003814 0.057540953 1.7770001
-0.066002853 0.054156188 1.7770001
-0.057540953 0.054156192 1.7770001
-0.093806267 0.063826934 1.7770002
-0.088003814 0.060925715 1.7770001
-0.064310476 0.064310476 1.7770001
-0.054156195 0.067695238 1.7770001
-0.060925715 0.071079999 1.7770001
-0.054156195 0.071079999 1.7770001
-0.044848099 0.07531096 1.7770001
-0.037232384 0.07784953 1.7770001
-0.025385715 0.07784953 1.7770001
-0.04197105 0.083942093 1.7770001
-0.037232384 0.084619053 1.7770001
-0.025385715 0.081234291 1.7770001
-0.013539048 0.082926676 1.7770001
-0.091388576 0.094773337 1.7770001
-0.08631143 0.098158099 1.7770001
-0.033847619 0.094289802 1.7770002
-0.024116429 0.095196433 1.7770002
-0.013539047 0.095740415 1.7770002
-0.083772868 0.10408144 1.7770001
-0.036386192 0.10577381 1.7770001
-0.023693332 0.10492761 1.7770002
-0.013539047 0.10492761 1.7770002
-0.081234291 0.11338952 1.7770001
-0.07784953 0.11677429 1.7770001
-0.030462857 0.11677429 1.7770001
-0.023693332 0.11846667 1.7770001
-0.01305551 0.11604898 1.7770002
-0.0050771427 0.11508191 1.7770001
0.0025385716 0.11677429 1.7770001
-0.072772384 0.1252362 1.7770001
-0.030462857 0.12185143 1.7770001
-0.022000954 0.12185143 1.7770001
-0.011846667 0.12354381 1.7770001
-0.0056412704 0.12297968 1.7770001
0.003384762 0.12269762 1.7770001
0.043437779 0.1252362 1.7770001
-0.071079999 0.13200572 1.7770001
-0.067695238 0.13200572 1.7770001
-0.060925715 0.16246858 1.7770001
-0.054156192 0.16754572 1.7770001
-0.05077143 0.17262286 1.7770001
-0.013539049 0.17375112 1.7770001
-0.006769524 0.17600763 1.7770001
-0.052463811 0.18785429 1.7770001
-0.057540953 0.1963162 1.7770001
-0.057540953 0.20647049 1.7770001
-0.057540953 0.21324001 1.7770001
-0.071079999 0.23524097 1.7770001
-0.067695238 0.23524097 1.7770001
-0.054156192 0.25482425 1.7770002
-0.047386669 0.25385717 1.7770001
-0.051899683 0.26175493 1.7770001
-0.096465722 0.65495145 1.7770001
-0.11169714 0.66341335 1.7770001
-0.10492762 0.66341335 1.7770001
-0.095619529 0.66172099 1.7770001
-0.088003814 0.66679811 1.7770001
-0.12185143 0.67695242 1.7770001
-0.11169714 0.67695242 1.7770001
-0.12354381 0.68033719 1.7770001
-0.11677429 0.68033719 1.7770001
0.24370284 0.68710667 1.7770001
-0.11169714 0.69049144 1.7770001
0.21662477 0.69726098 1.7770001
0.22339429 0.69726104 1.7770001
0.24370286 0.69387615 1.7770002
0.25216478 0.69556856 1.7770001
0.22508667 0.70064574 1.7770001
0.23242033 0.70290226 1.7770001
0.24466993 0.703547 1.7770002
0.25385717 0.70403057 1.7770002
0.26062667 0.70403051 1.7770001
0.23467684 0.71305656 1.7770001
0.24454905 0.71249241 1.7770001
0.25343406 0.71460783 1.7770002
0.26062667 0.71587718 1.7770001
0.2545341 0.72230828 1.7770001
0.26536536 0.72433907 1.7770001
0.26739621 0.73110861 1.7770001
0.27416572 0.73449337 1.7770002
0.28178144 0.73533952 1.7770001
0.24370284 0.74634004 1.7770001
0.25385714 0.74667847 1.7770001
0.26485765 0.74718618 1.7770001
0.27529398 0.74577588 1.7770001
0.28228918 0.74397069 1.7770001
0.2411643 0.75395578 1.7770001
0.25385717 0.75141716 1.7770001
0.26739621 0.75141716 1.7770001
0.27458882 0.75437886 1.7770002
0.28432 0.75480193 1.7770002
0.2936281 0.75649428 1.7770001
0.056698412 -0.23246349 1.7860001
0.064636193 -0.23473144 1.7860001
0.074841909 -0.23303048 1.7860001
0.083346672 -0.23303048 1.7860001
0.056981906 -0.22367525 1.7860001
0.061234288 -0.22112381 1.7860001
0.076542862 -0.22622667 1.7860001
0.083346672 -0.22792763 1.7860001
0.05579124 -0.21500039 1.786
0.064150207 -0.21334802 1.7860001
0.071440004 -0.21261905 1.7860001
0.055280954 -0.20326382 1.7860001
0.064636193 -0.2041143 1.7860001
0.071440004 -0.20751619 1.7860001
0.035720002 -0.19050667 1.7860001
0.045075238 -0.19220763 1.7860001
0.054430481 -0.19390857 1.7860001
0.061234288 -0.19560952 1.7860001
0.027215239 -0.18200192 1.7860001
0.034444287 -0.18327764 1.7860001
0.044224765 -0.18540382 1.7860001
0.052729525 -0.18710476 1.7860001
0.024785308 -0.17301117 1.7860001
0.033047076 -0.17301118 1.7860001
0.044224761 -0.17009525 1.7860001
0.068038099 -0.17689906 1.7860001
0.017009525 -0.16499239 1.7860001
0.022679366 -0.16555937 1.7860001
0.043090794 -0.16442542 1.7860001
0.005102857 -0.15308572 1.7860001
0.01360762 -0.15592064 1.7860001
0.02041143 -0.15988953 1.7860001
-0.0034019048 -0.14458096 1.7860001
0.0034019046 -0.1468489 1.7860001
0.010205715 -0.14968382 1.7860001
-0.0034019046 -0.1360762 1.7860001
0.0020411429 -0.13471542 1.786
-0.0034019048 -0.12927239 1.7860001
0.004535873 -0.12700446 1.7860001
0.011339683 -0.12360255 1.7860001
-0.037420955 -0.11226286 1.7860001
-0.005102857 -0.11226286 1.7860001
0.0022679365 -0.11566476 1.7860001
0.013607618 -0.11906668 1.7860001
-0.041673336 -0.10460857 1.7860001
-0.036060192 -0.10477866 1.786
-0.021545397 -0.10772698 1.7860001
-0.011906668 -0.10545904 1.7860001
-0.0068038097 -0.1037581 1.7860001
-0.051028572 -0.091851436 1.7860001
-0.043090794 -0.09411937 1.7860001
-0.034019049 -0.095820315 1.7860001
-0.022679366 -0.09411937 1.7860001
-0.01360762 -0.095253333 1.7860001
-0.0054430477 -0.094572954 1.786
-0.052389335 -0.085047625 1.786
-0.042523813 -0.085047625 1.7860001
-0.032318097 -0.084197149 1.7860001
-0.023813335 -0.085047625 1.7860001
-0.014093607 -0.084075645 1.7860001
-0.0051028575 -0.085047625 1.7860001
0.0017009523 -0.085047625 1.7860001
-0.052389335 -0.075522289 1.786
-0.044650003 -0.075267144 1.7860001
-0.032318097 -0.075692385 1.7860001
-0.023813335 -0.074841909 1.7860001
-0.01360762 -0.074841902 1.7860001
-0.0051028575 -0.074841909 1.7860001
0.0034019046 -0.078243814 1.7860001
-0.045925718 -0.064636193 1.7860001
-0.032318097 -0.06548667 1.7860001
-0.025514288 -0.064636193 1.7860001
-0.045075241 -0.053580001 1.7860001
-0.030617142 -0.054430474 1.7860001
-0.024785308 -0.053944495 1.7860001
-0.01360762 -0.051028568 1.7860001
-0.0068038097 -0.051028572 1.7860001
-0.044791747 -0.04365778 1.7860001
-0.032318097 -0.043374289 1.7860001
-0.023813335 -0.044224765 1.7860001
-0.01360762 -0.044224765 1.7860001
-0.0051028575 -0.044224765 1.7860001
-0.23405106 -0.032658286 1.786
-0.22452573 -0.032318097 1.7860001
-0.030617142 -0.034019049 1.7860001
-0.024238573 -0.034444287 1.7860001
-0.015308572 -0.035720002 1.7860001
-0.2432362 -0.025514286 1.7860001
-0.23473144 -0.027215237 1.7860001
-0.22367525 -0.025514286 1.7860001
-0.21480599 -0.024785308 1.7860001
-0.030617142 -0.023813335 1.7860001
-0.027215237 -0.023813331 1.7860001
-0.22112381 -0.017009525 1.7860001
-0.10716 -0.010205715 1.7860001
-0.030617144 -0.013607619 1.7860001
-0.11396381 -0.005102857 1.7860001
-0.10886095 -0.0068038097 1.7860001
0.0017009524 -0.0034019048 1.7860001
-0.1148143 0.0034019048 1.7860001
-0.10319111 0.0056698411 1.7860001
-0.098655239 0.0068038097 1.7860001
-0.030617144 0 1.7860001
-0.004535873 0.0022679365 1.7860001
0.0017009523 0.0034019046 1.7860001
-0.11566477 0.010205715 1.7860001
-0.10545905 0.01360762 1.7860001
-0.097804755 0.013607619 1.7860001
-0.030617144 0.010205715 1.7860001
-0.0034019048 0.015308572 1.7860001
-0.10489207 0.022679366 1.7860001
-0.098655239 0.022112381 1.7860001
-0.023813333 0.023813333 1.7860001
-0.0034019048 0.022112381 1.7860001
-0.025514286 0.037420955 1.7860001
-0.062935241 0.047626667 1.7860001
-0.061234284 0.054430474 1.7860001
-0.054997463 0.054997463 1.7860001
-0.047626667 0.05613143 1.7860001
-0.023813333 0.056471623 1.786
-0.061234288 0.062935241 1.7860001
-0.054430481 0.062935241 1.7860001
-0.047626667 0.068038099 1.7860001
-0.023813335 0.064210959 1.7860001
-0.014288001 0.066677339 1.786
0.0068038097 0.068038099 1.7860001
-0.042523813 0.073140956 1.7860001
-0.032318097 0.076542862 1.7860001
-0.023327349 0.073869936 1.7860001
-0.01360762 0.074841909 1.7860001
-0.0051028575 0.074841909 1.7860001
0.0034019048 0.074841902 1.7860001
0.011056191 0.073991433 1.7860001
0.061234288 0.074841909 1.7860001
-0.033047076 0.085047618 1.7860001
-0.023327349 0.086019598 1.7860001
-0.01360762 0.085533611 1.7860001
-0.0051028575 0.085047625 1.7860001
0.0034019048 0.085047625 1.7860001
0.010205715 0.08164572 1.7860001
0.057832383 0.08164572 1.7860001
0.063502222 0.082779683 1.7860001
-0.091851436 0.098655239 1.7860001
-0.02041143 0.091851436 1.7860001
-0.013607619 0.091851436 1.7860001
-0.0051028575 0.095253326 1.7860001
0.0034019048 0.095253326 1.7860001
0.01360762 0.098655246 1.7860001
0.02466381 0.097804755 1.7860001
0.034699433 0.097294472 1.786
-0.091851436 0.10205714 1.7860001
-0.086748578 0.10716 1.7860001
-0.031977907 0.10477866 1.786
-0.0051028575 0.10545904 1.7860001
0.0034019048 0.10545905 1.7860001
0.01360762 0.10545906 1.7860001
0.023813335 0.10545905 1.7860001
0.031751111 0.10319111 1.7860001
0.0040822858 0.11430401 1.786
0.013182382 0.11523953 1.7860001
0.02041143 0.11226286 1.7860001
0.037420955 0.12587048 1.7860001
0.04082286 0.12246858 1.7860001
-0.057832383 0.16669334 1.7860001
-0.054430477 0.17519811 1.7860001
-0.0034019048 0.17689906 1.7860001
-0.054430474 0.18370287 1.7860001
-0.05613143 0.26534858 1.7860001
-0.047626667 0.26875049 1.7860001
-0.10545904 0.65996957 1.7860001
-0.094402865 0.65571719 1.7860001
-0.10545904 0.66337144 1.7860001
-0.091851436 0.66337144 1.7860001
-0.086748578 0.66677338 1.7860001
-0.11736572 0.67697906 1.7860001
-0.11736572 0.680381 1.7860001
0.23643237 0.68378288 1.7860001
0.24153525 0.68548381 1.7860001
0.2253762 0.69654 1.7860001
0.23515667 0.69441384 1.7860001
0.23529841 0.70306033 1.7860001
0.24153525 0.70759624 1.7860001
0.23699938 0.71213216 1.7860001
0.24266922 0.71440005 1.7860001
0.23813336 0.7246058 1.7860001
0.24493715 0.7246058 1.7860001
0.25174096 0.72800767 1.7860001
0.26194668 0.72630668 1.7860001
0.24607112 0.73254353 1.7860001
0.25556812 0.73438615 1.7860001
0.26421461 0.7359454 1.7860001
0.2466381 0.74501717 1.7860001
0.25514287 0.7440452 1.7860001
0.26492333 0.74459195 1.7860001
0.27328637 0.74615115 1.7860001
0.23813334 0.75182098 1.7860001
0.068380952 -0.20172381 1.7950001
0.071800001 -0.20343333 1.7950001
0.099152386 -0.20856191 1.7950001
0.10599048 -0.20856191 1.7950001
0.065938778 -0.19439729 1.7950001
0.071800001 -0.19488573 1.7950001
0.044447619 -0.18120952 1.7950001
0.055193193 -0.18365172 1.7950001
0.06496191 -0.18462859 1.7950001
0.072939686 -0.18234921 1.7950001
0.082057148 -0.18120953 1.7950001
0.037609525 -0.17608096 1.7950001
0.044447623 -0.17534831 1.7950001
0.054704767 -0.17573905 1.7950001
0.06453453 -0.17394407 1.7950001
0.075219043 -0.17485988 1.7950001
0.082057148 -0.17437144 1.7950001
0.025300954 -0.16343048 1.7950001
0.033763096 -0.16454168 1.7950001
0.06496191 -0.16509117 1.7950001
0.071800001 -0.1641143 1.7950001
0.082057148 -0.16753334 1.7950001
0.015955554 -0.15157779 1.7950001
0.023933332 -0.15385713 1.7950001
0.030771429 -0.15385714 1.7950001
0.047866669 -0.15385714 1.7950001
0.0051285718 -0.14189048 1.7950001
0.011966668 -0.1436 1.7950001
0.0262127 -0.14246033 1.7950001
0.030771429 -0.1436 1.7950001
0.047866669 -0.14701906 1.7950001
0.0051285718 -0.1367619 1.7950001
0.011966668 -0.13505238 1.7950001
0.023933334 -0.1367619 1.7950001
0.030771431 -0.13505238 1.7950001
0.014815873 -0.12764445 1.7950001
0.022223812 -0.12308572 1.7950001
0.030771431 -0.12308572 1.7950001
0.06496191 -0.12992382 1.7950001
0.073509529 -0.12308572 1.7950001
0.0045587304 -0.11510793 1.7950001
0.013676192 -0.1145381 1.7950001
0.022223812 -0.11966667 1.7950001
0.032822859 -0.11624763 1.7950001
-0.0042738095 -0.10684524 1.7950001
0.0017095238 -0.10513572 1.7950001
0.010257144 -0.10257144 1.7950001
0.025642859 -0.10770001 1.7950001
0.034760315 -0.10713017 1.7950001
0.041028574 -0.10428096 1.7950001
-0.054704763 -0.092314288 1.7950001
-0.0359 -0.092314288 1.7950001
-0.0034190477 -0.099152386 1.7950001
0.0024421769 -0.095244907 1.7950001
0.010257144 -0.092314288 1.7950001
0.027352381 -0.094023809 1.7950001
0.037609525 -0.099152386 1.7950001
-0.054704763 -0.085476197 1.7950001
-0.035558093 -0.086160004 1.7950001
0.0068380958 -0.085476197 1.7950001
0.012699321 -0.08498776 1.7950001
0.023933334 -0.085476197 1.7950001
-0.054704763 -0.071800001 1.7950001
-0.041028574 -0.071800001 1.7950001
-0.035558093 -0.074535236 1.7950001
0.0034190475 -0.073509522 1.7950001
0.013676192 -0.07521905 1.7950001
0.023505952 -0.074791662 1.7950001
-0.054704763 -0.068380952 1.7950001
-0.041028574 -0.06496191 1.7950001
-0.035558097 -0.064278103 1.7950001
-0.020514287 -0.06496191 1.7950001
-0.013676192 -0.06496191 1.7950001
-0.0051285713 -0.06496191 1.7950001
0.0034190475 -0.06496191 1.7950001
0.013248811 -0.06538929 1.7950001
0.023363493 -0.066101588 1.7950001
-0.043763813 -0.05538857 1.7950001
-0.0359 -0.054704767 1.7950001
-0.020514287 -0.056414288 1.7950001
-0.013676192 -0.056414288 1.7950001
-0.0047866665 -0.055388577 1.7950001
0.0029306121 -0.055681638 1.7950001
0.010257144 -0.056414288 1.7950001
-0.043307934 -0.045587301 1.7950001
-0.035558093 -0.045131434 1.7950001
0.0034190475 -0.044447623 1.7950001
0.010257144 -0.041028574 1.7950001
-0.2541492 -0.031911112 1.7950001
-0.24617146 -0.032480955 1.7950001
-0.23933335 -0.030771431 1.7950001
-0.044020243 -0.03461786 1.7950001
-0.035899997 -0.034190476 1.7950001
-0.020514287 -0.030771431 1.7950001
-0.012308571 -0.032822859 1.7950001
-0.0051285718 -0.034190476 1.7950001
0.0034190477 -0.034190476 1.7950001
-0.25386429 -0.024788097 1.7950001
-0.24822287 -0.023933334 1.7950001
-0.035045236 -0.023078572 1.7950001
-0.02222381 -0.023933334 1.7950001
-0.013676191 -0.023933334 1.7950001
-0.0051285713 -0.023933336 1.7950001
0.0034190475 -0.023933334 1.7950001
0.01253651 -0.023363493 1.7950001
0.020514287 -0.023933334 1.7950001
-0.25300953 -0.015385714 1.7950001
-0.24959049 -0.017095238 1.7950001
-0.10257144 -0.010257144 1.7950001
-0.099152386 -0.010257144 1.7950001
-0.033335716 -0.013676191 1.7950001
-0.023933334 -0.013676193 1.7950001
-0.013676192 -0.013676191 1.7950001
-0.0051285718 -0.013676192 1.7950001
0.0034190477 -0.013676192 1.7950001
0.011396826 -0.012536508 1.7950001
-0.11282858 -0.0034190477 1.7950001
-0.10530667 -0.0047866665 1.7950001
-0.099152386 -0.0068380954 1.7950001
-0.042168256 -0.0045587304 1.7950001
-0.034190476 -0.0051285713 1.7950001
-0.023933334 -0.0051285713 1.7950001
-0.013676192 -0.0051285713 1.7950001
-0.0051285718 -0.0051285718 1.7950001
0.0042738095 -0.0059833336 1.7950001
0.011396826 -0.0045587304 1.7950001
-0.11282858 0 1.7950001
-0.10667429 0.001367619 1.7950001
-0.096417144 0.001367619 1.7950001
-0.088895239 0 1.7950001
-0.042738095 0.0034190479 1.7950001
-0.03461786 0.0038464284 1.7950001
-0.023933334 0.0034190475 1.7950001
-0.013676192 0.0034190477 1.7950001
-0.0056984127 0.0045587304 1.7950001
0.0068380958 0.0034190479 1.7950001
0.010257144 0.0017095238 1.7950001
-0.095733337 0.010257144 1.7950001
-0.042738095 0.012821429 1.7950001
-0.036469843 0.011396826 1.7950001
-0.023933334 0.013676191 1.7950001
-0.013676192 0.013676193 1.7950001
-0.0059833331 0.012821428 1.7950001
0.0020514287 0.012992382 1.7950001
-0.083196826 0.025073016 1.7950001
-0.078638099 0.023933334 1.7950001
-0.030771429 0.023933334 1.7950001
-0.023933334 0.023933332 1.7950001
-0.014164627 0.023933334 1.7950001
-0.0051285718 0.023933334 1.7950001
-0.082911909 0.034190476 1.7950001
-0.076928571 0.03419048 1.7950001
-0.045587301 0.03419048 1.7950001
-0.032822859 0.035558097 1.7950001
-0.0234449 0.033213608 1.7950001
-0.01504381 0.035558097 1.7950001
-0.0051285718 0.037609525 1.7950001
-0.054020952 0.046499047 1.7950001
-0.044020239 0.044875003 1.7950001
-0.035558093 0.044447623 1.7950001
-0.023933334 0.044447619 1.7950001
-0.013676192 0.044447616 1.7950001
-0.0059833331 0.045302384 1.7950001
0.0017095238 0.047866669 1.7950001
-0.051285718 0.052995242 1.7950001
-0.043470751 0.054216329 1.7950001
-0.035899997 0.054704767 1.7950001
-0.023933336 0.052140482 1.7950001
-0.013676192 0.054704763 1.7950001
-0.0051285713 0.054704767 1.7950001
0.0034190479 0.054704763 1.7950001
0.011396826 0.056984127 1.7950001
-0.044020243 0.06453453 1.7950001
-0.03461786 0.06496191 1.7950001
-0.023933334 0.068380952 1.7950001
-0.012821429 0.062397622 1.7950001
-0.0051285713 0.06496191 1.7950001
0.0029916666 0.06453453 1.7950001
0.013248811 0.06538929 1.7950001
0.020514287 0.066671431 1.7950001
-0.03504524 0.072654761 1.7950001
0.015727619 0.075902864 1.7950001
0.023933332 0.075219043 1.7950001
0.030771431 0.071800001 1.7950001
0.058123812 0.076928571 1.7950001
0.061542861 0.078638099 1.7950001
0.014103572 0.085903578 1.7950001
0.023933334 0.085476197 1.7950001
0.033620637 0.086615883 1.7950001
0.046157144 0.087185718 1.7950001
0.054704759 0.086453065 1.7950001
0.061542861 0.085476197 1.7950001
-0.030771431 0.095733337 1.7950001
0.013676192 0.094023816 1.7950001
0.023249526 0.093681909 1.7950001
0.033335716 0.093169048 1.7950001
0.045587305 0.093453974 1.7950001
0.054704767 0.094023816 1.7950001
-0.06496191 0.16069524 1.7950001
-0.058123812 0.17437144 1.7950001
-0.011966668 0.17266192 1.7950001
-0.0068380954 0.17437144 1.7950001
-0.058123812 0.18462859 1.7950001
-0.061542861 0.19659525 1.7950001
-0.058123812 0.19146667 1.7950001
-0.061542857 0.20514286 1.7950001
-0.061542861 0.21198095 1.7950001
-0.054704767 0.27181429 1.7950001
-0.045587301 0.27238414 1.7950001
-0.10428096 0.65816671 1.7950001
-0.095733337 0.65303814 1.7950001
-0.088895239 0.65987623 1.7950001
-0.087755561 0.66557461 1.7950001
-0.082057148 0.67013335 1.7950001
-0.078638099 0.67013335 1.7950001
0.22565715 0.68551904 1.7950001
0.23249525 0.6855191 1.7950001
0.2154 0.69748574 1.7950001
0.22565714 0.69357824 1.7950001
0.23249525 0.69235718 1.7950001
0.21710953 0.70090479 1.7950001
0.24503176 0.7373746 1.7950001
0.24685526 0.74330091 1.7950001
0.25300953 0.74193335 1.7950001
0.077314287 -0.20273525 1.8040001
0.082468577 -0.20273525 1.8040001
0.097072378 -0.20617144 1.8040001
0.1065219 -0.20703049 1.8040001
0.11339429 -0.20788953 1.8040001
0.076741584 -0.19471745 1.8040003
0.082468577 -0.19586286 1.8040001
0.076455243 -0.1855543 1.8040001
0.085904762 -0.18383619 1.8040001
0.054979052 -0.17352761 1.8040001
0.075596198 -0.17352763 1.8040001
0.086886533 -0.17524573 1.804
0.037798095 -0.16150096 1.8040001
0.046388574 -0.16837335 1.8040001
0.05154286 -0.16665524 1.8040001
0.061851431 -0.16150096 1.8040001
0.075596191 -0.16751429 1.8040001
0.036079999 -0.15462857 1.804
0.04398324 -0.15256685 1.8040001
0.063569523 -0.15806477 1.8040001
0.017180953 -0.14432001 1.8040003
0.022907937 -0.14489271 1.804
0.035220951 -0.14517906 1.8040001
0.044670478 -0.1460381 1.8040001
0.05154286 -0.14775619 1.8040001
0.06528762 -0.14432001 1.8040001
0.017180953 -0.13572952 1.8040001
0.024053335 -0.13358191 1.804
0.034934606 -0.13343874 1.804
0.044179592 -0.13499321 1.804
0.065287627 -0.13343875 1.804
0.075596191 -0.13057524 1.8040003
0.025427809 -0.12507734 1.8040001
0.035507299 -0.12484827 1.804
0.041234288 -0.12370285 1.8040001
0.066662095 -0.12439009 1.8040001
0.075596191 -0.12427556 1.804
0.082468577 -0.12370286 1.8040001
0.0068723811 -0.11339429 1.8040001
0.024053333 -0.11511239 1.804
0.035507303 -0.11568508 1.8040003
0.041234288 -0.11683048 1.8040001
0.06528762 -0.11683048 1.8040001
0.0048106671 -0.10720915 1.8040001
0.014174287 -0.10695144 1.804
0.022678858 -0.10514744 1.8040001
0.03321651 -0.10423112 1.8040003
0.043525081 -0.1065219 1.8040003
0.0068723811 -0.09793143 1.8040001
0.014174286 -0.096642852 1.804
0.023071567 -0.096704222 1.804
0.033932384 -0.095783815 1.804
0.042093337 -0.097072378 1.8040001
0.017180953 -0.087622859 1.8040001
0.03321651 -0.087050162 1.804
0.027489524 -0.079032384 1.8040001
0.030925715 -0.075596191 1.8040003
0.017180953 -0.061851431 1.8040001
0.025198733 -0.062996827 1.8040003
0.030925715 -0.068723813 1.8040001
0.0051542856 -0.05154286 1.8040001
0.014432001 -0.055666286 1.8040001
0.023194287 -0.057556197 1.8040001
0.013744763 -0.043525081 1.8040003
0.020617144 -0.041234288 1.8040001
-0.27489525 -0.034361906 1.8040001
-0.26286858 -0.03264381 1.8040001
-0.2577143 -0.034361906 1.8040001
-0.048106667 -0.030925715 1.8040001
0.013253878 -0.03338014 1.804
0.020617144 -0.030925715 1.8040001
-0.26344129 -0.025198733 1.804
-0.2577143 -0.022335239 1.8040001
-0.044670478 -0.024053335 1.804
-0.037798095 -0.025771428 1.8040001
0.016035557 -0.02519873 1.8040003
0.024482859 -0.024053335 1.804
-0.2577143 -0.015462858 1.8040001
-0.044240955 -0.013315238 1.804
-0.037798095 -0.013744763 1.8040003
0.014890159 -0.014317461 1.804
0.022678858 -0.013744762 1.8040001
-0.096213341 -0.0034361903 1.8040003
-0.046961274 -0.0057269842 1.8040003
0.016035557 -0.0057269842 1.8040003
0.020617144 -0.0068723811 1.8040001
-0.048106667 0 1.8040001
0.012599365 0.0034361903 1.8040003
-0.042952381 0.015462858 1.8040001
-0.033674669 0.015806478 1.8040001
0.0051542856 0.01460381 1.8040001
0.010308572 0.013744763 1.8040003
-0.077314287 0.027489524 1.8040001
-0.04260876 0.024740573 1.8040001
-0.036079999 0.024053335 1.804
-0.012026668 0.024053333 1.8040001
-0.0068723811 0.025771428 1.8040001
0.0017180953 0.020617144 1.8040001
-0.077314287 0.034361906 1.8040001
-0.043296002 0.033674669 1.8040001
-0.036080003 0.03264381 1.8040001
-0.012026668 0.03264381 1.8040001
-0.0068723811 0.03264381 1.8040001
0.0034361905 0.036423616 1.8040001
0.013057524 0.035736382 1.8040001
-0.03264381 0.044670478 1.8040001
-0.0034361905 0.042952381 1.8040001
0.0039270748 0.043688711 1.804
0.012026668 0.044670478 1.804
-0.030925715 0.054979045 1.8040003
0.013744762 0.054120004 1.8040001
0.024053335 0.058415242 1.8040001
0.030925715 0.058415242 1.8040001
-0.030925715 0.06528762 1.8040001
0.017180953 0.061851431 1.8040001
0.025035102 0.064796738 1.804
0.03264381 0.06528762 1.804
0.05154286 0.068723813 1.8040001
0.033789206 0.075596191 1.804
0.053260956 0.075596191 1.8040001
0.065860324 0.075596191 1.804
0.072160006 0.077314287 1.8040001
0.035507303 0.083613969 1.8040003
0.044179592 0.085413881 1.804
0.05154286 0.082468577 1.8040001
0.068723813 0.082468577 1.8040001
0.072160006 0.082468577 1.8040001
0.042952381 0.096213333 1.8040001
-0.06528762 0.15806477 1.8040001
-0.06414222 0.16722794 1.8040003
-0.063569523 0.17524572 1.804
-0.058415242 0.17524572 1.8040001
-0.010308572 0.17180952 1.8040001
-0.0051542856 0.17352763 1.8040001
-0.062710479 0.18469526 1.8040001
-0.065860316 0.19586284 1.804
-0.06643302 0.20731683 1.8040003
-0.067005716 0.21304382 1.8040001
-0.053260952 0.27833143 1.8040001
-0.044670478 0.27604064 1.8040003
-0.053833652 0.282913 1.8040003
-0.046961267 0.282913 1.8040003
-0.10308572 0.65631241 1.8040001
-0.099649526 0.65631241 1.8040001
-0.085904762 0.66490287 1.8040001
-0.082468577 0.67005718 1.8040001
-0.079032384 0.67005718 1.8040001
0.2187708 0.67463875 1.8040003
0.22449778 0.67578411 1.8040003
0.21905714 0.68466097 1.8040001
0.22507048 0.68208385 1.8040001
0.23194286 0.68380195 1.8040001
0.21819811 0.69411045 1.804
0.22335239 0.69754672 1.8040001
0.1174781 -0.21076953 1.8140001
0.12093334 -0.21076953 1.8140001
0.07774286 -0.20385906 1.8140001
0.086380959 -0.20040381 1.8140001
0.1043482 -0.20247695 1.8140001
0.11402286 -0.20501082 1.8140001
0.12352477 -0.20385906 1.8140001
0.078318737 -0.19118984 1.8140001
0.086812861 -0.19306143 1.8140001
0.093291432 -0.19694857 1.8140001
0.1002019 -0.19694857 1.8140001
0.089836195 -0.18658286 1.8140001
0.044918098 -0.16326 1.8140001
0.05627102 -0.16535783 1.8140001
0.069104761 -0.16239619 1.8140001
0.079470478 -0.16585143 1.8140001
0.084653333 -0.16585143 1.8140001
0.044918094 -0.15894096 1.8140001
0.051828574 -0.1554857 1.8140001
0.066801272 -0.15548573 1.8140001
0.038007621 -0.14339238 1.8140001
0.044054285 -0.14252858 1.8140001
0.055777412 -0.14413278 1.8140001
0.065649517 -0.14454414 1.8140001
0.038007621 -0.13475429 1.8140001
0.046645716 -0.13129905 1.8140001
0.055283811 -0.13475429 1.814
0.065649524 -0.13820952 1.8140001
0.076015241 -0.13475429 1.8140001
0.045905311 -0.12438858 1.8140001
0.055283807 -0.12482049 1.8140001
0.063921906 -0.12352477 1.8140001
0.082925715 -0.12784381 1.8140001
0.045905311 -0.11402286 1.8140001
0.056665909 -0.11540496 1.8140001
0.065073654 -0.11459873 1.8140001
0.075151436 -0.11661429 1.8140001
0.04837333 -0.10365715 1.8140001
0.056435559 -0.10250539 1.8140001
0.046069842 -0.09559492 1.8140001
0.036855873 -0.084077455 1.8140001
0.041462857 -0.089836195 1.8140001
0.03455238 -0.076015241 1.8140001
0.032248888 -0.065649524 1.8140001
0.015548572 -0.051828574 1.8140001
0.024877716 -0.053210668 1.8140001
0.031097144 -0.055283815 1.8140001
0.014512 -0.046300191 1.8140001
0.024186665 -0.045493972 1.8140001
0.031097144 -0.046645716 1.8140001
-0.27296382 -0.032824762 1.8140001
-0.26950857 -0.032824762 1.8140001
0.015548572 -0.038007621 1.8140001
0.024186669 -0.033976506 1.8140001
0.032824762 -0.031097144 1.8140001
-0.27296382 -0.025914285 1.8140001
-0.26778096 -0.022459049 1.8140001
0.03455238 -0.024186669 1.814
-0.26432574 -0.01727619 1.8140001
-0.048373334 -0.01727619 1.8140001
0.025914285 -0.013820953 1.8140001
0.034120478 -0.014252858 1.8140001
0.024186667 -0.0051828572 1.8140001
0.031097144 -0.0069104764 1.8140001
0.016412381 0.0043190476 1.8140001
0.020731429 0.0017276191 1.8140001
0.015548572 0.013820953 1.8140001
0.020731429 0.012093334 1.8140001
-0.044918098 0.020731429 1.8140001
0.0039488436 0.025173878 1.8140001
0.012093333 0.024186669 1.8140001
0.020731429 0.025914285 1.8140001
-0.0034552382 0.032824762 1.8140001
0.0034552382 0.031960953 1.8140001
0.014684762 0.032824762 1.8140001
0.023754762 0.034984283 1.8140001
0.031097144 0.03455238 1.8140001
0.01727619 0.044918094 1.8140001
0.023754762 0.04535 1.8140001
0.031097144 0.046645716 1.8140001
0.01727619 0.053556193 1.8140001
0.024186669 0.054296602 1.8140001
0.03455238 0.054296602 1.8140001
0.041462857 0.055283815 1.8140001
0.038007621 0.065649524 1.8140001
0.044424493 0.066636734 1.8140001
0.055283815 0.067953013 1.8140001
0.065649524 0.069104761 1.8140001
0.038007621 0.07774286 1.8140001
0.044918098 0.076015234 1.814
0.055283815 0.074863493 1.8140001
0.069104761 0.072560005 1.8140001
0.074863493 0.073711753 1.8140001
-0.084653333 0.15894096 1.8140001
-0.072560005 0.16930667 1.8140001
-0.069104761 0.16757905 1.8140001
-0.0051828572 0.16930667 1.8140001
-0.073942102 0.17690818 1.8140001
-0.069104761 0.17621715 1.8140001
-0.0034552382 0.17276192 1.8140001
0.0034552382 0.17967241 1.8140001
-0.072560005 0.18485525 1.8140001
-0.067953013 0.18543112 1.8140001
-0.082925715 0.19694857 1.8140001
-0.075583339 0.19392523 1.8140001
-0.067953013 0.19118984 1.8140001
-0.095019057 0.20558669 1.8140001
-0.073423818 0.20299524 1.8140001
-0.067953013 0.20616256 1.8140001
-0.041462857 0.27814668 1.8140001
-0.036855873 0.27641904 1.8140001
-0.027641905 0.27987429 1.8140001
-0.051828574 0.28678477 1.8140001
-0.043190479 0.28678477 1.8140001
-0.051828574 0.29024002 1.8140001
-0.044054288 0.29110381 1.8140001
-0.086380959 0.60812193 1.8140001
-0.093291432 0.65995049 1.8140001
-0.093291432 0.66340572 1.8140001
-0.082925715 0.666861 1.8140001
-0.082925715 0.67031622 1.8140001
-0.079470478 0.67031622 1.8140001
0.21768002 0.68413717 1.8140001
0.21249714 0.69795811 1.8140001
0.21249714 0.70141333 1.8140001
0.12681144 -0.21193144 1.8240001
0.095542863 -0.20150858 1.8240001
0.10075429 -0.20150858 1.8240001
0.11552 -0.20237716 1.8240001
0.12576915 -0.20498288 1.8240001
0.095890291 -0.19386515 1.8240001
0.10422857 -0.19456002 1.8240002
0.12507428 -0.19803429 1.824
0.095542856 -0.18413715 1.8240002
0.102144 -0.18483201 1.8240001
0.095542863 -0.17545143 1.8240001
0.074697152 -0.16329144 1.8240001
0.08338286 -0.16329144 1.8240001
0.057325721 -0.15634286 1.8240002
0.069485717 -0.15460572 1.8240001
0.055588573 -0.14939429 1.8240001
0.069485717 -0.14592001 1.8240001
0.072960004 -0.14244571 1.8240001
0.072960004 -0.13897143 1.8240001
0.08338286 -0.13376001 1.8240001
0.055588573 -0.1216 1.8240001
0.079908572 -0.1216 1.8240001
0.085988581 -0.12420572 1.8240001
0.090331435 -0.1250743 1.8240001
0.053851433 -0.11291429 1.8240001
0.067748576 -0.11117715 1.8240001
0.076434284 -0.11291429 1.8240001
0.08338286 -0.11812572 1.8240001
0.055009525 -0.10480762 1.8240002
0.065018773 -0.1047249 1.8240002
0.047481906 -0.091489531 1.824
0.055588577 -0.093805723 1.8240002
0.063405722 -0.094674282 1.8240001
0.043428574 -0.086857148 1.8240001
0.038217146 -0.072960004 1.8240001
0.03682743 -0.065316573 1.8240001
0.04169143 -0.069485717 1.8240001
0.035321906 -0.055588573 1.8240002
0.026057143 -0.045165718 1.8240001
0.035321906 -0.045165718 1.8240002
0.045662042 -0.046158366 1.8240002
0.053272385 -0.044007618 1.824
-0.28315431 -0.033005714 1.8240001
-0.27794287 -0.031268574 1.8240001
0.026057143 -0.038217146 1.8240001
0.035239186 -0.035735514 1.8240002
0.04466939 -0.033750206 1.8240002
0.052114289 -0.034742858 1.824
-0.28141716 -0.026057143 1.8240001
-0.27533716 -0.023451429 1.8240001
0.045165714 -0.024320003 1.8240002
0.052982863 -0.024320001 1.8240001
0.038217146 -0.010422857 1.8240001
0.04466939 -0.014889797 1.8240002
0.052114289 -0.015634287 1.8240001
0.027794287 -0.0034742858 1.8240001
0.034742862 -0.0052114287 1.8240001
0.04169143 -0.0069485717 1.8240001
0.025312657 0.0039706123 1.8240002
0.031268574 0.0034742858 1.8240001
0.025312653 0.01439347 1.8240002
0.034742858 0.014331429 1.8240002
0.017371429 0.024320001 1.824
0.025312653 0.023823675 1.8240002
0.034742858 0.024319999 1.8240002
0.042849526 0.022003809 1.824
0.027794287 0.031268574 1.8240001
0.035177141 0.034742858 1.8240002
0.042849526 0.035900954 1.824
0.027794287 0.04169143 1.8240001
0.035735514 0.044669386 1.8240002
0.04466939 0.046158373 1.8240002
0.052114289 0.048640002 1.8240001
0.038217146 0.059062861 1.8240001
0.046902854 0.055588577 1.8240002
0.054430481 0.056746673 1.8240002
0.079908572 0.059062861 1.8240001
0.046902858 0.062537149 1.8240001
0.056283433 0.063926861 1.8240001
0.062537149 0.066011429 1.8240001
0.077302866 0.068617143 1.8240001
0.085699052 0.068327628 1.824
0.09264762 0.065432377 1.8240002
0.079908572 0.072960004 1.8240001
0.08338286 0.072960004 1.8240001
-0.090331435 0.15981714 1.8240001
-0.090331435 0.16502857 1.8240001
-0.08512 0.16502857 1.8240001
-0.077302858 0.16589715 1.8240001
-0.091200009 0.17458285 1.8240001
-0.08512 0.17371428 1.8240002
-0.07851886 0.17301944 1.8240001
-0.010422857 0.17024 1.8240001
0.0017371429 0.17718858 1.8240001
-0.090331435 0.18413715 1.824
-0.08512 0.18413715 1.8240002
-0.07851886 0.18483202 1.8240001
-0.093309395 0.19555266 1.8240002
-0.085467435 0.19386515 1.8240001
-0.079908572 0.19108573 1.8240001
-0.10422858 0.20498288 1.824
-0.08338286 0.20150858 1.8240001
-0.07851886 0.20567772 1.8240001
-0.033005714 0.27446857 1.8240002
-0.025188573 0.27707428 1.8240001
-0.04169143 0.28489143 1.8240001
-0.034742862 0.28350171 1.8240001
-0.023885716 0.28532571 1.8240002
-0.045165718 0.29531428 1.8240001
-0.036480002 0.29531428 1.8240001
-0.026057143 0.29184002 1.8240001
-0.085699052 0.60684198 1.824
-0.091721147 0.61564344 1.8240001
-0.085120007 0.61494863 1.8240001
-0.090331435 0.62189716 1.8240001
-0.093805715 0.65490294 1.8240001
-0.08338286 0.65664005 1.8240001
-0.076434292 0.65577149 1.8240001
0.19803429 0.65664005 1.8240001
0.20150858 0.65664005 1.8240001
-0.091489531 0.66358858 1.824
-0.085120007 0.66358858 1.8240001
-0.078750484 0.66243047 1.824
0.20399022 0.66408491 1.8240002
-0.079908572 0.67053717 1.8240001
0.18761143 0.67053717 1.8240001
0.19803429 0.67401147 1.8240001
0.20498286 0.67401147 1.8240002
0.21471086 0.67609602 1.8240001
0.20567772 0.6823498 1.8240001
0.21366858 0.68443424 1.8240002
0.20845716 0.69659436 1.8240001
0.21366858 0.69485718 1.8240002
0.20845716 0.70180571 1.8240001
0.10823429 -0.19202858 1.8330001
0.11521714 -0.19651757 1.8330001
0.12569143 -0.1937743 1.8330001
0.12569143 -0.18853717 1.8330001
0.11521715 -0.17108001 1.8330001
0.075065717 -0.16060571 1.8330001
0.081466667 -0.16176952 1.8330001
0.11521714 -0.16584286 1.8330001
0.1222 -0.16409715 1.8330001
0.083794288 -0.15362287 1.8330001
0.075647622 -0.14547619 1.8330001
0.082048573 -0.14489429 1.8330001
0.076811433 -0.13965715 1.8330001
0.083794288 -0.13732953 1.8330001
0.094268583 -0.12569143 1.8330001
0.10125143 -0.12918286 1.8330001
0.084492579 -0.11451886 1.8329999
0.094268583 -0.11870857 1.8330001
0.069828577 -0.10299715 1.8330001
0.074716575 -0.10544114 1.8329999
0.080302857 -0.10823429 1.8330001
0.068432003 -0.093570277 1.8329999
0.073320001 -0.094268583 1.8330001
0.038405716 -0.080302857 1.8330001
0.045388576 -0.082630478 1.8330001
0.056299288 -0.083794288 1.8330001
0.064940572 -0.085190862 1.8329999
0.038405716 -0.076811433 1.8330001
