# .PCD v0.7 - Point Cloud Data file format
VERSION 0.7
FIELDS x y z
SIZE 4 4 4
TYPE F F F
COUNT 1 1 1
WIDTH 1492
HEIGHT 1
VIEWPOINT 0 0 0 1 0 0 0
POINTS 1492
DATA ascii
0.043333337 0.015000002 1.7500001
0.053333335 0.015000001 1.7500001
0.062959522 0.013760714 1.7511251
0.070360005 0.016752381 1.7590001
0.044351842 0.022896329 1.7525715
0.053333338 0.02375 1.7500001
0.063333333 0.023333337 1.7500001
0.073506668 0.023386667 1.7540001
0.080411434 0.020102859 1.7590001
0.045789842 0.031271111 1.7590002
0.053453337 0.033415239 1.7540001
0.063407622 0.03337143 1.7520001
0.072701767 0.033004083 1.7577143
0.054564901 0.044034831 1.7589999
0.063478097 0.043436188 1.7540001
0.073710479 0.043556198 1.7589999
0.080411434 0.045231432 1.7590001
0.054564901 0.053128984 1.7589999
0.063554287 0.053512383 1.756
0.073668569 0.053575236 1.7579999
0.08329168 0.053989999 1.757875
0.091579683 0.055841271 1.7590002
0.064077854 0.063240238 1.7589999
0.07358095 0.063552387 1.756
0.083430476 0.063401908 1.7520001
0.093200006 0.06451837 1.7564286
0.10051429 0.06533429 1.7590001
0.066000476 0.072680004 1.7545002
0.073415242 0.073417142 1.7520001
0.083333336 0.07333333 1.7500001
0.093710482 0.073628575 1.757
0.10051429 0.073710479 1.7590002
0.06666667 0.080000006 1.7500001
0.073940709 0.083133094 1.7545
0.083428584 0.083432384 1.7520001
0.093653336 0.083619043 1.756
0.075720765 0.09314324 1.7590001
0.083424769 0.093438111 1.7520001
0.093603812 0.093596198 1.755
0.076666668 0.10166667 1.7500001
0.08337906 0.1033943 1.751
0.094088711 0.10267974 1.7551429
0.10368763 0.10368191 1.756
0.11166667 0.105 1.7500001
0.084315985 0.11402562 1.755
0.09380953 0.11761905 1.7500001
0.10366668 0.116 1.7500002
0.11308485 0.1146 1.7508183
0.12061714 0.11726667 1.7590001
0.087112382 0.12564287 1.7590001
0.093333334 0.125 1.7500001
0.10342476 0.12510857 1.7515001
0.11423075 0.12474366 1.7564286
0.12061713 0.12396763 1.7590002
0.093872145 0.13309239 1.7522501
0.10333334 0.13333334 1.7500001
0.1139162 0.13401905 1.7589999
0.12348898 0.13497631 1.7589999
0.095488578 0.14072001 1.7590001
0.10380382 0.14398859 1.7579999
0.11440972 0.14384934 1.7563
0.12438644 0.14407049 1.7589999
0.13066858 0.14407049 1.7590002
-0.080411434 0.15412191 1.7590001
-0.073710479 0.15412191 1.7590002
0.10386477 0.15300508 1.7590002
0.1139162 0.15412191 1.7589999
0.12396763 0.15412191 1.7589999
0.13200876 0.154792 1.7590001
0.11726667 0.1624981 1.7590001
0.12396763 0.16417336 1.7589999
0.13238095 0.16380954 1.7500001
0.1255343 0.17407334 1.7575001
0.13333334 0.17333335 1.7500001
0.14 0.17166668 1.7500001
0.12483185 0.18461768 1.7577143
0.13363619 0.18375431 1.7540001
0.14048 0.18396764 1.7560002
0.11726668 0.19432764 1.7590002
0.12353905 0.19366477 1.753
0.13363618 0.19377905 1.7540001
-0.14407049 0.20772953 1.7590002
-0.13401906 0.20772953 1.7590002
0.11642905 0.20437905 1.7590001
0.12396763 0.20437908 1.7589999
0.13360023 0.20479789 1.7589999
-0.13401906 0.21108001 1.7590002
0.12396763 0.21275525 1.7590001
0.13401906 0.21108001 1.7590002
0.11614984 0.23676699 1.7590002
0.12061714 0.23620859 1.7590001
0.10721524 0.24793525 1.7590001
0.1139162 0.24458477 1.7590001
0.10721524 0.25128573 1.7590001
0.11056572 0.25128573 1.7590001
-0.10051429 0.6767962 1.7590001
-0.097163811 0.6767962 1.7590001
-0.13000001 0.685 1.7500001
-0.12406287 0.68466949 1.7545
-0.11742222 0.68783528 1.7530001
-0.10051429 0.68349719 1.7590002
-0.097163819 0.68349719 1.7590002
-0.11428801 0.69343752 1.7545
-0.10386477 0.69287854 1.7590001
-0.097163811 0.69019812 1.7590001
-0.14185095 0.70423764 1.7522501
-0.13500001 0.70500004 1.7500001
0.25166667 0.70166671 1.7500001
-0.14407048 0.71030098 1.7590001
-0.13466667 0.71266669 1.7500002
0.27641428 0.72705334 1.7590001
0.28144002 0.72705334 1.7590001
0.24290952 0.73710477 1.7590001
0.24793525 0.74045527 1.7590001
0.080822863 0.026940953 1.7680001
0.077455238 0.035360001 1.7680001
0.08419048 0.044620954 1.7680001
0.087558098 0.050514288 1.7680001
0.090925716 0.050514288 1.7680001
0.060617145 0.067352384 1.7680001
0.094293334 0.060617145 1.7680001
0.060617145 0.070720002 1.7680001
0.10439619 0.07408762 1.7680001
0.10102858 0.08419048 1.7680001
0.10215112 0.096538417 1.7680001
0.11281524 0.10102858 1.7680001
-0.083067946 0.15715556 1.7680001
-0.07408762 0.15827811 1.7680001
0.10608 0.15154286 1.7680001
0.11449905 0.15491048 1.7680001
-0.080822863 0.16164573 1.7680001
-0.077455238 0.16164573 1.7680001
0.11562159 0.16501333 1.7680001
0.11786667 0.17343238 1.7680001
0.12123429 0.1751162 1.7680001
0.11786667 0.18690285 1.7680001
0.12123429 0.18353525 1.7680001
0.11337651 0.19756699 1.7680001
-0.15491049 0.20879239 1.7680001
0.10608 0.20710859 1.7680001
0.11247847 0.20542476 1.768
0.13807239 0.20205715 1.7680001
0.14144 0.20374095 1.7680001
0.11492 0.21552762 1.7679999
0.12460192 0.21687467 1.768
0.13302097 0.21721144 1.7680001
0.11674413 0.22450793 1.7680001
0.125083 0.22466831 1.7679999
0.1326842 0.22495696 1.768
0.097660959 0.23236573 1.7680001
0.10664127 0.23797841 1.7680001
0.11382552 0.23505983 1.768
0.12123429 0.23236573 1.7680001
0.10776381 0.24246858 1.7680001
0.11337651 0.24359113 1.7680001
0.10776381 0.25593907 1.7680001
0.11281524 0.25762287 1.7680001
0.10776381 0.2643581 1.7680001
0.11247847 0.2653684 1.768
-0.12123429 0.67520761 1.7680001
-0.11498014 0.67256171 1.7679999
-0.10383492 0.67296261 1.768
-0.095977142 0.67520761 1.7680001
-0.12392838 0.68227965 1.768
-0.11449905 0.68430018 1.768
-0.10608 0.68362665 1.768
-0.094293334 0.68025905 1.7680001
-0.11281524 0.69036192 1.7680001
-0.10608 0.69288766 1.7680001
0.24920382 0.70551622 1.7680001
0.25425524 0.70383239 1.7680001
0.24752 0.71056765 1.7680001
0.25509715 0.71477711 1.7680001
0.26940954 0.72403812 1.7680001
0.27951241 0.72740573 1.7680001
0.27838984 0.73526353 1.7680001
0.28288001 0.73582482 1.7680001
0.23910096 0.74592769 1.7680001
0.2458362 0.74536633 1.768
0.25526553 0.74626446 1.768
0.26604193 0.74761146 1.7680001
0.27614477 0.74761146 1.7680001
0.28540573 0.74508578 1.7680001
0.24752 0.75266284 1.7680001
0.25593907 0.75434673 1.7679999
0.2660419 0.75434673 1.7679999
0.27518255 0.75386566 1.7679999
0.28288001 0.75097907 1.7680001
0.11846667 -0.19293143 1.7770001
0.12185143 -0.19293143 1.7770001
0.10831238 -0.18277715 1.7770001
0.115505 -0.18573882 1.7770002
0.12185143 -0.18954667 1.7770001
0.10662 -0.12354381 1.7770001
0.11169714 -0.1252362 1.7770001
0.10492762 -0.11846667 1.7770001
0.11169714 -0.11846667 1.7770001
0.091388576 -0.10831238 1.7770001
0.096465722 -0.084619053 1.7770001
0.081234291 0.033847623 1.7770001
0.08631143 0.042309526 1.7770001
0.093080953 0.047386669 1.7770001
0.094773337 0.052463811 1.7770001
0.10492762 0.084619053 1.7770001
0.10323524 0.093080953 1.7770001
-0.081234291 0.16923811 1.7770001
-0.074464768 0.1647251 1.7770001
0.011846667 0.16246858 1.7770001
0.11254333 0.16669953 1.7770001
0.11508191 0.17668459 1.7770001
-0.13877524 0.18616191 1.7770001
0.10492762 0.18954667 1.7770001
0.11451778 0.18616192 1.7770001
0.10154286 0.19970097 1.7770001
0.11169714 0.19462381 1.7770001
0.081234291 0.20816287 1.7770001
0.10379937 0.20421398 1.7770001
0.10831238 0.21493238 1.7770001
0.11169714 0.21662477 1.7770001
0.10662 0.22424048 1.7770001
0.11282539 0.22452255 1.7770001
0.098158099 0.23693334 1.7770001
0.10444408 0.23354861 1.7770002
0.11423571 0.23101 1.7770001
0.12410793 0.23129207 1.7770001
0.097311907 0.24285668 1.7770001
0.10379937 0.24483113 1.7770001
0.11169714 0.24708763 1.7770001
0.098158099 0.2504724 1.7770001
0.10357372 0.25318021 1.7770001
0.10436349 0.26401144 1.7770001
0.10662 0.27078095 1.7770001
-0.11338952 0.66341335 1.7770001
-0.10323524 0.67187524 1.7770001
-0.098158099 0.67356765 1.7770001
-0.113728 0.68304503 1.7770001
-0.10662 0.68033719 1.7770001
0.25216478 0.69556856 1.7770001
0.24595936 0.70628709 1.7770001
0.25385717 0.70233816 1.7770001
0.23242033 0.71305656 1.7770001
0.24595936 0.71305656 1.7770001
0.2504724 0.71756953 1.7770001
0.23693334 0.7209543 1.7770001
0.24370286 0.7209543 1.7770001
0.25385717 0.72298515 1.7770001
0.26401144 0.72377491 1.7770001
0.27360159 0.73336506 1.7770001
0.24539524 0.74126291 1.7770001
0.25470334 0.74295527 1.7770001
0.26333448 0.74667847 1.7770001
0.27670428 0.74380147 1.7770001
0.28347382 0.74549383 1.7770001
0.24201049 0.75649428 1.7770001
0.26739621 0.75141716 1.7770001
0.28567392 0.75615585 1.7770001
0.29244345 0.75547886 1.7770001
0.12791163 -0.1932282 1.786
0.13437524 -0.19731048 1.7860001
0.10886095 -0.18030097 1.7860001
0.11566476 -0.18030097 1.7860001
0.12587048 -0.18370287 1.7860001
0.10886095 -0.17349716 1.7860001
0.11566476 -0.17349714 1.7860001
0.12331906 -0.17434764 1.7860001
0.11566476 -0.16669334 1.7860001
0.12246858 -0.16669334 1.7860001
0.10716 -0.15308572 1.7860001
0.11396381 -0.15308572 1.7860001
0.10716 -0.14628191 1.7860001
0.11226287 -0.14628191 1.7860001
0.10715999 -0.1360762 1.7860001
0.11226287 -0.1360762 1.7860001
0.10886095 -0.12927239 1.7860001
0.11226286 -0.12927239 1.7860001
0.096954286 -0.11396381 1.7860001
0.10545904 -0.11396381 1.7860001
0.11226286 -0.11396381 1.7860001
0.095678568 -0.10503381 1.7860001
0.10545904 -0.10886095 1.7860001
0.11226286 -0.10886095 1.7860001
0.095253333 -0.083346672 1.7860001
0.10205714 -0.08164572 1.7860001
0.095678575 -0.075267144 1.7860001
0.10205714 -0.074841909 1.7860001
0.096954286 -0.068038099 1.7860001
0.10205714 -0.068038099 1.7860001
0.086019598 0.034019049 1.7860001
0.08844953 0.04082286 1.7860001
0.095253341 0.044224765 1.7860001
0.098655246 0.054430474 1.7860001
0.10205714 0.057832383 1.7860001
0.098655239 0.061234288 1.7860001
0.10205714 0.061234288 1.7860001
0.10886095 0.074841909 1.7860001
0.10772698 0.095253341 1.7860001
0.11226286 0.096954286 1.7860001
-0.011906667 0.15818858 1.7860001
-0.005102857 0.15818858 1.7860001
0.0034019048 0.15648763 1.7860001
0.010205715 0.15648763 1.7860001
0.10886095 0.15988953 1.7860001
-0.12416953 0.16669334 1.7860001
-0.11736572 0.16669334 1.7860001
-0.10886095 0.16329144 1.7860001
-0.091851436 0.16329144 1.7860001
-0.085047625 0.16499239 1.7860001
-0.074841909 0.16669334 1.7860001
-0.068038099 0.16499239 1.7860001
-0.010205715 0.16329144 1.7860001
-0.005102857 0.16499239 1.7860001
0.0034019046 0.16533259 1.786
0.013607618 0.16669334 1.7860001
0.023813333 0.16669334 1.7860001
0.10886095 0.16499239 1.7860001
-0.18143493 0.1757651 1.7860001
-0.17417754 0.17485791 1.786
-0.16329144 0.17519811 1.7860001
-0.15308572 0.17519811 1.7860001
-0.14288001 0.17009525 1.7860001
-0.1360762 0.1721364 1.786
-0.12587048 0.17009525 1.7860001
-0.11906667 0.17009525 1.7860001
-0.091851436 0.17349716 1.7860001
-0.085728005 0.1721364 1.786
-0.07416153 0.1721364 1.786
-0.068038099 0.17009525 1.7860001
-0.014093607 0.17446913 1.7860001
-0.0051028575 0.17349716 1.7860001
0.0034019048 0.17349716 1.7860001
0.012927239 0.17145601 1.786
0.02041143 0.1717962 1.7860001
0.10801047 0.17434764 1.7860001
0.11226286 0.17349716 1.7860001
-0.17349716 0.18370287 1.7860001
-0.16329144 0.18370287 1.7860001
-0.15648763 0.18370287 1.7860001
-0.14628193 0.18574402 1.786
-0.1360762 0.18455334 1.7860001
-0.023813331 0.18710476 1.7860001
-0.01360762 0.18370286 1.7860001
-0.0051028575 0.18370287 1.7860001
0.0034019048 0.18370287 1.7860001
0.013607619 0.18540382 1.7860001
0.08844953 0.18710476 1.7860001
0.098655239 0.18710476 1.7860001
0.10545906 0.18370286 1.7860001
0.11226286 0.18200192 1.7860001
-0.14288001 0.19220762 1.7860001
-0.13777715 0.19390857 1.7860001
-0.095253333 0.19050667 1.7860001
-0.045925714 0.19050667 1.7860001
-0.023813335 0.19220763 1.7860001
-0.01360762 0.19390857 1.7860001
-0.0051028575 0.19390857 1.7860001
0.0034019048 0.19390857 1.7860001
0.013607619 0.19050667 1.7860001
0.022452572 0.1932282 1.786
0.034019049 0.19390857 1.7860001
0.068038099 0.19560952 1.7860001
0.073140956 0.19390857 1.7860001
0.085614614 0.19504254 1.7860001
0.095253326 0.19390857 1.7860001
0.10545905 0.19488053 1.7860001
0.11566477 0.19390857 1.7860001
-0.15478668 0.20751619 1.7860001
-0.14798287 0.20751619 1.7860001
-0.1360762 0.20524825 1.7860001
-0.054430477 0.20581524 1.7860001
-0.027215239 0.20241334 1.7860001
-0.011906667 0.20241334 1.7860001
0.0034019048 0.20071238 1.7860001
0.034019049 0.20241334 1.7860001
0.04082286 0.20411427 1.7860001
0.066677339 0.20479468 1.786
0.074841909 0.20411429 1.7860001
0.085472867 0.20368905 1.7860001
0.095253326 0.20411427 1.7860001
0.10659301 0.20184636 1.7860001
0.0068038097 0.21261905 1.7860001
0.035720002 0.21261904 1.7860001
0.04082286 0.2109181 1.7860001
0.066337146 0.2109181 1.7860001
0.074841909 0.21091811 1.7860001
0.086748578 0.2109181 1.7860001
0.10432508 0.21658795 1.7860001
0.10409828 0.22384533 1.786
0.095253333 0.23813334 1.7860001
0.10545905 0.23132953 1.7860001
0.093552381 0.24493715 1.7860001
0.095253341 0.25562885 1.7860001
0.10205714 0.25854477 1.7860001
0.096225306 0.2648626 1.7860001
0.10205714 0.26194668 1.7860001
0.096103802 0.27300286 1.7860001
0.10460857 0.27470383 1.7860001
-0.074841909 0.64976382 1.7860001
-0.062935241 0.64976382 1.7860001
-0.057832383 0.64976382 1.7860001
-0.11226286 0.65996957 1.7860001
-0.10886095 0.65996957 1.7860001
-0.066337146 0.65656763 1.7860001
-0.11226286 0.66337144 1.7860001
-0.10772698 0.6656394 1.7860001
-0.11339683 0.67130923 1.7860001
-0.10613944 0.67153603 1.786
-0.096103802 0.67442769 1.7860001
0.23643239 0.69568956 1.7860001
0.24493715 0.69398856 1.7860001
0.25174096 0.69398862 1.7860001
0.22792763 0.70419431 1.7860001
0.23473144 0.70419431 1.7860001
0.2445119 0.70376909 1.7860001
0.22792763 0.71099812 1.7860001
0.23529841 0.71326607 1.7860001
0.24238573 0.71525049 1.7860001
0.23643239 0.72120386 1.7860001
0.24437018 0.72517276 1.7860001
0.24437018 0.73537844 1.7860001
0.25556809 0.73481154 1.7860001
0.26591554 0.73481148 1.7860001
0.24493714 0.74161524 1.7860001
0.25514287 0.74246573 1.7860001
0.26583454 0.7440452 1.7860001
0.27300286 0.74586761 1.7860001
0.27385336 0.75182098 1.7860001
0.13448255 -0.19374603 1.7950001
0.14018096 -0.19488572 1.7950001
0.13334286 -0.18462859 1.7950001
0.12855621 -0.17368762 1.7950001
0.13334286 -0.17608096 1.7950001
0.10826985 -0.16183494 1.7950001
0.11624762 -0.16240478 1.7950001
0.12582096 -0.16479811 1.7950001
0.10599049 -0.15499683 1.7950001
0.11693144 -0.15522477 1.7950001
0.10257145 -0.1436 1.7950001
0.11624762 -0.1436 1.7950001
0.11624762 -0.13505238 1.7950001
0.11624762 -0.12582096 1.7950001
0.10530667 -0.10462286 1.7950001
0.097442865 -0.095733337 1.7950001
0.10501361 -0.095733337 1.7950001
0.099152386 -0.088895239 1.7950001
0.10542064 -0.086615883 1.7950001
0.092314288 -0.071800001 1.7950001
0.10599048 -0.075219058 1.7950001
0.095244899 -0.063985042 1.7950001
0.10371113 -0.06496191 1.7950001
0.099152386 -0.058123812 1.7950001
0.097442865 -0.045302384 1.7950001
0.099152386 -0.037609525 1.7950001
0.10428096 -0.023933334 1.7950001
0.082057148 -0.010257144 1.7950001
0.082057148 -0.0068380954 1.7950001
0.085476197 0.025642857 1.7950001
0.094023809 0.027352381 1.7950001
0.094023816 0.034190476 1.7950001
0.096873023 0.042168256 1.7950001
0.10257144 0.054704763 1.7950001
0.10599048 0.066671431 1.7950001
0.10940953 0.07521905 1.7950001
0.10940953 0.08547619 1.7950001
0.11282858 0.08547619 1.7950001
0.10940953 0.092314288 1.7950001
0.11624762 0.096588105 1.7950001
0.1282143 0.099152386 1.7950001
0.11966667 0.10257144 1.7950001
0.1282143 0.10257144 1.7950001
0.0034190477 0.15642142 1.7950001
0.010257144 0.1572762 1.7950001
-0.11396826 0.16525398 1.7950001
-0.10530667 0.16616572 1.7950001
-0.095733337 0.16667858 1.7950001
-0.088895239 0.16753334 1.7950001
-0.063252389 0.16582382 1.7950001
-0.054704763 0.1641143 1.7950001
-0.047866669 0.16069524 1.7950001
-0.022223812 0.16753334 1.7950001
-0.01436 0.16616572 1.7950001
0.0034190477 0.16240478 1.7950001
0.023933334 0.16753334 1.7950001
0.032480955 0.16753334 1.7950001
0.10599048 0.16069524 1.7950001
-0.17095239 0.17779048 1.7950001
-0.1641143 0.17608096 1.7950001
-0.15317333 0.17505524 1.7950001
-0.14408843 0.17534831 1.7950001
-0.13334286 0.17608096 1.7950001
-0.12650478 0.17608096 1.7950001
-0.11582024 0.17479883 1.7950001
-0.10599048 0.17437145 1.7950001
-0.096160725 0.17437145 1.7950001
-0.08547619 0.17779048 1.7950001
-0.075219058 0.17779048 1.7950001
-0.06496191 0.1738016 1.7950001
-0.055193193 0.17534831 1.7950001
-0.02222381 0.17437144 1.7950001
-0.011966668 0.17095239 1.7950001
0.014530953 0.17693572 1.7950001
0.024910202 0.17485988 1.7950001
0.032822859 0.17573905 1.7950001
0.043592859 0.17608096 1.7950001
0.051285718 0.17779048 1.7950001
0.068380952 0.17779048 1.7950001
0.071800001 0.17779048 1.7950001
0.088895239 0.17779048 1.7950001
0.1048508 0.17437144 1.7950001
-0.18257716 0.18394478 1.7950001
-0.17437145 0.18462859 1.7950001
-0.16460273 0.18462859 1.7950001
-0.15454096 0.18394478 1.7950001
-0.14445478 0.18206429 1.7950001
-0.13448255 0.18348889 1.7950001
-0.12650478 0.18462859 1.7950001
-0.11624762 0.18462859 1.7950001
-0.10641786 0.18462859 1.7950001
-0.095733345 0.18462859 1.7950001
-0.08547619 0.18462859 1.7950001
-0.078638099 0.18120953 1.7950001
-0.052653335 0.18462858 1.7950001
-0.045302384 0.18719286 1.7950001
-0.03419048 0.18804763 1.7950001
-0.023933334 0.18291907 1.7950001
0.013676191 0.18326096 1.7950001
0.023933334 0.18462859 1.7950001
0.03419048 0.18462859 1.7950001
0.044447619 0.18505597 1.7950001
0.054704763 0.18505597 1.7950001
0.06496191 0.18505597 1.7950001
0.07564643 0.18505597 1.7950001
0.084792383 0.1859962 1.7950001
0.095733345 0.18519843 1.7950001
-0.19146667 0.19488572 1.7950001
-0.18120953 0.1931762 1.7950001
-0.17323177 0.19260634 1.7950001
-0.1641143 0.19488572 1.7950001
-0.15385713 0.19488572 1.7950001
-0.1461643 0.19574049 1.7950001
-0.13334286 0.19488573 1.7950001
-0.12650478 0.19488573 1.7950001
-0.11488001 0.19625334 1.7950001
-0.10599048 0.19488573 1.7950001
-0.095733345 0.1943159 1.7950001
-0.08547619 0.1931762 1.7950001
-0.077498414 0.19260634 1.7950001
-0.061542857 0.19488573 1.7950001
-0.054704759 0.19488573 1.7950001
-0.043959182 0.19586261 1.7950001
-0.034678914 0.19390886 1.7950001
-0.023933336 0.19830477 1.7950001
0.013676191 0.19531311 1.7950001
0.025642857 0.19574049 1.7950001
0.03419048 0.19488572 1.7950001
0.044447616 0.19488573 1.7950001
0.054704763 0.19488573 1.7950001
0.063985042 0.1943973 1.7950001
0.078638099 0.19488573 1.7950001
0.084336519 0.19260634 1.7950001
-0.17095239 0.20514286 1.7950001
-0.1636869 0.20514286 1.7950001
-0.15385714 0.20343333 1.7950001
-0.1436 0.20514286 1.7950001
-0.13505238 0.20343333 1.7950001
-0.12650476 0.20514287 1.7950001
-0.11624762 0.20557025 1.7950001
-0.10647891 0.20563129 1.7950001
-0.095733337 0.20514286 1.7950001
-0.062397622 0.20514286 1.7950001
-0.054704759 0.20465444 1.7950001
-0.043959189 0.20416598 1.7950001
-0.035330158 0.2028635 1.7950001
-0.022956463 0.20563129 1.7950001
-0.01504381 0.20651047 1.7950001
-0.0051285713 0.20514286 1.7950001
0.0034190477 0.20557024 1.7950001
0.013676192 0.20514286 1.7950001
0.023933334 0.20514286 1.7950001
0.034190476 0.20563129 1.7950001
0.046157148 0.20514286 1.7950001
0.054704767 0.20514286 1.7950001
0.062397622 0.2042881 1.7950001
-0.17095239 0.21198095 1.7950001
-0.16479811 0.21403238 1.7950001
-0.1145381 0.21198095 1.7950001
-0.10513572 0.21283573 1.7950001
-0.051285718 0.21198095 1.7950001
-0.021653971 0.21312064 1.7950001
-0.014530953 0.21283573 1.7950001
-0.0034190477 0.21198095 1.7950001
0.0017095238 0.21369049 1.7950001
0.011966667 0.21369049 1.7950001
0.023933334 0.2154 1.7950001
0.030771431 0.21369049 1.7950001
0.046157144 0.21198095 1.7950001
0.054704767 0.21198095 1.7950001
0.061542861 0.21198095 1.7950001
0.088895239 0.24959049 1.7950001
0.092314288 0.24959049 1.7950001
0.087185718 0.25642857 1.7950001
0.092314288 0.25642857 1.7950001
0.087755561 0.26440635 1.7950001
0.092314288 0.26668572 1.7950001
0.086453073 0.27303538 1.7950001
0.093453966 0.27466351 1.7950001
0.087185718 0.28036192 1.7950001
0.095733337 0.28036192 1.7950001
0.1055631 0.28335357 1.7950001
-0.10684524 0.6590215 1.7950001
-0.096588105 0.65816671 1.7950001
-0.084621429 0.65474766 1.7950001
-0.072939686 0.65531749 1.7950001
-0.065816671 0.65560246 1.7950001
-0.10428096 0.66500479 1.7950001
-0.096417151 0.6646629 1.7950001
-0.088895239 0.66329527 1.7950001
-0.11852699 0.67583179 1.7950001
-0.10257144 0.67013335 1.7950001
-0.094756469 0.67306393 1.7950001
-0.087527618 0.67423618 1.7950001
0.22497335 0.67560387 1.7950001
-0.085476197 0.68039054 1.7950001
0.22522976 0.684237 1.7950001
0.23505953 0.68637389 1.7950001
0.24275239 0.68722862 1.7950001
0.22736667 0.69321191 1.7950001
0.23542584 0.69308984 1.7950001
0.24446192 0.69064766 1.7950001
0.22907619 0.70090479 1.7950001
0.23249525 0.70090479 1.7950001
0.24731112 0.7373746 1.7950001
0.25300953 0.7385143 1.7950001
0.26326668 0.7385143 1.7950001
0.26326668 0.74193335 1.7950001
0.13744763 -0.19242667 1.8040001
0.13572952 -0.17180952 1.8040001
0.12713905 -0.16150096 1.8040001
0.13332419 -0.16493715 1.8040001
0.12255746 -0.15462857 1.8040003
0.12026667 -0.1460381 1.8040001
0.1099581 -0.10308572 1.8040001
0.11511238 -0.10480382 1.8040001
0.1099581 -0.096213341 1.8040001
0.11476877 -0.096900575 1.8040001
0.1099581 -0.084186673 1.8040001
0.11339429 -0.087622859 1.8040001
0.1099581 -0.077314287 1.8040001
0.10824001 -0.06528762 1.8040001
0.096213341 -0.054979049 1.804
0.10480381 -0.054979052 1.804
0.099649526 -0.044670478 1.8040001
0.10480381 -0.044670478 1.804
0.10709462 -0.034361903 1.804
0.11339429 -0.034361906 1.8040001
0.09793143 -0.020617144 1.8040001
0.10738096 -0.023194285 1.8040001
0.11339429 -0.024053333 1.8040001
0.087622859 -0.013744763 1.804
0.095231555 -0.014235647 1.804
0.10308572 -0.010308572 1.8040001
0.087622859 -0.0068723811 1.8040001
0.10308572 -0.0051542856 1.8040001
0.089340955 0.015462858 1.8040001
0.092777148 0.017180953 1.8040001
0.088195562 0.021762541 1.8040003
0.095067941 0.022907937 1.8040003
0.099649526 0.036080003 1.8040001
0.10566286 0.054120004 1.8040001
0.10909906 0.064428568 1.8040001
0.11339429 0.06528762 1.8040001
0.11339429 0.075596191 1.8040003
0.11683049 0.08590477 1.8040003
0.11683048 0.092777148 1.8040001
0.12370286 0.097072385 1.8040001
0.13057524 0.096213333 1.8040001
-0.099649526 0.16493715 1.8040001
-0.054406349 0.16550983 1.804
-0.046961274 0.16608255 1.8040003
-0.027489524 0.16837335 1.8040001
0.10652191 0.16665524 1.8040001
-0.063569523 0.17868191 1.8040001
-0.053260952 0.17180952 1.8040001
-0.047247622 0.17610477 1.8040001
-0.027489522 0.17524572 1.8040003
0.036080003 0.17352761 1.8040001
0.045357715 0.17387125 1.8040001
0.055666286 0.17662019 1.8040001
0.064600386 0.17662019 1.8040001
0.076283433 0.17662019 1.8040001
0.082468577 0.17868191 1.8040001
0.096213333 0.17868191 1.8040003
0.10308572 0.17524572 1.8040001
-0.1855543 0.18899049 1.8040001
-0.10308572 0.1855543 1.8040001
-0.085904762 0.1855543 1.8040001
-0.075166665 0.18598381 1.804
-0.06528762 0.18555428 1.804
-0.05755619 0.1855543 1.8040001
-0.04398324 0.18349259 1.8040001
-0.03436191 0.18383621 1.804
0.044670478 0.1821181 1.8040001
0.054979049 0.1821181 1.8040001
0.06528762 0.1821181 1.8040001
0.072160006 0.1821181 1.8040001
0.08590477 0.1821181 1.8040003
0.094495237 0.1821181 1.8040001
-0.19414476 0.19929905 1.8040001
-0.18653606 0.19635375 1.804
-0.1758184 0.19700827 1.804
-0.12026667 0.19414476 1.8040001
-0.11683048 0.19414476 1.8040001
-0.096213341 0.19929905 1.8040001
-0.08590477 0.19929905 1.8040003
-0.074450798 0.19700827 1.804
-0.067005716 0.19586284 1.804
-0.03264381 0.19929905 1.8040001
-0.1821181 0.20617144 1.8040003
-0.17696381 0.20617144 1.804
-0.16837335 0.20617144 1.8040001
-0.11683048 0.20273525 1.8040001
-0.10480382 0.20445335 1.8040001
-0.096213333 0.20617144 1.804
-0.08590477 0.20617142 1.804
-0.075596191 0.20617144 1.804
-0.067349337 0.20617144 1.8040001
-0.046388574 0.20960763 1.8040001
-0.033789206 0.20731683 1.804
-0.17467302 0.21762539 1.804
-0.096213341 0.21476191 1.804
-0.08590477 0.21476191 1.804
-0.076455243 0.21390286 1.8040001
-0.067005716 0.21304382 1.8040001
-0.04398324 0.21441829 1.8040001
-0.033502858 0.21390286 1.8040001
-0.027489524 0.21476191 1.8040001
0.017180953 0.21648002 1.8040003
0.082468577 0.2577143 1.8040001
0.083327621 0.26544574 1.8040001
0.082468577 0.27661335 1.8040001
0.086592004 0.28589106 1.8040001
0.096213341 0.28692192 1.804
-0.10446019 0.65699965 1.8040001
-0.096900567 0.65631241 1.8040001
-0.086592004 0.65493786 1.8040001
-0.076970674 0.65493792 1.8040001
-0.068723813 0.6528762 1.8040001
-0.092777148 0.66318476 1.8040001
-0.085217521 0.66455925 1.8040001
-0.075596191 0.66490287 1.804
-0.068723813 0.66662097 1.8040001
-0.092777148 0.67005718 1.8040001
-0.084759362 0.67234796 1.804
-0.077657908 0.67418063 1.8040001
0.21991619 0.67349339 1.8040001
0.22335239 0.67349339 1.8040001
-0.082468577 0.68036574 1.8040001
-0.079032384 0.68036574 1.8040001
0.23366098 0.68494731 1.8040003
0.24053334 0.6872381 1.8040001
0.22564317 0.6964013 1.8040003
0.22507048 0.70098287 1.8040001
0.13820952 -0.1900381 1.8140001
0.14166477 -0.19349334 1.8140001
0.13820952 -0.18485525 1.8140001
0.13820952 -0.17794478 1.8140001
0.14339238 -0.17276192 1.8140001
0.13705778 -0.16469969 1.8140001
0.14512001 -0.16930668 1.8140001
0.15203048 -0.16930667 1.8140001
0.12698001 -0.1546219 1.8140001
0.13129905 -0.15721333 1.8140001
0.12438858 -0.14598382 1.8140001
0.12093333 -0.13475429 1.8140001
0.1174781 -0.093291432 1.8140001
0.12093334 -0.093291432 1.8140001
0.11632635 -0.086380959 1.8140001
0.11056762 -0.072560005 1.8140001
0.11229524 -0.065649524 1.8140001
0.11056762 -0.055283815 1.8140001
0.11143143 -0.044054285 1.8140001
0.11402287 -0.03541619 1.8140001
0.10711239 -0.020731429 1.8140001
0.11287111 -0.025338413 1.8140001
0.10415076 -0.013820953 1.8140001
0.11194972 -0.013820952 1.8140001
0.088108577 -0.0034552382 1.8140001
0.09501905 -0.0051828572 1.8140001
0.10365715 -0.0051828572 1.8140001
0.11229524 -0.0051828572 1.8140001
0.089836195 0 1.8140001
0.09501905 0.0034552382 1.8140001
0.10365715 0.0034552382 1.814
0.095364571 0.013129905 1.8140001
0.10106571 0.012957143 1.8140001
0.093291432 0.020731429 1.8140001
0.10135365 0.026490159 1.8140001
0.10250539 0.03455238 1.8140001
0.10538477 0.044918094 1.8140001
0.11194972 0.05597486 1.8140001
0.11575048 0.06651333 1.8140001
0.12093334 0.065649524 1.8140001
0.1174781 0.076015241 1.8140001
0.12093334 0.093291432 1.8140001
-0.042614605 0.16815491 1.8140001
-0.03455238 0.16757905 1.8140001
0.10365715 0.16930667 1.8140001
-0.042844955 0.1755261 1.8140001
-0.03455238 0.17621715 1.814
0.067377143 0.17276192 1.8140001
0.076015241 0.17276192 1.8140001
0.085689902 0.17621715 1.8140001
0.09501905 0.17621715 1.8140001
0.1002019 0.17621715 1.8140001
-0.19349334 0.20472287 1.8140001
-0.18658286 0.20385906 1.8140001
-0.20040381 0.21768001 1.8140001
-0.18312763 0.2159524 1.8140001
-0.17967239 0.2159524 1.8140001
-0.20040381 0.22113524 1.8140001
0.079470478 0.26605332 1.8140001
0.078606665 0.27728286 1.8140001
0.07774286 0.28505716 1.8140001
0.082925715 0.28678477 1.8140001
0.076015241 0.29024002 1.8140001
-0.088108577 0.64958477 1.8140001
-0.09444318 0.65534353 1.8140001
-0.086380959 0.65304005 1.8140001
-0.07774286 0.65304005 1.8140001
-0.063921906 0.65649527 1.8140001
-0.058739051 0.65649527 1.8140001
0.19694857 0.65995049 1.8140001
0.20040381 0.65995049 1.8140001
-0.074287623 0.67377144 1.8140001
0.2159524 0.67722666 1.8140001
0.21768001 0.68240952 1.8140001
0.22113524 0.68413717 1.8140001
0.21768002 0.69450289 1.8140001
0.22113524 0.69450289 1.8140001
0.21768001 0.70486861 1.8140001
0.22372667 0.70573235 1.8140001
0.15981714 -0.21540572 1.8240001
0.14418286 -0.19456001 1.8240001
0.14383543 -0.18344229 1.8240001
0.14678857 -0.17632 1.8240001
0.15677714 -0.17414859 1.8240002
0.16329144 -0.17545143 1.8240001
0.14360382 -0.16560763 1.824
0.13549715 -0.15634286 1.8240001
0.12739049 -0.14360382 1.824
0.13202286 -0.14939429 1.8240001
0.1250743 -0.13549715 1.824
0.1239162 -0.12623239 1.824
0.13897143 -0.11291429 1.8240001
0.14244571 -0.11291429 1.8240001
0.12333715 -0.090331435 1.8240001
0.11812572 -0.08338286 1.8240001
0.11465142 -0.076434284 1.824
0.11465143 -0.064274289 1.8240001
0.11465142 -0.055588573 1.824
0.11638857 -0.046034288 1.8240001
0.11812572 -0.038217146 1.8240001
0.11812571 -0.024320001 1.824
0.1216 -0.027794287 1.8240001
0.11725715 -0.013897143 1.8240001
0.1216 -0.010422857 1.8240001
0.11812572 -0.0052114287 1.8240001
0.1250743 -0.0069485717 1.824
0.13202286 -0.0069485717 1.8240001
0.086857148 0.0034742858 1.824
0.090331435 0.0052114287 1.8240001
0.11421715 0.0030400001 1.8240002
0.12681144 0 1.8240001
0.13202286 0 1.8240001
0.086857148 0.010422857 1.8240001
0.090331435 0.010422857 1.8240001
0.10631315 0.014592001 1.8240001
0.10538667 0.023161905 1.8240002
0.11117715 0.027794287 1.8240001
0.10683428 0.033874288 1.8240001
0.11233524 0.047481906 1.824
0.11725715 0.054720003 1.8240001
0.12333715 0.067748576 1.8240001
0.12246858 0.076434292 1.8240001
0.12333715 0.085120007 1.8240001
0.1250743 0.092068575 1.8240001
0.13619201 0.095195435 1.8240001
0.078171432 0.17024 1.8240001
0.085120007 0.17197715 1.8240001
0.093805723 0.17197715 1.8240002
0.10191239 0.17255621 1.824
-0.19456001 0.20845716 1.8240001
-0.18761143 0.20845716 1.8240001
-0.19398095 0.21424764 1.8240002
-0.18761142 0.21540572 1.824
-0.20150858 0.22582857 1.8240001
-0.18483202 0.22443886 1.8240001
-0.17718858 0.22582857 1.8240001
0.075276196 0.26636192 1.824
0.074697144 0.27446857 1.8240002
0.069485717 0.28662857 1.8240001
0.072960004 0.28489146 1.824
0.07759238 0.29299811 1.824
0.08338286 0.29357713 1.8240001
0.17718858 0.59410286 1.824
0.18240003 0.59410286 1.8240002
0.17603047 0.60568386 1.824
0.18066287 0.60105145 1.8240001
-0.092068575 0.64969146 1.8240001
-0.086857148 0.64969146 1.8240001
-0.10075429 0.65664005 1.8240001
-0.095542863 0.65490294 1.8240001
-0.076434292 0.65316576 1.8240001
0.18587428 0.65490294 1.8240001
0.19386515 0.65525037 1.8240001
0.20150858 0.65664005 1.8240001
0.18645334 0.66243047 1.824
0.19412573 0.66358852 1.8240002
0.2044038 0.66416764 1.8240002
0.18761142 0.67401147 1.824
0.19406368 0.67301875 1.8240002
0.20498288 0.67401147 1.8240002
0.21308954 0.67632771 1.824
0.18674287 0.68530285 1.8240001
0.19108573 0.68443429 1.8240001
0.20541714 0.68400007 1.8240002
0.21332116 0.68512917 1.8240001
0.18587428 0.69138288 1.8240001
0.19108573 0.69312 1.8240001
0.20672001 0.69485712 1.8240002
0.21441306 0.69436085 1.8240002
0.20729905 0.70296383 1.824
0.21482669 0.70470095 1.8240002
0.22582859 0.71396577 1.8240001
0.16235143 -0.21297716 1.8330001
0.15478666 -0.20483048 1.8330001
0.16235143 -0.20948572 1.8330001
0.14664 -0.1937743 1.8330001
0.15013143 -0.19552001 1.8330001
0.14664 -0.18853715 1.8330001
0.15304096 -0.18388189 1.8330001
0.16366072 -0.18548214 1.8330001
0.14489429 -0.16235143 1.8330001
0.15187715 -0.16584286 1.8330001
0.13849334 -0.15362287 1.8330001
0.1338381 -0.14547619 1.8330001
0.12918286 -0.13616572 1.8330001
0.13354716 -0.13529286 1.8330001
0.11870857 -0.1222 1.8330001
0.12708801 -0.12429486 1.8329999
0.11870857 -0.11870857 1.8330001
0.12469388 -0.11571592 1.8330001
0.14664 -0.11347143 1.8330001
0.15013143 -0.11347143 1.8330001
0.12394571 -0.10474285 1.8330001
0.13965715 -0.10823429 1.8330001
0.14489429 -0.10823429 1.8330001
0.15013143 -0.10648857 1.8330001
0.12452761 -0.096596204 1.8330001
0.11870857 -0.080302857 1.8330001
0.1222 -0.08728572 1.8330001
0.11870857 -0.075065717 1.8330001
0.11870857 -0.066337146 1.8330001
0.11870857 -0.055862859 1.8330001
0.11870857 -0.045388572 1.8330001
0.1222 -0.041897144 1.8330001
0.11870857 -0.031422857 1.8330001
0.12569143 -0.036660004 1.8330001
0.13442001 -0.036660001 1.8330001
0.12612785 -0.024003575 1.8330001
0.13267429 -0.02444 1.8330001
0.12569143 -0.01338381 1.8330001
0.13267429 -0.012220001 1.8330001
0.12569143 -0.0034914287 1.8330001
0.13267429 -0.0034914287 1.8330001
0.11870857 0.0069828574 1.8330001
0.12519266 0.0044889795 1.8330001
0.13442001 0.005237143 1.8330001
0.11347143 0.013965715 1.8330001
0.11565357 0.024003575 1.8330001
0.11471837 0.035911836 1.8330001
0.11521715 0.044515718 1.8330001
0.12743714 0.048880003 1.8330001
0.125255 0.05542643 1.8330001
0.11870857 0.062845714 1.8330001
0.12801905 0.068664767 1.8330001
0.12569143 0.073320001 1.8330001
0.12801905 0.083794288 1.8330001
0.13267429 0.08728572 1.8330001
0.14547619 0.086121909 1.8330001
0.15013143 0.085540004 1.8330001
0.12918286 0.090777144 1.8330001
0.13616572 0.090777136 1.8330001
0.14489429 0.09252286 1.8330001
0.086412862 0.16497001 1.8330001
0.09383215 0.16409716 1.8330001
0.10357905 0.16642477 1.8330001
0.069828577 0.17108001 1.8330001
0.073320001 0.17108001 1.8330001
0.08728572 0.17108001 1.8330001
-0.19668381 0.21879619 1.8330001
-0.19552 0.22519715 1.8330001
-0.20250286 0.2304343 1.8330001
-0.19508359 0.23348929 1.8330001
-0.185744 0.23183088 1.8329999
-0.19552001 0.24090858 1.8330001
0.069828577 0.27582288 1.8330001
0.068082862 0.28280571 1.8330001
0.17457144 0.61332768 1.8330001
0.1833 0.61449146 1.8330001
-0.097760007 0.65638858 1.8330001
-0.082048573 0.65638858 1.8330001
-0.073320001 0.65813434 1.8330001
-0.068664767 0.65871626 1.8330001
0.18679143 0.66686291 1.8330001
0.18417287 0.67471862 1.8330001
0.18330002 0.68431997 1.8330001
0.19651757 0.68432003 1.8330001
0.19651757 0.69429553 1.8330001
0.20250286 0.69479436 1.8330001
0.19901143 0.70177716 1.8330001
0.20250286 0.70177716 1.8330001
0.16733271 -0.21413906 1.8430001
0.17376858 -0.21238382 1.8430001
0.1562162 -0.20009714 1.8430001
0.16499239 -0.20360763 1.8430002
0.1731835 -0.20594795 1.8430001
0.15516306 -0.19518247 1.8430001
0.16411477 -0.19395381 1.8430001
0.15563111 -0.18839556 1.8430001
0.14744 -0.16148192 1.8430001
0.15270571 -0.16148192 1.8430001
0.14305191 -0.15358333 1.8430001
0.13690858 -0.14217429 1.8430001
0.14217429 -0.14568476 1.8430001
0.13690858 -0.13690858 1.8430001
0.14392953 -0.1333981 1.8430001
0.15270571 -0.1333981 1.8430001
0.13515334 -0.12637715 1.8430001
0.14292654 -0.12687865 1.8430002
0.12988763 -0.11409048 1.8430001
0.13515334 -0.11584572 1.8430001
0.14217429 -0.11935619 1.8430001
0.12988763 -0.10531429 1.8430001
0.1333981 -0.10882477 1.8430001
0.14463162 -0.1039101 1.8430001
0.12988763 -0.098293334 1.8430001
0.12286667 -0.071964763 1.8430001
0.12286667 -0.06669905 1.8430001
0.12537417 -0.055666126 1.8430002
0.13515334 -0.054412384 1.8430001
0.12681596 -0.046075001 1.8430002
0.13515334 -0.045636192 1.8430001
0.12637715 -0.031594288 1.8430001
0.1333981 -0.031594288 1.8430001
0.12813239 -0.017552381 1.8430001
0.1333981 -0.017552381 1.8430001
0.11760096 0.031594288 1.8430001
0.11935619 0.043880954 1.8430001
0.12286667 0.049146667 1.8430001
0.12462191 0.063188575 1.8430001
0.1333981 0.06669905 1.8430001
0.12988763 0.075475238 1.8430001
0.12988763 0.080740958 1.8430001
0.13456826 0.084251434 1.8430001
0.14305191 0.084251434 1.8430001
0.15095048 0.080740958 1.8430001
0.080740958 0.16850287 1.8430001
0.098293334 0.16499239 1.8430001
0.10180382 0.16499239 1.8430001
-0.20243746 0.23754223 1.8430001
-0.18956572 0.23871239 1.8430001
-0.20097476 0.24485572 1.8430001
-0.19448039 0.24643543 1.8430001
-0.18956572 0.24222286 1.8430001
0.06669905 0.27381715 1.8430001
0.17341754 0.60309982 1.8430001
-0.070209526 0.63890672 1.8430001
-0.06669905 0.63890672 1.8430001
-0.082496196 0.64592767 1.8430001
-0.073720001 0.64592767 1.8430002
-0.064943813 0.64417243 1.8430001
-0.059678096 0.64241719 1.8430001
-0.082496196 0.65470386 1.8430001
-0.073720001 0.65470386 1.8430001
-0.064943813 0.65645909 1.8430001
-0.059678096 0.65996957 1.8430001
-0.063188575 0.66348004 1.8430001
-0.059678096 0.66348004 1.8430001
0.18254477 0.67576671 1.8430001
0.16941714 -0.22412477 1.853
0.17294668 -0.22236001 1.853
0.16941714 -0.21883048 1.853
0.17471144 -0.21883048 1.853
0.16765238 -0.19765334 1.853
0.14824 -0.15529905 1.853
0.15353429 -0.15529905 1.853
0.14559287 -0.14382809 1.853
0.14471048 -0.13765143 1.853
0.15618142 -0.13147478 1.853
0.14824 -0.12353334 1.853
0.15353429 -0.12706286 1.853
0.13623962 -0.10517982 1.853
0.14118096 -0.1023562 1.853
0.13323954 -0.09617953 1.853
0.14118096 -0.098826669 1.853
0.12353334 -0.082943812 1.853
0.12618047 -0.07500238 1.853
0.13412191 -0.070590481 1.853
0.12588635 -0.064707935 1.853
0.13368072 -0.063090235 1.8529999
0.13059239 -0.056472383 1.853
0.12353334 0.010588571 1.853
0.13412191 0.07412 1.853
0.13765143 0.082943812 1.853
0.14294572 0.081179053 1.853
-0.20471239 0.24706668 1.853
-0.20471239 0.2505962 1.853
0.16800532 0.60284269 1.853
0.17294668 0.6000191 1.853
0.16706413 0.61531371 1.853
-0.072355241 0.63884383 1.853
-0.065296188 0.63884383 1.853
-0.075884759 0.64237338 1.853
-0.061178416 0.6447264 1.853
-0.05647238 0.64590287 1.853
0.15882857 0.64590287 1.853
0.16324049 0.64590287 1.853
-0.062649049 0.6538443 1.853
-0.056472383 0.65649146 1.853
-0.063531429 0.66002095 1.853
-0.056472383 0.66002095 1.853
0.1764762 0.6635505 1.853
0.18235874 0.66590351 1.853
0.18141754 0.67343318 1.853
0.1764762 0.68649244 1.853
0.18000571 0.68472767 1.853
0.18000571 0.69178671 1.853
0.17565429 -0.22533429 1.863
0.18097715 -0.22178572 1.863
0.14904 -0.14194286 1.863
0.15512326 -0.14498448 1.863
0.15613715 -0.1383943 1.863
0.15436286 -0.12242571 1.863
0.15613715 -0.11710286 1.863
0.13662001 -0.094037145 1.863
0.14194286 -0.094037145 1.863
0.12774858 -0.085165717 1.863
0.13129714 -0.088714287 1.863
0.13248 -0.075702854 1.863
0.1383943 -0.067422859 1.863
0.14194286 -0.065648571 1.863
0.12331286 0.016855715 1.863
0.1259743 0.023065716 1.863
0.1259743 0.044357143 1.863
0.1383943 0.067422859 1.863
0.1383943 0.074519999 1.863
0.14194286 0.076294288 1.863
0.067422859 0.28211144 1.863
0.15968572 0.59970862 1.863
0.16500857 0.59970862 1.863
0.17388 0.59970862 1.863
0.15968572 0.60503149 1.863
0.16323429 0.60503149 1.863
0.17742857 0.60325718 1.863
0.14904 0.61212862 1.863
0.15672858 0.61390287 1.863
0.16465372 0.61319315 1.8630002
0.17033143 0.61390287 1.863
0.15791143 0.62100005 1.863
0.16323429 0.62100005 1.863
0.15968572 0.63696861 1.863
0.16500857 0.6351943 1.863
-0.060325716 0.64229143 1.863
-0.054115716 0.64495289 1.863
-0.049680006 0.64584005 1.863
0.15791143 0.64584005 1.863
0.1656 0.64347428 1.863
0.17269714 0.6470229 1.863
0.18097715 0.64938861 1.863
-0.05441143 0.65530294 1.863
-0.049680002 0.65471148 1.863
0.15613715 0.65471148 1.863
0.1656 0.65530288 1.863
0.17388003 0.65471148 1.863
-0.053228572 0.6600343 1.863
0.15684687 0.66145372 1.8630002
0.16500857 0.66358286 1.863
0.17343643 0.66313928 1.863
0.18452573 0.66299146 1.863
0.16678286 0.67068005 1.863
0.17432357 0.67378509 1.863
0.17529944 0.68416458 1.8630002
0.17388001 0.69197148 1.863
0.18097715 0.69906861 1.863
0.17838097 -0.22832763 1.8730001
0.18432699 -0.22713841 1.8730001
0.13497493 -0.085622869 1.8730001
0.14270477 -0.089190483 1.8730001
0.13794793 -0.077298418 1.8730001
0.14270477 -0.074920006 1.8730001
0.12486667 0.014270477 1.8730001
0.14270477 0.067784764 1.8730001
0.14698592 0.075633526 1.8730001
0.15519142 0.076703817 1.8730001
0.15697524 0.082055241 1.8730001
0.13913715 0.58152193 1.8730001
0.14448857 0.58152193 1.8730001
0.14627239 0.59400856 1.8730001
0.15340762 0.59936005 1.8730001
0.14805621 0.60649526 1.8730001
0.15519142 0.60471147 1.8730001
0.14746159 0.61125207 1.8730001
0.15608333 0.61273855 1.8730001
0.14627239 0.63860381 1.8730001
0.15608333 0.63592809 1.8730001
0.16054286 0.63325238 1.8730001
0.14627239 0.64930671 1.8730001
0.15483466 0.64502555 1.8730001
0.14627241 0.65465814 1.8730001
0.15340762 0.65287429 1.8730001
0.18373239 0.65644193 1.8730001
0.14627238 0.66357714 1.8730003
0.15340762 0.66714478 1.8730001
0.18313777 0.66119879 1.8730001
0.15578602 0.67190164 1.8730001
0.16339695 0.67499352 1.8730001
0.13200191 0.68141526 1.8730001
0.16553754 0.68426937 1.8730001
0.17124574 0.68498284 1.8730001
0.13988 -0.084286667 1.8830001
0.14346667 -0.084286667 1.8830001
0.12912001 0.014346668 1.8830001
0.14705335 0.071733333 1.8830001
0.13808668 0.58642006 1.8830001
0.14526001 0.58821338 1.8830001
0.15064001 0.58821338 1.8830001
0.13988 0.59359336 1.8830001
0.14436333 0.59448999 1.8830001
0.15303113 0.59658223 1.8830003
0.14490134 0.60542935 1.8830001
0.15303113 0.60375559 1.883
0.16140001 0.60256004 1.8830001
0.14346667 0.61331999 1.8830001
0.13988 0.63842666 1.8830001
0.14526001 0.63842666 1.8830001
0.15422668 0.63842666 1.8830001
0.10222 0.64201337 1.8830001
0.13868445 0.64320892 1.883
0.14490134 0.64631736 1.8830001
0.15064001 0.64560002 1.883
0.13988 0.65636003 1.883
0.13988 0.66532671 1.8830001
0.13988 0.67429334 1.8830001
0.14526001 0.67608666 1.8830001
0.15243334 0.67608666 1.8830001
0.13868445 0.68385774 1.883
0.14526001 0.68505335 1.8830001
0.15691668 0.68595004 1.8830001
0.16140001 0.68505335 1.883
0.16857333 0.69222671 1.8830001
0.17216 0.69581336 1.8830001
0.13528572 0.014430475 1.8940001
0.14791238 0.068544768 1.8940001
0.15332381 0.068544768 1.8940001
0.15512763 0.072152384 1.8940001
0.064937145 0.28860953 1.8940001
0.068544768 0.30304 1.8940001
0.072152384 0.30484381 1.8940001
0.028860953 0.34452763 1.8940001
0.032468572 0.34452763 1.8940001
0.13468444 0.58563685 1.8940001
0.13528572 0.59525722 1.8940001
0.13708954 0.60608006 1.8940001
0.14069715 0.60608 1.8940001
0.13708954 0.61329526 1.8940001
0.14069715 0.61329526 1.8940001
0.11905143 0.64576381 1.8940001
0.12671763 0.64531291 1.8940001
0.13492496 0.64576381 1.8940001
0.15152 0.64215624 1.8940001
0.13708954 0.65478289 1.8940001
0.14069715 0.65297908 1.8940001
0.13708954 0.66380191 1.8940001
0.13618763 0.67552674 1.8940001
0.14069715 0.6746248 1.8940001
0.13528572 0.68364382 1.8940001
0.14430477 0.68424511 1.8940001
0.15296306 0.68616921 1.8940001
-0.11424001 0.23936 1.904
-0.11424001 0.24298668 1.904
0.063466668 0.28288001 1.904
0.061653335 0.29013336 1.904
0.067093343 0.30101335 1.904
0.0072533335 0.31733334 1.904
0.012088888 0.31793779 1.9039999
0.018133335 0.32640001 1.904
0.018133335 0.33184001 1.904
0.02176 0.33365333 1.9039999
0.024350477 0.34401521 1.9040002
0.036992002 0.34235734 1.904
0.045333333 0.34272 1.904
-0.047146667 0.56938666 1.904
-0.03626667 0.56938666 1.904
-0.047146667 0.57301337 1.904
-0.03626667 0.57482672 1.9040002
-0.029013334 0.57482672 1.904
0.12330667 0.57664001 1.904
0.12475733 0.58461869 1.904
0.1317689 0.58510226 1.9039999
0.12693334 0.59477335 1.9039999
0.13056001 0.59477335 1.9039999
0.096106663 0.60928005 1.904
0.12693334 0.6020267 1.904
0.1329778 0.60686225 1.9040002
0.096106663 0.61290669 1.904
0.13418667 0.61290669 1.904
0.11424001 0.64917338 1.904
0.10154667 0.65280002 1.904
0.11677867 0.65425074 1.904
0.12451556 0.65521783 1.9039999
0.13237333 0.65642667 1.904
0.11847112 0.66126221 1.9039999
0.12548266 0.66295469 1.904
0.13237333 0.66368002 1.9040002
0.13418667 0.67456007 1.9039999
0.12693334 0.68362665 1.904
0.13056001 0.68362665 1.904
-0.12401905 0.23709525 1.9150001
-0.11672381 0.23709525 1.9150001
-0.12328953 0.24293144 1.9150002
-0.11672381 0.2480381 1.9150001
0.047419049 0.27721906 1.9150001
0.05289048 0.27721906 1.9150001
-0.1349619 0.2881619 1.9150001
0.058361907 0.2826905 1.9150001
0.063225396 0.28573015 1.9150001
-0.13313809 0.29180953 1.9150001
-0.12401905 0.29180953 1.9150001
-0.11672381 0.29180953 1.9150001
-0.013374604 0.2978889 1.9150001
0.057146031 0.2930254 1.9150001
0.064927615 0.29764575 1.9150002
-0.1130762 0.30275241 1.9150001
-0.10942858 0.30275241 1.9150001
-0.014590477 0.30457619 1.9150001
-0.006079365 0.30518413 1.9150001
0.0036476192 0.3064 1.9150001
0.010942858 0.3064 1.9150001
0.056538098 0.30457622 1.9150001
0.063225396 0.30518416 1.9150001
-0.013548301 0.31317419 1.9150001
-0.0054714289 0.31369525 1.9150001
0.0031916667 0.31323931 1.9150001
0.014590478 0.31369522 1.9150001
0.023101589 0.316127 1.9150001
0.056538098 0.31369525 1.9150001
0.065657139 0.31369522 1.9150001
-0.01215873 0.32220635 1.9150001
-0.0051066671 0.3239086 1.9150002
0.0031916667 0.32509407 1.9150001
0.014590477 0.32524604 1.9150001
0.025533335 0.32463813 1.9150001
0.032828573 0.32828572 1.9150001
0.065657146 0.32190239 1.9150001
-0.012766667 0.33740476 1.9150001
-0.006079365 0.33679685 1.9150001
0.004377143 0.33485144 1.9150002
0.013374603 0.33558097 1.9150001
0.027357144 0.33558097 1.9150001
0.03428762 0.33631048 1.9150002
0.043771431 0.33922854 1.9150001
-0.0072952383 0.3428762 1.9150001
0.018238096 0.34470001 1.9150001
-0.025533333 0.54714286 1.9150001
-0.025533333 0.55079049 1.9150001
-0.041947622 0.56902862 1.9150001
-0.034652382 0.56538099 1.9150001
-0.025533333 0.56811672 1.9150001
-0.042555559 0.57389206 1.9150001
-0.032828573 0.57267618 1.9150001
-0.02480381 0.57413518 1.9150002
0.12401905 0.57997143 1.9150001
0.13131429 0.57997143 1.9150001
0.12401905 0.5854429 1.9150001
0.13131429 0.58361906 1.9150001
0.11672381 0.59091431 1.9150001
0.12183048 0.5952915 1.9150002
0.11672381 0.60368097 1.9150001
0.12328953 0.60477525 1.9150002
0.085719049 0.6128 1.9150001
0.09119048 0.6128 1.9150001
0.12766667 0.6128 1.9150001
0.10760477 0.65657145 1.9150001
0.098485716 0.66204286 1.9150001
0.10630205 0.66282457 1.9150001
0.1139881 0.66477859 1.9150001
0.11672381 0.67116195 1.9150001
0.12493095 0.67389762 1.9150001
0.13131429 0.67663336 1.9150001
0.12766667 0.68210477 1.9150001
0.13131429 0.68210477 1.9150001
-0.17380002 0.2464 1.925
-0.16866668 0.24566667 1.9250001
-0.13520834 0.24520835 1.9250001
-0.12558334 0.2475 1.9250001
-0.11183333 0.24933334 1.9250001
-0.17416668 0.25483334 1.9250001
-0.16591667 0.25575003 1.9250001
-0.13322222 0.25422224 1.9250001
-0.12466667 0.25483334 1.9250001
-0.1155 0.25483334 1.9250001
-0.075166672 0.25300002 1.9250001
-0.067833334 0.25666669 1.9250001
-0.17477779 0.26155555 1.9250001
-0.16683334 0.26033333 1.9250001
-0.132 0.26033333 1.9250001
-0.12466667 0.26033333 1.9250001
-0.11366667 0.26033333 1.9250001
-0.091666669 0.26766667 1.9250001
-0.067833334 0.264 1.9250001
-0.15033334 0.27500001 1.9250001
-0.14483334 0.27500001 1.9250001
-0.13566667 0.27683336 1.9250001
-0.12711112 0.27744445 1.9250001
-0.11122223 0.27744445 1.9250001
-0.10388889 0.27744445 1.9250001
-0.095333338 0.27500001 1.925
0.0036666668 0.27683336 1.9250001
0.034833334 0.27683333 1.9250001
0.043266665 0.27646667 1.925
0.058666669 0.27866668 1.9250001
-0.15216666 0.28233334 1.9250001
-0.14422223 0.2835556 1.9250001
-0.13566665 0.28554168 1.9250001
-0.12512501 0.28645834 1.9250001
-0.11244445 0.28600001 1.9250001
-0.1045 0.28508335 1.9250001
-0.095857143 0.28652382 1.9250001
-0.088 0.28783333 1.9250001
-0.022 0.28783333 1.9250001
-0.015714286 0.28652382 1.9250001
0.034833331 0.28600001 1.9250001
0.044 0.28600004 1.9250001
0.053952385 0.28652382 1.9250001
-0.11183334 0.29516667 1.9250001
-0.1045 0.29333335 1.9250001
-0.099000007 0.29333335 1.9250001
-0.022 0.29333335 1.9250001
-0.014666667 0.29480001 1.925
-0.0073333336 0.29700002 1.9250001
0.036666669 0.29700002 1.9250001
0.044 0.2951667 1.9250001
0.052555557 0.2957778 1.9250001
-0.11183333 0.30066669 1.9250001
-0.10633334 0.30066669 1.9250001
-0.018333334 0.30066669 1.9250001
-0.0048888889 0.30188891 1.9250001
0.0018333334 0.30433336 1.9250001
0.014666667 0.308 1.9250001
0.023833334 0.308 1.9250001
0.034833331 0.30433336 1.9250001
0.044 0.30433336 1.9250001
0.053533334 0.30286667 1.925
0.018333334 0.31166667 1.9250001
0.026888892 0.31411111 1.9250001
0.034833331 0.31533334 1.9250001
0.044 0.31533334 1.9250001
0.055000003 0.31472221 1.9250001
-0.014666667 0.32633334 1.9250001
0.034222223 0.32511112 1.9250001
0.040333334 0.32633334 1.9250001
0.057444442 0.32511112 1.9250001
0.062333334 0.32633334 1.9250001
-0.012833335 0.33183336 1.9250001
-0.0061111115 0.33244446 1.9250001
0.0036666668 0.3355 1.9250001
0.036666669 0.33183336 1.9250001
0.043083332 0.33550003 1.9250001
0.055916667 0.33275002 1.9250001
0.062333334 0.33000001 1.9250001
-0.0036666668 0.34283334 1.9250001
0.00275 0.34283334 1.9250001
0.013444445 0.34344447 1.9250001
0.051333334 0.34100002 1.9250001
-0.023833334 0.53716671 1.9250001
-0.023833334 0.54449999 1.9250001
-0.018333334 0.54449999 1.9250001
0.097166672 0.54633337 1.9250001
0.10266667 0.54633337 1.9250001
-0.024200002 0.55440009 1.925
-0.016133334 0.55220002 1.925
0.084857143 0.55471426 1.9250001
