# .PCD v0.7 - Point Cloud Data file format
VERSION 0.7
FIELDS x y z
SIZE 4 4 4
TYPE F F F
COUNT 1 1 1
WIDTH 1488
HEIGHT 1
VIEWPOINT 0 0 0 1 0 0 0
POINTS 1488
DATA ascii
0.2443762 -0.0050228569 1.7575001
0.25420475 -0.00502 1.756
0.26468763 -0.0033504765 1.7590002
0.27473906 -0.0050257142 1.7589999
0.2832461 -0.0053401911 1.7536001
0.22582212 0.0040205712 1.7590001
0.23453334 0.003350476 1.7589999
0.24430476 0.0033485715 1.757
0.25291666 0.0029166669 1.7500001
0.26519096 0.00083761907 1.7567501
0.27390143 0.00083761907 1.7590001
0.28311527 0 1.7590001
0.23620859 0.010051429 1.7590001
0.24123429 0.010051429 1.7590001
-0.16082287 0.18762667 1.7590001
-0.15412191 0.18628648 1.7590001
-0.14630413 0.18650985 1.7590002
-0.11140335 0.18343858 1.7590001
-0.10368953 0.18396191 1.756
-0.095162861 0.18365334 1.7530001
-0.16082287 0.19432764 1.7590002
-0.15385903 0.19399047 1.756
-0.14421286 0.19436716 1.755625
-0.11372763 0.19734097 1.7560002
-0.10466776 0.19356 1.7564286
-0.095488571 0.19432764 1.7590001
-0.16082287 0.20102859 1.7590001
-0.1525 0.20083335 1.7500001
-0.14333333 0.20166667 1.7500001
-0.11559144 0.20102859 1.7590001
0.15666667 0.215 1.7500001
0.16317067 0.21600191 1.7554001
0.1708743 0.21778096 1.7590001
0.15747239 0.22280668 1.7590001
0.16417335 0.22280668 1.7589999
0.1708743 0.22280668 1.7590001
0.1356943 0.23453334 1.7590001
0.097163811 0.24123429 1.7590001
0.10051429 0.24123429 1.7590001
0.13468914 0.24257448 1.7590001
0.06533429 0.25128573 1.7590001
0.071700193 0.2553063 1.7590001
0.097163811 0.25631142 1.7590001
0.10386477 0.2546362 1.7589999
0.11056572 0.25128573 1.7590001
0.055282861 0.26803809 1.7590001
0.060308572 0.26803809 1.7590001
0.086666673 0.26000002 1.7500001
0.095488578 0.26385 1.7590001
0.10338167 0.26410165 1.757875
0.035180002 0.27808952 1.7590001
0.041880954 0.27390146 1.7590001
0.05354286 0.27442476 1.757
0.060102861 0.2737962 1.7530001
0.035180002 0.28144002 1.7590001
0.040205717 0.28144002 1.7590001
-0.13000001 0.67666668 1.7500001
-0.12666667 0.67666668 1.7500001
-0.095488578 0.6767962 1.7590001
-0.12183048 0.68346441 1.7572
-0.11518313 0.68583626 1.7564286
-0.10051429 0.68349719 1.7590002
-0.095823616 0.68282712 1.7590001
-0.11178935 0.69283545 1.7572
-0.10386477 0.69354856 1.7589999
-0.097163819 0.69354862 1.7590002
0.25166667 0.70000005 1.7500001
0.28412041 0.74246562 1.7590001
0.26940954 -0.030308573 1.7680001
0.27502224 -0.033676192 1.7680001
0.23910096 -0.020205716 1.7680001
0.2458362 -0.020205716 1.7680001
0.2566126 -0.021552762 1.768
0.2660419 -0.023573335 1.7679999
0.27547127 -0.023573333 1.768
0.28288001 -0.023573333 1.7680001
0.22731429 -0.010102858 1.7680001
0.23629463 -0.013470476 1.768
0.24631728 -0.014432654 1.7679999
0.25642014 -0.014432654 1.7679999
0.26507974 -0.012989388 1.7679999
0.28793144 -0.016838096 1.7680001
0.22731429 -0.0050514285 1.7680001
0.23236573 -0.0050514285 1.7680001
0.2660419 -0.0067352378 1.7680001
0.22450794 0.0011225397 1.7680001
-0.16164573 0.18521905 1.7680001
-0.15659429 0.18353525 1.7680001
-0.11449905 0.18690285 1.7680001
-0.11113143 0.19363812 1.7680001
-0.10102858 0.19532192 1.7680001
-0.093451433 0.19616382 1.7680001
0.13335773 0.23573335 1.768
0.063311242 0.24785677 1.768
0.08419048 0.24920382 1.7680001
0.097660959 0.24752 1.7680001
0.10355428 0.24836192 1.7680001
0.11281524 0.24920382 1.7680001
0.031992383 0.25762287 1.7680001
0.063984767 0.2548165 1.7680001
0.075771429 0.25257143 1.7680001
0.084190473 0.254592 1.768
0.097660959 0.25257143 1.7680001
0.10439619 0.25593907 1.7680001
0.11492 0.25635999 1.7679999
0.035360001 0.2660419 1.768
0.043779053 0.26604193 1.7679999
0.052534856 0.2660419 1.768
0.065668575 0.26772571 1.7680001
0.094293334 0.2643581 1.7680001
0.11281524 0.2626743 1.7680001
0.035360001 0.27446097 1.7680001
0.045126095 0.27681831 1.768
-0.10776381 0.66342098 1.7680001
-0.094293334 0.66342098 1.7680001
-0.12123429 0.67689145 1.7680001
-0.11449905 0.67689145 1.7680001
-0.1039151 0.67448604 1.7679999
-0.094293341 0.67352378 1.7679999
-0.12460191 0.68110096 1.7680001
-0.11353687 0.68314558 1.7679999
-0.10535837 0.68314558 1.7679999
-0.10608 0.69036192 1.7680001
0.24920382 0.70720005 1.7680001
0.25425524 0.70214862 1.7680001
0.25526553 0.71258825 1.768
0.25425524 0.72067052 1.7680001
0.26940954 0.72740573 1.7680001
0.27277714 0.72740573 1.7680001
0.27951241 0.74592769 1.7680001
0.25762287 0.75771433 1.7680001
0.26520002 0.75518858 1.7680001
0.27662587 0.75338447 1.7679999
0.28557411 0.75232607 1.768
0.25385714 -0.032155238 1.7770001
0.26175493 -0.032719363 1.7770001
0.27303746 -0.034975871 1.7770001
0.28544825 -0.032719363 1.7770001
0.29108953 -0.033847619 1.7770001
0.23693334 -0.022000954 1.7770001
0.24370284 -0.023693332 1.7770001
0.25318021 -0.025724191 1.7770001
0.26062667 -0.027078096 1.7770001
0.28770477 -0.023693332 1.7770001
0.29278192 -0.023693332 1.7770001
0.2256508 -0.013539049 1.7770001
0.2318562 -0.015231429 1.7770001
0.22339429 -0.0050771432 1.7770001
-0.16246858 0.17939238 1.7770001
-0.15739143 0.17939238 1.7770001
-0.16246858 0.18277715 1.7770001
-0.15400667 0.18277715 1.7770001
0.12726705 0.23287162 1.7770001
0.057540953 0.24708763 1.7770001
0.088003814 0.24708763 1.7770001
0.093645073 0.24595936 1.7770001
0.10605588 0.24595936 1.7770001
0.115505 0.24412596 1.7770002
0.12692857 0.24201047 1.7770001
0.025724191 0.2545341 1.7770001
0.03300143 0.25470334 1.7770001
0.043324955 0.25521106 1.7770001
0.054156195 0.25498539 1.7770001
0.060925715 0.2572419 1.7770001
0.07784953 0.2572419 1.7770001
0.085747302 0.25498542 1.7770001
0.09308096 0.25385717 1.7770001
0.11846667 0.2504724 1.7770001
0.12185143 0.25216478 1.7770001
0.002256508 0.26626796 1.7770001
0.025385713 0.26401141 1.7770001
0.032155238 0.26316524 1.7770001
0.044001907 0.26062667 1.7770001
0.054833144 0.26198059 1.7770001
0.063826941 0.26304439 1.7770002
0.07784953 0.26062667 1.7770001
0.084619053 0.26062667 1.7770001
0.093080953 0.26062667 1.7770001
0.026231904 0.27331951 1.7770001
0.030462855 0.27416572 1.7770001
0.027078096 0.28093526 1.7770001
0.030462857 0.28093526 1.7770001
-0.11282539 0.66566986 1.7770001
-0.10425067 0.66476721 1.7770001
-0.095619529 0.6651057 1.7770001
-0.11395365 0.67413181 1.7770001
-0.10560457 0.6715368 1.7770001
-0.09477333 0.67018288 1.7770001
-0.084619053 0.67018288 1.7770001
-0.07784953 0.67018288 1.7770001
-0.11508191 0.68033719 1.7770001
0.24708764 0.70403051 1.7770001
0.2513186 0.70318431 1.7770001
0.2318562 0.71080005 1.7770001
0.24624142 0.71333861 1.7770001
0.2504724 0.71587718 1.7770001
0.25318021 0.72298521 1.7770001
0.26231906 0.7209543 1.7770001
0.27619657 0.7351703 1.7770001
0.28206351 0.73562163 1.7770001
0.2572419 0.74803239 1.7770001
0.26570383 0.74803239 1.7770001
0.2750119 0.74718618 1.7770001
0.28262764 0.74295527 1.7770001
0.24708763 0.75649428 1.7770001
0.25385714 0.75522506 1.7770002
0.2635279 0.75383484 1.7770002
0.27331951 0.75226337 1.7770001
0.29278192 0.7581867 1.7770001
0.23813334 -0.030617144 1.7860001
0.24493714 -0.030617142 1.7860001
0.25514287 -0.032318097 1.7860001
0.28916192 -0.030617144 1.7860001
0.29256383 -0.030617144 1.7860001
0.23813334 -0.027215239 1.7860001
0.24493714 -0.027215237 1.7860001
-0.16499239 0.17689906 1.7860001
-0.15988953 0.17689906 1.7860001
-0.17009525 0.18370287 1.7860001
-0.16669334 0.18370287 1.7860001
0.037420955 0.23813334 1.7860001
0.04082286 0.23813334 1.7860001
0.098655239 0.23813334 1.7860001
0.11609 0.23515667 1.7860001
0.12331906 0.2355819 1.7860001
0.0056698411 0.24607112 1.7860001
0.011906668 0.24493714 1.7860001
0.023813335 0.24493715 1.7860001
0.034019049 0.24493715 1.7860001
0.04365778 0.24607112 1.7860001
0.054005243 0.2445119 1.7860001
0.095253333 0.2432362 1.7860001
0.10716 0.2432362 1.7860001
0.11226286 0.24153525 1.7860001
0.12450973 0.24629791 1.786
0.13267429 0.24833906 1.7860001
-0.02041143 0.25684381 1.7860001
-0.010205715 0.25684381 1.7860001
-0.0054430477 0.25582325 1.786
0.003827143 0.25556812 1.7860001
0.01360762 0.25514287 1.7860001
0.021261906 0.25429237 1.7860001
0.035720002 0.25344193 1.7860001
0.045075238 0.25344193 1.7860001
0.054430474 0.25287494 1.7860001
0.12757143 0.2534419 1.7860001
0.13267429 0.25344193 1.7860001
-0.02041143 0.26194668 1.7860001
-0.012473651 0.26421461 1.7860001
-0.0051028575 0.26534858 1.7860001
0.0039688889 0.26421461 1.7860001
0.01360762 0.26534855 1.7860001
0.02041143 0.26534858 1.7860001
-0.011906668 0.2755543 1.7860001
-0.0054430477 0.2755543 1.786
0.0034019048 0.2755543 1.7860001
0.012757144 0.27385333 1.7860001
0.022679366 0.2755543 1.7860001
-0.0042523812 0.28490955 1.7860001
0.0020411429 0.28439924 1.786
0.010205715 0.28405905 1.7860001
0.023813333 0.28235811 1.7860001
-0.10545905 0.65996957 1.7860001
-0.098655239 0.65996957 1.7860001
-0.11226286 0.66337144 1.7860001
-0.10545904 0.66337144 1.7860001
-0.095253326 0.66450542 1.7860001
-0.11566477 0.67357719 1.7860001
-0.085728005 0.67289674 1.786
-0.078243814 0.67017525 1.7860001
-0.11906667 0.680381 1.7860001
0.2453624 0.69441378 1.7860001
0.25287494 0.69625658 1.7860001
0.23541181 0.70623553 1.786
0.24437018 0.70419431 1.7860001
0.25344193 0.70079243 1.7860001
0.22792763 0.71099812 1.7860001
0.23521742 0.71440011 1.7860001
0.24289601 0.71440011 1.786
0.23699938 0.72233778 1.7860001
0.2445119 0.72503096 1.7860001
0.26364762 0.72800767 1.7860001
0.24493714 0.73140955 1.7860001
0.25514287 0.73345077 1.786
0.26648256 0.73367757 1.7860001
0.27215239 0.73481143 1.7860001
0.28235811 0.73821336 1.7860001
0.24833906 0.74841905 1.7860001
0.25562885 0.74598914 1.7860001
0.26648256 0.74615103 1.7860001
0.27442035 0.74558407 1.7860001
0.24663812 0.75522286 1.7860001
0.25400892 0.75295496 1.7860001
0.26194668 0.75182098 1.7860001
-0.17095239 0.17779048 1.7950001
-0.13505238 0.23933335 1.7950001
-0.12650478 0.23933335 1.7950001
-0.11966667 0.23933335 1.7950001
-0.10599049 0.23933335 1.7950001
-0.099152386 0.23933335 1.7950001
-0.082057148 0.23933335 1.7950001
-0.078638099 0.23933335 1.7950001
0.044447619 0.23933335 1.7950001
0.10696734 0.23640275 1.7950001
0.11282858 0.23249525 1.7950001
-0.13334286 0.24446192 1.7950001
-0.12650478 0.24574408 1.7950001
-0.11624762 0.24275239 1.7950001
-0.10513572 0.24360715 1.7950001
-0.095305964 0.24574408 1.7950001
-0.085903578 0.24574406 1.7950001
-0.078638099 0.24275239 1.7950001
-0.023933334 0.24788098 1.7950001
-0.013676192 0.24788098 1.7950001
-0.0051285713 0.24788097 1.7950001
0.001367619 0.24617143 1.7950001
0.017095238 0.24617143 1.7950001
0.045587301 0.24389207 1.7950001
0.094023809 0.24275239 1.7950001
0.10599048 0.24275239 1.7950001
-0.092314288 0.25300953 1.7950001
-0.024910206 0.25594017 1.7950001
-0.014653062 0.25594014 1.7950001
-0.0034190477 0.25300953 1.7950001
0 0.25300953 1.7950001
-0.13505238 0.26326668 1.7950001
-0.12308572 0.26326668 1.7950001
-0.11966667 0.26326668 1.7950001
-0.024617143 0.2653181 1.7950001
-0.017095238 0.26668572 1.7950001
-0.061542861 0.27694288 1.7950001
-0.053850003 0.27608812 1.7950001
-0.046499051 0.27420762 1.7950001
-0.023249526 0.27283999 1.7950001
-0.016240476 0.27266905 1.7950001
-0.0034190477 0.27694288 1.7950001
0.013676192 0.27694288 1.7950001
0.020514287 0.27694288 1.7950001
-0.061542861 0.28036192 1.7950001
-0.053727891 0.2832925 1.7950001
-0.046157148 0.28378096 1.7950001
-0.020514287 0.28207144 1.7950001
-0.014164627 0.28475782 1.7950001
-0.0068380954 0.2872 1.7950001
0.0051285718 0.2872 1.7950001
0.015385713 0.28378096 1.7950001
0.020514287 0.28207144 1.7950001
-0.052995242 0.29061905 1.7950001
-0.047866669 0.2923286 1.7950001
-0.023933332 0.2923286 1.7950001
-0.013676192 0.29232857 1.7950001
-0.0068380954 0.29061905 1.7950001
0.0051285718 0.29061905 1.7950001
-0.10428096 0.65987623 1.7950001
-0.098012708 0.65873653 1.7950001
-0.11282858 0.66329527 1.7950001
-0.10599048 0.66329527 1.7950001
-0.095733337 0.66329527 1.7950001
-0.088895239 0.67013335 1.7950001
0.23933335 0.6940667 1.7950001
0.24389207 0.6917873 1.7950001
0.21881905 0.70432383 1.7950001
0.22679682 0.70546347 1.7950001
0.23933335 0.70261431 1.7950001
0.24275239 0.70432383 1.7950001
0.22907619 0.71116191 1.7950001
0.24788097 0.7385143 1.7950001
0.26326668 0.7385143 1.7950001
0.24873573 0.74620718 1.7950001
0.25574476 0.74330091 1.7950001
0.26463431 0.7446686 1.7950001
0.24412 0.75492579 1.7950001
-0.14225829 0.24465677 1.8040001
-0.13744763 0.24568763 1.8040001
-0.12026667 0.24740572 1.8040001
-0.11511239 0.24740572 1.8040001
-0.10824001 0.24740572 1.8040001
-0.073878095 0.24396953 1.8040001
-0.034361903 0.24740572 1.8040003
-0.14260191 0.25427809 1.804
-0.13444096 0.25470763 1.804
-0.12370286 0.2547076 1.804
-0.11511239 0.25427809 1.804
-0.1065219 0.25427806 1.804
-0.097358733 0.25542352 1.804
-0.085413881 0.25525984 1.804
-0.053604573 0.25427809 1.8040001
-0.044240955 0.2547076 1.804
-0.03436191 0.25427809 1.804
-0.1331524 0.26200953 1.8040001
-0.12456191 0.26200953 1.8040001
-0.11476877 0.26389945 1.8040001
-0.10652191 0.2650162 1.804
-0.096213341 0.26458666 1.804
-0.085904755 0.26458669 1.804
-0.079032384 0.26630479 1.8040001
-0.061851431 0.26802287 1.8040001
-0.054549523 0.2650162 1.804
-0.044670478 0.26458669 1.804
-0.034361906 0.26458666 1.804
-0.10308572 0.27145904 1.8040001
-0.095722444 0.27391347 1.804
-0.086395644 0.27489522 1.804
-0.076970674 0.27626973 1.8040001
-0.065287627 0.2754679 1.804
-0.055666286 0.27283353 1.8040001
-0.042093337 0.2740362 1.8040001
-0.033932384 0.27446571 1.804
-0.02491238 0.2757543 1.8040001
-0.092777148 0.28176764 1.8040001
-0.08590477 0.28176764 1.8040003
-0.075596191 0.28176764 1.8040003
-0.067005716 0.28176764 1.8040001
-0.041234288 0.28520381 1.8040001
-0.03338014 0.28569469 1.804
-0.025035102 0.28569469 1.804
-0.042952381 0.29379427 1.8040001
-0.034361906 0.29379427 1.804
-0.024053333 0.29379427 1.8040001
-0.1065219 0.65974861 1.8040003
-0.094495237 0.65974861 1.8040001
-0.1099581 0.66318476 1.8040001
-0.092777148 0.66662097 1.8040001
-0.092777148 0.67005718 1.8040001
-0.087622859 0.67177528 1.8040001
0.21991619 0.67692953 1.8040001
0.22507048 0.67692953 1.8040001
0.23137017 0.68494731 1.8040003
0.23366098 0.69411057 1.804
0.24053334 0.6906743 1.8040001
0.22564317 0.7055645 1.8040003
0.23409048 0.70398957 1.804
0.23366097 0.71129143 1.8040001
0.24740572 0.74737144 1.8040001
-0.14512001 0.23841144 1.8140001
-0.14742351 0.24532191 1.8140001
-0.076015241 0.24877715 1.8140001
-0.065649524 0.24877715 1.8140001
-0.057011433 0.24877715 1.8140001
-0.14857525 0.2522324 1.8140001
-0.076591112 0.25453588 1.8140001
-0.065649524 0.25568762 1.814
-0.057011433 0.25568765 1.8140001
-0.048373334 0.2522324 1.8140001
-0.1549921 0.26704055 1.8140001
-0.14512001 0.26605335 1.8140001
-0.10711239 0.2625981 1.8140001
-0.075028025 0.26555973 1.8140001
-0.066081427 0.26562142 1.8140001
-0.058739051 0.2625981 1.8140001
-0.084653333 0.27641904 1.8140001
-0.074287623 0.27469143 1.8140001
-0.067377143 0.27296382 1.8140001
-0.038007621 0.27987429 1.8140001
-0.041462857 0.28678477 1.8140001
-0.038007621 0.28505716 1.8140001
-0.1002019 0.64785719 1.8140001
-0.096746668 0.64612955 1.8140001
-0.1002019 0.65995049 1.8140001
-0.096746668 0.65995049 1.8140001
-0.07774286 0.65995049 1.8140001
-0.063921906 0.65995049 1.8140001
0.19694857 0.65822291 1.8140001
0.20040381 0.65822291 1.8140001
-0.093291432 0.666861 1.8140001
-0.089836195 0.666861 1.8140001
-0.079470478 0.66340572 1.8140001
0.20558667 0.66340572 1.8140001
-0.088108577 0.6720438 1.8140001
-0.074287623 0.6720438 1.8140001
0.21768001 0.67722666 1.8140001
0.22113524 0.67722666 1.8140001
0.22459048 0.68586475 1.8140001
0.22459048 0.69450289 1.814
0.23582001 0.69363904 1.8140001
0.24359429 0.69277525 1.8140001
0.21768001 0.70832384 1.8140001
0.22409688 0.70388138 1.8140001
0.2349562 0.70141333 1.8140001
-0.16676572 0.23972572 1.8240001
-0.15402667 0.23856764 1.824
-0.14939429 0.23972572 1.8240001
-0.18066287 0.2432 1.8240001
-0.15564801 0.24458972 1.8240001
-0.14939429 0.2432 1.8240001
-0.15286858 0.25709715 1.8240001
-0.14939429 0.25709715 1.8240001
-0.072960004 0.25709715 1.8240001
-0.16329144 0.2623086 1.8240001
-0.15703772 0.26196116 1.8240001
-0.14939429 0.2623086 1.8240001
-0.076434284 0.26057145 1.8240001
0.17197715 0.58715433 1.8240001
0.16676572 0.59062856 1.8240001
0.17255621 0.59178668 1.824
-0.10075429 0.62884575 1.8240001
-0.093805715 0.62884575 1.8240001
-0.093805715 0.64795434 1.8240001
-0.10075429 0.65664005 1.8240001
-0.097280003 0.65490294 1.8240001
0.18761143 0.65316576 1.8240001
0.19224381 0.65548199 1.824
-0.10422858 0.66185141 1.8240001
-0.092937142 0.66358858 1.8240001
-0.084772572 0.66428345 1.8240001
-0.076434292 0.66272002 1.8240001
-0.068327628 0.66590482 1.824
0.19398098 0.6647467 1.8240002
0.20150858 0.66706288 1.8240001
-0.084772572 0.6733166 1.8240001
-0.079039998 0.67314291 1.8240001
0.18761143 0.67053717 1.8240001
0.19456001 0.67053717 1.8240001
0.20541716 0.67357713 1.8240002
0.21308953 0.67632765 1.824
-0.08338286 0.68096 1.8240001
-0.078171432 0.68096 1.8240001
0.20706744 0.68373942 1.8240001
0.21497144 0.68486857 1.8240002
0.20845716 0.69485712 1.824
0.21540575 0.69485718 1.8240002
0.20845716 0.70180571 1.8240001
0.21584001 0.70484567 1.8240002
-0.18155429 0.24789144 1.8330001
-0.17457144 0.24440002 1.8329999
-0.16409716 0.24489878 1.8330001
-0.18155429 0.25138286 1.8330001
-0.17413501 0.25443783 1.8330001
-0.1630996 0.25537309 1.8330001
-0.15571773 0.25417599 1.8329999
-0.17108001 0.26185715 1.8330001
-0.16758858 0.26185715 1.8330001
0.16584286 0.59179717 1.8330001
-0.066337146 0.60401714 1.8330001
-0.090777144 0.61798286 1.8330001
-0.086121909 0.61565524 1.8330001
-0.066337146 0.61798286 1.8330001
-0.09252286 0.62496573 1.8330001
-0.08728572 0.62496573 1.8330001
-0.05644476 0.62496573 1.8330001
-0.048880003 0.62845719 1.8330001
-0.093104772 0.63544005 1.8330001
-0.08728572 0.63544005 1.8330001
-0.054117143 0.63194859 1.8330001
-0.048880003 0.63194859 1.8330001
-0.09252286 0.65813434 1.8330001
-0.083794288 0.65988004 1.8330001
0.18679143 0.65813434 1.8330001
-0.09252286 0.66337144 1.8330001
-0.08728572 0.66337144 1.8330001
-0.073320001 0.66337144 1.8330001
-0.069828577 0.66337144 1.8330001
0.18737334 0.66569906 1.8330001
0.19202858 0.66337144 1.8330001
-0.073320001 0.67035431 1.8330001
0.18644229 0.67384577 1.8329999
0.19552001 0.67646432 1.8330001
0.18853715 0.68082857 1.8330001
0.19552001 0.68082857 1.8330001
0.20250286 0.68431997 1.8330001
0.20424856 0.69479436 1.8330001
0.20483048 0.70294094 1.8330001
-0.16850287 0.25450954 1.8430001
0.15797144 0.59678096 1.8430001
0.16265208 0.59444064 1.8430001
-0.084251441 0.60480493 1.8430002
-0.073720001 0.60731238 1.8430001
0.15270571 0.60380191 1.8430001
0.16733271 0.60146159 1.8430001
0.17201334 0.60380191 1.8430001
-0.093027622 0.61784381 1.8430001
-0.071964763 0.61784381 1.8430001
-0.06669905 0.61784381 1.8430001
-0.10461219 0.62626898 1.8430001
-0.097123176 0.62486476 1.8430001
-0.082496196 0.62486476 1.8430001
-0.073720001 0.62486476 1.8430002
-0.064592764 0.62556684 1.8430001
-0.059678096 0.62135428 1.8430001
-0.10355905 0.63188577 1.8430001
-0.098293334 0.63188577 1.8430001
-0.082847245 0.63609833 1.8430001
-0.073720001 0.63890672 1.8430001
-0.06669905 0.63715148 1.8430001
-0.05757181 0.63680041 1.8430001
-0.075475238 0.64241719 1.8430001
-0.091272384 0.65645909 1.8430001
-0.085129052 0.65909195 1.8430001
-0.075475238 0.65996957 1.8430001
-0.073720001 0.66348004 1.8430001
0.18605524 0.66523528 1.8430001
-0.071964763 0.67752194 1.8430001
0.18254477 0.67401147 1.8430001
0.18517762 0.68454289 1.8430001
0.19483143 0.68629813 1.8430001
0.20009714 0.68805337 1.8430001
0.18956572 0.69156384 1.8430001
0.19307619 0.69156384 1.8430001
0.20009714 0.69507432 1.8430001
0.20009714 0.70209527 1.8430001
0.15529905 0.59648955 1.853
-0.077649526 0.60707814 1.853
0.15529905 0.60296035 1.853
0.16353461 0.60590166 1.853
-0.091767624 0.61590195 1.853
-0.088238098 0.61766666 1.853
-0.074120007 0.61590189 1.853
-0.067060955 0.61590195 1.853
-0.1023562 0.62472576 1.853
-0.098826669 0.62472576 1.853
-0.081179053 0.62119621 1.853
-0.077649526 0.62119621 1.853
-0.081179053 0.63531429 1.853
-0.074120007 0.63707906 1.853
-0.064707935 0.63649082 1.853
0.081179053 0.63707906 1.853
-0.091767624 0.64943242 1.853
-0.082943812 0.64590287 1.853
-0.07323762 0.64855003 1.853
-0.063531429 0.64649111 1.853
-0.054707624 0.64590287 1.853
-0.047648571 0.64237338 1.853
-0.091767624 0.65472668 1.853
-0.085590951 0.65560907 1.853
-0.075296514 0.65531492 1.853
0.15529905 0.65472668 1.853
-0.082943812 0.66002095 1.853
-0.07412 0.66119748 1.853
0.18353525 0.66443288 1.853
0.19059429 0.66002095 1.853
-0.065296188 0.67060953 1.853
0.1764762 0.67413902 1.853
0.18088809 0.67325664 1.853
0.1764762 0.68472767 1.853
0.18000571 0.68472767 1.853
0.18529999 0.69355148 1.853
0.19553563 0.69672805 1.853
0.19500621 0.70325768 1.853
0.14620115 0.5876435 1.8630002
-0.053228572 0.59970862 1.863
0.14620115 0.59403086 1.8630002
0.15258858 0.59615999 1.863
-0.053228572 0.60680574 1.863
-0.049680002 0.60680574 1.863
0.14549142 0.60503149 1.863
-0.085165717 0.61745143 1.863
-0.070971429 0.6103543 1.863
-0.061745144 0.61461252 1.8630002
-0.055594292 0.61153716 1.863
-0.049680002 0.6103543 1.863
0.14785714 0.61272001 1.863
0.15613715 0.61567718 1.863
0.16500857 0.61567712 1.863
0.17033143 0.61567712 1.863
-0.10645714 0.62809718 1.863
-0.083391428 0.62100005 1.863
0.14904 0.62100005 1.863
0.088714287 0.63874286 1.863
0.092262864 0.63874286 1.863
0.088714287 0.64229143 1.863
0.15791143 0.64938861 1.863
0.16500857 0.6476143 1.863
-0.084456004 0.6543566 1.8630002
-0.074520007 0.65648574 1.863
-0.063874289 0.65559864 1.863
-0.055002861 0.65471148 1.863
0.14904 0.65648574 1.863
0.15613715 0.6543566 1.8630002
0.16500857 0.65471148 1.863
0.17033143 0.65648574 1.863
0.18630001 0.65648574 1.863
-0.070971429 0.66180861 1.863
-0.06476143 0.66092145 1.863
-0.055002861 0.6600343 1.863
0.14667429 0.6629914 1.863
0.15613715 0.66402638 1.863
0.16500857 0.66358286 1.863
0.17343645 0.66402638 1.863
0.18381602 0.66287315 1.8630002
0.19162287 0.6600343 1.863
-0.067422859 0.67068005 1.863
0.13573286 0.67689002 1.863
0.14194286 0.67600286 1.863
0.15702429 0.67245436 1.863
0.16500857 0.67422867 1.863
0.17286614 0.67372167 1.863
0.15613715 0.68132573 1.863
0.16441715 0.68250853 1.863
0.17210571 0.68310004 1.863
0.18097715 0.69729435 1.863
0.18689144 0.70380002 1.863
-0.067784764 0.58687335 1.8730001
-0.054703493 0.58746797 1.8730001
0.13913715 0.5850895 1.8730001
0.14270477 0.5850895 1.8730001
-0.063325234 0.59846818 1.8730001
-0.055298094 0.59579247 1.8730001
-0.049946669 0.59579247 1.8730001
0.13913715 0.59579235 1.8730001
0.14270477 0.59936005 1.8730001
-0.082055241 0.60292763 1.8730001
-0.076109208 0.60530609 1.8730001
-0.064217143 0.60471147 1.8730001
-0.055892702 0.60530609 1.8730001
-0.049946669 0.60471141 1.8730001
0.13913715 0.60471141 1.8730001
0.14627241 0.60292763 1.8730001
-0.082055241 0.6100629 1.8730001
-0.074919999 0.61125207 1.8730001
-0.064930663 0.61148989 1.8730001
-0.057081908 0.6100629 1.8730001
0.13913715 0.6100629 1.8730001
0.15519142 0.62611717 1.8730001
0.16054286 0.62790096 1.8730001
0.15697524 0.63860381 1.8730001
0.16054286 0.63860381 1.8730001
0.085622862 0.64395523 1.8730001
0.15697524 0.64573908 1.8730001
0.16292126 0.64514446 1.8730001
-0.049946669 0.65287429 1.8730001
0.14698592 0.65501487 1.8730001
0.15340762 0.65287429 1.8730001
0.17481335 0.65465808 1.8730001
0.18194857 0.65644193 1.8730001
-0.062433332 0.66714478 1.8730001
-0.055298097 0.66714478 1.8730001
-0.047270954 0.664469 1.8730001
0.13913715 0.66714478 1.8730001
0.14389397 0.66119879 1.8730001
0.17719175 0.66119879 1.8730001
0.18194857 0.66179335 1.8730001
-0.063503616 0.67213947 1.8730001
-0.055892702 0.67309088 1.8730001
0.12724508 0.67546922 1.8730001
0.13556953 0.6748746 1.8730001
0.14627239 0.67428005 1.8730001
0.15519142 0.67784762 1.8730001
0.16054286 0.67784762 1.8730001
0.14805621 0.68141526 1.8730001
0.15519142 0.68141526 1.8730001
0.1676781 0.68855047 1.8730001
0.18194857 0.70638859 1.8730001
-0.063364446 0.57506222 1.883
-0.05738667 0.57207334 1.8830001
0.13629334 0.57566005 1.8830003
-0.071733333 0.58642006 1.8830001
-0.064111665 0.58417839 1.8830003
-0.053799998 0.58417833 1.8830003
-0.046626668 0.58642006 1.8830001
0.13629334 0.58283335 1.8830001
-0.073885337 0.59538668 1.8830001
-0.064560004 0.59538668 1.8830003
-0.050213337 0.59180003 1.8830001
-0.044833336 0.59538668 1.8830001
0.13485867 0.59466934 1.8830001
-0.084286667 0.60973334 1.8830001
-0.074722223 0.60495114 1.8830003
-0.046626668 0.60614669 1.8830001
-0.075320005 0.61331999 1.8830001
0.12912001 0.63484001 1.8830001
0.13701066 0.63340533 1.8830001
0.14705335 0.63125336 1.8830001
0.15542223 0.63484001 1.883
0.16140001 0.63663334 1.8830001
0.13988 0.64201337 1.8830001
0.14561868 0.64559996 1.8830001
0.15279201 0.64559996 1.8830001
-0.050213337 0.65994668 1.8830001
-0.044833332 0.65636003 1.8830001
0.13988 0.65815336 1.8830001
0.14466222 0.65396893 1.883
0.15243334 0.65277338 1.8830001
-0.050213337 0.66353333 1.8830001
0.13988 0.66532671 1.8830001
-0.052006669 0.67429334 1.8830001
-0.045431111 0.67190224 1.883
0.12732667 0.67429334 1.8830001
0.1345 0.67250001 1.8830001
-0.054114286 0.56639624 1.8940001
-0.054114286 0.57721907 1.8940001
0.13528572 0.57361144 1.8940001
-0.061329525 0.5808267 1.8940001
-0.055918097 0.5808267 1.8940001
-0.044493973 0.58563685 1.8940001
-0.039683811 0.58623815 1.8940001
0.13528572 0.5880419 1.8940001
-0.077563807 0.59886479 1.8940001
-0.044493973 0.59645969 1.8940001
0.12867175 0.59766227 1.8940001
0.1334819 0.59164953 1.8940001
-0.075759999 0.60247242 1.8940001
-0.045095243 0.60788381 1.8940001
0.12807047 0.60247242 1.8940001
0.13588698 0.60608 1.8940001
-0.04689905 0.61509907 1.8940001
0.13708954 0.61329526 1.8940001
0.14610857 0.63854861 1.8940001
0.15332381 0.63854861 1.8940001
0.12987429 0.64396 1.8940001
0.13528572 0.64576381 1.8940001
0.14358324 0.6450423 1.8940001
0.15272254 0.64456129 1.8940001
0.13588698 0.65418166 1.8940001
0.14069715 0.65478289 1.8940001
-0.045095243 0.66740954 1.8940001
-0.039683811 0.66740954 1.8940001
0.13618763 0.66470385 1.8940001
0.12626667 0.67462474 1.8940001
0.13528572 0.67101717 1.8940001
0.10517333 0.56576002 1.904
-0.050773334 0.57664001 1.904
0.12693334 0.57664001 1.904
0.13056001 0.57664001 1.904
-0.050773334 0.58208001 1.904
-0.045333333 0.58389336 1.904
-0.03626667 0.58389336 1.9039999
-0.029013334 0.58389336 1.904
0.12693334 0.58389336 1.9039999
0.13056001 0.58389336 1.9039999
0.12693334 0.59477335 1.9039999
0.13056001 0.59296 1.904
0.13418667 0.60928005 1.904
-0.04352 0.61653334 1.904
-0.039893337 0.61471999 1.904
0.13418667 0.61471999 1.904
-0.04352 0.6219734 1.904
-0.039893337 0.6219734 1.904
0.097920001 0.64917338 1.904
0.11968 0.64917338 1.904
0.12572445 0.64796448 1.9039999
0.096711107 0.65521783 1.9039999
0.1088 0.65461338 1.904
0.11605334 0.65461338 1.9040002
0.12512 0.65461338 1.904
0.13056001 0.65461338 1.904
-0.045333333 0.66730666 1.904
-0.039893337 0.66730666 1.904
0.11696 0.66096002 1.904
0.12512 0.66368008 1.9040002
0.13237333 0.66368002 1.9040002
0.12693334 0.67274666 1.904
0.13056001 0.67274666 1.904
0.10578096 0.55717385 1.9150001
-0.040123813 0.56902862 1.9150001
0.098485716 0.56538099 1.9150001
0.10578096 0.56538099 1.9150001
0.11490001 0.56902862 1.9150001
-0.053984761 0.57632381 1.9150002
-0.043250345 0.57736593 1.9150001
-0.036476191 0.57449996 1.9150001
0.098485716 0.57267618 1.9150001
0.10578096 0.57677972 1.9150001
0.11490002 0.57632381 1.9150001
0.12401905 0.57632387 1.9150001
-0.043771431 0.58361906 1.9150001
-0.036476191 0.58361906 1.9150001
0.10942858 0.58361906 1.9150001
0.11550794 0.58483493 1.9150001
0.12280318 0.58483493 1.9150001
0.10942858 0.59820956 1.9150001
0.1130762 0.59820956 1.9150001
0.12310714 0.59547383 1.9150001
0.10942858 0.60185719 1.9150001
0.11490001 0.60368097 1.9150001
0.12401905 0.60368097 1.9150001
-0.043771431 0.6128 1.9150001
0.065657146 0.63468575 1.9150001
0.10505144 0.65438282 1.9150002
0.095567629 0.66532576 1.9150002
0.10578096 0.6638667 1.9150001
0.11490001 0.66751432 1.9150001
0.11490001 0.67116195 1.9150001
0.12219524 0.67480952 1.9150001
-0.062009525 0.69304764 1.9150001
-0.058361907 0.69304764 1.9150001
0.08433333 0.55366671 1.925
0.096555561 0.55305558 1.9250001
0.10266667 0.55366671 1.9250001
-0.042166665 0.56650001 1.9250001
-0.035444446 0.56711107 1.9250001
0.096250005 0.56375003 1.9250001
0.1155 0.56833333 1.9250001
-0.051333334 0.57200003 1.9250001
-0.045833334 0.57383335 1.9250001
-0.033916667 0.57475001 1.9250001
0.094722234 0.57566667 1.9250001
0.12100001 0.57566667 1.9250001
-0.036666669 0.583 1.9250001
0.099000007 0.583 1.9250001
0.1045 0.5866667 1.9250001
0.11320834 0.5944584 1.9250001
0.12100001 0.59400004 1.9250001
0.11733334 0.60133338 1.9250001
0.12100001 0.60683334 1.9250001
-0.025666667 0.6196667 1.9250001
0.055000003 0.6196667 1.9250001
-0.034833334 0.62700003 1.9250001
-0.02811111 0.62577778 1.9250001
0.056833334 0.62516665 1.9250001
-0.034833334 0.63066667 1.9250001
-0.0275 0.63066667 1.9250001
0.066 0.63433337 1.9250001
0.10388889 0.67344445 1.9250001
0.11000001 0.6746667 1.9250001
0.24707049 0.018438095 1.9360001
0.23969525 0.025813334 1.9360002
0.24522668 0.023969524 1.9360001
0.25444573 0.022125715 1.9360002
0.042407621 0.48676574 1.9360001
0.03687619 0.49045336 1.9360001
0.044251431 0.49045336 1.9360002
0.077440001 0.54576766 1.9360002
0.084288441 0.54682124 1.936
0.093419693 0.54822606 1.9360002
-0.040563811 0.55683053 1.9360001
-0.03687619 0.55683053 1.9360001
-0.025813334 0.55683053 1.9360001
0.074981593 0.5556013 1.9360002
0.082971431 0.55314291 1.9360001
0.094034292 0.55683053 1.9360001
-0.042407621 0.5623619 1.9360001
-0.035032384 0.56420571 1.9360001
-0.029500954 0.56789333 1.9360001
0.077440001 0.56051815 1.9360001
0.08586885 0.56420571 1.936
0.092190482 0.56420571 1.9360002
-0.028025907 0.57600605 1.9360001
0.087580957 0.57434666 1.9360001
0.092190482 0.57158095 1.9360001
-0.033188574 0.58633143 1.9360001
-0.029500954 0.58448762 1.9360001
0.093419693 0.58510226 1.9360002
-0.033188574 0.59001905 1.9360001
-0.029500954 0.59001905 1.9360001
0.099565715 0.59001905 1.9360001
0.10509714 0.59555048 1.9360001
0.10694095 0.60292572 1.9360001
-0.040563811 0.6176762 1.9360001
-0.025813336 0.6176762 1.936
-0.018438095 0.6176762 1.9360001
-0.034417782 0.62443686 1.9360002
-0.023969524 0.62689525 1.9360001
0.059001908 0.62320763 1.9360001
0.064533338 0.62505144 1.9360001
0.097721905 0.62689525 1.9360001
-0.022125715 0.63058287 1.9360001
0.064533338 0.63242668 1.9360001
0.070064768 0.6361143 1.9360001
0.088502862 0.63427049 1.9360001
0.095878094 0.63365585 1.936
0.070064768 0.64348954 1.9360001
0.095878102 0.64164573 1.9360001
0.25403714 0.018542858 1.9470001
0.044502858 0.4969486 1.9470001
-0.014834287 0.53774285 1.9470001
-0.024105715 0.5470143 1.9470001
-0.015893878 0.54463023 1.9470003
-0.0074171433 0.54145145 1.9470001
0.057853717 0.54590172 1.9470001
0.064900003 0.54516006 1.9470001
0.07311184 0.54463023 1.9470003
0.086038858 0.54293489 1.9470001
-0.034613337 0.55752188 1.9470001
-0.025430204 0.55628574 1.9470003
-0.018542858 0.55628568 1.9470001
0.05933715 0.55628574 1.9470001
0.064900003 0.55628568 1.9470001
0.072687998 0.55554402 1.9470001
-0.033377144 0.56370288 1.9470001
-0.026701715 0.56518626 1.9470001
-0.018542858 0.56370288 1.9470001
0.064900003 0.56370288 1.9470001
0.073429719 0.56592798 1.9470001
-0.02596 0.57297432 1.9470001
0.082824767 0.57482862 1.9470001
0.089005716 0.58595431 1.9470001
0.095186673 0.59460765 1.9470001
0.10013143 0.59707999 1.9470001
-0.040794287 0.60820574 1.9470001
0.096422859 0.60078859 1.9470001
0.10260382 0.60449719 1.9470001
-0.040794287 0.61376858 1.9470001
-0.033377144 0.61933148 1.9470001
-0.02596 0.61469573 1.9470001
-0.018542858 0.61562288 1.9470001
0.048211429 0.61747718 1.9470001
0.055628575 0.61933148 1.9470001
0.065827146 0.61655009 1.9470001
0.07046286 0.61747718 1.9470001
0.085297145 0.61933148 1.9470001
-0.03523143 0.62304002 1.9470001
0.048211429 0.62304002 1.9470001
0.055628572 0.62304002 1.9470001
0.064900003 0.62304002 1.9470001
0.074171431 0.62489432 1.9470001
0.085297145 0.62489432 1.9470001
0.094568573 0.62489432 1.9470001
-0.037085716 0.63045716 1.9470001
0.057482861 0.63787431 1.9470001
0.074635006 0.63370216 1.9470003
0.084833577 0.6341657 1.9470003
0.09395048 0.63540196 1.9470001
0.058100957 0.64405531 1.9470001
0.063972861 0.6462186 1.9470001
0.075654857 0.64603317 1.9470001
0.084833577 0.64575505 1.9470003
0.092714287 0.64714575 1.9470001
0.059337147 0.65270859 1.9470001
0.064900003 0.65270859 1.9470001
0.089005716 0.65270859 1.9470001
0.092714287 0.65270859 1.9470001
0.11867429 0.68608576 1.9470001
0.12238286 0.6897943 1.9470001
0.24987811 0.029836191 1.9580001
0.25547239 0.027971428 1.9580001
0.26106668 0.027971428 1.9580001
0.24987811 0.033565715 1.9580001
-0.0037295239 0.42889526 1.9580001
0 0.42889526 1.9580001
0.0074590477 0.44381335 1.9580001
0.037295241 0.49229717 1.9580001
-0.014918095 0.52959239 1.9580001
-0.022377145 0.53705144 1.9580001
-0.014918096 0.53518671 1.9580001
-0.0074590477 0.53518665 1.9580001
0.0018647619 0.53705144 1.9580001
0.05687524 0.53611904 1.9580001
0.063401908 0.53518665 1.9580001
-0.034808889 0.54699683 1.9580001
-0.026106669 0.54388887 1.9580001
-0.013674922 0.54326731 1.9580001
-0.0052213334 0.54451048 1.9579999
0.0018647619 0.54451054 1.9580001
0.048483811 0.54824001 1.9580001
0.054699685 0.54326731 1.9580001
0.065266669 0.54078096 1.9580001
0.070860952 0.54078096 1.9580001
-0.035430476 0.55383432 1.9580001
-0.029836191 0.55383432 1.9580001
-0.013053333 0.55383432 1.9580001
-0.0055942857 0.55196953 1.9580001
0.04661905 0.55756384 1.9580001
0.053705145 0.55644494 1.9579999
0.048483811 0.56315809 1.9580001
0.055196952 0.56539577 1.9579999
-0.022377143 0.5743466 1.9580001
0.046992004 0.57360071 1.9579999
0.059672382 0.57061714 1.9580001
0.065888256 0.57186031 1.9580001
0.075522862 0.575279 1.9580001
-0.024241906 0.58553529 1.9580001
0.047240634 0.58304888 1.9580001
0.083914287 0.5836705 1.9580001
-0.026106667 0.59299433 1.9580001
-0.026106667 0.60791242 1.9580001
-0.0074590477 0.60045338 1.9580001
-0.035430476 0.61537147 1.9580001
-0.025174286 0.61350667 1.9580001
-0.017404445 0.61412829 1.9580001
0.048483811 0.61537147 1.9580001
0.05594286 0.61723626 1.9580001
0.064645082 0.61537147 1.9580001
0.075336382 0.61686331 1.9579999
0.083914287 0.61723626 1.9580001
-0.037295241 0.62283051 1.9580001
0.05594286 0.62283051 1.9580001
0.076455243 0.62283051 1.9580001
0.085779056 0.62283051 1.9580001
0.095102862 0.62283051 1.9580001
0.016782857 0.6377486 1.9580001
0.016782857 0.64147812 1.9580001
0.078320004 0.64520764 1.9580001
0.11934476 0.69369143 1.9580001
0.24753144 0.031879049 1.9690001
0.25597 0.035629526 1.9690001
0.26378348 0.036254603 1.9690002
0.013126668 0.42755431 1.9690001
-0.0037504763 0.43505526 1.9690001
0.015001905 0.44380638 1.9690002
0.016877143 0.4613086 1.9690001
0.024378097 0.46505907 1.9690001
0.016877143 0.47631049 1.9690001
0.024378095 0.47443527 1.9690001
0.016877143 0.48381147 1.969
0.023753017 0.48131111 1.9690002
0.0062507936 0.49381271 1.9690002
0.011251429 0.49506289 1.9690001
0.026253335 0.49506289 1.9690001
0.03000381 0.49881336 1.9690001
0.0062507936 0.50506413 1.9690002
0.012501587 0.50506413 1.9690002
0.025003174 0.50506413 1.9690002
0.031879049 0.50256383 1.9690001
-0.015001905 0.52881718 1.9690002
-0.0065633333 0.52600431 1.9690001
0.0018752381 0.5269419 1.9690001
-0.023753017 0.53506798 1.9690002
-0.015001905 0.53256762 1.9690001
-0.0050006351 0.53381777 1.9690002
0.0012501588 0.53506798 1.9690002
0.048756193 0.53631812 1.9690001
0.055006985 0.53506798 1.9690002
-0.033754285 0.54506922 1.9690002
-0.026253335 0.54006857 1.9690001
-0.0037504763 0.54006857 1.9690001
0.0075009526 0.54569435 1.9690001
0.046505909 0.54231888 1.9690001
0.067508571 0.54006857 1.9690001
0.076884761 0.54381907 1.9690001
-0.011251429 0.55882096 1.9690001
-0.0075009526 0.55882096 1.9690001
0.0037504763 0.55319524 1.9690001
0.046880953 0.55319524 1.9690001
-0.015001905 0.56444669 1.9690001
0.045005716 0.56632191 1.9690001
-0.018752381 0.57569814 1.9690001
0.034691907 0.57663572 1.9690001
0.044068094 0.57288527 1.9690001
0.05250667 0.57757336 1.9690001
-0.022502858 0.58882481 1.9690001
0.033754285 0.58319902 1.969
0.04313048 0.58413672 1.9690001
0.05250667 0.5813238 1.9690001
0.073134288 0.5813238 1.9690001
0.082510479 0.58882481 1.9690001
-0.022502858 0.59257525 1.9690001
0.045755811 0.59482557 1.9690001
0.086260952 0.59257525 1.9690001
-0.033754285 0.60757715 1.9690002
-0.025003174 0.60507679 1.9690002
-0.013751746 0.60507685 1.969
-0.0052506672 0.60382664 1.9690001
0.0012501588 0.60132641 1.9690002
0.047818575 0.60288906 1.9690001
-0.032816667 0.61226523 1.9690001
-0.022502858 0.61132765 1.9690001
-0.015001905 0.61320287 1.9690001
0.037504762 0.61882859 1.9690001
0.045943335 0.61601573 1.9690001
0.062820479 0.61320287 1.9690001
0.075009525 0.61507809 1.9690002
0.085010797 0.61382794 1.9690002
0.090011433 0.61882859 1.9690001
-0.015001905 0.6225791 1.9690001
0.035629526 0.6225791 1.9690001
0.04313048 0.62445432 1.9690001
0.093761899 0.6225791 1.9690002
0.016877143 0.63758099 1.9690001
0.011251429 0.64320672 1.9690001
0.24438858 0.036205716 1.9800001
0.25645715 0.037714288 1.9800001
0.24797145 0.045257144 1.9800001
0.25457144 0.045257147 1.9800001
0.26400003 0.045257147 1.9800001
0.2489143 0.054685719 1.9800001
0.25394288 0.054057147 1.9800001
0.26305714 0.05374286 1.9800001
0.25457144 0.060342859 1.9800001
0.26211429 0.060342859 1.9800001
0.0018857144 0.43560001 1.9800001
0.011314286 0.4337143 1.9800001
-0.0037714287 0.44502857 1.9800001
0.005657143 0.44691432 1.9800001
0.014142858 0.44597143 1.9800001
0.015085715 0.45257145 1.9800001
0.01697143 0.46765715 1.9800001
0.024514288 0.46388572 1.9800001
0.01584 0.47444573 1.9800001
0.024514288 0.4714286 1.9800001
0.011314286 0.48274288 1.9800001
-0.0037714287 0.49405715 1.9800001
0.0028285715 0.49688575 1.9800001
0.01584 0.49632007 1.9800001
0.023885714 0.49657145 1.9800001
0.033188574 0.49556571 1.9800001
0.041485716 0.49405715 1.9800001
-0.022628572 0.50725716 1.9800001
-0.0056571434 0.50537145 1.9800001
0.0015085714 0.50461715 1.9800001
0.017348573 0.50461721 1.9800001
0.022628572 0.50348574 1.9800001
0.03394286 0.50537145 1.9800001
-0.0062857145 0.5154286 1.9800001
0.0045257146 0.51442289 1.9800001
0.013200001 0.51480001 1.9800001
0.024514286 0.51480001 1.9800001
-0.023571432 0.52328575 1.9800001
-0.015557144 0.52469999 1.9800003
-0.004714286 0.52328575 1.9800001
0.0050285715 0.52360004 1.9800001
0.0132 0.52422857 1.9800001
0.02262857 0.52422857 1.9800001
-0.024514288 0.53365719 1.9800001
0.005657143 0.53365719 1.9800001
0.011314286 0.53177142 1.9800001
0.045885716 0.53491431 1.9800001
0.052800003 0.53365719 1.9800001
0.060342859 0.53554291 1.9800001
-0.03394286 0.54434294 1.9800001
0.0075428574 0.54308575 1.9800001
0.012571429 0.5456 1.9800001
0.045257144 0.54685718 1.9800001
0.071657144 0.54308575 1.9800001
0.0037714287 0.55817145 1.9800001
0.012822857 0.55364573 1.9800001
0.045257144 0.55440003 1.9800001
-0.011314286 0.56760001 1.9800001
-0.0062857145 0.5657143 1.9800001
0 0.56194288 1.9800001
0.026400002 0.56760001 1.9800001
0.03394286 0.56797719 1.9800001
0.041485716 0.56760001 1.9800001
-0.015085715 0.57325715 1.9800001
0.026400002 0.57514286 1.9800001
0.033188574 0.57476574 1.9800001
0.041485716 0.57325715 1.9800001
0.054685719 0.57702857 1.9800001
-0.018857144 0.58645713 1.9800001
0.026400002 0.58457142 1.9800001
0.054685719 0.58457148 1.9800001
0.062228575 0.5808 1.9800001
0.0792 0.58834291 1.9800001
-0.022628572 0.59965718 1.9800001
-0.014546939 0.59588575 1.9800003
-0.0060342858 0.59663999 1.9800001
0 0.59777147 1.9800001
0.026400002 0.59211433 1.9800001
0.03394286 0.59588581 1.9800003
0.041485716 0.59400004 1.9800001
0.054057147 0.59840006 1.9800001
0.082971431 0.59588575 1.9800001
-0.024514288 0.60720003 1.9800001
-0.01697143 0.60531431 1.9800001
0.005657143 0.60531431 1.9800001
0.011314286 0.6034286 1.9800001
0.034697145 0.6049372 1.9800001
0.04274286 0.6059429 1.9800001
0.054685719 0.60531431 1.9800001
0.0616 0.6059429 1.9800001
-0.011314286 0.61474288 1.9800001
-0.005657143 0.61662859 1.9800001
0 0.61474288 1.9800001
0.036771432 0.61380005 1.9800001
0.043371428 0.61474288 1.9800001
0.054685716 0.61474282 1.9800001
0.064114287 0.61191428 1.9800001
0.075428575 0.61474288 1.9800001
0.082971431 0.61474288 1.9800001
-0.011314286 0.62417144 1.9800001
-0.005657143 0.62228572 1.9800001
0 0.62228572 1.9800001
0.01697143 0.62794286 1.9800001
0.026400002 0.62982857 1.9800001
0.033188574 0.62756568 1.9800001
0.094285719 0.62228572 1.9800001
0.0075428574 0.63737148 1.9800001
0.01584 0.63586295 1.9800001
0.0075428574 0.6411429 1.9800001
0.011314286 0.6411429 1.9800001
-0.022628572 0.72222859 1.9800001
-0.018857144 0.7241143 1.9800001
0.23904 0.03794286 1.9920001
0.23904 0.045531433 1.9920001
0.24435201 0.045531429 1.9920002
0.23904 0.055017143 1.9920001
0.24473144 0.055017143 1.9920001
0.25801143 0.056914289 1.9920001
0.26749715 0.056914289 1.9920001
0.27318859 0.056914289 1.9920001
0.23904 0.064502865 1.9920001
0.24473147 0.064502865 1.9920002
0.2536751 0.065586947 1.9920003
0.26614204 0.065586939 1.9920003
0.27318859 0.064502858 1.9920001
0.23904 0.075885713 1.9920001
0.24473147 0.075885713 1.9920002
0.25374284 0.075885721 1.9920003
0.26512575 0.076360002 1.9920003
0.27318859 0.077782862 1.9920001
0.23904 0.083474286 1.9920001
0.24536383 0.084739052 1.9920001
0.25421715 0.085371435 1.9920002
0.2656 0.085371435 1.9920002
0.27318859 0.085371435 1.9920001
0.25231999 0.091062859 1.9920001
0.2656 0.091062866 1.9920001
0.27508575 0.094857149 1.9920002
0.15936001 0.29974857 1.9920001
0.16315429 0.29974857 1.9920001
0.15936001 0.30354288 1.9920001
0.16315429 0.30354288 1.9920001
0.015651429 0.40646288 1.9920003
0.0063238093 0.4161067 1.9920001
0.015177143 0.41547433 1.9920002
0.0063238093 0.42748955 1.9920001
0.015177144 0.42496002 1.9920003
0.0063238093 0.43381333 1.9920001
0.017074287 0.43634287 1.9920001
0.0037942859 0.44393143 1.9920003
0.015936 0.44165486 1.9920002
0.022765715 0.44013715 1.9920001
0.0050590481 0.45531431 1.9920001
0.015177143 0.45759088 1.9920002
0.02428343 0.45607314 1.9920002
0.032251433 0.45721143 1.9920001
0.0075885719 0.46290287 1.9920001
0.014228571 0.46385145 1.9920001
0.024662858 0.46290287 1.9920001
0.032251433 0.4648 1.9920001
0.011382857 0.47049144 1.9920001
-0.013280001 0.49705145 1.9920001
-0.0075885719 0.49705145 1.9920001
0.024662858 0.49325716 1.9920001
-0.015177143 0.50653714 1.9920002
-0.0056914287 0.50084573 1.9920001
-0.022765715 0.51981717 1.9920001
-0.014093062 0.51656491 1.9920003
-0.0037942859 0.51602286 1.9920001
0 0.51981717 1.9920001
0.01897143 0.51792002 1.9920001
0.034622859 0.51649714 1.9920003
0.044013716 0.51754057 1.9920002
-0.026560001 0.52740574 1.9920001
-0.011382857 0.52361143 1.9920001
0 0.52361143 1.9920001
0.01897143 0.52550858 1.9920001
0.026560001 0.52550858 1.9920001
0.034148574 0.52550864 1.9920002
0.045531433 0.52550858 1.9920002
-0.026560001 0.53309715 1.9920001
0.0075885719 0.53878862 1.9920001
0.016441906 0.53625906 1.9920002
0.025042284 0.53575313 1.9920002
0.034148574 0.5349943 1.9920003
0.044582859 0.53214854 1.9920001
0.056914289 0.5349943 1.9920001
-0.034148574 0.54384762 1.9920001
0.0075885719 0.54258287 1.9920001
0.015936 0.54410058 1.9920002
0.024662858 0.54448003 1.9920001
0.034148574 0.54448003 1.9920001
0.041737143 0.54258287 1.9920001
0.068297148 0.54258287 1.9920001
0.01897143 0.55396575 1.9920001
0.024662854 0.55396575 1.9920002
0.035413336 0.55523044 1.9920001
0.041737143 0.55396575 1.9920001
-0.0037942859 0.56914288 1.9920001
0.0050590481 0.56661332 1.9920002
0.015651429 0.56582284 1.9920003
0.024283428 0.5645898 1.9920002
0.034148574 0.56471616 1.9920002
0.041737143 0.56345141 1.9920001
-0.011382857 0.57673144 1.9920001
-0.0050590481 0.57546669 1.9920001
0.0047428571 0.57388574 1.9920001
0.015177143 0.57483435 1.9920002
0.022765715 0.57483435 1.9920001
-0.013280001 0.58432001 1.9920002
-0.0075885719 0.58432007 1.9920001
0.0075885719 0.58432007 1.9920001
0.015177144 0.58432007 1.9920003
0.022765717 0.58432007 1.9920001
-0.013912383 0.59317333 1.9920001
-0.0050590481 0.59317333 1.9920001
0.0042685717 0.59522855 1.9920003
0.015177144 0.59570289 1.9920003
0.023714285 0.59665143 1.9920001
0.034148574 0.59949714 1.9920001
0.056914289 0.59949714 1.9920001
0.060708575 0.59949714 1.9920001
0.079680003 0.59570289 1.9920001
-0.077782862 0.60708576 1.9920001
-0.022765715 0.60708576 1.9920001
-0.01897143 0.60518861 1.9920001
0.0056914287 0.60329145 1.9920001
0.015936 0.60480917 1.9920002
0.024662858 0.60518861 1.9920001
0.064502858 0.60424006 1.9920001
0.091062859 0.60329145 1.9920001
0.0060708574 0.61543316 1.9920002
0.014093062 0.61467427 1.9920003
0.024662856 0.61277717 1.9920001
0.031302862 0.61562288 1.9920001
0.068297148 0.61088002 1.9920001
0.075885713 0.61467433 1.9920001
0.085371435 0.61467433 1.9920001
0.09296 0.61846858 1.9920001
-0.0056914287 0.62985146 1.9920001
0.0048783678 0.62659919 1.9920003
0.014635103 0.62497312 1.9920003
0.025042286 0.62681597 1.9920002
0.03161905 0.62352771 1.9920001
0.091062859 0.6222629 1.9920001
-0.0037942859 0.63364571 1.9920001
0.0050590481 0.63491052 1.9920001
0.011382857 0.63554287 1.9920001
0.024030477 0.63617522 1.9920001
0.034148574 0.63744003 1.9920001
0.001897143 0.64313149 1.9920001
0.024283428 0.64502859 1.9920002
0.030354287 0.6488229 1.9920001
0.026560001 0.65261716 1.9920001
0.030354287 0.65261716 1.9920001
0.0056914287 0.69625151 1.9920001
0.014418286 0.6966309 1.9920002
0.024662858 0.69814861 1.9920001
0.032251433 0.69814861 1.9920001
0.0060708574 0.70573711 1.9920002
0.015177144 0.70573717 1.9920003
0.024662858 0.70573711 1.9920002
0.033389717 0.70801371 1.9920002
0.12331429 0.70953143 1.9920001
-0.01897143 0.71712005 1.9920001
-0.0037942859 0.71712005 1.9920001
0.0030354287 0.71560228 1.9920002
0.015177143 0.7152229 1.9920002
0.024030477 0.71459055 1.9920001
0.034148574 0.7152229 1.9920002
0.041737143 0.7152229 1.9920001
-0.014702857 0.72423434 1.9920003
-0.0056914291 0.72470862 1.9920002
0.0033200001 0.72423428 1.9920003
0.01897143 0.72281146 1.9920001
0.024283428 0.72546738 1.9920002
0.032251433 0.72660571 1.9920001
-0.014228571 0.73324573 1.9920001
-0.0056914287 0.73419434 1.9920001
0 0.73229718 1.9920001
0.024662858 0.73609143 1.9920002
0.034148574 0.73609138 1.9920003
-0.29595429 0.74368 1.9920001
0.024662858 0.74368 1.9920001
0.034148574 0.74368 1.9920001
0.22891429 -0.08775048 2.003
0.23463716 -0.08775048 2.003
0.22700667 -0.017168572 2.003
0.21746857 -0.0057228571 2.003
0.22319144 -0.0057228571 2.003
0.21746857 0.0038152381 2.003
0.22223762 0.0028614285 2.003
0.22128382 0.011445715 2.003
0.22700667 0.030521905 2.003
0.23654477 0.038152382 2.003
0.23400128 0.047054607 2.003
0.22700667 0.055320952 2.003
0.23527302 0.054685082 2.003
0.23654477 0.06104381 2.003
0.22891429 0.076304764 2.003
0.23400128 0.073761277 2.003
0.25943619 0.076304764 2.003
0.27278954 0.07248953 2.003
0.24226762 0.08775048 2.003
0.24417526 0.095380962 2.003
0.25616601 0.096471027 2.003
0.26515907 0.097288579 2.003
0.27088192 0.097288579 2.003
0.24417526 0.10301143 2.003
0.25562096 0.10301143 2.003
0.26515907 0.10301143 2.003
0.25943619 0.24799049 2.003
0.26325142 0.24799049 2.003
0.26325142 0.25180572 2.003
0.16214763 0.29568097 2.003
-0.0038152381 0.41967621 2.003
0 0.41967621 2.003
-0.0038152381 0.42539907 2.003
0.0030521904 0.42501754 2.003
0.024799049 0.44638288 2.003
0.0019076191 0.45782858 2.003
0.025434921 0.45146987 2.003
0.030521905 0.45401335 2.003
0.0031793651 0.46545908 2.003
0.0076304763 0.47308955 2.003
-0.015260953 0.50361145 2.003
-0.02289143 0.51887238 2.003
-0.019076191 0.51696479 2.003
0.047054607 0.51632887 2.003
-0.026706668 0.52268761 2.003
-0.099196196 0.53794861 2.003
-0.031475715 0.53508723 2.003
0.053413335 0.53413337 2.003
-0.11064191 0.54939431 2.003
-0.041967619 0.54939431 2.003
-0.034337144 0.54303557 2.003
0.034337144 0.54748666 2.003
0.074397147 0.54748666 2.003
-0.041967619 0.55320954 2.003
