# .PCD v0.7 - Point Cloud Data file format
VERSION 0.7
FIELDS x y z
SIZE 4 4 4
TYPE F F F
COUNT 1 1 1
WIDTH 1495
HEIGHT 1
VIEWPOINT 0 0 0 1 0 0 0
POINTS 1495
DATA ascii
0.11566477 0.37378427 1.7860001
0.12450973 0.37284875 1.786
0.1360762 0.3737843 1.7860001
0.14725389 0.37372354 1.7860001
0.15606239 0.37463474 1.7860001
0.16499239 0.37591046 1.7860001
0.17009525 0.37591046 1.7860001
-0.20411427 0.3810133 1.7860001
-0.19560952 0.38101333 1.7860001
-0.11663674 0.38490123 1.7860001
-0.084197149 0.38441527 1.7860001
-0.073869936 0.38441521 1.7860001
-0.052729525 0.38101333 1.7860001
-0.045925714 0.38101333 1.7860001
-0.037420955 0.38781714 1.7860001
0.047626667 0.38101333 1.7860001
0.051028572 0.38271427 1.7860001
0.075975873 0.38441524 1.7860001
0.08164572 0.38101333 1.7860001
0.10545905 0.3818638 1.7860001
0.11906667 0.38101333 1.7860001
0.14968382 0.38101333 1.7860001
0.15648763 0.3827143 1.7860001
0.16499239 0.38101333 1.7860001
-0.11566476 0.39121905 1.7860001
-0.037420955 0.39121905 1.7860001
-0.0068038097 0.39121905 1.7860001
-0.12587048 0.60894096 1.7860001
-0.14968382 0.6191467 1.7860001
-0.13437524 0.61744577 1.7860001
0.17689906 0.61744571 1.7860001
0.18030097 0.61744571 1.7860001
-0.15308572 0.62595052 1.7860001
-0.14288001 0.62935239 1.7860001
-0.13437524 0.62254858 1.7860001
-0.12927239 0.62254858 1.7860001
0.17689906 0.62595052 1.7860001
0.18370287 0.62424952 1.7860001
-0.16329144 0.63955814 1.7860001
-0.15648763 0.63955814 1.7860001
-0.16329144 0.64466095 1.7860001
-0.1573381 0.64721239 1.7860001
-0.20241334 0.68718481 1.7860001
-0.20184636 0.69172066 1.7860001
0.21881905 0.017095238 1.7950001
0.22565715 0.017095238 1.7950001
0.23591429 0.017095238 1.7950001
0.24617143 0.017095238 1.7950001
0.25471905 0.017095238 1.7950001
0.19830477 0.023933334 1.7950001
0.20514287 0.023933334 1.7950001
0.21483016 0.023363492 1.7950001
0.22736667 0.020514287 1.7950001
0.23591429 0.020514287 1.7950001
0.24446192 0.020514287 1.7950001
0.27466348 0.026212698 1.7950001
0.20856191 0.034190476 1.7950001
0.21491157 0.034678914 1.7950001
0.26668572 0.037609525 1.7950001
0.27409366 0.034190476 1.7950001
0.28207144 0.034190476 1.7950001
0.20856191 0.041028574 1.7950001
0.21369049 0.041028574 1.7950001
0.25728336 0.044447619 1.7950001
0.2653181 0.043763809 1.7950001
0.27309644 0.044875007 1.7950001
0.28378096 0.045424491 1.7950001
0.29061905 0.047866669 1.7950001
-0.29061905 0.058123812 1.7950001
-0.28549048 0.058123812 1.7950001
0.23933335 0.054704763 1.7950001
0.24531668 0.052140478 1.7950001
0.26668572 0.051285718 1.7950001
0.27352381 0.052140478 1.7950001
-0.29361069 0.06538929 1.7950001
0.078638099 0.23933335 1.7950001
0.083766669 0.23933335 1.7950001
0.095733337 0.23933335 1.7950001
0.10599048 0.23762381 1.7950001
0.11624762 0.23705398 1.7950001
0.12650476 0.23591429 1.7950001
0.13505238 0.23591429 1.7950001
0.14274524 0.23505953 1.7950001
0.1547119 0.23420477 1.7950001
0.1641143 0.2347746 1.7950001
0.1752262 0.23505953 1.7950001
0.18462858 0.23591428 1.7950001
0.19420192 0.23796573 1.7950001
0.20172381 0.23933335 1.7950001
-0.0034190477 0.24959049 1.7950001
0.0034190479 0.24959047 1.7950001
0.013676192 0.24959047 1.7950001
0.022223812 0.24959049 1.7950001
0.046157144 0.24959049 1.7950001
0.054704767 0.24959047 1.7950001
0.066671431 0.24446192 1.7950001
0.07436429 0.24360715 1.7950001
0.19659525 0.24275239 1.7950001
0.20582667 0.24685526 1.7950001
-0.28036192 0.25984764 1.7950001
-0.2649762 0.25984764 1.7950001
-0.25642857 0.25471905 1.7950001
-0.24788097 0.25300953 1.7950001
-0.23762381 0.25300953 1.7950001
-0.21198095 0.25300953 1.7950001
-0.20514286 0.25528887 1.7950001
-0.19420192 0.25506097 1.7950001
-0.18548334 0.25557381 1.7950001
-0.17437144 0.25642857 1.7950001
-0.16479811 0.25848001 1.7950001
-0.15385714 0.25984764 1.7950001
-0.1436 0.25984764 1.7950001
-0.13448255 0.25870797 1.7950001
-0.12650476 0.25642857 1.7950001
-0.11510793 0.25870797 1.7950001
-0.10599049 0.25984764 1.7950001
-0.095733337 0.25984764 1.7950001
-0.085476197 0.25899288 1.7950001
-0.075219043 0.25984764 1.7950001
-0.06496191 0.25984764 1.7950001
-0.054704767 0.25756827 1.7950001
-0.044447619 0.25300953 1.7950001
-0.030771431 0.25642857 1.7950001
-0.011966668 0.25300953 1.7950001
-0.0068380954 0.25300953 1.7950001
0.20856191 0.25300953 1.7950001
0.21540003 0.25642857 1.7950001
-0.28207144 0.2649762 1.7950001
-0.27420762 0.26463431 1.7950001
-0.26668572 0.26326668 1.7950001
-0.099152386 0.26326668 1.7950001
-0.28309715 0.27215618 1.7950001
-0.27694288 0.27010477 1.7950001
-0.013676191 0.34874287 1.7950001
-0.10550205 0.35655782 1.7950001
-0.096417151 0.35694855 1.7950001
-0.087185718 0.35558096 1.7950001
-0.075902857 0.35694855 1.7950001
-0.06496191 0.35786033 1.7950001
-0.054704763 0.35900003 1.7950001
-0.020514287 0.35558096 1.7950001
-0.015385713 0.35558096 1.7950001
0.034190476 0.35729051 1.7950001
-0.20172381 0.36925715 1.7950001
-0.19403096 0.36840242 1.7950001
-0.18462859 0.36541077 1.7950001
-0.17665081 0.36697778 1.7950001
-0.14189048 0.36754763 1.7950001
-0.1367619 0.36754763 1.7950001
-0.12479524 0.36925715 1.7950001
-0.1145381 0.3666929 1.7950001
-0.10599048 0.36583814 1.7950001
-0.099152386 0.36925715 1.7950001
-0.087755561 0.36697778 1.7950001
-0.06496191 0.36754763 1.7950001
-0.056072384 0.36652189 1.7950001
-0.047866669 0.36583811 1.7950001
0.0359 0.36412859 1.7950001
0.043307941 0.36811748 1.7950001
0.052995242 0.36925715 1.7950001
0.06496191 0.36925715 1.7950001
0.075902864 0.36788955 1.7950001
0.082057148 0.36754763 1.7950001
0.12992382 0.36925715 1.7950001
-0.19146667 0.37609527 1.7950001
-0.18462859 0.37609521 1.7950001
-0.17573905 0.37472761 1.7950001
-0.14154857 0.37541145 1.7950001
-0.13505238 0.37609527 1.7950001
-0.12650478 0.37609524 1.7950001
-0.11624763 0.37541142 1.7950001
-0.10667429 0.37404379 1.7950001
-0.099152386 0.37267619 1.7950001
-0.06496191 0.37267619 1.7950001
-0.056414288 0.37267619 1.7950001
0.047866669 0.37267619 1.7950001
0.054704759 0.37552539 1.7950001
0.06453453 0.37566787 1.7950001
0.073509522 0.37609527 1.7950001
0.11624762 0.37951431 1.7950001
0.1282143 0.37780479 1.7950001
0.1367619 0.37951431 1.7950001
0.1436 0.37780479 1.7950001
-0.19146667 0.38293335 1.7950001
-0.18462856 0.38293335 1.7950001
-0.17779048 0.38293335 1.7950001
-0.13505238 0.38635239 1.7950001
-0.12479525 0.38635239 1.7950001
-0.082057148 0.38977143 1.7950001
-0.078638099 0.38977143 1.7950001
0.056414288 0.38635239 1.7950001
0.06453453 0.38677976 1.7950001
0.072654761 0.38549763 1.7950001
0.1145381 0.38293335 1.7950001
0.12650478 0.38293335 1.7950001
0.13505238 0.38293335 1.7950001
0.14018096 0.38293335 1.7950001
-0.12308572 0.3931905 1.7950001
-0.082057148 0.3931905 1.7950001
-0.078638099 0.3931905 1.7950001
0.066671431 0.3931905 1.7950001
0.071800001 0.3931905 1.7950001
-0.13505238 0.60859048 1.7950001
-0.12650478 0.60859048 1.7950001
-0.11966667 0.60859048 1.7950001
0.15642144 0.60517144 1.7950001
0.16274668 0.60653907 1.7950001
-0.15157779 0.61770797 1.7950001
-0.14274524 0.61713815 1.7950001
-0.13505238 0.61371905 1.7950001
0.1572762 0.61542863 1.7950001
0.16509117 0.61591703 1.7950001
0.17266192 0.61884767 1.7950001
-0.1504381 0.62739527 1.7950001
-0.1436 0.62568575 1.7950001
-0.13505238 0.62910479 1.7950001
0.15613651 0.62340641 1.7950001
0.16454169 0.62525833 1.7950001
0.17266192 0.62568575 1.7950001
0.1863381 0.62226671 1.7950001
-0.15180571 0.63662666 1.7950001
-0.14408843 0.63594288 1.7950001
-0.1367619 0.63252383 1.7950001
0.16753334 0.63252383 1.7950001
0.17266192 0.63252383 1.7950001
-0.1547119 0.64534527 1.7950001
-0.14530954 0.64278096 1.7950001
0.20960763 0.013744762 1.8040001
0.21476191 0.015462859 1.8040001
0.27833143 0.024053333 1.8040001
0.28348571 0.025771428 1.8040001
-0.37626287 0.037798095 1.8040001
0.19758095 0.03264381 1.8040001
0.20445335 0.03264381 1.8040001
0.21648 0.034361906 1.8040001
0.27833143 0.037798095 1.8040001
0.28520381 0.034934603 1.804
0.19929905 0.042952381 1.8040001
0.20445335 0.042952381 1.8040001
0.2577143 0.048106667 1.8040001
0.26286858 0.048106667 1.8040001
0.27833143 0.041234288 1.8040001
0.28520381 0.041234288 1.8040001
0.2920762 0.042952381 1.8040001
-0.29379427 0.056697145 1.8040001
-0.28434479 0.055838101 1.8040001
0.25427809 0.05154286 1.8040001
-0.29894859 0.061851431 1.8040001
0.08590477 0.23709716 1.8040003
0.096213341 0.23709716 1.8040003
0.10652191 0.23595177 1.8040003
0.11339429 0.23709716 1.8040001
0.12370286 0.23366098 1.8040003
0.13572952 0.23366097 1.8040001
0.1460381 0.23366097 1.8040001
0.15462857 0.23194286 1.8040001
0.1656244 0.23159926 1.8040001
0.17524572 0.23251557 1.8040003
0.1844089 0.23251557 1.8040003
0.1967219 0.23452002 1.8040001
0.20445335 0.23709716 1.8040001
0.0034361903 0.24740572 1.8040003
0.013744763 0.24740572 1.8040003
0.020617144 0.24740572 1.8040001
0.030925715 0.24396953 1.8040001
0.055666286 0.24603125 1.8040001
0.064428575 0.24311049 1.8040001
0.073878095 0.24053334 1.8040001
0.20617144 0.24225143 1.8040001
-0.28176764 0.2577143 1.8040001
-0.2757543 0.25685525 1.8040001
-0.26458669 0.2559962 1.8040001
-0.25427809 0.25084192 1.8040003
-0.24396951 0.25198731 1.8040003
-0.23366098 0.25084192 1.8040003
-0.22678858 0.25084192 1.8040001
-0.21819809 0.25084192 1.8040001
-0.20445335 0.25427809 1.8040001
-0.19672191 0.25170097 1.8040001
-0.18486705 0.2522164 1.8040001
-0.17524572 0.25255999 1.804
-0.16407812 0.25513715 1.8040001
-0.15462857 0.2559962 1.804
-0.14432 0.2559962 1.804
-0.13401145 0.25370541 1.804
-0.12284382 0.25513715 1.8040001
-0.11453968 0.25542352 1.8040003
-0.10652191 0.2559962 1.804
-0.095526092 0.25633982 1.8040001
-0.085904762 0.25565258 1.8040001
-0.075596191 0.2559962 1.804
-0.06528762 0.2559962 1.804
-0.055838097 0.25513715 1.8040001
-0.046388574 0.25084192 1.8040001
-0.034361903 0.25427809 1.8040003
-0.024053335 0.25427809 1.8040003
-0.013744762 0.25256002 1.8040001
-0.0068723811 0.25084192 1.8040001
0.037798095 0.25084192 1.8040001
0.041234288 0.25084192 1.8040001
0.21562095 0.25341904 1.8040001
-0.28520381 0.26115048 1.8040001
-0.27489522 0.26115048 1.8040003
-0.06528762 0.35736382 1.8040001
-0.17438668 0.36509526 1.8040001
-0.16579619 0.36681336 1.8040001
-0.15462857 0.36767235 1.8040003
-0.14775619 0.36767238 1.8040001
0.037798095 0.36423621 1.8040001
0.044670478 0.36595428 1.8040001
0.053260952 0.36767238 1.8040001
0.06528762 0.36767235 1.8040003
0.072160006 0.36767238 1.8040001
-0.1855543 0.37110859 1.8040001
-0.17352763 0.3745448 1.8040001
-0.16542804 0.37552652 1.804
-0.1541377 0.37552652 1.804
-0.14775619 0.37454477 1.8040003
-0.13057524 0.37110859 1.8040001
-0.12026667 0.37798098 1.8040001
-0.11683048 0.3728267 1.8040001
0.058415242 0.37110859 1.8040001
0.06528762 0.37110859 1.8040001
-0.17352763 0.38313526 1.8040001
-0.16444626 0.38387161 1.804
-0.15462857 0.38485336 1.804
-0.14474954 0.38528287 1.804
-0.13057524 0.38657144 1.8040001
0.058415242 0.38141716 1.8040001
0.068723813 0.38313526 1.8040001
-0.14432001 0.39172569 1.8040003
-0.13057524 0.39172572 1.8040001
-0.13572952 0.60820574 1.8040001
-0.12370286 0.60820574 1.8040003
-0.11683048 0.60820574 1.8040001
0.15233777 0.60591489 1.8040003
-0.15462857 0.6185143 1.8040001
-0.14346096 0.6167962 1.8040001
0.15376952 0.61593711 1.8040001
0.16150096 0.6167962 1.8040001
0.14775619 0.62195051 1.8040001
0.15291047 0.62195051 1.8040001
-0.15291047 0.64944005 1.8040001
-0.14775619 0.64944005 1.8040001
-0.15291047 0.6528762 1.8040001
0.21076953 0.01727619 1.8140001
0.23668382 0.013820953 1.8140001
0.24704954 0.012093334 1.8140001
0.25396001 0.013820953 1.8140001
0.29283145 0.026778096 1.8140001
0.30060571 0.027641905 1.8140001
-0.37316573 0.038007621 1.8140001
0.20385905 0.038007621 1.8140001
0.29468244 0.034058776 1.8140001
0.30406094 0.036279999 1.8140001
-0.37489337 0.043190476 1.8140001
-0.34552383 0.046300195 1.8140001
-0.33417088 0.045411706 1.8140001
-0.32577962 0.045411702 1.8140001
-0.31442669 0.048373334 1.8140001
0.29715049 0.044918101 1.8140001
0.30356735 0.043930888 1.8140001
0.31097144 0.043190479 1.8140001
-0.33417091 0.05479021 1.8140001
-0.32594416 0.054707933 1.8140001
-0.31269908 0.055283811 1.8140001
-0.30336991 0.057356954 1.8140001
-0.29542285 0.053556193 1.8140001
-0.27987429 0.057011433 1.8140001
-0.31097144 0.062194288 1.8140001
-0.30578858 0.063921906 1.8140001
0.16239619 0.22804572 1.8140001
0.18658286 0.22804572 1.8140001
0.067377143 0.23841144 1.8140001
0.076015241 0.23841144 1.8140001
0.089836195 0.2349562 1.8140001
0.10365714 0.2349562 1.8140001
0.11402286 0.2349562 1.8140001
0.12093334 0.23150097 1.8140001
0.13129905 0.2349562 1.8140001
0.14512001 0.23150097 1.8140001
0.15375811 0.23150097 1.8140001
0.17448953 0.23150097 1.8140001
0.18312763 0.23150097 1.8140001
0.19349332 0.23150097 1.8140001
0.2045501 0.23288307 1.8140001
0.21076953 0.23841144 1.8140001
-0.25568762 0.24877715 1.8140001
-0.24532191 0.24877715 1.8140001
-0.2349562 0.24877715 1.8140001
-0.22804572 0.24877715 1.8140001
-0.20040381 0.24877715 1.8140001
-0.19349335 0.24791335 1.8140001
-0.18485525 0.24877715 1.8140001
-0.17621715 0.24877715 1.8140001
-0.14512001 0.24877715 1.8140001
-0.13302666 0.24877715 1.8140001
-0.086380959 0.24877715 1.8140001
-0.010365714 0.24877715 1.8140001
-0.0051828572 0.24877715 1.8140001
0.013820953 0.24532191 1.8140001
0.025914287 0.24704954 1.8140001
0.03455238 0.24647367 1.8140001
0.044918094 0.24704953 1.8140001
0.055283815 0.24301843 1.8140001
0.062194288 0.24186668 1.8140001
0.2136489 0.24532193 1.8140001
-0.27469143 0.25568762 1.8140001
-0.26605332 0.25396001 1.8140001
-0.24532191 0.2522324 1.8140001
-0.22459048 0.2522324 1.8140001
-0.21249714 0.2522324 1.8140001
-0.20558667 0.2522324 1.8140001
-0.16585143 0.2522324 1.8140001
-0.15548573 0.2522324 1.8140001
-0.14512001 0.2522324 1.8140001
-0.13820952 0.2522324 1.8140001
-0.1261162 0.2522324 1.8140001
-0.1174781 0.2522324 1.8140001
-0.1002019 0.25396001 1.8140001
-0.09501905 0.2522324 1.8140001
-0.086380959 0.2522324 1.8140001
-0.072560005 0.2522324 1.8140001
-0.065649524 0.2522324 1.8140001
-0.055283815 0.2522324 1.8140001
-0.041462857 0.2522324 1.8140001
-0.024186669 0.2522324 1.8140001
-0.015548572 0.2522324 1.8140001
0.21768001 0.2522324 1.8140001
0.22113524 0.2522324 1.8140001
0.038007621 0.35934478 1.8140001
0.041462857 0.35934478 1.8140001
-0.1641238 0.36625525 1.8140001
-0.15721333 0.36625525 1.8140001
0.038007621 0.3628 1.8140001
0.043190479 0.3628 1.8140001
0.058739051 0.36971048 1.8140001
-0.1641238 0.37316573 1.8140001
-0.15721333 0.37316573 1.8140001
-0.19176573 0.39044192 1.8140001
-0.18312763 0.39044192 1.8140001
-0.16757905 0.39044192 1.8140001
-0.13129905 0.58566284 1.8140001
-0.12784381 0.58393526 1.8140001
-0.14166477 0.59430099 1.8140001
-0.13475427 0.59291893 1.8140001
-0.12669207 0.59314924 1.8140001
-0.13475429 0.60812193 1.8140001
-0.12784381 0.60812193 1.8140001
0.14771144 0.6055305 1.8140001
0.15375811 0.60466671 1.8140001
-0.14684764 0.61848766 1.8140001
-0.13129905 0.61157715 1.8140001
0.14684764 0.61503237 1.8140001
0.15203048 0.61676002 1.8140001
0.14684764 0.62194288 1.8140001
0.23972572 0.010422857 1.8240001
0.2432 0.012159999 1.8240001
0.29705143 0.024320001 1.8240001
0.30226287 0.024320001 1.8240001
-0.36653715 0.038217146 1.8240001
-0.33353147 0.038217146 1.824
-0.32484573 0.038217146 1.8240001
0.30400002 0.031268574 1.8240001
-0.37290668 0.047481906 1.824
-0.36479998 0.045662042 1.8240002
-0.35298744 0.044470858 1.8240001
-0.34221715 0.045165718 1.8240001
-0.32310858 0.043428574 1.8240001
-0.31665632 0.045165718 1.8240002
-0.30342099 0.047481906 1.824
-0.29531428 0.046902861 1.8240002
-0.28489143 0.046034288 1.8240001
-0.27794287 0.045165718 1.8240001
-0.37348574 0.053851433 1.8240001
-0.36579266 0.055588577 1.8240002
-0.35264 0.055588577 1.8240002
-0.34445065 0.055588569 1.8240002
-0.32426667 0.056746673 1.824
-0.31963429 0.055588573 1.824
-0.3066057 0.052982863 1.8240001
-0.29531431 0.052114289 1.8240001
-0.28489146 0.052114289 1.824
-0.27794287 0.053851433 1.8240001
0.26404575 0.052114289 1.824
0.27273142 0.055588573 1.8240001
-0.37522286 0.064274289 1.8240001
-0.36480001 0.062537149 1.8240001
-0.33283657 0.063926861 1.8240001
-0.31442288 0.064274289 1.8240001
0.038217146 0.22930287 1.8240001
0.048640002 0.22582857 1.8240001
0.054430481 0.22698666 1.824
0.075276196 0.22698666 1.824
0.083382867 0.22582859 1.824
0.12437944 0.2272183 1.8240001
0.13202286 0.22582859 1.824
0.14244571 0.22930287 1.8240001
0.15703772 0.22791314 1.8240001
0.16560763 0.22698666 1.824
0.17301942 0.22791314 1.8240001
0.18240002 0.22930287 1.8240001
0.19456001 0.22930287 1.824
0.20498288 0.22930287 1.824
0.21714287 0.22930287 1.8240001
-0.13897143 0.23277715 1.8240001
0.03705905 0.23856764 1.824
0.04466939 0.23724408 1.8240002
0.055588573 0.23798858 1.8240002
0.065142862 0.23712003 1.8240001
0.075276196 0.23740953 1.824
0.085120007 0.2345143 1.8240001
0.095542863 0.23625144 1.8240001
0.11638857 0.23277715 1.8240001
0.12681144 0.23277715 1.8240001
0.13549715 0.23277716 1.824
0.21584003 0.23581715 1.8240002
0.22235429 0.23625143 1.824
-0.25362286 0.2466743 1.8240001
-0.2466743 0.2466743 1.8240001
-0.23972572 0.2466743 1.8240001
-0.22930287 0.2466743 1.8240001
-0.20150858 0.2466743 1.8240001
-0.19456001 0.2466743 1.8240001
-0.18587428 0.2466743 1.8240001
-0.17718858 0.2466743 1.8240001
-0.14592001 0.2466743 1.8240001
-0.13549715 0.2466743 1.824
-0.013897143 0.2466743 1.824
-0.0052114287 0.2466743 1.8240001
0.0034742858 0.2466743 1.824
0.013897143 0.2466743 1.8240001
0.023451429 0.24406858 1.8240001
0.036480002 0.2432 1.8240001
0.045165718 0.2432 1.824
0.052114289 0.2432 1.8240001
0.21888001 0.24493715 1.8240001
-0.27446857 0.25362286 1.824
-0.26752001 0.25362286 1.8240001
-0.22409144 0.25014859 1.8240001
-0.21540572 0.25014859 1.824
-0.20672001 0.25014859 1.8240001
-0.17024 0.25014859 1.8240001
-0.16502857 0.25014859 1.8240001
-0.15634286 0.25014859 1.824
-0.14592001 0.25014859 1.8240001
-0.13897143 0.25014859 1.8240001
-0.1250743 0.25130668 1.824
-0.11465143 0.25246477 1.824
-0.10596572 0.25362286 1.8240001
-0.08338286 0.25014859 1.8240001
-0.062537149 0.25014859 1.8240001
-0.053851433 0.25014859 1.8240001
-0.046902858 0.25014859 1.8240001
-0.034742858 0.25362286 1.824
-0.024320001 0.25014859 1.824
-0.015634287 0.25014859 1.8240001
-0.18761143 0.39259431 1.8240001
0.1250743 0.58020574 1.8240001
-0.13376001 0.59757715 1.8240001
-0.12420572 0.59670854 1.8240001
0.14548571 0.59453714 1.8240002
0.15286858 0.59757715 1.8240001
-0.13593143 0.60496002 1.8240002
-0.12565334 0.60452574 1.8240002
0.13549715 0.60800004 1.824
0.14492735 0.60402936 1.8240002
0.15460572 0.60278857 1.8240001
-0.12333715 0.61147434 1.8240001
-0.11812572 0.61147434 1.8240001
0.12681143 0.61494857 1.8240002
0.13549715 0.61494863 1.8240002
0.14244571 0.61494857 1.824
0.12681144 0.62189716 1.8240001
0.13619201 0.6232869 1.8240001
0.14244571 0.62363434 1.8240001
-0.30026287 0.027931429 1.8330001
-0.29502571 0.027931429 1.8330001
-0.28978857 0.027931429 1.8330001
-0.37183714 0.036660001 1.8330001
-0.36310858 0.038405716 1.8330001
-0.35263431 0.034914289 1.8330001
-0.34521502 0.034477856 1.8330001
-0.33605 0.034041431 1.8330001
-0.32470286 0.036660001 1.8330001
-0.3153924 0.037241906 1.8330001
-0.30235773 0.036310859 1.8329999
-0.29328001 0.034914289 1.8330001
-0.28673357 0.035350714 1.8330001
-0.38231146 0.048880003 1.8330001
-0.37183714 0.041897144 1.8330001
-0.36310858 0.045388572 1.8330001
-0.35961714 0.045388568 1.8330001
-0.34390575 0.041897144 1.8330001
-0.31161001 0.044515714 1.8330001
-0.30462715 0.042770002 1.8330001
-0.29502571 0.041897144 1.8330001
-0.28629714 0.044690289 1.8329999
-0.38289335 0.056444764 1.8330001
-0.3753286 0.059354287 1.8330001
-0.36310858 0.055862859 1.8330001
-0.35961714 0.055862859 1.8330001
-0.34565145 0.059354287 1.8330001
-0.38405716 0.06459143 1.8330001
-0.37183714 0.062845714 1.8330001
-0.36398143 0.066337146 1.8330001
-0.3567076 0.065173335 1.8330001
-0.34565145 0.062845714 1.8330001
-0.33605003 0.068955719 1.8330001
-0.32470286 0.06459143 1.8330001
-0.31772003 0.066337146 1.8330001
0.027931429 0.22694287 1.8330001
0.034914285 0.22694285 1.8330001
0.043642856 0.22694287 1.8330001
0.069828577 0.22694287 1.8330001
0.084958099 0.22577906 1.8330001
0.11754477 0.22577906 1.8330001
0.1222 0.22345144 1.8330001
0.13732953 0.22577906 1.8330001
0.14314857 0.22694287 1.8330001
0.15478668 0.22461526 1.8330001
0.16409715 0.22345144 1.8330001
0.17457144 0.22461526 1.8330001
0.18504572 0.22694285 1.8330001
0.19464715 0.22607 1.8330001
0.20669258 0.22554632 1.8329999
0.21414097 0.22577906 1.8330001
-0.14314857 0.23392573 1.8330001
-0.13791144 0.23741715 1.8330001
-0.01222 0.23392572 1.8330001
-0.0055862861 0.23392573 1.8329999
0.0017457143 0.23741715 1.8330001
0.026534861 0.234624 1.8329999
0.033916734 0.23392572 1.8330001
0.046086859 0.23183088 1.8329999
0.055862863 0.23252916 1.8329999
0.066337146 0.23218001 1.8330001
0.074483812 0.23276192 1.8330001
0.082048573 0.23305288 1.8330001
0.093570292 0.23252916 1.8329999
0.10474285 0.23392574 1.8330001
0.11521715 0.23159809 1.8330001
0.12918286 0.2304343 1.8330001
0.13791144 0.2304343 1.8330001
0.14664 0.2304343 1.8330001
0.15013143 0.2304343 1.8330001
0.21297716 0.2304343 1.8330001
-0.26302096 0.24672763 1.8330001
-0.25487429 0.24672763 1.8330001
-0.24440001 0.24527287 1.8330001
-0.23625334 0.24672763 1.8330001
-0.22519715 0.24789144 1.8330001
-0.21646857 0.24789144 1.8330001
-0.20774001 0.24789144 1.8330001
-0.19202858 0.24440001 1.8330001
-0.18504572 0.24614573 1.8330001
-0.17369857 0.24614573 1.8330001
-0.16409715 0.24789144 1.8330001
-0.15362287 0.24789144 1.8330001
-0.14314857 0.24789144 1.8330001
-0.13616572 0.24440001 1.8330001
-0.12656429 0.24701859 1.8330001
-0.11696286 0.24789144 1.8330001
-0.085540004 0.24789144 1.8330001
-0.048880003 0.24789144 1.8330001
-0.02444 0.24789144 1.8330001
-0.013965716 0.24265431 1.8330001
-0.0052371426 0.24265429 1.8330001
0.002793143 0.24300344 1.8329999
0.013965715 0.24440001 1.8330001
0.02444 0.24090858 1.8330001
0.031422857 0.24090858 1.8330001
0.22345144 0.24614573 1.8330001
-0.27233145 0.25138286 1.8330001
-0.26709431 0.25138286 1.8330001
-0.1222 0.25138286 1.8330001
-0.11347143 0.25138286 1.8330001
-0.10474286 0.25138286 1.8330001
-0.094268583 0.25138286 1.8330001
-0.080302857 0.25312859 1.8330001
-0.075065717 0.25312859 1.8330001
-0.068082862 0.25138286 1.8330001
-0.059354287 0.25138286 1.8330001
-0.041897144 0.25138286 1.8330001
-0.034914289 0.25138286 1.8330001
0.22345144 0.25138286 1.8330001
-0.18155429 0.39453143 1.8330001
-0.17457144 0.39569521 1.8330001
-0.1222 0.58656001 1.8330001
-0.10648857 0.58656001 1.8330001
0.12801905 0.58539623 1.8330001
0.1338381 0.58539623 1.8330001
-0.12569143 0.59267002 1.8330001
-0.11521714 0.59354293 1.8329999
-0.10683771 0.5942412 1.8329999
0.12918286 0.59528863 1.8330001
0.13660215 0.5939793 1.8330001
-0.1222 0.6075086 1.8330001
-0.11565357 0.60358077 1.8330001
-0.10574041 0.6040172 1.8330001
-0.097760007 0.60401714 1.8330001
0.12918286 0.60401714 1.8330001
0.13616572 0.6040172 1.8329999
-0.14314857 0.61623716 1.8330001
-0.1222 0.611 1.8330001
-0.11870857 0.611 1.8330001
0.11870857 0.61449146 1.8330001
0.12481858 0.61361861 1.8330001
-0.14664 0.62147433 1.8330001
-0.30716667 0.028083811 1.8430001
-0.36421192 0.035982382 1.8430001
-0.35543573 0.037737619 1.8430001
-0.32471907 0.035104763 1.8430001
-0.3147727 0.036274921 1.8430001
-0.30716667 0.033349525 1.8430001
-0.29839048 0.035104763 1.8430001
-0.2808381 0.049146667 1.8430001
-0.27732763 0.049146667 1.8430001
-0.27732763 0.052657146 1.8430001
0.26328573 0.056167621 1.8430001
0.27030668 0.056167621 1.8430001
-0.37386572 0.06669905 1.8430001
-0.35280287 0.06669905 1.8430001
-0.346367 0.065528892 1.8430001
-0.35221779 0.071379684 1.8430001
-0.3352505 0.075475238 1.8430001
-0.3278785 0.072315812 1.8430001
-0.31945336 0.070209526 1.8430001
0.22350033 0.12754731 1.8430001
0.16850287 0.21764953 1.8430001
0.17376858 0.21764953 1.8430001
0.19307619 0.21764953 1.8430001
0.0035104763 0.22818096 1.8430001
0.09390524 0.22730334 1.8430001
0.11233524 0.22818096 1.8430001
0.14392953 0.22584064 1.8430001
0.15446097 0.22350033 1.8430001
0.16499239 0.22116001 1.8430001
0.17640144 0.22203763 1.8430001
0.18675734 0.22326629 1.8430001
0.19541651 0.22233017 1.8430001
0.20290554 0.22256419 1.8430001
0.21062858 0.22116001 1.8430001
-0.2439781 0.23871239 1.8430001
-0.15270571 0.23695715 1.8430001
-0.14626984 0.23754223 1.8430001
-0.1333981 0.23871239 1.8430001
-0.12637715 0.23695715 1.8430001
-0.021062858 0.23520191 1.8430001
-0.017552381 0.23520191 1.8430001
-0.0035104763 0.23520191 1.8430001
0.0028083811 0.23449981 1.8430001
0.014041905 0.23871239 1.8430001
0.021062858 0.23871239 1.8430001
0.098293334 0.23169143 1.8430001
0.10531429 0.23169143 1.8430001
0.11233524 0.23169143 1.8430001
-0.27381715 0.24748857 1.8430001
-0.26504096 0.2439781 1.8430001
-0.25626478 0.24456318 1.8430001
-0.24573334 0.24222286 1.8430001
-0.23449981 0.24362704 1.8430001
-0.2255481 0.24485572 1.8430001
-0.21413906 0.24573334 1.8430001
-0.20360763 0.24573334 1.8430001
-0.19658667 0.24573334 1.8430001
-0.18430001 0.24573334 1.8430001
-0.17552382 0.24573334 1.8430001
-0.16499239 0.24573334 1.8430001
-0.15375885 0.24432914 1.8430001
-0.14463162 0.24362704 1.8430001
-0.13515334 0.24222286 1.8430001
-0.12567505 0.24362704 1.8430001
-0.11584572 0.24690349 1.8430001
-0.10531429 0.24924381 1.8430001
-0.094782859 0.24924381 1.8430001
-0.081911117 0.24690349 1.8430001
-0.07301791 0.24783964 1.8430001
-0.064943813 0.24924383 1.8430001
-0.056167621 0.24924381 1.8430001
-0.045636192 0.24807365 1.8430001
-0.035104763 0.24924381 1.8430001
-0.023871239 0.24432914 1.8430001
0.0070209526 0.24222286 1.8430001
0.014041905 0.24222286 1.8430001
0.22818096 0.24573334 1.8430001
0.23286159 0.24456318 1.8430001
-0.27732763 0.2527543 1.8430001
-0.077230476 0.2527543 1.8430001
-0.18430001 0.40019429 1.8430001
-0.16499239 0.40019429 1.8430001
-0.15797144 0.40019429 1.8430001
-0.10461219 0.57782441 1.8430001
-0.11514362 0.58835584 1.8430001
-0.10531429 0.58566445 1.8430001
-0.094782859 0.58800477 1.8430001
0.12403683 0.58390921 1.8430001
-0.12286667 0.59327048 1.8430001
-0.10297398 0.59444064 1.8430001
-0.094782859 0.59502572 1.8430001
0.12637715 0.59502572 1.8430001
0.1333981 0.59327048 1.8430001
-0.10180382 0.60029143 1.8430001
-0.094782859 0.60029143 1.8430001
0.12549953 0.60467952 1.8430001
-0.14392953 0.61257809 1.8430001
-0.1135054 0.61316317 1.8430001
-0.10882477 0.61433333 1.8430001
0.11760096 0.61433333 1.8430001
0.12403683 0.61199301 1.8430001
-0.15270571 0.62486476 1.8430001
-0.14744 0.62135428 1.8430001
-0.3617762 0.031765714 1.853
-0.35648191 0.031765714 1.853
0.26824382 0.056472383 1.853
-0.34824634 0.071766987 1.853
-0.3255986 0.07500238 1.853
0.22236001 0.13059239 1.853
0.15882857 0.21883048 1.853
0.16412286 0.21883048 1.853
0.18353523 0.21883048 1.853
0.19530033 0.21765397 1.853
0.20235936 0.21647747 1.853
0.014118095 0.22941905 1.853
0.022941906 0.22941905 1.853
0.097061902 0.22588953 1.853
0.10588572 0.22941905 1.853
0.14824 0.22588953 1.853
0.15176953 0.22588953 1.853
0.18353525 0.22236001 1.853
-0.2647143 0.23647811 1.853
-0.24530192 0.23647811 1.853
-0.084708571 0.23471335 1.853
0.0070590479 0.23471335 1.853
0.014118095 0.23471333 1.853
0.022353651 0.23412509 1.853
-0.27177334 0.24353716 1.853
-0.26383191 0.24177238 1.853
-0.25412571 0.24089001 1.853
-0.24000762 0.24000762 1.853
-0.23471335 0.24000762 1.853
-0.22518364 0.24141943 1.853
-0.21441858 0.24265477 1.853
-0.2070654 0.24236065 1.853
-0.17294668 0.24353716 1.853
-0.16500524 0.24265477 1.853
-0.15882857 0.24177238 1.853
-0.12000381 0.24353716 1.853
-0.11412128 0.24471366 1.853
-0.1067681 0.24618429 1.853
-0.092944123 0.24589019 1.853
-0.085212789 0.24252871 1.8529999
-0.075002387 0.24441954 1.853
-0.063531429 0.24706668 1.853
-0.054707624 0.24706668 1.853
-0.046766192 0.24441953 1.853
-0.035295241 0.24565487 1.853
-0.024706667 0.24177238 1.853
0.22941905 0.25589049 1.853
0.23294859 0.25412571 1.853
-0.18000571 0.40236571 1.853
-0.1764762 0.40236571 1.853
-0.097061902 0.57884192 1.853
-0.1023562 0.58590096 1.853
-0.097061902 0.58413625 1.853
0.11529779 0.58707744 1.853
0.1208862 0.58501863 1.853
0.11647429 0.59472477 1.853
0.12176858 0.59472477 1.853
-0.1023562 0.60707814 1.853
-0.097061902 0.60707814 1.853
0.10765048 0.60354859 1.853
0.11470953 0.60354859 1.853
0.12141563 0.60425454 1.853
-0.14824 0.61766666 1.853
0.11529779 0.61178416 1.853
0.12000381 0.6123724 1.853
-0.15176953 0.62472576 1.853
-0.14824 0.62119621 1.853
0.26259428 0.056777146 1.863
0.26969144 0.060325716 1.863
0.27501428 0.060325716 1.863
0.28033715 0.060325716 1.863
-0.34598571 0.076294288 1.863
0.23065715 0.1259743 1.863
0.22533429 0.13662001 1.863
0.22533429 0.14194286 1.863
0.16323429 0.20936573 1.863
0.15968572 0.21646287 1.863
0.16323429 0.21468857 1.863
0.19517143 0.21646287 1.863
0.10468285 0.22710858 1.863
0.11178 0.22710858 1.863
0.14904 0.22356001 1.863
0.15258858 0.22356001 1.863
0.20759144 0.22001144 1.863
-0.25549716 0.2377543 1.863
-0.24130286 0.2377543 1.863
-0.23598 0.2377543 1.863
-0.22710858 0.2377543 1.863
-0.16323429 0.2377543 1.863
-0.15702429 0.23509286 1.863
-0.12065143 0.2377543 1.863
-0.11178 0.2377543 1.863
-0.10645714 0.2377543 1.863
-0.046131432 0.2377543 1.863
-0.026614286 0.2377543 1.863
-0.22001144 0.24130286 1.863
-0.21646287 0.24130286 1.863
-0.20226859 0.24485144 1.863
-0.19694573 0.24485144 1.863
-0.18097715 0.24485144 1.863
-0.17742857 0.24485144 1.863
-0.12065143 0.24130286 1.863
-0.11178 0.24130286 1.863
-0.10527428 0.2436686 1.863
-0.098177157 0.24603431 1.863
-0.074519999 0.24130286 1.863
-0.067422859 0.24485144 1.863
-0.055002861 0.24485144 1.863
-0.046131432 0.24307716 1.863
-0.035485715 0.24485144 1.863
-0.026614286 0.24130286 1.863
0.2377543 0.25372288 1.863
0.24130286 0.25372288 1.863
0.11532858 0.57841718 1.863
0.1135543 0.58492285 1.863
0.12065143 0.58196574 1.863
0.10409143 0.59852576 1.863
0.11178001 0.59615999 1.863
0.099360004 0.60680574 1.863
0.10409143 0.60444003 1.863
0.11000572 0.60325718 1.863
0.11000572 0.6103543 1.863
0.25686857 0.057081908 1.8730001
0.26043621 0.057081908 1.8730001
0.26578763 0.060649525 1.8730001
0.27470669 0.065109052 1.8730001
0.2818419 0.064217143 1.8730001
0.23546286 0.12486667 1.8730001
0.22119239 0.13913715 1.8730001
0.22119239 0.14270477 1.8730001
0.1676781 0.21405715 1.8730001
0.17430368 0.21507648 1.8730001
0.18551619 0.21762477 1.8730001
0.19384064 0.21524636 1.8730001
-0.23546286 0.22654383 1.8730001
0.099893339 0.22476001 1.8730001
0.10465016 0.22238159 1.8730001
0.15519142 0.22119239 1.8730001
-0.27292287 0.23724666 1.8730001
-0.26400381 0.23635475 1.8730001
-0.25508475 0.23546286 1.8730001
-0.24616571 0.23546286 1.8730001
-0.23635477 0.23546286 1.8730001
-0.22476001 0.23903048 1.8730001
-0.16411048 0.23546286 1.8730001
-0.11773143 0.23903048 1.8730001
-0.092758097 0.23903048 1.8730001
-0.089190483 0.23724666 1.8730001
-0.042811431 0.23903048 1.8730001
-0.035676192 0.23903048 1.8730001
-0.27559859 0.24349001 1.8730001
-0.20692191 0.2425981 1.8730001
-0.19265144 0.24616572 1.8730001
-0.1873 0.24616572 1.8730001
-0.17481335 0.2425981 1.8730001
-0.1676781 0.2425981 1.8730001
-0.11773143 0.2425981 1.8730001
-0.10346095 0.2425981 1.8730001
-0.096325718 0.2425981 1.8730001
-0.07848762 0.2425981 1.8730001
-0.062433332 0.24616572 1.8730001
-0.042811431 0.2443819 1.8730001
-0.035676192 0.2425981 1.8730001
0.23903048 0.26222003 1.8730001
0.2425981 0.26222003 1.8730001
0.10524476 0.58865714 1.8730001
0.11059619 0.58508956 1.8730001
0.097217619 0.59846812 1.8730001
0.10560153 0.59507883 1.8730001
0.097039238 0.60435468 1.8730001
0.096325718 0.6100629 1.8730001
0.25465333 0.060973335 1.883
0.26541334 0.064560004 1.8830001
0.27617335 0.068146668 1.8830001
0.28334668 0.068146668 1.8830001
-0.32495204 0.076754674 1.8830001
0.27796668 0.075319998 1.8830003
0.28334668 0.075320005 1.883
0.27856445 0.083688892 1.883
0.28334668 0.084286667 1.8830001
0.23672001 0.12912001 1.8830001
0.23313335 0.13270667 1.8830001
0.18650667 0.21878667 1.8830001
-0.24508889 0.22835112 1.883
0.1076 0.22596 1.8830001
0.11298001 0.22596 1.8830001
-0.26182666 0.23313335 1.8830001
-0.25465333 0.23313336 1.883
-0.24568668 0.23313335 1.8830001
-0.23432891 0.23432891 1.883
-0.22835112 0.23432891 1.883
-0.17502935 0.23528536 1.8830001
-0.16857333 0.23672001 1.8830001
-0.10042667 0.23672001 1.8830001
-0.095046669 0.23672001 1.8830001
-0.22237334 0.24030668 1.8830001
-0.21699333 0.24030668 1.8830001
-0.20264667 0.24389334 1.8830001
-0.19368 0.24389334 1.883
-0.18471333 0.24389334 1.8830001
-0.17574668 0.24030668 1.883
-0.16857333 0.24030668 1.8830001
-0.10222 0.24030668 1.8830001
-0.096840002 0.24030668 1.8830001
-0.071733333 0.2421 1.8830001
-0.064560004 0.24210002 1.8830003
-0.054517336 0.24174133 1.8830001
0.10401334 0.57565999 1.8830001
0.10401335 0.58642006 1.8830003
0.11238223 0.58223557 1.883
0.094448894 0.59658223 1.883
0.10042667 0.59359336 1.8830001
0.08787334 0.60256004 1.8830001
0.093253337 0.60973334 1.8830001
0.25854602 0.066139691 1.8940001
0.26516002 0.068544768 1.8940001
0.26696381 0.073956192 1.8940001
0.27273601 0.075038478 1.8940001
0.27417907 0.082975239 1.8940001
0.2453181 0.11905143 1.8940001
0.27778667 0.11544381 1.8940001
0.2813943 0.11724762 1.8940001
0.24171048 0.12626667 1.8940001
0.23690033 0.13588698 1.8940001
0.23449525 0.14069715 1.8940001
0.18398857 0.20924191 1.8940001
0.1847101 0.21429257 1.8940001
0.19120382 0.21465334 1.8940001
-0.22487493 0.23690033 1.8940001
-0.18398857 0.24171048 1.8940001
0.077563807 0.56639624 1.8940001
0.068544768 0.57541525 1.8940001
0.07720305 0.57505447 1.8940001
0.096203178 0.57601649 1.8940001
0.10221588 0.57481402 1.8940001
0.078465715 0.58353239 1.8940001
0.084779054 0.58443427 1.8940001
0.093798101 0.58443427 1.8940002
0.10552286 0.58353239 1.8940001
0.11183619 0.5808267 1.8940001
0.079367623 0.59164953 1.8940001
0.086582862 0.59525716 1.8940001
0.093798101 0.59525716 1.8940001
0.086582862 0.60608006 1.8940001
0.090190478 0.60608006 1.8940001
0.086582862 0.61329526 1.8940001
0.091393016 0.6157003 1.8940001
0.25568002 0.067093343 1.904
0.25749335 0.074346676 1.904
0.2637105 0.076678105 1.9040002
0.27200001 0.079786673 1.904
0.26547199 0.085589334 1.904
0.27472001 0.086133331 1.904
0.27744001 0.090666667 1.904
0.24661334 0.10517333 1.9039999
0.25341332 0.10562666 1.9040002
0.26837334 0.10517333 1.9039999
0.27653337 0.10789333 1.904
0.28288001 0.10698666 1.904
0.24661334 0.11424001 1.904
0.25241601 0.11460266 1.904
0.26837334 0.11605334 1.904
0.27623111 0.11605334 1.9040002
0.28288001 0.11242667 1.904
0.24661334 0.12512 1.904
0.27635202 0.12548266 1.904
0.24389334 0.13509335 1.904
0.27381337 0.13056001 1.904
0.23936 0.14144 1.904
0.24298668 0.14506668 1.9039999
0.24298668 0.15232001 1.904
0.068906672 0.54762667 1.904
0.072533339 0.54581332 1.904
0.068906672 0.55125338 1.904
0.075253338 0.55760002 1.904
0.058026668 0.56938666 1.904
0.065280005 0.56757331 1.9040002
0.075641915 0.56472385 1.9040002
0.058026668 0.57482672 1.904
0.064554676 0.57446402 1.904
0.074346676 0.57482672 1.904
0.08522667 0.57482672 1.904
0.093568005 0.57446402 1.904
0.058026668 0.58208001 1.904
0.065280005 0.58389336 1.9040002
0.072533339 0.58570671 1.904
0.08522667 0.58026671 1.904
0.090666667 0.58026671 1.904
0.083413333 0.5965867 1.904
0.083413333 0.60383999 1.904
0.25259763 0.066569045 1.9150001
-0.32281429 0.074776188 1.9150001
0.25411746 0.074168257 1.9150001
-0.32281429 0.080247626 1.9150001
-0.31551906 0.080247626 1.9150001
0.25752193 0.083895244 1.9150002
0.26262859 0.083895244 1.9150001
0.25533333 0.09483809 1.9150001
0.26627621 0.094838098 1.9150001
0.27503046 0.095567629 1.9150002
0.28086668 0.09666191 1.9150001
0.25898096 0.10213333 1.9150001
0.2644524 0.10578096 1.9150001
0.27539524 0.10395715 1.9150001
0.2826905 0.10213333 1.9150001
0.25715715 0.11672381 1.9150001
0.26554668 0.11453525 1.9150002
0.27357143 0.1130762 1.9150001
0.25387427 0.12474857 1.9150002
0.26679727 0.12297686 1.9150001
0.27357143 0.12219524 1.9150001
0.2480381 0.13313809 1.9150001
0.25168571 0.13131429 1.9150001
0.26627618 0.13313809 1.9150001
0.27539524 0.13678572 1.9150001
-0.29728097 0.14772858 1.9150001
0.24074286 0.14772858 1.9150001
0.26992381 0.14590476 1.9150001
0.27539524 0.14590478 1.9150001
-0.29728097 0.1532 1.9150001
0.27539524 0.15502381 1.9150001
0.28086668 0.15502381 1.9150001
0.27539524 0.16231905 1.9150001
0.28086668 0.16231906 1.9150001
0.25898096 0.17873333 1.9150001
0.26992381 0.17690954 1.9150001
0.27539524 0.17690954 1.9150001
0.25533333 0.1896762 1.9150001
0.27721906 0.18238096 1.9150001
0.25533333 0.19514763 1.9150001
0.27539524 0.21885715 1.9150001
0.26992381 0.22250476 1.9150001
0.27539524 0.22432858 1.9150001
-0.22980002 0.23344763 1.9150001
0.072952382 0.53984761 1.9150001
0.06638667 0.5456838 1.9150002
0.075384133 0.54471111 1.9150001
0.083895244 0.54714286 1.9150001
0.040123813 0.55443811 1.9150001
0.056173336 0.55589712 1.9150002
0.064614967 0.55495918 1.9150001
0.075384133 0.55443811 1.9150001
0.082679376 0.55322224 1.9150001
0.040123813 0.56173337 1.9150001
0.056538101 0.56538099 1.9150001
0.065657146 0.56355715 1.9150001
0.085719049 0.56720483 1.9150001
0.092406355 0.56781274 1.9150001
0.054714289 0.57267618 1.9150001
0.085719049 0.57267618 1.9150001
0.093014285 0.57267618 1.9150001
0.25300002 0.077 1.9250001
-0.34100002 0.088 1.9250001
-0.3355 0.084333338 1.9250001
-0.32450002 0.086166665 1.9250001
-0.31606668 0.0858 1.925
0.25483334 0.082500003 1.9250001
-0.33000001 0.095333338 1.9250001
-0.32449999 0.095333338 1.9250001
-0.31579167 0.094874993 1.9250001
-0.308 0.095333338 1.9250001
-0.32633334 0.10266667 1.9250001
0.26253334 0.12613334 1.925
0.2552 0.1364 1.925
0.264 0.13619049 1.9250001
0.27133334 0.13933334 1.9250001
0.24933334 0.14300001 1.9250001
0.26766667 0.14666668 1.9250001
0.27133334 0.14300001 1.9250001
0.26766667 0.154 1.9250001
0.27133334 0.154 1.9250001
0.26674998 0.16408333 1.9250001
0.27353334 0.16646667 1.925
0.26522222 0.17661111 1.9250001
0.27500001 0.17233334 1.9250001
0.25666669 0.18516667 1.9250001
0.26155555 0.18455558 1.9250001
0.25300002 0.19616668 1.9250001
0.26033333 0.19433336 1.9250001
0.25483334 0.20166667 1.9250001
0.26033333 0.20166667 1.9250001
0.26644444 0.22122224 1.9250001
0.27133334 0.22366667 1.9250001
-0.23100001 0.23100001 1.9250001
-0.22611111 0.23344445 1.9250001
0.264 0.23466668 1.9250001
0.27500001 0.23100001 1.9250001
-0.31900001 0.26583332 1.9250001
0.066 0.53900003 1.9250001
0.058666669 0.54449999 1.9250001
0.065083332 0.54358333 1.9250001
0.040333334 0.55733335 1.9250001
0.055 0.55366671 1.925
0.077 0.55733335 1.9250001
0.036666669 0.56283337 1.9250001
0.044 0.56283337 1.9250001
0.051333334 0.56650001 1.9250001
0.051333334 0.57200003 1.9250001
-0.33465144 0.087580957 1.9360001
-0.31344762 0.088502862 1.9360001
-0.30976 0.088502862 1.9360001
-0.33434415 0.09833651 1.9360002
-0.31344762 0.099565715 1.9360001
-0.30976 0.095878094 1.9360001
-0.33188573 0.10325333 1.9360001
-0.32266667 0.10325333 1.9360001
-0.31529143 0.10325333 1.9360001
-0.30976 0.10325333 1.9360001
-0.33372954 0.1143162 1.9360001
-0.32819811 0.1143162 1.9360001
0.25813335 0.14566095 1.9360001
0.26477107 0.14529219 1.9360001
0.25813335 0.15119238 1.9360001
0.26366481 0.15488 1.936
0.26329604 0.16668038 1.9360001
-0.32819811 0.17700572 1.9360001
0.25813335 0.17700572 1.9360001
0.26366478 0.1733181 1.9360001
-0.32696891 0.18315177 1.9360002
-0.31344762 0.18253715 1.9360001
-0.30754742 0.18364343 1.9360001
0.25628954 0.18253715 1.9360001
0.2673524 0.18806858 1.9360001
0.27472764 0.18622477 1.9360001
0.25444573 0.1917562 1.9360001
0.26550859 0.19544381 1.9360002
0.27472764 0.19360001 1.9360001
0.25813335 0.20650667 1.9360001
0.2642794 0.20527746 1.9360002
0.25813335 0.21019429 1.9360001
0.26504767 0.21434289 1.936
0.27509642 0.21461944 1.9360001
0.28025907 0.21388191 1.9360002
0.2642794 0.226174 1.936
-0.22494477 0.23232001 1.9360001
0.26550862 0.23600766 1.936
0.27472764 0.23785144 1.9360001
0.28025907 0.23785144 1.9360001
-0.20650667 0.24707049 1.9360001
0.25444573 0.24522668 1.9360001
0.26477107 0.24485794 1.9360001
-0.31713524 0.26550859 1.9360001
0.062689528 0.53839242 1.9360001
0.056543496 0.54576766 1.9360002
0.062689528 0.54208004 1.9360001
0.044251431 0.55683053 1.9360001
0.051626667 0.55683053 1.9360001
0.047017146 0.5632838 1.9360001
-0.34304285 0.094568573 1.9470001
-0.33562571 0.092714287 1.9470001
-0.34118858 0.10384 1.9470001
-0.33469862 0.10662143 1.9470001
-0.32450002 0.10754857 1.9470001
-0.31708288 0.10754857 1.9470001
-0.34118858 0.11311144 1.9470001
-0.33377147 0.11496571 1.9470001
-0.32449999 0.11496571 1.9470001
-0.31745374 0.114224 1.9470001
-0.32264572 0.12980001 1.9470001
-0.33006287 0.13350858 1.9470001
-0.32264572 0.13350858 1.9470001
-0.30781144 0.14834286 1.9470001
0.25589144 0.14648858 1.9470001
-0.31152001 0.15205143 1.9470001
-0.30781144 0.15205143 1.9470001
0.25836384 0.15576001 1.9470001
-0.31337428 0.16688572 1.9470001
-0.30595714 0.16688572 1.9470001
0.25960001 0.16317715 1.9470001
-0.33006287 0.17430286 1.9470001
-0.3263543 0.17615715 1.9470001
-0.31522858 0.17430286 1.9470003
-0.30657527 0.17306668 1.9470001
0.25960001 0.17430286 1.9470001
-0.33377144 0.18172 1.9470001
-0.32412916 0.18542857 1.9470001
-0.31671202 0.18691202 1.9470001
0.25589144 0.18913715 1.9470001
0.27072573 0.18542857 1.9470001
0.27072573 0.1947 1.9470001
0.27443433 0.20397143 1.9470003
0.28185144 0.20768 1.9470001
0.25836384 0.21756953 1.9470001
0.27258003 0.21138857 1.9470001
0.25774574 0.22622287 1.9470001
-0.22251429 0.2354943 1.9470001
0.25774574 0.2354943 1.9470001
-0.20026286 0.2484743 1.9470001
-0.19655429 0.2484743 1.9470001
0.25960001 0.24476571 1.9470001
0.2744343 0.24600191 1.9470001
0.26516289 0.25218287 1.9470001
0.27072573 0.25218287 1.9470001
-0.31337428 0.26701716 1.9470001
-0.30781144 0.26701716 1.9470001
-0.31522858 0.27072573 1.9470001
-0.30781144 0.27258003 1.9470001
0.012980001 0.51920003 1.9470001
0.0055628577 0.52290857 1.9470001
0.013598097 0.52414477 1.9470001
-0.0037085717 0.53774285 1.9470001
0.053774286 0.5470143 1.9470001
0.045430001 0.55721289 1.9470001
0.05192 0.55443144 1.9470001
0.087151431 0.56741142 1.9470001
0.092714287 0.56741142 1.9470001
0.087151431 0.57112002 1.9470001
0.092714287 0.57112002 1.9470001
0.0055628577 0.60820574 1.9470001
0.0055628577 0.61191434 1.9470001
0.0037085717 0.63231146 1.9470001
-0.33565715 0.12493905 1.9580001
-0.32446858 0.12493905 1.9580001
-0.31576636 0.12556064 1.9580001
-0.33379239 0.13333048 1.9580001
-0.32446858 0.13479565 1.9580001
-0.31514478 0.1323981 1.9580001
-0.33192763 0.14358667 1.9580001
-0.32446858 0.1417219 1.9580001
-0.31452319 0.14793777 1.9580001
-0.30768573 0.14545143 1.9580001
0.25360763 0.14918096 1.9580001
-0.31514478 0.15477525 1.9580001
-0.30955049 0.15664001 1.9580001
0.2548508 0.15539683 1.9580001
-0.33612335 0.16456525 1.9580001
-0.32393578 0.16516462 1.9580001
-0.31576636 0.16285588 1.9580001
-0.30768573 0.16409905 1.9580001
0.25733715 0.16409905 1.9580001
0.26106668 0.16782857 1.9580001
-0.33565715 0.17435524 1.9580001
-0.32540098 0.17435524 1.9580001
-0.30706415 0.17653079 1.9580001
0.25733715 0.17901716 1.9580001
0.26106668 0.1715581 1.9580001
-0.33565715 0.1864762 1.9580001
0.25733715 0.18274668 1.9580001
-0.33565715 0.19020572 1.9580001
-0.32446858 0.19580001 1.9580001
-0.32571176 0.20761018 1.9580001
-0.33192763 0.21258287 1.9580001
-0.32819811 0.21444763 1.9580001
-0.22283906 0.23402762 1.9580001
-0.21631239 0.23868953 1.9580001
-0.22283906 0.24428381 1.9580001
-0.21444763 0.24614857 1.9580001
-0.20325905 0.24801335 1.9580001
-0.19766477 0.24428383 1.9580001
0.27784953 0.24987811 1.9580001
-0.32073906 0.25547239 1.9580001
-0.31514478 0.25547239 1.9580001
-0.30955049 0.25547239 1.9580001
0.2638638 0.25640476 1.9580001
0.27673069 0.25584534 1.9579999
-0.32073906 0.26106668 1.9580001
-0.31576636 0.26355302 1.9580001
-0.30955049 0.2647962 1.9580001
0.26572859 0.26199907 1.9580001
0.27449298 0.2647962 1.9579999
-0.31514478 0.27784953 1.9580001
0.26852572 0.27784953 1.9580001
0.27598476 0.27822247 1.9579999
0.28344381 0.27784953 1.9580001
-0.31514478 0.28344381 1.9580001
0.27523884 0.28493562 1.9579999
0.28344381 0.28344381 1.9580001
0.0044754287 0.51691198 1.9579999
0.013053333 0.5165391 1.9580001
-0.012431745 0.52834922 1.9580001
-0.0052213334 0.52660877 1.9579999
0.0031967347 0.52586287 1.9580001
0.011188572 0.52959239 1.9580001
-0.013053333 0.53518665 1.9580001
-0.0055942857 0.53518665 1.9580001
0.0037295239 0.53518671 1.9580001
0.011188572 0.53518665 1.9580001
-0.014172192 0.54227275 1.9579999
-0.0055942857 0.54451048 1.9580001
0.0026639455 0.54397774 1.9580001
0.044754289 0.54824001 1.9580001
0.05594286 0.54575366 1.9580001
0 0.55196953 1.9580001
0.04661905 0.55383432 1.9580001
0.0074590477 0.60791242 1.9580001
0.011188572 0.60791242 1.9580001
0.011188572 0.61164194 1.9580001
0.0018647619 0.62656003 1.9580001
0 0.63588381 1.9580001
-0.31691527 0.13876763 1.9690001
-0.33254221 0.14501841 1.9690002
-0.32379112 0.14501841 1.9690002
-0.31754032 0.14376827 1.9690002
-0.34129333 0.15376952 1.9690002
-0.33379236 0.15376952 1.9690001
-0.32441622 0.15376952 1.969
-0.3187905 0.15752001 1.9690001
-0.33191717 0.16127048 1.9690001
-0.32629144 0.16127048 1.9690001
-0.31316477 0.16127048 1.9690001
-0.33754286 0.1725219 1.9690001
-0.34129333 0.18564858 1.9690001
-0.33379239 0.19314954 1.9690001
-0.31579012 0.19652495 1.9690001
-0.33254221 0.20377588 1.9690002
-0.32441622 0.20440096 1.9690001
-0.31579012 0.20402591 1.9690001
-0.30753905 0.20252572 1.9690001
-0.33379239 0.21752763 1.9690001
-0.32535383 0.21377715 1.9690001
-0.31450421 0.21377715 1.969
-0.30303848 0.21602745 1.9690001
-0.33129206 0.22252826 1.9690002
-0.32441622 0.2212781 1.9690001
-0.31128955 0.22315334 1.9690001
-0.32441622 0.23440477 1.9690001
-0.31754035 0.23377968 1.9690002
-0.2212781 0.23252954 1.9690001
-0.21752763 0.23440477 1.9690001
-0.32254097 0.24378097 1.9690001
-0.31691527 0.24378097 1.9690001
-0.22690383 0.24753144 1.9690001
-0.21252699 0.24440604 1.969
-0.20440096 0.24378097 1.9690001
-0.19502477 0.24503112 1.9690002
-0.32254097 0.25128192 1.9690001
-0.31691527 0.25128192 1.9690001
-0.19502477 0.25128192 1.9690001
-0.31316477 0.26253334 1.9690001
0.27753526 0.26253334 1.9690001
-0.32441622 0.27753526 1.9690001
0.27659765 0.27378476 1.9690001
0.28128573 0.27190953 1.9690001
-0.32379115 0.28253588 1.9690002
-0.011251429 0.51756573 1.9690001
-0.0060007619 0.51456535 1.9690001
0.0025003175 0.51506543 1.9690002
0.011251429 0.51381528 1.9690001
-0.025003174 0.52631682 1.9690002
-0.015751999 0.52656686 1.9690001
-0.0062507936 0.52256638 1.9690002
-0.024378097 0.53256762 1.9690001
-0.018752381 0.5344429 1.9690001
-0.026253335 0.54381907 1.9690001
-0.018752381 0.54381907 1.9690001
0.05250667 0.54756957 1.9690001
-0.012501587 0.55257016 1.9690002
-0.0062507936 0.55382031 1.9690002
0.048756193 0.55132002 1.9690001
-0.018752381 0.57382286 1.9690001
0.0037504763 0.62632954 1.9690001
-0.0037504763 0.63758099 1.9690001
0.0018752381 0.63383049 1.9690001
-0.0037504763 0.64133143 1.9690001
-0.33565715 0.19988573 1.9800001
-0.31302857 0.19988573 1.9800001
-0.30925715 0.19988573 1.9800001
-0.31302857 0.20742857 1.9800001
-0.30737144 0.20742857 1.9800001
-0.32245716 0.21685715 1.9800001
-0.3168 0.21497144 1.9800001
-0.308 0.21245717 1.9800001
-0.32340002 0.22534287 1.9800001
-0.3168 0.22440001 1.9800001
-0.30548573 0.2244 1.9800001
-0.32434288 0.23005717 1.9800001
-0.31453714 0.23382857 1.9800001
-0.30737144 0.23382856 1.9800001
-0.21308573 0.23760001 1.9800001
-0.20554286 0.23760001 1.9800001
-0.19988573 0.23760001 1.9800001
-0.32528573 0.24420001 1.9800001
-0.31428573 0.24388571 1.9800001
-0.30925715 0.24325715 1.9800001
-0.22251429 0.2489143 1.9800001
-0.20742857 0.24137144 1.9800001
-0.19422857 0.24325715 1.9800001
-0.18857144 0.24325715 1.9800001
0.28537142 0.26525715 1.9800001
0.28662857 0.27154288 1.9800001
-0.005657143 0.50914288 1.9800001
0.0018857144 0.50914288 1.9800001
-0.023885718 0.5154286 1.9800001
