# .PCD v0.7 - Point Cloud Data file format
VERSION 0.7
FIELDS x y z
SIZE 4 4 4
TYPE F F F
COUNT 1 1 1
WIDTH 1483
HEIGHT 1
VIEWPOINT 0 0 0 1 0 0 0
POINTS 1483
DATA ascii
0.12330667 0.23573335 1.904
0.13418667 0.23936002 1.9039999
0.14597334 0.23845333 1.904
0.15594667 0.23573335 1.904
0.16440889 0.23331557 1.9039999
0.17287111 0.23331557 1.9039999
0.18496001 0.23573335 1.9039999
0.19674668 0.23754668 1.904
0.20430224 0.23694223 1.9039999
0.21487999 0.23392001 1.904
0.22485334 0.23210667 1.9039999
0.25477335 0.23301335 1.904
0.26565334 0.23664001 1.904
0.27562669 0.23754667 1.9040002
0.28469336 0.23936 1.904
0.29376 0.23936 1.904
0.30101335 0.23936 1.904
0.27925333 0.24298668 1.904
0.28469336 0.24298668 1.904
0.29376 0.24480002 1.9040002
0.29738668 0.25024 1.904
0.3039147 0.25314134 1.904
0.30826667 0.26112002 1.904
0.18677333 0.34816 1.904
0.18586667 0.35632002 1.904
0.19221334 0.35904002 1.904
0.18858667 0.36448002 1.904
0.19402668 0.36266667 1.904
0.054400001 0.53674668 1.904
0.063466668 0.53674668 1.904
0.056213334 0.54218668 1.904
0.062862225 0.54399997 1.9039999
0.058026668 0.55125338 1.904
0.065280005 0.55487996 1.9040002
0.077973336 0.55850667 1.904
0.067456007 0.56503469 1.904
0.077973343 0.56394672 1.904
0.058026668 0.57664001 1.904
0.064071111 0.57543117 1.9039999
0.08704 0.57664001 1.904
0.091875553 0.57422227 1.9039999
0.079786673 0.58026671 1.904
0.08522667 0.58208001 1.904
0.090666667 0.58208001 1.904
0.067093343 0.59477335 1.904
0.072533339 0.59477335 1.904
0.085226662 0.59477335 1.9040002
0.092480004 0.59477335 1.904
0.086133331 0.60656005 1.904
0.091573328 0.60656005 1.904
0.079786673 0.61290669 1.904
0.08522667 0.61290669 1.904
0.15684763 0.22980002 1.9150001
0.16414286 0.22980003 1.9150001
0.17508572 0.22980003 1.9150001
0.18602857 0.22980002 1.9150001
0.19332382 0.22980002 1.9150001
0.20791429 0.22980002 1.9150001
0.21703334 0.22980002 1.9150001
0.22615238 0.22980003 1.9150001
0.23709525 0.22615239 1.9150001
0.2462143 0.22980002 1.9150001
0.25533333 0.22980002 1.9150001
0.067480952 0.23709525 1.9150001
0.087542862 0.23344763 1.9150001
0.094838098 0.23344763 1.9150001
0.10578096 0.23344763 1.9150001
0.11490001 0.23344763 1.9150001
0.12401905 0.2346635 1.9150001
0.1349619 0.23709525 1.9150001
0.14590478 0.23587938 1.9150001
0.15502381 0.23344763 1.9150001
0.17873333 0.23344763 1.9150001
0.18602858 0.23344763 1.9150001
0.19575556 0.2346635 1.9150001
0.20426667 0.23344763 1.9150001
0.21156192 0.23344763 1.9150001
0.26627621 0.23344763 1.9150001
0.27539524 0.23344763 1.9150001
0.28451431 0.23587938 1.9150001
0.29545715 0.23709525 1.9150001
0.29545715 0.24074286 1.9150001
0.30457622 0.2462143 1.9150001
0.18785238 0.34652382 1.9150001
0.19514763 0.34469998 1.9150001
0.1896762 0.35564286 1.9150001
0.19478288 0.35381904 1.9150002
0.20426667 0.35017145 1.9150001
0.19697143 0.36111429 1.9150001
0.20478776 0.36580405 1.9150001
0.21468845 0.36580411 1.9150001
0.20791429 0.37205717 1.9150001
0.21156192 0.37205717 1.9150001
0.058361907 0.53984761 1.9150001
0.067480952 0.54531908 1.9150001
0.072952382 0.54531908 1.9150001
0.054714289 0.55495918 1.9150001
0.065657146 0.55079049 1.9150001
0.072952382 0.55079049 1.9150001
0.056538101 0.56538099 1.9150001
0.062009525 0.56720483 1.9150001
0.056173336 0.57559431 1.9150002
0.06474524 0.57541192 1.9150001
0.075140953 0.57705331 1.9150002
0.082679369 0.57693177 1.9150001
0.056538098 0.58361906 1.9150001
0.066386662 0.58507812 1.9150002
0.074776188 0.5854429 1.9150001
0.080247626 0.58726668 1.9150001
0.065657146 0.59273809 1.9150001
0.075140953 0.59383243 1.9150002
0.080247626 0.59456199 1.9150001
0.074776188 0.60185719 1.9150001
0.082071431 0.60641664 1.9150001
0.080247626 0.6128 1.9150001
0.16500001 0.22733335 1.9250001
0.17416668 0.22733334 1.9250001
0.21633334 0.22733334 1.9250001
0.22000001 0.22733334 1.9250001
0.23650001 0.2255 1.9250001
0.24475001 0.22641668 1.9250001
0.25483334 0.22733334 1.9250001
0.26216668 0.22733334 1.9250001
0.27683336 0.22733334 1.9250001
0.073333338 0.23466668 1.9250001
0.095333338 0.23466668 1.9250001
0.1045 0.23100001 1.9250001
0.11366668 0.23100001 1.9250001
0.12466667 0.23222224 1.9250001
0.13566667 0.23466666 1.9250001
0.14544445 0.23344445 1.9250001
0.15216666 0.23100001 1.9250001
0.19800001 0.23100001 1.9250001
0.2035 0.23100001 1.9250001
0.21266668 0.23100001 1.9250001
0.25666669 0.23100001 1.9250001
0.26583332 0.23100001 1.9250001
0.27500001 0.23100001 1.9250001
0.28600001 0.23344445 1.9250001
0.29516667 0.23466668 1.9250001
0.19800001 0.35566667 1.9250001
0.20533334 0.35612497 1.9250001
0.21266668 0.35566664 1.9250001
0.2035 0.36300001 1.9250001
0.21633334 0.36300001 1.9250001
0.22000001 0.36300001 1.9250001
0.086166665 0.57566667 1.9250001
0.058666669 0.59216666 1.9250001
0.062333334 0.59033334 1.9250001
0.077 0.60866672 1.9250001
0.080666669 0.60866672 1.9250001
-0.33741716 0.047939051 1.9360001
-0.33741716 0.051626667 1.9360001
0.26366478 0.21756953 1.9360001
0.11062858 0.22863239 1.9360001
0.15856762 0.22863239 1.9360001
0.18069334 0.22863239 1.9360001
0.19544381 0.22863239 1.9360002
0.20466286 0.22863239 1.9360001
0.2120381 0.22863239 1.9360001
0.22678858 0.22863239 1.9360001
0.23232001 0.22863239 1.9360001
0.24707049 0.22494477 1.9360001
0.25518328 0.22346973 1.9360001
0.26603541 0.22389118 1.936
0.27472764 0.22494477 1.9360001
0.28468418 0.22641984 1.9360001
0.081127621 0.23600763 1.9360001
0.12906668 0.23232001 1.9360001
0.13459811 0.23232001 1.9360001
0.14197335 0.23232001 1.9360001
0.18806858 0.23232001 1.9360001
0.28763428 0.23232001 1.9360001
0.29316571 0.23232001 1.9360001
-0.14012954 0.25813335 1.9360001
-0.13459811 0.25813335 1.9360001
-0.12722287 0.25813335 1.9360001
0.051626667 0.57526857 1.9360002
0.051626667 0.58264381 1.9360001
-0.34118858 0.011125715 1.9470001
-0.33271188 0.01430449 1.9470003
-0.3263543 0.014834288 1.9470001
-0.34118858 0.044502858 1.9470001
-0.33377144 0.045120955 1.9470001
-0.33191717 0.05192 1.9470001
0.2484743 0.21880572 1.9470001
0.25681859 0.21787858 1.9470001
0.26516289 0.21509714 1.9470001
0.27258003 0.21880572 1.9470001
0.11682001 0.22993144 1.9470001
0.12609144 0.22993144 1.9470001
0.14648858 0.22993144 1.9470001
0.15390572 0.22993144 1.9470001
0.18542857 0.22869526 1.9470001
0.21509714 0.22622287 1.9470001
0.22622287 0.22622287 1.9470001
0.2354943 0.22622287 1.9470001
0.24476571 0.22251429 1.9470001
0.25218287 0.22251429 1.9470001
0.2744343 0.22251429 1.9470001
0.28370571 0.22251429 1.9470001
0.29483145 0.22993144 1.9470001
0.077880003 0.23734859 1.9470001
0.085297145 0.23734859 1.9470001
0.10013143 0.23364002 1.9470001
-0.14463429 0.25960001 1.9470001
0.073429719 0.6163646 1.9470001
-0.35057524 0 1.9580001
-0.34311619 0.0055942857 1.9580001
-0.33519095 0.0041957144 1.9580001
-0.32819811 0.0074590477 1.9580001
0.25733715 0.0037295239 1.9580001
0.26106668 0.0037295239 1.9580001
-0.34684572 0.011188572 1.9580001
-0.33938667 0.016782857 1.9580001
-0.32260382 0.014918096 1.9580001
-0.34311619 0.029836191 1.9580001
-0.33416533 0.027598476 1.9579999
-0.32509017 0.026728256 1.9580001
-0.34311619 0.035430476 1.9580001
-0.33565715 0.035430476 1.9580001
-0.32633334 0.033565715 1.9580001
-0.34560254 0.042267937 1.9580001
-0.33379239 0.041024763 1.9580001
-0.32540095 0.047551431 1.9580001
-0.32633334 0.052213334 1.9580001
0.24987811 0.21631239 1.9580001
0.25547239 0.21631239 1.9580001
0.12680382 0.22750096 1.9580001
0.13612762 0.22750096 1.9580001
0.14545143 0.22750096 1.9580001
0.15477525 0.22750096 1.9580001
0.16409905 0.22750096 1.9580001
0.17528762 0.22750096 1.9580001
0.1864762 0.22750096 1.9580001
0.19580001 0.22750096 1.9580001
0.20885333 0.22750096 1.9580001
0.23868953 0.22377144 1.9580001
0.24428383 0.22004192 1.9580001
0.070860952 0.23868953 1.9580001
0.089508578 0.23496 1.9580001
0.095102862 0.23496 1.9580001
0.10629143 0.23123048 1.9580001
0.12307429 0.23123048 1.9580001
0.13426286 0.23123048 1.9580001
0.1417219 0.23123048 1.9580001
-0.14358667 0.25733715 1.9580001
-0.13426286 0.25733715 1.9580001
-0.12493905 0.25733715 1.9580001
-0.11934476 0.25733715 1.9580001
-0.36754668 -0.12376572 1.9690001
-0.36004573 -0.093761906 1.9690001
-0.35629526 -0.093761906 1.9690001
-0.34379363 -0.031253967 1.9690002
-0.33379239 -0.03000381 1.9690001
-0.35379493 -0.023753017 1.9690002
-0.34429371 -0.024003047 1.9690001
-0.33566764 -0.024378097 1.9690001
-0.35442001 -0.016877143 1.9690001
-0.34397224 -0.015537687 1.969
-0.33486396 -0.014466123 1.969
-0.35442001 -0.0037504763 1.9690001
-0.34504381 -0.0056257141 1.969
-0.33379242 -0.0056257141 1.969
-0.35479504 0.0045005716 1.9690001
-0.346544 0.0022502858 1.9690001
-0.33004192 0.0018752381 1.9690001
-0.32479125 0.0045005716 1.9690001
-0.3187905 0.0075009526 1.9690001
0.25878286 0.0075009526 1.9690001
-0.35254478 0.015001905 1.9690001
-0.34691906 0.016877143 1.9690001
-0.31503999 0.015001904 1.9690001
0.25878286 0.015001905 1.9690002
0.26253334 0.015001905 1.9690001
-0.35254478 0.024378097 1.9690001
-0.34504381 0.024378097 1.969
-0.33504257 0.025003174 1.9690002
-0.32254097 0.024378097 1.9690001
-0.31504002 0.024378097 1.969
-0.35254478 0.033754285 1.9690002
-0.34879431 0.033754285 1.9690002
-0.33004192 0.037504762 1.9690001
-0.32379112 0.036254603 1.9690002
-0.31550884 0.033285476 1.969
-0.3000381 0.035629526 1.9690001
-0.29628763 0.033754285 1.9690001
-0.35254478 0.041255239 1.9690001
-0.33004192 0.041255239 1.9690001
-0.32441622 0.043130476 1.9690001
-0.3187905 0.04313048 1.9690001
-0.3000381 0.045005713 1.9690002
-0.29478744 0.044255622 1.9690001
-0.28691143 0.041255239 1.9690001
0.24565619 0.21752763 1.9690001
0.25315714 0.21377715 1.9690001
0.11626477 0.22877906 1.9690001
0.12189049 0.22877906 1.9690001
0.13314191 0.22690383 1.9690001
0.18377334 0.22502857 1.9690001
0.19127429 0.22877906 1.9690001
0.20440096 0.22877906 1.9690001
0.22877906 0.22502857 1.9690001
0.23440477 0.22502857 1.9690001
0.086260952 0.23628001 1.9690001
-0.13501714 0.25878286 1.9690001
-0.12001524 0.25503239 1.9690001
-0.11438952 0.25503239 1.9690001
-0.076884761 0.25128192 1.9690001
-0.067508571 0.25878286 1.9690001
-0.073134288 0.26253334 1.9690001
-0.36960003 -0.12068572 1.9800001
-0.36475104 -0.10613878 1.9800003
-0.3545143 -0.10506123 1.9800003
-0.34697145 -0.10182858 1.9800001
-0.36394286 -0.095228568 1.9800001
-0.3545143 -0.094824493 1.9800003
-0.34602863 -0.094285712 1.9800001
-0.3633143 -0.085485719 1.9800001
-0.35526857 -0.085234284 1.9800001
-0.34571433 -0.084228575 1.9800001
-0.33942857 -0.082971431 1.9800001
-0.36457142 -0.074800007 1.9800001
-0.35545713 -0.078257143 1.9800001
-0.34508574 -0.0792 1.9800001
-0.33942857 -0.075428575 1.9800001
-0.36205712 -0.064114295 1.9800001
-0.35526857 -0.061851431 1.9800001
-0.34508574 -0.06411428 1.9800001
-0.33565718 -0.064114295 1.9800001
-0.32528573 -0.063171431 1.9800001
-0.35376 -0.054308575 1.9800001
-0.34508574 -0.054685716 1.9800001
-0.33565715 -0.054685716 1.9800001
-0.3281143 -0.054685719 1.9800001
-0.35451427 -0.045257144 1.9800001
-0.34508574 -0.04525714 1.9800001
-0.33565718 -0.045257147 1.9800001
-0.3281143 -0.049028572 1.9800001
-0.35451427 -0.03394286 1.9800001
-0.34445715 -0.036457147 1.9800001
-0.33619595 -0.03394286 1.9800003
-0.3545143 -0.026400002 1.9800001
-0.33188573 -0.024514288 1.9800001
-0.3281143 -0.022628572 1.9800001
-0.352 -0.012571429 1.9800001
-0.33188573 -0.01697143 1.9800001
-0.3256 -0.013828571 1.9800001
-0.3545143 -0.0075428574 1.9800001
-0.32434288 -0.0056571425 1.9800001
-0.3168 -0.0037714287 1.9800001
-0.3218286 0.0012571429 1.9800001
-0.31491429 0.0037714287 1.9800001
0.25645715 0.0075428574 1.9800001
0.264 0.0075428574 1.9800001
0.2753143 0.003771429 1.9800001
-0.3545143 0.015085715 1.9800001
-0.30831429 0.016028572 1.9800001
0.25457144 0.015085715 1.9800001
0.2668286 0.015085716 1.9800001
0.27484289 0.015557143 1.9800003
0.28474286 0.01697143 1.9800001
0.29165718 0.016342858 1.9800001
-0.30737144 0.024514288 1.9800001
0.25645715 0.024514288 1.9800001
0.264 0.024137145 1.9800001
0.2753143 0.024514288 1.9800001
0.28474286 0.024514286 1.9800001
0.29165715 0.023885718 1.9800001
-0.35828575 0.03394286 1.9800001
-0.31302857 0.037714288 1.9800001
-0.30656329 0.033404086 1.9800003
-0.29511431 0.035828575 1.9800001
-0.28662857 0.037714288 1.9800001
0.26494285 0.033000004 1.9800001
0.27639186 0.033404086 1.9800003
0.28568572 0.033000004 1.9800001
0.29266286 0.035451431 1.9800001
-0.32057145 0.049028572 1.9800001
-0.31491429 0.045257147 1.9800001
-0.30737144 0.043371428 1.9800001
0.2753143 0.043371432 1.9800001
0.28662857 0.043371432 1.9800001
0.29322857 0.042428572 1.9800001
0.23382857 0.21874286 1.9800001
0.24420001 0.21591429 1.9800001
0.12822857 0.22628573 1.9800001
0.13577142 0.22628573 1.9800001
0.14520001 0.22628573 1.9800001
0.15462857 0.22628574 1.9800001
0.16782857 0.22628573 1.9800001
0.17537144 0.22628573 1.9800001
0.1848 0.22628573 1.9800001
0.1961143 0.22628574 1.9800001
0.20554286 0.22628573 1.9800001
0.21497144 0.22628574 1.9800001
0.22440001 0.22628573 1.9800001
0.23382859 0.22251429 1.9800001
0.24137144 0.22251429 1.9800001
0.0792 0.23760001 1.9800001
0.082971431 0.23760001 1.9800001
0.11314286 0.23005715 1.9800001
0.067885719 0.24137144 1.9800001
-0.086742863 0.25268573 1.9800001
-0.075428575 0.25645715 1.9800001
-0.066 0.25457144 1.9800001
-0.073542863 0.26022857 1.9800001
-0.064114287 0.26022857 1.9800001
-0.29228574 0.6336 1.9800001
-0.28662857 0.6336 1.9800001
-0.36804572 -0.12331429 1.9920001
-0.35286859 -0.12331429 1.9920001
-0.37184 -0.11572572 1.9920001
-0.36614859 -0.11382858 1.9920001
-0.35413334 -0.11382857 1.9920001
-0.34812576 -0.11288 1.9920001
-0.37373716 -0.10434286 1.9920001
-0.35666287 -0.10624 1.9920001
-0.34528002 -0.10371048 1.9920001
-0.36804572 -0.091062859 1.9920001
-0.35286859 -0.091062859 1.9920001
-0.34338289 -0.095805719 1.9920001
-0.36804572 -0.083474286 1.9920001
-0.35286859 -0.083474286 1.9920001
-0.34338289 -0.087268576 1.9920001
-0.37184 -0.075885721 1.9920001
-0.36425143 -0.073988572 1.9920001
-0.35476571 -0.073988572 1.9920001
-0.34780955 -0.074620955 1.9920001
-0.36425143 -0.068297148 1.9920001
-0.35413334 -0.067032389 1.9920001
-0.33010286 -0.068297148 1.9920001
-0.32441145 -0.064502865 1.9920001
-0.36045715 -0.056914289 1.9920001
-0.32630858 -0.055017143 1.9920001
-0.33010286 -0.043634288 1.9920001
-0.32630858 -0.049325716 1.9920001
-0.36425143 -0.030354287 1.9920001
-0.33200002 -0.036045715 1.9920001
-0.36425143 -0.024662858 1.9920001
-0.33010286 -0.026560001 1.9920001
-0.32441145 -0.022765715 1.9920001
-0.36425143 -0.01897143 1.9920001
-0.32377908 -0.017706668 1.9920001
-0.31682289 -0.013280001 1.9920001
-0.31619048 -0.0063238093 1.9920001
-0.31113145 0.0075885719 1.9920001
0.24473144 0.0075885719 1.9920001
0.25231999 0.0075885719 1.9920001
0.26939431 0.0056914287 1.9920001
0.28646857 0.0056914291 1.9920001
0.29405713 0.0075885719 1.9920001
-0.30544001 0.017074287 1.9920001
-0.29974857 0.01897143 1.9920001
0.24473147 0.015177143 1.9920002
0.25042287 0.015177143 1.9920001
0.28457144 0.011382858 1.9920001
0.29848382 0.017706668 1.9920001
0.30354288 0.017074287 1.9920001
-0.30354288 0.024662858 1.9920001
-0.29974857 0.024662858 1.9920001
0.2656 0.026560001 1.9920001
0.29848382 0.025295237 1.9920001
0.30354288 0.024662858 1.9920001
-0.29595429 0.034148574 1.9920001
0.25421715 0.034148574 1.9920003
0.26484114 0.03490743 1.9920002
0.27318859 0.036045715 1.9920001
0.28457144 0.036045715 1.9920001
0.29785144 0.032251433 1.9920001
0.30354288 0.036045715 1.9920001
0.25231999 0.041737143 1.9920001
0.26939431 0.043634288 1.9920001
0.27318859 0.043634288 1.9920001
0.28267431 0.043634288 1.9920001
0.23524572 0.21437715 1.9920002
0.24473144 0.21248001 1.9920001
0.25231999 0.21248001 1.9920001
0.12331429 0.22765715 1.9920001
0.13469714 0.22386287 1.9920001
0.14418286 0.22386287 1.9920001
0.16315429 0.22765715 1.9920001
0.18592 0.22386287 1.9920001
0.19540572 0.22386287 1.9920001
0.20109715 0.22386287 1.9920001
0.21627429 0.22386287 1.9920001
0.22462173 0.22234516 1.9920002
0.23524572 0.22006857 1.9920001
0.068297148 0.23904 1.9920001
0.075885713 0.23714286 1.9920001
0.085371435 0.23524572 1.9920001
0.094857149 0.23524572 1.9920001
0.10244572 0.23524572 1.9920001
0.053120002 0.2428343 1.9920001
-0.14228572 0.25801143 1.9920001
-0.1328 0.25801143 1.9920001
-0.12710857 0.25801143 1.9920001
-0.091062859 0.2561143 1.9920001
-0.087268576 0.25801143 1.9920001
-0.09296 0.26180571 1.9920001
-0.085371435 0.26180571 1.9920001
-0.079680003 0.26180571 1.9920001
-0.29974857 0.63744003 1.9920001
-0.37007812 -0.1297181 2.003
-0.36371937 -0.12335937 2.003
-0.35418129 -0.12590285 2.003
-0.37007812 -0.11827239 2.003
-0.36371937 -0.11700064 2.003
-0.35863239 -0.11636477 2.003
-0.34489751 -0.11522019 2.003
-0.33955622 -0.11445715 2.003
-0.34527907 -0.10682667 2.003
-0.33764857 -0.10301143 2.003
-0.34337145 -0.091565721 2.003
-0.33764857 -0.099196196 2.003
-0.33726707 -0.082409143 2.003
-0.32811049 -0.080120005 2.003
-0.34718668 -0.07248953 2.003
-0.33574095 -0.074397147 2.003
-0.32683873 -0.073761277 2.003
-0.37007812 -0.062951431 2.003
-0.32048002 -0.064859055 2.003
-0.36626288 -0.055320956 2.003
-0.32302353 -0.055956829 2.003
-0.36626288 -0.04387524 2.003
-0.32683873 -0.04578286 2.003
-0.36626288 -0.036244765 2.003
-0.33192572 -0.034337144 2.003
-0.32811049 -0.034337144 2.003
-0.32429525 -0.025434921 2.003
-0.31475717 -0.02289143 2.003
-0.31412128 -0.015260953 2.003
-0.31284952 -0.0057228571 2.003
-0.31284952 0.0019076191 2.003
-0.30521905 0.0057228571 2.003
0.22891429 0.0076304763 2.003
0.23463716 0.0076304763 2.003
0.24036001 0.0076304763 2.003
-0.30445603 0.012971811 2.003
-0.29631683 0.017804446 2.003
-0.28614286 0.019076191 2.003
0.23654477 0.015260953 2.003
0.24036001 0.015260953 2.003
0.29377335 0.011445715 2.003
0.30903429 0.017168572 2.003
-0.29568097 0.024799049 2.003
-0.28614286 0.024799049 2.003
0.24608287 0.024799049 2.003
0.25371334 0.024799049 2.003
0.30903429 0.024799049 2.003
-0.29504511 0.03179365 2.003
-0.28614286 0.03242952 2.003
-0.27851239 0.034337144 2.003
0.2464644 0.033574097 2.003
0.30776253 0.03179365 2.003
-0.24036001 0.11064191 2.003
0.22764254 0.20856635 2.003
0.23463716 0.20793048 2.003
0.24417524 0.20983811 2.003
0.21746857 0.21746857 2.003
0.22509904 0.21556096 2.003
0.12781048 0.22509906 2.003
0.13544096 0.22128382 2.003
0.14879429 0.22128382 2.003
0.15451714 0.22509906 2.003
0.16405524 0.22509904 2.003
0.17550094 0.22509904 2.003
0.18503906 0.22128382 2.003
0.19266953 0.22128382 2.003
0.20602286 0.22382732 2.003
0.2149251 0.22255556 2.003
0.22128382 0.22128382 2.003
0.068674289 0.23654477 2.003
0.07248953 0.23654477 2.003
0.083935238 0.23272954 2.003
0.091565721 0.23272954 2.003
0.034337144 0.24417524 2.003
0.04578286 0.24417524 2.003
0.055320956 0.24226762 2.003
0.0635873 0.24290349 2.003
-0.15260953 0.25943619 2.003
-0.14497906 0.25689271 2.003
-0.13544096 0.25752857 2.003
-0.1297181 0.25562096 2.003
-0.10682667 0.25943619 2.003
-0.096652709 0.25816444 2.003
-0.083935238 0.25943619 2.003
-0.06104381 0.25562096 2.003
-0.049598098 0.25562096 2.003
-0.024799049 0.25562096 2.003
-0.017168572 0.25180572 2.003
-0.10682667 0.26325142 2.003
-0.091565721 0.26706669 2.003
-0.30140382 0.64477527 2.003
-0.29568097 0.64477527 2.003
-0.28995812 0.64477527 2.003
-0.37229526 -0.14200953 2.0150001
-0.36407074 -0.14475103 2.0150001
-0.35502383 -0.14584763 2.0150001
-0.34734762 -0.14392857 2.0150001
-0.37229526 -0.13625239 2.0150001
-0.36461905 -0.13433334 2.0150001
-0.3550238 -0.13625239 2.0150001
-0.34542859 -0.13433334 2.0150001
-0.3377524 -0.13049525 2.0150001
-0.36845717 -0.12665714 2.0150001
-0.34542859 -0.1247381 2.0150001
-0.3377524 -0.1247381 2.0150001
-0.34159049 -0.11514286 2.0150001
-0.33679289 -0.11418334 2.0150001
-0.34159049 -0.10746667 2.0150001
-0.33391428 -0.10554762 2.0150001
-0.34159049 -0.094033338 2.0150001
-0.33343455 -0.095472619 2.0150001
-0.33391428 -0.086357147 2.0150001
-0.32470286 -0.083670482 2.0150001
-0.32367936 -0.07548254 2.0150001
-0.37613335 -0.061409526 2.0150001
-0.31856191 -0.065247625 2.0150001
-0.37357461 -0.056292061 2.0150001
-0.3224 -0.053733334 2.0150001
-0.31856191 -0.05757143 2.0150001
-0.30704764 -0.05565238 2.0150001
-0.37421429 -0.04221905 2.0150001
-0.36845717 -0.049895238 2.0150001
-0.32393524 -0.045289524 2.0150001
-0.30704764 -0.04221905 2.0150001
-0.37325478 -0.035502382 2.0150001
-0.32431903 -0.034542859 2.0150001
-0.31600317 -0.033263493 2.0150001
-0.30608809 -0.033583336 2.0150001
-0.29681271 -0.033263493 2.0150001
-0.37229526 -0.024947621 2.0150001
-0.3224 -0.026866667 2.0150001
-0.3137643 -0.025907144 2.0150001
-0.30512857 -0.024947621 2.0150001
-0.2980921 -0.025587304 2.0150001
-0.3224 -0.019190477 2.0150001
-0.31184524 -0.016311906 2.0150001
-0.30512857 -0.015352382 2.0150001
-0.29937145 -0.015352382 2.0150001
-0.31088573 -0.0057571428 2.0150001
-0.30512857 -0.0057571433 2.0150001
-0.31088573 0.0038380951 2.0150001
-0.30416906 0.0028785714 2.0150001
-0.29608163 0.0049346942 2.0150001
-0.28401905 0.0076761907 2.0150001
-0.29476571 0.013049525 2.0150001
-0.28401905 0.014712699 2.0150001
0.23412383 0.014804082 2.0150001
0.29937145 0.011514287 2.0150001
0.30512857 0.011514287 2.0150001
0.3153635 0.014073017 2.0150001
-0.28018096 0.024947621 2.0150001
0.23796192 0.023028573 2.0150001
0.24180001 0.023028573 2.0150001
0.31472382 0.024947621 2.0150001
-0.28018096 0.030704763 2.0150001
0.23796192 0.032623813 2.0150001
0.24180001 0.032623813 2.0150001
0.31664288 0.032623813 2.0150001
-0.24819684 0.10618731 2.0150001
-0.24563809 0.11258414 2.0150001
0.23284446 0.19702221 2.0150001
0.22452858 0.20725715 2.0150001
0.23220477 0.20341906 2.0150001
0.24180001 0.20725715 2.0150001
0.18550795 0.21749209 2.0150001
0.19382381 0.21877144 2.0150001
0.20533811 0.21877144 2.0150001
0.21570095 0.21570095 2.0150001
0.22260953 0.21109524 2.0150001
0.12281905 0.22644763 2.0150001
0.14584762 0.22260953 2.0150001
0.15544286 0.22260953 2.0150001
0.1688762 0.22260953 2.0150001
0.17463334 0.22260953 2.0150001
0.18039048 0.22260953 2.0150001
0.19958095 0.22260953 2.0150001
0.20725715 0.22260953 2.0150001
0.21109524 0.22260953 2.0150001
0.065247625 0.23796192 2.0150001
0.11898096 0.23028572 2.0150001
-0.024947621 0.24947619 2.0150001
-0.015352382 0.24947619 2.0150001
-0.0076761907 0.24947619 2.0150001
0.013433334 0.24947619 2.0150001
0.047976192 0.24180001 2.0150001
0.05757143 0.24180001 2.0150001
0.061409526 0.24180001 2.0150001
-0.15352382 0.25715238 2.0150001
-0.14680715 0.25427383 2.0150001
-0.13817143 0.25715238 2.0150001
-0.11130477 0.25715238 2.0150001
-0.10362858 0.25715238 2.0150001
-0.09787143 0.25523335 2.0150001
-0.0844381 0.25715238 2.0150001
-0.072923809 0.25523335 2.0150001
-0.069085717 0.25331429 2.0150001
-0.05565238 0.25715238 2.0150001
-0.044777781 0.25587299 2.0150001
-0.03377524 0.25561714 2.0150001
-0.015352382 0.25523335 2.0150001
-0.0057571428 0.25331429 2.0150001
-0.11418334 0.26386905 2.0150001
-0.10362858 0.2609905 2.0150001
-0.30704764 0.64480001 2.0150001
-0.37065145 -0.16216001 2.0270002
-0.36421648 -0.16344699 2.0270002
-0.35631078 -0.16546941 2.0270002
-0.34748572 -0.16216001 2.0270002
-0.33976379 -0.16602096 2.0270002
-0.32689399 -0.16344699 2.0270002
-0.37219584 -0.15366593 2.0270002
-0.36524612 -0.1552103 2.0270002
-0.35465607 -0.15554123 2.0270002
-0.34555528 -0.15443811 2.0270002
-0.33744726 -0.15598248 2.0270002
-0.32818097 -0.15636858 2.0270002
-0.3745124 -0.14671619 2.0270002
-0.34362477 -0.14478572 2.0270002
-0.33976382 -0.14478572 2.0270002
-0.33847681 -0.13513334 2.0270002
-0.33590287 -0.12355048 2.0270002
-0.33397239 -0.11582857 2.0270002
-0.32818097 -0.11196762 2.0270002
-0.33204192 -0.10810667 2.0270002
-0.32663661 -0.10347352 2.0270002
-0.32509223 -0.094207242 2.0270002
-0.31659812 -0.092662863 2.0270002
-0.32142431 -0.085906193 2.0270002
-0.31659812 -0.08301048 2.0270002
-0.32045907 -0.075288579 2.0270002
-0.31273717 -0.073358096 2.0270002
-0.31466767 -0.065636195 2.0270002
-0.30791098 -0.064670958 2.0270002
-0.38223431 -0.055983812 2.0270002
-0.37708637 -0.051479369 2.0270002
-0.32045907 -0.052122861 2.0270002
-0.31466764 -0.055983812 2.0270002
-0.3059805 -0.053088099 2.0270002
-0.38223431 -0.046331432 2.0270002
-0.37644288 -0.046331432 2.0270002
-0.32045907 -0.044400953 2.0270002
-0.31531113 -0.043757465 2.0270002
-0.30424303 -0.044787049 2.0270002
-0.29729334 -0.042470478 2.0270002
-0.38416478 -0.030887621 2.0270002
-0.37837335 -0.032818098 2.0270002
-0.32045907 -0.038609527 2.0270002
-0.31505376 -0.034748577 2.0270002
-0.30308476 -0.035713814 2.0270002
-0.29343238 -0.030887621 2.0270002
-0.28957143 -0.030887621 2.0270002
-0.37837335 -0.025096193 2.0270002
-0.29536286 -0.025096193 2.0270002
-0.28828445 -0.025739685 2.0270002
-0.29536286 -0.015443812 2.0270002
-0.28764096 -0.014478573 2.0270002
-0.30115429 -0.005791429 2.0270002
-0.29536286 -0.005791429 2.0270002
-0.28699747 -0.0051479368 2.0270002
-0.29536286 0 2.0270002
-0.28571048 0.0033783335 2.0270002
-0.28184953 0.011582858 2.0270002
-0.2767016 0.016730795 2.0270002
0.22683096 0.01544381 2.0270002
0.23165715 0.019304764 2.0270002
0.32432002 0.018339526 2.0270002
-0.27798858 0.025096193 2.0270002
0.2277962 0.023165716 2.0270002
0.2355181 0.025096193 2.0270002
0.24324001 0.027026668 2.0270002
0.32354784 0.025482288 2.0270002
0.2355181 0.030887621 2.0270002
0.32625049 0.032818098 2.0270002
-0.2509619 0.11582857 2.0270002
-0.24581398 0.11840254 2.0270002
-0.23165715 0.11196762 2.0270002
-0.25289237 0.13899429 2.0270002
0.2277962 0.19690858 2.0270002
-0.25482288 0.20849143 2.0270002
0.22522223 0.20463048 2.0270002
0.23165715 0.20076953 2.0270002
0.24710096 0.20849143 2.0270002
0.2509619 0.20849143 2.0270002
-0.25289237 0.2123524 2.0270002
0.16988191 0.21621335 2.0270002
0.17567334 0.21621335 2.0270002
0.18918668 0.21621335 2.0270002
0.1949781 0.21621335 2.0270002
0.20656095 0.21621335 2.0270002
0.21428287 0.21428287 2.0270002
-0.2509619 0.22586572 2.0270002
-0.23937906 0.2277962 2.0270002
0.11968953 0.2277962 2.0270002
0.12548096 0.22393525 2.0270002
0.14285524 0.22393525 2.0270002
0.16602096 0.22264826 2.0270002
0.17567334 0.2200743 2.0270002
0.18146476 0.2200743 2.0270002
0.20076953 0.2200743 2.0270002
-0.25192714 0.23648334 2.0270002
-0.24420525 0.23455286 2.0270002
-0.23841381 0.23455286 2.0270002
0.054053336 0.23937906 2.0270002
0.063062228 0.23680508 2.0270002
0.077219054 0.2355181 2.0270002
0.10231523 0.2355181 2.0270002
-0.25289237 0.24710096 2.0270002
-0.011582858 0.24710096 2.0270002
-0.0077219051 0.24710096 2.0270002
0.038609527 0.24324001 2.0270002
0.042470478 0.24324001 2.0270002
-0.25482285 0.25289237 2.0270002
-0.23937906 0.2509619 2.0270002
-0.15443811 0.25482288 2.0270002
-0.14478572 0.2509619 2.0270002
-0.13513334 0.25482288 2.0270002
-0.10617619 0.25675336 2.0270002
-0.092662863 0.25482288 2.0270002
-0.084940948 0.25482288 2.0270002
-0.077219054 0.25482288 2.0270002
-0.050192382 0.25482288 2.0270002
-0.042470478 0.25482288 2.0270002
-0.034748573 0.25289237 2.0270002
-0.0038609526 0.2509619 2.0270002
0.0038609526 0.2509619 2.0270002
0.094593339 0.53474194 2.0270002
0.10038476 0.53281146 2.0270002
0.077219054 0.55983812 2.0270002
0.077219054 0.56369907 2.0270002
0.081080005 0.56562954 2.0270002
-0.28764096 0.65636194 2.0270002
-0.36119431 -0.19419049 2.039
-0.3573105 -0.19224858 2.039
-0.37478763 -0.18253906 2.039
-0.36410716 -0.18351001 2.039
-0.35536858 -0.18448097 2.039
-0.34954286 -0.18448097 2.039
-0.37478766 -0.17477143 2.0389998
-0.36556363 -0.17525691 2.0389998
-0.3549802 -0.1755482 2.039
-0.3461445 -0.17525691 2.0389998
-0.33497858 -0.17185858 2.039
-0.37543496 -0.16570921 2.039
-0.36896193 -0.16700381 2.039
-0.35342667 -0.16700381 2.039
-0.34695363 -0.16570921 2.039
-0.33594954 -0.16506191 2.039
-0.37672955 -0.15923619 2.039
-0.33497858 -0.15341048 2.039
-0.33497858 -0.14661381 2.039
-0.33400762 -0.13528603 2.0389998
-0.32494539 -0.13463874 2.039
-0.31070477 -0.13593334 2.039
-0.30682096 -0.13593334 2.039
-0.33289793 -0.12483674 2.0389998
-0.32526904 -0.12525287 2.039
-0.31070477 -0.12428191 2.039
-0.30682096 -0.12622382 2.039
-0.33012381 -0.11651429 2.039
-0.32624 -0.11457238 2.039
-0.32365081 -0.10486286 2.039
-0.32235619 -0.097095244 2.039
-0.2796343 -0.093211435 2.039
-0.31653047 -0.08544381 2.039
-0.28351811 -0.085443817 2.039
-0.27575052 -0.085443817 2.0389998
-0.31458858 -0.076122664 2.039
-0.29322761 -0.073792383 2.039
-0.28546 -0.075734288 2.039
-0.27575049 -0.075734288 2.0389998
-0.26798287 -0.073792383 2.039
-0.30552638 -0.068613969 2.039
-0.29322761 -0.069908574 2.039
-0.28351811 -0.069908574 2.039
-0.38449717 -0.050489526 2.039
-0.31653047 -0.050489526 2.039
-0.30293715 -0.052431431 2.039
-0.2959463 -0.052043051 2.039
-0.38449717 -0.042721905 2.039
-0.31458858 -0.046605717 2.039
-0.29439276 -0.045052189 2.039
-0.38643909 -0.036896192 2.039
-0.29439276 -0.037284572 2.039
-0.2861073 -0.03236508 2.039
-0.38449717 -0.027186668 2.039
-0.29516953 -0.023302859 2.039
-0.28481269 -0.02459746 2.039
-0.2796343 -0.025244763 2.039
-0.28584838 -0.016311999 2.039
-0.2796343 -0.015535239 2.039
-0.2861073 -0.006473016 2.039
-0.27833971 -0.0051784129 2.039
-0.27623597 0.0033983332 2.0389998
-0.26668826 0.0025892064 2.039
0.22603771 0.0054373336 2.039
0.23302858 0.0038838098 2.039
-0.2796343 0.011651429 2.039
-0.26604098 0.015535239 2.039
0.21749334 0.015535239 2.039
0.22293067 0.015535238 2.039
-0.27575049 0.023302859 2.039
0.22526096 0.023302859 2.039
0.23302858 0.027186668 2.039
0.33271301 0.02459746 2.039
0.23497048 0.033012383 2.039
-0.25633144 0.044663809 2.039
-0.22137715 0.10486286 2.039
-0.23302858 0.11651429 2.039
-0.22914477 0.11263048 2.039
-0.25244763 0.12428191 2.039
-0.24662191 0.12622382 2.039
-0.25244763 0.13399144 2.039
-0.25244763 0.14758477 2.039
-0.24856383 0.14758477 2.039
-0.23497048 0.14370096 2.039
-0.25244763 0.16700381 2.039
-0.24338542 0.16570921 2.039
-0.23561777 0.16570921 2.039
-0.24856383 0.17865525 2.039
-0.25438952 0.19419049 2.039
-0.24565096 0.19613239 2.039
-0.26021525 0.20584191 2.039
-0.25438952 0.20390001 2.039
-0.24468 0.2058419 2.0389998
0.18512827 0.20713651 2.039
0.21749334 0.20972572 2.039
0.22331905 0.20390001 2.039
-0.24468 0.21555144 2.0389998
0.15923619 0.21749334 2.039
0.16506191 0.21749334 2.039
0.17865525 0.21360953 2.039
0.18383366 0.21490413 2.039
0.19224858 0.21360953 2.039
0.20584191 0.21490413 2.039
0.21360953 0.21360953 2.039
-0.24468002 0.22526096 2.0389998
0.13787524 0.22137715 2.039
0.14564286 0.22137715 2.039
0.15535238 0.22137715 2.039
0.16506191 0.22137715 2.039
-0.24856383 0.23691238 2.039
0.05631524 0.23691238 2.039
0.066995718 0.23399952 2.039
0.075734288 0.23497048 2.039
0.097095244 0.23691238 2.039
0.10874667 0.23691238 2.039
0.11457238 0.23497048 2.039
-0.25438952 0.24468 2.039
-0.24523486 0.24578968 2.0389998
-0.14370096 0.24856383 2.039
-0.095153339 0.24856383 2.039
-0.025244763 0.24856383 2.039
-0.015535239 0.24726921 2.039
-0.0051784129 0.24597462 2.039
0.0029128573 0.24759287 2.039
0.015535239 0.24856383 2.039
0.025244763 0.24856383 2.039
0.046605717 0.24079619 2.039
-0.24545677 0.25477791 2.039
-0.23691238 0.25244763 2.039
-0.15535238 0.25374225 2.039
-0.13787524 0.25244763 2.039
-0.12816572 0.25633144 2.039
-0.11457238 0.25633144 2.039
-0.10389191 0.25438952 2.039
-0.095153339 0.25244763 2.039
-0.085443817 0.25244763 2.039
-0.073792383 0.25244763 2.039
-0.066024765 0.25633144 2.039
-0.054373335 0.25503683 2.039
-0.044663809 0.25244763 2.039
-0.036896192 0.25244763 2.039
-0.25244763 0.26604098 2.039
-0.2451655 0.26361361 2.0389998
-0.23691238 0.26021525 2.039
-0.12428191 0.26021525 2.039
-0.11651429 0.26021525 2.039
0.075734288 0.52819812 2.039
0.083501905 0.52819812 2.039
0.044663809 0.53984952 2.039
0.06796667 0.53984952 2.039
0.075734288 0.53596568 2.0389998
0.085443817 0.53596568 2.0389998
0.093211435 0.5320819 2.039
0.10486286 0.53984952 2.039
0.045311112 0.54502797 2.039
0.055150099 0.54606366 2.039
0.066024773 0.54567528 2.0389998
0.075734288 0.54567528 2.039
0.085443817 0.54567528 2.0389998
0.095800638 0.54502797 2.039
0.10389191 0.54470432 2.039
0.11521968 0.54502797 2.039
0.12234001 0.54373336 2.039
0.046605717 0.55344284 2.039
0.05631524 0.55538476 2.0389998
0.066024765 0.55538476 2.0389998
0.075734288 0.55538481 2.0389998
0.083501905 0.5553847 2.0389998
0.10097905 0.55538476 2.039
0.058257144 0.56315237 2.039
0.066801526 0.56470591 2.039
0.073792383 0.56509429 2.039
0.084149204 0.56444699 2.039
0.12816572 0.58257145 2.039
0.13399144 0.58257145 2.039
-0.37347737 -0.19455202 2.0510001
-0.36527336 -0.19435668 2.0510001
-0.35439047 -0.19589143 2.0510004
-0.34574002 -0.19338001 2.0510001
-0.37308669 -0.18752001 2.0510001
-0.36722669 -0.18752001 2.0510001
-0.34574002 -0.18556668 2.0510001
-0.33857778 -0.18491556 2.0510001
-0.33519202 -0.17814401 2.0510001
-0.32620668 -0.17384668 2.0510001
-0.32620668 -0.16505668 2.0510001
-0.33597335 -0.15236001 2.0510001
-0.32620668 -0.15431334 2.0510001
-0.33402002 -0.14259334 2.0510001
-0.32425335 -0.14454669 2.0510004
-0.31253335 -0.14650001 2.0510001
-0.30862668 -0.14064001 2.0510001
-0.32164893 -0.13412888 2.0510001
-0.31644002 -0.13673334 2.0510001
-0.30374336 -0.13380334 2.0510001
-0.32230002 -0.12501334 2.0510001
-0.30360383 -0.12445525 2.0510004
-0.32295111 -0.11589777 2.0510001
-0.31253335 -0.1172 2.0510001
-0.30732444 -0.11589777 2.0510001
-0.32164893 -0.10548001 2.0510001
-0.31253335 -0.10547999 2.0510001
-0.30862668 -0.10547999 2.0510001
-0.28518668 -0.10157334 2.0510001
-0.32034668 -0.097666673 2.0510001
-0.31448668 -0.09571334 2.0510001
-0.30569667 -0.094736673 2.0510001
-0.29495335 -0.09571334 2.0510001
-0.28596801 -0.096104011 2.0510001
-0.2760711 -0.095062226 2.0510001
-0.31409603 -0.086728007 2.0510001
-0.30472001 -0.085946672 2.0510004
-0.29495335 -0.085946672 2.0510004
-0.28909335 -0.085946672 2.0510001
-0.27737334 -0.085946672 2.0510001
-0.26956001 -0.085946672 2.0510001
-0.30416194 -0.075342856 2.0510004
-0.29495335 -0.078133337 2.0510001
-0.28518668 -0.070320003 2.0510001
-0.27542001 -0.070320003 2.0510001
-0.26956001 -0.078133337 2.0510001
-0.30081335 -0.064460002 2.0510001
-0.29690668 -0.064460002 2.0510001
-0.27346668 -0.064460002 2.0510001
-0.30081335 -0.058600001 2.0510001
-0.29495335 -0.056646667 2.0510001
-0.28909335 -0.05078667 2.0510001
-0.27346668 -0.05469333 2.0510001
-0.28616336 -0.043950003 2.0510001
-0.27346668 -0.046880003 2.0510001
-0.28440535 -0.035941336 2.0510001
-0.27737334 -0.031253334 2.0510001
-0.27737334 -0.025393333 2.0510001
-0.27542001 -0.015626667 2.0510004
-0.26825777 -0.013022223 2.0510001
-0.27476892 -0.0065111108 2.0510001
-0.26565334 -0.0058600004 2.0510004
-0.27346668 0.0078133335 2.0510001
-0.2643511 0.0045577777 2.0510004
-0.25784001 0.0039066668 2.0510001
0.21682 0.0058599999 2.0510001
0.22268 0.0078133335 2.0510001
-0.27502936 0.015626667 2.0510001
-0.26509523 0.015626667 2.0510004
-0.25784001 0.017580001 2.0510001
0.213304 0.016408 2.0510001
-0.27476892 0.026044443 2.0510001
-0.26643467 0.025002668 2.0510001
-0.25784001 0.025393333 2.0510001
0.21486668 0.023440002 2.0510001
0.22463334 0.025393333 2.0510001
0.23049334 0.027346667 2.0510001
-0.28128001 0.033206668 2.0510001
-0.27346668 0.031253334 2.0510001
-0.25393334 0.035160001 2.0510004
-0.26565334 0.044926669 2.0510004
-0.22658667 0.10938667 2.0510001
-0.23049334 0.1172 2.0510001
-0.22658667 0.11524667 2.0510001
-0.25393334 0.12501334 2.0510001
-0.24221334 0.12306 2.0510001
-0.2344 0.12501334 2.0510004
-0.25002667 0.13282667 2.0510001
-0.24612001 0.13478 2.0510001
-0.23342332 0.13380334 2.0510001
-0.25393334 0.14454667 2.0510001
-0.24416667 0.14845334 2.0510001
-0.23049334 0.14259334 2.0510001
-0.22268002 0.14454667 2.0510001
-0.21682 0.14650001 2.0510001
-0.25393334 0.15431334 2.0510001
-0.24612001 0.15431334 2.0510001
-0.23049334 0.15626667 2.0510001
-0.22268 0.15431334 2.0510001
-0.21564801 0.154704 2.0510001
-0.25315201 0.16329868 2.0510001
-0.24612002 0.16408001 2.0510001
-0.23179555 0.16277778 2.0510001
-0.22268 0.16017334 2.0510001
-0.21564801 0.16173601 2.0510001
-0.25442168 0.17531167 2.0510004
-0.24416667 0.17580001 2.0510004
-0.23488833 0.17580001 2.0510004
-0.25393334 0.18556668 2.0510004
-0.24416667 0.18556668 2.0510001
-0.23518133 0.18595734 2.0510001
-0.25393334 0.19533335 2.0510001
-0.24416667 0.19338001 2.0510001
-0.23732999 0.19631001 2.0510001
-0.23518133 0.20470934 2.0510001
0.014845334 0.20549066 2.0510001
0.21877334 0.20705333 2.0510001
-0.25393334 0.21877334 2.0510001
-0.2344 0.21486668 2.0510004
-0.22658667 0.21877334 2.0510001
0.015626667 0.21095999 2.0510001
0.025393333 0.21096 2.0510001
0.031253334 0.21096 2.0510001
0.14845334 0.21877334 2.0510001
0.15431334 0.21877334 2.0510001
0.16798668 0.21291333 2.0510001
0.17319556 0.21356444 2.0510001
0.18361335 0.21096 2.0510001
0.19142668 0.21096 2.0510001
0.2051 0.21291333 2.0510001
0.21291333 0.21096 2.0510001
-0.23518133 0.22424266 2.0510001
-0.2344 0.23495808 2.0510004
0.054693334 0.23635334 2.0510001
0.07422667 0.2344 2.0510001
0.085946672 0.23439999 2.0510001
0.09571334 0.2344 2.0510001
0.10352667 0.2344 2.0510001
0.11524667 0.23244667 2.0510001
-0.23518133 0.24455734 2.0510001
-0.14454667 0.24612001 2.0510001
-0.10352667 0.24612001 2.0510001
-0.096364446 0.24481778 2.0510001
-0.023440002 0.24612001 2.0510001
-0.015626667 0.24481778 2.0510001
-0.0058599999 0.24221334 2.0510001
0.0058599999 0.24612001 2.0510001
0.013673333 0.24612001 2.0510001
-0.23391166 0.25393334 2.0510004
-0.22502401 0.25315201 2.0510001
-0.21682 0.25002667 2.0510001
-0.17384668 0.25784001 2.0510001
-0.16486135 0.255496 2.0510001
-0.15431334 0.25002667 2.0510001
-0.14845334 0.25002667 2.0510001
-0.13282667 0.25393334 2.0510001
-0.12403667 0.25588667 2.0510001
-0.11524667 0.25393334 2.0510001
-0.10645667 0.25100332 2.0510001
-0.085946672 0.25002667 2.0510001
-0.07422667 0.25393334 2.0510001
-0.062506668 0.25784001 2.0510001
-0.05469333 0.2526311 2.0510001
-0.046880003 0.25002667 2.0510001
-0.031253334 0.25002667 2.0510001
-0.25588667 0.26174667 2.0510001
-0.23830667 0.26565334 2.0510001
-0.17580001 0.26174667 2.0510001
0.045577779 0.53781778 2.0510001
0.054693338 0.53716671 2.0510004
0.064850673 0.53599465 2.0510001
0.070320003 0.53521335 2.0510001
0.053716671 0.54400337 2.0510001
0.062506668 0.54302669 2.0510001
0.12892 0.54693335 2.0510001
0.13282667 0.54693335 2.0510001
0.05078667 0.55669999 2.0510001
0.089853339 0.55669999 2.0510001
0.095322676 0.55552799 2.0510001
0.10659619 0.55530477 2.0510004
0.11524666 0.55474669 2.0510001
0.12371112 0.55344445 2.0510004
0.13412888 0.55214226 2.0510001
0.05078667 0.56256002 2.0510001
0.089853339 0.56451333 2.0510001
0.09571334 0.56451333 2.0510001
0.10352667 0.56451333 2.0510001
0.1172 0.56451333 2.0510001
0.12403667 0.56549001 2.0510001
0.13282667 0.56646669 2.0510001
0.088290676 0.57506138 2.0510001
0.12631555 0.57558227 2.0510001
0.089853339 0.58209336 2.0510001
0.10938667 0.58795333 2.0510001
0.11329333 0.58795333 2.0510001
0.12501334 0.58209336 2.0510001
0.13478 0.58209336 2.0510001
-0.31253335 0.6602267 2.0510001
-0.30276668 0.66608667 2.0510001
-0.29560447 0.66673779 2.0510001
-0.28518668 0.66608667 2.0510001
-0.36544573 -0.21219429 2.0630002
-0.35365716 -0.21219429 2.0630002
-0.34972763 -0.21219429 2.0630002
-0.37487662 -0.20512113 2.0630002
-0.36544573 -0.20499019 2.063
-0.3556219 -0.20629999 2.0630002
-0.34628931 -0.20384404 2.063
-0.33793905 -0.20040572 2.0630002
-0.34186858 -0.19451144 2.0630002
-0.33597428 -0.19451143 2.0630002
-0.33269969 -0.18599747 2.063
-0.32615048 -0.18468763 2.0630002
-0.38509336 -0.17289905 2.0630002
-0.32222095 -0.17486382 2.0630002
-0.38705811 -0.16504 2.0630002
-0.32320333 -0.16405761 2.0630002
-0.31829143 -0.16504 2.0630002
-0.32222095 -0.1552162 2.0630002
-0.31436193 -0.15325144 2.0630002
-0.31632668 -0.14539239 2.0630002
-0.30519304 -0.1427727 2.0630002
-0.31829143 -0.13360381 2.0630002
-0.30650288 -0.13753334 2.0630002
-0.29864383 -0.13360381 2.0630002
-0.32222095 -0.12181524 2.0630002
-0.31829143 -0.12574476 2.0630002
-0.29766145 -0.12476238 2.0630002
-0.32222095 -0.11199144 2.0630002
-0.31730905 -0.1139562 2.0630002
-0.30414516 -0.1131703 2.0630002
-0.2947143 -0.1139562 2.063
-0.28489047 -0.11199144 2.0630002
-0.27585259 -0.11159849 2.0630002
-0.31829143 -0.10413238 2.0630002
-0.3045381 -0.10413238 2.0630002
-0.2947143 -0.10413238 2.063
-0.28423557 -0.10478731 2.0630002
-0.27506664 -0.10413238 2.063
-0.30453813 -0.098238096 2.0630002
-0.27244699 -0.096928261 2.0630002
-0.26720762 -0.090379052 2.0630002
-0.26720762 -0.084484763 2.0630002
-0.27113715 -0.070731431 2.0630002
-0.26524287 -0.070731431 2.0630002
-0.30650288 -0.064837143 2.0630002
-0.29274952 -0.064837143 2.0630002
-0.28489047 -0.064837143 2.0630002
-0.27506667 -0.064837143 2.0630002
-0.26524287 -0.064837143 2.0630002
-0.30650288 -0.058942858 2.0630002
-0.2947143 -0.058942858 2.0630002
-0.28489047 -0.055013333 2.063
-0.27506667 -0.055013333 2.063
-0.26524287 -0.055013333 2.063
-0.25934857 -0.056978099 2.0630002
-0.28489047 -0.047154289 2.0630002
-0.27506667 -0.044796575 2.0630002
-0.26589778 -0.045844447 2.0630002
-0.28292572 -0.039295241 2.0630002
-0.27572158 -0.036675557 2.063
-0.27375683 -0.024886986 2.0630002
-0.27113715 -0.019647621 2.0630002
-0.26524287 -0.015718095 2.0630002
-0.25934857 -0.011788572 2.0630002
-0.25803873 -0.0052393652 2.0630002
-0.2541092 0.0013098413 2.0630002
-0.24559525 0 2.0630002
0.21219429 0.0058942856 2.0630002
-0.25541902 0.015718095 2.0630002
-0.24756001 0.015718095 2.0630002
0.20826477 0.019647621 2.0630002
0.21219429 0.011788572 2.0630002
-0.2632781 0.027506668 2.0630002
-0.25541905 0.025541905 2.0630002
0.22398287 0.027506668 2.0630002
-0.2750667 0.035856903 2.063
-0.26524287 0.035365716 2.063
-0.24559525 0.039295241 2.0630002
-0.23970096 0.039295241 2.0630002
0.2279124 0.03143619 2.0630002
0.23184191 0.03143619 2.0630002
-0.27703142 0.043224763 2.0630002
-0.22398287 0.11788572 2.0630002
-0.24363048 0.12967429 2.0630002
-0.22594766 0.12574476 2.063
-0.25148952 0.13753334 2.0630002
-0.24363048 0.13556857 2.0630002
-0.2377362 0.13753334 2.0630002
-0.22476879 0.13596153 2.0630002
-0.21219429 0.13753334 2.0630002
-0.25148952 0.14342763 2.0630002
-0.24559525 0.14342763 2.0630002
-0.23577143 0.14539239 2.0630002
-0.22594765 0.14441001 2.0630002
-0.21317667 0.14441001 2.0630002
-0.20728239 0.14637476 2.0630002
-0.25148952 0.1552162 2.0630002
-0.24363048 0.1552162 2.0630002
-0.23655733 0.15482324 2.0630002
-0.2279124 0.1552162 2.0630002
-0.21219429 0.15325144 2.0630002
-0.20629999 0.1552162 2.0630002
-0.24363048 0.16111048 2.0630002
-0.23577143 0.16373016 2.0630002
-0.22529273 0.16634984 2.063
-0.21350414 0.16765969 2.0630002
-0.20669296 0.1642541 2.0630002
-0.23184191 0.17682858 2.0630002
-0.22398287 0.17486382 2.063
-0.21350414 0.17420889 2.0630002
-0.20826477 0.17486382 2.0630002
-0.23184191 0.18468763 2.0630002
-0.2251056 0.18412626 2.063
-0.21219429 0.1807581 2.0630002
-0.23380667 0.19451143 2.0630002
-0.2279124 0.19451144 2.0630002
-0.23184191 0.20433524 2.0630002
-0.22510561 0.20433523 2.063
0.21415906 0.20826477 2.0630002
-0.25541905 0.21219429 2.0630002
-0.22398289 0.21415906 2.063
0.015718095 0.21612382 2.0630002
0.14735715 0.21612382 2.0630002
0.15325144 0.21612382 2.0630002
0.16504 0.21612382 2.0630002
0.19647619 0.21219429 2.0630002
0.20237048 0.21415906 2.0630002
-0.25345427 0.22398287 2.0630002
-0.23184191 0.2279124 2.0630002
-0.22349168 0.22447407 2.063
-0.21612382 0.2279124 2.0630002
-0.20826477 0.2279124 2.0630002
0.10609715 0.2279124 2.0630002
0.12181524 0.2279124 2.0630002
0.13360381 0.2279124 2.0630002
0.14539239 0.22005334 2.0630002
-0.23184191 0.23184191 2.0630002
-0.22398287 0.23577142 2.063
-0.21415906 0.23577143 2.063
0.055013336 0.23577143 2.0630002
0.078590482 0.23184191 2.0630002
0.082520001 0.23184191 2.0630002
0.09430857 0.23184191 2.0630002
0.10413238 0.23184191 2.0630002
0.11133651 0.23315175 2.0630002
-0.23184191 0.24363048 2.0630002
-0.22398289 0.24559526 2.063
-0.21612382 0.24559525 2.0630002
-0.16111048 0.24756001 2.0630002
-0.15718096 0.24756001 2.0630002
-0.14146286 0.24756001 2.0630002
-0.12181524 0.24756001 2.0630002
-0.11395619 0.24756001 2.0630002
-0.10413238 0.24363048 2.0630002
-0.092343815 0.24559525 2.0630002
-0.084484763 0.24756001 2.0630002
-0.051083811 0.24756001 2.0630002
-0.027506668 0.24756001 2.0630002
-0.015718095 0.24363048 2.0630002
0.0039295238 0.24363048 2.0630002
0.015718097 0.24559525 2.0630002
-0.22136319 0.25803873 2.0630002
-0.2137661 0.25620493 2.0630002
-0.1807581 0.25541905 2.0630002
-0.17486382 0.25541905 2.0630002
-0.16307524 0.25148952 2.0630002
-0.14146286 0.25148952 2.0630002
-0.13556857 0.25148952 2.0630002
-0.12574476 0.25247189 2.0630002
-0.11592096 0.25148952 2.0630002
-0.074660957 0.25148952 2.0630002
-0.064837143 0.25541905 2.0630002
-0.056978099 0.25148952 2.0630002
-0.043224763 0.25148952 2.0630002
-0.037330478 0.25148952 2.0630002
-0.23380667 0.26524287 2.0630002
-0.22398287 0.2632781 2.0630002
-0.21612382 0.2632781 2.0630002
0.12967429 0.5579924 2.0630002
0.13753334 0.5579924 2.0630002
0.14342763 0.5579924 2.0630002
0.10609715 0.56978095 2.0630002
0.11238438 0.56663734 2.0630002
0.12770952 0.5638867 2.0630002
0.13556857 0.56585145 2.0630002
0.14539239 0.56683385 2.0630002
0.1552162 0.56585145 2.0630002
0.094308577 0.5737105 2.0630002
0.1139562 0.57567525 2.0630002
0.12574476 0.57606822 2.0630002
0.13360381 0.57567525 2.0630002
0.094308577 0.5835343 2.0630002
0.10216762 0.5835343 2.0630002
0.11395621 0.5835343 2.063
0.12181524 0.58156955 2.0630002
0.13556857 0.58156955 2.0630002
0.14342763 0.5835343 2.0630002
-0.32222095 0.64640665 2.0630002
-0.31829143 0.64640665 2.0630002
-0.32222095 0.65426576 2.0630002
-0.31698158 0.65492064 2.0630002
-0.31567177 0.6640895 2.0630002
-0.3104324 0.67194861 2.0630002
-0.30453813 0.67784286 2.0630002
-0.2947143 0.67784286 2.063
-0.28685525 0.67784286 2.0630002
-0.31829143 0.68373716 2.0630002
-0.30388319 0.68504697 2.0630002
-0.29733399 0.68504697 2.0630002
-0.28685525 0.68570197 2.0630002
-0.30388319 0.69421595 2.0630002
-0.29864383 0.69159621 2.0630002
-0.35588574 -0.22144 2.0760002
-0.37486631 -0.21511316 2.0760002
-0.36511239 -0.21616763 2.0760002
-0.35687429 -0.21649715 2.0760002
-0.34665906 -0.21484953 2.0760002
-0.37170288 -0.20957714 2.0760002
-0.34138668 -0.20825905 2.0760002
-0.33413714 -0.20166858 2.0760002
-0.33216003 -0.19573715 2.0760002
-0.32820573 -0.19573715 2.0760002
-0.32425144 -0.18189715 2.0760002
-0.38752002 -0.17003429 2.0760002
-0.32029715 -0.16212572 2.0760002
-0.31436571 -0.16212572 2.0760002
-0.30843431 -0.16212572 2.0760002
-0.28470859 -0.16212572 2.0760002
-0.32029715 -0.1561943 2.0760002
-0.31370667 -0.15421715 2.0760002
-0.30711621 -0.15158096 2.0760002
-0.28273144 -0.1561943 2.0760002
-0.30448002 -0.14630857 2.0760002
-0.29657143 -0.12653714 2.0760002
-0.28470859 -0.11862858 2.0760002
-0.27482286 -0.11665143 2.0760002
-0.26889142 -0.094902858 2.0760002
-0.26592571 -0.075131431 2.0760002
-0.26098287 -0.065245718 2.0760002
-0.29261714 -0.057337143 2.0760002
-0.26098287 -0.051405717 2.0760002
-0.25702858 -0.055360001 2.0760002
-0.26296002 -0.045474287 2.0760002
-0.27284572 -0.033611432 2.0760002
-0.26606697 -0.035023674 2.0760002
-0.27284572 -0.02768 2.0760002
-0.26493713 -0.025702858 2.0760002
-0.25505143 -0.02768 2.0760002
-0.24912001 -0.023725715 2.0760002
-0.26230097 -0.018453334 2.0760002
-0.25505143 -0.015817143 2.0760002
-0.24813144 -0.014828572 2.0760002
-0.25439239 -0.0065904763 2.0760002
-0.24714287 -0.0059314286 2.0760002
-0.25439239 0.0065904763 2.0760002
-0.24714287 0.0059314286 2.0760002
0.20825905 0.0065904763 2.0760002
-0.25505143 0.015817143 2.0760002
-0.24516572 0.019771429 2.0760002
-0.22934859 0.015817143 2.0760002
0.18980572 0.017794285 2.0760002
0.19639619 0.017135238 2.0760002
0.20562287 0.015817143 2.0760002
-0.25307429 0.025702856 2.0760002
0.18980572 0.025702856 2.0760002
0.20463428 0.024714286 2.0760002
0.22144 0.02768 2.0760002
-0.21353143 0.10676572 2.0760002
-0.2240762 0.11467429 2.0760002
-0.21484953 0.11731049 2.0760002
-0.20957714 0.11665143 2.0760002
-0.22144 0.12456 2.0760002
-0.21484953 0.12521905 2.0760002
