# .PCD v0.7 - Point Cloud Data file format
VERSION 0.7
FIELDS x y z
SIZE 4 4 4
TYPE F F F
COUNT 1 1 1
WIDTH 1466
HEIGHT 1
VIEWPOINT 0 0 0 1 0 0 0
POINTS 1466
DATA ascii
-0.17649905 0.17484953 1.7320002
0.058063239 0.17418972 1.7320001
0.065980956 0.17484954 1.7320002
0.075053334 0.17567429 1.7320001
0.083575875 0.17594922 1.732
-0.18144763 0.18474667 1.7320001
-0.17732382 0.1839219 1.7320001
0.066805713 0.18227239 1.7320001
0.072579049 0.18144763 1.7320001
-0.17814858 0.19464381 1.7320001
-0.13856001 0.21773715 1.7320001
-0.18144763 0.2276343 1.7320001
-0.1517562 0.22433525 1.7320001
-0.14433333 0.22351049 1.7320001
-0.13567334 0.22392288 1.7320002
-0.17484953 0.23588192 1.7320001
-0.13526097 0.23376109 1.7320002
-0.12866285 0.2342324 1.7320001
-0.17155047 0.24412954 1.732
-0.16825144 0.24248001 1.7320001
-0.13394134 0.24346972 1.7320001
-0.12866285 0.24083048 1.7320001
-0.17155047 0.25402668 1.732
-0.16825144 0.25567621 1.7320001
-0.13526095 0.25402668 1.732
-0.17155048 0.26392382 1.7320001
-0.16605207 0.26337397 1.7320002
-0.1583543 0.26392382 1.7320001
-0.14845715 0.26392382 1.7320001
-0.13746034 0.26612321 1.732
-0.17155048 0.27052191 1.7320001
-0.16577715 0.27299619 1.7320001
-0.15411267 0.27429226 1.7320002
-0.14680763 0.27382097 1.7320001
-0.13773525 0.27464572 1.7320001
-0.16495238 0.28206858 1.7320001
-0.15505525 0.28371811 1.7320001
-0.1347111 0.28371811 1.7320002
-0.16165334 0.29196572 1.7320001
-0.15505524 0.29031619 1.732
-0.13196191 0.29196572 1.7320001
-0.12701333 0.29691431 1.7320001
-0.1517562 0.30681145 1.7320001
-0.1517562 0.31011048 1.7320001
-0.1517562 0.32825524 1.7320001
-0.14557049 0.32701808 1.7320002
-0.13460115 0.32858515 1.7320001
-0.12536381 0.32990476 1.732
-0.1530758 0.33716267 1.7320001
-0.14581792 0.33584306 1.7320001
-0.13478966 0.33556029 1.7320002
-0.1257762 0.33609051 1.7320002
-0.11876572 0.33485335 1.7320001
-0.1517562 0.34310097 1.7320001
-0.12866285 0.34310097 1.7320001
-0.18474667 0.64991242 1.7320001
-0.17320001 0.64001524 1.7320001
-0.16660191 0.64001524 1.7320001
-0.19299428 0.65815997 1.7320001
-0.18380408 0.65698177 1.7320002
-0.17814858 0.65980953 1.7320001
-0.19134477 0.66310859 1.7320001
-0.18364699 0.66530794 1.732
-0.17682895 0.66706741 1.7320001
-0.18474668 0.67300576 1.732
-0.17814858 0.67300576 1.7320001
0.19464381 0.67685461 1.7320002
0.20454097 0.67960382 1.732
0.21113905 0.67795432 1.7320001
-0.21608762 0.68950099 1.7320001
-0.20124191 0.68950099 1.7320001
-0.19381906 0.68867624 1.7320001
-0.18529652 0.68620199 1.7320002
-0.17814858 0.68290287 1.7320001
0.18804573 0.68620193 1.7320001
0.19464381 0.68620193 1.7320002
0.20454097 0.68565208 1.7320002
0.21278857 0.68455243 1.7320001
0.22268572 0.68620193 1.7320001
-0.22268572 0.6993981 1.7320001
-0.2137783 0.69411963 1.7320001
-0.20564063 0.69389969 1.732
-0.19464381 0.69389969 1.732
-0.18529652 0.69609904 1.7320002
-0.17814858 0.6960991 1.7320001
0.18804573 0.69609904 1.732
0.19134477 0.6960991 1.7320001
-0.22386394 0.70505363 1.7320002
-0.18557143 0.70517147 1.7320001
-0.17649905 0.70929527 1.7320001
0.23600222 -0.23434412 1.7410001
0.23434414 -0.22660635 1.7410001
0.22771175 -0.21334159 1.7410001
0.23213334 -0.21721049 1.7410001
0.21886858 -0.20228763 1.7410001
0.22384286 -0.20560382 1.7410001
0.21389429 -0.19399714 1.7410001
0.18902287 -0.18570668 1.7410001
0.19565524 -0.18736477 1.7410001
0.20228763 -0.18902287 1.7410001
0.17907429 -0.17244191 1.7410001
0.18239048 -0.17741621 1.7410001
0.17741621 -0.16498049 1.7410001
0.17410001 -0.15586096 1.7410001
0.16802032 -0.1437016 1.7410001
0.17244191 -0.14757048 1.7410001
0.14922857 -0.13264762 1.7410001
0.1565242 -0.13662705 1.7409999
0.16415143 -0.13928001 1.7410001
0.14757048 -0.12601525 1.7410001
0.1437016 -0.11606666 1.7410001
0.13762191 -0.10280191 1.7410001
0.1425962 -0.10611811 1.7410001
0.13554929 -0.096584052 1.7410001
0.12822604 -0.084010161 1.7410001
0.13264762 -0.087879047 1.7410001
0.12601526 -0.076272383 1.7410001
0.11938286 -0.066323817 1.7410001
0.11540343 -0.057038475 1.7409999
0.10943429 -0.043110479 1.7410001
0.11357953 -0.047255717 1.7410001
0.10943429 -0.036478095 1.7410001
0.1061181 -0.029845715 1.7410001
0.098656669 -0.015751906 1.7410001
0.096169524 -0.0074614291 1.7410001
0.089537144 0.0099485721 1.7410001
0.094179817 0.0026529524 1.7409999
0.07793048 0.019897144 1.7410001
0.085557714 0.014591238 1.7409999
0.077101432 0.025700476 1.7410001
0.074945904 0.037141334 1.7409999
0.067981906 0.049742859 1.7410001
0.07295619 0.043110479 1.7410001
0.06466572 0.056375239 1.7410001
0.059691429 0.066323809 1.7410001
0.063007623 0.06466572 1.7410001
0.059691429 0.074614286 1.7410001
0.057480633 0.088431746 1.7410001
0.058586031 0.096169531 1.7410001
0.059691429 0.1061181 1.7410001
-0.20228763 0.11606667 1.7410001
-0.19897144 0.12601525 1.7410001
0.08456286 0.15917715 1.7410001
0.069640003 0.16249333 1.7410001
0.076272383 0.16249333 1.7410001
0.08622095 0.16448306 1.7409999
0.092853338 0.16912572 1.7410001
-0.19233905 0.17410001 1.7410001
-0.18504342 0.17509487 1.7409999
0.056375239 0.17907429 1.7410001
0.076935627 0.17509486 1.7409999
0.087326348 0.17520539 1.7410001
-0.18239048 0.18239048 1.7410001
0.058586031 0.18349588 1.7410001
0.065660581 0.18769638 1.7409999
0.076272391 0.18515398 1.7410001
0.08574722 0.18475917 1.7410001
-0.18239048 0.19399714 1.7410001
-0.13264762 0.22881715 1.7410001
-0.12933144 0.22881715 1.7410001
-0.13264762 0.23544954 1.7410001
-0.12933144 0.23544954 1.7410001
-0.13264762 0.2487143 1.7410001
-0.13264762 0.25534669 1.7410001
-0.13596381 0.26363713 1.7410001
-0.16912572 0.2769019 1.7410001
-0.13397411 0.27458057 1.7409999
-0.16912572 0.28353429 1.7410001
-0.13264762 0.28187621 1.7410001
-0.12933144 0.28685051 1.7410001
-0.14591238 0.33659333 1.7410001
-0.14591239 0.34433115 1.7410001
-0.13637835 0.34529838 1.7410001
-0.12601525 0.34488383 1.7410001
-0.11772476 0.34156764 1.7410001
-0.13596381 0.35151622 1.7410001
-0.12933144 0.35151622 1.7410001
-0.15917715 0.63670862 1.7410001
-0.17244191 0.64002478 1.7410001
-0.15751906 0.64002478 1.7410001
0.19897144 0.64997333 1.7410001
-0.19631848 0.66721755 1.7409999
-0.18570668 0.6690414 1.7410001
0.18902287 0.66489625 1.7410001
0.19233905 0.66821241 1.7410001
-0.19233905 0.67318672 1.7410001
-0.18736477 0.67318672 1.7410001
0.18618043 0.67697662 1.7410001
0.19454984 0.67429209 1.7410001
0.20643286 0.67899001 1.7410001
0.21555239 0.67816097 1.7410001
0.17907429 0.68479335 1.7410001
0.18529215 0.68645149 1.7410001
0.20726192 0.68976766 1.7410001
0.18404858 0.69639999 1.7410001
-0.1823905 0.7063486 1.7410001
-0.1779689 0.70745397 1.7410001
0.24333334 -0.24000001 1.7500001
0.25166667 -0.24000001 1.7500001
0.245 -0.23333335 1.7500001
0.2537331 -0.23449786 1.755625
0.26133716 -0.23788382 1.7590001
0.23666668 -0.22166668 1.7500001
0.24389523 -0.22384194 1.7540001
0.25128573 -0.22615716 1.7590001
0.23464732 -0.21240222 1.7515001
0.24193971 -0.21629269 1.7560002
0.22416668 -0.20083335 1.7500001
0.23282222 -0.20496732 1.7545
0.20666668 -0.19000001 1.7500001
0.21369906 -0.19143683 1.7530001
0.22166668 -0.19666667 1.7500001
0.18666667 -0.18000001 1.7500001
0.19353563 -0.18352191 1.7518002
0.20218953 -0.18714666 1.7545002
0.18492161 -0.17266221 1.7545
0.18285079 -0.16389906 1.756
0.17666668 -0.15166667 1.7500001
0.18061715 -0.15385334 1.7560002
0.17436001 -0.14295809 1.7536001
0.18092573 -0.14742096 1.7590001
0.15555556 -0.13111113 1.7500001
0.16396429 -0.13308595 1.7522501
0.1708743 -0.13401906 1.7590002
0.15484731 -0.12420604 1.7545
0.16365167 -0.1238862 1.757875
0.14666668 -0.11333334 1.7500001
0.1533934 -0.11480884 1.7540909
0.16145477 -0.11460382 1.7567501
0.14583334 -0.10250001 1.7500001
0.15283401 -0.10411566 1.7551429
0.16082287 -0.10721524 1.7590001
0.13666667 -0.090000004 1.7500001
0.14403285 -0.093096673 1.7533751
0.15077144 -0.095488578 1.7590001
0.13533333 -0.082666673 1.7500002
0.1429075 -0.083637014 1.7564286
0.125 -0.07 1.7500001
0.13392572 -0.073008813 1.7522501
0.14072001 -0.073710479 1.7590002
0.125 -0.063333333 1.7500001
0.13387047 -0.06358476 1.757
0.11888888 -0.054444443 1.7500001
0.12452603 -0.053607617 1.7589999
0.13178541 -0.055841271 1.7590002
0.11583333 -0.042500004 1.7500001
0.12061713 -0.043556195 1.7590002
0.11358804 -0.033882994 1.7538573
0.12061714 -0.036855239 1.7590001
0.10533334 -0.022666669 1.7500002
0.1120524 -0.023410479 1.756
0.10500001 -0.013333333 1.7500001
0.11224097 -0.013401904 1.7589999
0.096666671 -0.0033333334 1.7500001
0.10298896 -0.0053504761 1.7554001
0.096666671 0.0066666668 1.7500001
0.10164877 0.0026769524 1.7554001
0.094635911 0.013860953 1.7564286
0.084349386 0.023829117 1.7512858
0.090462863 0.021778096 1.7590001
0.083527617 0.033413336 1.7540001
0.090462863 0.033504765 1.7590002
0.075555556 0.045555558 1.7500001
0.08262831 0.042982046 1.7551429
0.073749997 0.053750001 1.7500001
0.081587054 0.052831244 1.7554001
0.06666667 0.063333333 1.7500001
0.073588572 0.063554287 1.756
0.080411434 0.061983809 1.7590001
0.06447918 0.073070206 1.7551429
0.070360005 0.073710479 1.7590001
0.063083813 0.083130956 1.7545
0.064999238 0.094483428 1.7590001
0.062195431 0.10298552 1.7554001
0.06365905 0.11056572 1.7590001
-0.2038562 0.12532571 1.7545002
-0.20437905 0.13234381 1.7590001
-0.19000001 0.17666668 1.7500001
0.094999999 0.17500001 1.7500001
0.10111111 0.17555557 1.7500001
-0.19000001 0.18000001 1.7500001
-0.18666667 0.18333334 1.7500001
0.055 0.18666667 1.7500001
0.094999999 0.18333334 1.7500001
0.10238097 0.18285714 1.7500001
-0.185 0.19000001 1.7500001
0.053392384 0.19355811 1.7520001
0.062996738 0.1947192 1.7538573
0.073860951 0.19443022 1.7512858
0.083333343 0.19375002 1.7500001
0.093388572 0.19344574 1.751
0.10312025 0.19412714 1.7533751
0.053510476 0.2040305 1.756
0.063624762 0.20426477 1.7579999
0.073668569 0.20426479 1.7579999
0.08366476 0.2041505 1.757
0.093655244 0.2040343 1.756
0.10283402 0.20375349 1.7577143
0.055282857 0.21443047 1.7589999
0.063180409 0.2134732 1.7589999
0.073195241 0.2137374 1.75675
0.083165713 0.21315728 1.7564286
0.093813337 0.21275525 1.7589999
0.10218953 0.21108001 1.7590001
0.055282861 0.22113144 1.7590001
0.060308572 0.22113144 1.7590001
0.077060953 0.22113144 1.7590001
0.080411434 0.22615716 1.7590001
-0.18092573 0.23788382 1.7590001
-0.17757525 0.24626002 1.7590001
-0.17757525 0.25128573 1.7590001
-0.17422476 0.26803809 1.7590001
-0.13267367 0.26646987 1.7560002
-0.17422476 0.27808952 1.7590001
-0.13116762 0.27319857 1.7545002
-0.13000001 0.28166667 1.7500001
-0.1273181 0.2864657 1.7590001
-0.1708743 0.2931667 1.7590001
-0.16752382 0.2931667 1.7590001
-0.13000001 0.29500002 1.7500001
-0.1268838 0.29383048 1.7530001
0.013401906 0.30824381 1.7590002
0.023453334 0.30824381 1.7590002
0.031666666 0.30666667 1.7500001
0.12396763 0.30489334 1.7590002
0.0067009525 0.31159431 1.7590001
0.014179524 0.31123191 1.7522501
0.023370476 0.31219807 1.7530001
0.031111112 0.31111112 1.7500001
0.086666673 0.32333335 1.7500001
0.090000004 0.32333335 1.7500001
0.12620127 0.33393082 1.7590002
0.13066858 0.33504763 1.7590002
-0.125 0.34666669 1.7500001
-0.11833333 0.34666669 1.7500001
0.12620127 0.34621587 1.7590002
-0.14574572 0.35347524 1.7590001
-0.12444445 0.35111114 1.7500001
-0.11833333 0.35166669 1.7500001
-0.15077144 0.60643619 1.7590001
0.18595144 0.61983812 1.7590001
-0.15412191 0.62988955 1.7590001
-0.14340039 0.62854934 1.7590001
0.18390247 0.62525672 1.7554001
-0.17407334 0.63772291 1.7575001
-0.16333961 0.63614702 1.7551429
-0.15448545 0.63516551 1.7577143
-0.14630413 0.63435686 1.7590002
-0.17368306 0.64265335 1.7536001
-0.16500001 0.64166671 1.7500001
-0.15333334 0.64000005 1.7500001
0.19432764 0.64999241 1.7590002
0.20354143 0.64915478 1.7590001
0.21610573 0.64999241 1.7590001
0.1953343 0.65444767 1.7530001
0.20312923 0.65445054 1.7530001
0.21480604 0.65557212 1.7575001
0.19500001 0.66333336 1.7500001
0.20398554 0.66368496 1.7527001
0.21220492 0.66480792 1.7564286
0.19444446 0.6722222 1.7500001
0.20333336 0.67333341 1.7500001
0.21166669 0.67333335 1.7500001
0.18666667 0.68000001 1.7500001
0.20333333 0.68000001 1.7500001
0.17757525 0.69689906 1.7590001
0.18000001 0.69500005 1.7500001
-0.18000001 0.71000004 1.7500001
-0.17666668 0.71000004 1.7500001
0.25930667 -0.23236573 1.7680001
0.2643581 -0.23573335 1.7680001
0.2548165 -0.22563048 1.7680001
0.2458362 -0.21468572 1.7680001
0.25257143 -0.21889524 1.7680001
0.23741716 -0.20374095 1.7680001
0.24246858 -0.20879239 1.7680001
0.19532192 -0.18185143 1.7680001
0.20710859 -0.18690285 1.7680001
0.1927962 -0.1759581 1.7680001
0.18690285 -0.16332954 1.7680001
0.18521905 -0.15491049 1.7680001
0.17848381 -0.14144 1.7680001
0.18353525 -0.14480762 1.7680001
0.1759581 -0.13386287 1.7680001
0.16838096 -0.12460191 1.7680001
0.17259048 -0.12544382 1.7680001
0.16703393 -0.11382552 1.768
0.17174858 -0.11786667 1.7680001
0.15827811 -0.10271238 1.7680001
0.16332954 -0.10439619 1.7680001
0.15378794 -0.093170799 1.7680001
0.14817524 -0.08419048 1.7680001
0.14480762 -0.07408762 1.7680001
0.14278705 -0.064658284 1.768
0.12796953 -0.050514288 1.7680001
0.13537829 -0.053208381 1.768
0.12460191 -0.043779049 1.7680001
0.11786667 -0.030308573 1.7680001
0.12460191 -0.033676192 1.7679999
0.11786667 -0.023573333 1.7680001
0.12460191 -0.026940953 1.7680001
0.11786667 -0.013470476 1.7680001
0.12123429 -0.010102858 1.7680001
0.10776381 -0.0033676191 1.7680001
0.11113143 -0.0067352382 1.7680001
0.10664127 0.0033676189 1.7680001
0.10187048 0.012628572 1.7680001
0.094854601 0.023573333 1.768
0.087558098 0.045462858 1.7680001
0.092272766 0.043105524 1.768
0.085874289 0.053881906 1.7680001
0.08334858 0.064826667 1.7680001
0.07408762 0.073606536 1.7679999
0.067352384 0.087558098 1.7680001
0.072067045 0.083516955 1.768
0.067352384 0.090925716 1.7680001
0.070720002 0.094293334 1.7680001
0.067352384 0.10271238 1.7680001
0.070720002 0.10271238 1.7680001
-0.21216001 0.12796953 1.7680001
-0.20879239 0.12796953 1.7680001
-0.21216001 0.13133715 1.7680001
-0.20879239 0.13470477 1.7680001
0.10776381 0.18690285 1.7680001
0.11281523 0.18690285 1.7680001
0.10776381 0.1919543 1.7680001
0.11247847 0.19599544 1.768
0.10776381 0.20710859 1.7680001
0.11113143 0.20374095 1.7680001
0.065668575 0.21889524 1.7680001
0.077455238 0.21889524 1.7680001
0.095977142 0.21889524 1.7680001
0.10327365 0.21552764 1.7680001
0.11113143 0.21216001 1.7680001
0.066229843 0.22338539 1.7680001
0.07408762 0.22506921 1.768
0.085152648 0.22514938 1.7679999
0.094293334 0.22563049 1.7679999
0.10102858 0.22563048 1.7680001
0.077455238 0.23236573 1.7680001
0.085032381 0.23320763 1.7680001
0.094293341 0.23477116 1.7679999
0.10102858 0.23404953 1.7680001
-0.18185143 0.24246858 1.7680001
-0.13133715 0.24920382 1.7680001
0.086435556 0.24471366 1.7680001
0.094293334 0.2458362 1.7679999
0.10355429 0.2483619 1.7680001
0.11113143 0.24920382 1.7680001
-0.17848381 0.25762287 1.7680001
-0.13133715 0.25762287 1.7680001
0.095640376 0.25526553 1.768
0.10439619 0.25593904 1.7679999
0.11113143 0.25593904 1.7680001
-0.1784838 0.2660419 1.7680001
-0.13133715 0.2643581 1.7680001
-0.12684698 0.26828697 1.7680001
-0.08419048 0.26940954 1.7680001
-0.07408762 0.26940954 1.7680001
-0.023573335 0.26772571 1.7680001
0.094293334 0.2643581 1.7680001
0.10372267 0.26402134 1.768
0.11113143 0.2626743 1.7680001
-0.1784838 0.27614477 1.7680001
-0.12460192 0.27614477 1.7679999
-0.11786667 0.27614477 1.7680001
-0.08419048 0.27614474 1.7679999
-0.073666669 0.27572381 1.7679999
-0.067352384 0.27782857 1.7680001
-0.023573335 0.2765657 1.7679999
-0.1751162 0.28624764 1.7680001
-0.12544382 0.28540573 1.7680001
-0.085874289 0.28456381 1.7680001
-0.070720002 0.28624764 1.7680001
-0.063984767 0.28624764 1.7680001
-0.057249527 0.28624764 1.7680001
0.0067352382 0.28793144 1.7680001
-0.1751162 0.29466668 1.7680001
-0.12460191 0.29971811 1.7680001
-0.070720002 0.29298288 1.7680001
-0.062862225 0.29578924 1.768
-0.057249527 0.29635051 1.7680001
-0.004490159 0.29747304 1.7680001
0.004490159 0.29522794 1.7680001
0.010102858 0.29635048 1.7680001
-0.12460191 0.30308571 1.7680001
-0.070720002 0.30645335 1.7680001
-0.064465858 0.30549115 1.7679999
-0.05430286 0.30687428 1.7679999
0.0056126988 0.30757585 1.7680001
0.013470477 0.30476952 1.768
0.022731429 0.30561143 1.7680001
0.12123429 0.30308571 1.7680001
0.087558098 0.33171049 1.7680001
-0.11449905 0.34686476 1.7680001
0.12628572 0.34181336 1.7680001
-0.11449905 0.35191619 1.7680001
-0.10776381 0.35191619 1.7680001
-0.11618286 0.56576002 1.7680001
-0.14649144 0.60448766 1.7680001
-0.15154286 0.61459053 1.7680001
-0.16164573 0.62806094 1.7680001
-0.15587266 0.62685823 1.7679999
-0.14480762 0.62637717 1.7680001
-0.13638857 0.62300956 1.7680001
0.19532192 0.62974477 1.7680001
-0.17174858 0.63479626 1.7680001
-0.16568688 0.6344595 1.768
-0.15491048 0.63311243 1.7680001
0.18185143 0.63311243 1.7680001
-0.15322667 0.64321524 1.7680001
-0.14817524 0.64321524 1.7680001
0.19700572 0.6499505 1.7680001
0.20584571 0.64616191 1.7679999
0.21384382 0.6465829 1.768
0.20879239 0.65668571 1.7680001
0.21216001 0.65500188 1.7680001
0.26401144 -0.2318562 1.7770001
0.2572419 -0.22339429 1.7770001
0.26062667 -0.22677906 1.7770001
0.2504724 -0.21493238 1.7770001
0.24454904 -0.20647049 1.7770001
0.2504724 -0.20985524 1.7770001
0.19970097 -0.18277715 1.7770001
0.20308572 -0.18446952 1.7770001
0.19800858 -0.17600763 1.7770001
0.18954667 -0.16585335 1.7770001
0.19293143 -0.16754572 1.7770001
0.18954666 -0.15569906 1.7770001
0.18841843 -0.14328825 1.7770001
0.17939238 -0.13708286 1.7770001
0.18446952 -0.13539048 1.7770001
0.17713588 -0.1252362 1.7770001
0.17431524 -0.11508191 1.7770001
0.16810985 -0.10492762 1.7770001
0.15739143 -0.096465722 1.7770001
0.16382249 -0.09545029 1.7770001
0.15231429 -0.084619053 1.7770001
0.14892954 -0.074464768 1.7770001
0.14808334 -0.063464284 1.7770001
0.13877524 -0.05077143 1.7770001
0.14216 -0.054156192 1.7770001
0.12862095 -0.044001907 1.7770001
0.1328519 -0.044848099 1.7770001
0.12862095 -0.030462857 1.7770001
0.12410795 -0.023693332 1.7770001
0.12297968 -0.015795557 1.7770001
0.11508191 -0.0056412704 1.7770001
0.10831238 0.006769524 1.7770001
0.11169714 0.001692381 1.7770001
0.10695847 0.014216 1.7770001
0.098158099 0.027078096 1.7770001
0.10450453 0.023270238 1.7770002
0.096465714 0.033847619 1.7770001
0.10154286 0.030462857 1.7770001
0.094773337 0.047386669 1.7770001
0.088003814 0.054156192 1.7770001
0.093080953 0.052463811 1.7770001
0.088003814 0.064310476 1.7770001
0.091388576 0.067695238 1.7770001
0.07784953 0.07784953 1.7770001
0.082080483 0.073618576 1.7770001
0.076157153 0.084619053 1.7770001
0.081234291 0.081234291 1.7770001
0.076157153 0.094773345 1.7770001
0.081234291 0.098158099 1.7770001
0.067695238 0.10831238 1.7770001
0.075028896 0.10492762 1.7770001
0.081234291 0.10154286 1.7770001
0.067695238 0.11169714 1.7770001
0.072208256 0.11282539 1.7770001
0.066002861 0.12185143 1.7770001
0.071079999 0.12185143 1.7770001
0.11846667 0.18954667 1.7770001
0.11762048 0.19547001 1.7770001
0.1252362 0.1963162 1.7770002
0.13200572 0.1963162 1.7770001
0.11604898 0.206954 1.7770002
0.12185142 0.20647049 1.7770001
0.10662 0.21662477 1.7770001
0.11575886 0.21527085 1.7770001
0.12185143 0.21493238 1.7770001
0.08631143 0.22000954 1.7770001
0.091388576 0.22000954 1.7770001
0.10662001 0.22339429 1.7770001
0.11282539 0.22113778 1.7770001
0.074464768 0.23242033 1.7770001
0.082926676 0.23693334 1.7770001
0.10492762 0.2318562 1.7770001
-0.18277715 0.24708763 1.7770001
0.07784953 0.24201047 1.7770001
0.083490796 0.24257459 1.7770001
0.094773337 0.2403181 1.7770001
0.10541115 0.24370287 1.7770002
0.11169714 0.24539524 1.7770001
-0.18277715 0.25216478 1.7770001
-0.13200572 0.25385717 1.7770001
0.08631143 0.25385717 1.7770001
0.091388576 0.25554955 1.7770001
0.11677429 0.25385717 1.7770001
-0.12591316 0.2646884 1.7770001
-0.11846667 0.26570383 1.7770001
-0.091388576 0.26401144 1.7770001
-0.084619053 0.26401144 1.7770002
-0.075028896 0.2651397 1.7770001
-0.064310469 0.26739621 1.7770001
-0.040617146 0.26739621 1.7770001
-0.033847623 0.26739621 1.7770001
-0.023693334 0.26485765 1.7770001
-0.013539047 0.26401144 1.7770002
-0.0056412704 0.2651397 1.7770001
0.088003814 0.26231906 1.7770001
0.094773345 0.26401144 1.7770001
0.10831238 0.26739621 1.7770001
0.11604898 0.26449499 1.7770002
-0.12185143 0.27078095 1.7770001
-0.11411483 0.27368218 1.7770002
-0.10831238 0.27755049 1.7770001
-0.092234768 0.27501193 1.7770001
-0.063887388 0.27374262 1.7770002
-0.054156192 0.27416572 1.7770001
-0.042873651 0.27529398 1.7770001
-0.033364084 0.27416572 1.7770002
-0.023693334 0.27247334 1.7770001
-0.013539047 0.27416572 1.7770002
-0.0050771427 0.27416572 1.7770001
0.004513016 0.27472982 1.7770001
0.010154286 0.2758581 1.7770001
0.093927145 0.2750119 1.7770001
0.10492761 0.27416575 1.7770002
0.11459837 0.27416572 1.7770002
0.12297968 0.27529398 1.7770001
-0.18277715 0.28770477 1.7770001
-0.17939238 0.28601238 1.7770001
-0.12185143 0.28601238 1.7770001
-0.11465881 0.2847431 1.7770002
-0.09274248 0.28432003 1.7770001
-0.081234291 0.28601238 1.7770001
-0.075593024 0.28488412 1.7770001
-0.063826941 0.28432003 1.7770002
-0.053672653 0.28432 1.7770002
-0.044001907 0.28601238 1.7770001
-0.033283494 0.28544822 1.7770001
-0.023693332 0.28601238 1.7770001
-0.013539047 0.28432 1.7770002
-0.0050771427 0.28432 1.7770001
0.0029616668 0.28389692 1.7770002
0.012410793 0.28544822 1.7770001
0.094773337 0.28262764 1.7770001
0.10492761 0.28432 1.7770002
0.11508191 0.28432 1.7770002
0.12297968 0.28206351 1.7770001
-0.17939238 0.29278192 1.7770001
-0.12410793 0.2944743 1.7770001
-0.11508191 0.29108953 1.7770001
-0.10396055 0.29399076 1.7770002
-0.094350241 0.29489741 1.7770002
-0.08631143 0.29447427 1.7770001
-0.074464761 0.29399076 1.7770002
-0.064987436 0.29379734 1.7770001
-0.053189117 0.29399076 1.7770002
-0.047386665 0.2944743 1.7770001
-0.030462857 0.29108953 1.7770001
-0.023693334 0.29447433 1.7770002
-0.013539047 0.29447433 1.7770002
-0.0050771432 0.29278192 1.7770001
0.0020308574 0.29379734 1.7770001
0.013962142 0.29405123 1.7770002
0.020308573 0.29785907 1.7770001
0.096465722 0.29278192 1.7770001
0.10408143 0.29193574 1.7770001
0.11169714 0.29108953 1.7770001
-0.10323524 0.30462858 1.7770001
-0.095196441 0.30420548 1.7770002
-0.074464761 0.30462858 1.7770002
-0.067695238 0.30124381 1.7770001
-0.051899683 0.30237207 1.7770001
-0.046258416 0.30237207 1.7770001
-0.023693334 0.30208999 1.7770001
-0.013539047 0.30462858 1.7770002
-0.0054156194 0.30530554 1.7770001
0.0029616668 0.30462858 1.7770002
0.013539049 0.30124381 1.7770001
0.023693334 0.3029362 1.7770001
0.03300143 0.30716717 1.7770001
0.040617146 0.30801335 1.7770001
-0.10323524 0.31139812 1.7770001
-0.098158099 0.31139812 1.7770001
-0.072772384 0.31139812 1.7770001
-0.062618092 0.3130905 1.7770001
-0.016923809 0.31139812 1.7770001
-0.0050771432 0.31139812 1.7770001
0 0.31139812 1.7770001
0.037232384 0.31139812 1.7770001
0.040617146 0.31139812 1.7770001
0.1252362 0.31478286 1.7770001
0.12692857 0.3283219 1.7770001
0.13200572 0.3283219 1.7770001
0.091388576 0.33170667 1.7770001
0.11846667 0.33847621 1.7770001
0.12455925 0.33441448 1.7770001
0.1159281 0.34778431 1.7770001
0.12185143 0.34524572 1.7770001
-0.11169714 0.35370764 1.7770001
-0.10323524 0.35201526 1.7770001
0.10492762 0.35540003 1.7770001
0.11508191 0.35370764 1.7770001
0.12354381 0.35370767 1.7770001
-0.14554477 0.60925716 1.7770001
-0.14892954 0.61433434 1.7770001
0.18616192 0.61489844 1.7770001
0.19293143 0.61941147 1.7770001
-0.15231429 0.62618095 1.7770001
-0.14554477 0.62871951 1.7770001
0.17939238 0.62956572 1.7770001
0.18559779 0.62561685 1.7770001
0.19589311 0.62660408 1.7770002
0.20308572 0.62956572 1.7770001
0.17685382 0.63379669 1.7770001
0.18700808 0.63887382 1.7770001
0.1963162 0.63675833 1.7770002
0.20647047 0.63633519 1.7770002
0.21324001 0.63972002 1.7770001
0.18954667 0.64648956 1.7770001
0.19673929 0.64691269 1.7770002
0.20647049 0.64310479 1.7770001
0.21493238 0.64310479 1.7770001
0.25854477 -0.22112381 1.7860001
0.26364762 -0.22452572 1.7860001
0.25514287 -0.21432 1.7860001
0.2466381 -0.20411429 1.7860001
0.25287494 -0.20524825 1.7860001
0.21432 -0.19050667 1.7860001
0.20638223 -0.18143493 1.7860001
0.2109181 -0.18710476 1.7860001
0.19731048 -0.17009525 1.7860001
0.20354731 -0.17349716 1.7860001
0.19617651 -0.16442542 1.7860001
0.20184636 -0.16555937 1.7860001
0.19560952 -0.15648763 1.7860001
0.20071238 -0.15818858 1.7860001
0.1930581 -0.1471324 1.7860001
0.19135714 -0.1360762 1.7860001
0.18200192 -0.12587048 1.7860001
0.17689906 -0.11226286 1.7860001
0.18030097 -0.11736572 1.7860001
0.17406414 -0.10545906 1.7860001
0.15988953 -0.093552381 1.7860001
0.16669334 -0.091851436 1.7860001
0.17009525 -0.095253341 1.7860001
0.15648763 -0.085047625 1.7860001
0.16329144 -0.08844953 1.7860001
0.15308572 -0.074841909 1.7860001
0.15308572 -0.064636193 1.7860001
0.1468489 -0.054997463 1.7860001
0.13811734 -0.043544386 1.786
0.14288001 -0.047626667 1.7860001
0.13494222 -0.03515302 1.7860001
0.12927239 -0.022112381 1.7860001
0.13267429 -0.025514286 1.7860001
0.12757143 -0.013607619 1.7860001
0.11736572 -0.0034019048 1.7860001
0.12246858 -0.0068038097 1.7860001
0.11566477 0.0034019046 1.786
0.11226287 0.013607618 1.7860001
0.10886095 0.027215239 1.7860001
0.11396381 0.023813335 1.7860001
0.10545904 0.034019049 1.7860001
0.098655246 0.044224765 1.7860001
0.10319111 0.041956827 1.7860001
0.08844953 0.057832383 1.7860001
0.095253326 0.055564445 1.7860001
0.093552381 0.062935241 1.7860001
0.087088771 0.075522289 1.786
0.091851436 0.074841909 1.7860001
0.078243814 0.086748578 1.7860001
0.085472859 0.085472859 1.7860001
0.091851436 0.08164572 1.7860001
0.085047618 0.094281368 1.7860001
0.078243814 0.10886095 1.7860001
0.083686866 0.10613944 1.786
0.066904128 0.1179327 1.7860001
0.07597588 0.11679873 1.7860001
0.082779683 0.11339682 1.7860001
0.075522289 0.12450971 1.786
0.12757143 0.20581524 1.7860001
0.13267429 0.20411429 1.7860001
0.12723124 0.21500039 1.786
0.1360762 0.21432 1.7860001
0.11679873 0.22565968 1.7860001
0.12331906 0.22367524 1.7860001
0.074841909 0.23473144 1.7860001
0.10801047 0.2355819 1.7860001
0.11396381 0.23473144 1.7860001
0.12246858 0.23132953 1.7860001
-0.18710476 0.24493714 1.7860001
0.078243814 0.24833906 1.7860001
0.10545905 0.24153525 1.7860001
0.11566477 0.24493715 1.786
-0.18625429 0.25599337 1.7860001
-0.12757143 0.25854477 1.7860001
-0.11906667 0.25854477 1.7860001
-0.091851436 0.25854477 1.7860001
-0.085728005 0.257184 1.786
-0.074841909 0.25854477 1.7860001
-0.02041143 0.25854477 1.7860001
0.078243814 0.25514284 1.7860001
0.08164572 0.25514287 1.7860001
0.12382934 0.25582325 1.786
-0.21432002 0.26632056 1.7860001
-0.20751619 0.26704955 1.7860001
-0.18455334 0.26449811 1.7860001
-0.12360255 0.26308063 1.7860001
-0.11498438 0.26602894 1.786
-0.095253326 0.26534858 1.7860001
-0.073707938 0.26308063 1.7860001
-0.065316573 0.26398781 1.786
-0.054430481 0.26704952 1.7860001
-0.044710752 0.26534858 1.7860001
-0.034586035 0.26478159 1.7860001
-0.023813331 0.26194668 1.7860001
-0.004535873 0.26421461 1.7860001
0.0034019048 0.26534855 1.7860001
0.013182382 0.2657738 1.7860001
0.078243814 0.26194668 1.7860001
0.084075652 0.26583457 1.7860001
0.12382934 0.2646682 1.786
-0.21431999 0.27458233 1.7860001
-0.20751619 0.27385336 1.7860001
-0.18540382 0.2755543 1.7860001
-0.10503381 0.27512905 1.7860001
-0.097294472 0.27487391 1.786
-0.054430477 0.2755543 1.786
-0.044791747 0.27498731 1.7860001
-0.035720002 0.2755543 1.7860001
0.0011339682 0.27442035 1.7860001
0.014579593 0.27506831 1.7860001
0.022962857 0.27810571 1.7860001
0.086748578 0.2755543 1.7860001
0.09593372 0.27487391 1.786
0.11736572 0.2755543 1.7860001
0.12246858 0.2755543 1.7860001
-0.18574402 0.28507966 1.786
-0.10545906 0.28576005 1.7860001
-0.097804755 0.28576005 1.7860001
-0.054430477 0.28235811 1.7860001
-0.044224765 0.28235811 1.7860001
-0.035153016 0.28349206 1.7860001
0.015875556 0.28349206 1.7860001
0.023813335 0.28576002 1.7860001
0.034019049 0.28916192 1.7860001
0.086748578 0.28576002 1.7860001
0.095253333 0.286246 1.7860001
0.12416953 0.28916192 1.7860001
-0.18506363 0.29528537 1.786
-0.12246858 0.29766667 1.7860001
-0.11566477 0.29766667 1.7860001
-0.10886095 0.29766667 1.7860001
-0.098655239 0.29256383 1.7860001
-0.08164572 0.29596573 1.7860001
-0.078243814 0.29936764 1.7860001
-0.042523813 0.29596573 1.7860001
-0.034444287 0.29639095 1.7860001
0.024238573 0.29554048 1.7860001
0.030617144 0.29936764 1.7860001
0.086748578 0.29596573 1.7860001
0.09476734 0.29645172 1.7860001
0.10613942 0.29800686 1.786
0.11430401 0.29664612 1.786
-0.12246858 0.30276954 1.7860001
-0.11469279 0.30568546 1.7860001
-0.10886095 0.30617145 1.7860001
-0.091851436 0.30957335 1.7860001
-0.085047625 0.3057462 1.7860001
-0.078243814 0.30276954 1.7860001
-0.042523813 0.30617145 1.7860001
-0.033168573 0.30362001 1.7860001
-0.023813333 0.30821261 1.786
0.027215239 0.30276954 1.7860001
0.034019049 0.30447048 1.7860001
0.044905145 0.30753222 1.786
0.10545904 0.30276954 1.7860001
0.11481428 0.30787241 1.7860001
-0.11396381 0.31297526 1.7860001
-0.10886095 0.31297526 1.7860001
-0.078243814 0.31297526 1.7860001
-0.044224765 0.31297526 1.7860001
-0.023813333 0.31297526 1.7860001
-0.012927239 0.31501642 1.786
-0.005102857 0.31637716 1.7860001
0.093552388 0.31637716 1.7860001
0.11609001 0.31637719 1.7860001
0.12587048 0.31637716 1.7860001
0.094686359 0.32658288 1.7860001
0.11663674 0.32609686 1.7860001
0.12538449 0.32561091 1.7860001
0.09411937 0.33565462 1.7860001
0.10545905 0.33678859 1.7860001
0.11634515 0.33542782 1.786
0.12246858 0.33338669 1.7860001
-0.1037581 0.34699431 1.7860001
-0.098655239 0.34699431 1.7860001
0.091851436 0.3401905 1.7860001
0.10602602 0.34472635 1.7860001
0.11469279 0.34359244 1.7860001
0.12246858 0.34699431 1.7860001
-0.11226286 0.35039622 1.7860001
-0.10477866 0.35311776 1.786
0.098655246 0.35379815 1.7860001
0.10545905 0.35337287 1.7860001
-0.1037581 0.36060193 1.7860001
0.098655239 0.3623029 1.7860001
0.10545905 0.36400384 1.7860001
0.11498438 0.36196271 1.786
0.12416953 0.36060193 1.7860001
0.10205714 0.37080762 1.7860001
-0.12246858 0.57492191 1.7860001
-0.14458096 0.60724002 1.7860001
-0.1394781 0.60894096 1.7860001
0.16669334 0.60553908 1.7860001
0.17122923 0.60780698 1.7860001
-0.14514793 0.61574483 1.7860001
0.17463112 0.61461085 1.7860001
0.18256891 0.61631179 1.7860001
0.19050667 0.6191467 1.7860001
-0.1467679 0.62497854 1.7860001
-0.13522573 0.62680101 1.7860001
0.17604859 0.62680095 1.7860001
0.1823421 0.62458974 1.786
0.17349716 0.63275433 1.7860001
0.19220762 0.64636195 1.7860001
0.27010477 -0.23249525 1.7950001
0.28207144 -0.23249525 1.7950001
0.28264129 -0.22793651 1.7950001
0.25984764 -0.21540003 1.7950001
0.26326668 -0.21881905 1.7950001
0.25642857 -0.20856191 1.7950001
0.21198095 -0.18291906 1.7950001
0.20856191 -0.17266192 1.7950001
0.21198095 -0.17779048 1.7950001
0.20628256 -0.1641143 1.7950001
0.19830477 -0.1504381 1.7950001
0.20377524 -0.15317333 1.7950001
0.19716509 -0.1436 1.7950001
0.20172381 -0.14701906 1.7950001
0.19488572 -0.13334286 1.7950001
0.18690795 -0.12650476 1.7950001
0.18291906 -0.11624762 1.7950001
0.17779048 -0.10257144 1.7950001
0.18120953 -0.10770001 1.7950001
0.17551112 -0.098012708 1.7950001
0.16297461 -0.08547619 1.7950001
0.1572762 -0.075219058 1.7950001
0.16155002 -0.07607381 1.7950001
0.1572762 -0.06496191 1.7950001
0.16274668 -0.065645717 1.7950001
0.15271746 -0.053565081 1.7950001
0.1641143 -0.058123812 1.7950001
0.14530954 -0.044447619 1.7950001
0.1367619 -0.030771431 1.7950001
0.14189048 -0.034190476 1.7950001
0.13590714 -0.023078572 1.7950001
0.14018096 -0.027352381 1.7950001
0.12992382 -0.010257144 1.7950001
0.13448255 -0.015955554 1.7950001
0.12650478 -0.0051285713 1.7950001
0.11966667 0.0051285718 1.7950001
0.12394048 0.0025642859 1.7950001
0.11795714 0.013676192 1.7950001
0.12308572 0.010257144 1.7950001
0.11966667 0.023933334 1.7950001
0.12308572 0.027352381 1.7950001
0.10940953 0.037609525 1.7950001
0.11510795 0.033050794 1.7950001
0.10667429 0.04513143 1.7950001
0.099152386 0.056414288 1.7950001
0.10371113 0.052425399 1.7950001
0.098297626 0.065816671 1.7950001
0.10257144 0.06496191 1.7950001
0.096588105 0.074364282 1.7950001
0.094365716 0.086159997 1.7950001
0.088895239 0.099152386 1.7950001
0.093169048 0.094878577 1.7950001
0.088895239 0.10599049 1.7950001
0.092314288 0.10599048 1.7950001
0.086160004 0.11693142 1.7950001
0.075219043 0.12992382 1.7950001
0.083766669 0.12650478 1.7950001
0.13562222 0.20742224 1.7950001
0.12992382 0.21198095 1.7950001
0.13419762 0.21454525 1.7950001
0.14189048 0.21540001 1.7950001
0.12855621 0.22634096 1.7950001
0.13334286 0.22394763 1.7950001
-0.19146667 0.23933335 1.7950001
-0.18804763 0.23933335 1.7950001
0.068380952 0.23420477 1.7950001
0.073509529 0.23762381 1.7950001
0.11966667 0.23591429 1.7950001
0.12693216 0.23634169 1.7950001
0.13334286 0.23762381 1.7950001
0.14018096 0.23933335 1.7950001
-0.19351812 0.24753904 1.7950001
-0.12992382 0.24788097 1.7950001
0.07436429 0.24617144 1.7950001
0.11966667 0.24446192 1.7950001
0.12650478 0.24617144 1.7950001
0.13419762 0.24702621 1.7950001
0.14132065 0.24731112 1.7950001
-0.22428954 0.25711241 1.7950001
-0.2154 0.2564286 1.7950001
-0.20514287 0.2564286 1.7950001
-0.19488573 0.2564286 1.7950001
-0.12601635 0.25545171 1.7950001
-0.11693144 0.25711238 1.7950001
-0.10462288 0.25779623 1.7950001
-0.096417144 0.25779623 1.7950001
-0.084621429 0.25386429 1.7950001
-0.075219058 0.25642857 1.7950001
-0.065645717 0.25848001 1.7950001
-0.054704767 0.25984764 1.7950001
-0.044447619 0.25984764 1.7950001
-0.034190476 0.25984764 1.7950001
-0.023933336 0.25699845 1.7950001
-0.014164627 0.25740546 1.7950001
-0.0051285713 0.25813812 1.7950001
0.0027352381 0.25848001 1.7950001
0.013676192 0.25984764 1.7950001
0.025642857 0.25984764 1.7950001
0.073851429 0.25711241 1.7950001
0.1282143 0.25300953 1.7950001
0.13334286 0.25300953 1.7950001
-0.22394763 0.2649762 1.7950001
-0.21540001 0.26326668 1.7950001
-0.20445904 0.26463431 1.7950001
-0.19488573 0.2649762 1.7950001
-0.18804763 0.26668572 1.7950001
-0.1145381 0.26326668 1.7950001
-0.10599048 0.2649762 1.7950001
-0.099152386 0.2649762 1.7950001
-0.061542861 0.26326668 1.7950001
-0.054704767 0.26326668 1.7950001
-0.044447619 0.26326668 1.7950001
-0.030771431 0.26326668 1.7950001
0.017095238 0.26326668 1.7950001
0.023933336 0.2649762 1.7950001
0.033335716 0.26583096 1.7950001
0.074535243 0.2653181 1.7950001
-0.22394763 0.27352381 1.7950001
-0.20343333 0.27352384 1.7950001
-0.19488572 0.27352381 1.7950001
-0.18804763 0.27010477 1.7950001
-0.10599049 0.27010477 1.7950001
-0.099152386 0.27010477 1.7950001
0.024360716 0.27309644 1.7950001
0.033763096 0.27352381 1.7950001
0.041028574 0.27010477 1.7950001
0.075219043 0.27309644 1.7950001
0.082057148 0.27523333 1.7950001
-0.22394763 0.28378096 1.7950001
-0.2154 0.28420833 1.7950001
-0.20514286 0.28378093 1.7950001
-0.19488573 0.28378093 1.7950001
0.034190476 0.28378093 1.7950001
0.078638099 0.28378096 1.7950001
0.082057148 0.28378096 1.7950001
-0.22428954 0.29335427 1.7950001
-0.21881905 0.29061905 1.7950001
-0.20343333 0.29061905 1.7950001
-0.19390884 0.29354969 1.7950001
0.033050794 0.29403815 1.7950001
0.077783331 0.29489288 1.7950001
0.082057148 0.29403809 1.7950001
0.11966667 0.29574764 1.7950001
0.12308572 0.29574764 1.7950001
-0.22565715 0.30429524 1.7950001
-0.19146667 0.30258572 1.7950001
-0.18804763 0.30258572 1.7950001
-0.12308572 0.30771428 1.7950001
-0.11966667 0.30771428 1.7950001
-0.0359 0.30771428 1.7950001
0.034190476 0.3008762 1.7950001
0.077270485 0.30361143 1.7950001
0.08498776 0.3052721 1.7950001
0.095733345 0.30600476 1.7950001
0.10599048 0.30685952 1.7950001
0.1173873 0.30543494 1.7950001
0.12308572 0.30258572 1.7950001
-0.12308572 0.31113335 1.7950001
-0.11966667 0.31284288 1.7950001
-0.083766669 0.31284288 1.7950001
-0.07521905 0.31797144 1.7950001
-0.044447623 0.31369764 1.7950001
-0.034190476 0.3145524 1.7950001
-0.023933334 0.31660384 1.7950001
0.086160004 0.31250098 1.7950001
0.097100958 0.3131848 1.7950001
0.10599048 0.31455243 1.7950001
0.11282858 0.31797144 1.7950001
-0.071800001 0.32139048 1.7950001
-0.041028574 0.32139048 1.7950001
-0.034190476 0.32139048 1.7950001
-0.027352381 0.32139048 1.7950001
0.099152386 0.32480955 1.7950001
0.10599048 0.32480955 1.7950001
0.11282858 0.32822859 1.7950001
0.099152386 0.3367762 1.7950001
0.10599048 0.33463931 1.7950001
0.11282858 0.33335716 1.7950001
-0.11624762 0.34874287 1.7950001
-0.10599048 0.34646353 1.7950001
-0.094023809 0.34874287 1.7950001
0.097442865 0.34532383 1.7950001
0.10485081 0.34304449 1.7950001
-0.096417144 0.35352951 1.7950001
0.095733337 0.35558096 1.7950001
0.096588105 0.36669284 1.7950001
0.11710238 0.36840242 1.7950001
0.097442865 0.37438571 1.7950001
0.10641786 0.37652263 1.7950001
0.11527075 0.37560681 1.7950001
0.1073581 0.38635239 1.7950001
0.11575919 0.38732928 1.7950001
0.12308572 0.38806191 1.7950001
0.10940953 0.3931905 1.7950001
-0.13334286 0.58465719 1.7950001
-0.12593494 0.58408731 1.7950001
-0.13448255 0.59605402 1.7950001
-0.12536509 0.59548414 1.7950001
-0.11624762 0.59833336 1.7950001
-0.14189048 0.60859048 1.7950001
-0.13505238 0.60859048 1.7950001
-0.1255279 0.6056599 1.7950001
-0.11693144 0.60311997 1.7950001
0.1572762 0.60859048 1.7950001
0.1641143 0.60859048 1.7950001
-0.14132065 0.61770797 1.7950001
-0.13505238 0.61542863 1.7950001
-0.12718858 0.61611235 1.7950001
0.1572762 0.61542857 1.7950001
0.16525398 0.61542863 1.7950001
0.17095239 0.61884767 1.7950001
-0.14132065 0.62340641 1.7950001
-0.13505238 0.62397623 1.7950001
-0.12855621 0.62500197 1.7950001
0.16639365 0.62682539 1.7950001
0.17266192 0.62568575 1.7950001
0.16582382 0.63252383 1.7950001
0.17095239 0.63252383 1.7950001
0.27546796 -0.23251556 1.804
0.26802287 -0.22335239 1.8040001
0.27145904 -0.22678858 1.8040001
0.26458669 -0.21476191 1.8040001
0.24568763 -0.20273525 1.8040001
0.25084192 -0.20273525 1.8040001
0.26115048 -0.20960763 1.8040001
0.21648 -0.18555428 1.8040003
0.21418922 -0.17524572 1.8040003
0.20960763 -0.16321906 1.8040001
0.21304382 -0.16837335 1.8040001
0.20960763 -0.15634668 1.8040001
0.19929905 -0.14088382 1.8040001
0.20445335 -0.1460381 1.8040001
0.19242667 -0.13057524 1.8040001
0.18899049 -0.12370286 1.8040001
0.1855543 -0.11511239 1.8040001
0.1821181 -0.10308572 1.8040001
0.17696381 -0.094495237 1.8040001
0.1821181 -0.099649526 1.8040001
0.16837335 -0.084186673 1.8040001
0.17180951 -0.085904755 1.8040003
0.16665524 -0.075596191 1.8040001
0.16608255 -0.06528762 1.8040003
0.15720573 -0.054979049 1.8040001
0.16150096 -0.058415242 1.8040001
0.14775619 -0.041234288 1.8040001
0.15119238 -0.046388574 1.8040001
0.1466108 -0.034361906 1.8040003
0.14294553 -0.023366095 1.8040001
0.13630222 -0.011453968 1.8040003
0.14202921 -0.016035557 1.8040003
0.12713905 0.0051542856 1.8040001
0.12484825 0.016035557 1.8040003
0.12370286 0.022335239 1.8040001
0.11683048 0.037798095 1.8040001
0.1099581 0.048106667 1.8040001
0.11453968 0.042379688 1.8040003
0.10720915 0.055666286 1.8040001
0.1059492 0.065287627 1.804
0.099649526 0.077314287 1.8040001
0.10394477 0.074737146 1.8040001
0.099649526 0.082468577 1.8040001
0.096213333 0.096213333 1.8040001
0.092777148 0.1065219 1.8040001
0.092777148 0.11511239 1.8040001
0.089340955 0.12370286 1.8040003
0.092777148 0.12026667 1.8040001
0.077314287 0.13401143 1.8040001
0.084186673 0.13401143 1.8040001
0.14294553 0.20685868 1.8040001
0.13744763 0.21991619 1.8040001
0.14202921 0.21533461 1.8040003
0.13744763 0.22507048 1.8040001
-0.13057524 0.23709716 1.8040001
-0.12542096 0.23709716 1.8040001
0.13607314 0.23297374 1.8040001
0.14202921 0.23595177 1.8040003
-0.22564317 0.24626033 1.8040003
-0.21648002 0.24740572 1.8040003
-0.20617144 0.24740572 1.8040003
-0.19723734 0.24465677 1.8040001
-0.13057524 0.24225143 1.8040001
-0.12427557 0.24511492 1.804
-0.11683048 0.24568763 1.8040001
-0.10308572 0.24740572 1.8040001
-0.08590477 0.24740572 1.8040003
-0.079032384 0.24740572 1.8040001
-0.020617144 0.24568763 1.8040001
-0.013744763 0.24568765 1.804
-0.0068723811 0.24568763 1.8040001
0.072160006 0.24225143 1.8040001
0.13744763 0.24396954 1.8040003
0.14432001 0.24311048 1.8040001
0.15119238 0.24396953 1.8040001
-0.23194286 0.2577143 1.8040001
-0.2244978 0.25198731 1.8040003
-0.21648002 0.25084192 1.8040003
-0.20617144 0.25084192 1.8040003
-0.12370286 0.25084192 1.8040003
-0.11476877 0.25359088 1.8040001
-0.10709462 0.25427809 1.804
-0.095526099 0.25290361 1.8040001
-0.08590477 0.25084192 1.8040003
-0.075596191 0.25255999 1.804
-0.065974854 0.25359088 1.8040001
-0.055838093 0.25685525 1.8040001
-0.044670478 0.2559962 1.804
-0.035220955 0.25685525 1.8040001
-0.024053333 0.25256002 1.8040001
-0.013057524 0.2522164 1.8040001
-0.0051542856 0.25256002 1.8040001
0.0034361903 0.25542352 1.8040003
0.013744761 0.2577143 1.8040003
0.068723813 0.2577143 1.8040001
0.072160006 0.25256002 1.8040001
-0.24740572 0.26115048 1.8040001
-0.23323144 0.26415715 1.804
0.020617144 0.26115048 1.8040001
0.035049148 0.26252496 1.8040001
0.042379681 0.26687747 1.8040003
-0.2326792 0.27538612 1.804
0.037798095 0.27489525 1.8040001
0.043296002 0.27558246 1.8040001
0.075596191 0.27833143 1.8040001
-0.24396953 0.28864002 1.8040001
-0.23323143 0.28520381 1.804
0.042093333 0.28434479 1.8040001
0.073878095 0.28520381 1.804
-0.25427809 0.29894859 1.8040001
-0.24298777 0.29600328 1.804
-0.23366097 0.29551238 1.804
-0.22335239 0.29894859 1.8040001
-0.21605049 0.29594192 1.804
-0.2066623 0.29649419 1.804
-0.19929905 0.29723048 1.8040001
0.037798095 0.29723048 1.8040001
0.041234288 0.2920762 1.8040001
0.073878095 0.29379427 1.8040001
-0.25427809 0.30238476 1.8040001
-0.24396951 0.30582097 1.804
-0.23137017 0.30811176 1.8040003
-0.22472687 0.30582097 1.8040001
-0.21648 0.30582097 1.8040001
-0.19758096 0.30410287 1.8040001
0.072160006 0.30410287 1.8040001
-0.23194286 0.31269336 1.8040001
-0.22507048 0.31269336 1.8040001
-0.095067941 0.31727493 1.8040003
-0.085904755 0.31727493 1.8040003
-0.041234288 0.31612954 1.8040001
-0.034361906 0.31612954 1.8040003
-0.10652191 0.33674669 1.8040001
-0.12026667 0.34705526 1.8040001
-0.11511238 0.34533715 1.8040001
-0.1065219 0.34304634 1.804
-0.09793143 0.34533715 1.8040001
0.12026667 0.37798098 1.8040001
0.067578413 0.38256255 1.8040003
0.072160006 0.38141716 1.8040001
0.096642859 0.38442382 1.804
0.10423112 0.38714412 1.8040003
0.11683048 0.38485333 1.8040001
0.12141207 0.38370797 1.8040003
0.096213333 0.39172569 1.8040003
0.10652191 0.39344382 1.8040001
-0.13744763 0.58758861 1.8040001
-0.12198476 0.5841524 1.8040001
-0.11683048 0.58071619 1.8040001
-0.14202921 0.59331554 1.8040003
-0.13401145 0.59274286 1.804
-0.12301562 0.59377372 1.8040001
-0.14088382 0.60820574 1.8040001
-0.13352056 0.60526043 1.804
0.16665524 0.60820574 1.8040001
-0.13057524 0.6185143 1.8040001
-0.12284382 0.6167962 1.8040001
-0.11683048 0.61336005 1.8040001
0.16493715 0.6167962 1.8040001
0.15806477 0.62195051 1.8040001
0.16631162 0.62538666 1.8040001
0.27987429 -0.24186668 1.8140001
0.28332955 -0.24186668 1.8140001
0.27987429 -0.23841144 1.8140001
0.28332955 -0.23841144 1.8140001
0.26950857 -0.22113524 1.8140001
0.27555525 -0.22545429 1.8140001
0.28332955 -0.22804572 1.8140001
0.26778096 -0.21422477 1.8140001
0.22804572 -0.20040381 1.8140001
0.2349562 -0.20270731 1.8140001
0.24186668 -0.20385906 1.8140001
0.22343874 -0.19118984 1.8140001
0.22286287 -0.18485525 1.8140001
0.21768001 -0.17448953 1.8140001
0.22113524 -0.17621715 1.8140001
0.21537651 -0.16585143 1.8140001
0.21249714 -0.15548572 1.8140001
0.20558667 -0.14339238 1.8140001
0.21076953 -0.14857525 1.8140001
0.19694857 -0.13129905 1.8140001
0.20040381 -0.13648191 1.8140001
0.19234158 -0.12438858 1.8140001
0.18658286 -0.11056762 1.8140001
0.1900381 -0.11402286 1.8140001
0.18658286 -0.10538477 1.8140001
0.17967239 -0.093291432 1.8140001
0.18312763 -0.096746668 1.8140001
0.17621715 -0.086380959 1.8140001
0.16930667 -0.072560005 1.8140001
0.17276192 -0.076015241 1.8140001
0.16930667 -0.062194288 1.8140001
0.17276192 -0.069104761 1.8140001
0.16498762 -0.055283811 1.8140001
0.15548572 -0.04578191 1.8140001
0.14857525 -0.031097144 1.8140001
0.15203048 -0.03455238 1.8140001
0.14857525 -0.024186665 1.8140001
0.14742351 -0.014972699 1.8140001
0.13129905 -0.0034552382 1.8140001
0.13129905 0.0034552382 1.8140001
0.12784381 0.012093334 1.8140001
0.13129905 0.013820953 1.8140001
0.12784381 0.024186665 1.8140001
0.13129905 0.024186669 1.8140001
0.12352477 0.033688571 1.8140001
0.11632635 0.04722159 1.8140001
0.11315905 0.056147624 1.8140001
0.11229524 0.064785719 1.8140001
0.10711239 0.07774286 1.8140001
0.11056762 0.074287623 1.8140001
0.10308126 0.086380951 1.8140001
0.1002019 0.096746668 1.8140001
0.096746661 0.10365715 1.8140001
0.096746661 0.11402286 1.8140001
0.095364586 0.12507963 1.8140001
0.079470478 0.13820952 1.8140001
0.087763049 0.13613638 1.8140001
0.093291432 0.13129905 1.8140001
0.084653333 0.14166477 1.8140001
0.089836195 0.15548572 1.8140001
0.093291432 0.15894096 1.8140001
0.16585143 0.20558669 1.8140001
0.15318222 0.21537651 1.8140001
0.14166477 0.22459048 1.8140001
0.15203048 0.22631809 1.8140001
-0.20213144 0.23841144 1.8140001
-0.19522095 0.23841144 1.8140001
0.14512001 0.2349562 1.8140001
0.15203048 0.23322859 1.8140001
-0.24186668 0.24877715 1.8140001
-0.2349562 0.24877715 1.8140001
-0.22286287 0.24532191 1.8140001
-0.21422477 0.24532191 1.8140001
-0.20385906 0.2435943 1.8140001
-0.12323684 0.24301843 1.8140001
-0.11402286 0.24647367 1.8140001
-0.10365714 0.24877715 1.8140001
-0.096746668 0.24877715 1.8140001
-0.084653333 0.24359429 1.8140001
-0.076879054 0.24618572 1.8140001
-0.067377143 0.24877715 1.8140001
0.14857525 0.24186668 1.8140001
-0.25568762 0.25741524 1.8140001
-0.24489002 0.25611952 1.8140001
-0.23544981 0.25470042 1.8140001
-0.11056762 0.2522324 1.8140001
-0.1002019 0.2522324 1.8140001
-0.062194288 0.25396001 1.8140001
-0.055283815 0.25453588 1.8140001
-0.043190479 0.2522324 1.8140001
-0.032824762 0.25568762 1.8140001
-0.027641905 0.2522324 1.8140001
0.0034552382 0.25396001 1.8140001
0.013820953 0.25568762 1.8140001
0.024186669 0.25741524 1.8140001
0.032248888 0.25799111 1.8140001
-0.2625981 0.26950857 1.8140001
-0.25568762 0.26605332 1.814
-0.24489 0.26648524 1.8140001
-0.23841144 0.26950857 1.8140001
0.045609146 0.26536229 1.8140001
0.069104761 0.2625981 1.8140001
-0.2625981 0.27641907 1.8140001
-0.25568762 0.27641904 1.814
-0.24532191 0.27641904 1.814
-0.23841144 0.27469143 1.8140001
0.04837333 0.27641904 1.8140001
-0.2549966 0.28471166 1.8140001
-0.24532191 0.28505716 1.8140001
-0.23841144 0.28678477 1.8140001
0.04722159 0.28563303 1.8140001
-0.26432574 0.29542285 1.8140001
-0.25470042 0.29418889 1.8140001
-0.24704954 0.29283145 1.8140001
0.044054285 0.29455906 1.8140001
-0.2625981 0.30060571 1.8140001
-0.2549966 0.30336991 1.8140001
-0.23564725 0.30544305 1.8140001
-0.22113524 0.30578858 1.8140001
-0.21353373 0.30544305 1.8140001
-0.20558667 0.30406097 1.8140001
0.038007621 0.30578858 1.8140001
0.042326666 0.30319715 1.8140001
0.069104761 0.30578858 1.8140001
0.072560005 0.30060571 1.8140001
-0.23841144 0.31097144 1.8140001
-0.22113524 0.31097144 1.8140001
-0.086380959 0.32133716 1.8140001
-0.07774286 0.32479239 1.8140001
-0.11056762 0.34206858 1.8140001
0.1261162 0.36971048 1.8140001
0.12554033 0.3743175 1.8140001
0.055283815 0.38698664 1.8140001
0.063921906 0.38698667 1.8140001
0.074287623 0.38698667 1.8140001
0.088684447 0.38583493 1.8140001
0.12438858 0.38180381 1.8140001
0.044918101 0.39389715 1.8140001
0.055283815 0.39488438 1.8140001
0.067377143 0.39389718 1.8140001
0.075028025 0.39439076 1.8140001
0.086956829 0.39389715 1.8140001
0.09444318 0.39504895 1.8140001
0.10192952 0.3973524 1.8140001
0.055283815 0.40080762 1.8140001
0.067377143 0.40080762 1.8140001
0.076015241 0.40080762 1.8140001
0.084653333 0.40080762 1.8140001
0.09501905 0.40080762 1.8140001
0.1002019 0.40080762 1.8140001
-0.14166477 0.60466665 1.8140001
-0.13820952 0.60812193 1.8140001
-0.11056762 0.60121143 1.8140001
-0.10279334 0.60207522 1.8140001
0.15634952 0.60725808 1.8140001
-0.14512001 0.61157715 1.8140001
