# .PCD v0.7 - Point Cloud Data file format
VERSION 0.7
FIELDS x y z
SIZE 4 4 4
TYPE F F F
COUNT 1 1 1
WIDTH 1496
HEIGHT 1
VIEWPOINT 0 0 0 1 0 0 0
POINTS 1496
DATA ascii
-0.019794287 0.27217144 1.7320001
0.0049485713 0.27052191 1.7320001
-0.23258287 0.28701717 1.7320001
-0.22392286 0.28413048 1.7320002
-0.082476191 0.28536764 1.7320001
-0.075878099 0.28619242 1.7320001
-0.067630485 0.28701717 1.7320001
-0.053884447 0.28591749 1.732
-0.046186667 0.28371811 1.7320002
-0.036289524 0.28041905 1.732
-0.026392382 0.28239852 1.7320001
-0.018144764 0.28206858 1.7320001
0.013196191 0.28041905 1.7320001
-0.23328981 0.29408652 1.7320002
-0.22433525 0.29361525 1.7320002
-0.19794287 0.29691431 1.7320001
-0.08412572 0.29361525 1.7320002
-0.075878099 0.29361528 1.7320002
-0.065509662 0.29267266 1.7320002
-0.056083813 0.29361525 1.7320002
-0.046186667 0.29361525 1.7320002
-0.026392382 0.29031619 1.7320001
-0.23203301 0.30241272 1.732
-0.22433525 0.30186287 1.7320001
-0.2144381 0.30351239 1.7320002
-0.20454094 0.30392477 1.7320002
-0.19596343 0.30483201 1.7320001
-0.14185905 0.30186287 1.7320001
-0.1347111 0.30296254 1.7320002
-0.12489253 0.30256981 1.7320002
-0.11876572 0.30516192 1.7320001
-0.085775249 0.30351239 1.7320002
-0.078077465 0.30131301 1.732
-0.062681906 0.30021334 1.7320001
-0.055259049 0.30103809 1.7320001
-0.046186671 0.30186287 1.7320002
-0.039588574 0.30351239 1.7320001
-0.2144381 0.31093526 1.7320001
-0.20454097 0.31011048 1.732
-0.19629334 0.31011048 1.7320001
-0.13526095 0.31011048 1.7320001
-0.089074291 0.31011048 1.7320001
0.054434292 0.34804952 1.7320001
-0.17155048 0.63671619 1.7320001
-0.18144763 0.64826286 1.7320001
-0.17484953 0.64661336 1.7320001
-0.16825144 0.64991242 1.7320001
-0.19134477 0.65815997 1.7320001
-0.18364699 0.65761018 1.732
-0.17484954 0.65651053 1.7320002
-0.16825144 0.65651053 1.732
-0.17814858 0.66640764 1.732
0.17814858 0.6697067 1.7320001
0.18144763 0.6697067 1.7320001
-0.19134477 0.67795432 1.7320001
-0.18804573 0.67960382 1.7320001
-0.17579211 0.6758334 1.7320002
0.17814858 0.67795432 1.7320001
0.18144763 0.67960382 1.7320001
0.19464383 0.67960382 1.7320001
0.20454097 0.67960382 1.732
-0.193984 0.68752158 1.7320001
-0.18474667 0.68667322 1.7320002
-0.17682895 0.68620193 1.7320001
0.17814858 0.68950099 1.7320001
0.18804573 0.68290287 1.7320001
0.19464381 0.68290287 1.732
0.20454097 0.68290287 1.732
0.21333842 0.68400258 1.732
-0.2210362 0.6977486 1.7320001
-0.19464381 0.69280005 1.732
-0.18392192 0.69362479 1.7320001
-0.17579211 0.6965704 1.7320002
0.17814858 0.69280005 1.7320001
-0.22235581 0.70665604 1.7320001
-0.17320001 0.70929527 1.7320001
-0.22268572 0.71259433 1.7320001
-0.16825144 0.71259433 1.7320001
0.17465271 0.038688891 1.7410001
0.0033161906 0.23876572 1.7410001
-0.17244191 0.2470562 1.7410001
-0.16647276 0.24738784 1.7409999
-0.15917715 0.2470562 1.7410001
-0.13264762 0.2487143 1.7410001
-0.12546255 0.2453981 1.7410001
-0.11540343 0.24407163 1.7409999
-0.10694715 0.24456906 1.7410001
-0.095340483 0.24456905 1.7410001
-0.085557714 0.24407163 1.7409999
-0.076935627 0.24407163 1.7409999
-0.067152865 0.24622715 1.7410001
-0.056375239 0.24871428 1.7410001
-0.049742859 0.2487143 1.7410001
0.0033161906 0.2453981 1.7410001
-0.20560382 0.25866288 1.7410001
-0.19565524 0.25866288 1.7410001
-0.18570668 0.25645208 1.7410001
-0.17741621 0.25203049 1.7410001
-0.16249333 0.25203049 1.7410001
-0.15586096 0.25203049 1.7410001
-0.14508334 0.25368857 1.7410001
-0.13662705 0.25335696 1.7409999
-0.056375235 0.25203049 1.7410001
-0.045763429 0.25335696 1.7409999
-0.037307143 0.25451761 1.7410001
-0.025866289 0.25733638 1.7409999
-0.017244192 0.25667316 1.7409999
-0.0058033336 0.25617573 1.7410001
0.0016580953 0.25534669 1.7410001
-0.21721049 0.26363713 1.7410001
-0.029845715 0.26529524 1.7410001
-0.018239049 0.26529527 1.7410001
-0.0066323811 0.26396877 1.7409999
0 0.26197904 1.7410001
-0.23213334 0.27856001 1.7410001
-0.22633001 0.27607286 1.7410001
-0.029845715 0.27856001 1.7410001
-0.015633469 0.27571753 1.7410001
-0.0056848978 0.27477008 1.7410001
0.0042636739 0.27571756 1.7410001
-0.24318731 0.2874032 1.7410001
-0.23592329 0.28424489 1.7410001
-0.22881715 0.28187621 1.7410001
-0.036478098 0.28685048 1.7410001
-0.026529524 0.28685048 1.7410001
-0.015254477 0.2865189 1.7409999
-0.0074614286 0.2851924 1.7410001
0.0049742861 0.2851924 1.7410001
0.013264762 0.28685051 1.7410001
-0.24291097 0.29596999 1.7410001
-0.23876572 0.29348284 1.7410001
-0.067981906 0.29845715 1.7410001
-0.037141334 0.29315123 1.7409999
-0.025700476 0.29348284 1.7410001
-0.016580952 0.29348287 1.7410001
-0.0066323811 0.29514092 1.7409999
-0.24208191 0.30343145 1.7410001
-0.23655494 0.30564225 1.7410001
-0.22550096 0.30591857 1.7410001
-0.1425962 0.30840573 1.7410001
-0.13596381 0.30840573 1.7410001
-0.12767334 0.30840573 1.7410001
-0.082904764 0.30840573 1.7410001
-0.075609148 0.30575275 1.7409999
-0.066987053 0.30376306 1.7409999
-0.058033332 0.30508953 1.7410001
-0.0066323811 0.30177334 1.7410001
-0.22218478 0.31172192 1.7410001
-0.12601525 0.31172192 1.7410001
-0.18570668 0.64997333 1.7410001
-0.17327096 0.64748621 1.7410001
-0.16912572 0.64665717 1.7410001
0.19897144 0.64997333 1.7410001
0.20228763 0.64997333 1.7410001
-0.18460126 0.65660572 1.7410001
-0.19233905 0.66821241 1.7410001
-0.18570669 0.66765976 1.7410001
0.18902287 0.66655433 1.7410001
0.19233905 0.66655433 1.7410001
-0.19233905 0.6748448 1.7410001
-0.18570668 0.67650294 1.7410001
0.18636993 0.6771661 1.7409999
0.19454984 0.67760825 1.7410001
0.20560382 0.67981905 1.7410001
0.21513787 0.67691743 1.7410001
-0.19233905 0.68976766 1.7410001
-0.18487762 0.68562239 1.7410001
0.18736477 0.68313527 1.7410001
0.19565524 0.68313527 1.7410001
0.2122362 0.68313527 1.7410001
0.17492905 0.69722903 1.7410001
-0.23213334 0.70966476 1.7410001
-0.22881715 0.70966476 1.7410001
0.1976781 -0.030154286 1.7590001
0.19600287 -0.02680381 1.7590001
0.1976781 -0.0033504763 1.7590001
0.20270382 -0.0033504763 1.7590001
0.19656128 0.0011168254 1.7590002
0.20396025 0.0033504763 1.7589999
0.21108001 0.0067009525 1.7590001
0.20102859 0.013401905 1.7590001
0.2040305 0.023407619 1.756
0.17666668 0.031666666 1.7500001
0.18142541 0.035618413 1.7530001
0.19544445 0.035738412 1.7590002
0.20308508 0.032362223 1.7575001
0.17500001 0.045000002 1.7500001
0.18153191 0.043500476 1.7567501
0.19365752 0.042216003 1.7590001
0.20102859 0.043556191 1.7590001
0.17538324 0.052216005 1.7572
0.18092573 0.05360762 1.7590001
-0.13234381 0.23788382 1.7590001
-0.12396763 0.23788382 1.7590002
-0.11307858 0.2370462 1.7590001
-0.093813337 0.23788382 1.7590001
-0.082804628 0.23501197 1.7589999
-0.072916664 0.23375002 1.7500001
-0.063333333 0.23500001 1.7500001
-0.053464767 0.23560572 1.7545
-0.043556195 0.23620857 1.7589999
-0.022762667 0.2363002 1.7572
-0.013401906 0.23620857 1.7589999
-0.0050214287 0.23590429 1.7567501
0.0019999999 0.23400001 1.7500002
-0.18092573 0.24793525 1.7590001
-0.17422476 0.24626002 1.7590001
-0.16542858 0.24562572 1.7545002
-0.15579715 0.24793525 1.7590001
-0.14382477 0.24751239 1.7560002
-0.13305797 0.24464573 1.7525715
-0.12353904 0.24041145 1.7530001
-0.115 0.24083334 1.7500001
-0.10359906 0.24228382 1.7545
-0.093621328 0.24207392 1.7554001
-0.083481908 0.24041145 1.7530001
-0.073333338 0.24083334 1.7500001
-0.063333333 0.24333334 1.7500001
-0.053424768 0.24374478 1.753
-0.043481905 0.24416192 1.756
-0.033504765 0.24626 1.7589999
-0.023390478 0.24388573 1.7540001
-0.013350476 0.24360763 1.7520001
-0.0050057149 0.24354477 1.7515001
0.00083333335 0.24416667 1.7500001
-0.22113144 0.25798666 1.7590001
-0.21421449 0.25638247 1.7572
-0.20333333 0.25666669 1.7500001
-0.19299285 0.25648907 1.7545002
-0.18438058 0.25184762 1.7536001
-0.17757525 0.25128573 1.7590001
-0.15333334 0.25 1.7500001
-0.14416668 0.25083333 1.7500001
-0.13666667 0.25 1.7500001
-0.043333337 0.25 1.7500001
-0.032879185 0.25256464 1.7512858
-0.023333335 0.25166667 1.7500001
-0.013333333 0.25166667 1.7500001
-0.0049999999 0.25166667 1.7500001
0 0.25166667 1.7500001
-0.22335581 0.26481259 1.7554001
-0.215 0.26000002 1.7500001
-0.012000001 0.26333335 1.7500002
-0.0066666668 0.26000002 1.7500001
-0.24290954 0.27641428 1.7590001
-0.23419048 0.27433497 1.7564286
-0.22529145 0.27201381 1.7522501
-0.011111111 0.27222225 1.7500001
-0.25128573 0.28814095 1.7590001
-0.24507588 0.28294507 1.7545
-0.23666668 0.28 1.7500001
-0.010000001 0.28166667 1.7500001
-0.0033333334 0.28500003 1.7500001
0.0050000004 0.28333333 1.7500001
-0.25128573 0.29484192 1.7590002
-0.24666667 0.29500002 1.7500001
-0.031666666 0.29666668 1.7500001
-0.010000001 0.29333335 1.7500001
-0.0033333334 0.29333335 1.7500001
0.0037500001 0.29374999 1.7500001
0.010000001 0.29500002 1.7500001
-0.25128573 0.30489334 1.7590002
-0.24666667 0.30500001 1.7500001
-0.040000003 0.30166668 1.7500001
-0.033876427 0.30408666 1.75675
-0.022989525 0.30389595 1.755625
-0.013750001 0.30374998 1.7500001
-0.0033333334 0.30166668 1.7500001
0.0033333332 0.30166665 1.7500001
0.010000001 0.30000001 1.7500001
-0.24333334 0.31111112 1.7500001
-0.23333335 0.31333333 1.7500001
-0.22724953 0.3124724 1.7545002
-0.13166668 0.315 1.7500001
-0.083473347 0.31554288 1.7530001
-0.073605172 0.31448928 1.7564286
-0.0631181 0.3139281 1.755625
-0.053923577 0.3139281 1.755625
-0.035180002 0.31159431 1.7590001
-0.13234381 0.32332098 1.7590001
-0.082086667 0.32164574 1.7590001
-0.18092573 0.37692857 1.7590001
-0.17422478 0.37692857 1.7589999
-0.16752382 0.37692857 1.7590001
-0.15412192 0.37860382 1.7590002
-0.14407049 0.37860382 1.7590002
-0.13500001 0.37666669 1.7500001
-0.12666667 0.37666669 1.7500001
-0.11559144 0.37860382 1.7590001
-0.18253081 0.38176253 1.7530001
-0.17314258 0.38549933 1.7577143
-0.16389333 0.38464198 1.756
-0.15454072 0.38488597 1.7589999
-0.14072001 0.38195431 1.7590001
-0.13401906 0.38195431 1.7590002
-0.12396762 0.38488594 1.7589999
-0.11642905 0.38446715 1.7590001
-0.17393333 0.3946819 1.756
-0.16416787 0.39392167 1.7545
-0.15635556 0.39312258 1.7590002
-0.12396762 0.39591464 1.7589999
-0.11545334 0.39640456 1.7518002
-0.12564287 0.40205717 1.7590001
-0.11833333 0.40000001 1.7500001
-0.14072001 0.61648762 1.7590001
-0.13367619 0.61657715 1.7545
-0.1273181 0.61648762 1.7590001
-0.14155763 0.62737668 1.7590001
-0.1365319 0.62570149 1.7590001
-0.14258911 0.63473529 1.7525715
-0.16417335 0.64775878 1.7590002
-0.15579715 0.64329147 1.7590001
0.20326222 0.64887553 1.7590002
0.21610573 0.64999241 1.7590001
-0.19000001 0.6566667 1.7500001
-0.1708743 0.6533429 1.7590001
-0.16752382 0.6533429 1.7590001
0.1953343 0.65444767 1.7530001
0.20411077 0.65428847 1.7525715
0.21425049 0.65445811 1.7575001
-0.19000001 0.66166669 1.7500001
-0.18666667 0.66333336 1.7500001
0.19375002 0.66374999 1.7500001
0.20345145 0.66371047 1.751
0.21221095 0.66335958 1.7545
-0.18666667 0.67000002 1.7500001
0.18666667 0.67333335 1.7500001
0.19466667 0.67333335 1.7500002
0.20333336 0.67333341 1.7500001
0.21222223 0.67277783 1.7500001
0.185 0.68000001 1.7500001
0.19000001 0.68000001 1.7500001
0.20333333 0.68000001 1.7500001
0.21000001 0.68000001 1.7500001
0.20879239 -0.062300958 1.7680001
0.19868954 -0.040411431 1.7680001
0.19868954 -0.035360001 1.7680001
0.20340419 -0.033002667 1.768
0.21552762 -0.033255238 1.7679999
0.20458287 -0.02441524 1.7680001
0.21504653 -0.024535511 1.7679999
0.22226286 -0.025257144 1.7680001
0.19363812 -0.010102858 1.7680001
0.20710857 -0.013470476 1.7680001
0.21468572 -0.01431238 1.7680001
0.18858667 -0.0033676191 1.7680001
0.1946484 -0.0053881905 1.768
0.20374095 -0.0067352382 1.7680001
0.18858667 0 1.7680001
0.1946484 0.0047146669 1.768
0.20879239 0.0033676191 1.7680001
0.2144051 0.004490159 1.7680001
0.19666895 0.012123428 1.768
0.20598604 0.013470477 1.768
0.21216001 0.010102858 1.7680001
0.195803 0.023573337 1.7679999
0.21216001 0.021889525 1.7680001
0.18774477 0.033676192 1.7680001
0.19476067 0.032553654 1.768
0.18690285 0.042937145 1.7680001
0.19700572 0.043779049 1.7680001
0.20205715 0.040411431 1.7680001
0.1751162 0.055565715 1.7680001
0.18578033 0.053881902 1.768
0.1958832 0.053320631 1.768
0.20205715 0.050514288 1.7680001
0.1768 0.063142858 1.7680001
0.18353523 0.063984767 1.768
0.19448002 0.062300954 1.7680001
-0.090925716 0.22899811 1.7680001
-0.087558098 0.22899811 1.7680001
-0.13470477 0.23741716 1.7680001
-0.12376001 0.23489143 1.7680001
-0.11674413 0.2346108 1.7680001
-0.10355429 0.23825906 1.7680001
-0.093732066 0.23629461 1.768
-0.087558098 0.23404953 1.7680001
-0.033676192 0.23573335 1.7679999
-0.025818413 0.23348826 1.7680001
-0.21721143 0.24920382 1.7680001
-0.18521905 0.24920382 1.7680001
-0.1751162 0.2458362 1.7680001
-0.15491048 0.24752 1.7680001
-0.14548114 0.24448915 1.768
-0.13638857 0.24246858 1.7680001
-0.033676192 0.24246858 1.7680001
-0.22226286 0.25593907 1.7680001
-0.21665017 0.25369397 1.7680001
-0.20626667 0.25509715 1.7680001
-0.19532192 0.2548165 1.7680001
-0.2441524 0.26940954 1.7680001
-0.23573335 0.26940954 1.7680001
-0.22731429 0.2643581 1.7680001
-0.25257143 0.27782857 1.7680001
-0.2466781 0.27530289 1.7680001
-0.23910096 0.27277714 1.7680001
-0.2553778 0.28624761 1.768
-0.25728613 0.29635048 1.768
-0.25678098 0.30561143 1.7680001
-0.030308573 0.30982095 1.7680001
-0.026940953 0.30982095 1.7680001
-0.25257143 0.31318858 1.7680001
-0.2458362 0.31655622 1.7680001
-0.22899811 0.31992382 1.7680001
-0.070720002 0.31992382 1.7680001
-0.067352384 0.31992382 1.7680001
-0.030308573 0.31318858 1.7680001
-0.026940953 0.31318858 1.7680001
-0.1751162 0.37380573 1.7680001
-0.16433981 0.37515277 1.768
-0.15491049 0.37380576 1.7679999
-0.14548114 0.3758263 1.768
-0.13807239 0.37717333 1.7680001
-0.18185143 0.3872762 1.7680001
-0.17848381 0.3855924 1.7680001
-0.16332954 0.38054097 1.7680001
-0.14548114 0.38592917 1.768
-0.13470477 0.3872762 1.7680001
-0.11281524 0.3872762 1.7680001
-0.18185143 0.39232764 1.7680001
-0.15154286 0.39232764 1.7680001
-0.14480762 0.39232767 1.768
-0.13428383 0.39359051 1.7679999
-0.12572445 0.3928889 1.7680001
-0.11353688 0.39401147 1.7679999
-0.14312381 0.60953909 1.7680001
-0.13470477 0.60953909 1.7680001
-0.12460191 0.60953909 1.7680001
-0.11786667 0.60953909 1.7680001
-0.14256254 0.61402923 1.7680001
-0.13470477 0.61459047 1.768
-0.12527543 0.61425376 1.768
-0.14368509 0.62637717 1.7680001
-0.15659429 0.63984764 1.7680001
-0.14817524 0.63816381 1.7680001
-0.17343238 0.64826667 1.7680001
-0.16501336 0.64770544 1.768
-0.15575239 0.64489901 1.7680001
0.19532192 0.64792997 1.768
0.20542479 0.64616191 1.7679999
0.21216001 0.6465829 1.7680001
0.19700572 0.65331811 1.7680001
0.20879239 0.65331811 1.7680001
0.21216001 0.65331811 1.7680001
0.22170192 -0.096465714 1.7770001
0.23016381 -0.098158099 1.7770001
0.22000954 -0.084619053 1.7770001
0.20985524 -0.072772384 1.7770001
0.21324001 -0.072772384 1.7770001
0.20985524 -0.067695238 1.7770001
0.2149324 -0.064310484 1.7770001
0.22170192 -0.062618099 1.7770001
0.23354858 -0.060925711 1.7770001
0.20689356 -0.053733088 1.7770002
0.21493238 -0.054156195 1.7770001
0.2229712 -0.054156192 1.7770002
0.23287162 -0.054833144 1.7770001
0.20647047 -0.044001907 1.7770002
0.2149324 -0.044001907 1.7770001
0.22339429 -0.044001903 1.7770002
0.23185618 -0.044001907 1.7770001
0.20900907 -0.034693811 1.7770001
0.21662477 -0.037232384 1.7770001
0.22474821 -0.033847623 1.7770001
0.2318562 -0.033847623 1.7770001
0.19800858 -0.022000954 1.7770001
0.20714743 -0.023016382 1.7770001
0.21662477 -0.020308573 1.7770001
0.2233943 -0.023693334 1.7770001
0.23016381 -0.027078096 1.7770001
0.19744445 -0.014103174 1.7770001
0.20511658 -0.013539048 1.7770001
0.21493238 -0.013539048 1.7770001
0.22000954 -0.016923809 1.7770001
0.20985524 -0.0050771432 1.7770001
0.21493238 -0.0050771432 1.7770001
0.18954667 0.006769524 1.7770001
0.21493238 0 1.7770001
0.18954666 0.013539049 1.7770001
0.19462381 0.015231429 1.7770001
0.20985524 0.013539048 1.7770001
0.21324001 0.015231429 1.7770001
0.18954666 0.023693332 1.7770001
0.19462381 0.023693334 1.7770001
0.18446952 0.030462857 1.7770001
0.18954667 0.047386669 1.7770001
0.1963162 0.047386669 1.7770001
0.20308572 0.047386669 1.7770001
0.16923811 0.055848572 1.7770001
0.17262286 0.055848572 1.7770001
0.18954667 0.054156192 1.7770001
0.19518794 0.055284444 1.7770001
0.20308572 0.055848572 1.7770001
0.17465372 0.064987428 1.7770001
0.18954666 0.064310476 1.7770001
0.19699314 0.065664381 1.7770001
0.17939238 0.074464768 1.7770001
0.18616192 0.074464761 1.7770002
0.1963162 0.074464761 1.7770002
0.17600763 0.088003814 1.7770001
0.18616192 0.084619045 1.7770002
0.19583265 0.083651975 1.7770002
0.17685382 0.095619529 1.7770001
0.18616192 0.094773337 1.7770002
0.19583265 0.095740415 1.7770002
0.20477811 0.096465722 1.7770001
0.17939238 0.10323524 1.7770001
0.18519484 0.10444408 1.7770002
0.19518794 0.10379937 1.7770001
0.20477811 0.10154286 1.7770001
0.18390541 0.11282539 1.7770001
0.18277715 0.1252362 1.7770001
0.17600763 0.13539048 1.7770001
0.19716239 0.13792905 1.7770001
0.20308572 0.13708286 1.7770001
0.19716239 0.14300619 1.7770001
-0.13539048 0.23693334 1.7770001
-0.10560457 0.23490247 1.7770001
-0.096465722 0.23354858 1.7770001
-0.18277715 0.24708763 1.7770001
-0.17939238 0.24708763 1.7770001
-0.16585334 0.24708763 1.7770001
-0.15400667 0.24708763 1.7770001
-0.14216 0.24370286 1.7770001
0.062053967 0.24144636 1.7770001
-0.22677906 0.2572419 1.7770001
-0.21324001 0.25216478 1.7770001
-0.20477811 0.25385717 1.7770001
-0.19462381 0.25216478 1.7770001
-0.18954667 0.2504724 1.7770001
0.055848572 0.25554955 1.7770001
0.060925715 0.2572419 1.7770001
-0.24370287 0.26739621 1.7770001
-0.23354858 0.26457557 1.7770001
-0.22677906 0.26062667 1.7770001
-0.26062667 0.27755049 1.7770001
-0.25470334 0.27501193 1.7770001
0.054156192 0.27247334 1.7770001
-0.26304436 0.28480354 1.7770002
-0.2572419 0.28093526 1.7770001
-0.26497853 0.29495785 1.7770002
-0.26497853 0.30511212 1.7770002
-0.26401144 0.3138158 1.7770002
-0.25470334 0.31732142 1.7770001
-0.24370284 0.3215524 1.7770001
-0.23524097 0.3215524 1.7770001
-0.17600763 0.37232384 1.7770001
-0.16585334 0.37232384 1.7770001
-0.14216 0.60925716 1.7770001
-0.13539048 0.60925716 1.7770001
-0.1252362 0.60925716 1.7770001
-0.11677429 0.60925716 1.7770001
-0.15231429 0.61264193 1.7770001
-0.14892954 0.61433434 1.7770001
0.17939238 0.61433434 1.7770001
0.18277715 0.61433434 1.7770001
-0.14667302 0.62618095 1.7770001
0.18446954 0.62702715 1.7770001
0.19462381 0.6278733 1.7770001
-0.16246858 0.63972002 1.7770001
-0.15400667 0.63972002 1.7770001
-0.14892954 0.63464284 1.7770001
0.17939238 0.63295048 1.7770001
0.18616191 0.6343044 1.7770001
0.19631618 0.63633525 1.7770002
0.20604737 0.63675833 1.7770002
-0.17262286 0.64987433 1.7770001
-0.16754572 0.64648956 1.7770001
-0.15231429 0.64310479 1.7770001
0.18954667 0.64818192 1.7770001
0.1963162 0.64600605 1.7770002
0.20647049 0.64310479 1.7770001
0.21324001 0.64310479 1.7770001
0.22622667 -0.10205714 1.7860001
0.23218 -0.10460857 1.7860001
0.22588649 -0.093892574 1.786
0.23515667 -0.094828084 1.7860001
0.2445119 -0.094828092 1.7860001
0.21658795 -0.082779683 1.7860001
0.22495097 -0.085047618 1.7860001
0.23473144 -0.085047618 1.7860001
0.24238573 -0.085898101 1.7860001
0.21687144 -0.075692385 1.7860001
0.22410049 -0.074841909 1.7860001
0.23473144 -0.074841902 1.7860001
0.24153525 -0.076542862 1.7860001
0.22588649 -0.06599696 1.786
0.23473144 -0.066337146 1.7860001
0.22792763 -0.054430477 1.7860001
0.23303048 -0.054430477 1.7860001
0.22792763 -0.034019049 1.7860001
0.23303048 -0.034019049 1.7860001
0.21772191 -0.010205715 1.7860001
0.22112381 -0.010205715 1.7860001
0.22112381 -0.0068038097 1.7860001
0.18710476 0.017009525 1.7860001
0.18540382 0.023813335 1.7860001
0.1755383 0.07416153 1.786
0.17689906 0.083346672 1.7860001
0.18030097 0.085047625 1.7860001
0.19731048 0.08844953 1.7860001
0.20071238 0.08844953 1.7860001
0.17349716 0.096954286 1.7860001
0.18030097 0.093552381 1.7860001
0.19731048 0.091851436 1.7860001
0.20071238 0.091851436 1.7860001
0.16669334 0.1037581 1.7860001
0.1739224 0.10503381 1.7860001
0.18030097 0.10886095 1.7860001
0.19277461 0.10772698 1.7860001
0.20241334 0.10716 1.7860001
0.17446913 0.11517878 1.7860001
0.18313588 0.11679874 1.7860001
0.19348334 0.11523953 1.7860001
0.20184636 0.11339683 1.7860001
0.1755383 0.12519011 1.786
0.18370286 0.1258705 1.7860001
0.19390857 0.12538449 1.7860001
0.20071238 0.12246858 1.7860001
0.17689906 0.1360762 1.7860001
0.18370287 0.1360762 1.7860001
0.19186743 0.13539582 1.786
0.18370287 0.14458096 1.7860001
0.19390857 0.14628191 1.786
0.18710476 0.15308572 1.7860001
0.19220762 0.15308572 1.7860001
-0.18710476 0.24833906 1.7860001
-0.17009525 0.24493715 1.7860001
-0.16329144 0.24833906 1.7860001
-0.14288001 0.24153525 1.7860001
0.057832383 0.24833906 1.7860001
0.061234288 0.24833906 1.7860001
-0.23132953 0.25854477 1.7860001
-0.20411427 0.25287494 1.7860001
-0.19731048 0.25174096 1.7860001
0.065316573 0.25650364 1.786
0.071440004 0.25684381 1.7860001
-0.2432362 0.26534858 1.7860001
-0.23643239 0.26194668 1.7860001
0.056131434 0.26534858 1.7860001
0.062935241 0.26534855 1.7860001
0.071440004 0.26534858 1.7860001
-0.26421461 0.27668825 1.7860001
-0.25514284 0.27215239 1.7860001
0.057832383 0.27385336 1.7860001
0.064210959 0.27597955 1.7860001
0.071440004 0.27385336 1.7860001
-0.27215239 0.28916192 1.7860001
-0.26875049 0.28405905 1.7860001
0.057832383 0.28916192 1.7860001
0.065061435 0.28618526 1.7860001
0.071440004 0.28916192 1.7860001
-0.27215239 0.2959657 1.7860001
0.057832383 0.29256383 1.7860001
0.064636201 0.29596573 1.7860001
0.07280077 0.29664612 1.786
-0.27215239 0.30617145 1.7860001
-0.27215239 0.31467623 1.7860001
-0.26534858 0.31977907 1.7860001
-0.27215239 0.32318097 1.7860001
-0.26534858 0.32609686 1.7860001
-0.2551429 0.32318097 1.7860001
-0.23246349 0.32771686 1.7860001
-0.22622666 0.32488191 1.7860001
-0.17349716 0.37080762 1.7860001
-0.10716 0.39802286 1.7860001
-0.10716 0.40142477 1.7860001
-0.1360762 0.60894096 1.7860001
-0.12927239 0.60894096 1.7860001
0.17519811 0.60894096 1.7860001
-0.15308572 0.6191467 1.7860001
-0.14628191 0.61234289 1.7860001
0.1739224 0.61617005 1.7860001
0.18370287 0.61461085 1.7860001
0.19220762 0.6191467 1.7860001
-0.16499239 0.62424958 1.7860001
-0.15648763 0.62595046 1.7860001
-0.14883335 0.62510002 1.7860001
0.16555937 0.62368256 1.7860001
0.17349714 0.62595052 1.7860001
0.18370286 0.6254645 1.7860001
0.19277461 0.62538356 1.7860001
0.20184636 0.62821841 1.7860001
-0.16329144 0.63955814 1.7860001
-0.15535365 0.63729018 1.7860001
0.17519811 0.63445526 1.7860001
0.18370286 0.6361562 1.7860001
0.20411427 0.63275433 1.7860001
-0.1717962 0.64806288 1.7860001
-0.16499239 0.64636195 1.7860001
-0.15988953 0.64296001 1.7860001
0.18710476 0.64466095 1.7860001
0.19050667 0.64466095 1.7860001
0.2649762 -0.17095239 1.7950001
0.24617144 -0.15385714 1.7950001
0.25740546 -0.1533687 1.7950001
0.26326668 -0.1504381 1.7950001
0.23762381 -0.14018096 1.7950001
0.24753907 -0.14360002 1.7950001
0.25642857 -0.14457688 1.7950001
0.26326668 -0.14530954 1.7950001
0.23762381 -0.1367619 1.7950001
0.24617144 -0.13505238 1.7950001
0.25642857 -0.1367619 1.7950001
0.24617144 -0.12992382 1.7950001
0.22907619 -0.1145381 1.7950001
0.23477463 -0.11510795 1.7950001
0.22907619 -0.10770001 1.7950001
0.23796573 -0.10667429 1.7950001
0.24275239 -0.10428096 1.7950001
0.24959049 -0.099152386 1.7950001
0.21881905 -0.088895239 1.7950001
0.22907619 -0.07521905 1.7950001
0.17437144 0.078638099 1.7950001
0.17437144 0.085476197 1.7950001
0.17266192 0.095733337 1.7950001
0.16753334 0.10940953 1.7950001
0.17095239 0.10940953 1.7950001
0.16753334 0.11282858 1.7950001
0.19830477 0.11966667 1.7950001
0.20343333 0.11966667 1.7950001
0.17266192 0.12650478 1.7950001
0.19488573 0.1282143 1.7950001
0.20377524 0.12718859 1.7950001
0.19830477 0.13505238 1.7950001
0.20172381 0.13334286 1.7950001
0.17779048 0.14701906 1.7950001
0.18462858 0.15214762 1.7950001
0.1931762 0.1504381 1.7950001
-0.1931762 0.24959049 1.7950001
-0.17437144 0.24617144 1.7950001
-0.1641143 0.24617144 1.7950001
-0.15556666 0.24617144 1.7950001
0.054704763 0.24959049 1.7950001
0.066101588 0.2484508 1.7950001
-0.23420477 0.25813812 1.7950001
-0.22736667 0.25471905 1.7950001
-0.20172381 0.25300953 1.7950001
0.056414288 0.25300953 1.7950001
0.06496191 0.25300953 1.7950001
0.075902864 0.25711238 1.7950001
0.082057148 0.25813812 1.7950001
-0.24617144 0.2649762 1.7950001
0.068380952 0.2649762 1.7950001
0.076928571 0.2649762 1.7950001
0.084792383 0.2653181 1.7950001
0.094023809 0.26668572 1.7950001
-0.27010477 0.27694288 1.7950001
-0.2649762 0.27352381 1.7950001
-0.2564286 0.27010477 1.7950001
0.068380952 0.27181429 1.7950001
0.076928578 0.27352381 1.7950001
0.085476205 0.27352381 1.7950001
0.093169048 0.27352381 1.7950001
-0.27238414 0.28378096 1.7950001
0.058123812 0.28378096 1.7950001
0.061542861 0.28378096 1.7950001
0.07521905 0.28378093 1.7950001
0.084336512 0.28264126 1.7950001
-0.27694288 0.29403812 1.7950001
0.077270478 0.2933543 1.7950001
0.08498776 0.29501495 1.7950001
0.092314288 0.29403812 1.7950001
0.11795714 0.29574764 1.7950001
0.12308572 0.29574764 1.7950001
-0.27694288 0.30429524 1.7950001
0.078638099 0.3008762 1.7950001
0.085476197 0.3008762 1.7950001
-0.27694288 0.3145524 1.7950001
-0.27466348 0.32480955 1.7950001
-0.26668572 0.32822859 1.7950001
-0.24446192 0.32822859 1.7950001
-0.23933335 0.32822859 1.7950001
-0.27352381 0.33164763 1.7950001
-0.26668572 0.33164763 1.7950001
-0.24446191 0.33335716 1.7950001
-0.23762381 0.33335716 1.7950001
-0.17095239 0.37267619 1.7950001
-0.16753334 0.37267619 1.7950001
0.16240478 0.59833336 1.7950001
-0.14154857 0.60448766 1.7950001
-0.13562222 0.60631114 1.7950001
-0.12992382 0.60859048 1.7950001
-0.14530954 0.61200953 1.7950001
-0.12479524 0.61200953 1.7950001
-0.11795714 0.61200953 1.7950001
0.16753334 0.61713815 1.7950001
0.17095239 0.61542857 1.7950001
0.16753334 0.62226671 1.7950001
-0.16274668 0.63662672 1.7950001
-0.1572762 0.63594288 1.7950001
-0.17266192 0.6462 1.7950001
-0.16753334 0.64449048 1.7950001
0.27833143 -0.21304382 1.8040001
0.28520381 -0.21304382 1.8040003
0.27604064 -0.20617144 1.8040003
0.28434476 -0.20874859 1.8040001
0.27352077 -0.19448838 1.8040001
0.28348571 -0.19242667 1.8040001
0.25256002 -0.1855543 1.8040001
0.26630476 -0.18555431 1.804
0.27391344 -0.18555428 1.804
0.2577143 -0.17180952 1.8040001
0.26458669 -0.17581843 1.804
0.27145904 -0.17352763 1.8040001
0.24740572 -0.16493715 1.8040003
0.25427806 -0.16493715 1.804
0.26458666 -0.16493714 1.804
0.23709716 -0.15119238 1.8040001
0.24396953 -0.15291047 1.8040001
0.2522164 -0.15531582 1.8040001
0.26664841 -0.15531582 1.8040001
0.23709716 -0.1460381 1.8040001
0.24259505 -0.14500725 1.8040001
0.25256002 -0.14260191 1.8040001
0.26458669 -0.14088382 1.8040003
0.23537907 -0.13401143 1.8040001
0.24259505 -0.13332419 1.8040001
0.25384858 -0.13358191 1.804
0.26415718 -0.13444096 1.804
0.23709716 -0.12026667 1.8040001
0.24495132 -0.12321197 1.804
0.25427812 -0.12713905 1.8040001
0.24465677 -0.115456 1.8040001
0.24654667 -0.10738096 1.8040001
0.17180952 0.096213333 1.8040001
0.17180952 0.11683048 1.8040001
0.17180952 0.12370285 1.8040001
0.17410032 0.13401143 1.8040003
0.17868191 0.14432001 1.8040001
0.1855543 0.15806477 1.8040001
-0.19242667 0.24740572 1.8040001
-0.1855543 0.24740572 1.8040001
-0.17868191 0.24740572 1.8040001
-0.16493715 0.24740572 1.8040001
0.068723813 0.24740572 1.8040001
-0.23595177 0.25542352 1.8040003
-0.21304382 0.25427809 1.8040001
-0.20960763 0.25084192 1.8040001
-0.19929905 0.25084192 1.8040001
0.075596191 0.2531327 1.8040003
0.085904755 0.25656891 1.8040003
0.096213341 0.2577143 1.8040003
-0.2559962 0.26802287 1.8040001
-0.24396953 0.26286858 1.8040001
0.088195562 0.26229587 1.8040003
0.096213333 0.26401398 1.804
0.10308572 0.26458669 1.8040003
-0.27317715 0.27661335 1.8040001
-0.26630479 0.27145904 1.8040001
0.098275051 0.27489525 1.8040001
0.10446019 0.27558246 1.8040001
-0.27718604 0.28520381 1.8040003
0.088195562 0.28749463 1.8040003
0.096213341 0.28520381 1.804
0.10394477 0.28434476 1.8040001
-0.28176764 0.29551238 1.8040003
0.087622859 0.2920762 1.8040001
0.097358733 0.29665777 1.804
0.10695143 0.29594192 1.804
0.11425334 0.29465336 1.8040001
0.12198476 0.2920762 1.8040001
-0.28176764 0.30582097 1.8040003
0.096213341 0.30238476 1.8040003
0.10480382 0.30238476 1.8040001
-0.27833143 0.32643813 1.8040001
-0.25256002 0.32987431 1.8040001
-0.27833143 0.33331048 1.8040001
-0.25359088 0.33468497 1.8040001
-0.14088382 0.59446096 1.8040003
-0.13401142 0.59495193 1.804
-0.14260191 0.60133338 1.8040001
-0.13358191 0.60476959 1.804
-0.12713905 0.60648763 1.8040001
0.15634668 0.60133338 1.8040001
0.16493715 0.60820574 1.8040003
-0.14432001 0.61164194 1.8040001
-0.12370286 0.61164194 1.8040003
-0.11511239 0.61164194 1.8040001
0.15634668 0.61507809 1.8040001
0.1656244 0.61507809 1.8040001
0.17180952 0.61336005 1.8040001
-0.17180952 0.62882286 1.8040001
0.15634668 0.62195051 1.8040001
0.16321906 0.62366861 1.8040001
-0.17352761 0.63741338 1.8040001
-0.16837335 0.63741338 1.8040001
-0.17410032 0.64371306 1.8040003
-0.16837335 0.64256763 1.8040001
0.27987429 -0.22113524 1.8140001
0.28332955 -0.22113524 1.8140001
0.26778096 -0.21249714 1.8140001
0.27543184 -0.21471837 1.8140001
0.28332955 -0.21768001 1.8140001
0.26648524 -0.20429096 1.8140001
0.27699491 -0.20385905 1.8140001
0.28540269 -0.203168 1.8140001
0.2916221 -0.20455012 1.8140001
0.25914288 -0.19349334 1.8140001
0.26605335 -0.19406922 1.8140001
0.27872255 -0.19464509 1.8140001
0.28505716 -0.19349334 1.8140001
0.25914288 -0.18485525 1.8140001
0.2625981 -0.18485525 1.8140001
0.27987429 -0.18312763 1.8140001
0.28332955 -0.18312763 1.8140001
0.24877715 -0.17621715 1.8140001
0.25568762 -0.17621715 1.8140001
0.2625981 -0.17967239 1.8140001
0.27699491 -0.17679302 1.8140001
0.28332955 -0.17621715 1.8140001
0.27572799 -0.16792455 1.8140001
0.28332955 -0.16930667 1.8140001
0.24301843 -0.15778922 1.8140001
0.23668382 -0.13129905 1.8140001
0.23841144 -0.12438858 1.8140001
0.24186668 -0.1261162 1.8140001
0.25568762 -0.12340137 1.8140001
0.26398018 -0.12507962 1.8140001
0.25525573 -0.11359096 1.8140001
0.25430554 -0.1043482 1.8140001
0.17276192 0.093291432 1.8140001
0.16930667 0.1174781 1.8140001
0.16930668 0.12438858 1.8140001
0.16930667 0.13129905 1.8140001
0.17276192 0.13648191 1.8140001
0.17621715 0.14339238 1.8140001
0.18312763 0.15203048 1.8140001
-0.19694857 0.24877715 1.8140001
-0.18312763 0.24877715 1.8140001
-0.15721333 0.24532191 1.8140001
0.069104761 0.24532191 1.8140001
0.072560005 0.24877715 1.8140001
-0.24186668 0.25914288 1.8140001
-0.20558667 0.2522324 1.8140001
0.07774286 0.2522324 1.8140001
0.088108577 0.25568762 1.8140001
0.09501905 0.25568762 1.8140001
0.10538477 0.25914288 1.8140001
0.11056762 0.25914288 1.8140001
-0.26605335 0.26950857 1.8140001
-0.2522324 0.26605335 1.8140001
0.10538477 0.26518953 1.8140001
0.11194972 0.26674441 1.8140001
-0.27641904 0.27555525 1.8140001
0.10711239 0.27296382 1.8140001
0.11194972 0.2771101 1.8140001
-0.28332955 0.28678477 1.8140001
-0.27987429 0.28332955 1.8140001
0.10711239 0.28678477 1.8140001
0.11229524 0.28505716 1.8140001
-0.28592098 0.29283145 1.8140001
0.09501905 0.29369524 1.8140001
0.10538477 0.29196763 1.8140001
0.11402286 0.29024002 1.8140001
0.12784381 0.29542285 1.8140001
0.13129905 0.29542285 1.8140001
-0.28332955 0.3161543 1.8140001
-0.28332955 0.32479239 1.8140001
-0.28332955 0.33170286 1.8140001
-0.2625981 0.33688572 1.8140001
-0.25914288 0.33515811 1.8140001
-0.2549966 0.3434507 1.8140001
-0.08465334 0.57356954 1.8140001
-0.079470478 0.57702476 1.8140001
-0.12266096 0.58739048 1.8140001
-0.09501905 0.58739048 1.8140001
-0.089836195 0.58739048 1.8140001
-0.079470478 0.58048004 1.8140001
-0.089836195 0.59084576 1.8140001
0.15721333 0.59775621 1.8140001
-0.1252524 0.60466671 1.8140001
0.14857525 0.60466671 1.8140001
0.1549921 0.60466671 1.8140001
-0.12438858 0.61157715 1.8140001
0.15499212 0.61503237 1.8140001
0.16354793 0.61733586 1.8140001
0.14857525 0.62367046 1.8140001
0.15203048 0.62367046 1.8140001
0.27620572 -0.22235429 1.8240001
0.27099431 -0.21193144 1.8240001
0.2623086 -0.20150858 1.8240001
0.26172957 -0.19571809 1.824
0.25362289 -0.18240002 1.8240001
0.28720763 -0.18645334 1.824
0.2466743 -0.1737143 1.8240001
0.25014859 -0.1737143 1.8240001
0.28315431 -0.17718858 1.8240001
0.24493715 -0.16502859 1.8240001
0.23625143 -0.1250743 1.824
0.26288763 -0.11696762 1.824
0.16676572 0.11465143 1.8240001
0.17024 0.1372343 1.8240001
0.17255618 0.14591999 1.8240002
0.17024 0.15634286 1.824
0.18182097 0.15634286 1.824
0.19456001 0.15981714 1.824
0.18645334 0.16444953 1.824
0.18761143 0.17024 1.8240001
-0.18066287 0.2466743 1.8240001
-0.17371428 0.2466743 1.824
-0.16502857 0.2466743 1.8240001
-0.15286858 0.2466743 1.8240001
0.072960004 0.2466743 1.8240001
-0.20150858 0.25014859 1.8240001
-0.19108573 0.25014859 1.8240001
0.078171432 0.25014859 1.8240001
0.085120007 0.25362286 1.8240001
0.093805723 0.25362286 1.824
0.10353372 0.25570744 1.8240001
0.11233524 0.25593904 1.824
-0.27099431 0.26752001 1.8240001
-0.26404572 0.26752001 1.824
-0.25536001 0.26578286 1.8240001
-0.2466743 0.26404572 1.8240001
0.11673601 0.26335087 1.8240001
-0.28141716 0.27794287 1.8240001
-0.27620572 0.27099431 1.8240001
0.11725715 0.27446857 1.8240001
-0.28489143 0.28315431 1.8240001
0.11812571 0.28489143 1.824
0.1216 0.28662857 1.8240001
0.12333715 0.29184002 1.8240001
-0.28836572 0.30573717 1.824
-0.28836572 0.31616002 1.824
-0.26404572 0.33353144 1.8240001
-0.18413715 0.37869716 1.8240001
0.10075429 0.50724572 1.8240001
-0.091489531 0.57557338 1.824
-0.11117715 0.58541715 1.8240001
-0.10422858 0.58541721 1.8240002
-0.093226671 0.58368003 1.8240002
-0.085120007 0.58368003 1.8240001
0.12854858 0.58194292 1.8240001
0.13462858 0.58281147 1.8240001
-0.13549715 0.59757715 1.8240001
-0.12507428 0.59468192 1.8240002
-0.11534629 0.59340799 1.8240001
-0.10422858 0.59410286 1.8240002
-0.095542863 0.59583998 1.8240001
0.14592001 0.59410286 1.8240001
0.15808001 0.59757715 1.8240001
-0.13549715 0.60105145 1.8240001
-0.12420572 0.60452574 1.8240001
-0.11812572 0.60800004 1.8240001
0.14707811 0.60568386 1.824
0.15286858 0.60105145 1.8240001
-0.1216 0.61321145 1.8240001
0.14635429 0.61494863 1.8240002
0.13549715 0.62189716 1.824
0.14522514 0.6232869 1.8240001
0.24789144 -0.17108001 1.8330001
0.23741715 -0.12918286 1.8330001
0.16758858 0.11870857 1.8330001
0.16642477 0.12801905 1.8330001
0.16758858 0.13267429 1.8330001
0.17689906 0.15362287 1.8330001
0.1827181 0.16409715 1.8330001
0.19202858 0.16409715 1.8330001
0.18620951 0.17340763 1.8330001
-0.1937743 0.24789144 1.8330001
-0.18504572 0.24672763 1.8330001
-0.17457144 0.24440001 1.8330001
-0.16409715 0.24440001 1.8330001
-0.15013143 0.24789144 1.8330001
-0.14489429 0.24265429 1.8330001
-0.13791144 0.24090858 1.8330001
0.069828577 0.24440001 1.8330001
0.076811433 0.24614573 1.8330001
0.080302857 0.24789144 1.8330001
-0.24440001 0.25836572 1.8330001
0.085540004 0.25138286 1.8330001
0.094268583 0.25138286 1.8330001
0.10561572 0.25225574 1.8330001
0.11521715 0.25487426 1.8330001
-0.27582288 0.26884001 1.8330001
-0.26185715 0.26534858 1.8330001
-0.25487426 0.26418474 1.8330001
-0.24789144 0.26185715 1.8330001
0.12336382 0.26302096 1.8330001
-0.28396952 0.27582288 1.8330001
0.12359657 0.27652115 1.8329999
0.13500191 0.27815047 1.8330001
0.14664 0.27931431 1.8330001
0.15013143 0.27931431 1.8330001
-0.28978857 0.28978857 1.8330001
0.12668899 0.28579834 1.8330001
0.13516816 0.28679591 1.8330001
0.14664 0.28455144 1.8330001
0.15013143 0.28455144 1.8330001
0.12918286 0.29328001 1.8330001
0.13267429 0.29328001 1.8330001
-0.29328001 0.3037543 1.8330001
-0.29328001 0.31422856 1.8330001
-0.19601879 0.37458041 1.8330001
-0.18679142 0.3753286 1.8330001
-0.19464715 0.38143858 1.8330001
-0.18620951 0.38172951 1.8330001
0.10299715 0.50625718 1.8330001
0.097760007 0.55513716 1.8330001
0.10299715 0.55513716 1.8330001
-0.10125143 0.57957715 1.8330001
-0.094268575 0.57521284 1.8330001
-0.08728572 0.57259429 1.8330001
0.11347143 0.57433999 1.8330001
-0.10299715 0.58306861 1.8330001
-0.097760007 0.58481431 1.8330001
-0.11172572 0.59703434 1.8330001
-0.090777144 0.59005147 1.8330001
-0.086121909 0.59121531 1.8330001
0.13732953 0.59296095 1.8330001
0.14402142 0.59354287 1.8330001
0.15362287 0.59703434 1.8330001
-0.12685524 0.60285336 1.8330001
-0.11478072 0.60445362 1.8330001
-0.10474285 0.6057629 1.8330001
-0.096014291 0.60401714 1.8330001
0.13849334 0.60634476 1.8330001
0.14454515 0.60331887 1.8329999
0.15129524 0.60168952 1.8330001
-0.11478072 0.61492789 1.8330001
-0.10823429 0.61274576 1.8330001
0.13878429 0.61361861 1.8330001
0.14314857 0.61449146 1.8330001
0.16758858 0.61449146 1.8330001
0.17108001 0.61449146 1.8330001
0.13965715 0.62147433 1.8330001
0.17552382 0.091272384 1.8430001
0.16850287 0.12286667 1.8430001
0.16850287 0.13690858 1.8430001
0.16850287 0.14041905 1.8430001
0.17552382 0.1562162 1.8430001
0.17669398 0.16440731 1.8430001
0.18254477 0.16850287 1.8430001
0.19307619 0.16850287 1.8430001
0.17903429 0.17552382 1.8430001
0.18465105 0.17692801 1.8430001
0.19395381 0.17552382 1.8430001
0.18561643 0.18605524 1.8430002
0.19307619 0.18605524 1.8430001
0.18605524 0.19483143 1.8430001
0.19307619 0.19483143 1.8430001
0.18781048 0.20185238 1.8430001
0.19424635 0.20243746 1.8430001
-0.16323715 0.24222286 1.8430001
-0.15358333 0.24485572 1.8430001
0.084251434 0.24807365 1.8430001
0.09390524 0.24836621 1.8430001
0.10531429 0.24924381 1.8430001
0.11233524 0.24924383 1.8430001
0.11760096 0.25450954 1.8430001
0.12462191 0.25977525 1.8430001
-0.27030668 0.2667962 1.8430001
-0.26504096 0.26504096 1.8430001
-0.25626478 0.26328573 1.8430001
0.12871747 0.26562604 1.8430001
0.1333981 0.2667962 1.8430001
-0.2808381 0.27030668 1.8430001
0.12754731 0.27264699 1.8430001
0.1348023 0.27311507 1.8430001
0.14322743 0.27592343 1.8430001
0.15095048 0.27732763 1.8430001
-0.29277372 0.28505069 1.8430001
0.12988763 0.2808381 1.8430001
0.14217429 0.28434858 1.8430001
-0.2962842 0.29558212 1.8430001
0.13690858 0.29663524 1.8430001
0.14158921 0.29488 1.8430001
-0.29839048 0.30541143 1.8430001
-0.29839048 0.31418765 1.8430001
-0.21062858 0.36860001 1.8430001
-0.20360762 0.36860001 1.8430001
-0.19483143 0.36860001 1.8430001
-0.18781048 0.36860001 1.8430001
-0.21062858 0.37562096 1.8430001
-0.20536287 0.37562096 1.8430001
-0.19483143 0.37211049 1.8430001
-0.18465105 0.37421677 1.8430001
-0.17727906 0.37649858 1.8430001
-0.20536287 0.38264191 1.8430001
0.098293334 0.55465525 1.8430001
0.10355905 0.55465525 1.8430001
-0.10297398 0.57805842 1.8430001
-0.098293334 0.57747334 1.8430001
-0.11233524 0.58624953 1.8430001
-0.10706953 0.58449429 1.8430001
0.12707925 0.59537679 1.8430001
0.1333981 0.59327048 1.8430001
0.15270571 0.59678096 1.8430001
0.10765461 0.60146159 1.8430001
0.11233524 0.60204667 1.8430001
0.12778135 0.60520613 1.8430001
0.13515334 0.60380191 1.8430001
0.14041905 0.60380191 1.8430001
0.11760096 0.61082286 1.8430001
0.12687865 0.61333036 1.8430002
0.13427572 0.61521095 1.8430001
0.16499239 0.61784381 1.8430001
0.12988763 0.62486476 1.8430001
0.13573842 0.6236946 1.8430001
0.26118478 -0.19412382 1.853
0.1764762 0.088238098 1.853
0.16824062 0.14471048 1.853
0.19765334 0.16765238 1.853
0.20383 0.16853476 1.853
0.18000571 0.1764762 1.853
0.19765334 0.17294668 1.853
0.20471239 0.17294668 1.853
0.1764762 0.18177047 1.853
0.18000571 0.18530001 1.853
0.19059429 0.18706477 1.853
0.18000571 0.1941238 1.853
0.19765334 0.1941238 1.853
0.20206523 0.19324143 1.853
0.18353525 0.20471239 1.853
0.19500621 0.20647714 1.853
0.2042712 0.20471239 1.8529999
0.2135362 0.20118286 1.853
0.18706477 0.21530096 1.853
0.19341791 0.21318324 1.853
0.20118286 0.21177144 1.853
-0.19235906 0.24706668 1.853
-0.18353525 0.24530192 1.853
-0.17529969 0.24236064 1.853
-0.16941714 0.24353716 1.853
-0.15706381 0.24353716 1.853
0.067060955 0.24706668 1.853
0.07412 0.24706668 1.853
0.086473331 0.24706668 1.853
0.097061902 0.24706668 1.853
0.10588572 0.24706668 1.853
0.11294477 0.24706668 1.853
-0.20118286 0.2505962 1.853
0.11647429 0.2505962 1.853
0.12176858 0.25589049 1.853
-0.27530286 0.26824382 1.853
-0.2647143 0.26294953 1.853
-0.25412571 0.26118478 1.853
0.13482782 0.2640084 1.853
0.14118096 0.26647907 1.853
-0.29471523 0.27883241 1.853
-0.28824446 0.27530286 1.853
0.14294572 0.27177334 1.853
-0.30000955 0.28765619 1.853
-0.29648 0.28236192 1.853
-0.30177432 0.29471523 1.853
-0.30353907 0.30353907 1.853
-0.30353907 0.31236285 1.853
-0.21530096 0.37765905 1.853
-0.18177047 0.37060001 1.853
-0.17471144 0.37765905 1.853
-0.21530096 0.38118857 1.853
-0.1764762 0.38118857 1.853
0.098826669 0.51178098 1.853
0.095297143 0.55766481 1.853
-0.10941524 0.58590096 1.853
0.12706286 0.58943051 1.853
0.11470953 0.59648955 1.853
0.12353334 0.59472477 1.853
0.11559191 0.6026662 1.853
0.12302912 0.60455704 1.8529999
0.11647429 0.61413717 1.853
0.12000381 0.61413717 1.853
0.12588635 0.62237269 1.853
0.13235715 0.62472576 1.853
0.17742857 0.085165717 1.863
0.16678286 0.13662001 1.863
0.16678286 0.14726572 1.863
0.17033143 0.15258858 1.863
0.17565429 0.17388 1.863
0.20226859 0.17742857 1.863
0.17506285 0.18452573 1.863
0.19872002 0.18452573 1.863
0.20537357 0.18496929 1.863
0.17742856 0.19517143 1.863
0.2079463 0.19588116 1.8630002
0.21468858 0.19517143 1.863
0.17742857 0.20226859 1.863
0.18097715 0.20759144 1.863
0.20936573 0.20581715 1.863
0.21468857 0.20759144 1.863
0.18275145 0.21468857 1.863
0.19872001 0.21646287 1.863
0.20652688 0.21504343 1.8630002
0.18541287 0.22267288 1.863
0.19517143 0.22089857 1.863
0.20404287 0.22001144 1.863
0.18807429 0.23420572 1.863
0.19635428 0.23657143 1.863
0.20226859 0.23598 1.863
0.086940005 0.24485144 1.863
0.095811427 0.24485143 1.863
0.10468285 0.24485144 1.863
0.11355429 0.24662572 1.863
0.19517143 0.24130286 1.863
0.20480326 0.24434449 1.863
-0.26259428 0.25904572 1.863
0.12420001 0.25549716 1.863
0.13129714 0.25904572 1.863
0.20581715 0.25549716 1.863
0.21291429 0.25549716 1.863
-0.27324 0.26614287 1.863
-0.26614287 0.26259428 1.863
0.1383943 0.26259428 1.863
0.14371714 0.26259428 1.863
0.20759144 0.26436859 1.863
0.21291429 0.26436859 1.863
-0.29453143 0.27678859 1.863
-0.30162859 0.28211144 1.863
-0.30695143 0.29453143 1.863
-0.30872571 0.30517715 1.863
-0.30872571 0.31227431 1.863
-0.21291429 0.36905146 1.863
-0.20581715 0.36905146 1.863
-0.19517143 0.36905146 1.863
-0.21646287 0.3743743 1.863
-0.17742857 0.3743743 1.863
0.096994288 0.51690859 1.863
0.097940579 0.5542869 1.8630002
0.10379571 0.55446434 1.863
0.095811434 0.56422287 1.863
0.10468285 0.56777143 1.863
0.099360004 0.57132 1.863
0.10468285 0.57132 1.863
0.11266714 0.57575572 1.863
0.10645714 0.58728862 1.863
0.11213486 0.58693373 1.8630002
0.12349029 0.58764344 1.8630002
0.13129714 0.58906287 1.863
0.067422859 0.59615999 1.863
0.073337145 0.59734291 1.863
0.10468286 0.59615999 1.863
0.11355429 0.5955686 1.863
0.12183429 0.59379429 1.863
0.095811434 0.60503149 1.863
0.10409143 0.60444003 1.863
0.11000572 0.60325718 1.863
0.17659715 0.085622862 1.8730001
0.1676781 0.15340762 1.8730001
0.17481335 0.18908381 1.8730001
0.17481335 0.19621904 1.8730001
0.17838097 0.20692191 1.8730001
0.17838097 0.21227333 1.8730001
0.18432699 0.22594921 1.8730001
0.19621906 0.22690058 1.8730001
0.2033543 0.22654381 1.8730001
0.088001274 0.23784126 1.8730001
0.092758097 0.23724666 1.8730001
0.18408915 0.23617637 1.8730001
0.19562446 0.23427366 1.8730001
0.2057327 0.23546286 1.8730001
0.21048953 0.23724666 1.8730001
0.07848762 0.24616572 1.8730001
0.085622869 0.2437873 1.8730001
0.096325718 0.2425981 1.8730001
0.10524476 0.2425981 1.8730001
0.11416382 0.2443819 1.8730001
0.12308286 0.24973334 1.8730001
0.1867054 0.24497652 1.8730001
0.19621904 0.24661167 1.8730001
0.21227334 0.24794954 1.8730001
-0.21048953 0.25686857 1.8730001
0.12665048 0.25508475 1.8730001
0.13556953 0.25686857 1.8730001
0.18908381 0.25330096 1.8730001
0.19621907 0.25508478 1.8730001
-0.27470666 0.26578763 1.8730001
0.13735333 0.26043621 1.8730001
0.14448857 0.26043621 1.8730001
0.19621904 0.26043621 1.8730001
0.2033543 0.26400381 1.8730001
-0.29968002 0.2782743 1.8730001
-0.2818419 0.27113906 1.8730001
0.21286793 0.27232826 1.8730001
-0.30681524 0.28897715 1.8730001
0.19532716 0.28808525 1.8730001
0.2051381 0.28897715 1.8730001
0.21048953 0.28897715 1.8730001
0.18908381 0.29254478 1.8730001
0.19621904 0.29254478 1.8730001
0.2057327 0.29373398 1.8730001
0.21227331 0.29611239 1.8730001
-0.17124572 0.33714002 1.8730001
-0.16482401 0.33749679 1.8730001
-0.15340762 0.33714002 1.8730001
-0.14984001 0.33714002 1.8730001
-0.21643557 0.34724829 1.8730001
-0.17124572 0.34249145 1.8730001
-0.16455643 0.34561309 1.8730001
-0.15578602 0.34486985 1.8730001
-0.21584097 0.35497808 1.8730001
-0.1658943 0.3531943 1.8730001
-0.22333297 0.3653242 1.8730001
-0.21405715 0.36389717 1.8730003
-0.2051381 0.36389717 1.8730001
-0.196665 0.36434308 1.8730001
-0.18622972 0.3660377 1.8730001
-0.22425035 0.37561935 1.8730001
-0.21762477 0.37103239 1.8730001
-0.18551619 0.37103239 1.8730001
-0.17481335 0.37459999 1.8730001
-0.22238159 0.38292447 1.8730001
-0.1676781 0.38173527 1.8730001
0.096325718 0.51284522 1.8730001
0.10346095 0.51016957 1.8730001
0.093947299 0.52325082 1.8730001
0.089190483 0.53335905 1.8730001
0.094541907 0.53335905 1.8730001
0.088001274 0.54822415 1.8730001
0.096325718 0.54762954 1.8730001
0.087406673 0.55476475 1.8730001
0.093947299 0.55417013 1.8730001
0.085622855 0.56308919 1.8730001
0.092758097 0.56368381 1.8730001
0.097752765 0.57438672 1.8730001
0.10524476 0.57795429 1.8730001
-0.11059619 0.58865714 1.8730001
0.085622869 0.58865714 1.8730001
0.096771665 0.58553553 1.8730001
0.104888 0.58437604 1.8730001
0.11059619 0.58152193 1.8730001
0.076703817 0.59757626 1.8730001
0.085622855 0.59579235 1.8730003
0.096325725 0.59579241 1.8730003
0.10346095 0.59222478 1.8730001
0.11059619 0.59579241 1.8730001
0.07848762 0.60471141 1.8730001
0.085622869 0.60471147 1.8730001
0.09632571 0.60435468 1.8730001
0.099893339 0.6100629 1.8730001
0.17574668 0.08608 1.8830001
0.17216 0.15781334 1.8830001
0.17216 0.16319335 1.8830001
0.17574668 0.20444001 1.8830001
0.17754 0.21699333 1.8830001
0.21699333 0.21878667 1.8830001
0.17933334 0.22596 1.883
0.18292001 0.22954668 1.8830001
0.20802668 0.22775334 1.8830001
0.21400444 0.22476445 1.8830003
0.10580667 0.23672001 1.8830001
0.11477334 0.23672001 1.8830001
0.17933334 0.23672001 1.8830001
0.18292001 0.23313335 1.8830001
0.20802668 0.23313335 1.8830001
-0.19009334 0.24748001 1.8830001
-0.18650667 0.24748001 1.8830001
0.082493335 0.2421 1.8830001
0.10401333 0.24030668 1.883
0.11477334 0.24150223 1.883
0.12314222 0.24628444 1.883
0.17933334 0.2421 1.8830001
0.18292001 0.24748001 1.8830001
-0.20444001 0.25286001 1.8830001
0.12912001 0.25465333 1.8830001
0.13629332 0.25608799 1.8830001
0.14466222 0.25704443 1.883
0.18561001 0.25375667 1.8830001
0.19009334 0.25824001 1.8830001
-0.28334668 0.26900002 1.8830001
-0.27617335 0.26541334 1.8830001
-0.26900002 0.26182666 1.8830001
0.19439733 0.26613069 1.8830001
0.20264667 0.26720667 1.8830001
-0.29410669 0.27617335 1.8830001
-0.28693333 0.27258667 1.8830001
0.19308223 0.27617335 1.8830003
0.20623335 0.27258667 1.8830001
-0.30845335 0.28693333 1.8830001
0.19368 0.28478134 1.8830001
0.20623335 0.28693333 1.8830001
0.18650667 0.29410669 1.8830001
0.19278333 0.29590002 1.8830001
0.20264667 0.29769334 1.8830001
-0.31562668 0.30486667 1.883
0.18292001 0.30845335 1.8830001
0.19419239 0.30384192 1.8830003
0.20444 0.30307335 1.8830003
0.21340668 0.30486667 1.8830001
0.18292001 0.31204 1.8830001
0.19726667 0.32459337 1.8830001
-0.20623335 0.33714667 1.8830001
-0.17574668 0.33714667 1.8830001
-0.23313335 0.34432 1.8830001
-0.22544762 0.34329519 1.8830003
-0.2146876 0.34329528 1.8830003
-0.20533669 0.34252667 1.8830001
-0.18292002 0.34432003 1.883
-0.17634445 0.34551558 1.8830003
-0.23313335 0.35866669 1.8830001
-0.22380801 0.35579735 1.8830001
-0.21251 0.35418335 1.8830001
-0.20444001 0.35552835 1.8830003
-0.19368 0.35687336 1.8830003
-0.18381667 0.35597667 1.8830001
-0.17574668 0.35508001 1.8830003
