# .PCD v0.7 - Point Cloud Data file format
VERSION 0.7
FIELDS x y z
SIZE 4 4 4
TYPE F F F
COUNT 1 1 1
WIDTH 1518
HEIGHT 1
VIEWPOINT 0 0 0 1 0 0 0
POINTS 1518
DATA ascii
0.28353906 0.35469332 1.6980001
0.29593715 0.35253716 1.6980001
0.30402288 0.35253716 1.6980001
-0.032342859 0.36224002 1.6980001
-0.024917552 0.36452466 1.6957142
-0.016105397 0.36394373 1.6908891
-0.0096571436 0.36375237 1.6900001
0 0.36214286 1.6900001
0.26550248 0.36538744 1.6916001
0.27491432 0.36547434 1.6980001
0.28219146 0.36628288 1.6980001
-0.023930341 0.37457964 1.691143
-0.017168256 0.37448257 1.6900003
-0.0096571436 0.3701905 1.6900001
0.2575238 0.3701905 1.6900001
0.2648178 0.37431961 1.6908891
0.27403566 0.37554148 1.6943637
0.28219143 0.37517715 1.6980001
-0.024425035 0.38614315 1.6934286
-0.019314287 0.38467622 1.6900001
0.26557142 0.38628575 1.6900002
0.27405587 0.38581717 1.6926668
0.28138286 0.38487998 1.6980001
-0.023820953 0.39529905 1.6900002
-0.017014967 0.3959429 1.6900003
-0.0070819049 0.3978743 1.6900002
0.0048285718 0.39916191 1.6900001
0.012876191 0.39916191 1.6900001
0.26436427 0.39634523 1.6900003
0.2740559 0.39548957 1.6926668
0.28138286 0.39458287 1.6980001
-0.046358097 0.40644193 1.6980001
-0.023421906 0.40622765 1.6960001
-0.017168256 0.40506351 1.6900002
-0.0072428575 0.40399051 1.6900001
0.0048285718 0.40560004 1.6900004
0.012876191 0.40560004 1.6900001
0.23820953 0.40881905 1.6900001
0.24142858 0.40881905 1.6900001
0.25510952 0.40640479 1.6900001
0.26355955 0.40519762 1.6900003
0.27464056 0.40411705 1.6934286
0.28138286 0.4042857 1.6980001
-0.047705717 0.41318002 1.6980001
-0.024537906 0.41385221 1.6948
-0.016631747 0.41525719 1.6900002
-0.0059015881 0.41633013 1.6900002
0.0043896106 0.4149645 1.6900004
0.012876191 0.41525716 1.6900001
0.23820953 0.41203812 1.6900001
0.2430381 0.41364765 1.6900001
0.25537777 0.41472062 1.6900002
0.26438352 0.41483429 1.6926668
0.2738362 0.41291049 1.6980001
0.28138286 0.41075429 1.6980001
-0.046358097 0.42476952 1.6980001
-0.037194289 0.42692572 1.6980001
-0.023448572 0.42288285 1.6980001
-0.016616056 0.42404297 1.6957144
-0.0059891166 0.42456922 1.6922858
0.0039343918 0.42491427 1.6900003
0.012876191 0.42169526 1.6900001
0.25591427 0.42491433 1.6900002
0.26500574 0.42389777 1.6966667
-0.044985976 0.43457043 1.6980001
-0.035981432 0.43299001 1.6980001
-0.024257144 0.43177718 1.6980001
-0.016171427 0.43177715 1.6980001
-0.0067556719 0.43470582 1.6950911
0.0016095239 0.43296194 1.6900001
0.25652382 0.43560001 1.6939999
0.26262403 0.43404117 1.6980002
-0.0069044908 0.44360706 1.691143
0.014485715 0.44744763 1.6900001
0.02897143 0.44744763 1.6900001
0.25632066 0.44492951 1.6926666
0.26327088 0.44697827 1.6980002
-0.012937143 0.45280001 1.6980001
-0.0077257147 0.45517334 1.6900002
0.0021460319 0.45495877 1.6900001
0.017704763 0.45227623 1.6900001
0.025752384 0.45388573 1.6900002
0.035409525 0.45388573 1.6900003
0.04184762 0.45710477 1.6900001
0.24625716 0.45710477 1.6900001
0.25470716 0.4538857 1.6900003
0.26493716 0.45555511 1.6962222
0.2727581 0.4571124 1.6980001
-0.0067660958 0.46462554 1.6916002
0.0029264071 0.46559134 1.6900004
0.017168254 0.46139684 1.6900001
0.022533335 0.46032384 1.6900001
0.033799998 0.46032384 1.6900001
0.052577779 0.46783495 1.6900001
0.23660001 0.46998096 1.6900001
0.24435498 0.46471345 1.6900004
0.25412294 0.46491429 1.6907276
0.26493716 0.46525124 1.6962222
0.27168 0.46412003 1.6980001
-0.022640001 0.47867429 1.6980001
-0.015093334 0.47544003 1.6980001
-0.0072504771 0.47617239 1.6920002
0.0051504765 0.4781577 1.6916001
0.015290476 0.47883335 1.6900001
0.022533335 0.4796381 1.6900001
0.22855239 0.4780286 1.6900001
0.23539285 0.47682142 1.6900003
0.24508686 0.47599775 1.6908003
0.2547619 0.47564954 1.6930001
0.26428738 0.47497797 1.6980001
-0.0070910482 0.48589259 1.6916001
0.0043009524 0.48633531 1.6946667
0.016108785 0.48658583 1.6917779
0.025752382 0.48607621 1.6900003
0.034765713 0.48800763 1.6900002
0.22625308 0.48653606 1.6900003
0.23499049 0.48607621 1.6900003
0.24464761 0.48607621 1.6900003
0.25561571 0.48497382 1.6960001
0.26197717 0.48352575 1.6980001
-0.024257146 0.49484575 1.6980001
-0.0051718098 0.49502021 1.6964
0.005267533 0.49586594 1.6914548
0.01609524 0.49573338 1.6900003
0.02575238 0.49573338 1.6900003
0.035409525 0.49573338 1.6900003
0.04184762 0.49734288 1.6900001
0.22533333 0.49412382 1.6900002
0.23418573 0.49331909 1.6900001
0.2451075 0.49573335 1.6900003
0.25385001 0.49517861 1.6949999
-0.024796193 0.50239241 1.6980001
-0.014485715 0.50860953 1.6900001
-0.0056409528 0.50738764 1.694
0.0044571431 0.50544387 1.6918464
0.01609524 0.50539052 1.6900003
0.025752382 0.50539047 1.6900003
0.034489796 0.50493062 1.6900003
0.2156762 0.50217146 1.6900001
0.23660001 0.50699997 1.6900001
0.24439192 0.50528717 1.6910002
0.25421485 0.50519544 1.6980002
-0.015175511 0.51550752 1.6900003
-0.0061299047 0.51537299 1.6932001
0.0054769525 0.51513064 1.6924002
0.015635375 0.51504767 1.6900003
0.025752382 0.51504761 1.6900003
0.032190476 0.51343811 1.6900001
0.10944762 0.51826668 1.6900001
0.22855239 0.51665711 1.6900001
0.2345881 0.51464528 1.6900003
0.24610233 0.51482934 1.6968572
0.25389144 0.51425141 1.6980001
0.26521143 0.51748574 1.6980001
-0.023718096 0.52611047 1.6980001
-0.017382858 0.52341717 1.6900002
-0.0072428575 0.52229053 1.6900001
0 0.52309525 1.6900001
0.019314287 0.52309525 1.6900001
0.026154762 0.52430236 1.6900003
0.032190476 0.52631426 1.6900001
0.048285715 0.52792382 1.6900001
0.055528574 0.52631426 1.6900001
0.063307934 0.52577776 1.6900002
0.10944762 0.52148575 1.6900001
0.11266667 0.52309525 1.6900001
0.14577687 0.52516466 1.6900003
0.15129524 0.52631426 1.6900001
0.22774763 0.52390003 1.6900001
0.23541334 0.52402097 1.6930001
0.24511001 0.52293289 1.6960001
0.25397715 0.52281374 1.6964
0.26521143 0.52460116 1.6980002
0.045142859 0.533593 1.6926666
0.054839186 0.53314012 1.6934286
0.064477466 0.533593 1.6926666
0.073677629 0.53508049 1.6910002
0.08369524 0.53114289 1.6900001
0.14646667 0.53275239 1.6900001
0.15370953 0.53355718 1.6900001
0.23610286 0.53042287 1.6980001
0.24742287 0.53042287 1.6980001
0.074038096 0.54080003 1.6900001
0.34607428 -0.022746667 1.7060001
0.35203174 -0.024913019 1.706
-0.064990476 -0.013810476 1.7060001
-0.057408255 -0.015164445 1.706
0.29530048 -0.015841428 1.7060002
0.30452681 -0.016247619 1.7060002
0.31520382 -0.014622858 1.7060001
0.33470097 -0.012998096 1.7060001
0.34444952 -0.012998096 1.706
0.3541981 -0.01665381 1.7060002
0.36069715 -0.014622858 1.7060001
-0.082862861 -0.0032495239 1.7060001
-0.073926672 -0.0064990474 1.7060001
-0.066615239 -0.0097485716 1.7060001
0.33470097 -0.0064990479 1.7060001
0.34537798 -0.0064990479 1.7060002
0.3541981 -0.0048742858 1.7060002
0.36354047 -0.0060928576 1.7060002
0.37044573 -0.0048742858 1.7060001
-0.10073524 0.0097485716 1.7060001
-0.094236195 0.0075822226 1.706
-0.08665397 0.0010831746 1.706
0.35582286 0 1.7060001
0.36394668 0 1.706
0.37477845 0.0043326984 1.7060002
0.38084421 0.0058491426 1.7060001
-0.1029016 0.016789207 1.7060002
-0.096402548 0.015164445 1.706
0.37462372 0.016247619 1.7060002
0.38019431 0.016247621 1.706
-0.10560954 0.025996193 1.7060002
0.37462369 0.025531976 1.7060002
0.38019431 0.025996191 1.706
-0.10560954 0.035744764 1.7060001
0.37564498 0.035094857 1.7060001
0.38236067 0.036827937 1.706
-0.11048381 0.045493335 1.7060001
-0.10506795 0.046576511 1.7060002
0.3761324 0.044680953 1.7060001
0.38303763 0.045493335 1.7060002
-0.10073524 0.055241901 1.706
-0.097485721 0.056866668 1.7060001
0.36557144 0.058491431 1.7060001
0.37369528 0.055706125 1.7060002
0.3818191 0.055241909 1.7060002
-0.094236195 0.064990476 1.7060002
-0.087737143 0.066615239 1.7060001
0.3658964 0.064990476 1.7060001
0.37369525 0.064990483 1.7060002
0.38100669 0.064178094 1.7060001
-0.092286482 0.074089147 1.7060001
0.3671962 0.074739054 1.7060001
0.37369525 0.074739046 1.7060002
0.38019431 0.074739054 1.7060001
-0.090986669 0.084487617 1.706
-0.086924762 0.085299999 1.7060001
0.3671962 0.08611238 1.7060001
0.37328905 0.084081426 1.7060002
-0.090986669 0.092611432 1.7060001
-0.085416056 0.094236195 1.7060002
0.3671962 0.094236195 1.706
0.37369525 0.094236195 1.7060002
-0.092069842 0.10615113 1.706
-0.085137524 0.10203506 1.7060001
-0.077176191 0.10479715 1.7060001
0.36502984 0.10452636 1.7060002
0.37323102 0.10305633 1.7060002
-0.090986669 0.11373333 1.706
-0.08643733 0.11308344 1.7060001
0.3379505 0.11698286 1.7060001
0.35744762 0.11698286 1.7060001
0.36394665 0.11326913 1.7060002
0.37207049 0.11048381 1.7060001
-0.092286482 0.12283202 1.7060001
-0.08665397 0.12889779 1.706
0.3541981 0.12510666 1.706
0.36178032 0.1240235 1.7060002
-0.084487617 0.13647999 1.7060002
0.34769905 0.13648 1.706
0.3541981 0.13647999 1.7060002
0.36069715 0.13648 1.7060001
-0.083404452 0.14622857 1.7060002
0.33632573 0.14947811 1.7060001
0.34769905 0.14460382 1.7060001
0.3541981 0.14622857 1.7060002
0.36394665 0.14622857 1.7060002
0.37125811 0.1454162 1.7060001
-0.08205048 0.15678953 1.7060001
-0.077988572 0.15597714 1.7060001
0.33632573 0.15597714 1.7060002
0.34639925 0.15662704 1.7060001
0.3541981 0.15597714 1.7060002
0.36394668 0.15272762 1.7060001
-0.08205048 0.16572572 1.7060001
-0.077988572 0.16572572 1.7060001
0.33562943 0.16618994 1.7060002
0.34444955 0.16572572 1.7060002
0.3541981 0.16572572 1.7060002
-0.074197464 0.17547429 1.7060002
0.32820192 0.17547429 1.706
0.33470097 0.1754743 1.7060002
0.34607431 0.17547429 1.7060002
0.3541981 0.17547429 1.7060002
0.36069715 0.17547429 1.706
-0.071489528 0.18197334 1.7060001
-0.066615239 0.18684763 1.7060001
0.32170287 0.18522286 1.7060001
0.3351652 0.18429443 1.7060002
0.34661588 0.18413968 1.706
0.3541981 0.18522286 1.7060002
0.36301824 0.18522286 1.7060002
-0.071489528 0.19659621 1.7060001
-0.066615231 0.19497144 1.7060002
0.33578417 0.19388826 1.7060002
0.34769905 0.19497144 1.706
0.3541981 0.19497144 1.7060002
-0.072301909 0.20553239 1.7060001
-0.066290282 0.2053699 1.7060001
0.33665067 0.20407009 1.7060001
0.34537795 0.20472001 1.7060002
0.35311493 0.20363683 1.7060002
-0.071489528 0.21446858 1.706
-0.066615231 0.21446858 1.7060002
0.3342948 0.21406239 1.7060002
0.34607425 0.21446858 1.7060002
0.35176095 0.21528096 1.7060001
-0.071489528 0.22096762 1.7060001
-0.066615231 0.22421716 1.7060002
0.32820192 0.22421715 1.7060001
0.33361781 0.22367556 1.7060002
0.34444955 0.22421715 1.7060002
0.35224837 0.22486706 1.7060001
-0.064062037 0.23350152 1.7060002
-0.055241905 0.23396572 1.7060001
0.31650361 0.23461564 1.7060001
0.32625219 0.23526554 1.7060001
0.33145145 0.23396571 1.706
0.34444952 0.23396574 1.7060002
0.3541981 0.23396574 1.7060002
-0.061740953 0.24371429 1.706
-0.05767905 0.24290191 1.7060001
0.30545524 0.2437143 1.7060002
0.31520382 0.2437143 1.7060002
0.32495239 0.2437143 1.7060002
0.33226383 0.24371429 1.7060001
0.34607431 0.24371432 1.7060002
0.3541981 0.2437143 1.7060002
0.36069715 0.24046478 1.7060001
-0.061740953 0.25183812 1.7060001
-0.054946493 0.25464451 1.7060001
-0.047659684 0.25887874 1.706
0.30545524 0.25508758 1.706
0.31520382 0.25508761 1.706
0.32495239 0.25508761 1.706
0.33145145 0.25346288 1.706
0.34412462 0.25443774 1.7060001
0.35257334 0.25183812 1.7060001
-0.061740953 0.26971048 1.7060001
-0.053617146 0.26646093 1.7060002
-0.047930479 0.26564857 1.7060001
0.3065384 0.26591936 1.7060002
0.31520382 0.26646098 1.7060002
0.32402396 0.26599675 1.7060002
0.33145145 0.26321143 1.7060001
0.34120002 0.26646096 1.7060001
-0.061740953 0.27945906 1.7060001
-0.055241909 0.27620953 1.7060002
0.30626762 0.27539715 1.7060001
0.31520379 0.2762095 1.7060002
0.32170287 0.27458477 1.7060001
-0.061740953 0.28595811 1.7060001
-0.058491427 0.28595811 1.706
0.30870476 0.28595811 1.706
0.31520379 0.28595811 1.7060002
0.32170287 0.28433335 1.7060001
-0.061740953 0.29570669 1.7060001
-0.056170344 0.29617092 1.7060002
-0.043868572 0.29895622 1.7060001
0.30870476 0.29570669 1.706
0.31628701 0.29354033 1.706
0.32251525 0.29651907 1.7060001
-0.054313473 0.30499101 1.7060002
-0.046305716 0.30545524 1.7060001
0.30870476 0.30545524 1.706
0.31613225 0.30591944 1.7060002
0.32170287 0.30383047 1.7060001
-0.054313473 0.31473961 1.7060002
-0.04642177 0.31566805 1.7060002
0.29733145 0.31845334 1.7060001
0.30591944 0.31613225 1.7060002
0.31325409 0.31455392 1.7060001
-0.053617146 0.32495239 1.7060002
-0.045493335 0.32495239 1.7060002
-0.03704457 0.32625219 1.7060001
0.29765639 0.32560229 1.7060001
0.30452681 0.32448816 1.7060002
-0.042243812 0.33145145 1.7060001
-0.035280544 0.33377257 1.7060002
-0.029245714 0.33470097 1.706
0.29635659 0.33275124 1.7060001
0.30437204 0.33578417 1.7060002
0.31195429 0.3379505 1.7060001
-0.034816325 0.34491378 1.7060002
-0.029245714 0.34444952 1.706
0.29895622 0.34444952 1.706
0.30586144 0.34404337 1.7060002
0.31303748 0.34661588 1.706
-0.047118098 0.35582286 1.7060001
-0.03574476 0.3541981 1.7060002
0.28920764 0.35744762 1.7060001
0.29440689 0.3554979 1.7060001
0.30610514 0.354848 1.7060001
0.31412062 0.35473967 1.7060002
-0.051992383 0.36394668 1.706
-0.045493335 0.36394671 1.7060002
-0.036150951 0.36394668 1.7060002
-0.029245716 0.3671962 1.7060001
0.28758287 0.36394668 1.7060002
0.29570666 0.36394668 1.7060002
0.30545524 0.36394665 1.7060002
0.31325409 0.36329678 1.7060001
-0.035094857 0.37239546 1.7060001
-0.029245714 0.37369525 1.706
0.28839526 0.37369525 1.7060001
0.29570666 0.37369525 1.7060002
0.30545524 0.37369522 1.7060002
0.31195429 0.37694478 1.7060001
-0.029245714 0.384527 1.706
0.28758287 0.3850686 1.7060002
0.29505676 0.3844187 1.7060001
0.30545524 0.38019431 1.7060001
-0.032495238 0.39806667 1.7060001
-0.029245714 0.39644191 1.706
0.28758287 0.39644191 1.7060002
0.29408193 0.39644191 1.7060002
-0.051992383 0.40619048 1.7060001
-0.048742861 0.40619048 1.7060001
-0.034661587 0.40835682 1.706
-0.027079366 0.40727365 1.706
0.28758287 0.40619048 1.7060002
0.29245716 0.40619048 1.706
-0.045493335 0.41756383 1.7060001
-0.034661587 0.41539744 1.7060002
-0.029245714 0.41593906 1.706
0.27837589 0.41810539 1.706
0.28636432 0.41634521 1.7060002
0.29408193 0.4143143 1.7060001
-0.052804764 0.42650002 1.7060001
-0.043868572 0.42406288 1.7060001
-0.034120001 0.42568764 1.7060001
-0.027620953 0.42650002 1.7060001
0.26971048 0.42893717 1.7060001
0.2762095 0.42568764 1.7060002
0.28595814 0.42568767 1.7060002
-0.053292193 0.43608612 1.7060001
-0.032495238 0.43868575 1.7060001
-0.026808571 0.4362486 1.7060001
-0.016247621 0.43868575 1.706
0.26841068 0.43608612 1.7060001
0.27620953 0.43543619 1.7060002
0.28595814 0.43543616 1.7060002
0.29408193 0.43868575 1.7060001
-0.053617146 0.44518474 1.7060002
-0.045957554 0.4461132 1.7060002
-0.036673196 0.44472057 1.7060002
-0.025183812 0.44437242 1.7060001
-0.016247619 0.44518477 1.7060002
0.26841068 0.44453484 1.7060001
0.2762095 0.44518477 1.7060002
0.28595814 0.44518477 1.7060002
0.29570669 0.44518477 1.7060002
-0.025996191 0.45655811 1.7060001
-0.015597714 0.45363355 1.7060001
0.26971048 0.45168382 1.7060001
0.27667376 0.45400485 1.7060002
0.28595814 0.45493332 1.7060002
0.29570666 0.45493332 1.7060002
-0.025996191 0.46468195 1.706
-0.012998096 0.46468195 1.706
0.2778343 0.46468189 1.7060002
0.28595811 0.46468189 1.7060002
0.29375696 0.46403199 1.7060001
-0.02437143 0.47443047 1.7060002
-0.017176054 0.47396627 1.7060002
0.26971048 0.47768003 1.7060001
0.2762095 0.47443044 1.7060002
0.28595814 0.4744305 1.7060002
0.29245716 0.47443047 1.706
-0.024696384 0.48482895 1.7060001
-0.015841428 0.48458526 1.7060002
0.26841068 0.48482895 1.7060001
0.27580333 0.4837729 1.7060002
0.28433335 0.48255432 1.7060001
-0.038994286 0.4906781 1.7060001
-0.025996191 0.4917613 1.706
-0.016247621 0.49230286 1.7060002
-0.0097485716 0.49717715 1.7060001
0.2599619 0.49555239 1.7060001
0.26646098 0.49392763 1.7060002
0.2762095 0.49392763 1.7060002
0.28502968 0.49439186 1.7060002
0.29245716 0.49717715 1.7060001
-0.027620953 0.50448865 1.7060001
-0.017872382 0.50692576 1.7060001
-0.0081238095 0.50692576 1.7060001
0.2599619 0.505301 1.7060001
0.26646098 0.50367624 1.7060002
0.2762095 0.50367624 1.7060002
0.28595811 0.50367624 1.7060002
0.29245716 0.50367624 1.706
-0.029245716 0.51342475 1.7060001
-0.019497143 0.51992381 1.7060001
-0.0081238095 0.51017523 1.7060001
0.2599619 0.51504952 1.7060001
0.26646096 0.51460642 1.7060001
0.27512634 0.51450795 1.7060002
0.28433335 0.51017523 1.7060001
-0.061740953 0.52317333 1.7060001
-0.058491431 0.52317333 1.7060001
-0.025996191 0.52642286 1.7060001
0.2599619 0.52642286 1.706
0.26646096 0.52561045 1.7060001
0.24208954 0.53292191 1.7060001
-0.074316666 -0.013883335 1.715
-0.065333337 -0.016333334 1.715
0.31686667 -0.016333334 1.715
0.32176667 -0.016333334 1.715
0.33755556 -0.017422223 1.715
0.34626672 -0.017966667 1.715
0.35606667 -0.013066667 1.715
0.36586669 -0.014700001 1.715
-0.093100004 -0.0032666668 1.715
-0.083844453 -0.0065333336 1.715
-0.077311113 -0.0087111117 1.715
0.33646667 -0.0098000001 1.715
0.35606667 -0.0098000001 1.715
0.36913335 -0.0098000001 1.715
0.37621114 -0.0065333326 1.715
0.3822 -0.0032666668 1.715
-0.10616668 0.0098000001 1.715
-0.095200002 0.0023333335 1.715
0.38733339 0.0041999999 1.715
0.39200002 0.0098000001 1.715
-0.10671112 0.015244446 1.715
0.38710001 0.016333334 1.715
0.39281666 0.016333334 1.715
0.38710001 0.026133334 1.715
0.39200002 0.0294 1.715
-0.11106667 0.0392 1.715
-0.10780001 0.0392 1.715
0.38601112 0.035388891 1.715
0.39330667 0.036586665 1.7149999
-0.11106667 0.042466667 1.715
0.38873336 0.045733336 1.715
0.39200005 0.045733336 1.715
-0.11106667 0.055533335 1.715
-0.10616667 0.055533335 1.715
0.38873336 0.055533335 1.715
0.39200005 0.055533335 1.715
-0.104125 0.064925 1.715
0.38710004 0.065333337 1.715
0.39200002 0.062066671 1.715
-0.10257334 0.074479997 1.7149999
-0.097183332 0.075950004 1.715
0.38383335 0.074316666 1.715
-0.1029 0.084933341 1.715
-0.096366666 0.084933341 1.715
0.37893334 0.088200003 1.715
0.3822 0.084933341 1.715
-0.10208334 0.093916669 1.715
-0.095666662 0.095200002 1.715
0.38383332 0.094733335 1.715
-0.10126666 0.10453334 1.715
-0.095822223 0.10344445 1.715
0.37730002 0.10780001 1.715
0.38437781 0.10344445 1.715
-0.10126667 0.11596667 1.715
-0.096366666 0.11433333 1.715
0.36913335 0.1176 1.715
0.37648335 0.11351667 1.715
0.38328889 0.11215556 1.715
-0.10388001 0.12282667 1.7149999
-0.09691111 0.12413334 1.715
0.36831668 0.12495001 1.715
0.37403333 0.12576668 1.715
-0.093644448 0.13338889 1.715
0.36680001 0.1344 1.715
0.37473336 0.13393334 1.715
-0.092773333 0.14308001 1.7149999
-0.088200003 0.147 1.715
0.36750001 0.14046668 1.715
0.37632003 0.14373334 1.7149999
-0.086893335 0.15418668 1.7149999
0.36586666 0.15549333 1.7149999
0.37566668 0.15353334 1.715
-0.086893335 0.16463999 1.7149999
0.36586666 0.16496667 1.715
0.37536973 0.16452122 1.715
0.3822 0.16333334 1.715
-0.083844446 0.17585556 1.715
-0.078400001 0.17803334 1.715
0.36750004 0.17640001 1.715
0.37436 0.17574668 1.7149999
-0.083626673 0.18489334 1.7149999
-0.075541668 0.18660834 1.715
0.36913335 0.18293335 1.715
0.37403336 0.18456668 1.715
-0.084280007 0.19534668 1.7149999
-0.076066673 0.19553335 1.715
0.36390668 0.19665334 1.7149999
-0.083300009 0.20498334 1.715
-0.07709334 0.20514667 1.7149999
-0.068599999 0.20253333 1.715
0.35824445 0.20797779 1.715
0.36368892 0.20362222 1.715
-0.081666671 0.21560001 1.715
-0.07676667 0.21560001 1.715
0.33973333 0.21886668 1.715
0.35802665 0.21494667 1.7149999
0.3626 0.21886668 1.715
-0.084933341 0.22213334 1.715
-0.075541675 0.22580832 1.715
0.33864447 0.22648889 1.715
0.35851669 0.22458334 1.715
0.36368892 0.22431111 1.715
-0.075133339 0.2352 1.715
-0.068599999 0.23683333 1.715
0.33810005 0.2352 1.715
0.3626 0.23356667 1.715
-0.074199997 0.24453335 1.715
-0.066966668 0.245 1.715
0.33842668 0.245 1.7149999
0.36586669 0.24173334 1.715
-0.083300002 0.25316668 1.715
-0.07472501 0.2543917 1.715
-0.066266671 0.25526667 1.715
0.33809999 0.25479999 1.715
0.34626669 0.25806668 1.715
-0.071866669 0.26296669 1.715
-0.065333337 0.26460001 1.715
-0.058800001 0.26460001 1.715
0.32993335 0.26786667 1.715
0.33687502 0.26460001 1.715
0.34735557 0.26514447 1.715
0.35280001 0.26133335 1.715
-0.064680003 0.2744 1.7149999
-0.058800001 0.27113333 1.715
0.32862669 0.27505332 1.7149999
0.33553335 0.27393332 1.715
0.34626669 0.27440003 1.715
-0.066266671 0.28466669 1.715
0.32760003 0.28373334 1.715
0.33450669 0.28354669 1.7149999
0.34626669 0.28420001 1.715
-0.066266671 0.294 1.715
0.3276 0.29353335 1.715
0.33320001 0.294 1.715
0.34585834 0.29359168 1.715
-0.064026669 0.30249333 1.7149999
-0.058800001 0.30706668 1.715
0.32862669 0.30445334 1.7149999
0.33428887 0.30162224 1.715
0.3438167 0.30298334 1.715
-0.06288334 0.31441665 1.715
-0.058800001 0.3136 1.715
0.32448888 0.31396294 1.715
0.34300002 0.31359997 1.715
-0.063700005 0.32666668 1.715
-0.058800001 0.32503337 1.715
0.31432593 0.32630375 1.715
0.32340002 0.3250334 1.715
0.34300002 0.32503337 1.715
-0.065333337 0.33320001 1.715
-0.055533338 0.33450666 1.7149999
-0.045733333 0.33592221 1.715
-0.037566669 0.33973333 1.715
0.30706668 0.33320001 1.715
0.31406665 0.33553335 1.715
0.32458791 0.33676365 1.715
0.33320001 0.33973333 1.715
0.3451778 0.3370111 1.715
-0.052266669 0.34953335 1.715
-0.045266666 0.34720001 1.715
-0.0392 0.34463334 1.715
0.31577778 0.34408891 1.715
0.32503337 0.34626672 1.715
0.33483332 0.34626669 1.715
0.34430671 0.34561336 1.7149999
-0.055066667 0.35700002 1.715
-0.044426668 0.35475999 1.7149999
0.31686667 0.35280001 1.715
0.32547879 0.35606667 1.715
-0.062066671 0.36913335 1.715
-0.05635 0.36668333 1.715
0.31686667 0.36913335 1.715
0.32458791 0.36556971 1.715
-0.044916667 0.37321669 1.715
-0.03675 0.37730002 1.715
0.30380002 0.37566668 1.715
0.31468889 0.37512222 1.715
0.32405335 0.37599337 1.7149999
-0.035116665 0.38301668 1.715
-0.0294 0.38873336 1.715
0.30434445 0.38655558 1.715
0.3136 0.38546669 1.715
0.32458788 0.38576365 1.715
0.30380002 0.39526665 1.715
0.31359997 0.39526668 1.715
0.32503334 0.39526668 1.715
-0.045733333 0.40506664 1.715
-0.033755556 0.40506664 1.715
-0.0294 0.40670002 1.715
0.29726669 0.40670002 1.715
0.30380002 0.40506664 1.715
0.3136 0.40506664 1.715
0.32293335 0.40413332 1.715
-0.052266669 0.41813335 1.715
-0.042466667 0.41650003 1.715
-0.038111113 0.41595557 1.715
0.29726669 0.41160002 1.715
0.30379999 0.41486672 1.715
0.31196666 0.41160002 1.715
-0.062066671 0.42793334 1.715
-0.053900003 0.42466667 1.715
-0.042466667 0.42303336 1.715
-0.037566669 0.42466667 1.715
-0.0294 0.42793334 1.715
0.29563335 0.42466664 1.715
0.3033917 0.42507499 1.715
0.31033334 0.42793334 1.715
-0.062066671 0.43446669 1.715
-0.058800001 0.43446669 1.715
0.29563335 0.43446669 1.715
0.30380002 0.43446672 1.715
0.3136 0.43446669 1.715
0.32013336 0.43446669 1.715
-0.062066671 0.44426668 1.715
-0.058800001 0.44426668 1.715
-0.032666668 0.44753334 1.715
-0.027766667 0.44508335 1.715
0.30473334 0.4438 1.715
0.3136 0.44426671 1.715
0.32013336 0.44100001 1.715
-0.062066671 0.45080003 1.715
-0.056077782 0.45461115 1.715
-0.045079999 0.45537338 1.7149999
-0.035116669 0.45406672 1.715
-0.025588891 0.45352221 1.715
-0.0196 0.45733336 1.715
0.30543333 0.45406672 1.715
0.31142223 0.45188892 1.715
-0.042466667 0.46223336 1.715
-0.0392 0.46386668 1.715
-0.022866668 0.46386668 1.715
-0.017966667 0.46386668 1.715
0.30249333 0.46452004 1.7149999
-0.042466667 0.47366667 1.715
-0.032666668 0.47693336 1.715
-0.026133334 0.47366667 1.715
-0.017966667 0.47040001 1.715
0.29726669 0.47366667 1.715
0.30216667 0.47366667 1.715
-0.042466667 0.48346666 1.715
-0.035933334 0.48346668 1.715
-0.0294 0.48346671 1.715
0.29446667 0.48440006 1.715
0.3033917 0.48387501 1.715
0.31033334 0.48346668 1.715
-0.042466667 0.49326667 1.715
-0.035636365 0.49504849 1.715
-0.0294 0.49435556 1.715
-0.016333334 0.49980006 1.715
-0.0065333336 0.49980003 1.715
0.28419998 0.49000001 1.715
0.29432669 0.49392 1.7149999
0.30380002 0.49490008 1.715
0.31033334 0.49435559 1.715
-0.034844447 0.50524449 1.715
-0.015866669 0.5054 1.715
-0.0081666671 0.50470001 1.715
0.29726669 0.50633335 1.715
0.3033917 0.50633335 1.715
-0.065333337 0.5194 1.715
-0.058800001 0.5194 1.715
-0.033483334 0.51613331 1.715
-0.024500003 0.51613337 1.715
-0.01764 0.51482666 1.7149999
0.28419998 0.51776671 1.715
0.29400003 0.51613337 1.715
0.30053335 0.51286668 1.715
-0.063700005 0.52266669 1.715
-0.055533335 0.52484447 1.715
-0.049000002 0.52920002 1.715
-0.033483334 0.52675003 1.715
-0.026133334 0.5253889 1.715
0.27603334 0.52756667 1.715
0.28373334 0.52499998 1.715
0.29236668 0.52266669 1.715
-0.0294 0.53246671 1.715
-0.084509045 -0.013948096 1.723
-0.077124767 -0.016409524 1.723
-0.067279048 -0.01969143 1.723
0.33803621 -0.016409524 1.723
0.37359014 -0.015315556 1.7229999
-0.10338001 -0.0032819049 1.723
-0.095995724 -0.0057433331 1.723
-0.086970478 -0.0082047619 1.723
0.38562381 -0.0049228575 1.723
-0.11445643 0.006974048 1.7229998
-0.10502096 0.0032819049 1.7229998
0.39570397 0.0042195921 1.7229998
0.40148637 0.0060168258 1.7229999
-0.11486667 0.016409524 1.7229998
0.39711049 0.016409524 1.723
0.40203336 0.016409524 1.7229999
0.41352001 0.01969143 1.723
-0.11486667 0.026255237 1.7229998
0.39579773 0.025598858 1.7229999
0.4027366 0.026724081 1.7229998
0.41269952 0.027075715 1.723
-0.11486667 0.036100954 1.7229998
0.39711049 0.032819048 1.723
0.4027366 0.036100954 1.7229998
0.41352001 0.032819048 1.723
-0.11541366 0.045946669 1.7229999
0.39711049 0.045946669 1.723
0.40039238 0.042664763 1.723
-0.1135539 0.05579238 1.7229999
0.39711049 0.05579238 1.723
0.40039238 0.059074286 1.723
-0.11322572 0.065638095 1.7229999
-0.10830286 0.068920001 1.723
0.39448497 0.066294476 1.7229999
0.40039238 0.062356193 1.723
-0.11322572 0.075483814 1.7229999
-0.10748239 0.076304287 1.723
0.38726479 0.07876572 1.723
0.3928909 0.075483814 1.7229998
-0.11289753 0.084673151 1.7229999
-0.10830286 0.085329525 1.723
0.38726482 0.085329525 1.723
0.39218763 0.085329525 1.7229999
-0.11158476 0.095175244 1.723
-0.1069901 0.095831625 1.7229999
0.39218763 0.095175244 1.7229999
0.40258035 0.096269213 1.723
-0.11158477 0.10338001 1.723
-0.10666192 0.10502096 1.7229999
0.38726479 0.10830286 1.723
0.39328161 0.10502096 1.7229999
0.40148637 0.10283303 1.723
-0.11158477 0.11814857 1.723
-0.10595864 0.11439783 1.7229998
0.37577811 0.11814857 1.723
0.38480335 0.11732809 1.723
0.39341834 0.11445644 1.7229998
-0.11158477 0.12143048 1.723
-0.10584144 0.12635334 1.723
-0.09845715 0.12799428 1.723
0.37577811 0.1238919 1.723
0.3839829 0.12471239 1.7229998
0.39136717 0.12389191 1.723
-0.10543119 0.13414785 1.7229998
-0.097363181 0.13565207 1.723
0.38439313 0.1345581 1.7229998
0.39054668 0.1345581 1.723
-0.10283303 0.14221589 1.723
-0.097636677 0.14522429 1.723
0.38492057 0.14393497 1.7229998
0.39054668 0.14768572 1.723
-0.095175244 0.15424953 1.7229998
0.38492057 0.15471837 1.7229998
0.39054668 0.15424953 1.723
-0.10338 0.16409524 1.7229999
-0.095175244 0.16409525 1.7229998
0.38595206 0.16409525 1.7229999
0.39054668 0.16409524 1.723
-0.10338 0.17394096 1.7229999
-0.095175244 0.17394096 1.7229998
-0.088611431 0.17230001 1.723
0.3839829 0.17394096 1.7229998
0.39136717 0.17394096 1.723
-0.095175244 0.18378669 1.7229998
-0.086970478 0.18378669 1.723
0.37413716 0.18050477 1.723
0.38398287 0.18378669 1.7229998
0.39054668 0.18214571 1.723
-0.10173905 0.1969143 1.723
-0.095175244 0.19363239 1.7229998
-0.086150005 0.19281191 1.723
0.36757335 0.19363239 1.723
0.37413716 0.1969143 1.723
-0.095175244 0.20347811 1.7229998
-0.086642288 0.2034781 1.7229999
0.36757335 0.20676 1.723
0.37319949 0.20300926 1.7229998
-0.093534291 0.21496475 1.7229998
-0.086970478 0.21496475 1.7229998
0.3661668 0.2142615 1.7229998
0.37085524 0.21551175 1.723
-0.094765007 0.22686167 1.7229998
-0.085329525 0.22809239 1.7229999
0.3664794 0.22754543 1.723
0.37085524 0.22316954 1.723
-0.095175251 0.23629716 1.7229998
-0.085329525 0.23629716 1.7229998
0.36675286 0.23711762 1.723
0.37413713 0.23723483 1.7229998
-0.095175236 0.24614286 1.7229998
-0.085329525 0.24614286 1.7229998
-0.07876572 0.24778381 1.723
0.3659324 0.24778381 1.723
0.37413716 0.24614286 1.7229998
0.38070098 0.24614286 1.723
-0.095175244 0.25598857 1.7229998
-0.086642288 0.25730133 1.7229999
-0.07876572 0.25927049 1.723
0.35608667 0.25927049 1.723
0.36382261 0.2550509 1.7229998
0.37348077 0.25401944 1.7229999
-0.095175244 0.26255238 1.723
-0.084919289 0.26542407 1.7229998
-0.076421499 0.26630312 1.7229998
0.35641485 0.26649067 1.7229999
0.36100954 0.26255238 1.723
-0.082047619 0.27239811 1.723
-0.075483814 0.27568001 1.7229998
-0.067826033 0.27677399 1.723
0.3413181 0.27732098 1.723
0.35608664 0.27568004 1.7229999
0.36100954 0.27568001 1.723
-0.084016755 0.28683847 1.7229999
-0.075483814 0.28552568 1.7229998
0.33803621 0.28880763 1.723
0.3413181 0.28552574 1.723
0.3560867 0.28552577 1.7229999
0.36100951 0.28552574 1.723
-0.093534291 0.29865333 1.723
-0.084919289 0.29578167 1.7229998
-0.075483806 0.29537141 1.7229998
0.33803621 0.29537144 1.723
0.3413181 0.29537144 1.723
0.3553834 0.29584029 1.7229998
0.36100954 0.2937305 1.723
-0.095175244 0.30193526 1.723
-0.085329525 0.30480692 1.7229998
-0.075483806 0.30521715 1.7229998
-0.067279048 0.30685812 1.723
0.33694223 0.30740508 1.723
0.34394366 0.30587354 1.7229999
0.35313296 0.30390438 1.7229999
0.36100954 0.30193526 1.723
-0.074546121 0.31506285 1.7229998
-0.067607239 0.31440648 1.7229999
0.33516455 0.31506288 1.7229998
0.34459999 0.31506285 1.7229999
0.35116383 0.31506288 1.723
-0.072201908 0.32490858 1.723
-0.067279048 0.32490858 1.7229999
0.33475432 0.32490855 1.7229998
0.34459999 0.32443973 1.7229998
0.35116383 0.32490858 1.723
-0.072201908 0.33475432 1.723
-0.065638095 0.33803621 1.723
-0.055792384 0.33803621 1.723
0.33516455 0.33434403 1.7229998
0.34405303 0.33366033 1.7229999
0.35444573 0.33475429 1.7229998
0.36100954 0.33803621 1.723
-0.085739762 0.34501022 1.7229998
-0.07507357 0.34501022 1.7229998
-0.065638095 0.34459999 1.7229998
-0.055792384 0.34459999 1.7229998
-0.047587622 0.34295908 1.723
0.33694223 0.34350607 1.723
0.3413181 0.34459999 1.723
0.35403547 0.34418976 1.7229998
-0.085329525 0.35444573 1.7229998
-0.075483821 0.35444573 1.7229998
-0.065638103 0.35444576 1.7229998
-0.057433337 0.35280478 1.723
0.33639526 0.35444573 1.7229999
0.34460002 0.35485592 1.7229998
0.35116383 0.35280478 1.723
-0.085329525 0.36100951 1.723
-0.074546136 0.36382261 1.7229998
-0.065638095 0.36429146 1.7229998
-0.059074286 0.3659324 1.723
0.33639526 0.36429143 1.7229999
-0.07351467 0.37348074 1.7229999
-0.066048332 0.37454739 1.7229998
-0.05579238 0.37577811 1.7229999
-0.047587622 0.37741905 1.723
0.33278516 0.37413713 1.7229999
-0.072201908 0.3839829 1.723
-0.063997142 0.3839829 1.7229999
-0.055792384 0.3839829 1.7229998
-0.045946669 0.38398287 1.7229998
-0.037741907 0.38726479 1.723
0.33393383 0.3839829 1.723
-0.063997142 0.3938286 1.7229999
-0.055792384 0.3938286 1.7229998
-0.045946669 0.3938286 1.7229998
-0.036100958 0.3938286 1.7229998
0.33639523 0.3938286 1.7229999
0.34460002 0.39054668 1.723
-0.072201908 0.40531525 1.723
-0.065227859 0.40408453 1.7229998
-0.055792384 0.40367427 1.7229998
-0.045946669 0.40203336 1.7229999
-0.038070098 0.4036743 1.7229999
0.33409792 0.40301791 1.7229999
-0.072201908 0.41187906 1.723
-0.065638095 0.41352001 1.7229998
-0.05620262 0.41393027 1.7229998
-0.042664763 0.41187906 1.723
-0.03938286 0.41023812 1.723
0.31588334 0.41598144 1.723
0.32425219 0.41286364 1.7229999
-0.06470041 0.42477229 1.7229998
-0.057667758 0.42430344 1.7229998
0.30849907 0.42336574 1.723
0.31536123 0.42455915 1.7229997
0.32228309 0.42533487 1.7229999
-0.066294476 0.43649334 1.7229999
-0.057433337 0.43649334 1.723
0.32572907 0.43731382 1.723
-0.067279048 0.44633904 1.7229999
0.31506288 0.44633907 1.723
0.32531884 0.4467493 1.7229998
0.3314724 0.44798002 1.723
-0.072201908 0.4594667 1.723
-0.066048339 0.45659503 1.7229998
-0.055792384 0.4594667 1.723
-0.049228575 0.4594667 1.723
-0.036100954 0.45837271 1.723
-0.029537143 0.4594667 1.723
0.31615683 0.45727876 1.7229999
0.32490858 0.4561848 1.7229998
0.3314724 0.45618477 1.723
-0.066458568 0.46356905 1.723
-0.05579238 0.46438956 1.7229999
-0.046493653 0.46603048 1.7229999
-0.034460001 0.46603048 1.7229999
-0.029537143 0.46603051 1.723
0.30849907 0.46603048 1.723
0.31342191 0.46603048 1.7229999
0.3314724 0.46603048 1.723
-0.047259431 0.47653261 1.7229999
-0.03651119 0.47546595 1.7229998
-0.029537143 0.47423524 1.723
0.30849907 0.47587618 1.723
0.31260145 0.47505572 1.723
-0.054698411 0.4868159 1.7229999
-0.047587622 0.48572195 1.7229999
0.30849907 0.48244002 1.723
0.31506285 0.4861908 1.7229998
-0.055382144 0.49597791 1.7229998
-0.047587622 0.49556765 1.7229999
0.31600055 0.49603647 1.7229998
0.32162669 0.49884954 1.723
-0.055136003 0.50606978 1.7229999
-0.045946669 0.50541335 1.7229998
-0.03938286 0.50869524 1.723
0.30849907 0.50869524 1.723
0.31424236 0.5045929 1.723
-0.085329525 0.51361811 1.723
-0.065638095 0.5169 1.723
-0.057105143 0.51657182 1.7229999
-0.045290288 0.51591551 1.7229999
-0.038070098 0.51460272 1.7229999
-0.029537143 0.51525909 1.723
0.30587354 0.51722825 1.7229999
0.31178096 0.51361811 1.723
-0.073842861 0.52182287 1.723
-0.054151431 0.52346385 1.723
-0.046415512 0.52604246 1.7229998
-0.037741907 0.52510482 1.7229999
-0.029537143 0.52346385 1.723
0.30193526 0.52182287 1.723
-0.054151431 0.5316686 1.723
-0.044305716 0.5316686 1.723
-0.03938286 0.5316686 1.723
-0.10227048 -0.013196191 1.7320001
-0.095012575 -0.014515812 1.7320001
-0.08742477 -0.016495239 1.7320001
0.37939048 -0.018144764 1.7320001
0.38268954 -0.013196191 1.7320001
-0.11480687 -0.0046186671 1.7320001
-0.10556953 -0.0065980954 1.7320001
-0.095672376 -0.0098971436 1.732
0.38598859 -0.0087974602 1.732
0.39506096 -0.0041238097 1.7320001
0.40578285 -0.0032990475 1.732
0.41403049 -0.0032990477 1.7320001
-0.12206477 0.0065980959 1.732
-0.11629143 0.00082476193 1.7320001
0.40798223 0.0038488891 1.7320002
0.41568002 0.0049485713 1.7320002
0.42416331 0.0065980959 1.7320002
-0.12206477 0.016495239 1.7320001
0.40908191 0.016495239 1.732
0.41567999 0.016082857 1.7320002
0.42557716 0.016495237 1.7320002
0.43217525 0.019794287 1.7320001
-0.13196191 0.02969143 1.7320001
-0.12495143 0.026804764 1.7320002
0.40908191 0.024742857 1.7320001
0.41633978 0.025732571 1.7320001
0.42557716 0.02639238 1.7320002
0.43217525 0.026392384 1.732
-0.13196191 0.036289528 1.732
-0.1253638 0.036289524 1.7320002
-0.11876572 0.032990478 1.7320001
0.40908191 0.036289528 1.7320001
0.41567999 0.036701906 1.7320002
0.42557716 0.036289528 1.7320002
0.43327495 0.034090158 1.732
-0.13328153 0.045526862 1.7320001
-0.12536381 0.046186667 1.7320002
-0.11876572 0.049485717 1.7320001
0.40619525 0.046599049 1.7320002
0.4147374 0.04571538 1.7320002
0.42722666 0.042887621 1.7320001
-0.13196191 0.056083813 1.7320001
-0.12536381 0.056083813 1.7320002
-0.11876572 0.05608381 1.732
0.40619525 0.055671431 1.7320002
0.41436037 0.05608381 1.7320001
-0.1237143 0.065980956 1.7320002
-0.11876572 0.065980956 1.732
0.39918476 0.069280006 1.7320001
0.40619525 0.066393338 1.7320002
0.41458035 0.063781589 1.732
-0.12495143 0.076290473 1.7320002
-0.11876572 0.075878106 1.732
0.39918476 0.075878099 1.7320001
0.40578288 0.075878099 1.7320002
0.41238096 0.072579049 1.7320001
-0.12371429 0.084125713 1.7320001
-0.11794095 0.086600006 1.7320001
0.39918479 0.085775234 1.732
0.40578285 0.085775249 1.7320002
0.41370058 0.085775241 1.7320001
-0.11711619 0.095672376 1.7320002
0.39918479 0.095672391 1.732
0.4063327 0.095122546 1.7320002
0.41568002 0.095672376 1.7320002
0.42227811 0.094022855 1.7320001
-0.11546667 0.10622933 1.7320001
0.39918476 0.10721906 1.7320001
0.40688255 0.10666921 1.7320002
0.41568002 0.10556953 1.7320002
0.42227808 0.10556953 1.732
-0.11546667 0.11546667 1.7320002
0.39918476 0.11876572 1.7320001
0.40578285 0.11546668 1.7320002
0.41238096 0.11216763 1.7320001
-0.11491683 0.12536381 1.7320002
0.39786515 0.12602362 1.7320001
0.40484026 0.12489253 1.7320002
-0.11348724 0.13460115 1.7320001
-0.10227048 0.13856001 1.7320001
0.39753523 0.13526095 1.7320002
0.4046832 0.13416128 1.7320002
-0.10556952 0.14598286 1.7320001
0.39629808 0.14474574 1.7320002
-0.11216763 0.15505524 1.732
-0.10556953 0.15505525 1.7320002
0.39629811 0.15505524 1.7320002
-0.11348724 0.16561219 1.7320001
-0.10886858 0.1649524 1.732
0.39753523 0.1649524 1.7320002
0.40446329 0.16561221 1.7320001
-0.11381714 0.17320001 1.7320001
-0.10886858 0.17484953 1.732
0.39786515 0.17484953 1.7320001
0.40413332 0.17484953 1.7320002
-0.1132673 0.18584637 1.732
-0.10556953 0.18474667 1.7320002
0.39682832 0.18521796 1.7320002
0.40512305 0.18342707 1.7320001
-0.12404419 0.19464383 1.7320001
-0.11348724 0.19464381 1.7320001
-0.10598192 0.19423144 1.7320002
0.37609145 0.1929943 1.7320002
0.38598859 0.19464383 1.7320002
0.39588571 0.19464381 1.7320002
-0.12536381 0.20289144 1.7320001
-0.11348724 0.20454097 1.7320001
-0.10556953 0.20454097 1.7320002
0.37939048 0.20619048 1.7320001
0.38598856 0.20454094 1.7320002
0.39258668 0.20454097 1.732
-0.11216763 0.21113905 1.7320001
-0.10392001 0.2144381 1.7320002
-0.098971434 0.2144381 1.732
0.37703401 0.21443811 1.7320002
0.38598859 0.21443811 1.7320002
0.39258668 0.21443811 1.7320001
-0.10359009 0.22433524 1.7320001
-0.098971434 0.22268572 1.7320001
0.37703401 0.22480655 1.7320002
0.38598859 0.22433525 1.7320002
0.39258668 0.22433525 1.7320001
-0.10462695 0.23470367 1.7320002
0.37609142 0.23225296 1.7320001
0.38557619 0.23464476 1.7320002
-0.11216763 0.24577907 1.7320001
-0.10556953 0.24412952 1.7320002
0.38598856 0.24412954 1.7320001
-0.11216763 0.25072762 1.7320001
-0.10515715 0.25361431 1.7320002
0.37939048 0.25732571 1.7320001
0.386401 0.25443906 1.7320002
-0.10227048 0.26392382 1.732
-0.095672384 0.26639813 1.7320001
0.36713687 0.26439512 1.7320002
0.37609145 0.26392379 1.7320002
0.38557619 0.2643362 1.7320002
0.39423621 0.26722288 1.7320001
-0.10227048 0.27382097 1.7320001
-0.095672376 0.27382097 1.7320002
-0.086874925 0.27492064 1.7320002
0.36660665 0.27340859 1.7320002
0.37609145 0.273821 1.7320002
0.38645986 0.27287838 1.7320002
0.39258668 0.27052191 1.7320001
-0.10392 0.28536764 1.7320001
-0.095672384 0.28371814 1.7320002
-0.086717829 0.28324682 1.7320002
0.3671369 0.28324679 1.7320002
0.37650385 0.28413048 1.7320002
0.38681334 0.28619242 1.7320001
-0.10359009 0.29361528 1.7320001
-0.095672384 0.29361522 1.7320002
-0.089074291 0.29361525 1.7320001
0.36784384 0.29361525 1.7320002
0.37609145 0.29361525 1.7320002
-0.10515715 0.30392477 1.7320002
-0.096222222 0.30461207 1.7320002
0.35794669 0.30681145 1.7320001
0.36660665 0.30351236 1.7320002
0.37499174 0.30241272 1.7320002
-0.10556953 0.31011048 1.732
-0.095672376 0.31340957 1.7320002
-0.085775241 0.31435212 1.7320002
-0.079177149 0.31340954 1.7320001
0.35794672 0.31340954 1.7320002
0.36525172 0.31293824 1.7320002
0.37279239 0.31011048 1.7320001
-0.095672384 0.32132727 1.7320001
-0.085775249 0.32495621 1.7320002
-0.077763267 0.32566315 1.7320002
0.35794669 0.32495618 1.7320002
0.36454475 0.32495618 1.7320002
-0.10227048 0.33815241 1.7320001
-0.095672391 0.33815241 1.7320002
-0.085303947 0.33744544 1.7320002
-0.07752762 0.33650288 1.7320002
0.35959619 0.33320382 1.7320001
0.36619428 0.33650288 1.7320002
0.37279239 0.33980191 1.7320001
-0.10227048 0.34475049 1.7320001
-0.095672376 0.34639999 1.7320002
-0.082476191 0.34310097 1.7320001
-0.079177149 0.34310097 1.7320001
0.35959619 0.34969905 1.7320001
0.3657819 0.34598765 1.7320002
-0.094572701 0.35519746 1.7320002
0.35723975 0.35676843 1.7320002
0.36421484 0.35563737 1.7320001
-0.085775249 0.36784378 1.7320002
-0.079177149 0.36784381 1.7320001
0.34639999 0.36619428 1.7320002
0.35629717 0.36619428 1.7320002
0.36289525 0.36949334 1.7320001
-0.083300956 0.37526667 1.7320001
-0.078352384 0.3769162 1.7320001
0.33897716 0.37609145 1.7320001
0.3468124 0.37609145 1.7320002
0.35629717 0.37609145 1.7320002
0.36421484 0.37675124 1.7320001
-0.083300956 0.38681334 1.7320001
-0.07752762 0.38598859 1.7320002
-0.069280006 0.38598856 1.732
0.33980191 0.38598859 1.732
0.34640002 0.38598859 1.7320002
0.35629717 0.38598859 1.7320002
0.36525172 0.38645986 1.7320002
-0.083300948 0.39506099 1.7320001
-0.075878099 0.39588574 1.7320002
-0.069280006 0.39588571 1.732
0.34640002 0.39629808 1.7320002
0.35629714 0.39588571 1.7320002
0.36454478 0.39258668 1.7320001
-0.082476191 0.40578285 1.732
-0.076820686 0.40531158 1.7320002
-0.069280006 0.40248382 1.7320001
0.33870223 0.40798223 1.732
0.3468124 0.40537053 1.7320002
0.35588479 0.40619528 1.7320002
-0.082476191 0.41568002 1.732
-0.076820679 0.41615131 1.7320002
0.32880509 0.41787937 1.732
0.3356781 0.41320571 1.7320001
0.34804952 0.41568002 1.7320002
0.35629717 0.41568005 1.7320002
0.36454478 0.41897905 1.7320001
-0.082476191 0.42227811 1.7320001
-0.075878099 0.42557716 1.7320002
-0.068455249 0.42640191 1.7320001
0.32825524 0.42475238 1.7320001
0.34804952 0.42557716 1.7320002
0.35629714 0.42557716 1.7320002
0.36289525 0.42392763 1.7320001
-0.074935511 0.43500304 1.7320002
-0.067630485 0.43877336 1.7320001
0.32908002 0.43464956 1.7320001
0.33320382 0.43877336 1.7320001
0.34804952 0.43547431 1.7320002
0.35464764 0.43877336 1.7320001
-0.074228577 0.44537148 1.7320002
0.33320382 0.44372192 1.7320001
0.34887427 0.4445467 1.7320001
-0.075878091 0.45526859 1.7320002
0.33650288 0.45691812 1.7320001
0.34969905 0.45361906 1.7320001
-0.076290473 0.46557811 1.7320002
-0.064331427 0.46846479 1.7320001
0.32495618 0.46681523 1.7320002
0.33650288 0.46434098 1.7320001
-0.075218283 0.47308344 1.7320001
-0.065980956 0.47506285 1.7320002
-0.056083813 0.47506285 1.7320002
-0.049485717 0.47341335 1.7320001
0.31670859 0.47836193 1.7320001
0.32495621 0.47506285 1.7320002
0.33402857 0.47423813 1.7320001
-0.065568574 0.48537242 1.7320002
-0.057183493 0.48386034 1.7320002
0.31670859 0.48166096 1.7320001
0.32371908 0.48454767 1.7320002
0.33320382 0.48166096 1.7320001
-0.072579049 0.4915581 1.7320001
-0.065980956 0.49485716 1.7320002
-0.05938286 0.49485716 1.7320001
0.32619333 0.49444476 1.7320002
0.34969905 0.4915581 1.7320001
-0.094022855 0.50805336 1.7320001
-0.085775234 0.50805336 1.732
-0.075328253 0.50530416 1.7320002
-0.065980963 0.5047543 1.7320002
-0.057183493 0.50585395 1.732
0.31670859 0.50805336 1.7320001
0.32519183 0.50569689 1.7320002
-0.10337016 0.51575106 1.732
-0.095260002 0.51506382 1.7320002
-0.085775241 0.51418018 1.7320002
-0.075878091 0.51423907 1.7320002
-0.065980956 0.51465142 1.7320002
-0.054764193 0.51531124 1.7320001
-0.047011428 0.51712573 1.7320001
0.31670859 0.51465148 1.732
0.32220697 0.51355177 1.7320002
-0.10227048 0.52124953 1.7320001
-0.095672391 0.52124953 1.732
-0.085775249 0.52124953 1.732
-0.075878091 0.52124953 1.732
-0.044537142 0.52454859 1.7320001
0.30681145 0.52454859 1.7320001
0.31406933 0.52322894 1.7320001
0.38633621 -0.023213334 1.7410001
0.42778859 -0.02818762 1.7410001
0.43110478 -0.02818762 1.7410001
-0.10611811 -0.014370158 1.7410001
-0.096169531 -0.018791748 1.7410001
-0.089537144 -0.019897144 1.7410001
0.38666782 -0.017244192 1.7409999
0.39330021 -0.015254477 1.7409999
0.40457526 -0.013264762 1.7410001
0.41120765 -0.013264762 1.7410001
-0.12269905 -0.0033161906 1.7410001
-0.11606666 -0.0088431751 1.7410001
-0.10777619 -0.0099485721 1.7410001
0.39545575 -0.0091195246 1.7410001
0.40457526 -0.0082904771 1.7410001
0.41452384 -0.0082904762 1.7410001
0.42399862 -0.0056848978 1.7410001
0.43442097 -0.0033161908 1.7410001
0.44105336 -0.0033161906 1.7410001
-0.1268443 0.0049742856 1.7410001
0.42778859 0.0016580953 1.7410001
0.43472245 0.0045220777 1.7409999
0.44105336 0.0066323816 1.7410001
-0.13264762 0.019897144 1.7410001
-0.12696274 0.016580952 1.7410001
0.43641067 0.015917715 1.7409999
0.44105336 0.016580954 1.7410001
-0.13430572 0.026529524 1.7410001
-0.12933144 0.023213334 1.7410001
0.43773714 0.026529526 1.7410001
0.44237986 0.02719276 1.7409999
-0.13679285 0.037307143 1.7410001
0.43663177 0.038688891 1.7410001
0.44237986 0.036478095 1.7409999
-0.13845097 0.047255717 1.7410001
0.42447239 0.047374148 1.7410001
0.43483549 0.046841189 1.7410001
0.44237986 0.045763429 1.7409999
-0.13541111 0.056375235 1.7410001
0.41452381 0.056375239 1.7410001
0.42447236 0.056375239 1.7410001
0.43442097 0.056375239 1.7410001
0.44326416 0.057480633 1.7410001
-0.13347667 0.065494768 1.7410001
-0.12933144 0.066323817 1.7410001
0.41562924 0.068534605 1.7410001
0.42447236 0.066323809 1.7410001
0.43347344 0.065850072 1.7410001
0.44436955 0.063007623 1.7410001
-0.13397411 0.076935627 1.7409999
-0.12933144 0.07295619 1.7410001
0.41651353 0.076935627 1.7409999
0.42447236 0.076272391 1.7410001
0.43276286 0.076272391 1.7410001
-0.13264762 0.082904764 1.7410001
-0.12734172 0.087547436 1.7409999
0.41784 0.086220957 1.7410001
0.42447236 0.08622095 1.7410001
0.43276286 0.08622095 1.7410001
-0.12506776 0.095695786 1.7410001
0.42695954 0.096998572 1.7410001
0.43347353 0.096643269 1.7410001
-0.1235281 0.1061181 1.7410001
-0.11938286 0.1061181 1.7410001
0.42778859 0.10611811 1.7410001
0.43347353 0.10564436 1.7410001
-0.12402554 0.1167299 1.7409999
-0.11938286 0.11275048 1.7410001
0.41651353 0.1167299 1.7409999
0.42336699 0.11496127 1.7410001
0.43110478 0.11275048 1.7410001
-0.1235281 0.1251862 1.7410001
-0.11938286 0.12767334 1.7410001
0.41493836 0.12642977 1.7410001
0.4211562 0.12435715 1.7410001
-0.12269905 0.13596381 1.7410001
-0.11855381 0.13679287 1.7410001
0.40789145 0.13928001 1.7410001
0.41493836 0.13637835 1.7410001
-0.11357953 0.14508334 1.7410001
-0.10943429 0.14757048 1.7410001
0.40623334 0.14591239 1.7410001
0.41452384 0.14591239 1.7410001
0.4211562 0.14591238 1.7410001
-0.11739314 0.15586095 1.7409999
0.40623334 0.15586096 1.7410001
0.41452381 0.15586096 1.7410001
-0.11827746 0.16580953 1.7410001
0.40457526 0.16249333 1.7410001
0.41452384 0.16580954 1.7410001
0.4211562 0.16249333 1.7410001
-0.12269905 0.17575811 1.7410001
-0.11689572 0.17658715 1.7410001
0.41452384 0.17575811 1.7410001
0.42447236 0.17575809 1.7410001
-0.12380445 0.18681209 1.7410001
-0.1167299 0.18504344 1.7409999
0.40623337 0.18902287 1.7410001
0.41452384 0.18523295 1.7410001
0.42380914 0.18371694 1.7409999
-0.12601525 0.19731334 1.7410001
-0.11855381 0.19565524 1.7410001
0.4062334 0.19565524 1.7410001
0.41120765 0.19565524 1.7410001
-0.12601526 0.20607756 1.7410001
-0.11855381 0.20560382 1.7410001
0.39794287 0.20560382 1.7410001
0.40416074 0.2051893 1.7410001
0.41120765 0.20394573 1.7410001
-0.1235281 0.21472333 1.7410001
-0.11648119 0.21596693 1.7410001
-0.10943428 0.21555239 1.7410001
0.3971138 0.21555239 1.7410001
0.40291715 0.21555239 1.7410001
-0.12269905 0.22218478 1.7410001
-0.11496127 0.22494827 1.7410001
-0.10860524 0.22550096 1.7410001
0.3966164 0.22550097 1.7409999
0.40291718 0.22550096 1.7410001
-0.12380445 0.23766033 1.7410001
-0.11606666 0.23544952 1.7410001
-0.10943429 0.23379144 1.7410001
0.39557415 0.23497581 1.7410001
0.40258551 0.2347863 1.7409999
-0.12435714 0.2453981 1.7410001
-0.11701416 0.24492438 1.7410001
0.3950412 0.24498355 1.7410001
-0.12380445 0.25313589 1.7410001
-0.11606667 0.25534669 1.7410001
-0.10943429 0.25866288 1.7410001
0.39628479 0.25534669 1.7410001
0.40125906 0.2570048 1.7410001
-0.11440857 0.2644662 1.7410001
-0.10777619 0.26529524 1.7410001
0.39528993 0.26330552 1.7409999
0.40258557 0.26595849 1.7409999
-0.11385588 0.27413842 1.7410001
-0.10706558 0.27524379 1.7410001
0.38633621 0.27856001 1.7410001
0.3966164 0.27590704 1.7409999
0.40291715 0.27192762 1.7410001
-0.11407696 0.28452915 1.7409999
-0.10744458 0.2838659 1.7409999
0.37472954 0.28187621 1.7410001
0.38633621 0.28353429 1.7410001
0.39557415 0.28471866 1.7410001
-0.11275048 0.29514095 1.7410001
-0.10860524 0.29514095 1.7410001
0.38633621 0.29514098 1.7410001
0.39407399 0.29403555 1.7410001
-0.11407696 0.30575275 1.7409999
-0.10943429 0.30177334 1.7410001
0.37804574 0.30840573 1.7410001
0.38509265 0.30550402 1.7410001
0.39367917 0.30461577 1.7410001
0.40457526 0.30177334 1.7410001
-0.11275048 0.31338 1.7410001
-0.10611811 0.3166962 1.7410001
0.37520331 0.31598562 1.7410001
0.38136193 0.31503811 1.7410001
0.39462668 0.31172192 1.7410001
-0.10517062 0.32546043 1.7410001
-0.096169531 0.32747382 1.7410001
