# .PCD v0.7 - Point Cloud Data file format
VERSION 0.7
FIELDS x y z
SIZE 4 4 4
TYPE F F F
COUNT 1 1 1
WIDTH 1495
HEIGHT 1
VIEWPOINT 0 0 0 1 0 0 0
POINTS 1495
DATA ascii
-0.15968572 0.21646287 1.863
-0.14726572 0.21468857 1.863
-0.24426001 0.22356002 1.863
-0.23420572 0.22533429 1.863
-0.22001143 0.22356002 1.863
-0.21646287 0.22356001 1.863
-0.20581715 0.22214058 1.8630002
-0.19517145 0.22001144 1.863
-0.17033143 0.22001144 1.863
-0.16323429 0.22001144 1.863
-0.15258858 0.22001144 1.863
-0.24219 0.23509286 1.863
-0.23420572 0.23420572 1.863
-0.22001144 0.23065715 1.863
-0.20581715 0.23243144 1.863
-0.24485144 0.2484 1.863
-0.23361428 0.24426001 1.863
-0.24343202 0.25478745 1.8630002
-0.23420572 0.25505358 1.863
-0.23420572 0.26614285 1.863
-0.21468857 0.26969144 1.863
-0.20936573 0.26791716 1.863
-0.233496 0.27465945 1.8630002
-0.21468857 0.27501428 1.863
-0.20936573 0.27501428 1.863
-0.23207657 0.28388572 1.8630002
-0.22001144 0.28566003 1.863
-0.21468858 0.28388572 1.863
-0.20626073 0.2843293 1.863
-0.23065715 0.29275715 1.863
-0.22400358 0.29408786 1.863
-0.20581715 0.29453143 1.863
-0.19872001 0.29630572 1.863
-0.22568914 0.30517715 1.8630002
-0.20683102 0.30517715 1.863
-0.22406696 0.31683677 1.863
-0.21468857 0.31759715 1.863
-0.20759144 0.31404859 1.863
-0.22356002 0.32469431 1.863
-0.21468857 0.32469431 1.863
-0.26259428 0.3371143 1.863
-0.22356002 0.33356571 1.863
-0.21468857 0.33001715 1.863
-0.20463429 0.3347486 1.863
-0.19339715 0.3371143 1.863
-0.23598 0.34776002 1.863
-0.22305308 0.34319755 1.863
-0.21468858 0.34421143 1.863
-0.20581715 0.34370449 1.863
-0.19398858 0.34362003 1.863
-0.23302287 0.35367429 1.863
-0.22143087 0.35485715 1.8630002
-0.21468858 0.35485718 1.863
-0.20652688 0.35698628 1.8630002
-0.19162287 0.35130858 1.863
-0.17033143 0.35840574 1.863
-0.16678286 0.35840574 1.863
-0.23420572 0.36639002 1.863
-0.2208986 0.36461574 1.863
-0.21468858 0.36550286 1.863
-0.20581715 0.36550289 1.863
-0.19517145 0.3619543 1.863
-0.18452573 0.36905146 1.863
-0.17328858 0.36609432 1.863
-0.1656 0.36550286 1.863
-0.15791143 0.36727715 1.863
-0.23302287 0.37555715 1.863
-0.22214058 0.37756801 1.8630002
-0.21468858 0.37614861 1.863
-0.20581716 0.37614858 1.863
-0.19517145 0.37614858 1.8630002
-0.18523544 0.37472916 1.8630002
-0.17388003 0.37614858 1.863
-0.16678286 0.37792286 1.863
-0.23598 0.38324574 1.863
-0.22474287 0.38442859 1.863
-0.2067043 0.38413286 1.863
-0.17388001 0.38324574 1.863
-0.16678286 0.38324574 1.863
-0.15613715 0.38502002 1.863
-0.20581715 0.39338452 1.863
-0.17269714 0.39448285 1.863
-0.16500857 0.39744002 1.863
-0.15664409 0.3949053 1.863
-0.14312571 0.39507428 1.863
-0.1383943 0.39744002 1.863
-0.21433373 0.40524688 1.8630002
-0.20632409 0.40352327 1.863
-0.18275145 0.40276289 1.863
-0.17388003 0.40335429 1.863
-0.16500857 0.40453717 1.863
-0.15512328 0.40504411 1.863
-0.14430857 0.40335432 1.863
-0.1383943 0.40098858 1.863
-0.11710286 0.40808573 1.863
-0.22426972 0.41305369 1.8630002
-0.21468857 0.4116343 1.863
-0.20493001 0.41252145 1.863
-0.19517143 0.41376343 1.8630002
-0.18503268 0.41416898 1.863
-0.17343645 0.41473928 1.863
-0.16500857 0.41518286 1.863
-0.15613715 0.41473928 1.863
-0.14504786 0.41562644 1.863
-0.1352893 0.41562644 1.863
-0.12301715 0.41636571 1.863
-0.11532858 0.41518286 1.863
-0.10645714 0.41873145 1.863
0.44357145 0.41873145 1.863
0.45244288 0.41873145 1.863
-0.23420572 0.42228001 1.863
-0.20463429 0.42819428 1.863
-0.19458 0.4270114 1.863
-0.18807429 0.42228001 1.863
-0.17388001 0.42582861 1.8630002
-0.144072 0.42511886 1.8630002
-0.13484572 0.42464569 1.863
-0.12420001 0.42582861 1.863
-0.11532858 0.42582858 1.863
-0.22001144 0.43647429 1.863
-0.21528 0.43529144 1.863
-0.20510745 0.43505487 1.8630002
-0.19588116 0.43434516 1.8630002
-0.17151429 0.43410859 1.863
-0.14194286 0.43470001 1.863
-0.13662001 0.43470001 1.863
-0.12242572 0.43292573 1.863
-0.11532858 0.43292573 1.863
-0.22178572 0.44357145 1.863
-0.21468857 0.44357145 1.863
-0.20226859 0.44002289 1.863
-0.19872001 0.44002289 1.863
-0.17151429 0.44120574 1.863
-0.16500857 0.44712001 1.863
-0.15258858 0.44712001 1.863
-0.14637858 0.4444586 1.863
-0.13271657 0.44286174 1.8630002
-0.12464358 0.444015 1.863
-0.11710286 0.44179717 1.863
-0.16500857 0.45066857 1.863
-0.15512326 0.45371023 1.863
-0.14691086 0.45279771 1.8630002
-0.13484572 0.45244288 1.863
-0.12538286 0.45421717 1.863
-0.11710286 0.45421717 1.863
-0.22533429 0.46131429 1.863
-0.14726572 0.46308857 1.863
-0.1259743 0.46131429 1.863
-0.11000572 0.46841145 1.863
-0.10290857 0.46841145 1.863
-0.099360004 0.46841145 1.863
0.43470001 0.46663716 1.863
0.44534573 0.46841145 1.863
-0.22710858 0.4755086 1.863
-0.15471771 0.476928 1.8630002
-0.11142515 0.47479892 1.8630002
-0.104328 0.47621831 1.8630002
-0.096825309 0.47601554 1.863
0.43529144 0.47669145 1.863
0.44534573 0.47196001 1.863
-0.18097715 0.48615432 1.863
-0.17565429 0.48615432 1.863
-0.15613717 0.48615429 1.863
-0.14667429 0.48378858 1.863
-0.10290857 0.48615432 1.863
-0.095811434 0.48666126 1.863
0.43470001 0.48260573 1.863
-0.18452571 0.49538055 1.8630002
-0.17458971 0.49538058 1.8630002
-0.16678286 0.49680001 1.863
-0.15377143 0.49443427 1.863
-0.14726572 0.49680001 1.863
-0.11000572 0.49680001 1.863
-0.10468285 0.49502569 1.863
-0.095811434 0.49502572 1.863
-0.18523544 0.50176799 1.8630002
-0.17033143 0.50034857 1.863
-0.14371714 0.50478435 1.863
-0.11213486 0.50531662 1.8630002
-0.10503771 0.50318748 1.8630002
-0.095811434 0.50212288 1.863
-0.078068577 0.50034857 1.863
-0.1383943 0.51099432 1.863
-0.11178 0.51276857 1.863
-0.10645714 0.51099432 1.863
-0.096994288 0.51336002 1.863
0.39957336 -0.032108571 1.8730001
0.40314096 -0.032108571 1.8730001
-0.21227333 -0.023189524 1.8730001
-0.2033543 -0.021405715 1.8730001
-0.19265144 -0.021405715 1.8730001
-0.1873 -0.021405715 1.8730001
-0.26222003 -0.010702858 1.8730001
-0.25449017 -0.011892064 1.8730001
-0.24973334 -0.014270477 1.8730001
-0.19621904 -0.016054288 1.8730001
-0.18622971 -0.014984001 1.8730001
-0.26222003 -0.0071352385 1.8730001
-0.25686857 -0.0071352385 1.8730001
-0.18194857 -0.0071352385 1.8730001
-0.17600255 -0.0047568255 1.8730001
-0.17659716 0.0035676192 1.8730001
-0.27113906 0.017838096 1.8730001
-0.17570525 0.013378572 1.8730001
-0.27113906 0.024973335 1.8730001
-0.17748906 0.025865238 1.8730001
-0.17570524 0.035676189 1.8730001
-0.17267276 0.045665525 1.8730001
-0.17600255 0.055892702 1.8730001
-0.18194859 0.064217143 1.8730001
-0.17659716 0.064217143 1.8730001
-0.27113906 0.074920006 1.8730001
-0.18194859 0.074919999 1.8730001
-0.17838097 0.074919999 1.8730001
-0.18194857 0.083839051 1.8730001
-0.17570525 0.086514771 1.8730001
-0.26757145 0.099893339 1.8730001
-0.17695391 0.09632571 1.8730001
-0.17838097 0.10524476 1.8730001
-0.27113906 0.11594763 1.8730001
-0.26667953 0.11505572 1.8730001
-0.18194859 0.11416382 1.8730001
-0.17748906 0.11416382 1.8730001
-0.27113906 0.12665048 1.8730001
-0.26281461 0.12248826 1.8730001
-0.18194859 0.12486667 1.8730001
-0.17695391 0.12486668 1.8730001
-0.27113906 0.13200191 1.8730001
-0.26400381 0.13378571 1.8730001
-0.18194857 0.13913715 1.8730001
-0.17624038 0.13628305 1.8730001
-0.26257676 0.14698592 1.8730001
-0.25330096 0.14627239 1.8730001
-0.24973334 0.14984001 1.8730001
-0.18640809 0.14716429 1.8730001
-0.17525931 0.14582644 1.8730001
-0.1676781 0.14270477 1.8730001
-0.27292287 0.15519144 1.8730001
-0.26400378 0.15519142 1.8730001
-0.25508475 0.15519142 1.8730001
-0.24973334 0.15340762 1.8730001
-0.17302954 0.15519142 1.8730001
-0.27292287 0.16232666 1.8730001
-0.26400384 0.16411048 1.8730003
-0.25686857 0.16054286 1.8730001
-0.17213762 0.16321857 1.8730001
-0.26355788 0.17436738 1.8730001
-0.25686857 0.17659715 1.8730001
-0.17302954 0.17659715 1.8730001
-0.26298448 0.18500653 1.8730001
-0.25686857 0.18551619 1.8730001
-0.17695391 0.18480267 1.8730001
0.03924381 0.18908381 1.8730001
0.042811431 0.18908381 1.8730001
0.13556953 0.18908381 1.8730001
0.27470669 0.18908381 1.8730001
-0.26222003 0.19265144 1.8730001
-0.25544152 0.19693258 1.8730001
-0.18194859 0.19621904 1.8730001
-0.17838097 0.19621904 1.8730001
-0.092758097 0.19621906 1.8730001
-0.085176907 0.19577311 1.8730001
-0.074919999 0.19740826 1.8730001
-0.065406352 0.19859748 1.8730001
-0.055298097 0.19978668 1.8730001
-0.026757143 0.19621906 1.8730001
-0.0053514289 0.19621906 1.8730001
0.0035676192 0.19621904 1.8730001
0.010702858 0.19621906 1.8730001
0.024973335 0.19621906 1.8730001
0.035676192 0.19265144 1.8730001
0.046379048 0.19265144 1.8730001
0.060649525 0.19621906 1.8730001
0.083839051 0.19978668 1.8730001
0.098109528 0.19621906 1.8730001
0.10524476 0.19621906 1.8730001
0.11773143 0.19265144 1.8730001
0.12129905 0.19621906 1.8730001
0.13556953 0.19265144 1.8730001
0.14270477 0.19621906 1.8730001
0.15519142 0.19265144 1.8730001
0.16054286 0.19265144 1.8730001
0.22119239 0.19621906 1.8730001
0.23665206 0.19502985 1.8730001
0.2425981 0.19621906 1.8730001
0.25686857 0.19978668 1.8730001
0.26222003 0.19978668 1.8730001
0.27649051 0.19621907 1.8730001
0.2818419 0.19800287 1.8730001
-0.25330096 0.2051381 1.8730001
-0.18313777 0.20454352 1.8730001
-0.17838097 0.2051381 1.8730001
-0.13378572 0.20692191 1.8730001
-0.12486666 0.20692189 1.8730001
-0.11416382 0.20692191 1.8730001
-0.10346095 0.2033543 1.8730001
-0.094541907 0.2033543 1.8730001
-0.087406673 0.2033543 1.8730001
-0.25330096 0.21048953 1.8730001
-0.18908381 0.21405715 1.8730001
-0.17243493 0.21167874 1.8730001
-0.16411048 0.21405715 1.8730001
-0.15519142 0.21762477 1.8730001
-0.14984001 0.21227333 1.8730001
-0.24973334 0.22654381 1.8730001
-0.2483063 0.23474935 1.8730001
-0.25330096 0.24973334 1.8730001
-0.24616572 0.24571976 1.8730001
-0.23665206 0.24735494 1.8730001
-0.26043621 0.25508475 1.8730001
-0.25508475 0.25508478 1.8730001
-0.24973334 0.25508475 1.8730001
-0.26355788 0.26444975 1.8730001
-0.25597668 0.26311192 1.8730001
-0.24473867 0.26329029 1.8730001
-0.23546286 0.26043621 1.8730001
-0.26400381 0.27292287 1.8730001
-0.2425981 0.27470669 1.8730001
-0.23903048 0.2782743 1.8730001
-0.2425981 0.28540954 1.8730001
-0.23813857 0.28540954 1.8730001
-0.2425981 0.29432857 1.8730001
-0.23648219 0.29662207 1.8730001
-0.22119239 0.29968002 1.8730001
-0.21584098 0.29611239 1.8730001
-0.20692191 0.29611239 1.8730001
-0.23546289 0.30503145 1.8730001
-0.22238159 0.30562603 1.8730001
-0.21584095 0.30503142 1.8730001
-0.23724666 0.31216669 1.8730001
-0.22238159 0.31276128 1.8730001
-0.21584097 0.31216669 1.8730001
-0.25686857 0.32822096 1.8730001
-0.26162541 0.33654538 1.8730001
-0.25544152 0.33606973 1.8730001
-0.24616572 0.33892381 1.8730001
-0.23597252 0.3363755 1.8730001
-0.25330096 0.34605908 1.8730001
-0.24667539 0.34605908 1.8730001
-0.23495319 0.34503976 1.8730001
-0.20692191 0.34784287 1.8730001
-0.23546287 0.35497811 1.8730001
-0.21048953 0.3531943 1.8730001
-0.20454352 0.3543835 1.8730001
-0.2425981 0.36389714 1.8730001
-0.23546286 0.36211333 1.8730001
-0.17124572 0.36746478 1.8730001
-0.2425981 0.37460002 1.8730001
-0.23903048 0.37281621 1.8730001
-0.17481333 0.37638384 1.8730001
-0.1676781 0.37281621 1.8730001
-0.2443819 0.3853029 1.8730001
-0.23546286 0.38589749 1.8730001
-0.22357081 0.38768128 1.8730001
-0.21584095 0.38708669 1.8730001
-0.2051381 0.38887048 1.8730001
-0.19577309 0.3857488 1.8730001
-0.18551619 0.38485691 1.8730001
-0.17481335 0.38581255 1.8730001
-0.1676781 0.38887048 1.8730001
-0.2425981 0.39243811 1.8730001
-0.23635475 0.39511386 1.8730001
-0.22476 0.39600572 1.8730003
-0.21507648 0.39600572 1.8730001
-0.19570939 0.39498642 1.8730001
-0.18551619 0.39645165 1.8730001
-0.17719175 0.39481652 1.8730001
-0.23308446 0.40433016 1.8730001
-0.22476001 0.40492478 1.8730001
-0.21762477 0.40314096 1.8730001
-0.19532715 0.4058167 1.8730001
-0.1864081 0.40492481 1.8730001
-0.17392144 0.4058167 1.8730001
-0.16054286 0.40492478 1.8730001
-0.23189525 0.41741145 1.8730001
-0.22476001 0.4102762 1.8730001
-0.2051381 0.4102762 1.8730001
-0.19621907 0.4102762 1.8730001
-0.18551619 0.4102762 1.8730001
-0.17659715 0.4102762 1.8730001
0.44595242 0.41562763 1.8730001
0.45308763 0.41741145 1.8730001
-0.23189525 0.42454669 1.8730001
-0.22297621 0.4281143 1.8730001
-0.18449688 0.42505631 1.8730001
-0.17838097 0.42454666 1.8730001
-0.13200191 0.4281143 1.8730001
-0.12486666 0.4281143 1.8730001
0.44595242 0.42454669 1.8730001
-0.22520597 0.43480361 1.8730001
-0.19265144 0.43881717 1.8730001
-0.18551619 0.43346572 1.8730001
-0.17748906 0.43614143 1.8730001
-0.14270477 0.43168193 1.8730001
-0.13735333 0.43168193 1.8730001
-0.22526966 0.44595239 1.8730001
-0.21316524 0.44506049 1.8730001
-0.20549488 0.44666591 1.8730001
-0.19740826 0.44476318 1.8730001
-0.18194857 0.44238478 1.8730001
-0.17600256 0.44714162 1.8730001
-0.14270477 0.44595239 1.8730001
-0.13824524 0.44684431 1.8730001
-0.22476 0.45487145 1.8730001
-0.21405715 0.45487142 1.8730001
-0.20513812 0.45487145 1.8730001
-0.17243493 0.45427683 1.8730001
-0.16411048 0.45665526 1.8730001
-0.14270477 0.45665526 1.8730001
-0.12486667 0.45665526 1.8730001
-0.22425035 0.46379048 1.8730001
-0.21405715 0.46379048 1.8730003
-0.2051381 0.46379051 1.8730001
-0.19978668 0.46022287 1.8730001
-0.17481335 0.46022287 1.8730001
-0.16268343 0.46236342 1.8730001
-0.15519142 0.46557432 1.8730001
-0.14984001 0.46379051 1.8730001
0.4281143 0.46022287 1.8730001
0.43168193 0.46735811 1.8730001
-0.22431406 0.47404739 1.8730001
-0.21405715 0.47449335 1.8730003
-0.20692191 0.47449332 1.8730001
-0.19550553 0.47663394 1.8730001
-0.18551619 0.47627714 1.8730001
-0.17552686 0.47663394 1.8730001
-0.1619699 0.47520685 1.8730001
-0.15608333 0.47360143 1.8730001
0.43524954 0.47360143 1.8730001
-0.22476 0.48519617 1.8730003
-0.21405715 0.48519623 1.8730003
-0.2051381 0.4851962 1.8730001
-0.19621904 0.48519617 1.8730003
-0.18653551 0.48468655 1.8730001
-0.17338629 0.48376918 1.8730001
-0.1658943 0.48519623 1.8730001
-0.22476001 0.49518552 1.8730001
-0.21048953 0.49589905 1.8730001
-0.20513813 0.49589905 1.8730001
-0.19621906 0.49589908 1.8730003
-0.1867054 0.49352065 1.8730001
-0.17124572 0.49411523 1.8730001
-0.1641105 0.49589905 1.8730001
-0.15697524 0.49946669 1.8730001
-0.099893339 0.49768287 1.8730001
-0.21048953 0.50303429 1.8730001
-0.2057327 0.50422353 1.8730001
-0.19550553 0.50446129 1.8730001
-0.18194857 0.50660193 1.8730001
-0.17552687 0.50517488 1.8730001
-0.16500239 0.50392622 1.8730001
-0.15459682 0.50422353 1.8730001
-0.14865081 0.50541276 1.8730001
-0.099893339 0.50481808 1.8730001
-0.19443524 0.51016957 1.8730001
-0.18462428 0.51106149 1.8730001
-0.17481335 0.51195335 1.8730001
-0.1676781 0.51195335 1.8730001
-0.14448857 0.51373714 1.8730001
-0.11773143 0.51373714 1.8730001
-0.10435285 0.51462901 1.8730001
-0.098704129 0.51135874 1.8730001
-0.10524476 0.52087241 1.8730001
-0.099893339 0.52087241 1.8730001
-0.22297621 0.56190002 1.8730001
-0.21762477 0.56190002 1.8730001
0.39812002 -0.032280002 1.8830001
-0.20444001 -0.022715556 1.883
-0.19457668 -0.024210002 1.8830001
-0.18471333 -0.023313334 1.8830001
0.40314135 -0.025824001 1.8830001
-0.18292001 -0.016140001 1.8830001
-0.17754 -0.01076 1.8830001
-0.17455113 -0.0059777782 1.883
-0.17215998 0.0035866669 1.883
-0.17395335 0.016140001 1.8830001
-0.16857333 0.01076 1.8830001
-0.17359467 0.024389336 1.8830001
-0.17215998 0.035866667 1.883
-0.16677999 0.037660003 1.8830001
-0.165704 0.044474669 1.8830001
-0.17216 0.055593334 1.8830001
-0.16767667 0.052903336 1.8830001
-0.17215998 0.064560004 1.883
-0.16857333 0.062766671 1.8830001
-0.17395334 0.075319998 1.8830003
-0.27258667 0.084286667 1.8830001
-0.17395335 0.084286667 1.8830001
-0.17395334 0.096840002 1.8830001
-0.17359467 0.10473067 1.8830001
-0.17359468 0.11477335 1.8830001
-0.27258667 0.12194667 1.8830001
-0.26900002 0.12194667 1.8830001
-0.17305666 0.12553334 1.8830001
-0.2747387 0.13701066 1.8830001
-0.26900002 0.13988 1.8830001
-0.25824001 0.13988 1.8830001
-0.17215998 0.13629334 1.883
-0.16857333 0.13988 1.8830001
-0.27438003 0.14346667 1.8830001
-0.16857333 0.14705335 1.8830001
-0.17216 0.15064001 1.8830001
-0.16857333 0.15422668 1.883
-0.27617335 0.16767666 1.8830001
-0.16767667 0.16588333 1.8830001
-0.27617335 0.17529835 1.8830003
-0.26900002 0.17933334 1.8830001
-0.17216 0.17933334 1.8830001
-0.16857333 0.17574668 1.8830001
-0.27258667 0.18292001 1.8830001
-0.26900002 0.18650667 1.8830001
-0.17216 0.18471333 1.8830001
-0.073526666 0.18650667 1.8830001
0.26900002 0.18650667 1.8830001
-0.26631004 0.19457667 1.8830001
-0.17395335 0.19368 1.8830003
-0.096840002 0.19726667 1.8830001
-0.082493335 0.19009334 1.8830001
-0.076037332 0.19152801 1.8830001
-0.064560004 0.19487555 1.883
-0.052006669 0.19726667 1.8830001
-0.044833332 0.19726667 1.8830001
-0.032280002 0.19726667 1.8830001
-0.02152 0.19726667 1.8830001
-0.014346667 0.19726665 1.883
-0.0071733338 0.19368 1.8830001
0 0.19368 1.8830001
0.025106668 0.19726667 1.8830001
0.053800002 0.19368 1.8830001
0.086080007 0.19726665 1.883
0.095046669 0.19547334 1.8830001
0.10401334 0.19368 1.8830001
0.12374 0.19368 1.8830001
0.13988 0.19368 1.8830001
0.14346667 0.19368 1.8830001
0.15064001 0.19368 1.8830001
0.16498667 0.19009334 1.8830001
0.17933334 0.19368 1.8830001
0.18292001 0.19368 1.8830001
0.19368 0.19368 1.883
0.20085335 0.19368 1.8830001
0.24748001 0.19726667 1.8830001
0.26780447 0.19248445 1.883
-0.26272333 0.20354334 1.8830001
-0.25824001 0.20623335 1.8830001
-0.17395334 0.20444001 1.8830003
-0.11118667 0.20444001 1.8830001
-0.10640445 0.20683114 1.883
-0.095046669 0.20085335 1.8830001
-0.089666672 0.20085335 1.8830001
0.07890667 0.20085335 1.8830001
-0.26182666 0.21161334 1.8830001
-0.25680533 0.21591732 1.8830001
-0.16498667 0.21376535 1.8830001
-0.15661778 0.21400446 1.883
-0.25608799 0.22667734 1.8830001
-0.25644666 0.23492669 1.8830001
-0.26326135 0.2446107 1.8830001
-0.25644666 0.24389334 1.8830003
-0.26451668 0.25375667 1.8830001
-0.25824001 0.25106668 1.8830001
-0.26900002 0.26182666 1.8830001
-0.25286001 0.26720667 1.8830001
-0.24748001 0.26900002 1.8830001
-0.26182666 0.27438003 1.8830001
-0.25555 0.27348334 1.8830001
-0.24747999 0.27617335 1.883
-0.24747999 0.29410669 1.883
-0.25106668 0.30666 1.8830001
-0.24568669 0.30486667 1.8830003
-0.26541331 0.31742001 1.8830003
-0.25465333 0.31562668 1.8830003
-0.24434169 0.31562665 1.8830003
-0.234568 0.31634402 1.8830001
-0.26541337 0.32638666 1.8830003
-0.25420499 0.32593834 1.8830003
-0.24389333 0.32638666 1.8830003
-0.23492669 0.32638669 1.8830003
-0.26362002 0.33356002 1.8830001
-0.25226223 0.33475557 1.883
-0.24568667 0.33535334 1.8830001
-0.23492667 0.33356002 1.8830001
-0.26302221 0.34671113 1.883
-0.25824001 0.34611332 1.8830001
-0.24628444 0.34551558 1.883
-0.26362002 0.35149336 1.8830001
-0.25516573 0.35610479 1.8830003
-0.24461067 0.35651466 1.8830001
-0.25362858 0.36532763 1.8830003
-0.24658334 0.36583999 1.8830001
-0.25286001 0.3748067 1.8830001
-0.24748001 0.3748067 1.8830001
-0.25465333 0.38377333 1.8830003
-0.24568668 0.38198 1.8830001
-0.25375667 0.39184332 1.8830001
-0.24532802 0.39596802 1.8830001
-0.23313335 0.39632666 1.8830001
-0.18650667 0.39274001 1.8830001
-0.24344501 0.40484503 1.8830003
-0.23492667 0.40529335 1.8830001
-0.24269779 0.41545555 1.8830003
-0.23528536 0.41533598 1.8830001
-0.24030668 0.42502001 1.8830001
-0.23672001 0.42322668 1.8830001
-0.24030668 0.43040001 1.8830001
-0.23528536 0.43470401 1.8830001
-0.23403001 0.44474667 1.8830001
-0.19152799 0.44546404 1.8830001
-0.18507202 0.44474667 1.8830001
-0.23313335 0.45550668 1.8830001
-0.21161334 0.45192 1.8830001
-0.20085335 0.45550668 1.883
-0.19419239 0.45550665 1.8830003
-0.18381667 0.45461002 1.8830001
-0.17813778 0.45789778 1.883
-0.25644666 0.46985334 1.8830001
-0.24030668 0.46806002 1.8830001
-0.23492666 0.46626672 1.8830003
-0.20085335 0.46806002 1.8830001
-0.19368002 0.46626669 1.8830003
-0.18471335 0.46626666 1.8830003
-0.17574668 0.46671504 1.8830003
-0.16677999 0.46806002 1.8830001
-0.24150223 0.47583112 1.883
-0.23492667 0.47523335 1.8830001
-0.20372267 0.47559199 1.8830001
-0.19368 0.47344002 1.883
-0.18471333 0.47344002 1.8830001
-0.17485002 0.47433668 1.8830001
-0.16737777 0.47463557 1.883
0.43398669 0.47702667 1.8830001
-0.24120334 0.48330334 1.8830001
-0.23492669 0.4842 1.8830003
-0.20444001 0.48061335 1.8830001
-0.16857333 0.48061335 1.8830001
0.43757334 0.48061335 1.8830001
-0.23672001 0.49137336 1.8830001
-0.22596002 0.49675333 1.8830001
-0.21699333 0.49675333 1.8830001
-0.22506335 0.50392669 1.8830001
-0.21579778 0.50572002 1.8830003
-0.20264667 0.50930667 1.8830001
-0.16319335 0.50930667 1.8830001
-0.15781334 0.50930667 1.8830001
-0.21280889 0.51528448 1.883
-0.20444001 0.51289338 1.883
-0.16319335 0.51289338 1.8830001
-0.15422668 0.51289338 1.883
-0.21520001 0.52006668 1.8830001
-0.10222 0.52724004 1.8830001
-0.22954668 0.56490004 1.8830001
-0.22493525 0.5733543 1.8830003
-0.21878667 0.57565999 1.8830001
-0.2235689 0.58343112 1.883
-0.21878667 0.58462667 1.8830001
-0.19120382 -0.032468572 1.8940001
-0.1875962 -0.032468572 1.8940001
-0.2056343 -0.025253335 1.8940001
-0.19300762 -0.028860953 1.8940001
-0.18579239 -0.027057145 1.8940001
0.40044573 -0.027057145 1.8940001
-0.18038096 -0.014430476 1.8940001
-0.17316572 -0.010822858 1.8940001
-0.16955811 -0.0036076191 1.8940001
-0.1686562 0.004509524 1.8940001
-0.16685238 0.013528571 1.8940001
-0.27778667 0.027057145 1.8940001
-0.16811505 0.025974859 1.8940001
-0.27778667 0.032468572 1.8940001
-0.16667201 0.035354666 1.8940001
-0.16234286 0.04689905 1.8940001
-0.16595048 0.055918097 1.8940001
-0.16715302 0.064937152 1.8940001
-0.1686562 0.075760007 1.8940001
-0.16955811 0.084779054 1.8940001
-0.27417907 0.093798101 1.8940001
-0.17316572 0.093798101 1.8940001
-0.16955811 0.090190478 1.8940001
-0.16955811 0.10822857 1.8940001
-0.16955811 0.1154438 1.8940001
-0.1686562 0.12716858 1.8940001
-0.16955811 0.13528572 1.8940001
-0.26455876 0.14189969 1.8940001
-0.16595048 0.15512763 1.8940001
-0.16595048 0.16414666 1.8940001
-0.16955811 0.17316572 1.8940001
-0.27688476 0.18489048 1.8940001
-0.1686562 0.18308666 1.8940001
-0.068544768 0.1875962 1.8940001
-0.27478036 0.19481142 1.8940001
-0.16955811 0.19481145 1.8940001
-0.068544768 0.19120382 1.8940001
-0.055918097 0.19661525 1.8940001
-0.037880003 0.19841905 1.8940001
-0.021645715 0.19481143 1.8940001
-0.012626667 0.19481143 1.8940001
-0.0036076191 0.19481143 1.8940001
0.018038096 0.19841905 1.8940001
0.027057145 0.19481143 1.8940001
0.079367623 0.19841905 1.8940001
0.10462096 0.19481143 1.8940001
0.11544381 0.19481143 1.8940001
0.12987429 0.19481143 1.8940001
0.1334819 0.19481143 1.8940001
0.14791238 0.19481143 1.8940001
0.17496952 0.19120382 1.8940001
0.18579239 0.19300762 1.8940001
0.2453181 0.19481142 1.8940001
0.25854602 0.19721651 1.8940001
0.26516002 0.19661523 1.8940001
-0.27237526 0.2056343 1.8940001
-0.26696381 0.20743811 1.8940001
-0.16955811 0.2056343 1.8940001
-0.15152 0.20924191 1.8940001
-0.14430477 0.20924191 1.8940001
-0.11544381 0.2056343 1.8940001
0.068544768 0.20202668 1.8940001
0.073956192 0.20202668 1.8940001
-0.27297652 0.21405208 1.8940001
-0.26576129 0.2152546 1.8940001
-0.15512763 0.21284953 1.8940001
-0.27417907 0.22006477 1.8940001
-0.26479927 0.22367239 1.8940001
-0.25974858 0.22367239 1.8940001
-0.27057144 0.23810287 1.8940001
-0.26516002 0.23449524 1.8940001
-0.27297655 0.24591936 1.8940001
-0.26696381 0.24171048 1.8940001
-0.27314833 0.25562558 1.8940001
-0.27417907 0.26335621 1.8940001
-0.25433713 0.27778667 1.8940001
-0.26425812 0.28590381 1.8940001
-0.25614098 0.2850019 1.8940002
-0.24892573 0.28680572 1.8940001
-0.25568998 0.29537383 1.8940001
-0.26455876 0.30544508 1.8940001
-0.25686246 0.30448306 1.8940001
-0.26516002 0.31205904 1.8940001
-0.25794476 0.31025526 1.8940001
-0.26696381 0.34633145 1.8940001
-0.26516002 0.35715431 1.8940001
-0.26516002 0.36436951 1.8940001
-0.25974858 0.36797714 1.8940001
-0.26516002 0.3751924 1.8940001
-0.25974858 0.3751924 1.8940001
-0.26335621 0.38240764 1.8940001
-0.26335621 0.3968381 1.8940001
-0.25794476 0.3968381 1.8940001
-0.26335621 0.40044573 1.8940001
-0.25568998 0.40360242 1.8940001
-0.26335621 0.41848382 1.8940001
-0.2551102 0.41539159 1.8940001
-0.24892573 0.41307241 1.8940001
-0.26455876 0.42810416 1.8940001
-0.25614092 0.42569911 1.8940002
-0.24712192 0.42569908 1.8940001
-0.26516002 0.4347181 1.8940001
-0.25614095 0.4347181 1.8940001
-0.24603963 0.43507886 1.8940001
-0.26516002 0.44373715 1.8940001
-0.25614098 0.44373715 1.8940002
-0.2453181 0.44373715 1.8940002
-0.23810287 0.44373715 1.8940001
-0.26516002 0.45456004 1.8940001
-0.25614092 0.45456001 1.8940002
-0.2453181 0.45456007 1.8940002
-0.23720096 0.45546192 1.8940001
-0.19300762 0.45816764 1.8940001
-0.1875962 0.45816764 1.8940001
-0.26479927 0.46466136 1.8940001
-0.25614092 0.4653829 1.8940002
-0.24576905 0.46493194 1.8940001
-0.23810287 0.46177524 1.8940001
-0.1875962 0.46177524 1.8940001
-0.25493839 0.47740829 1.8940001
-0.24748269 0.47548419 1.8940001
-0.25253335 0.48522478 1.8940001
-0.24772318 0.48582605 1.8940001
-0.25253335 0.49424383 1.8940001
-0.24576904 0.49469477 1.8940001
-0.23569779 0.49664891 1.8940001
-0.24459657 0.50290215 1.8940001
-0.23629905 0.50326288 1.8940001
-0.22277048 0.51318383 1.8940001
-0.21645714 0.51588953 1.8940001
-0.16414666 0.51949716 1.8940001
-0.15512763 0.51949716 1.8940001
-0.11634572 0.52581048 1.8940001
-0.23088762 0.57721907 1.8940001
-0.23088762 0.58263052 1.8940001
-0.22367239 0.5880419 1.8940001
-0.22006477 0.59525716 1.8940001
-0.20309334 -0.032640003 1.904
-0.19946668 -0.032640003 1.904
-0.20490667 -0.029013334 1.904
-0.19946668 -0.029013334 1.904
-0.18133333 -0.02176 1.904
0.39893335 -0.025386667 1.904
-0.18133333 -0.018133335 1.904
-0.17770667 -0.014506667 1.904
-0.17045334 -0.0072533335 1.904
-0.16682667 -0.00544 1.904
-0.16465066 0.0029013334 1.904
-0.16501334 0.016320001 1.904
-0.15776001 0.01088 1.904
-0.16410667 0.02448 1.904
-0.16320001 0.03626667 1.904
-0.15957335 0.03626667 1.904
-0.16320001 0.054400001 1.9039999
-0.16440889 0.065279998 1.9039999
-0.16682667 0.076160006 1.904
-0.16501334 0.08522667 1.904
-0.17045334 0.096106663 1.904
-0.16561778 0.091875553 1.9039999
-0.17045334 0.10336 1.904
-0.16320001 0.10517333 1.904
-0.16501334 0.11968 1.904
-0.16682667 0.12512 1.904
-0.16682667 0.13781334 1.904
-0.16682667 0.14506666 1.9039999
-0.16320001 0.15957335 1.904
-0.16320001 0.16501334 1.904
-0.16561778 0.17408001 1.9039999
-0.16501334 0.18586667 1.904
-0.065280005 0.18858667 1.904
-0.050773334 0.18858667 1.904
0.17408001 0.18858667 1.904
0.18133333 0.18858667 1.904
-0.27925333 0.19946668 1.904
-0.16537601 0.19656534 1.904
-0.063466668 0.19402668 1.904
-0.051982224 0.19342224 1.9039999
-0.023573333 0.19402668 1.904
-0.015413335 0.19312 1.904
-0.00544 0.19221334 1.904
0.0043520001 0.19366401 1.904
0.016320001 0.19584 1.904
0.058026668 0.19584 1.904
0.065280005 0.19825779 1.9039999
0.07543467 0.19729067 1.904
0.08522667 0.19584 1.904
0.092480004 0.19584 1.904
0.15594667 0.19221334 1.904
0.18496001 0.19221334 1.904
0.19221334 0.19221334 1.904
-0.27925333 0.20490667 1.904
-0.16501334 0.20490667 1.904
-0.15594667 0.20672001 1.904
-0.10154667 0.20672001 1.904
-0.27562666 0.21397334 1.904
-0.16501334 0.21034667 1.904
-0.15776001 0.21034667 1.904
-0.27200001 0.22485335 1.9039999
-0.26837334 0.22485334 1.904
-0.27320892 0.23573333 1.9039999
-0.28288001 0.24661334 1.904
-0.27744001 0.24298668 1.904
-0.28288001 0.25386667 1.9039999
-0.27925333 0.25386667 1.904
-0.27925333 0.26112002 1.904
-0.26656002 0.29557332 1.904
-0.2647467 0.30222225 1.9039999
-0.27200001 0.3137067 1.904
-0.27200001 0.35904002 1.904
-0.27200001 0.36629334 1.9039999
-0.27200001 0.37536001 1.904
-0.26353779 0.40860447 1.9039999
-0.26293334 0.41525334 1.904
-0.26474667 0.42432001 1.904
-0.26112002 0.47872001 1.904
-0.25749335 0.48778671 1.904
-0.25749335 0.49504 1.904
-0.26293334 0.50773335 1.904
-0.25386667 0.50501335 1.904
-0.25114664 0.51498669 1.904
-0.24540444 0.51256889 1.9039999
-0.23573335 0.51135999 1.9039999
-0.22485334 0.51861334 1.904
-0.22304001 0.52224004 1.904
-0.23573335 0.58389336 1.904
-0.22666667 0.5965867 1.904
-0.22485334 0.6020267 1.904
-0.21156192 -0.029180953 1.9150001
-0.18238096 -0.025533333 1.9150001
-0.17873333 -0.021885715 1.9150001
0.39759049 -0.029180953 1.9150001
0.40123811 -0.029180953 1.9150001
-0.17508572 -0.014590477 1.9150001
-0.16779049 -0.010942858 1.9150001
-0.16414286 -0.0054714289 1.9150001
-0.16049525 0.0036476192 1.9150001
-0.15684763 0.0072952383 1.9150001
-0.16049525 0.016414287 1.9150001
-0.15684763 0.014590477 1.9150001
-0.16049525 0.025533333 1.9150001
-0.16049525 0.032828573 1.9150001
-0.15684763 0.036476191 1.9150001
-0.16049525 0.043771431 1.9150001
-0.16049525 0.054714289 1.9150001
-0.16171113 0.065657146 1.9150001
-0.16231906 0.074776195 1.9150001
-0.16140714 0.082983337 1.9150001
-0.16341335 0.095567621 1.9150002
-0.15684763 0.09119048 1.9150001
-0.16633144 0.10578096 1.9150002
-0.16596667 0.11490001 1.9150001
-0.16414286 0.12584285 1.9150001
-0.16505477 0.1349619 1.9150001
-0.16414286 0.14590478 1.9150001
-0.16414286 0.1532 1.9150001
-0.16414286 0.17690954 1.9150001
-0.16414286 0.18602858 1.9150001
-0.021885715 0.1896762 1.9150001
-0.014590477 0.18967621 1.9150001
-0.0054714289 0.1896762 1.9150001
0.0046897964 0.18654966 1.9150001
0.1349619 0.18967621 1.9150001
0.17508572 0.18694049 1.9150001
-0.16414286 0.19332382 1.9150001
-0.062009525 0.19332382 1.9150001
-0.058361907 0.19514763 1.9150001
-0.047419049 0.19514763 1.9150001
-0.027965078 0.19453968 1.9150001
0.010942858 0.19697143 1.9150001
0.025533333 0.19453971 1.9150001
0.032828573 0.19332382 1.9150001
0.06638667 0.19478288 1.9150002
0.074776188 0.19332382 1.9150001
0.083895244 0.19332381 1.9150001
0.09119048 0.19332382 1.9150001
0.13313809 0.19332382 1.9150001
0.14590476 0.19332381 1.9150001
0.1532 0.19332382 1.9150001
0.16414288 0.19332382 1.9150001
0.24439049 0.19332382 1.9150001
-0.16049525 0.20244285 1.9150001
-0.15563175 0.20548254 1.9150001
-0.14955239 0.20791429 1.9150001
-0.2881619 0.25533333 1.9150001
-0.26992381 0.30275241 1.9150001
-0.26810002 0.4778381 1.9150001
-0.26627621 0.48513335 1.9150001
-0.26262859 0.4960762 1.9150001
-0.26262859 0.50519526 1.9150001
-0.25898096 0.50701904 1.9150001
-0.2644524 0.51431429 1.9150001
-0.25776508 0.51309842 1.9150001
-0.24256667 0.51796192 1.9150001
-0.23709525 0.51796192 1.9150001
-0.24530238 0.52252144 1.9150001
-0.22761145 0.52671623 1.9150002
-0.22615238 0.53255242 1.9150001
-0.23709525 0.58361906 1.9150001
-0.2279762 0.60550475 1.9150001
-0.17233334 -0.036666669 1.9250001
-0.17966667 -0.025666667 1.9250001
0.39600003 -0.029333334 1.9250001
-0.17416668 -0.0165 1.9250001
-0.16683334 -0.012833334 1.9250001
-0.16133334 -0.0055 1.9250001
-0.15644445 0.0036666666 1.9250001
-0.15491666 0.015583334 1.9250001
-0.15766667 0.025666669 1.9250001
-0.15583333 0.034833334 1.9250001
-0.15583333 0.044 1.9250001
-0.15546668 0.053533334 1.925
-0.14666668 0.051333334 1.9250001
-0.16133334 0.069666669 1.9250001
-0.15620001 0.065266669 1.925
-0.15583333 0.075166672 1.9250001
-0.15400001 0.08433333 1.9250001
-0.16133334 0.099000007 1.9250001
-0.15400001 0.095333338 1.9250001
-0.16133334 0.1045 1.9250001
-0.15583333 0.1045 1.9250001
-0.16133334 0.11366668 1.9250001
-0.15620001 0.11293334 1.925
-0.16133334 0.12466667 1.9250001
-0.15766667 0.12100001 1.9250001
-0.16133334 0.13566667 1.9250001
-0.15766667 0.132 1.9250001
-0.16133334 0.14483334 1.9250001
-0.15766667 0.14300001 1.9250001
-0.16225 0.15491667 1.9250001
-0.15766667 0.15216666 1.9250001
-0.16133334 0.176 1.9250001
-0.023833334 0.17966667 1.9250001
-0.16133334 0.18516667 1.9250001
-0.025666669 0.18516667 1.9250001
-0.014666666 0.18516667 1.9250001
-0.0055000004 0.18516669 1.9250001
0 0.18516667 1.9250001
0.176 0.18333334 1.9250001
-0.16133334 0.19433336 1.9250001
-0.15620001 0.19506668 1.925
-0.062333334 0.19066668 1.9250001
-0.056833334 0.19066668 1.9250001
-0.044 0.19800001 1.9250001
-0.0275 0.19066668 1.9250001
0.011 0.19433334 1.9250001
0.022 0.19433334 1.9250001
0.047666669 0.19433334 1.9250001
0.062333334 0.19066668 1.9250001
0.075166672 0.19066668 1.9250001
0.082500003 0.19066668 1.9250001
0.097166672 0.19433334 1.9250001
0.10266667 0.19433334 1.9250001
0.16866668 0.19066668 1.9250001
0.23833334 0.19616668 1.9250001
0.24566668 0.19433334 1.9250001
0.25666669 0.19800001 1.9250001
0.26033333 0.19800001 1.9250001
-0.154 0.20288889 1.9250001
-0.11366667 0.20533334 1.9250001
-0.26766667 0.495 1.9250001
-0.26766667 0.50600004 1.9250001
-0.23466668 0.52066666 1.9250001
-0.24200001 0.59400004 1.9250001
-0.23711114 0.59644443 1.9250001
-0.23344445 0.60500002 1.9250001
-0.23100001 0.61233336 1.9250001
-0.16778667 -0.03687619 1.9360001
0.39826286 -0.03687619 1.9360001
0.40195048 -0.03687619 1.9360001
-0.18069334 -0.029500954 1.9360001
-0.17608382 -0.024891431 1.9360001
-0.1733181 -0.018438095 1.9360001
-0.16594286 -0.014750476 1.9360002
-0.15856762 -0.0055314288 1.9360001
-0.15303619 0.0055314288 1.9360001
-0.1539581 0.026735239 1.9360001
-0.15303619 0.035032384 1.9360001
-0.15119238 0.044251431 1.9360002
-0.15303619 0.057158098 1.9360001
-0.15119238 0.064533338 1.9360001
-0.15211429 0.072830476 1.9360001
-0.14750476 0.081127621 1.9360001
-0.15119238 0.099565715 1.9360001
-0.14658286 0.094956197 1.9360001
-0.15119238 0.10509714 1.9360001
-0.15242159 0.1143162 1.9360002
-0.15635505 0.12611659 1.9360001
-0.15488 0.1327543 1.9360001
-0.15856762 0.15856762 1.9360001
-0.16225524 0.16594286 1.9360002
-0.15856762 0.17516191 1.9360001
-0.15764572 0.18530287 1.9360001
-0.055314288 0.18806858 1.9360002
-0.15242159 0.19544381 1.9360002
-0.033188574 0.19913143 1.9360001
0.016594287 0.19544382 1.9360001
0.022125715 0.1917562 1.9360001
0.059001908 0.19544382 1.9360001
0.070064768 0.1917562 1.9360001
0.1143162 0.19913143 1.9360001
0.16594286 0.1917562 1.9360001
0.24707049 0.1917562 1.9360001
0.25536764 0.19360001 1.9360001
0.26550862 0.19360001 1.936
0.27288383 0.1917562 1.9360001
-0.11062858 0.20466286 1.9360001
-0.12169144 0.21019429 1.9360001
-0.23785144 0.52732956 1.9360001
-0.24522668 0.53286099 1.9360001
-0.23846604 0.53224641 1.9360002
-0.24338287 0.60292572 1.9360001
-0.23969525 0.60476953 1.9360001
-0.23785144 0.61398858 1.9360001
-0.17244858 -0.033377144 1.9470001
-0.17244858 -0.02596 1.9470001
-0.16503143 -0.016688572 1.9470001
-0.15761429 -0.011125715 1.9470001
-0.15390572 -0.0055628577 1.9470001
-0.15328763 0.0012361906 1.9470001
-0.14834286 0.0074171433 1.9470001
-0.15205143 0.014834288 1.9470001
-0.14834286 0.014834288 1.9470001
-0.15205143 0.024105715 1.9470001
-0.14834286 0.02596 1.9470001
-0.15205143 0.033377144 1.9470001
-0.14834286 0.03523143 1.9470001
-0.14834286 0.044502858 1.9470001
-0.14834286 0.057482861 1.9470001
-0.14834286 0.064900003 1.9470001
-0.14834286 0.074171431 1.9470001
-0.14834286 0.10569429 1.9470001
-0.15205143 0.11867429 1.9470001
-0.14834286 0.11311144 1.9470001
-0.15205143 0.12609144 1.9470001
-0.15576001 0.13598096 1.9470001
-0.14834286 0.13350858 1.9470001
-0.15724343 0.14463428 1.9470001
-0.15576001 0.15576001 1.9470001
-0.15946858 0.16503143 1.9470001
-0.15576001 0.17430286 1.9470001
-0.15390572 0.18542857 1.9470001
0.022251429 0.18913715 1.9470001
0.063045718 0.18913715 1.9470001
0.24662003 0.18728286 1.9470001
0.25589144 0.18913715 1.9470001
0.26516289 0.18913715 1.9470001
0.2744343 0.18913715 1.9470001
-0.15205143 0.19284572 1.9470001
-0.033377144 0.19655429 1.9470001
0.014834288 0.19284572 1.9470001
0.055628572 0.1953181 1.9470001
0.066754289 0.19284572 1.9470001
0.089005716 0.19284572 1.9470001
0.092714287 0.19284572 1.9470001
0.10754857 0.19655429 1.9470001
0.11496571 0.19655429 1.9470001
0.12423715 0.19655429 1.9470001
0.15390572 0.19284572 1.9470001
0.24291144 0.19284572 1.9470001
0.25589144 0.19284572 1.9470001
-0.15205143 0.20397143 1.9470001
-0.14834286 0.20768 1.9470001
-0.11867429 0.20768 1.9470001
-0.10569429 0.20582572 1.9470001
-0.037085716 0.20026286 1.9470001
-0.14834286 0.21138857 1.9470001
-0.13350858 0.21138857 1.9470001
-0.12609144 0.21138857 1.9470001
-0.2744343 0.4969486 1.9470001
-0.23734859 0.53774285 1.9470001
-0.23734859 0.54145145 1.9470001
-0.24105716 0.61191434 1.9470001
-0.16036953 -0.033565715 1.9580001
0.39905906 -0.037295241 1.9580001
-0.1715581 -0.029836191 1.9580001
-0.16596381 -0.022377145 1.9580001
-0.1616127 -0.017404446 1.9580001
-0.15477525 -0.014918096 1.9580001
-0.14918096 -0.011188572 1.9580001
-0.14918096 -0.0055942857 1.9580001
-0.14638381 0.0046619046 1.9580001
-0.14545143 0.014918096 1.9580001
-0.14395961 0.026852572 1.9579999
-0.13799238 0.026106667 1.9580001
-0.14358667 0.035430476 1.9580001
-0.13799238 0.035430476 1.9580001
-0.14358667 0.044754285 1.9580001
-0.13799238 0.048483811 1.9580001
-0.14545143 0.05594286 1.9580001
-0.14545143 0.065266669 1.9580001
-0.14545143 0.074590474 1.9580001
-0.14793777 0.085779049 1.9580001
-0.13799238 0.095102862 1.9580001
-0.14545143 0.10442667 1.9580001
-0.14638381 0.11654762 1.9580001
-0.15291049 0.12680382 1.9580001
-0.14793777 0.12431747 1.9580001
-0.15291049 0.13799238 1.9580001
-0.14731619 0.13333048 1.9580001
-0.15291049 0.14545143 1.9580001
-0.14731619 0.14545143 1.9580001
-0.15291049 0.15477525 1.9580001
-0.14793779 0.15415366 1.9580001
-0.15440229 0.16484496 1.9579999
-0.14918096 0.16223429 1.9580001
-0.15415366 0.17404445 1.9580001
-0.14918096 0.17528762 1.9580001
0.11561524 0.17901714 1.9580001
-0.15291049 0.18274668 1.9580001
-0.14793777 0.18523304 1.9580001
0.013053333 0.1864762 1.9580001
0.059672382 0.1864762 1.9580001
0.065266669 0.1864762 1.9580001
0.073658094 0.18554381 1.9580001
0.2548508 0.18523304 1.9580001
0.26666096 0.1864762 1.9580001
0.27225524 0.1864762 1.9580001
-0.14731619 0.19393526 1.9580001
-0.037295241 0.19766477 1.9580001
0.014918096 0.19020574 1.9580001
0.027971428 0.19393525 1.9580001
0.057807621 0.19207048 1.9580001
0.06713143 0.19020572 1.9580001
0.074590474 0.19020572 1.9580001
0.096967623 0.19393525 1.9580001
0.11561524 0.19393523 1.9580001
0.12307429 0.19393525 1.9580001
0.14918096 0.19020572 1.9580001
0.24241905 0.19020572 1.9580001
-0.14731619 0.20419145 1.9580001
-0.13426286 0.20885332 1.9580001
-0.12307429 0.20885333 1.9580001
-0.11561524 0.20512381 1.9580001
-0.041024763 0.20139429 1.9580001
-0.14545143 0.21258287 1.9580001
-0.13053334 0.21258287 1.9580001
-0.27598476 0.50535047 1.9580001
-0.27598476 0.51280951 1.9580001
0.40692669 -0.04313048 1.9690001
0.41255239 -0.04313048 1.9690001
-0.16577105 -0.031503998 1.9690001
-0.16408335 -0.025315715 1.9690001
-0.15626985 -0.023753017 1.9690002
-0.15126921 -0.017502222 1.9690002
-0.14476839 -0.01425181 1.9690001
-0.13876763 -0.011251429 1.9690001
-0.14439334 -0.0056257145 1.9690001
-0.13876763 -0.0037504763 1.9690001
-0.14439334 0.0018752381 1.9690001
-0.13726743 0.0045005716 1.9690001
-0.1425181 0.015001905 1.9690002
-0.13689238 0.015001905 1.969
-0.1425181 0.022502858 1.9690001
-0.1362673 0.023753017 1.9690002
-0.13595477 0.032816667 1.9690001
-0.13651733 0.044255622 1.9690001
-0.1425181 0.054381907 1.9690001
-0.1425181 0.063758098 1.9690002
-0.1425181 0.075009525 1.9690002
-0.13876763 0.076884761 1.9690001
-0.14376827 0.085010797 1.9690002
-0.13876763 0.084385715 1.9690001
-0.14401829 0.093761906 1.9690001
-0.1362673 0.093761913 1.9690002
-0.14345571 0.10501333 1.9690001
-0.13726743 0.10576342 1.9690001
-0.1425181 0.11438952 1.9690001
-0.13689238 0.11438953 1.9690001
-0.14345571 0.12470335 1.9690001
-0.13876763 0.12376573 1.9690002
-0.14376827 0.13501714 1.9690002
-0.13876763 0.13501716 1.9690002
-0.1425181 0.14626858 1.9690001
-0.13876763 0.14439334 1.9690001
-0.14376827 0.15376952 1.9690002
-0.13876763 0.15001905 1.9690001
-0.15001905 0.16877143 1.9690001
-0.14626858 0.16502096 1.9690002
-0.14501841 0.17502223 1.9690002
-0.14401829 0.18302324 1.9690001
0.067508571 0.18377334 1.9690001
0.10876381 0.18002287 1.9690001
0.11376444 0.1850235 1.9690002
0.12001524 0.18377334 1.9690001
0.26253334 0.18752381 1.9690001
-0.1425181 0.19502477 1.9690002
-0.13876763 0.19502477 1.9690002
-0.033754285 0.19314954 1.9690001
0.056257144 0.19127429 1.9690001
0.075009525 0.19127429 1.9690001
0.093761906 0.19127429 1.9690001
0.10501333 0.19502477 1.9690001
0.12470334 0.19221191 1.9690001
0.13876763 0.19127429 1.9690001
0.1425181 0.19127429 1.9690001
0.15001905 0.19502477 1.9690001
-0.14376827 0.20502603 1.9690002
-0.13576724 0.204776 1.9690001
-0.12189049 0.20627619 1.9690001
-0.1425181 0.21190192 1.9690001
-0.13876763 0.21377715 1.9690001
-0.1275162 0.21002668 1.9690001
-0.28128573 0.49881336 1.9690001
-0.28128573 0.50443906 1.9690001
-0.28128573 0.51381522 1.9690002
-0.24753144 0.6000762 1.9690001
0.4073143 -0.052800003 1.9800001
0.41108572 -0.052800003 1.9800001
0.40448573 -0.0462 1.9800001
0.41108572 -0.049028572 1.9800001
-0.15714286 -0.031428572 1.9800001
-0.15211429 -0.025142858 1.9800001
-0.14582859 -0.023885718 1.9800001
-0.14331429 -0.018857144 1.9800001
-0.13765715 -0.005657143 1.9800001
-0.13388571 0.0037714287 1.9800001
-0.132 0.0132 1.9800001
-0.132 0.024514288 1.9800001
-0.132 0.032057144 1.9800001
-0.13954286 0.054685719 1.9800001
-0.13954286 0.064114287 1.9800001
-0.13702857 0.075428575 1.9800001
-0.13577144 0.082971431 1.9800001
-0.13388571 0.094285712 1.9800001
-0.13294286 0.10465715 1.9800001
-0.132 0.11502858 1.9800001
-0.13577144 0.12445715 1.9800001
-0.14331429 0.13954286 1.9800001
-0.13388571 0.132 1.9800001
-0.14331429 0.14331429 1.9800001
-0.13577144 0.14520001 1.9800001
-0.14331429 0.1584 1.9800001
-0.13954286 0.15651429 1.9800001
-0.14331429 0.16594286 1.9800001
-0.13954286 0.16405715 1.9800001
-0.14331429 0.17348573 1.9800001
-0.13954286 0.17725715 1.9800001
-0.13954286 0.18480001 1.9800001
-0.032685716 0.18605715 1.9800001
0.018857144 0.18857144 1.9800001
0.024514288 0.18857144 1.9800001
0.03017143 0.18857144 1.9800001
0.092399999 0.18857144 1.9800001
0.10560001 0.18228573 1.9800001
0.11691429 0.18857144 1.9800001
0.12257144 0.18857144 1.9800001
0.15085715 0.18857144 1.9800001
-0.13577144 0.19611429 1.9800001
-0.037714288 0.19234286 1.9800001
0.026400002 0.19234286 1.9800001
0.034885716 0.19422857 1.9800001
0.045257144 0.19385144 1.9800001
0.052800003 0.19422857 1.9800001
0.094285719 0.19234286 1.9800001
0.11314286 0.19234286 1.9800001
0.14708573 0.19422857 1.9800001
0.15651429 0.19234286 1.9800001
0.16594286 0.19234286 1.9800001
0.17348573 0.19234286 1.9800001
-0.132 0.20365715 1.9800001
-0.12697144 0.20491429 1.9800001
-0.2904 0.50725716 1.9800001
-0.28662857 0.50537145 1.9800001
-0.2904 0.51480001 1.9800001
-0.28662857 0.51480001 1.9800001
-0.28662857 0.52045715 1.9800001
-0.25268573 0.59965718 1.9800001
-0.24702859 0.59965718 1.9800001
0.40598857 -0.053120002 1.9920001
0.40219429 -0.045531433 1.9920001
-0.15303619 -0.032883812 1.9920001
-0.14797714 -0.032251433 1.9920001
0.40219429 -0.03794286 1.9920001
-0.14228572 -0.024662858 1.9920001
-0.14038858 -0.017074287 1.9920001
-0.13564572 -0.014228571 1.9920001
-0.13406475 -0.0063238102 1.9920001
-0.1328 0.001897143 1.9920001
-0.12900572 0.0075885719 1.9920001
-0.1328 0.01897143 1.9920001
-0.12900572 0.015177143 1.9920001
-0.12900572 0.024662858 1.9920001
-0.1328 0.03794286 1.9920001
-0.12900572 0.032251433 1.9920001
-0.1328 0.045531433 1.9920001
-0.1365943 0.055017143 1.9920001
-0.13469714 0.064502858 1.9920002
-0.13374856 0.074937142 1.9920001
-0.13406475 0.086003818 1.9920001
-0.1328 0.09296 1.9920001
-0.12900572 0.091062859 1.9920001
-0.12900572 0.10434286 1.9920001
-0.12900572 0.11003429 1.9920001
-0.1328 0.12141715 1.9920001
-0.1365943 0.1365943 1.9920001
-0.1365943 0.14038858 1.9920001
-0.1365943 0.15556572 1.9920001
-0.13532953 0.16441905 1.9920001
-0.14038858 0.17264001 1.9920001
-0.13469714 0.17833143 1.9920001
-0.1365943 0.18592 1.9920001
0.036678098 0.18844955 1.9920001
0.043001905 0.18844955 1.9920001
0.083474286 0.1897143 1.9920001
0.091062859 0.18592 1.9920001
0.10624 0.18781716 1.9920001
0.11003429 0.1897143 1.9920001
0.14608 0.1897143 1.9920001
0.15746287 0.1897143 1.9920001
0.16315429 0.1897143 1.9920001
0.17264001 0.1897143 1.9920001
-0.1365943 0.19350858 1.9920001
-0.045531433 0.19730286 1.9920001
-0.03794286 0.19730286 1.9920001
0.034148574 0.19350858 1.9920001
0.045531429 0.19730286 1.9920001
0.087268576 0.19350858 1.9920001
0.10624 0.19540572 1.9920001
0.11382857 0.19350858 1.9920001
-0.13469714 0.20109715 1.9920001
-0.043634288 0.20109715 1.9920001
0.03794286 0.20109715 1.9920001
-0.25042287 0.59949714 1.9920001
-0.24662858 0.59949714 1.9920001
0.40060005 -0.04578286 2.003
-0.15642476 -0.038152382 2.003
-0.14370732 -0.03179365 2.003
0.40060002 -0.038152382 2.003
-0.14116381 -0.026706668 2.003
-0.13544096 -0.024799049 2.003
-0.13353334 -0.017168572 2.003
-0.1297181 -0.015260953 2.003
-0.1297181 -0.0057228571 2.003
-0.1297181 0.0019076191 2.003
-0.12590286 0.015260953 2.003
-0.12590286 0.024799049 2.003
-0.12685667 0.035290953 2.003
-0.12819199 0.045782857 2.003
-0.13353334 0.055320956 2.003
-0.12844636 0.054685082 2.003
-0.12781048 0.06485904 2.003
-0.12781048 0.074397147 2.003
-0.12781048 0.083935238 2.003
-0.12542595 0.095857866 2.003
-0.12399524 0.10491905 2.003
-0.12542595 0.11493404 2.003
-0.13353334 0.12781048 2.003
-0.12781048 0.12590285 2.003
-0.13353334 0.13734858 2.003
-0.1297181 0.13353334 2.003
-0.13353334 0.14497906 2.003
-0.1297181 0.14879429 2.003
-0.13353334 0.15451714 2.003
-0.1271746 0.15515302 2.003
-0.13353334 0.16405524 2.003
-0.12590285 0.16405524 2.003
-0.13544096 0.17359334 2.003
-0.12876429 0.17550096 2.003
-0.13353334 0.18503906 2.003
-0.1297181 0.18503906 2.003
0.019076191 0.18313144 2.003
0.024799049 0.18503906 2.003
0.03179365 0.18567492 2.003
0.076304764 0.18694668 2.003
0.082027622 0.18694668 2.003
0.097288579 0.18694668 2.003
0.10301143 0.18694668 2.003
0.14688668 0.18503906 2.003
0.15388127 0.18567492 2.003
0.16405524 0.18694668 2.003
-0.13353334 0.19457716 2.003
-0.12876429 0.19457714 2.003
-0.041967619 0.19457714 2.003
0.085842863 0.19266953 2.003
0.099196196 0.19076191 2.003
0.10301143 0.19266953 2.003
0.16787048 0.19076191 2.003
-0.12590286 0.20347936 2.003
-0.11827239 0.20602286 2.003
0.39916191 -0.046057146 2.0150001
-0.15352382 -0.038380954 2.0150001
-0.14584762 -0.036461905 2.0150001
-0.13625239 -0.032623813 2.0150001
0.39916191 -0.038380954 2.0150001
-0.13049525 -0.024947621 2.0150001
-0.12665714 -0.023028573 2.0150001
-0.12665714 -0.015352382 2.0150001
-0.12665714 -0.0057571428 2.0150001
-0.12665714 0.0038380951 2.0150001
-0.12281905 0.013433334 2.0150001
-0.12281905 0.026866667 2.0150001
-0.12281904 0.034542859 2.0150001
-0.12377858 0.046057142 2.0150001
-0.11898096 0.049895238 2.0150001
-0.12409842 0.056292061 2.0150001
-0.12281904 0.065247625 2.0150001
-0.11898096 0.067166671 2.0150001
-0.12281905 0.074842855 2.0150001
-0.11898096 0.074842855 2.0150001
-0.12281904 0.084438108 2.0150001
-0.11898097 0.084438108 2.0150001
-0.11898097 0.095952384 2.0150001
-0.11898096 0.10554762 2.0150001
-0.11744572 0.11437525 2.0150001
-0.12281905 0.1247381 2.0150001
-0.11770159 0.12537777 2.0150001
-0.13049525 0.13817143 2.0150001
-0.12435429 0.13510096 2.0150001
-0.11744572 0.13356572 2.0150001
-0.13049525 0.14392857 2.0150001
-0.12665714 0.14584763 2.0150001
-0.11898096 0.14200953 2.0150001
-0.12665714 0.15544286 2.0150001
-0.11898096 0.15736191 2.0150001
-0.11898097 0.16503809 2.0150001
-0.12409842 0.17399366 2.0150001
-0.11898096 0.17463334 2.0150001
-0.1247381 0.18422858 2.0150001
-0.11898096 0.18039048 2.0150001
-0.04221905 0.18806668 2.0150001
-0.038380954 0.18806668 2.0150001
0.019190477 0.18806668 2.0150001
0.088276193 0.18806668 2.0150001
0.15736191 0.18422858 2.0150001
0.16503811 0.18422858 2.0150001
-0.12435429 0.19574288 2.0150001
-0.11706191 0.19958095 2.0150001
-0.046057146 0.19446349 2.0150001
-0.038380954 0.19190477 2.0150001
-0.12281905 0.20341906 2.0150001
-0.11514286 0.20533811 2.0150001
-0.2609905 0.60641909 2.0150001
-0.25715238 0.60641909 2.0150001
0.39767811 -0.042470478 2.0270002
-0.14478572 -0.038609527 2.0270002
-0.13706382 -0.038609527 2.0270002
0.38995621 -0.030887621 2.0270002
0.39574763 -0.036679052 2.0270002
-0.12741144 -0.027026668 2.0270002
-0.12355048 -0.01544381 2.0270002
