# .PCD v0.7 - Point Cloud Data file format
VERSION 0.7
FIELDS x y z
SIZE 4 4 4
TYPE F F F
COUNT 1 1 1
WIDTH 1475
HEIGHT 1
VIEWPOINT 0 0 0 1 0 0 0
POINTS 1475
DATA ascii
-0.034725331 0.11438934 1.5319999
-0.025155898 0.11433672 1.5330768
-0.014657144 0.11432572 1.539
-0.0062292856 0.11432572 1.539
0.0052765715 0.11403258 1.5389999
0.013191431 0.11432572 1.539
-0.064491428 0.12458571 1.5389999
-0.055963635 0.12498545 1.5389999
-0.045018371 0.12521388 1.5389998
-0.035403635 0.12482908 1.5370908
-0.024551999 0.12453486 1.5347998
-0.014657144 0.12458573 1.5389999
-0.0068399999 0.1250743 1.539
0.0058628577 0.12018857 1.539
0.011725714 0.12018858 1.539
-0.07035429 0.13484572 1.539
-0.064491428 0.13447928 1.539
-0.055697143 0.13484572 1.539
-0.045437142 0.13484572 1.5389999
-0.035177145 0.13484572 1.539
-0.02487381 0.13464239 1.5366665
-0.014657144 0.1348457 1.539
-0.0062292856 0.1344793 1.539
-0.061560001 0.14510572 1.539
-0.055697143 0.14510572 1.5389999
-0.045437146 0.1451057 1.5389998
-0.035177145 0.1451057 1.5389999
-0.024877144 0.14490238 1.5368123
-0.014657144 0.14510573 1.5389999
-0.006129351 0.14550544 1.5389999
-0.061560001 0.1539 1.539
-0.055697143 0.1539 1.539
-0.045437142 0.15477943 1.5389999
-0.035177145 0.15536572 1.539
-0.024917142 0.15536572 1.5389999
-0.014657144 0.15536574 1.539
-0.0068399999 0.15438856 1.539
0.0073285718 0.15243429 1.539
-0.044948574 0.16122858 1.539
-0.035177141 0.16196145 1.539
-0.025796574 0.16386685 1.5389999
-0.014657144 0.16122858 1.539
-0.0073285718 0.16122858 1.539
-0.025014857 0.17451772 1.5389998
-0.014657144 0.17735143 1.539
-0.024917142 0.18468003 1.5389999
-0.01423837 0.18468 1.5390002
-0.027360002 0.19249713 1.539
-0.011725714 0.19054286 1.539
-0.029314287 0.21546 1.539
-0.063312382 0.0073619047 1.5460001
-0.054478101 0.0073619052 1.5460002
-0.044171426 0.0073619052 1.5460001
-0.036809526 0.0073619052 1.5460001
-0.016196191 0.0029447621 1.5460001
-0.0051533333 0.0066257142 1.5460001
0.0044171428 0.0073619047 1.5460002
0.011779048 0.0088342857 1.5460001
-0.063312382 0.014723809 1.5460001
-0.055623278 0.014069418 1.5460002
-0.047116194 0.011779048 1.5460001
0.015312763 0.012956953 1.5460001
0.025432033 0.014456104 1.5460002
0.032392383 0.016196191 1.5460001
-0.063680477 0.026134763 1.5460002
-0.058895241 0.020613333 1.5460001
0.027484445 0.024048893 1.5460001
0.032981336 0.025913905 1.5460001
0.042208254 0.027484447 1.5460001
-0.067729525 0.033864763 1.5460001
0.026923537 0.036178503 1.5460002
0.034495782 0.035337146 1.5460002
0.042404573 0.035926096 1.5460001
0.026502857 0.04269905 1.5460001
0.033864763 0.044171434 1.5460001
0.04417143 0.041962855 1.5460001
-0.072441146 0.055950474 1.5460001
0.01472381 0.057422861 1.5460001
0.025913905 0.055950474 1.5460002
0.033864763 0.05374191 1.5460001
-0.072882861 0.065520957 1.5460001
0.01472381 0.066257142 1.5460001
0.026870953 0.065152861 1.5460002
0.032392383 0.063312382 1.5460001
-0.073946252 0.074927837 1.5460002
0.016196191 0.073619045 1.5460001
0.025766667 0.074355245 1.5460002
0.035337143 0.076563813 1.5460001
-0.073987149 0.085029997 1.5460002
0.027484447 0.084416509 1.5460001
-0.073987141 0.094600484 1.5460002
0.023558097 0.094821334 1.5460001
-0.071655877 0.10355747 1.5460001
-0.067729525 0.10601144 1.5460001
0.017668571 0.10453905 1.5460001
0.021202287 0.10365562 1.5460001
-0.072146676 0.11484572 1.5460001
-0.067729525 0.11484572 1.5460001
-0.0029447621 0.11484572 1.5460001
0 0.11631811 1.5460001
0.017668571 0.11484572 1.5460001
0.022085717 0.11484573 1.5460001
-0.07361906 0.12515239 1.5460001
-0.0029447621 0.12368 1.5460001
0.0040773628 0.12617172 1.5460001
0.014396613 0.12531598 1.5460002
0.025030477 0.12956953 1.5460001
-0.07479696 0.13487011 1.5460001
-0.064784765 0.13840382 1.5460001
-0.0029447621 0.13840382 1.5460001
0.0044171433 0.13545905 1.5460001
0.011779048 0.1325143 1.5460001
-0.070674285 0.14429334 1.5460001
-0.066257149 0.14429335 1.5460001
-0.0029447621 0.14134857 1.5460001
0.0044171433 0.14429335 1.5460001
0.012956953 0.14488229 1.5460001
-0.070674285 0.15018286 1.5460001
-0.065520957 0.15459999 1.5460002
-0.055950478 0.15901715 1.5460001
-0.045643814 0.15901715 1.5460001
-0.0039263493 0.15803556 1.5460001
0.0036243224 0.15448675 1.5460001
0.011779048 0.15312763 1.5460001
-0.061840001 0.1634343 1.5460001
-0.05487965 0.16517437 1.5460002
-0.044592112 0.16574803 1.5460002
-0.035337143 0.16667353 1.5460001
-0.020613333 0.16637905 1.5460001
-0.01472381 0.16637905 1.5460001
-0.005468844 0.16574803 1.5460002
0.0022085716 0.1626981 1.5460001
-0.053847075 0.1754237 1.5460001
-0.044171426 0.17521334 1.5460001
-0.035337146 0.17521334 1.5460001
-0.023558097 0.17374095 1.5460001
-0.01472381 0.17226858 1.5460001
-0.0058895242 0.17521334 1.5460001
0.0014723811 0.17963049 1.5460001
-0.063017905 0.18610896 1.5460001
-0.05447809 0.18552001 1.5460001
-0.04417143 0.18552001 1.5460002
-0.035337143 0.18551999 1.5460002
-0.016196191 0.18552001 1.5460001
-0.0058895242 0.18551999 1.5460002
0.0029447621 0.18551999 1.5460002
-0.063943401 0.19477497 1.5460002
-0.05447809 0.1943543 1.5460001
-0.044171426 0.1943543 1.5460002
-0.035337146 0.19435428 1.5460002
-0.022576509 0.19533587 1.5460001
-0.01556517 0.1943543 1.5460002
-0.0064784763 0.19258744 1.5460001
0.0014723811 0.19140953 1.5460001
-0.063803174 0.20417017 1.5460002
-0.05447809 0.20466094 1.546
-0.044171426 0.20466097 1.5460001
-0.035604849 0.20452709 1.5460002
-0.025030477 0.20466097 1.546
-0.017668571 0.2017162 1.5460001
-0.062821589 0.21300447 1.5460001
-0.054478094 0.21496762 1.5460001
-0.044539522 0.21533573 1.5460002
-0.035757821 0.215809 1.5460002
-0.024147049 0.21467316 1.5460002
-0.017668571 0.21496762 1.5460001
-0.052416764 0.22203505 1.5460001
-0.044171434 0.22232954 1.5460001
-0.036809526 0.22232953 1.5460001
-0.025451157 0.22464328 1.5460001
-0.017668571 0.22380191 1.5460001
-0.051042542 0.23459937 1.5460001
-0.029447621 0.23558097 1.5460001
-0.058895241 0.24441525 1.5460001
-0.035337143 0.24736001 1.5460001
-0.028269717 0.24441525 1.5460001
-0.050060954 0.25521269 1.5460001
-0.04181562 0.25560537 1.5460001
-0.036809526 0.25472191 1.5460002
-0.027091812 0.25413293 1.5460002
-0.050797146 0.26576477 1.5460001
-0.042699046 0.26208383 1.5460001
-0.036809526 0.26208383 1.5460001
-0.027975239 0.26208383 1.5460001
-0.053005718 0.2709181 1.5460001
0.02514381 -0.0029580954 1.5530001
-0.070994288 0.008874286 1.5530001
-0.068036191 0.008874286 1.5530001
-0.011832382 0.0029580954 1.5530001
-0.0073952386 0.0029580954 1.5530001
0.008874286 0.0029580954 1.5530001
0.015160238 0.0055464292 1.5530002
0.02514381 0.004437143 1.553
0.033722289 0.0053245714 1.5530001
-0.070994288 0.011832382 1.5530001
-0.068036191 0.014790476 1.5530001
0.036342315 0.014367891 1.5530002
0.042596571 0.015382094 1.5530001
-0.067296669 0.022925239 1.5530001
0.037187487 0.024509933 1.5530002
0.044371426 0.024087349 1.5530002
0.051273655 0.025636828 1.5530001
-0.070994288 0.03845524 1.5530001
0.03845524 0.035497144 1.5530001
0.046343494 0.035497144 1.5530001
0.052259684 0.036483176 1.5530001
-0.073952384 0.045850478 1.5530001
0.03845524 0.04437143 1.5530001
0.044371434 0.046146289 1.5530001
0.053837337 0.04437143 1.5530002
0.062120002 0.045850478 1.5530001
-0.075431436 0.05472476 1.5530001
0.036976192 0.054724764 1.5530001
0.044963047 0.054133147 1.5530002
0.054724757 0.054724764 1.553
0.062711619 0.055612195 1.5530001
-0.076910481 0.065078095 1.5530001
0.035497144 0.065078095 1.5530001
0.046146289 0.065669715 1.5530001
0.055316377 0.065669708 1.5530002
0.062120002 0.066557139 1.5530001
-0.076910481 0.070994288 1.5530001
0.02859492 0.074938416 1.5530001
0.03483979 0.075924449 1.5530002
0.045216598 0.074374974 1.5530002
0.055020571 0.075135626 1.553
0.062120002 0.072473332 1.5530001
-0.079868577 0.085784763 1.5530001
0.02859492 0.086770795 1.5530001
0.03549714 0.085784763 1.5530002
0.045850478 0.084305719 1.5530001
0.050287619 0.084305719 1.5530001
-0.079868577 0.094659053 1.5530001
0.028397715 0.094659053 1.5530001
0.035074558 0.093813889 1.5530002
-0.077239156 0.1055054 1.5530002
0.026891775 0.10541575 1.5530002
-0.078389533 0.11536572 1.5530001
0.028101906 0.11536571 1.5530001
-0.079868577 0.12424 1.5530001
0.017748572 0.12424 1.5530001
0.02514381 0.12423998 1.5530001
0.035004124 0.12522604 1.5530001
0.041413333 0.1271981 1.5530001
-0.079868577 0.13163525 1.5530001
0.015447832 0.13574371 1.5530002
0.023664761 0.13459334 1.5530002
0.034757622 0.13163523 1.5530001
-0.073952384 0.14494668 1.5530001
0.017009048 0.14420715 1.5530001
0.021446191 0.14420715 1.5530001
-0.07198032 0.15382095 1.5530001
-0.068036191 0.15973715 1.5530001
0.008874286 0.15973715 1.5530001
0.014790475 0.15500419 1.5530002
0.020706667 0.15382096 1.5530001
-0.065571107 0.16565333 1.5530001
0.0055464292 0.16676262 1.5530002
-0.063599043 0.17452763 1.5530001
-0.059161905 0.17452762 1.5530001
0.004437143 0.17452765 1.5530001
0.011832382 0.17304859 1.5530001
-0.070994288 0.18783906 1.5530001
-0.066064127 0.18389493 1.5530001
0.008282667 0.18399353 1.5530001
0.011832382 0.1834019 1.5530001
-0.072473332 0.1952343 1.5530001
-0.068036191 0.19375524 1.5530001
-0.011832382 0.19819239 1.5530001
-0.0051766671 0.19745287 1.5530001
0.0038032657 0.1952343 1.5530002
-0.07198032 0.20213652 1.5530001
-0.068036191 0.20558763 1.5530001
-0.032539047 0.20706667 1.5530001
-0.01429746 0.20410855 1.5530001
-0.005493606 0.2032634 1.5530002
0.00073952385 0.20336905 1.5530001
-0.070994288 0.21002477 1.5530001
-0.065669715 0.21534935 1.5530001
-0.041413333 0.21298286 1.5530001
-0.034018096 0.21298286 1.5530001
-0.014050952 0.21409217 1.5530002
-0.0059161908 0.21396892 1.5530002
0.00098603184 0.21544795 1.5530001
0.011832382 0.21446191 1.5530001
-0.062859528 0.22407572 1.5530001
-0.056203809 0.22608301 1.5530002
-0.04437143 0.22777335 1.5530001
-0.034313906 0.22599849 1.5530001
-0.013607238 0.22540686 1.5530001
-0.0049301591 0.22580127 1.5530001
0.004437143 0.22185715 1.5530001
0.011832382 0.22185715 1.5530001
-0.064092062 0.23566158 1.5530002
-0.055521172 0.23505481 1.5530001
-0.04437143 0.23516858 1.5530001
-0.03549714 0.23516858 1.5530001
-0.023395844 0.23557195 1.5530002
-0.017748572 0.23516858 1.5530001
-0.065078102 0.24552192 1.5530002
-0.054321386 0.24552192 1.5530002
-0.044371434 0.24552192 1.5530002
-0.035497144 0.24515215 1.5530002
-0.022819594 0.24552192 1.5530002
-0.017748572 0.24404287 1.5530001
-0.063106038 0.25341019 1.5530001
-0.055612195 0.2543962 1.5530002
-0.045850482 0.2543962 1.5530001
-0.032539047 0.2543962 1.5530001
-0.021446191 0.25513572 1.5530001
-0.017748572 0.25291717 1.5530001
-0.064232923 0.26580599 1.5530002
-0.056203812 0.26445374 1.5530002
-0.045110952 0.26622859 1.5530002
-0.035074554 0.26580599 1.5530002
-0.025513571 0.26548904 1.5530002
-0.065078102 0.27362379 1.5530001
-0.055316381 0.27510288 1.5530002
-0.04437143 0.27425769 1.5530002
-0.036680382 0.27451125 1.5530001
-0.028841428 0.27436334 1.5530001
-0.05324572 0.2859492 1.5530001
-0.047329526 0.2884143 1.5530001
-0.036236666 0.28471667 1.5530001
-0.028101904 0.2859492 1.5530001
-0.029580953 0.29285145 1.5530001
-0.03845524 0.38751048 1.5530001
-0.041413333 0.39638478 1.5530001
-0.03845524 0.39490575 1.5530001
0.017828573 -0.0029714287 1.5600001
0.035714921 -0.002975873 1.5623335
0.043279048 -0.002984762 1.567
0.068649523 -0.002984762 1.567
0.074619047 -0.002984762 1.567
0.085065715 -0.002984762 1.567
-0.013371428 0 1.5600001
-0.0052033337 0.00074285717 1.5617501
0.0038318366 0.0012734694 1.5640001
0.014857143 0 1.5600001
0.036930617 0.0038204084 1.5600002
0.04404445 0.0056260321 1.5646669
0.05589645 0.0059695239 1.5670002
0.065664768 0.0044771428 1.567
0.074347705 0.0048841559 1.5670002
0.082080953 0.0059695239 1.567
-0.074619047 0.01641619 1.567
0.046800002 0.014114286 1.5600001
0.054992538 0.014861587 1.5605835
0.065469213 0.014874922 1.5623336
0.074619047 0.014923809 1.5670002
0.08272054 0.015350205 1.5670002
-0.073926099 0.025931429 1.5649002
0.047542859 0.025257144 1.5600001
0.055771429 0.025142858 1.5600001
0.065371431 0.025257142 1.5600001
0.07453794 0.025341587 1.56525
0.085065715 0.025370477 1.5669999
0.095213905 0.026265904 1.5670002
0.10148191 0.026862858 1.567
-0.080588572 0.038801905 1.567
-0.074870482 0.035384052 1.5643752
0.047542859 0.032685716 1.5600001
0.055796828 0.035326984 1.5600002
0.065371431 0.035657145 1.5600002
0.074512385 0.035763815 1.5646669
0.085065715 0.035817143 1.567
0.095139287 0.035444047 1.5670002
0.10148191 0.03283238 1.567
-0.081334762 0.04551762 1.567
-0.076514296 0.043828573 1.5600001
0.059428573 0.044571429 1.5600001
0.06622041 0.044146944 1.5600002
0.074362755 0.04461439 1.5615557
0.085002385 0.044735875 1.5658334
0.095139287 0.045144524 1.5670002
-0.09252762 0.05969524 1.567
-0.083473943 0.056096278 1.565091
-0.077257149 0.053485718 1.5600001
0.038628574 0.05794286 1.5600001
0.0416 0.05794286 1.5600001
0.067069389 0.054334696 1.5600002
0.074456818 0.055096984 1.5635
0.085040718 0.055203099 1.5665624
0.094915435 0.055815049 1.5670002
0.10148191 0.056710478 1.567
-0.092389844 0.065562546 1.5646667
-0.084882379 0.065518104 1.5635
0.038628574 0.066857144 1.5600001
0.042342857 0.064628571 1.5600001
0.052000001 0.062400002 1.5600001
0.066351838 0.065072656 1.5630001
0.074619047 0.065664761 1.5670002
0.085065715 0.065664768 1.567
0.095014922 0.065167308 1.567
-0.092389844 0.074512385 1.5646667
-0.084849052 0.07442572 1.5629168
0.038628574 0.072800003 1.5600001
0.0416 0.072800003 1.5600001
0.06626422 0.074755922 1.5610001
0.074547939 0.074543498 1.5654446
0.084658705 0.074619047 1.5670002
0.09252762 0.071634285 1.567
-0.09252762 0.084568255 1.567
-0.085867114 0.084487475 1.5626924
0.043828573 0.084685713 1.5600002
0.055376623 0.085901305 1.5600002
0.065396987 0.084719054 1.5605835
0.074511275 0.084941268 1.5646667
0.083573334 0.084852517 1.5670002
-0.09252762 0.098497145 1.567
-0.086346239 0.095272385 1.5631113
0.037142858 0.098057143 1.5600001
0.044571429 0.095085718 1.5600002
0.054993648 0.095122389 1.5605835
0.065569952 0.095373124 1.5646669
0.074619047 0.095512383 1.5670002
-0.09252762 0.10446667 1.567
-0.085714288 0.10560001 1.5600001
0.035657145 0.10548573 1.5600001
0.044589207 0.10552572 1.5605835
0.05474095 0.1053157 1.5618666
0.065338291 0.10501429 1.5663002
0.074619047 0.10446667 1.5670002
0.080588572 0.10446667 1.567
-0.09252762 0.11491334 1.567
-0.086260319 0.11600276 1.5615557
0.035657149 0.11588572 1.5600002
0.044642542 0.11605905 1.5623336
0.055562492 0.11594653 1.567
0.065936111 0.11532035 1.5670002
0.074619047 0.11491334 1.567
0.082080953 0.11491334 1.5670002
-0.09252762 0.12237524 1.567
-0.086044997 0.12515001 1.5643752
0.036647622 0.12281904 1.5600001
0.044996191 0.12456857 1.5617502
0.055218097 0.12536001 1.567
0.065664768 0.12536001 1.5670002
0.074619047 0.12536001 1.5670002
0.082379431 0.12416611 1.567
-0.084880717 0.13438572 1.5635002
-0.077257149 0.13965715 1.5600001
0.02897143 0.13742858 1.5600001
0.036048576 0.1367624 1.5608752
0.044377662 0.13501421 1.5625457
0.055218097 0.13431428 1.567
0.064811982 0.1338879 1.5670002
0.076111428 0.13132952 1.567
0.080588572 0.13132952 1.567
-0.082940385 0.14439581 1.5663002
-0.077257149 0.14560001 1.5600001
0.027114289 0.14597145 1.5600002
0.035657149 0.14560002 1.5600002
0.044932574 0.14519905 1.5621002
0.055218097 0.14476095 1.5669999
0.062680006 0.14028381 1.567
-0.08272054 0.15563402 1.5670002
-0.076207243 0.15538858 1.5628
0.026148576 0.15451428 1.5600002
0.03571048 0.15474984 1.5623336
0.044618838 0.15466987 1.5615557
0.055180322 0.15509318 1.5658334
-0.084170289 0.16386344 1.5670002
-0.074078612 0.16464363 1.5612729
-0.068342857 0.16937144 1.5600001
0.015154285 0.16580571 1.5600002
0.024985779 0.16476558 1.5613999
0.035797883 0.1640819 1.5662224
0.044374999 0.16369882 1.5661252
0.052730795 0.16316698 1.567
-0.093522541 0.17361365 1.567
-0.084767237 0.17490704 1.5669999
-0.074686863 0.17495336 1.5621002
-0.068342857 0.17531429 1.5600001
0.015706122 0.1757388 1.5600002
0.025650259 0.17515871 1.5626924
0.035817143 0.17460857 1.567
0.043492246 0.17354259 1.5670002
-0.093721524 0.1856522 1.567
-0.085065715 0.18505524 1.567
-0.074700482 0.1839588 1.5608752
-0.068342857 0.18125714 1.5600001
0.016342858 0.18422858 1.5600001
0.025279365 0.18436526 1.5611668
0.035817143 0.18505524 1.5670002
0.044273969 0.18455778 1.567
-0.09252762 0.19102477 1.567
-0.083540611 0.19447342 1.5663638
-0.076662868 0.19373715 1.5600001
0.0079238098 0.19809525 1.5600001
0.014857143 0.19462858 1.5600001
0.02533631 0.19523442 1.5648124
0.035817143 0.19550191 1.567
0.044771429 0.19550191 1.567
0.050740954 0.19699429 1.567
-0.081334762 0.20594858 1.567
-0.075276203 0.20601904 1.5600001
-0.011885715 0.208 1.5600001
-0.0074285716 0.208 1.5600001
0.006314286 0.20539999 1.5600002
0.014874922 0.2052345 1.5615557
0.025234805 0.20567723 1.5670002
0.034324761 0.20296381 1.567
0.043279048 0.20296381 1.567
-0.081334762 0.21415667 1.567
-0.074355051 0.21562192 1.5614002
-0.068342857 0.2184 1.5600001
-0.011885715 0.21394287 1.5600001
-0.0059428574 0.2169143 1.5600001
0.0065371431 0.21483429 1.5600002
0.016352858 0.21554692 1.5608752
0.025370477 0.21490286 1.567
0.03283238 0.21639524 1.567
-0.080588572 0.22087239 1.567
-0.074821524 0.22594097 1.5649002
-0.067154288 0.22642286 1.5600001
-0.011885715 0.22285715 1.5600001
-0.0064380951 0.22533333 1.5600001
0.0044571431 0.22731431 1.5600002
0.015228571 0.22620001 1.5600002
0.023878096 0.22467117 1.5670002
-0.073629119 0.23491839 1.5640001
-0.068342857 0.23474286 1.5600001
-0.013371429 0.23474288 1.5600001
-0.0059428569 0.23474285 1.5600002
0.0044571436 0.23474286 1.5600001
0.01490455 0.23544805 1.5646669
0.020893333 0.2357962 1.567
-0.072966665 0.24420381 1.5635
-0.013866668 0.24563813 1.5600002
-0.0059428574 0.24514283 1.5600001
0.0041653342 0.24499236 1.5609334
0.014923809 0.24475047 1.5670002
0.021639524 0.24549668 1.567
-0.073126666 0.25519717 1.5670002
-0.066361912 0.2560381 1.5600001
-0.014008164 0.25596735 1.5600002
-0.0059428574 0.25554287 1.5600002
0.0048123077 0.25543648 1.5621539
0.014914921 0.25500715 1.5658334
0.024730885 0.25477076 1.567
-0.073126666 0.26564381 1.567
-0.06656 0.26445717 1.5600001
-0.059428573 0.26445717 1.5600001
-0.0208 0.26445717 1.5600001
-0.014857143 0.26445717 1.5600002
-0.0059428578 0.26445717 1.5600002
0.00446381 0.26465607 1.5611668
0.014923809 0.26564381 1.5670002
0.022385715 0.26564381 1.567
-0.074125953 0.273765 1.5643752
-0.065371431 0.27931431 1.5600001
-0.050514288 0.27931431 1.5600001
-0.044571429 0.27931431 1.5600001
-0.033874288 0.27574858 1.5600001
-0.023177143 0.27545145 1.5600002
-0.014857143 0.27485716 1.5600001
-0.0059428574 0.27485716 1.5600001
0.0044738096 0.27408925 1.5640835
0.014923809 0.27459809 1.5670002
-0.072380476 0.28280619 1.567
-0.06550476 0.28582603 1.5631113
-0.055342857 0.28525713 1.5600002
-0.044200003 0.2848857 1.5600002
-0.035062857 0.28466287 1.5600001
-0.02334694 0.28440815 1.5600002
-0.014857143 0.28525713 1.5600002
-0.0059458208 0.28554308 1.5615557
0.003527446 0.28355238 1.5670002
0.01492381 0.28269961 1.5670002
-0.065633655 0.29534626 1.5662224
-0.05559238 0.29489905 1.5607002
-0.044199999 0.29454285 1.5600002
-0.035657145 0.29417145 1.5600002
-0.024365716 0.29446855 1.5600002
-0.014857143 0.29417145 1.5600002
-0.0059561906 0.29490182 1.563889
0.0011939048 0.2960884 1.567
-0.063873909 0.30384877 1.567
-0.054785494 0.30438083 1.5643077
-0.044905905 0.30395338 1.5614002
-0.035725296 0.30369318 1.5631113
-0.025257142 0.30457142 1.5599999
-0.015159619 0.30381736 1.5607002
-0.0059621166 0.30414647 1.5654446
0.0011939048 0.30384877 1.567
-0.062680006 0.31041524 1.567
-0.054873701 0.31477758 1.567
-0.044500086 0.31529939 1.5670002
-0.035817143 0.31489238 1.567
-0.025257142 0.31497145 1.5600001
-0.014630651 0.31491396 1.565091
-0.0059639686 0.31465685 1.5658334
0.0018654763 0.31563857 1.5670002
-0.063674927 0.32732889 1.567
-0.055218097 0.32533905 1.567
-0.04475069 0.32517612 1.5662224
-0.03574159 0.3246946 1.563889
-0.025257142 0.32537141 1.5599999
-0.014871587 0.32573363 1.5617501
-0.0059595238 0.32633922 1.5646667
0 0.3290762 1.5635
-0.065291673 0.33466643 1.5670002
-0.054811083 0.33429334 1.5670002
-0.044396952 0.33428764 1.5642002
-0.036032952 0.33413962 1.5635002
-0.025802752 0.33545056 1.5631113
-0.014890477 0.33503905 1.5635
-0.0059584132 0.33528793 1.5646667
0.0037309525 0.33392024 1.5670002
-0.062680006 0.34026286 1.567
-0.053725712 0.34414306 1.5670002
-0.045042772 0.34514701 1.5670002
-0.0355458 0.34514701 1.5670002
-0.025072001 0.34503847 1.5669999
-0.01492381 0.34474 1.567
-0.0059695239 0.34474 1.567
0.0038375512 0.34495315 1.567
0.011939048 0.34623238 1.567
-0.062680006 0.35518667 1.567
-0.055218093 0.3548882 1.5670002
-0.04551762 0.35667905 1.567
-0.035817143 0.35518667 1.5670002
-0.025340477 0.35478666 1.56525
-0.015776599 0.35476026 1.5670002
-0.0059695239 0.35433388 1.5670002
0.0044771428 0.35518667 1.567
0.013431429 0.35220191 1.567
-0.053228255 0.3636435 1.567
-0.04626381 0.36414096 1.567
-0.035444047 0.36376786 1.5670002
-0.025778776 0.36475751 1.566
-0.01641619 0.36414096 1.567
-0.0059695239 0.36712572 1.567
0.0035817144 0.36593181 1.567
-0.063426197 0.3768262 1.567
-0.055485465 0.37466207 1.5660666
-0.045368381 0.37428916 1.5670002
-0.03701105 0.37190133 1.567
-0.024906939 0.37462908 1.5645
-0.015195152 0.37499464 1.5670002
-0.0059695239 0.37458763 1.567
0.0023878096 0.37428916 1.5670002
-0.063873909 0.38443735 1.567
-0.054767031 0.38469866 1.5637692
-0.044636983 0.38537002 1.5623335
-0.036168572 0.38519073 1.5661252
-0.025359364 0.38489094 1.5664167
-0.01442635 0.38553175 1.567
-0.007461905 0.38503429 1.567
-0.062680006 0.39100382 1.567
-0.054519139 0.39464262 1.5663638
-0.044996191 0.39527357 1.5617502
-0.034266431 0.39481261 1.5643752
-0.025354642 0.39525765 1.5661249
-0.052233335 0.40592763 1.567
-0.044664759 0.40492168 1.5631113
-0.035345718 0.40517074 1.5626252
-0.025328256 0.40532541 1.5646667
-0.052872926 0.4153083 1.5670002
-0.044771429 0.41488191 1.5670002
-0.036669932 0.4144555 1.5670002
-0.026489763 0.41376263 1.5670002
-0.051735874 0.42184636 1.567
-0.044771429 0.42234382 1.567
-0.0059695239 0.42980573 1.567
-0.043577526 0.43577522 1.567
-0.03701105 0.43577522 1.567
-0.035070952 0.44472954 1.567
-0.02984762 0.44472954 1.567
-0.023878096 0.46860763 1.567
-0.023878096 0.47457716 1.5670002
-0.017908571 0.47457716 1.567
-0.023878096 0.48054668 1.567
-0.024475049 0.53486931 1.567
-0.020893333 0.5402419 1.567
-0.0059961905 -0.0029980952 1.5740001
0.004497143 -0.0029980952 1.5740001
0.064459048 -0.0029980952 1.5740001
0.080948576 -0.0029980952 1.5740001
0.046970159 0.00099936512 1.574
0.053965718 0.0011992381 1.5740001
0.077950478 0 1.5740001
0.084374972 0.0034263947 1.5740002
-0.080948576 0.017988572 1.5740001
0.088443816 0.014990477 1.5740001
0.095939048 0.016489526 1.5740002
0.10293462 0.016989207 1.574
-0.082947306 0.025317248 1.5740002
-0.077950478 0.022485714 1.5740001
0.097438097 0.020986667 1.5740001
0.10568286 0.025483808 1.5740002
0.11092953 0.029980954 1.5740001
-0.083446987 0.035477459 1.5740002
0.098937146 0.038975239 1.5740001
0.10293462 0.035977144 1.574
-0.086345151 0.045571052 1.5740001
0.098937146 0.041973334 1.5740001
0.10393398 0.045471113 1.5740002
-0.09473981 0.053965718 1.5740001
-0.088743612 0.053366095 1.5740001
0.098937146 0.052466668 1.5740001
0.10455858 0.056589052 1.5740002
0.11092953 0.056963813 1.5740001
0.096938409 0.066957466 1.574
0.10455858 0.065958098 1.5740002
0.089942858 0.074952386 1.5740001
0.096313804 0.075327143 1.5740002
0.10493334 0.071954288 1.5740001
0.086611643 0.085612267 1.5740002
0.092940956 0.082447618 1.5740001
-0.092940956 0.094439998 1.5740001
0.082447618 0.095939048 1.5740002
0.083446987 0.10443366 1.5740002
0.087944128 0.11642604 1.5740002
-0.092940956 0.12741905 1.5740001
-0.089942858 0.12592 1.5740001
0.086944766 0.12691936 1.5740002
-0.089942858 0.13491429 1.5740001
0.068956196 0.13641334 1.5740001
0.07452409 0.1357709 1.5740002
0.085612282 0.13491429 1.5740002
-0.088943489 0.14590731 1.5740002
0.066230647 0.14581646 1.5740002
0.083946668 0.14091048 1.5740001
-0.092940956 0.15889905 1.5740001
-0.088743627 0.15530133 1.5740001
0.065101497 0.15547265 1.5740002
-0.093940318 0.16589461 1.574
-0.089942858 0.16639429 1.5740001
0.047969524 0.16789334 1.5740001
0.057963178 0.16589461 1.5740002
0.064459048 0.16339621 1.5740001
-0.089942858 0.17089143 1.5740001
0.046770286 0.17688763 1.5740001
0.055464771 0.1753886 1.574
0.067082383 0.17576334 1.5740002
0.045970794 0.18688129 1.574
0.055464771 0.1858819 1.5740002
0.064459048 0.18438286 1.5740001
-0.092940956 0.19637525 1.5740001
-0.088943504 0.19687493 1.574
0.054394014 0.19359128 1.5740002
-0.092940956 0.20237145 1.5740001
-0.087319531 0.20462003 1.5740002
0.026982859 0.20986667 1.5740001
0.036405444 0.20772517 1.5740002
0.044971433 0.20736827 1.5740002
0.050967623 0.20237145 1.5740001
-0.083946668 0.21736191 1.5740001
0.035977144 0.21466362 1.5740001
-0.08274743 0.22545679 1.5740001
0.028981589 0.22585653 1.574
0.035120547 0.22528546 1.5740002
-0.081947945 0.23435111 1.5740002
-0.077950478 0.23834857 1.5740001
0.026554558 0.23427974 1.5740002
0.034478098 0.23085335 1.5740001
-0.077950478 0.24584381 1.574
0.026982859 0.24634349 1.5740002
0.035977144 0.24884191 1.5740001
-0.077950478 0.25184 1.5740001
0.029980954 0.25783619 1.5740001
0.036351904 0.25521287 1.5740002
0.041973334 0.25633717 1.5740001
-0.080948576 0.26982859 1.5740001
-0.077950478 0.26683047 1.574
0.028182099 0.26503164 1.5740001
0.035977144 0.26083431 1.574
0.041973334 0.26083431 1.5740001
-0.080948576 0.27282667 1.5740001
-0.077950478 0.27882287 1.5740001
0.023128163 0.27625307 1.5740002
-0.076751247 0.28541869 1.5740001
0.0074952384 0.28781715 1.5740001
0.014990477 0.28781715 1.5740001
0.025483809 0.2848191 1.5740002
0.035227619 0.28556859 1.5740001
-0.073667482 0.29381338 1.5740002
0.0065958099 0.29471272 1.5740002
0.014990478 0.29531237 1.5740002
0.025483811 0.2953124 1.574
0.034263946 0.29466993 1.5740002
-0.071954288 0.30280763 1.5740001
-0.068206668 0.30655524 1.5740001
0.0068527893 0.30623403 1.5740002
0.014390858 0.30400687 1.5740001
0.023984762 0.30452082 1.5740002
-0.066332862 0.31517479 1.5740002
-0.059961908 0.31779811 1.5740001
0.0069955555 0.31380066 1.5740002
0.011992381 0.31480002 1.5740001
-0.072553903 0.32499355 1.5740001
-0.066624336 0.32412747 1.5740002
-0.059961908 0.32079619 1.5740001
0.0046334197 0.32542965 1.5740002
0.011992381 0.32379431 1.5740001
-0.073453337 0.33578667 1.5740002
-0.068956196 0.33278859 1.5740001
-0.059961908 0.33578667 1.5740001
0.0079949209 0.33778539 1.574
0.012741905 0.33503717 1.5740001
-0.073153526 0.34418136 1.5740001
-0.066332862 0.34515572 1.5740002
-0.057563432 0.34657982 1.5740001
0.0089942859 0.34478098 1.5740001
0.014490794 0.34478095 1.5740002
-0.072703809 0.35377526 1.5740001
-0.066230655 0.35513803 1.5740002
-0.056963813 0.35577402 1.574
-0.044371814 0.35557413 1.5740001
-0.011992381 0.35827237 1.5740001
-0.0059961905 0.35977143 1.5740001
0.016489524 0.35077715 1.5740001
-0.071954288 0.36576763 1.574
-0.065958105 0.36576766 1.5740002
-0.057463493 0.36626732 1.5740002
-0.041973334 0.36576763 1.574
-0.038975239 0.36876574 1.5740001
-0.011992381 0.36576763 1.574
-0.0059961905 0.36426857 1.5740002
0.0029980952 0.36576763 1.574
0.011992381 0.36876574 1.5740001
-0.071954288 0.37476194 1.574
-0.066814698 0.37433362 1.5740002
-0.050967623 0.37176383 1.5740001
-0.041973334 0.37476191 1.5740001
-0.034478098 0.37626097 1.5740001
-0.011992381 0.37176383 1.5740001
0.0079949209 0.37376258 1.574
-0.071954288 0.38525525 1.5740001
-0.068356574 0.38615465 1.5740001
-0.041973334 0.38075811 1.5740001
-0.035227619 0.38150764 1.5740001
-0.015989842 0.38575491 1.574
-0.0029980952 0.38675427 1.574
0.00074952381 0.38600475 1.5740001
-0.06595809 0.39524889 1.5740002
-0.058462858 0.39874667 1.5740001
-0.013991111 0.39574859 1.574
-0.0074952384 0.3927505 1.5740001
-0.062959999 0.40324384 1.5740001
-0.058462858 0.40474287 1.5740002
-0.015418775 0.4055995 1.5740002
-0.0074952384 0.40474287 1.5740001
-0.062959999 0.41973335 1.5740001
-0.058462862 0.41473651 1.5740002
-0.032979049 0.41823429 1.5740001
-0.023235239 0.41898382 1.5740001
-0.014990478 0.4152362 1.5740002
-0.0079949209 0.4162356 1.5740002
-0.062959999 0.42423049 1.5740001
-0.05663069 0.42639577 1.5740002
-0.044971433 0.42872763 1.574
-0.036351901 0.42535475 1.5740002
-0.029231429 0.42498001 1.5740001
-0.013491428 0.42497998 1.5740001
-0.0071954289 0.42512989 1.5740001
-0.062959999 0.43772191 1.5740001
-0.055464771 0.43472382 1.5740002
-0.045471106 0.43422416 1.5740002
-0.035477459 0.43422413 1.5740002
-0.026982859 0.4327251 1.574
-0.013991111 0.43372449 1.5740002
-0.0055678911 0.43472385 1.5740002
0 0.43772191 1.5740001
-0.062959999 0.44221908 1.5740001
-0.054965083 0.4427188 1.5740002
-0.044971425 0.44571686 1.5740002
-0.035977144 0.44571686 1.5740002
-0.025109049 0.44596672 1.5740002
-0.014990476 0.44371811 1.574
-0.0059961905 0.445517 1.5740002
0.00074952381 0.44371814 1.5740001
-0.035977144 0.45346192 1.5740001
-0.026083428 0.45631009 1.5740002
-0.0039974605 0.45670986 1.574
0 0.45271239 1.5740001
-0.053965718 0.46770287 1.5740001
-0.025483811 0.46470478 1.5740002
-0.015989842 0.46570411 1.5740002
-0.0053965715 0.46650362 1.5740001
0 0.46770287 1.5740001
-0.054340478 0.47294953 1.5740002
-0.044971433 0.47669718 1.5740002
-0.035377525 0.47849602 1.5740001
-0.029980954 0.47519812 1.5740001
-0.014657355 0.47403219 1.5740002
-0.0064244899 0.47284248 1.5740002
-0.043772191 0.48509184 1.5740001
-0.035977144 0.4841924 1.5740002
-0.026982859 0.48369274 1.574
-0.029980954 0.53815812 1.5740001
-0.016489524 0.53665906 1.5740001
-0.0045247623 -0.004532381 1.585
0 -0.0060533336 1.5890001
0.087331429 0.0060228575 1.5810001
0.094784766 0.0070571434 1.5881112
0.10517666 0.0083233342 1.5890001
0.11425667 0.0083233342 1.5890001
0.12409333 0.0090800002 1.5890001
0.094860002 0.012045715 1.5810001
0.10649524 0.014063492 1.5823336
0.11475767 0.015094393 1.5854445
0.12402562 0.015123175 1.5881112
0.13403811 0.016862858 1.589
0.14679334 0.016646668 1.5890001
0.15436001 0.01816 1.5890001
0.16041334 0.01816 1.5890001
-0.090342857 0.027102858 1.5810001
-0.087331429 0.027102858 1.5810001
0.10841143 0.02108 1.5810001
0.11456636 0.024120212 1.5827779
0.1239562 0.024189629 1.5872222
0.13468666 0.024213335 1.5890001
0.14511916 0.024184551 1.5872222
0.15209 0.024970001 1.5890001
-0.094052576 0.034972191 1.5826002
-0.087331437 0.034129526 1.581
0.10720686 0.036739431 1.5810001
0.11513057 0.035176452 1.5868183
0.12409335 0.034806669 1.5890001
0.13468666 0.034806672 1.5890002
0.14497395 0.034734286 1.5856668
0.15335113 0.035311114 1.589
-0.093561091 0.044404626 1.5844287
-0.087331429 0.042160001 1.5810001
0.10740762 0.044167623 1.581
0.11488804 0.045347508 1.5872222
0.12409335 0.045399997 1.589
0.13408133 0.044794668 1.589
0.14667143 0.045361906 1.5876666
0.15398167 0.04577833 1.589
-0.09636572 0.051194288 1.5810001
0.10740762 0.052198097 1.581
0.11503358 0.053932149 1.5840001
0.12402562 0.05445122 1.5881112
0.13216446 0.053975563 1.5890001
0.14654699 0.054388572 1.5863334
0.15436 0.054480009 1.589
0.16041334 0.051453337 1.5890001
0.10841143 0.066251434 1.5810001
0.11443429 0.064745717 1.5810002
0.12409333 0.065073341 1.5890001
0.13166 0.065073341 1.589
0.14709601 0.062954672 1.5890001
0.15314934 0.062349338 1.5890001
0.10540001 0.075662144 1.5810002
0.11449863 0.075329743 1.5818892
0.1239562 0.075582013 1.5872222
0.13216445 0.076675557 1.5890001
0.14528 0.075666666 1.5890001
0.097226128 0.084750213 1.5810002
0.10564212 0.084509641 1.5845557
0.11501335 0.084746666 1.589
0.12409333 0.084746666 1.589
0.13468666 0.084746666 1.5890001
0.14603667 0.08550334 1.5890001
0.087331437 0.09636572 1.581
0.095545143 0.095551237 1.5874
0.10589015 0.095301904 1.5883335
0.11471067 0.095037326 1.589
0.12409334 0.095556192 1.589
0.13393001 0.096601106 1.5890001
0.14528 0.09836667 1.5890001
0.087331429 0.10690571 1.5810001
0.095107615 0.10566667 1.5849999
0.10593333 0.10593335 1.589
0.11501335 0.10593333 1.589
0.12409335 0.10631166 1.589
0.13317333 0.10517666 1.589
0.14528 0.10593334 1.5890001
0.095626667 0.11458304 1.5868182
0.10555501 0.11463499 1.589
0.11547286 0.11396334 1.5850002
0.12409335 0.11501333 1.589
0.13166 0.11501334 1.5890001
0.096093491 0.12533042 1.5840771
0.105555 0.12447168 1.589
0.11556357 0.12422143 1.5810002
0.12308446 0.12308445 1.5890001
0.13014667 0.12106667 1.5890001
-0.093511753 0.13574794 1.5836668
0.087331429 0.13702001 1.5810001
0.096421592 0.13558879 1.581889
0.10593333 0.13468668 1.5890001
0.11486477 0.13376239 1.5870001
0.12207556 0.13115555 1.5890001
-0.094753906 0.14423582 1.5842001
0.075285718 0.14454857 1.5810002
0.084319994 0.14492501 1.5810002
0.095025092 0.14479493 1.5836668
0.10442001 0.14528 1.5890001
0.069262862 0.15810001 1.5810001
0.075118616 0.15489265 1.5831821
0.084699251 0.15427536 1.5881112
0.095339991 0.15436001 1.5890001
0.10593334 0.15738668 1.5890001
0.067456 0.16683315 1.5810001
0.075859621 0.16560991 1.5866001
0.084746666 0.16495334 1.5890001
0.064243816 0.17365904 1.581
0.075329736 0.17475937 1.581889
0.084700957 0.17544679 1.5881112
0.090800002 0.17706001 1.5890001
0.066753335 0.18670858 1.5810002
0.075325333 0.18439391 1.5818002
0.084746666 0.18462667 1.589
0.092313327 0.18462665 1.5890001
0.057217143 0.19724858 1.5810001
0.065339223 0.19656105 1.5853637
0.074994072 0.19505185 1.589
0.084028356 0.19427091 1.5881112
0.093322217 0.19269778 1.5890001
-0.093354292 0.20778857 1.5810001
0.055066127 0.20520735 1.5810002
0.065047942 0.20572829 1.5883335
0.075666666 0.20581335 1.589
0.084746666 0.20581335 1.589
0.09080001 0.20581335 1.5890001
-0.091638856 0.21342857 1.5826002
-0.087331429 0.21531714 1.5810001
0.039148573 0.21832858 1.5810001
0.045472573 0.21622059 1.5810002
0.054590665 0.21473983 1.5834001
0.065021276 0.21471047 1.5876666
0.075666666 0.21489331 1.589
0.084746666 0.21489334 1.589
0.09080001 0.21489334 1.5890001
-0.090800002 0.22094667 1.5890001
-0.087331437 0.22585714 1.581
0.039148573 0.22435144 1.5810001
0.045225609 0.22610943 1.582778
0.053821344 0.22525506 1.5874
0.065073341 0.22397335 1.5890001
0.075666666 0.22397333 1.589
0.084314287 0.22310857 1.589
-0.086046666 0.2354781 1.585
0.027102858 0.23790286 1.5810001
0.035760716 0.23602073 1.5810002
0.045225613 0.23515385 1.582778
0.054782677 0.23547468 1.589
0.064491287 0.23375179 1.5890001
0.072640002 0.23002668 1.5890001
-0.082454599 0.24433208 1.5836668
0.027102858 0.24242002 1.5810001
0.035210554 0.24462065 1.5810001
0.044984937 0.24546824 1.5839092
0.054480009 0.24516003 1.589
0.063560002 0.24516003 1.5890001
-0.081720002 0.25424001 1.5890001
-0.078297146 0.25747716 1.5810001
0.033125717 0.25296 1.5810001
0.046331197 0.25500023 1.5820003
0.054364443 0.25520986 1.5856668
0.063127622 0.25510475 1.589
-0.082325332 0.26574135 1.5890001
-0.078297146 0.2619943 1.5810001
0.035276737 0.26672655 1.5810002
0.045578331 0.26554978 1.5820001
0.054237887 0.26515472 1.5818892
0.064002201 0.26438215 1.5883847
-0.083887145 0.27583289 1.5870001
0.027102858 0.27554572 1.5810001
0.034631427 0.27404001 1.5810002
0.045171432 0.27403998 1.5810002
0.054205716 0.27404001 1.5810002
0.065073341 0.27542669 1.5890001
-0.082766093 0.28333145 1.5858002
0.035802543 0.28307426 1.5810002
0.045251433 0.2850562 1.5836668
0.054073721 0.28453603 1.5858001
0.063560002 0.28450668 1.589
-0.081720002 0.29207334 1.5890001
-0.077557467 0.29812825 1.5863334
0.039148573 0.29512 1.581
0.045327194 0.29611722 1.5863333
0.054480009 0.29510003 1.589
0.062695242 0.2931543 1.589
-0.075919688 0.30466476 1.5836668
0.018068573 0.30716571 1.5810001
0.027102858 0.30716571 1.5810001
0.03586857 0.30533656 1.5836668
0.045400001 0.30569333 1.589
0.052966673 0.30569336 1.5890001
-0.074762672 0.31501275 1.5826001
0.015659431 0.31439313 1.5810002
0.024365194 0.31510493 1.5810002
0.034766037 0.31437966 1.5870003
0.045400001 0.31477335 1.589
0.054480009 0.31477338 1.589
0.060533337 0.31628668 1.5890001
-0.077557467 0.32532254 1.5863334
0.0090342863 0.32523429 1.5810001
0.015943674 0.32570669 1.5832859
0.024157459 0.32615367 1.5854446
0.034806669 0.32536665 1.5890002
0.045380954 0.32522824 1.5883335
0.054480013 0.32536665 1.5890001
0.061138671 0.32627469 1.5890001
-0.081720002 0.33898667 1.5890001
-0.077742383 0.33435762 1.585
0.0090342863 0.33125716 1.5810001
0.016060954 0.33376667 1.5810002
0.024189631 0.33558241 1.5872223
0.034806669 0.33596 1.5890001
0.045778334 0.33558163 1.589
0.053269338 0.33474931 1.5890001
-0.081308573 0.34631431 1.5810001
-0.077742383 0.34567338 1.5850002
0.017315716 0.34330288 1.5810001
0.023493335 0.34460089 1.5854446
0.03367167 0.34390503 1.589
0.046156671 0.34277004 1.5890001
0.051453337 0.34201336 1.5890001
-0.081514284 0.35171527 1.585
-0.07656952 0.35449752 1.5826002
0.015057144 0.35735622 1.581
0.022981334 0.35436878 1.5874002
0.031275555 0.35210225 1.5890001
-0.076271996 0.36380535 1.5890001
0.0067757145 0.36513573 1.5810001
0.015402476 0.36470097 1.585
0.023540739 0.36589038 1.589
0.035563335 0.36622667 1.589
0.042373333 0.36925334 1.5890001
-0.076877333 0.37470135 1.5890001
0.0090342863 0.37944001 1.5810001
0.015511667 0.37568498 1.589
0.023204446 0.37480223 1.5890001
-0.077179998 0.38438669 1.5890001
0.0066556195 0.38641489 1.5874002
0.015133334 0.38438666 1.589
0.023835 0.38400835 1.589
-0.0751298 0.3946237 1.5867145
-0.016562859 0.39600289 1.5810001
-0.0052738097 0.39725858 1.5830002
0.0053513548 0.39518064 1.5865383
0.015133335 0.39498004 1.5890001
0.024213335 0.39497998 1.5890001
-0.072640002 0.40557334 1.5890001
-0.067048095 0.4052943 1.5820003
-0.013551429 0.40202576 1.5810001
-0.0060323812 0.40455049 1.5850002
0.0045336508 0.40489146 1.5863333
0.015118097 0.4051162 1.5872223
0.024213333 0.40557334 1.589
0.030266669 0.40557334 1.5890001
-0.065787807 0.41551027 1.5842001
-0.0045349211 0.41430286 1.5876669
0.0045400001 0.4146533 1.5890001
0.014755 0.41427499 1.589
0.024213333 0.41314 1.5890001
0.031780001 0.4116267 1.5890001
-0.067988254 0.42453304 1.5863334
-0.023489144 0.4264183 1.5810001
-0.016060954 0.42661908 1.581
-0.0030228572 0.42470574 1.5870001
0.0045400001 0.42524669 1.5890002
0.013317334 0.42554933 1.5890001
0.024213335 0.42676002 1.5890001
-0.065183997 0.43452343 1.5842001
-0.031620003 0.43515146 1.5810001
-0.024365194 0.43528834 1.5810002
-0.016864002 0.43545261 1.5810001
-0.0070266672 0.43364573 1.581
0.0048345397 0.43587324 1.5847334
0.012106667 0.43584001 1.5890001
-0.05571143 0.44870287 1.5810001
-0.023489144 0.44508916 1.5810001
-0.015057144 0.44569147 1.5810002
-0.0060228575 0.44569147 1.5810001
0.0052757147 0.4463498 1.5820001
0.014124446 0.44542444 1.5890001
-0.060533334 0.45400003 1.5890001
-0.05463592 0.45386532 1.5810002
-0.045171428 0.45522761 1.5810002
-0.036137145 0.45773715 1.5810001
-0.022585716 0.45472574 1.5810001
-0.015057145 0.45472574 1.5810002
-0.0066251433 0.45653257 1.5810001
0.0053773546 0.4552491 1.5863335
0.013115556 0.45299113 1.5890001
-0.060472388 0.46563125 1.5874002
-0.054043647 0.46403527 1.5836667
-0.045457002 0.46522585 1.5828463
-0.036137145 0.46526572 1.5810002
-0.014053334 0.46275625 1.5810002
-0.0072365724 0.4646987 1.5842001
0.0045369519 0.46486077 1.5858001
-0.062099427 0.47447434 1.5826002
-0.05571143 0.47881716 1.5810001
-0.045171428 0.47580576 1.5810002
-0.036567349 0.47494534 1.5810002
-0.0030114288 0.47881716 1.5810001
0.0046748053 0.47519428 1.5853637
0.012106667 0.47518668 1.5890001
-0.061440635 0.48345399 1.5863334
-0.053829286 0.48446357 1.5810002
-0.04818286 0.48634571 1.5810001
-0.030114288 0.48785144 1.5810001
-0.022585716 0.48785144 1.5810001
-0.015509116 0.48553661 1.5832859
-0.0052928571 0.4874329 1.5870001
0.0049527274 0.48431882 1.5882726
0.01462889 0.48477116 1.5890001
-0.060533337 0.49032003 1.5890001
-0.054704957 0.4950183 1.5866001
-0.044870283 0.49538001 1.5810002
-0.034670796 0.49450159 1.5830002
-0.024172701 0.49554539 1.5863334
-0.014806286 0.49501985 1.5866001
-0.0063257143 0.49481982 1.5875454
0.0045400001 0.49485999 1.5890002
0.014376668 0.49107671 1.5890001
-0.054101676 0.50507498 1.589
-0.045769248 0.50559103 1.5867144
-0.036602858 0.50580114 1.5881999
-0.024464935 0.50608575 1.5875455
-0.015133334 0.50545335 1.589
-0.0060533341 0.50545335 1.589
0.0045400001 0.50545329 1.5890001
0.014700952 0.50631809 1.589
0.021186667 0.50696671 1.5890001
-0.052966669 0.51302004 1.5890001
-0.045400001 0.51453334 1.589
-0.03470109 0.51455665 1.5844287
-0.024126984 0.51481402 1.5836668
-0.015133334 0.51453328 1.589
-0.0060533336 0.51453328 1.589
0.0039346665 0.51513875 1.589
0.01362 0.51453334 1.5890001
-0.045399997 0.5251267 1.5890001
-0.034346085 0.52453923 1.5840768
-0.02386038 0.52497566 1.5858001
-0.015133335 0.5251267 1.5890001
-0.0060495236 0.52468216 1.5876669
0.0045400001 0.52495998 1.5885003
0.012106667 0.5251267 1.5890001
-0.043129999 0.53496337 1.5890001
-0.034623448 0.53514832 1.585923
-0.023835 0.53534168 1.589
-0.015511667 0.53534168 1.589
-0.0060482542 0.53512406 1.5872222
0.003934667 0.53484643 1.5882
0.012106667 0.53420663 1.5890001
-0.042373333 0.54328668 1.5890001
-0.036891811 0.54304081 1.5874002
-0.024213335 0.54328668 1.5890001
-0.013581906 0.5419153 1.585
-0.0030266668 0.54177338 1.5890001
0 0.54480004 1.5890001
0.0045600003 -0.0060800002 1.5960001
0.095000006 0.00152 1.5960001
0.105488 0.0024320001 1.596
0.11552 0.0030400001 1.596
0.12388001 0.0053200005 1.5960001
0.13436802 0.0085120006 1.5960001
0.14693335 0.0081066666 1.5960001
0.15352002 0.0091200005 1.5960001
0.16264001 0.0091200005 1.5960001
0.13619201 0.012768 1.5960001
0.14470401 0.013984 1.5960001
0.15504001 0.013680001 1.5960001
0.16365333 0.015200001 1.5960001
0.156864 0.023712 1.5960001
0.16264001 0.024320001 1.5960001
0.15808001 0.033440001 1.5960001
0.16264002 0.034960005 1.596
0.17024 0.036480002 1.5960001
-0.097280003 0.048640002 1.5960001
0.13832 0.048640002 1.5960001
0.14288001 0.045600001 1.5960001
0.15808001 0.04256 1.5960001
0.16264001 0.045600001 1.5960001
0.13781333 0.055226672 1.5960001
0.14288001 0.054720003 1.5960001
0.15504001 0.054720003 1.5960001
0.16365334 0.054720003 1.5960001
0.13832 0.065359995 1.596
0.14461716 0.066880003 1.596
0.15656 0.065360002 1.5960001
0.16213335 0.061813336 1.5960001
0.13781333 0.074986674 1.5960001
0.14592001 0.076000005 1.5960001
0.15200001 0.074480005 1.5960001
0.14531201 0.084512003 1.5960001
0.15352002 0.088160001 1.5960001
0.11704001 0.097280003 1.5960001
0.12464 0.094240002 1.5960001
0.13756001 0.091959998 1.5960001
0.14591999 0.09386 1.596
0.15200001 0.094240002 1.5960001
0.12464 0.10184 1.5960001
0.13832 0.10792001 1.5960001
0.14592001 0.10488001 1.596
0.15276001 0.10336 1.5960001
0.10944001 0.11856 1.5960001
0.11491201 0.11612801 1.5960001
0.13781334 0.11349335 1.5960001
0.14592001 0.11400001 1.5960001
0.10944001 0.1216 1.5960001
0.11248001 0.12464 1.5960001
0.13376001 0.12312 1.5960001
-0.097280003 0.13680001 1.5960001
0.11508571 0.13636573 1.596
0.1216 0.13832 1.5960001
0.13072 0.13376001 1.5960001
0.14592001 0.13528001 1.5960001
0.10944001 0.14591999 1.5960001
0.11552 0.14592001 1.596
0.12236 0.14668 1.5960001
0.13072 0.14744002 1.5960001
0.14592001 0.1444 1.5960001
0.10640001 0.15352 1.5960001
0.11552002 0.15504 1.596
0.12377143 0.15504001 1.596
0.094240002 0.16416 1.596
0.10488001 0.16416 1.5960001
0.11552 0.16416 1.596
0.122816 0.16476801 1.5960001
0.094848007 0.174192 1.596
0.10488 0.17479998 1.5960002
0.115216 0.173888 1.596
0.097280003 0.18544 1.5960001
0.10427201 0.18483201 1.596
0.079040006 0.19760001 1.5960001
0.08664 0.19760001 1.5960001
0.095253341 0.19658667 1.5960001
0.103968 0.19425601 1.596
0.079040006 0.20064001 1.5960001
0.088160001 0.20064001 1.5960001
0.095253333 0.20469333 1.596
0.10234666 0.20570666 1.596
0.09576001 0.21584003 1.5960001
0.10249142 0.21540572 1.596
-0.091200002 0.22496001 1.5960001
0.08664 0.22800002 1.5960001
0.094240002 0.22496001 1.596
0.10183999 0.22344002 1.5960001
-0.088160001 0.23712 1.5960001
0.069920003 0.23712 1.5960001
0.07638 0.23446001 1.596
0.08512 0.23408 1.596
0.094240002 0.23408 1.596
-0.08664 0.24472001 1.5960001
0.066880003 0.24472001 1.596
0.076000005 0.24471998 1.5960001
0.085396364 0.24430543 1.596
0.094516367 0.24430546 1.596
0.10032 0.24776 1.5960001
-0.08664 0.25536004 1.5960001
0.068096004 0.25414401 1.5960001
0.076000005 0.25536001 1.596
0.08512 0.25536001 1.5960001
-0.08512 0.26447999 1.5960001
0.069920003 0.26600003 1.5960001
0.076000005 0.26447999 1.596
0.0836 0.26144001 1.5960001
-0.088160001 0.27512002 1.5960001
0.069920003 0.27056 1.5960001
0.075999998 0.27511999 1.5960001
0.082840003 0.27360001 1.5960001
-0.087400004 0.28652 1.5960001
0.069920003 0.28576002 1.5960001
0.076000005 0.28575999 1.596
-0.0836 0.29488003 1.5960001
0.068704002 0.29548803 1.5960001
0.074986674 0.29386666 1.5960001
-0.082080007 0.30400002 1.5960001
0.057760004 0.30400002 1.5960001
0.062971428 0.30356574 1.596
-0.082080007 0.31464002 1.5960001
-0.079040006 0.31160003 1.5960001
0.057760004 0.31008002 1.5960001
0.064177781 0.31413332 1.596
-0.082080007 0.32528001 1.5960001
0.066500001 0.32566002 1.596
-0.082080007 0.33440003 1.5960001
0.056240004 0.33744001 1.5960001
0.064708568 0.3344 1.596
-0.082080007 0.34504002 1.5960001
0.027360002 0.34960002 1.5960001
0.037240002 0.34884 1.5960001
0.04458667 0.34706667 1.5960001
0.055328004 0.34564799 1.596
0.06346 0.34314004 1.596
0.027360002 0.35567999 1.5960001
0.036142223 0.35635555 1.596
0.045600004 0.35567996 1.596
0.054340005 0.35568002 1.596
-0.082080007 0.36632001 1.5960001
-0.079040006 0.36632001 1.5960001
0.026346669 0.36277333 1.5960001
0.034308575 0.36393145 1.596
0.045600004 0.36480004 1.596
0.053851433 0.36523432 1.596
0.060800001 0.36784002 1.5960001
-0.082840003 0.37316 1.5960001
-0.079040006 0.37088001 1.5960001
0.025840001 0.37696001 1.5960001
0.034791112 0.37493336 1.596
0.045980003 0.3743 1.596
0.054720003 0.37392002 1.596
0.061560001 0.37468001 1.5960001
-0.082080007 0.38456002 1.5960001
-0.079040006 0.38000003 1.5960001
0.027360002 0.38456002 1.5960001
0.034960002 0.38455999 1.5960002
0.045220003 0.38266003 1.596
0.05515429 0.38217142 1.596
0.065866672 0.38354668 1.5960001
0.072960004 0.38608003 1.5960001
-0.082080007 0.39216003 1.5960001
-0.079040006 0.39671999 1.5960001
0.033440005 0.39519998 1.596
-0.077520005 0.40432 1.5960001
0.024320001 0.40432 1.5960001
0.034960002 0.40432 1.596
0.04256 0.40736002 1.5960001
-0.074480005 0.41496 1.5960001
0.018240001 0.41952002 1.5960001
0.024320001 0.41648003 1.5960001
0.034655999 0.41556796 1.596
0.04256 0.41648 1.5960001
-0.074176006 0.424992 1.5960001
0.016416002 0.42499202 1.5960001
0.024320003 0.42522001 1.596
0.033440005 0.42407998 1.5960001
-0.072960004 0.4332 1.5960001
-0.068400003 0.43548003 1.5960001
0.016720003 0.43472001 1.5960001
0.024320003 0.43472004 1.596
0.032680001 0.43548 1.5960001
-0.06861715 0.44601139 1.596
0.017024001 0.44383997 1.5960001
0.024320001 0.44536003 1.5960001
0.034858666 0.44566405 1.5960002
0.04256 0.44384003 1.5960001
-0.066011429 0.45556575 1.596
0.016213335 0.4565067 1.5960001
0.024320003 0.456 1.596
0.033777781 0.45532444 1.596
-0.065360002 0.46512005 1.5960001
0.0054720002 0.46755201 1.5960001
0.015200002 0.46511999 1.596
0.024320003 0.46511999 1.596
0.030400001 0.46360004 1.5960001
-0.066119999 0.47348002 1.5960001
0.016068574 0.4738057 1.596
0.02128 0.47424003 1.5960001
-0.065866664 0.48589334 1.5960001
-0.0060800002 0.48564002 1.5960001
0.016416002 0.48335999 1.5960001
0.024016004 0.48579201 1.596
0.033946667 0.48842666 1.5960001
0.047120001 0.48944002 1.5960001
-0.064219996 0.49590003 1.596
0.015808001 0.49734402 1.5960001
0.023940003 0.49514002 1.596
0.033874284 0.49465147 1.596
0.047120001 0.49248001 1.5960001
-0.062971428 0.50420576 1.596
-0.030400001 0.50616002 1.5960001
0.015808001 0.50281608 1.5960001
0.0228 0.50463998 1.5960001
-0.060800001 0.51224005 1.5960001
-0.056240004 0.51679999 1.5960001
-0.030400001 0.51072001 1.5960001
0.0076000001 0.51376003 1.5960001
0.015200001 0.51629335 1.5960001
0.023813335 0.51376003 1.5960001
0.030400001 0.51224005 1.5960001
-0.054340001 0.52553999 1.596
0.016416002 0.52531207 1.5960001
