# .PCD v0.7 - Point Cloud Data file format
VERSION 0.7
FIELDS x y z
SIZE 4 4 4
TYPE F F F
COUNT 1 1 1
WIDTH 1515
HEIGHT 1
VIEWPOINT 0 0 0 1 0 0 0
POINTS 1515
DATA ascii
0.25474572 0.22505145 1.6410002
0.26568574 0.22505146 1.6409999
0.27506286 0.22505143 1.6409999
0.28551853 0.22590818 1.6472223
0.29476869 0.22578627 1.6463333
0.30475715 0.22505142 1.6410002
0.31257144 0.22505145 1.6410002
0.087946668 0.23557144 1.649
0.094677284 0.23467401 1.649
0.10365143 0.2342253 1.649
0.14605428 0.23557143 1.649
0.15390669 0.23557144 1.649
0.1649 0.23557143 1.649
0.17589334 0.23557141 1.649
0.18531621 0.23557144 1.649
0.19473906 0.23557141 1.649
0.20416191 0.23557144 1.649
0.21515524 0.23557143 1.649
0.22614861 0.23557144 1.649
0.23557144 0.23557141 1.649
0.24459809 0.23519556 1.6463335
0.25474569 0.23442858 1.6410002
0.26568571 0.23442858 1.6409999
0.27581123 0.23506181 1.6454444
0.28582668 0.23557144 1.649
0.29524952 0.23557144 1.649
0.30540588 0.23497696 1.6468182
0.31462669 0.23675586 1.6463333
0.32194859 0.23599145 1.641
0.38602573 0.2375543 1.641
0.3930586 0.23677287 1.641
0.097369529 0.24342382 1.649
0.10051048 0.24342382 1.649
0.14605428 0.2449943 1.649
0.15390669 0.2449943 1.649
0.1649 0.24499427 1.649
0.17589334 0.2449943 1.649
0.18531619 0.2449943 1.649
0.19473904 0.2449943 1.649
0.20416191 0.2449943 1.649
0.21515526 0.2449943 1.649
0.22614858 0.2449943 1.649
0.23557144 0.2449943 1.649
0.24446943 0.24446265 1.6454444
0.25474572 0.24380571 1.6410002
0.26568571 0.24380572 1.6409999
0.27506289 0.24380572 1.6409999
0.28582668 0.2449943 1.649
0.29524952 0.2449943 1.649
0.30554026 0.24506237 1.6475456
0.31292906 0.24390811 1.6470001
0.37821144 0.24536857 1.641
0.3865467 0.24484761 1.6410002
0.39384001 0.24380572 1.6409999
0.40009144 0.24224287 1.641
0.10365143 0.25651112 1.649
0.14605428 0.25441718 1.649
0.15390669 0.25441715 1.649
0.16489999 0.25441715 1.649
0.17589334 0.25441718 1.649
0.18531621 0.25441718 1.649
0.19473906 0.25441715 1.649
0.20483427 0.25532937 1.6475456
0.21515523 0.25441718 1.649
0.22602497 0.2542783 1.6481111
0.23445751 0.25465333 1.6431819
0.24352154 0.25431949 1.641
0.25495398 0.2533873 1.6423334
0.26611578 0.25359598 1.6436667
0.27533257 0.25405484 1.6425998
0.2855202 0.25414288 1.6472223
0.29477334 0.25556728 1.6463336
0.30503145 0.25497714 1.6425002
0.31382173 0.25568342 1.641
0.32194859 0.25943428 1.641
0.37743002 0.25240144 1.641
0.38491878 0.25443313 1.6417273
0.39418954 0.2512762 1.649
0.14605428 0.26384002 1.649
0.15390667 0.26383999 1.649
0.16489999 0.26383999 1.649
0.17589334 0.26384002 1.649
0.18531621 0.26384002 1.649
0.19473906 0.26384002 1.649
0.2042857 0.26425016 1.6472223
0.21599393 0.26371047 1.6482
0.22592917 0.26420763 1.6474001
0.23485696 0.26518708 1.6417999
0.24420701 0.2650705 1.6436666
0.25441715 0.26384002 1.649
0.26384002 0.26384002 1.649
0.27469057 0.26412556 1.649
0.28582668 0.26384002 1.649
0.29477462 0.26498383 1.6463333
0.30471864 0.26445252 1.6444285
0.31568548 0.26522812 1.643
0.32462773 0.26657882 1.6409999
0.33132574 0.26724857 1.641
0.35320574 0.26568574 1.641
0.38671619 0.26531658 1.6426001
0.39383999 0.2672486 1.6409999
0.14605428 0.27483335 1.649
0.15390669 0.27483335 1.649
0.16437651 0.27404806 1.649
0.17589332 0.27483335 1.649
0.18531619 0.27483335 1.649
0.19473904 0.27483329 1.649
0.2041619 0.27483335 1.649
0.21502191 0.27466673 1.6480001
0.22575101 0.27477822 1.646091
0.23506349 0.27581292 1.6454444
0.24507372 0.27550739 1.6474001
0.25441715 0.27483335 1.649
0.26383999 0.27483332 1.649
0.27483335 0.27483335 1.649
0.28582668 0.27483332 1.649
0.29524949 0.27483335 1.649
0.30480984 0.2744031 1.647154
0.31376022 0.27476084 1.6454444
0.32820001 0.27506286 1.641
0.33132574 0.27506286 1.6410002
0.3578943 0.27584428 1.641
0.36508346 0.27693829 1.641
0.37821144 0.27818859 1.641
0.38498381 0.27506286 1.6409999
0.39428657 0.27416977 1.6409999
0.14605428 0.28582668 1.649
0.15390669 0.28582668 1.649
0.16504277 0.28554115 1.649
0.17589334 0.28582668 1.649
0.18531621 0.28582668 1.649
0.19473906 0.28582668 1.649
0.20416191 0.28582668 1.649
0.21515524 0.28582668 1.649
0.22614858 0.28582668 1.649
0.23557146 0.28582668 1.649
0.2449943 0.28582668 1.649
0.25441715 0.28582668 1.649
0.26384002 0.28582668 1.649
0.27483332 0.28582668 1.649
0.28582668 0.28582668 1.649
0.29509035 0.28567091 1.6481112
0.30500224 0.28466985 1.6423335
0.31569713 0.28444001 1.6409999
0.3240324 0.28444001 1.6409999
0.33445144 0.28287715 1.641
0.34195316 0.28443998 1.641
0.35459492 0.28443998 1.6409999
0.36570859 0.28444001 1.6409999
0.37547645 0.28483072 1.6409999
0.38394192 0.2854819 1.6409999
0.39446515 0.28631547 1.641
0.1460543 0.2921086 1.649
0.15390667 0.2921086 1.649
0.16647048 0.29367903 1.649
0.17589334 0.29524952 1.649
0.18531619 0.29524949 1.649
0.19473906 0.29524952 1.649
0.20311493 0.29420254 1.649
0.21986668 0.2921086 1.649
0.22740495 0.29399315 1.6489999
0.23557144 0.29524952 1.649
0.2449943 0.29524952 1.649
0.25441715 0.29524949 1.649
0.26384002 0.29524952 1.649
0.27483335 0.29524949 1.649
0.2862193 0.29524952 1.649
0.29428953 0.2942946 1.6436666
0.30500478 0.29405841 1.6423335
0.31626859 0.294745 1.6439999
0.32455334 0.29433811 1.6409999
0.33445144 0.29426363 1.6409999
0.34382859 0.29381716 1.6409999
0.3547686 0.29381713 1.6410002
0.36570859 0.29381716 1.6409999
0.37469503 0.29342645 1.6409999
0.38383409 0.29413882 1.6427777
0.39383999 0.29069144 1.6410002
0.16961144 0.30467239 1.649
0.17589334 0.30467236 1.649
0.18531621 0.30153143 1.649
0.22771907 0.30467239 1.649
0.23557144 0.30467236 1.649
0.2449943 0.30467239 1.649
0.25441715 0.30467242 1.649
0.26384002 0.30467239 1.649
0.27483335 0.30467239 1.649
0.28582668 0.30467236 1.649
0.29460952 0.30401886 1.6454444
0.30434731 0.30434564 1.6472223
0.31523064 0.30472082 1.6444286
0.32479012 0.30518338 1.641
0.33445144 0.30475715 1.6410002
0.34382859 0.30475715 1.6410002
0.35476857 0.30475718 1.6410003
0.36570859 0.30475715 1.6410002
0.37453097 0.30377167 1.642
0.38502598 0.30482498 1.6482728
0.3934043 0.30388716 1.649
0.16961144 0.3125248 1.649
0.17679074 0.31409526 1.649
0.21437001 0.31566572 1.649
0.227046 0.31454396 1.649
0.23557144 0.31409526 1.649
0.2449943 0.31409526 1.649
0.25441715 0.31409526 1.649
0.26384002 0.31409526 1.649
0.27389106 0.31378117 1.6489999
0.28708306 0.31283888 1.6489999
0.29564214 0.31370264 1.649
0.30467239 0.31409526 1.649
0.31489241 0.31489623 1.6450001
0.32507429 0.31569713 1.6409999
0.33445144 0.31569713 1.6409999
0.34382856 0.31569713 1.6409999
0.3547686 0.31569716 1.6410002
0.36570859 0.31569713 1.6409999
0.37414026 0.31549501 1.642
0.38333863 0.31322628 1.6481112
0.39418957 0.31409526 1.649
0.1460543 0.32665905 1.649
0.16961144 0.32037714 1.649
0.17694032 0.32142413 1.649
0.21505052 0.32498389 1.649
0.22693382 0.3235181 1.649
0.23557143 0.32508853 1.649
0.24499433 0.32508859 1.649
0.25441715 0.32494581 1.649
0.26412556 0.32494581 1.649
0.27326283 0.32508859 1.649
0.28582668 0.32665905 1.649
0.29629648 0.32526308 1.649
0.30467239 0.32508856 1.649
0.31455418 0.32508245 1.6455715
0.32507432 0.32507432 1.6409999
0.33445144 0.32507432 1.6409999
0.34382859 0.32507432 1.6409999
0.3547686 0.32507429 1.6410002
0.36570859 0.32507432 1.6409999
0.37508574 0.32507432 1.6409999
0.3831962 0.32561207 1.649
0.39576 0.32037714 1.649
0.21672572 0.33555844 1.649
0.22510159 0.3366054 1.649
0.23452444 0.33817589 1.649
0.2449943 0.33608195 1.649
0.25363192 0.33843765 1.649
0.2643635 0.33608195 1.649
0.27483335 0.33398798 1.649
0.28582668 0.33451143 1.649
0.2961469 0.33563325 1.649
0.30467236 0.33608192 1.649
0.31489241 0.33526668 1.6450001
0.32507429 0.33445144 1.6409999
0.33445144 0.33445144 1.6409999
0.34457353 0.33518118 1.6445556
0.3547686 0.33445144 1.6410002
0.36570859 0.33445144 1.6409999
0.37508571 0.33445147 1.6409999
0.38543972 0.33653066 1.649
0.21672572 0.34236383 1.649
0.2449943 0.34589738 1.649
0.25351974 0.34595346 1.649
0.26226956 0.34707522 1.649
0.27954477 0.34707522 1.649
0.28739715 0.34550476 1.649
0.2956982 0.34550476 1.649
0.30467239 0.34550476 1.649
0.31489241 0.34466663 1.6450001
0.32507429 0.34382859 1.6409999
0.33590245 0.34532019 1.6481111
0.34550476 0.34550476 1.649
0.35519525 0.34424767 1.6430001
0.36570859 0.34382859 1.6409999
0.37469503 0.34343788 1.6409999
0.38529021 0.34550476 1.649
0.24342382 0.35178667 1.649
0.25337017 0.35283366 1.649
0.26069906 0.35335714 1.649
0.27954477 0.35649812 1.649
0.28582668 0.35649812 1.649
0.29587772 0.35367125 1.6489999
0.30467239 0.3517867 1.649
0.3158201 0.35398701 1.6446365
0.32507429 0.3547686 1.6410002
0.33540258 0.35577047 1.6456667
0.34494731 0.35591522 1.6463333
0.35508856 0.35509142 1.6425002
0.36574718 0.35494235 1.6424545
0.37337118 0.3541486 1.6432856
0.3829495 0.35503313 1.6466001
0.27954477 0.36278003 1.649
0.28687367 0.36225653 1.649
0.29315558 0.36225653 1.649
0.31802952 0.36502954 1.645
0.32507432 0.36570856 1.6409999
0.33445144 0.36570856 1.6409999
0.34382856 0.36570859 1.6409999
0.35434234 0.36599275 1.641
0.36398098 0.36576706 1.6432856
0.37416595 0.36474314 1.649
0.38319981 0.36409181 1.6450001
0.39344931 0.3660993 1.6409999
0.31802952 0.37442955 1.645
0.32507432 0.37508574 1.6409999
0.33445144 0.37508577 1.6409999
0.34382859 0.37508577 1.6409999
0.35374606 0.3745943 1.6418887
0.3642686 0.37493259 1.6458
0.37338072 0.37338072 1.649
0.38476664 0.37220287 1.649
0.39471301 0.37482032 1.649
0.31686145 0.38414621 1.643
0.32507432 0.38446286 1.6409999
0.33445144 0.38446286 1.6409999
0.34382856 0.38446283 1.6409999
0.35484639 0.38474512 1.6446365
0.36463603 0.38462391 1.649
0.3724272 0.38499099 1.649
0.31763285 0.39449859 1.6470001
0.32508469 0.39552605 1.6468182
0.33517778 0.39469841 1.6445556
0.34513396 0.39533675 1.6472222
0.3549276 0.39576003 1.649
0.36435053 0.39576003 1.649
0.37377334 0.39733049 1.649
0.31723621 0.40204191 1.649
0.32194763 0.40204191 1.649
0.33608192 0.40392646 1.6489999
0.34589738 0.40479022 1.649
0.3544789 0.40428543 1.649
0.36435053 0.40518287 1.649
0.37332463 0.40428543 1.649
0.38005525 0.40204191 1.649
0.31723621 0.41774669 1.649
0.32980001 0.41774669 1.649
0.33503494 0.41565272 1.649
0.34589738 0.41499835 1.649
0.35453498 0.41499835 1.649
0.36435053 0.41460571 1.649
0.31723621 0.42559904 1.649
0.32547998 0.42463982 1.6483334
0.33608195 0.42402861 1.649
0.34550476 0.42402861 1.649
0.3549276 0.42402861 1.649
0.36345312 0.4235799 1.649
0.31723621 0.43345144 1.649
0.32498389 0.43533605 1.649
0.33608195 0.43502188 1.649
0.34550476 0.43502197 1.649
0.35492757 0.43502197 1.649
0.36390182 0.43748978 1.649
0.3729881 0.43737766 1.649
0.32875302 0.4439213 1.649
0.33653063 0.44511789 1.649
0.34602824 0.44549179 1.649
0.3549276 0.4460153 1.649
0.3643505 0.4460153 1.649
0.37063238 0.44601524 1.649
0.35492763 0.45229715 1.649
0.36372226 0.45355353 1.6489999
0.37063238 0.45229715 1.649
0.16961144 0.51825714 1.649
0.17432286 0.51825714 1.649
-0.017674666 -0.0056811431 1.6569999
-0.0031561905 -0.0063123815 1.6570001
0.0044186669 -0.0044186669 1.6569999
0.015780952 -0.0047342856 1.6570001
0.025249524 -0.006312381 1.6570001
0.0347181 -0.006312381 1.6570001
0.04418667 -0.0047342856 1.6569999
0.050499048 -0.006312381 1.6570001
0.094685718 -0.0031561905 1.6570001
0.106048 -0.0056811431 1.6569999
0.11467491 -0.0059616934 1.6569998
0.12561639 -0.0075748577 1.6569999
0.1357162 -0.006312381 1.6569998
0.14676286 -0.0094685722 1.6570001
0.15307525 -0.0094685722 1.6570001
0.16096573 -0.0094685722 1.6570001
0.27616668 -0.0094685722 1.6570001
0.28090096 -0.0094685722 1.6570001
-0.031561907 0.0031561905 1.6570001
-0.025644047 0.0027616667 1.6569998
-0.015780954 0.00078904763 1.6570001
-0.0071014292 0.00078904763 1.6570001
0.0031561905 0 1.6570001
-0.031561907 0.015780954 1.6570001
-0.028405715 0.017359048 1.6570001
-0.031561907 0.025249524 1.6570001
-0.026827618 0.026038572 1.6570001
-0.032350954 0.035507146 1.6570001
-0.028405717 0.034718096 1.6570001
-0.032350954 0.04339762 1.6570001
-0.031561907 0.055233337 1.6570001
-0.022093333 0.055759367 1.6570001
-0.031561907 0.066280007 1.6570001
-0.025249522 0.066674531 1.6569998
-0.031561907 0.074170485 1.6570001
-0.025249524 0.07574857 1.6569998
-0.01704343 0.076379813 1.6569999
-0.031561907 0.086795241 1.6570001
-0.024854999 0.085611671 1.6569998
-0.016682724 0.085668035 1.6569998
-0.031561907 0.094685711 1.6570001
-0.025249524 0.094685718 1.6569998
-0.018937144 0.094685718 1.6570001
-0.0031561905 0.097841911 1.6570001
-0.031561907 0.10415429 1.6570001
-0.025775557 0.10415429 1.6569999
-0.014991906 0.10652143 1.6570001
-0.0063123815 0.1025762 1.6570001
-0.031561907 0.11520096 1.6570001
-0.024962597 0.11563134 1.6569997
-0.015780954 0.11520096 1.6569997
-0.031561907 0.12624763 1.6570001
-0.025249522 0.12624763 1.6569998
-0.015780952 0.12624763 1.6569998
-0.0078904768 0.12782572 1.6570001
-0.031561907 0.1357162 1.6570001
-0.025249524 0.1357162 1.6569998
-0.015780952 0.1357162 1.6569998
-0.0063123805 0.1357162 1.6569998
0.0023671431 0.13650525 1.6570001
-0.02367143 0.14439571 1.6570001
-0.015780954 0.14518476 1.6569998
-0.0073644444 0.14623682 1.6569999
0.0094685722 0.14202857 1.6570001
-0.023987049 0.15465334 1.6569999
-0.015780952 0.15465333 1.6569998
-0.0068384134 0.15517937 1.6569999
-0.02367143 0.16254382 1.6570001
-0.015780954 0.16412191 1.6569998
-0.0063123815 0.16412191 1.6569998
0.0010520635 0.16622603 1.6570001
0.018937144 0.1672781 1.6570001
0.033140004 0.1672781 1.6570001
-0.02367143 0.17359048 1.6570001
-0.014991906 0.1735905 1.6569998
-0.0063123815 0.17516857 1.6569997
0.0044186665 0.17548418 1.6569997
0.016096573 0.17611542 1.6569998
0.025249524 0.17516857 1.6569997
0.034431171 0.17559895 1.6569997
0.043792143 0.17714119 1.6569998
0.052603174 0.17885081 1.6570001
0.072592385 0.17674667 1.6570001
-0.012624762 0.18305905 1.6570001
-0.0050499053 0.18495277 1.6569999
0.0047342856 0.18621527 1.6569997
0.015780952 0.18621525 1.6569998
0.025249524 0.18621527 1.6569998
0.034267213 0.18531348 1.6569998
0.043792143 0.18582074 1.6569998
0.053655241 0.18305905 1.6570001
-0.012624762 0.19726191 1.6570001
-0.0058614975 0.19658558 1.6569998
0.0047342856 0.19568382 1.6569997
0.015780954 0.19568382 1.6569998
0.025249522 0.1961347 1.6569998
0.036611814 0.19631507 1.6569999
0.043134604 0.19673587 1.6569999
0.1009981 0.19568382 1.6570001
-0.014202857 0.20199619 1.6570001
-0.0063123815 0.20199619 1.6570001
0.0047342856 0.20515239 1.6569997
0.015780952 0.20515239 1.6569998
0.025249526 0.20554692 1.6569998
0.035619862 0.20560327 1.6569998
0.043792143 0.20475787 1.6569998
0.069436193 0.20830858 1.6570001
0.072592385 0.20830858 1.6570001
0.10415429 0.20199619 1.6570001
0.0047342856 0.21462099 1.6569997
0.015780952 0.21462095 1.6569998
0.024460476 0.21225381 1.6570001
0.035770159 0.21356888 1.6569999
0.044186667 0.21462096 1.6569998
0.053655241 0.21462095 1.6569998
0.066674531 0.21501547 1.6569998
0.074846804 0.21417008 1.6569998
0.082060955 0.21777715 1.6570001
0.0031561905 0.22408952 1.6569998
0.012624762 0.22724572 1.6570001
0.037874289 0.22408955 1.6570001
0.044186667 0.22408952 1.6569998
0.05428648 0.22408953 1.6569998
0.066280007 0.22408952 1.6569998
0.074846804 0.2245404 1.6569998
0.085217148 0.22408952 1.6569999
0.12545857 0.22645667 1.6570001
0.1357162 0.22408952 1.6569998
0.14202857 0.22408953 1.6570001
0.0022544216 0.23310721 1.6569998
0.012624762 0.23040192 1.6570001
0.037874289 0.2367143 1.6570001
0.044473592 0.2355666 1.6569997
0.055233341 0.23513623 1.6569997
0.06628 0.23513621 1.6569997
0.075461641 0.2355666 1.6569997
0.084930211 0.23499274 1.6569997
0.093107626 0.23987049 1.6570001
0.10625841 0.23881842 1.6570001
0.11605071 0.23598596 1.6569997
0.12624763 0.23513621 1.6569997
0.1357162 0.23513621 1.6569997
0.14202857 0.23513621 1.6570001
0.018937144 0.24618286 1.6570001
0.035168979 0.24528112 1.6569998
0.044186667 0.24618289 1.6569998
0.055233333 0.2461829 1.6569997
0.066280007 0.24618289 1.6569998
0.07574857 0.24618289 1.6569998
0.085217148 0.24618289 1.6569998
0.09378396 0.24663377 1.6569998
0.10505605 0.24663377 1.6569998
0.11520097 0.2461829 1.6569997
0.12624763 0.24618289 1.6569998
0.1357162 0.24618289 1.6569998
0.14202857 0.24618286 1.6570001
0.037874289 0.25565144 1.6570001
0.043792147 0.25525692 1.6569998
0.055233333 0.25407335 1.6569998
0.066674531 0.25525692 1.6569998
0.07574857 0.25525692 1.6569998
0.085217148 0.25407335 1.6569999
0.094685726 0.25565144 1.6569998
0.10505605 0.25520056 1.6569998
0.11563134 0.25536454 1.6569997
0.12624763 0.25565144 1.6569998
0.1357162 0.25565144 1.6569998
0.14202857 0.25565144 1.6570001
0.037874289 0.26512003 1.6570001
0.044186667 0.26512003 1.6570001
0.053655241 0.26827621 1.6570001
0.066280007 0.26669812 1.6569999
0.074170478 0.26512 1.6570001
0.096579432 0.26448876 1.6569999
0.10415429 0.26512003 1.6569998
0.11520096 0.26512003 1.6569997
0.12624763 0.26512003 1.6569998
0.1357162 0.26512003 1.6569998
0.14202857 0.26512 1.6570001
0.028405717 0.27458858 1.6570001
0.035244126 0.27564064 1.6569999
0.043660637 0.27511463 1.6569999
0.05562786 0.27577215 1.6569998
0.066280007 0.27458858 1.6569998
0.07574857 0.27458858 1.6569998
0.083954677 0.27585107 1.6569999
0.095948197 0.27458858 1.6569999
0.10415429 0.27458858 1.6569998
0.11505749 0.27430165 1.6569997
0.12624763 0.27458858 1.6569998
0.1357162 0.27458858 1.6569998
0.14202857 0.27458858 1.6570001
0.1657 0.27774477 1.6570001
0.1704343 0.27774477 1.6570001
0.025249522 0.28366262 1.6569998
0.034718096 0.28405714 1.6569998
0.042608574 0.28090096 1.6570001
0.055233333 0.28405714 1.6569997
0.06628 0.28405714 1.6569998
0.07574857 0.28405714 1.6569998
0.084822625 0.28445166 1.6569998
0.094685718 0.28090096 1.6570001
0.11993524 0.28247905 1.6570001
0.12664215 0.28366262 1.6569998
0.1357162 0.28405714 1.6569998
0.14202857 0.28405714 1.6570001
0.1672781 0.28090096 1.6570001
0.028405715 0.29036954 1.6570001
0.035349332 0.291632 1.6569999
0.045238733 0.29878604 1.6570001
0.055233337 0.29510382 1.6569997
0.066280007 0.29510382 1.6569997
0.075397879 0.29492846 1.6569998
0.084165089 0.29510382 1.6569999
0.12940381 0.29194763 1.6570001
0.13634744 0.291632 1.6569999
0.14518477 0.29615587 1.6569999
0.15465333 0.29826 1.6569999
0.16412191 0.29713279 1.6569998
0.20725651 0.29878604 1.6570001
0.21462096 0.29668191 1.6569998
0.22408952 0.29826 1.6569999
0.28405714 0.29668191 1.6570001
0.39515507 0.29857561 1.6569999
0.05681143 0.30299431 1.6570001
0.067332067 0.30509841 1.6569999
0.076274604 0.30615047 1.6569999
0.083639055 0.3045724 1.6570001
0.15591581 0.30488801 1.6569999
0.16538438 0.30488801 1.6569999
0.17359048 0.3061505 1.6570001
0.18621527 0.30705222 1.6569998
0.19568382 0.30615047 1.6569998
0.20515239 0.30615047 1.6569998
0.21462095 0.30615047 1.6569998
0.22251143 0.30615047 1.6569999
0.39768001 0.30772859 1.6570001
0.4008362 0.30772859 1.6570001
0.082060955 0.31404096 1.6570001
0.11677905 0.31561905 1.6570001
0.14597382 0.3164081 1.6570001
0.15591581 0.31688151 1.6569999
0.16412191 0.31561902 1.6569998
0.17253841 0.3166711 1.6570001
0.18621525 0.31561902 1.6569998
0.19568382 0.31561902 1.6569998
0.20515239 0.31561902 1.6569998
0.21514697 0.31509301 1.6569999
0.22251144 0.31404096 1.6570001
0.28405714 0.31719711 1.6569999
0.29352573 0.31877524 1.6570001
0.38821143 0.31877524 1.6570001
0.39136764 0.31561905 1.6570001
0.4008362 0.31246287 1.6570001
0.094685718 0.32824382 1.6570001
0.1357162 0.32824382 1.6570001
0.145816 0.32445639 1.6569999
0.15465333 0.32508764 1.6569998
0.16412191 0.32469311 1.6569998
0.17477405 0.32627121 1.6569998
0.18621525 0.32508764 1.6569998
0.19568382 0.32508764 1.6569998
0.20515239 0.32508764 1.6569998
0.21777715 0.32824382 1.6570001
0.22566763 0.32824382 1.6570001
0.25565144 0.32824382 1.6570001
0.26196381 0.32824382 1.6570001
0.2835311 0.32403558 1.6569999
0.29247367 0.3229835 1.6570001
0.38715935 0.32508764 1.6570001
0.39136764 0.32193145 1.6570001
0.094685718 0.33140001 1.6570001
0.1357162 0.33455622 1.6570001
0.14676286 0.33455622 1.6569999
0.15420245 0.33455619 1.6569998
0.16175477 0.33534524 1.6570001
0.17832476 0.33455622 1.6569999
0.18621525 0.33455619 1.6569998
0.19568382 0.33455622 1.6569998
0.20515239 0.33455622 1.6569998
0.21356888 0.33666036 1.6570001
0.22487858 0.33455622 1.6570001
0.23491076 0.33590889 1.6569998
0.25628269 0.33581871 1.6569999
0.26196381 0.33613431 1.6570001
0.27616668 0.33771241 1.6570001
0.28405714 0.33140001 1.6570001
0.29352573 0.33455622 1.6570001
0.38821143 0.33140001 1.6570001
0.39294574 0.33771241 1.6570001
0.13729429 0.34086859 1.6570001
0.14676286 0.34086859 1.6570001
0.1541273 0.34297273 1.6569999
0.16285944 0.34276229 1.6569999
0.17832476 0.34086859 1.6570001
0.18660979 0.34363025 1.6569998
0.19568382 0.34402478 1.6569998
0.20515239 0.34402478 1.6569998
0.21409492 0.34402478 1.6569999
0.22408952 0.34560287 1.6569999
0.23566222 0.34507683 1.6569998
0.24618286 0.34402478 1.6570001
0.25880763 0.34560287 1.6570001
0.26638252 0.34402478 1.6569999
0.27458858 0.34402478 1.6569998
0.28405714 0.3435739 1.6569998
0.29289448 0.34465602 1.6569999
0.39452383 0.34086859 1.6570001
0.16306984 0.35244128 1.6570001
0.18810897 0.35286209 1.6569999
0.19505258 0.35159963 1.6569999
0.21777715 0.35033715 1.6570001
0.22437645 0.35521489 1.6569997
0.23513623 0.3550714 1.6569997
0.24663377 0.35755131 1.6569998
0.25565144 0.35728079 1.6569999
0.2663036 0.35625505 1.6569998
0.27458858 0.35507146 1.6569997
0.28405714 0.35454538 1.6569999
0.29352573 0.35755131 1.6569998
0.30615047 0.35822764 1.6569999
0.31404096 0.35980573 1.6570001
0.39347178 0.3555975 1.6569998
0.19568382 0.36296192 1.6570001
0.22448404 0.36651266 1.6569998
0.23513621 0.3661181 1.6569997
0.24618289 0.36611813 1.6569998
0.25525692 0.36651266 1.6569998
0.26617208 0.36506605 1.6570001
0.27503946 0.36521634 1.6569998
0.28405714 0.36738056 1.6569999
0.29589286 0.3673017 1.6569998
0.30615047 0.36651266 1.6569998
0.31404093 0.3661181 1.6569999
0.39452383 0.36296192 1.6570001
0.18937144 0.37558669 1.6570001
0.21619906 0.3724305 1.6570001
0.22356349 0.37453464 1.6569999
0.23513621 0.37558672 1.6569997
0.24618289 0.37558672 1.6569998
0.25407335 0.37558672 1.6569999
0.27774477 0.37558669 1.6570001
0.28405714 0.37558672 1.6569998
0.29352573 0.37558672 1.6569998
0.31404093 0.37558672 1.6569999
0.37874287 0.37874287 1.6570001
0.38505521 0.37874284 1.6570001
0.39294574 0.37874287 1.6570001
0.14518477 0.38821143 1.6570001
0.15149716 0.38663334 1.6570001
0.1704343 0.38505524 1.6570001
0.18810897 0.38568649 1.6569999
0.19568382 0.38505527 1.6569998
0.20388992 0.38505524 1.6569999
0.23724033 0.38400319 1.6569999
0.24618289 0.38505527 1.6569998
0.25565144 0.38505527 1.6569998
0.2632263 0.38442403 1.6569999
0.27774477 0.38663334 1.6570001
0.28405714 0.38505527 1.6569998
0.29467341 0.38534221 1.6569997
0.30615047 0.38663337 1.6569999
0.31372532 0.38442403 1.6569999
0.37769079 0.38295111 1.6570001
0.38505527 0.38505527 1.6569998
0.39362207 0.38550615 1.6569998
0.14644724 0.39389259 1.6569999
0.15375157 0.39452383 1.6569998
0.18779334 0.39294574 1.6570001
0.19568381 0.39263013 1.6569999
0.20515239 0.39452383 1.6569998
0.21304286 0.39452383 1.6570001
0.23987049 0.39136764 1.6570001
0.24618286 0.39215669 1.6570001
0.25249526 0.39294574 1.6570001
0.27774477 0.39294574 1.6570001
0.28405714 0.39412931 1.6569998
0.29447258 0.39389259 1.6569998
0.30615047 0.39412931 1.6569998
0.31404093 0.39452383 1.6569999
0.37621793 0.39326137 1.6569999
0.38505527 0.39452383 1.6569998
0.39491835 0.39412931 1.6569998
0.14518477 0.40399241 1.6570001
0.15149716 0.40241429 1.6570001
0.19884001 0.4008362 1.6570001
0.20515239 0.40399241 1.6569998
0.21146476 0.40399241 1.6570001
0.27301049 0.4008362 1.6570001
0.28090096 0.4008362 1.6570001
0.3061505 0.40241429 1.6570001
0.31561905 0.40294036 1.6570001
0.32587668 0.40635955 1.6570001
0.33245206 0.40609655 1.6570001
0.34086859 0.4071486 1.6570001
0.38442403 0.4027299 1.6569999
0.20199619 0.41030478 1.6570001
0.31798619 0.41503906 1.6570001
0.32508761 0.41503906 1.6569997
0.3336544 0.41391185 1.6569998
0.34192064 0.41398701 1.6569999
0.35875368 0.41135684 1.6570001
0.37587366 0.41546944 1.6569997
0.38189903 0.41451302 1.6570001
0.3166711 0.42608571 1.6570001
0.32193145 0.42292953 1.6570001
0.36927429 0.42766383 1.6570001
0.37558672 0.42608571 1.6569998
0.3854498 0.42569119 1.6569998
0.39294574 0.42608571 1.6569999
0.24933906 0.4355543 1.6570001
0.25880763 0.4355543 1.6570001
0.26196381 0.43713239 1.6570001
0.27774477 0.43871048 1.6570001
0.28090096 0.43871048 1.6570001
0.30930668 0.43239811 1.6570001
0.31404093 0.4355543 1.6569999
0.36674935 0.4336606 1.6569999
0.37558672 0.4339762 1.6569999
0.3854498 0.43594882 1.6569998
0.39263013 0.43492308 1.6569999
0.25880763 0.44502291 1.6570001
0.26512003 0.44502285 1.6569998
0.27458858 0.44541737 1.6569998
0.28195301 0.44397083 1.6570001
0.31877524 0.44344479 1.6570001
0.32445639 0.44691658 1.6569999
0.34718096 0.44502288 1.6570001
0.37684917 0.44439164 1.6569999
0.26512 0.45133528 1.6570001
0.27379954 0.4521243 1.6570001
0.32508764 0.45409688 1.6569998
0.33455622 0.45449141 1.6569998
0.3444193 0.45488593 1.6569998
0.35454544 0.45659554 1.6569999
0.36927429 0.45764762 1.6570001
0.37453461 0.45449147 1.6570001
0.32382518 0.46459126 1.6569999
0.33455619 0.46396002 1.6569998
0.3444193 0.46356547 1.6569998
0.35428238 0.46277642 1.6569998
0.36485562 0.46269757 1.6569999
0.3724305 0.46080384 1.6570001
0.32508764 0.47185048 1.6570001
0.33525759 0.47377926 1.6569998
0.34339353 0.47279733 1.6569999
0.35349333 0.47027239 1.6570001
0.2351362 0.48920953 1.6570001
0.32508764 0.48920953 1.6570001
0.38663334 0.48447526 1.6570001
0.32508764 0.49236572 1.6570001
0.047342859 0.51761526 1.6570001
0.050499048 0.51761526 1.6570001
0.064701907 0.51761526 1.6570001
0.1316143 -0.012685714 1.6650001
-0.031714287 -0.0047571426 1.6650001
-0.024918368 -0.0054367348 1.6650001
-0.015857143 -0.0095142862 1.6650001
-0.0055499999 -0.0063428571 1.6650001
0.0038057144 -0.0069771432 1.6650002
0.012685714 -0.0063428571 1.6650001
0.11575714 -0.0095142862 1.6650001
0.13478571 -0.0095142862 1.6650001
0.14271429 -0.0095142862 1.6650001
-0.050742857 0.0095142862 1.6650001
-0.043765716 0.0082457149 1.6650002
-0.03647143 0.0063428576 1.6650001
-0.061049998 0.015857143 1.6650001
-0.05391429 0.015857143 1.6650001
-0.044399999 0.015857143 1.6650001
-0.03647143 0.015857143 1.6650001
-0.061842859 0.022200001 1.6650001
-0.05391429 0.02537143 1.6650001
-0.044399999 0.02537143 1.6650001
-0.03647143 0.02537143 1.6650001
-0.05201143 0.034251429 1.6650002
-0.044399999 0.034885719 1.6650001
-0.036788575 0.034251429 1.6650002
-0.044399999 0.044400003 1.6650001
-0.036788575 0.045034289 1.6650002
-0.044399999 0.053517859 1.6650001
-0.03647143 0.05391429 1.6650001
-0.043342859 0.063957147 1.6650001
-0.036244899 0.064334698 1.6650001
-0.044400003 0.07294286 1.6650001
-0.034885716 0.075321428 1.6650001
-0.033300001 0.085628577 1.6650001
-0.028542858 0.082457148 1.6650001
-0.028542858 0.10782857 1.6650001
-0.03647143 0.11575714 1.6650001
-0.028542858 0.111 1.6650001
-0.03647143 0.12685715 1.6650001
-0.036788575 0.13446859 1.6650002
-0.033300001 0.14509287 1.6650001
-0.026640002 0.14652 1.6650002
-0.031714287 0.15540002 1.6650001
-0.026957143 0.15540001 1.6650001
-0.031714287 0.16332859 1.6650001
-0.026640002 0.16618285 1.6650002
-0.031714287 0.17284286 1.6650001
-0.025824491 0.17442858 1.6650001
-0.017442858 0.17760001 1.6650001
-0.031714287 0.18394287 1.6650001
-0.024975002 0.18354645 1.6650001
-0.016763266 0.18439592 1.6650001
-0.0079285717 0.1871143 1.6650001
-0.031714287 0.19028573 1.6650001
-0.025371427 0.19028573 1.6650001
-0.01649143 0.19440857 1.6650002
-0.0079285717 0.19187143 1.6650001
-0.015857143 0.20667143 1.6650001
-0.0063428576 0.20772858 1.6650001
-0.013954286 0.21502288 1.6650002
-0.0063428576 0.21565713 1.6650001
0.026005715 0.21756001 1.6650002
0.032771427 0.21777143 1.6650001
-0.0063428576 0.22517143 1.6650001
0.0095142862 0.22517143 1.6650001
0.016253572 0.224775 1.6650001
0.02537143 0.22517143 1.6650001
0.033300001 0.22517143 1.6650001
-0.012685714 0.2331 1.6650001
-0.0063428576 0.23468572 1.6650001
0.0082457149 0.23532 1.6650002
0.016253572 0.23508215 1.6650001
0.02537143 0.23468572 1.6650001
0.033979595 0.23423263 1.6650001
0.041228574 0.23151429 1.6650001
-0.0047571431 0.24420001 1.6650001
0.0047571431 0.24419999 1.6650003
0.015460716 0.24380356 1.6650001
0.02537143 0.24420002 1.6650001
0.033300001 0.24102858 1.6650001
0.0069771432 0.25181144 1.6650002
0.015857143 0.25371432 1.6650001
0.025824491 0.25280818 1.6650001
0.033300001 0.25371432 1.6650001
0.39801431 0.25688574 1.6650001
0.015857143 0.26005715 1.6650001
0.027183676 0.2654939 1.6650001
0.034432657 0.26504081 1.6650001
0.04479643 0.26560718 1.6650001
0.053914286 0.26438186 1.6650002
0.06303215 0.26362506 1.6650001
0.077171437 0.26534286 1.6650001
0.085628577 0.26481432 1.6650003
0.092764288 0.26719287 1.6650001
0.016650001 0.27670714 1.6650001
0.024102857 0.27654859 1.6650002
0.033828571 0.27380002 1.6650001
0.045457143 0.27485716 1.6650001
0.052857142 0.27380002 1.6650001
0.060257144 0.27274287 1.6650001
0.087214291 0.27432859 1.6650001
0.093557149 0.27591428 1.6650001
0.11734286 0.27908573 1.6650001
0.0095142862 0.28225714 1.6650001
0.015857143 0.28542855 1.6650001
0.025371429 0.2886 1.6650001
0.044853061 0.28633469 1.6650001
0.088800006 0.28225714 1.6650001
0.095142864 0.28582498 1.6650001
0.10465714 0.28542855 1.6650001
0.11417142 0.28542855 1.6650001
0.1221 0.2886 1.6650001
0.018235715 0.29414999 1.6650001
0.024975002 0.29533929 1.6650001
0.034092858 0.29732144 1.6650001
0.044399999 0.29454643 1.6650001
0.077171437 0.29705715 1.6650001
0.086262867 0.29557714 1.6650002
0.095142864 0.29494286 1.6650001
0.10465714 0.29494286 1.6650001
0.11417142 0.29494286 1.6650001
0.12368572 0.29494286 1.6650001
0.13446859 0.29748002 1.6650002
0.14271429 0.2981143 1.6650001
0.019028572 0.30128571 1.6650001
0.027485713 0.30234286 1.6650001
0.034885716 0.30287144 1.6650001
0.044400003 0.30445713 1.6650002
0.05391429 0.30636001 1.6650002
0.061842859 0.30762857 1.6650001
0.076114289 0.30604285 1.6650001
0.08689715 0.30509144 1.6650002
0.095142864 0.30445716 1.6650001
0.1036 0.30340001 1.6650001
0.11507755 0.3040041 1.6650001
0.12368572 0.30445716 1.6650001
0.13464156 0.30416885 1.6650002
0.14543267 0.30536327 1.6650001
0.15381429 0.30762857 1.6650001
0.16332859 0.30762857 1.6650001
0.034885716 0.31080002 1.6650001
0.045985717 0.3131786 1.6650001
0.05391429 0.31397146 1.6650001
0.064581819 0.3142598 1.6650002
0.075661235 0.31487754 1.6650001
0.086534701 0.31351835 1.6650001
0.094236746 0.31351838 1.6650001
0.10307143 0.31397143 1.6650001
0.1147 0.31397143 1.6650001
0.12368572 0.31397146 1.6650001
0.13446859 0.31397146 1.6650002
0.14588571 0.31351838 1.6650001
0.1538143 0.31397143 1.6650001
0.16332859 0.31080002 1.6650001
0.047571432 0.32507145 1.6650001
0.05391429 0.32507148 1.6650003
0.065014288 0.32507145 1.6650004
0.076402605 0.3249273 1.6650002
0.085628569 0.32507139 1.6650003
0.094438106 0.32524762 1.6650001
0.10465715 0.32507142 1.6650003
0.11417142 0.32507139 1.6650003
0.12328929 0.32467502 1.6650001
0.13468002 0.32475427 1.6650004
0.14271429 0.32348573 1.6650001
0.1649143 0.32982859 1.6650001
0.39416328 0.32620409 1.6650001
0.047571432 0.33458573 1.6650001
0.05391429 0.3345857 1.6650001
0.063825004 0.33537856 1.6650001
0.077020414 0.33617142 1.6650001
0.085628569 0.33617142 1.6650001
0.095142871 0.33656785 1.6650001
0.10465714 0.33617142 1.6650001
0.11337858 0.33379287 1.6650001
0.12368572 0.33617142 1.6650001
0.13425714 0.33617142 1.6650001
0.14271429 0.33617148 1.6650001
0.15698573 0.33617145 1.6650001
0.16681716 0.33553714 1.6650002
0.17284286 0.33617142 1.6650001
0.39484286 0.33458573 1.6650001
0.060257144 0.34251431 1.6650001
0.079285719 0.34251431 1.6650001
0.087742865 0.34357142 1.6650001
0.095142864 0.3441 1.6650001
0.12685715 0.3441 1.6650001
0.13415144 0.34632 1.6650002
0.14543267 0.34659186 1.6650001
0.15645716 0.34780002 1.6650001
0.16650002 0.34727144 1.6650001
0.17403215 0.34608215 1.6650001
0.18182857 0.34780002 1.6650001
0.21248572 0.34885716 1.6650001
0.14778857 0.35519999 1.6650002
0.15540002 0.35520002 1.6650001
0.16544287 0.3557286 1.6650001
0.17442858 0.35520002 1.6650001
0.18303676 0.35565308 1.6650001
0.19742143 0.35757858 1.6650001
0.20574644 0.35480359 1.6650001
0.2152607 0.35559645 1.6650001
0.222 0.35520002 1.6650001
0.148 0.3626 1.6650001
0.15540002 0.36471432 1.6650001
0.1649143 0.3642613 1.6650001
0.17125715 0.36154288 1.6650001
0.18552858 0.36154288 1.6650001
0.19557144 0.36400959 1.6650001
0.20614287 0.36471432 1.6650001
0.21565713 0.36471432 1.6650001
0.222 0.36471429 1.6650001
0.26428577 0.36577144 1.6650001
0.30762857 0.36471429 1.6650001
0.14747143 0.37740001 1.6650001
0.15539999 0.37740001 1.6650001
0.16412143 0.37581429 1.6650001
0.17442858 0.37740001 1.6650001
0.1834898 0.37513468 1.6650001
0.19599429 0.37422857 1.6650002
0.2065393 0.37462503 1.6650001
0.21520407 0.37422863 1.6650001
0.22834286 0.37740001 1.6650001
0.26481432 0.37486285 1.6650002
0.27500817 0.37468168 1.6650001
0.30445716 0.37581432 1.6650001
0.31080002 0.37581432 1.6650001
0.053914286 0.38691431 1.6650001
0.12685715 0.38691431 1.6650001
0.1316143 0.38691431 1.6650001
0.14747143 0.3837429 1.6650001
0.15540002 0.38374287 1.6650001
0.16491431 0.38374284 1.6650001
0.17482501 0.38334644 1.6650001
0.18354644 0.38334644 1.6650001
0.19536002 0.38184005 1.6650002
0.20667143 0.38321432 1.6650001
0.21565714 0.38374287 1.6650001
0.22517145 0.38413927 1.6650001
0.23362857 0.38585719 1.6650001
0.26640004 0.38215718 1.6650001
0.27500817 0.38374287 1.6650001
0.28542858 0.38374287 1.6650001
0.30445716 0.38215718 1.6650001
0.31080002 0.38215715 1.6650001
0.053914286 0.39008573 1.6650001
0.11734286 0.39167145 1.6650001
0.12527144 0.39246428 1.6650001
0.13584286 0.39378572 1.6650003
0.14482857 0.39484286 1.6650001
0.15777859 0.39325714 1.6650001
0.1649143 0.39484286 1.6650003
0.17442858 0.3944104 1.6650002
0.18288574 0.39537144 1.6650001
0.19536 0.39896575 1.6650002
0.20931429 0.39008573 1.6650001
0.21597429 0.39452571 1.6650002
0.22517143 0.39484286 1.6650003
0.23423266 0.39235106 1.6650001
0.24356572 0.39833146 1.6650002
0.2542429 0.39748573 1.6650001
0.2652674 0.39552245 1.6650003
0.27485716 0.39537144 1.6650001
0.28542858 0.39484286 1.6650001
0.2981143 0.39960003 1.6650001
0.30445713 0.39960003 1.6650001
0.39325717 0.39960003 1.6650001
0.13954286 0.40435714 1.6650001
0.14747143 0.40515 1.6650001
0.1559286 0.40594289 1.6650001
0.16332859 0.40435714 1.6650001
0.17760001 0.40435714 1.6650001
0.18484899 0.40639594 1.6650001
0.1946104 0.40623119 1.6650002
0.21724285 0.40594289 1.6650001
0.22426532 0.40639594 1.6650001
0.23151429 0.4091143 1.6650001
0.25498289 0.40530857 1.6650002
0.26481435 0.40594289 1.6650003
0.27636737 0.406849 1.6650001
0.28588161 0.40594289 1.6650001
0.29494286 0.40594289 1.6650001
0.30445716 0.40639594 1.6650001
0.31460571 0.40784574 1.6650002
0.38691431 0.4091143 1.6650001
0.3946667 0.4055905 1.6650001
0.1471543 0.41482288 1.6650002
0.15222858 0.41228572 1.6650001
0.18473573 0.41307858 1.6650001
0.19504286 0.41545722 1.6650003
0.2065393 0.41585362 1.6650001
0.21565713 0.41545719 1.6650001
0.222 0.41545713 1.6650001
0.23468572 0.41862857 1.6650001
0.24420001 0.41862857 1.6650001
0.25530002 0.41704288 1.6650001
0.26544863 0.4160915 1.6650002
0.27591431 0.41545719 1.6650001
0.28415999 0.41418856 1.6650002
0.29547143 0.41545716 1.6650001
0.30572572 0.41609144 1.6650002
0.31397146 0.41545719 1.6650001
0.38612145 0.41624999 1.6650001
0.39325717 0.41545719 1.6650001
0.14588572 0.42180002 1.6650001
0.15328573 0.42708573 1.6650001
0.1871143 0.42497146 1.6650001
0.19345716 0.42361227 1.6650001
0.20402856 0.42285717 1.6650001
0.22834286 0.42655715 1.6650001
0.23521429 0.42602858 1.6650001
0.24419999 0.4249714 1.6650001
0.25331789 0.42497146 1.6650001
0.26513144 0.42750859 1.6650002
0.27908573 0.42497146 1.6650001
0.28542858 0.42687431 1.6650002
0.29454643 0.42497146 1.6650001
0.30445716 0.42497143 1.6650001
0.31306529 0.4249714 1.6650001
0.38691431 0.42180002 1.6650001
0.3957943 0.42243433 1.6650002
0.15222858 0.43131429 1.6650001
0.16808574 0.43448576 1.6650001
0.17125715 0.43765715 1.6650001
0.1871143 0.43448576 1.6650001
0.19028573 0.43131429 1.6650001
0.22834286 0.43131429 1.6650001
0.23547858 0.43369287 1.6650001
0.24420002 0.4344857 1.6650001
0.25411075 0.43408927 1.6650001
0.2654486 0.43385142 1.6650002
0.27591431 0.4344857 1.6650001
0.28542855 0.4344857 1.6650001
0.29494286 0.4344857 1.6650001
0.30445716 0.4344857 1.6650001
0.31185716 0.43342856 1.6650001
0.38374287 0.43290001 1.6650001
0.16808572 0.44400001 1.6650001
0.17125715 0.44400001 1.6650001
0.21882857 0.44717145 1.6650001
0.22517143 0.44479287 1.6650001
0.23362857 0.44294286 1.6650001
0.24465306 0.44309387 1.6650001
0.25371432 0.44400001 1.6650001
0.26534286 0.44082859 1.6650001
0.27485716 0.44188571 1.6650001
0.28733143 0.44336572 1.6650002
0.29494286 0.44400004 1.6650001
0.30445716 0.44400001 1.6650001
0.31351838 0.44490615 1.6650001
0.38532859 0.44558573 1.6650001
0.39167145 0.44400001 1.6650001
0.19798777 0.45532656 1.6650001
0.20614286 0.45192859 1.6650001
0.21565714 0.45034286 1.6650001
0.22596429 0.45272142 1.6650001
0.23785715 0.45985717 1.6650001
0.24737144 0.45985717 1.6650001
0.25371432 0.45509997 1.6650003
0.26428574 0.4577429 1.6650001
0.27654856 0.4585886 1.6650002
0.28542855 0.45509997 1.6650003
0.29414999 0.45351431 1.6650001
0.30445716 0.45509997 1.6650003
0.31397146 0.45306125 1.6650001
0.32158285 0.45605144 1.6650002
0.37740001 0.45985717 1.6650001
0.38268569 0.45527622 1.6650001
0.1665 0.46620002 1.6650001
0.17442858 0.46620002 1.6650002
0.23785715 0.46302858 1.6650001
0.24631429 0.46831429 1.6650001
0.25280818 0.46574697 1.6650001
0.26481432 0.46302858 1.6650001
0.27682042 0.46574697 1.6650001
0.28542855 0.46567145 1.6650001
0.29177144 0.46620002 1.6650001
0.30445716 0.46620002 1.6650001
0.31397146 0.46778572 1.6650001
0.3248449 0.46574697 1.6650001
0.34251431 0.46937144 1.6650001
0.35519999 0.46937144 1.6650001
0.36471429 0.46778572 1.6650001
0.37468162 0.46710613 1.6650001
0.38334644 0.46659645 1.6650001
0.39484286 0.46937144 1.6650001
0.1665 0.47254288 1.6650001
0.17506287 0.47381145 1.6650002
0.18077144 0.4741286 1.6650001
0.23785715 0.47730002 1.6650001
0.24420001 0.4761107 1.6650001
0.25054288 0.47730002 1.6650001
0.28225714 0.47888574 1.6650001
0.29705715 0.47782859 1.6650001
0.30491021 0.47480816 1.6650001
0.31159288 0.47571433 1.6650001
0.32586432 0.47571427 1.6650001
0.333 0.47888574 1.6650001
0.34568572 0.47761717 1.6650002
0.35520002 0.4761107 1.6650001
0.36471432 0.47571427 1.6650001
0.3742286 0.47571427 1.6650001
0.38374287 0.47571427 1.6650001
0.39325714 0.47571427 1.6650001
0.23468572 0.48840001 1.6650001
0.24420001 0.48840001 1.6650001
0.27908573 0.4852286 1.6650001
0.28384286 0.4852286 1.6650001
0.29652858 0.48205715 1.6650001
0.32665715 0.4852286 1.6650001
0.33577499 0.485625 1.6650001
0.34608215 0.485625 1.6650001
0.35520002 0.4852286 1.6650001
0.36471432 0.4852286 1.6650001
0.37422854 0.4852286 1.6650001
0.38283673 0.48477551 1.6650001
0.39325717 0.48285002 1.6650001
0.22622858 0.49474287 1.6650001
0.23423266 0.49564901 1.6650001
0.24380358 0.4951393 1.6650001
0.25054288 0.49474287 1.6650001
0.32665715 0.49519593 1.6650001
0.33617142 0.49474287 1.6650001
0.34568572 0.49474287 1.6650001
0.35520002 0.49474287 1.6650001
0.36471432 0.49474287 1.6650001
0.3742286 0.49474287 1.6650001
0.38374284 0.49474287 1.6650001
0.39008573 0.49474287 1.6650001
0.23627143 0.5042572 1.6650001
0.24419999 0.5042572 1.6650001
0.25244576 0.50362289 1.6650002
0.32665715 0.5042572 1.6650001
0.33617142 0.50425714 1.6650001
0.34568572 0.50425714 1.6650001
0.35520002 0.5042572 1.6650001
0.36471432 0.5042572 1.6650001
0.3742286 0.50425714 1.6650001
0.38374287 0.5042572 1.6650001
0.39008573 0.5042572 1.6650001
0.05391429 0.51694286 1.6650001
0.24578571 0.51060003 1.6650001
0.32665718 0.51377147 1.6650001
0.33617142 0.51377147 1.6650001
0.34568572 0.51377147 1.6650001
0.35520002 0.51337504 1.6650001
0.36511075 0.51337504 1.6650001
0.37462503 0.51337504 1.6650001
0.38419595 0.51286536 1.6650001
0.39008573 0.51060003 1.6650001
0.18235715 0.52487147 1.6650001
0.21407142 0.5201143 1.6650001
0.32784644 0.52606076 1.6650001
0.33617142 0.52487153 1.6650003
0.3441 0.52487153 1.6650001
0.36682859 0.52117145 1.6650001
0.37359431 0.52201718 1.6650002
0.32982859 0.53280002 1.6650001
0.33775717 0.53438574 1.6650001
0.34251431 0.53597146 1.6650001
0.34568572 0.54865718 1.6650001
0.34568572 0.55182856 1.6650001
-0.035053335 -0.0047800001 1.6730001
-0.012746667 -0.0063733333 1.673
-0.0095600002 -0.0063733342 1.673
-0.062140003 0.0079666674 1.6730001
-0.054173335 0.0069044451 1.6730002
-0.045410004 0.0039833337 1.6730001
-0.035053335 0 1.6730001
-0.07010667 0.015933335 1.6730001
-0.065645345 0.015933335 1.6730001
-0.063733339 0.026024446 1.6730002
-0.062140003 0.033460002 1.6730001
-0.056563333 0.035850003 1.6730001
-0.054173335 0.044613335 1.6730002
-0.07010667 0.054173335 1.6730001
-0.063733339 0.055448003 1.6730001
-0.054173335 0.054173343 1.6730002
-0.044613335 0.057360001 1.6730001
-0.07010667 0.063733339 1.673
-0.063733347 0.063733339 1.6730002
-0.054173335 0.063733339 1.6730002
-0.04541 0.064530008 1.6730001
-0.06054667 0.07010667 1.6730001
-0.052048896 0.073824443 1.6730002
-0.045011669 0.076081671 1.6730002
-0.037443332 0.076480001 1.6730001
-0.043551113 0.084977783 1.6730002
-0.036965333 0.085402668 1.6730001
-0.04142667 0.097193331 1.6730001
-0.036328003 0.096237339 1.6730001
-0.04142667 0.10516001 1.673
-0.036646668 0.10516002 1.6730002
-0.04142667 0.11790667 1.6730001
-0.036646668 0.11153334 1.6730001
-0.042488892 0.12640445 1.673
-0.036646668 0.12268668 1.6730001
-0.042223338 0.13304333 1.6730001
-0.036646668 0.13383999 1.6730001
-0.04142667 0.14021334 1.6730001
-0.036115557 0.14605556 1.6730002
-0.036327999 0.15550934 1.6730001
-0.034256667 0.16650334 1.6730001
-0.034256667 0.17606334 1.6730001
-0.02868 0.18801335 1.6730001
-0.03186667 0.19598001 1.6730001
-0.025493333 0.19598 1.6730002
-0.03186667 0.20394666 1.673
-0.025493333 0.20394668 1.6730002
-0.03186667 0.21350668 1.673
-0.025203638 0.21466546 1.6730002
-0.018482666 0.21605602 1.6730001
-0.015022858 0.22579812 1.6730002
-0.016464446 0.23581333 1.6730002
-0.015022858 0.24582855 1.6730002
-0.0095600002 0.24537335 1.673
-0.022306668 0.25174668 1.6730001
-0.015933333 0.25174668 1.673
-0.005311111 0.25387111 1.6730002
0.0031866671 0.25629908 1.6730002
0.023900002 0.25812 1.6730001
-0.0031866669 0.26130667 1.6730001
0.0068285717 0.26358286 1.6730002
0.015933333 0.26489168 1.6730002
0.023103334 0.26369667 1.6730001
0.03186667 0.2660867 1.6730001
-0.0031866669 0.27724001 1.6730001
0.0069044451 0.27511558 1.6730002
0.015933333 0.2735981 1.6730002
0.022306668 0.27245998 1.6730001
-0.0031866666 0.28361335 1.673
0.0055766669 0.28494114 1.6730002
0.012746667 0.28042668 1.6730001
0.0095600002 0.29317334 1.6730001
0.014021334 0.29699737 1.6730001
0.015933335 0.30591998 1.6730002
0.024431111 0.30698225 1.6730002
0.035053335 0.30910668 1.673
0.043020003 0.30910668 1.6730001
0.10728445 0.30804446 1.673
0.11153334 0.30751336 1.6730001
0.13702667 0.30910668 1.6730001
0.0095600002 0.31866667 1.6730001
0.015933333 0.31494889 1.6730002
0.027086668 0.3138867 1.6730001
0.035508573 0.31547999 1.6730002
0.043338668 0.31611735 1.6730001
0.098786667 0.31707335 1.6730001
0.10834667 0.31547999 1.673
0.11153334 0.3138867 1.6730001
0.13702667 0.31547999 1.6730001
0.043020006 0.32504001 1.6730002
0.073293336 0.32822669 1.6730001
0.098786667 0.32344669 1.6730001
0.12534223 0.32610223 1.673
0.0079666674 0.33141336 1.6730001
0.01434 0.33141336 1.6730001
0.043020006 0.3346 1.6730002
0.071700007 0.3346 1.6730001
0.11631334 0.33778667 1.6730001
0.12428001 0.33141336 1.6730001
0.045250669 0.3435227 1.6730001
0.054173335 0.34416005 1.6730002
0.064643815 0.34461528 1.6730002
0.07364741 0.34486818 1.6730002
0.083915561 0.34628448 1.673
0.10516 0.34575334 1.6730002
0.11517524 0.34324956 1.6730002
0.12268668 0.34575334 1.6730001
0.045410004 0.35132998 1.6730001
0.054173339 0.35180801 1.6730001
0.06054667 0.35053334 1.6730001
0.079666667 0.35053334 1.6730001
0.087314665 0.35244536 1.6730001
0.095998332 0.35332164 1.6730002
0.10324802 0.35308272 1.6730001
0.11790667 0.35212666 1.6730001
0.12467834 0.35332167 1.6730002
0.13384001 0.35531333 1.6730002
0.14276268 0.35563201 1.6730001
0.0031866669 0.36646667 1.6730001
0.07010667 0.36965334 1.6730001
0.089226671 0.36009336 1.6730001
0.097724438 0.3611556 1.673
0.11631334 0.36487332 1.6730002
0.12682934 0.365192 1.6730001
0.13384001 0.36487332 1.6730002
0.1434 0.36588728 1.6730002
0.16570668 0.36805999 1.6730001
0.17566502 0.36686498 1.6730002
0.18437144 0.36737713 1.6730002
0.19279334 0.36965334 1.6730001
0.21032001 0.36009336 1.6730001
0.0039833337 0.37523001 1.6730001
0.017526668 0.37602666 1.6730002
0.022306668 0.37602669 1.6730001
0.054810666 0.37793869 1.6730001
0.065645345 0.37666401 1.6730001
0.073930666 0.37666401 1.6730001
0.10569111 0.37602666 1.6730002
0.11408267 0.37793866 1.6730001
0.12348334 0.37841666 1.6730001
0.13384001 0.37921333 1.673
0.14658667 0.37538934 1.6730001
0.15614666 0.37443337 1.6730002
0.16634402 0.37475204 1.6730001
0.17526668 0.37443337 1.6730002
0.18642001 0.37284002 1.6730001
0.1912 0.37284002 1.6730001
0.20394668 0.37284002 1.6730001
0.043976001 0.38686138 1.6730001
0.054704446 0.38452446 1.6730002
0.063733339 0.38622403 1.6730001
0.070903338 0.38558668 1.6730001
0.089226671 0.38877335 1.6730001
0.097193331 0.38718003 1.6730001
0.10555834 0.38598502 1.6730002
0.11472 0.38558668 1.6730002
0.12388168 0.38518837 1.6730002
0.13429524 0.38467622 1.6730002
0.14180666 0.38558665 1.6730002
0.15933333 0.38240001 1.6730001
0.056563333 0.39514667 1.6730001
0.062140003 0.39196002 1.6730001
0.07010667 0.39355335 1.6730001
0.089226671 0.39196002 1.6730001
0.097511992 0.39450932 1.6730001
0.10516 0.39355335 1.6730002
0.11418889 0.3951467 1.6730002
0.12300535 0.39578399 1.6730001
0.13224667 0.39833334 1.6730001
0.23740667 0.39833334 1.6730001
0.055766668 0.40152001 1.6730001
0.098786667 0.40152001 1.6730001
0.10834667 0.40789336 1.6730001
0.11365778 0.4057689 1.673
0.12467834 0.40470669 1.6730002
0.13338476 0.40516192 1.6730002
0.1434 0.40789336 1.6730001
0.16889334 0.40630001 1.6730001
0.17399201 0.40534401 1.6730001
0.18164001 0.40630001 1.6730001
0.22944 0.40630001 1.6730001
0.23581332 0.40470669 1.6730002
0.24537335 0.40630004 1.6730002
0.25174668 0.40630001 1.6730001
0.11259556 0.41214225 1.673
0.12428001 0.41267332 1.6730002
0.13384001 0.41267332 1.6730002
0.14180668 0.41426668 1.6730002
0.1572089 0.41532886 1.6730002
0.16570669 0.41426665 1.6730002
0.17526667 0.41426665 1.6730002
0.18323335 0.41745335 1.6730001
0.22784667 0.41586 1.6730001
0.23621167 0.41466498 1.6730002
0.24537335 0.41426665 1.6730002
0.25440225 0.41373554 1.6730002
0.26289999 0.41426668 1.6730001
0.28786221 0.41532889 1.673
0.29636002 0.41586 1.6730001
0.30485776 0.41532889 1.673
0.39833334 0.41267335 1.6730001
0.40311337 0.41426668 1.6730001
0.11551666 0.42143667 1.6730001
0.12189001 0.42303002 1.6730001
0.13702667 0.42223334 1.6730001
0.14722402 0.42382669 1.6730001
0.156545 0.42342836 1.6730002
0.16570666 0.42382669 1.6730002
0.17526667 0.42382669 1.6730002
0.1839162 0.42337146 1.6730002
0.19757333 0.42701334 1.6730001
0.20394668 0.42701334 1.6730001
0.21510002 0.42542005 1.6730002
0.22625335 0.42382669 1.6730002
0.23517601 0.42318934 1.6730001
0.25493336 0.42382669 1.6730001
0.26385599 0.42510137 1.6730001
0.27405334 0.42542002 1.6730002
0.2873311 0.42329559 1.6730002
0.29636002 0.42382669 1.6730001
0.30273333 0.42064002 1.6730001
0.39833334 0.42064002 1.6730001
0.40152001 0.42064002 1.6730001
0.14818001 0.43498001 1.6730002
0.15685481 0.43621927 1.6730002
0.16464445 0.43444893 1.6730002
0.17555636 0.43454549 1.6730002
0.18323335 0.43497998 1.6730002
0.195024 0.43561736 1.6730001
0.20394666 0.43498003 1.6730002
0.21510004 0.43498006 1.6730002
0.22561601 0.43561736 1.6730001
0.23517601 0.43721071 1.6730001
0.27564669 0.43020001 1.6730001
0.078073338 0.44932002 1.6730001
0.14849868 0.44613338 1.6730001
