# .PCD v0.7 - Point Cloud Data file format
VERSION 0.7
FIELDS x y z
SIZE 4 4 4
TYPE F F F
COUNT 1 1 1
WIDTH 1484
HEIGHT 1
VIEWPOINT 0 0 0 1 0 0 0
POINTS 1484
DATA ascii
0.42001334 0.20118286 1.853
-0.045883812 0.21883048 1.853
-0.035295241 0.21412446 1.853
0.43647429 -0.031937145 1.863
0.44357145 -0.034302857 1.863
0.42671573 -0.023952859 1.863
0.43292573 -0.028388573 1.863
0.41873145 -0.014194286 1.863
0.41873145 -0.0053228573 1.863
0.41873145 0 1.863
0.42228001 0.0035485716 1.863
0.41873145 0.015968572 1.863
0.41754857 0.024839999 1.863
0.41518286 0.035485715 1.863
0.41518286 0.042582858 1.863
0.41518286 0.056777146 1.863
0.41518286 0.063874289 1.863
0.41636571 0.074519999 1.863
0.41606998 0.084278569 1.863
0.41636571 0.095811427 1.863
0.41518286 0.10645714 1.863
0.41518286 0.11355429 1.863
0.41518286 0.12420001 1.863
0.41873145 0.13484572 1.863
0.41873145 0.14549144 1.863
0.41873145 0.15613715 1.863
0.41873145 0.16500857 1.863
0.41873145 0.17388003 1.863
0.16678286 0.18807429 1.863
0.17033143 0.18807429 1.863
0.28388575 0.18807429 1.863
0.29098287 0.18807429 1.863
0.41873145 0.18275145 1.863
0.42228001 0.18807429 1.863
0.053228572 0.19517143 1.863
0.097585723 0.19872001 1.863
0.10468285 0.19694573 1.863
0.13484572 0.19872002 1.863
0.14371714 0.19872001 1.863
0.15791143 0.19694573 1.863
0.16323429 0.19162287 1.863
0.2377543 0.19517143 1.863
0.28477287 0.19251001 1.863
0.29098287 0.19694573 1.863
0.31937143 0.19339715 1.863
0.32433945 0.19588116 1.8630002
0.35414743 0.19730058 1.8630002
0.36372858 0.19694573 1.863
0.42227998 0.19517143 1.863
-0.012420001 0.20581715 1.863
-0.0070971432 0.20581715 1.863
0.0035485716 0.20581715 1.863
0.015968572 0.20226859 1.863
0.024840001 0.20226859 1.863
0.035485715 0.20226859 1.863
0.042582858 0.20226859 1.863
0.067422859 0.20226859 1.863
0.072745711 0.20226859 1.863
0.085165717 0.20404287 1.863
0.14904 0.20226859 1.863
0.15258858 0.20226859 1.863
0.40808573 0.20581715 1.863
-0.035485715 0.21291429 1.863
0.43881717 -0.042811431 1.8730001
0.44416857 -0.042811431 1.8730001
0.42573586 -0.033297777 1.8730001
0.43453604 -0.034249146 1.8730001
0.44357395 -0.038054604 1.8730001
0.42526022 -0.02568686 1.8730001
0.41741145 -0.014270477 1.8730001
0.41741145 -0.0053514289 1.8730001
0.41741145 0.0035676192 1.8730001
0.42097905 0.0053514289 1.8730001
0.41741145 0.014270477 1.8730001
0.42097905 0.010702858 1.8730001
0.41741145 0.023189526 1.8730001
0.41384378 0.035676192 1.8730001
0.41384378 0.046379048 1.8730001
0.41384381 0.055298097 1.8730001
0.41384378 0.064217143 1.8730001
0.41503301 0.074919999 1.8730001
0.41384378 0.085622869 1.8730001
0.41562763 0.096325718 1.8730001
0.41741145 0.10346095 1.8730001
0.41384381 0.11238001 1.8730001
0.41384378 0.12486666 1.8730001
0.41651955 0.13467762 1.8730001
0.41562763 0.14627238 1.8730001
0.41622224 0.15459682 1.8730001
0.41741145 0.16411048 1.8730001
0.41741145 0.17481335 1.8730001
0.16232666 0.18908381 1.8730001
0.41741145 0.18194857 1.8730001
0.037459999 0.19978668 1.8730001
0.046379048 0.19859748 1.8730001
0.064217143 0.19978668 1.8730001
0.13556953 0.19621904 1.8730001
0.14984001 0.19800287 1.8730001
0.15519142 0.19621907 1.8730001
0.16054286 0.19265144 1.8730001
0.19621906 0.19978668 1.8730001
0.2425981 0.19621906 1.8730001
0.36211336 0.19621906 1.8730001
0.41741145 0.19621906 1.8730001
0.42097905 0.19621907 1.8730001
0.0017838096 0.2033543 1.8730001
0.010702858 0.2033543 1.8730001
0.028540954 0.2033543 1.8730001
0.032108571 0.2033543 1.8730001
0.07848762 0.2033543 1.8730001
0.083839051 0.2033543 1.8730001
0.41741145 0.2033543 1.8730001
-0.035676189 0.21227333 1.8730001
0.41964 -0.035866667 1.8830001
0.42322668 -0.034073334 1.8830001
0.43398666 -0.037660003 1.8830001
0.44116002 -0.039453335 1.8830001
0.41964 -0.023313334 1.8830001
0.42322668 -0.026900001 1.8830001
0.41605338 -0.014346667 1.883
0.41605335 -0.0053800005 1.8830001
0.41605338 0.0035866669 1.883
0.41515669 0.014346667 1.8830001
0.41426003 0.025106668 1.8830003
0.40888003 0.035866667 1.8830001
0.41246668 0.035866667 1.883
0.40888003 0.044833332 1.8830001
0.41246668 0.044833332 1.8830001
0.40888003 0.053800002 1.883
0.41246668 0.053800002 1.883
0.41246668 0.064560004 1.883
0.41336334 0.076216668 1.8830001
0.41246668 0.086080007 1.883
0.41366223 0.095644444 1.883
0.41426003 0.10401332 1.8830003
0.41336334 0.11567001 1.8830001
0.41246668 0.12553334 1.883
0.41426 0.13719 1.8830001
0.41246668 0.14526001 1.8830001
0.41336334 0.15512335 1.8830001
0.41605338 0.16498667 1.883
0.16498667 0.18650667 1.883
0.41964 0.18650667 1.8830001
0.039453335 0.19726667 1.8830001
0.044833332 0.19726667 1.8830001
0.096840002 0.19726667 1.8830001
0.10401334 0.19726667 1.8830001
0.13629334 0.19368 1.8830001
0.14526001 0.19726667 1.8830001
0.15350935 0.19152799 1.8830001
0.17754 0.19368 1.8830001
0.20444001 0.19726667 1.8830001
0.23672001 0.19368 1.8830001
0.24389334 0.19547334 1.8830001
0.25465333 0.19726667 1.8830001
0.29769334 0.19726667 1.8830001
0.30128002 0.19726667 1.8830001
0.41844448 0.19368 1.883
0.42322668 0.19009334 1.8830001
-0.025106668 0.20802668 1.8830001
-0.0053800005 0.20444001 1.8830001
0.0035866669 0.20264667 1.8830001
0.012553334 0.20085335 1.8830001
0.032280002 0.20085335 1.8830001
0.068146668 0.20085335 1.8830001
0.086079992 0.20085335 1.883
0.093253337 0.20085335 1.8830001
0.18650667 0.20085335 1.8830001
0.19368 0.20085335 1.8830001
0.41605335 0.20444001 1.8830001
-0.04304 0.21878667 1.8830001
0.43652192 -0.043291431 1.8940001
0.44012955 -0.043291431 1.8940001
0.42209145 -0.032468572 1.8940001
0.4347181 -0.039683811 1.8940001
0.41848382 -0.021645715 1.8940001
0.42209145 -0.028860953 1.8940001
0.41487619 -0.014430477 1.8940001
0.41487619 -0.0054114284 1.8940001
0.41343316 0.0043291431 1.8940001
0.41271162 0.014430476 1.8940001
0.40766096 0.025253335 1.8940001
0.41126859 0.025253335 1.8940001
0.40766096 0.036076192 1.8940001
0.41126859 0.036076192 1.8940001
0.40766096 0.04689905 1.8940001
0.40766096 0.052310478 1.8940001
0.40766096 0.06674096 1.8940001
0.41126859 0.064937145 1.8940001
0.41126859 0.075759999 1.8940001
0.41126859 0.084779054 1.8940001
0.41126859 0.091994286 1.8940001
0.41126859 0.10101334 1.8940001
0.41487619 0.13708954 1.8940001
0.41126859 0.14430477 1.8940001
0.41126859 0.15332381 1.8940001
0.41487619 0.16234286 1.8940001
0.41848382 0.18398857 1.8940001
0.03427238 0.19841905 1.8940001
0.052310478 0.19481143 1.8940001
0.084779054 0.19841905 1.8940001
0.090190478 0.19841905 1.8940001
0.10101334 0.19841905 1.8940001
0.1334819 0.19481143 1.8940001
0.14430477 0.19481143 1.8940001
0.18398857 0.19661525 1.8940001
0.19661525 0.19841905 1.8940001
0.2056343 0.19601397 1.8940001
0.24652064 0.19360888 1.8940001
0.25614095 0.19841905 1.8940001
0.26335621 0.19841905 1.8940001
0.41848382 0.19120382 1.8940001
-0.025253333 0.20743811 1.8940001
-0.014430477 0.2056343 1.8940001
-0.0036076191 0.20202668 1.8940001
0.0054114284 0.20202668 1.8940001
0.018038096 0.20202668 1.8940001
0.025253335 0.20202668 1.8940001
0.075759999 0.20202668 1.8940001
0.19120382 0.20202668 1.8940001
0.41487622 0.20443176 1.8940001
-0.045095243 0.21645714 1.8940001
-0.037880003 0.21284953 1.8940001
-0.04689905 0.22006477 1.8940001
0.41706669 -0.023573333 1.904
0.42069334 -0.0272 1.904
0.41344002 -0.014506668 1.9039999
0.41344002 -0.00544 1.904
0.41344002 0 1.904
0.40618667 0.03626667 1.9039999
0.40739557 0.04472889 1.9039999
0.40739557 0.054400001 1.9039999
0.40709335 0.064373337 1.904
0.40836269 0.076159999 1.904
0.40799999 0.08522667 1.904
0.4089067 0.093386665 1.904
0.41344002 0.097920001 1.904
0.40981331 0.10517333 1.9039999
0.41344002 0.10698666 1.904
0.40981334 0.11242667 1.904
0.41344002 0.11605334 1.9039999
0.41344002 0.12512 1.904
0.41344002 0.13418667 1.9039999
0.40981334 0.14325334 1.904
0.41344002 0.15957335 1.904
0.41464889 0.16561778 1.9039999
0.41706669 0.17226666 1.904
0.42069334 0.17589334 1.904
0.15776001 0.18858667 1.904
0.17589334 0.18858667 1.904
0.18314667 0.18858667 1.904
0.23936 0.18858667 1.904
0.2448 0.18858667 1.904
0.25024 0.18858667 1.904
0.41706669 0.18496001 1.9039999
0.014506668 0.19946666 1.9039999
0.025386667 0.19946668 1.904
0.03626667 0.19584 1.9039999
0.045333333 0.19584 1.904
0.058026668 0.19946668 1.904
0.065279998 0.19946666 1.9039999
0.076160006 0.19946666 1.9039999
0.094293334 0.19946668 1.904
0.13328001 0.19312002 1.904
0.14506666 0.19342224 1.9039999
0.18586667 0.19312 1.904
0.19584 0.19584002 1.904
0.20430224 0.19342224 1.9039999
0.23936 0.19221334 1.904
0.24298668 0.19221334 1.904
0.25386667 0.19402668 1.904
0.26474667 0.19584 1.904
0.27200001 0.19584 1.904
0.29738668 0.19584 1.904
0.30101335 0.19584 1.904
0.41706669 0.19402668 1.904
0.42069334 0.19946668 1.904
-0.0272 0.20672001 1.904
-0.01088 0.20309334 1.904
-0.0072533335 0.20309334 1.904
0.41706669 0.20309334 1.904
-0.045333333 0.21397334 1.904
-0.032640003 0.21034667 1.904
0.42312384 -0.032828573 1.9150001
0.41582859 -0.021885715 1.9150001
0.41218096 -0.012766667 1.9150001
0.41218096 -0.0054714289 1.9150001
0.41218099 0.0036476192 1.9150001
0.41218099 0.014590477 1.9150001
0.40853333 0.027357142 1.9150001
0.40488574 0.043771431 1.9150001
0.40610161 0.057146031 1.9150001
0.40488574 0.065657146 1.9150001
0.40610161 0.075384125 1.9150001
0.40488574 0.083895244 1.9150001
0.4063448 0.095567629 1.9150002
0.40762144 0.10486905 1.9150001
0.41218096 0.11672381 1.9150001
0.41218099 0.12401905 1.9150001
0.41218099 0.1349619 1.9150001
0.40853333 0.14225715 1.9150001
0.41218096 0.14955239 1.9150001
0.40853333 0.15684763 1.9150001
0.41218096 0.15502381 1.9150001
0.41218099 0.16414286 1.9150001
0.41522065 0.17508572 1.9150001
0.13860953 0.1896762 1.9150001
0.14955239 0.1896762 1.9150001
0.1532 0.1896762 1.9150001
0.16596667 0.18602858 1.9150001
0.17326191 0.18602858 1.9150001
0.1896762 0.1896762 1.9150001
0.20244285 0.1896762 1.9150001
0.2462143 0.18602858 1.9150001
0.25606287 0.18748763 1.9150002
0.27600318 0.18846034 1.9150001
0.28086668 0.18785238 1.9150001
0.41582859 0.18420477 1.9150001
0.034652382 0.19332382 1.9150001
0.043771431 0.19332381 1.9150001
0.051066667 0.19332382 1.9150001
0.069304764 0.19697143 1.9150001
0.0766 0.19697143 1.9150001
0.085719049 0.19697143 1.9150001
0.09483809 0.19697143 1.9150001
0.10578096 0.19697143 1.9150001
0.14590476 0.19332382 1.9150001
0.19514763 0.19332382 1.9150001
0.25898096 0.19332382 1.9150001
0.2644524 0.19514763 1.9150001
0.41582859 0.19514763 1.9150001
-0.034652382 0.20791429 1.9150001
-0.027357142 0.20426667 1.9150001
-0.016414287 0.20426667 1.9150001
-0.0036476192 0.20061906 1.9150001
0.0036476192 0.20061906 1.9150001
0.025533333 0.20061906 1.9150001
0.41582859 0.20335476 1.9150001
-0.043771431 0.21156192 1.9150001
-0.036476191 0.21156192 1.9150001
0.42166668 -0.033 1.9250001
0.41800001 -0.0275 1.9250001
0.42166668 -0.029333334 1.9250001
0.41066667 -0.0036666668 1.9250001
0.41066667 0.0036666666 1.9250001
0.40699998 0.014666666 1.9250001
0.41066667 0.014666666 1.9250001
0.40699998 0.025666669 1.9250001
0.41066667 0.022 1.9250001
0.40577778 0.034222223 1.9250001
0.40455556 0.044 1.9250001
0.40333334 0.055 1.9250001
0.39966667 0.066 1.9250001
0.40333334 0.066 1.9250001
0.39966667 0.073333338 1.9250001
0.40333334 0.075166672 1.9250001
0.39966667 0.084333338 1.9250001
0.40333334 0.08433333 1.9250001
0.40333334 0.095333338 1.9250001
0.40455556 0.10511111 1.9250001
0.40608332 0.11275001 1.9250001
0.41066667 0.1155 1.9250001
0.40700001 0.12833335 1.9250001
0.41066667 0.12466667 1.9250001
0.40700001 0.13933334 1.9250001
0.41066667 0.13566667 1.9250001
0.40700001 0.14300001 1.9250001
0.41066667 0.14666668 1.9250001
0.41066667 0.15216666 1.9250001
0.40700001 0.16866668 1.9250001
0.41066667 0.16500001 1.9250001
0.40700001 0.17233334 1.9250001
0.41158336 0.17691667 1.9250001
0.17966667 0.18516667 1.9250001
0.18516667 0.18516667 1.9250001
0.19188888 0.18577778 1.9250001
0.24200001 0.18516667 1.9250001
0.30433336 0.18700001 1.9250001
0.41250002 0.18516667 1.9250001
0.014666666 0.19800001 1.9250001
0.025666667 0.19800001 1.9250001
0.073333338 0.19800001 1.9250001
0.080666669 0.19800001 1.9250001
0.14483334 0.19066668 1.9250001
0.19616668 0.19066668 1.9250001
0.26644444 0.19188888 1.9250001
0.27500001 0.19433336 1.9250001
0.28233334 0.19433334 1.9250001
0.30616668 0.19616668 1.9250001
0.31166667 0.19800001 1.9250001
0.41328573 0.19380954 1.9250001
-0.041555554 0.20777778 1.9250001
-0.034833334 0.20533334 1.9250001
-0.025666667 0.20288889 1.9250001
-0.012833334 0.20166667 1.9250001
0.39600003 0.20533334 1.9250001
0.40516669 0.20533334 1.9250001
0.41213337 0.20460001 1.925
0.4240762 -0.035646986 1.9360002
0.41670096 -0.023969524 1.9360001
0.40932572 -0.011062858 1.9360001
0.41393524 -0.015672382 1.9360001
0.40932572 -0.0055314288 1.9360001
0.41301334 -0.0073752385 1.9360001
0.4066917 0.0042144218 1.936
0.40471619 0.013828572 1.9360001
0.40416306 0.026550859 1.9360001
0.40379429 0.035032384 1.9360001
0.39826286 0.047939051 1.9360001
0.40471619 0.045173336 1.9360001
0.39826286 0.055314288 1.9360001
0.40416306 0.054576766 1.9360001
0.39826286 0.064533338 1.9360001
0.39826286 0.073752381 1.9360002
0.40195048 0.077440001 1.9360001
0.39826286 0.084815241 1.9360002
0.40195048 0.095878102 1.9360002
0.40195048 0.10509714 1.9360001
0.40342551 0.11505373 1.9360001
0.40625271 0.12414986 1.936
0.40748191 0.13459811 1.9360001
0.4068673 0.14381714 1.9360002
0.40932572 0.15488 1.9360002
0.40748191 0.16594286 1.9360001
0.40748191 0.17700572 1.9360001
0.15672381 0.18806858 1.9360001
0.26550859 0.18806858 1.9360001
0.30976 0.18806858 1.9360001
0.31529143 0.18806858 1.9360001
0.32082286 0.18806858 1.9360001
0.40748191 0.18438096 1.936
-0.0055314288 0.19913143 1.9360001
0.0036876192 0.19913143 1.9360002
0.014750476 0.19544382 1.9360002
0.025813334 0.19544382 1.9360002
0.059001908 0.19913143 1.9360001
0.064533338 0.19913143 1.9360001
0.073752381 0.19544382 1.9360002
0.084815241 0.19544382 1.9360002
0.095878094 0.19544382 1.9360002
0.21388191 0.19544382 1.9360001
0.27288383 0.1917562 1.9360001
0.30976 0.19360001 1.9360001
0.31344762 0.19544382 1.9360001
0.32819811 0.19544382 1.9360001
0.33372954 0.19544382 1.9360001
0.4066917 0.19597064 1.936
-0.044251431 0.20650667 1.9360001
-0.022125715 0.20281905 1.9360001
-0.018438095 0.20281905 1.9360001
-0.0073752385 0.20281905 1.9360001
0.39826286 0.20281905 1.9360001
0.40471619 0.20374095 1.9360001
0.41906857 -0.033377144 1.9470001
0.42277715 -0.037085716 1.9470001
0.41659617 -0.02596 1.9470001
0.40794286 -0.011125715 1.9470001
0.41165143 -0.016688572 1.9470001
0.40670669 -0.0049447622 1.9470001
0.39681715 0.0074171433 1.9470001
0.40237999 0.0037085717 1.9470001
0.39681715 0.011125715 1.9470001
0.40200916 0.015576 1.9470001
0.40237999 0.024105715 1.9470001
0.40237999 0.03523143 1.9470001
0.39681715 0.048211429 1.9470001
0.40176189 0.04203048 1.9470001
0.39681712 0.055628572 1.9470001
0.40052572 0.055628572 1.9470001
0.39681715 0.064900003 1.9470001
0.39681712 0.074171431 1.9470001
0.39681712 0.085297145 1.9470001
0.39681715 0.094568573 1.9470001
0.40052572 0.094568573 1.9470001
0.39681712 0.10384 1.9470001
0.40052572 0.10384 1.9470001
0.39681715 0.11125714 1.9470001
0.40052572 0.11496571 1.9470001
0.40200916 0.12683316 1.9470001
0.40299809 0.13474476 1.9470001
0.40516144 0.14556143 1.9470001
0.40645942 0.15576002 1.9470001
0.40547049 0.16441333 1.9470001
0.40516144 0.17430286 1.9470001
0.14834286 0.18913715 1.9470001
0.15205143 0.18728286 1.9470001
0.16317715 0.18913715 1.9470001
0.17801143 0.18542857 1.9470001
0.19655429 0.18542857 1.9470001
0.20304428 0.18821 1.9470001
0.24105716 0.18728286 1.9470001
0.2744343 0.18913715 1.9470001
0.40423429 0.18542857 1.9470001
-0.037085716 0.19655429 1.9470001
-0.024105715 0.1947 1.9470001
-0.012980001 0.19655429 1.9470001
-0.0055628577 0.1947 1.9470001
0.0037085719 0.1947 1.9470001
0.014834288 0.19284572 1.9470001
0.057482861 0.19655429 1.9470001
0.064900003 0.19655429 1.9470001
0.10384 0.19655429 1.9470001
0.21509714 0.1940819 1.9470001
0.22622287 0.19655429 1.9470001
0.2354943 0.19655429 1.9470001
0.24105716 0.19655429 1.9470001
0.31770098 0.1940819 1.9470001
0.32388192 0.1953181 1.9470001
0.40423429 0.1947 1.9470001
-0.035849527 0.20273525 1.9470001
-0.02596 0.20026286 1.9470001
-0.014834288 0.20026286 1.9470001
0.31893715 0.20026286 1.9470001
0.32450002 0.20026286 1.9470001
0.33006287 0.20211715 1.9470001
0.42330098 -0.041024763 1.9580001
0.41770667 -0.035430476 1.9580001
0.42143622 -0.037295241 1.9580001
0.41490954 -0.027039047 1.9580001
0.4065181 -0.013053333 1.9580001
0.41024762 -0.016782857 1.9580001
0.40403175 -0.0062158727 1.9580001
0.3971943 0.0055942857 1.9580001
0.40278858 0 1.9580001
0.39719427 0.014918096 1.9580001
0.39905906 0.026106669 1.9580001
0.40278858 0.026106667 1.9580001
0.39905906 0.035430476 1.9580001
0.40278858 0.037295241 1.9580001
0.39626193 0.04568667 1.9580001
0.39532956 0.05594286 1.9580001
0.39532954 0.065266669 1.9580001
0.39532956 0.074590482 1.9580001
0.39532956 0.085779049 1.9580001
0.39532954 0.096967623 1.9580001
0.39532956 0.10442667 1.9580001
0.39682135 0.11636114 1.9579999
0.39905906 0.12493905 1.9580001
0.39905906 0.13426286 1.9580001
0.40278858 0.13799238 1.9580001
0.39905906 0.14731619 1.9580001
0.40278855 0.14545143 1.9580001
0.40403175 0.15539683 1.9580001
0.39905906 0.16782857 1.9580001
0.40278855 0.16409905 1.9580001
0.40278858 0.17342286 1.9580001
0.082049526 0.1864762 1.9580001
0.14731619 0.1864762 1.9580001
0.15664001 0.1864762 1.9580001
0.16223429 0.1864762 1.9580001
0.23868953 0.1864762 1.9580001
0.40278858 0.18461144 1.9580001
-0.041024763 0.19766477 1.9580001
-0.033565715 0.19766477 1.9580001
-0.029836191 0.19580001 1.9580001
-0.015850477 0.19486761 1.9580001
0.01864762 0.19020572 1.9580001
0.025174286 0.19300288 1.9580001
0.082049526 0.19207048 1.9580001
0.14545143 0.19020572 1.9580001
0.21631239 0.19020572 1.9580001
0.22470382 0.19300285 1.9580001
0.23496 0.1920705 1.9580001
0.24241905 0.19393525 1.9580001
0.40278855 0.19393523 1.9580001
-0.042889524 0.20325905 1.9580001
-0.033565715 0.20139429 1.9580001
0.39905906 0.20139429 1.9580001
0.40278858 0.20139429 1.9580001
0.42380381 -0.045630798 1.969
0.41442764 -0.033754285 1.9690001
0.40755177 -0.023753017 1.9690002
0.41255239 -0.024378097 1.9690001
0.40442634 -0.015001905 1.969
0.39755049 -0.0037504763 1.9690001
0.40130097 -0.0056257145 1.9690001
0.39630032 0.0037504763 1.9690002
0.40130097 0 1.9690001
0.39473763 0.015939524 1.9690001
0.39567524 0.024378095 1.9690001
0.39567527 0.033754285 1.969
0.39567524 0.043130476 1.9690001
0.39380002 0.054381907 1.9690001
0.39380002 0.063758098 1.9690002
0.39380002 0.075009525 1.9690002
0.39380002 0.084385715 1.9690001
0.39473763 0.093761906 1.9690001
0.39380002 0.10501334 1.9690002
0.39380002 0.11438952 1.9690001
0.39530021 0.12451582 1.9690001
0.39755049 0.13314191 1.9690001
0.40130097 0.1425181 1.9690001
0.40130097 0.15564477 1.9690001
0.40130097 0.16314572 1.9690001
0.40130097 0.17439714 1.9690001
0.076884761 0.18752381 1.9690001
0.13876763 0.18377334 1.9690001
0.1425181 0.18564858 1.9690001
0.20627619 0.18752381 1.9690001
0.21002668 0.18752381 1.9690001
0.22877906 0.18564858 1.9690001
0.23440477 0.18564858 1.9690001
0.24003048 0.18377334 1.9690001
0.27378479 0.1875238 1.9690002
0.28503621 0.1875238 1.9690002
0.40505144 0.18002287 1.9690001
0.026253335 0.19127429 1.9690001
0.03000381 0.19127429 1.9690001
0.063758098 0.19502477 1.9690002
0.076884761 0.19314954 1.9690001
0.086260952 0.19314954 1.9690001
0.093761899 0.19502477 1.9690002
0.10501333 0.19690001 1.9690001
0.1425181 0.19127429 1.9690001
0.21377715 0.19127429 1.9690001
0.22502857 0.19127429 1.9690001
0.401301 0.19502477 1.9690002
0.39755049 0.20252572 1.9690001
0.41711998 -0.045257144 1.9800001
0.42240003 -0.049028572 1.9800001
0.40605715 -0.031428572 1.9800001
0.41234288 -0.03394286 1.9800001
0.39977145 -0.024514288 1.9800001
0.40480003 -0.025142858 1.9800001
0.39826289 -0.014331428 1.9800001
0.40354288 -0.018857144 1.9800001
0.39725718 -0.0062857145 1.9800001
0.39600003 0.0018857144 1.9800001
0.39694288 0.13671428 1.9800001
0.39788574 0.14520001 1.9800001
0.39826289 0.15387429 1.9800001
0.3988286 0.16500001 1.9800001
0.39977145 0.17537144 1.9800001
0.21685715 0.18857144 1.9800001
0.22251429 0.18857144 1.9800001
0.264 0.18857144 1.9800001
0.39826289 0.1855543 1.9800001
0.40354288 0.18480001 1.9800001
0.035828575 0.19611429 1.9800001
0.041485716 0.19422857 1.9800001
0.064114295 0.19234286 1.9800001
0.071657144 0.19422857 1.9800001
0.10748572 0.19611429 1.9800001
0.11502858 0.19611429 1.9800001
0.22251429 0.19234286 1.9800001
0.39788571 0.1961143 1.9800001
0.39600003 0.20365715 1.9800001
0.40978289 -0.055017143 1.9920001
0.4154743 -0.053120002 1.9920001
0.42496002 -0.055017147 1.9920002
0.40978289 -0.049325716 1.9920001
0.41452575 -0.045531429 1.9920001
0.40522972 -0.03490743 1.9920002
0.41357717 -0.03794286 1.9920001
0.39840001 -0.024662858 1.9920001
0.39840001 -0.01897143 1.9920001
0.39460573 0.055017143 1.9920001
0.39308804 0.065261722 1.9920002
0.39308801 0.075885713 1.9920002
0.39460573 0.085371435 1.9920001
0.39308804 0.094857149 1.9920002
0.3927086 0.10434286 1.9920001
0.39270857 0.11382858 1.9920002
0.39308804 0.12445257 1.9920002
0.39460573 0.1328 1.9920001
0.39840001 0.15936001 1.9920001
0.39840001 0.16694857 1.9920001
0.39839998 0.17453714 1.9920001
0.03794286 0.1897143 1.9920001
0.043634288 0.1897143 1.9920001
0.10624 0.1897143 1.9920001
0.11003429 0.1897143 1.9920001
0.22639239 0.18718477 1.9920001
0.26939431 0.1897143 1.9920001
0.39840001 0.18212572 1.9920001
0.036045715 0.19350858 1.9920001
0.047428571 0.19540572 1.9920001
0.055017143 0.19540572 1.9920001
0.094857149 0.19350858 1.9920001
0.10434286 0.19350858 1.9920001
0.11382858 0.19350858 1.9920001
0.12331429 0.19730286 1.9920001
0.39460573 0.19540572 1.9920001
0.11572572 0.20109715 1.9920001
0.12521143 0.20109715 1.9920001
0.1328 0.20109715 1.9920001
0.40632287 -0.053413335 2.003
0.4177686 -0.057228573 2.003
0.40823045 -0.04578286 2.003
0.41204572 -0.04387524 2.003
0.40250763 -0.034337144 2.003
-0.10682667 -0.026706668 2.003
-0.10491905 -0.019076191 2.003
0.39678478 0.017168572 2.003
0.39678478 0.024799049 2.003
0.39678478 0.034337144 2.003
0.39678478 0.04578286 2.003
0.38915429 0.055320956 2.003
0.39296955 0.055320956 2.003
0.3876282 0.065622099 2.003
0.39296955 0.06104381 2.003
0.38788256 0.073761277 2.003
0.39296955 0.076304764 2.003
0.38915429 0.083935238 2.003
0.39296955 0.085842863 2.003
0.38915429 0.095380962 2.003
0.39296955 0.095380954 2.003
0.38724667 0.10491905 2.003
0.38820046 0.11350334 2.003
0.38915429 0.12399524 2.003
0.39296955 0.1297181 2.003
0.39487717 0.13544096 2.003
0.39678478 0.14497906 2.003
0.39678478 0.15451714 2.003
0.39678478 0.16405524 2.003
0.39678478 0.17550094 2.003
0.39551306 0.18567492 2.003
0.049598098 0.19076191 2.003
0.055320956 0.19076191 2.003
0.062951431 0.19076191 2.003
0.08775048 0.19076191 2.003
0.095380962 0.19076191 2.003
0.10301143 0.19076191 2.003
0.1297181 0.19839239 2.003
0.13544096 0.19648477 2.003
0.14116381 0.19648477 2.003
0.38915429 0.19648477 2.003
0.39392334 0.19362333 2.003
0.39551306 0.20347936 2.003
0.40491906 -0.046057146 2.0150001
0.40300003 -0.034542859 2.0150001
-0.10554762 -0.023028573 2.0150001
-0.095952384 -0.023028573 2.0150001
-0.094673015 -0.016631747 2.0150001
0.39762667 -0.014584763 2.0150001
0.39724284 -0.0057571428 2.0150001
0.39724287 0.0038380951 2.0150001
0.39532384 0.015352383 2.0150001
0.39340478 0.024947619 2.0150001
0.39532384 0.034542859 2.0150001
0.39378858 0.046057142 2.0150001
0.38636827 0.056292061 2.0150001
0.38476908 0.064288095 2.0150001
0.38508892 0.07548254 2.0150001
0.38611239 0.0844381 2.0150001
0.3857286 0.095952384 2.0150001
0.38380954 0.10554762 2.0150001
0.38636827 0.11514286 2.0150001
0.38764763 0.1247381 2.0150001
0.39276507 0.13433334 2.0150001
0.39532384 0.14584762 2.0150001
0.39532381 0.15544286 2.0150001
0.39532384 0.16503809 2.0150001
0.39532381 0.17463334 2.0150001
0.39340478 0.18422858 2.0150001
0.25715238 0.19190477 2.0150001
0.26290953 0.19190477 2.0150001
0.38764763 0.19766191 2.0150001
0.39148572 0.19190477 2.0150001
0.39340478 0.20533811 2.0150001
0.40346953 -0.034748573 2.0270002
-0.10231523 -0.027026668 2.0270002
-0.09523683 -0.025739685 2.0270002
-0.088801906 -0.023165716 2.0270002
0.39574763 -0.023165716 2.0270002
0.40153906 -0.025096193 2.0270002
-0.087836668 -0.014478573 2.0270002
0.38995621 -0.013513334 2.0270002
0.39478239 -0.016409049 2.0270002
-0.084940955 -0.0077219051 2.0270002
0.38866922 -0.0051479368 2.0270002
0.39381716 -0.005791429 2.0270002
0.38802573 0.0038609526 2.0270002
0.39381716 0.0038609526 2.0270002
0.38802573 0.01544381 2.0270002
0.39381716 0.013513334 2.0270002
0.38802573 0.025096193 2.0270002
0.38802573 0.034748573 2.0270002
0.39381716 0.034748573 2.0270002
0.38609526 0.044400956 2.0270002
0.39381716 0.046331432 2.0270002
0.3745124 0.055983812 2.0270002
0.38480827 0.052766353 2.0270002
0.3745124 0.065636195 2.0270002
0.38223431 0.065636195 2.0270002
0.37528461 0.074902475 2.0270002
0.38223431 0.075288579 2.0270002
0.37682897 0.084168769 2.0270002
0.38319954 0.084940955 2.0270002
0.37708637 0.09523683 2.0270002
0.38223431 0.094593339 2.0270002
0.37644288 0.10424572 2.0270002
0.38223431 0.10424571 2.0270002
0.37644288 0.11582857 2.0270002
0.38377869 0.11660077 2.0270002
0.37837335 0.12548096 2.0270002
0.38416478 0.12548096 2.0270002
0.37837335 0.13513334 2.0270002
0.38657787 0.13465072 2.0270002
0.39381716 0.13899429 2.0270002
0.37837335 0.14671619 2.0270002
0.38609526 0.14478572 2.0270002
0.39381716 0.14478572 2.0270002
0.37837335 0.15057714 2.0270002
0.38664681 0.15554126 2.0270002
0.39381716 0.15443809 2.0270002
0.38657787 0.16650359 2.0270002
0.39381716 0.16602096 2.0270002
0.38995621 0.17567334 2.0270002
0.39381716 0.17567334 2.0270002
0.26640573 0.18918668 2.0270002
0.27412763 0.18918668 2.0270002
0.28184953 0.18918668 2.0270002
0.38841182 0.18609792 2.0270002
0.39381716 0.18146476 2.0270002
0.38609526 0.1949781 2.0270002
0.3667905 0.20656095 2.0270002
0.37354717 0.20559572 2.0270002
0.38609526 0.20398699 2.0270002
0.39381716 0.20849143 2.0270002
0.40391621 -0.050489526 2.039
0.39614859 -0.042721905 2.039
0.40197432 -0.044663813 2.039
-0.10486286 -0.033844624 2.0389998
-0.095800638 -0.03236508 2.039
-0.089327626 -0.031070478 2.039
0.38838097 -0.031070478 2.039
0.39459506 -0.034177523 2.039
0.40158597 -0.035731047 2.039
-0.086738408 -0.025892064 2.039
0.38838097 -0.025244763 2.039
0.39355937 -0.025892064 2.039
0.4000324 -0.027186668 2.039
-0.083501905 -0.015535239 2.039
0.38579178 -0.014240635 2.0389998
0.39226478 -0.019419048 2.039
-0.081560001 -0.0077676196 2.039
0.3837204 -0.0062140953 2.039
0.37672955 0.0038838098 2.039
0.38255525 0.0038838098 2.0389998
0.37672958 0.015535239 2.039
0.38255525 0.015535238 2.0389998
0.37672955 0.025244763 2.039
0.38255525 0.025244763 2.039
0.3747876 0.034954283 2.0389998
0.38255525 0.034954283 2.0389998
0.36896193 0.044663809 2.039
0.37478763 0.044663813 2.039
0.38061336 0.044663809 2.039
0.36799097 0.055344287 2.039
0.37478763 0.050489526 2.039
0.38061336 0.050489526 2.039
0.36799097 0.065053813 2.039
0.36896193 0.075734288 2.039
0.37284574 0.077676192 2.039
0.36896193 0.083501905 2.039
0.37381667 0.086414769 2.039
0.37414035 0.094506033 2.039
0.36896193 0.10874667 2.039
0.37284574 0.10486286 2.039
0.36896193 0.11651429 2.039
0.37284574 0.11457238 2.039
0.37439924 0.12505868 2.039
0.37478766 0.13593334 2.0389998
0.38449717 0.13981715 2.039
0.37672955 0.14564286 2.039
0.38255525 0.14370096 2.039
0.39226478 0.14758477 2.039
0.37672958 0.15535238 2.039
0.38352621 0.15438142 2.039
0.38190794 0.1644146 2.039
0.38449717 0.17541873 2.0389998
0.25438952 0.18642287 2.039
0.26021525 0.18642287 2.039
0.38579178 0.18383366 2.039
0.25438952 0.19030668 2.039
0.26215714 0.19030668 2.039
0.38216686 0.19341372 2.039
0.37672955 0.20584191 2.039
0.38352621 0.20778382 2.039
0.39652669 -0.044926669 2.0510001
-0.11329333 -0.033206668 2.0510001
-0.10548 -0.039066669 2.0510001
-0.095062226 -0.037764445 2.0510001
-0.087900005 -0.033206668 2.0510001
0.38480669 -0.031253334 2.0510001
0.39196894 -0.037764445 2.0510001
-0.11329333 -0.027346667 2.0510001
-0.082040004 -0.025393333 2.0510001
-0.078133337 -0.023440002 2.0510001
0.38480669 -0.025393335 2.0510001
-0.082040004 -0.019533334 2.0510001
-0.078133337 -0.015626667 2.0510001
0.37894669 -0.011720001 2.0510001
0.3841556 -0.018231111 2.0510001
-0.07552889 -0.0065111108 2.0510001
0.37764445 -0.005208889 2.0510001
0.37660271 0.0039066668 2.0510001
0.37504002 0.015626667 2.0510001
0.37504002 0.025393333 2.0510001
0.36527336 0.039066669 2.0510001
0.37113336 0.035160001 2.0510001
0.36527336 0.044926669 2.0510001
0.36488268 0.053912003 2.0510001
0.36462224 0.065111108 2.0510001
0.36527336 0.07422667 2.0510004
0.36722669 0.085946672 2.0510001
0.37113336 0.089853339 2.0510001
0.36722669 0.09571334 2.0510001
0.37113336 0.09571334 2.0510001
0.36566404 0.10626134 2.0510001
0.37113336 0.10352667 2.0510001
0.36527336 0.11524666 2.0510001
0.37113336 0.11329333 2.0510001
0.36527336 0.12501334 2.0510004
0.37113336 0.12501334 2.0510001
0.36722669 0.13478 2.0510001
0.37113336 0.13478 2.0510001
0.36722669 0.14454667 2.0510001
0.37269601 0.14532802 2.0510001
0.36722669 0.15236001 2.0510001
0.37308669 0.15431334 2.0510001
0.37582135 0.16329868 2.0510001
0.37634227 0.17449778 2.0510004
0.38285336 0.17970668 2.0510001
0.26760668 0.18752001 2.0510001
0.37894669 0.18556668 2.0510001
0.38285336 0.18556668 2.0510001
0.37615624 0.19589143 2.0510004
0.34574002 0.20314668 2.0510001
0.35160002 0.20314668 2.0510001
0.37308669 0.20314668 2.0510001
-0.11002667 -0.043224763 2.0630002
-0.10609715 -0.043224763 2.0630002
0.39295238 -0.043224763 2.0630002
-0.1139562 -0.039295241 2.0630002
-0.083829843 -0.034055874 2.0630002
0.38607574 -0.035365716 2.0630002
-0.078590482 -0.027506668 2.0630002
0.37723431 -0.023577144 2.0630002
0.38116384 -0.025541905 2.0630002
-0.073351115 -0.013098414 2.0630002
0.37723431 -0.015718097 2.0630002
0.38116384 -0.017682858 2.0630002
-0.070731431 -0.0058942856 2.0630002
-0.066801906 -0.0058942856 2.0630002
0.37461463 -0.0065492061 2.0630002
0.36937526 0.0058942856 2.0630002
0.37330475 0.0039295238 2.0630002
0.36937526 0.015718097 2.0630002
0.37330475 0.015718097 2.0630002
0.36741048 0.025541905 2.0630002
0.37330478 0.025541905 2.0630002
0.36488438 0.034242995 2.063
0.36151621 0.045189526 2.0630002
0.36151621 0.05501334 2.0630002
0.36151621 0.064837143 2.0630002
0.36151621 0.074660957 2.0630002
0.36348099 0.084484763 2.0630002
0.36348096 0.094308577 2.063
0.36282608 0.10347746 2.0630002
0.36151621 0.11395619 2.0630002
-0.051083811 0.12770952 2.0630002
0.35758668 0.12574476 2.0630002
0.36151621 0.12574476 2.0630002
0.36348099 0.13556857 2.0630002
0.36446336 0.14441001 2.0630002
0.36675557 0.15587112 2.0630002
-0.05304857 0.16504 2.063
-0.047154289 0.16700476 2.0630002
0.36780342 0.16503999 2.0630002
0.37461463 0.16765969 2.0630002
-0.053048573 0.17486382 2.0630002
-0.047154289 0.17682858 2.0630002
0.36806545 0.17420889 2.0630002
0.37330478 0.17682858 2.0630002
-0.052066192 0.18567002 2.0630002
0.37526953 0.18468763 2.063
-0.047154289 0.19647619 2.0630002
0.37330478 0.19451144 2.0630002
-0.051083811 0.20040572 2.0630002
-0.047154289 0.20040572 2.0630002
0.34972763 0.20040572 2.0630002
0.36544573 0.20433524 2.063
-0.10281143 -0.043497145 2.0760002
0.38752002 -0.043497145 2.0760002
0.39147431 -0.043497145 2.0760002
-0.090948574 -0.039542858 2.0760002
-0.079085715 -0.031634286 2.0760002
0.37763429 -0.033611432 2.0760002
0.38488379 -0.03822476 2.0760002
-0.075131431 -0.023725715 2.0760002
0.36774859 -0.023725715 2.0760002
0.37486631 -0.026098287 2.0760002
-0.073154286 -0.017794285 2.0760002
-0.067222856 -0.011862857 2.0760002
0.35984001 -0.011862857 2.0760002
0.36616689 -0.015026286 2.0760002
0.37368003 -0.015817143 2.0760002
0.35984001 -0.0059314286 2.0760002
0.36577144 -0.0059314286 2.0760002
0.37170288 -0.0059314286 2.0760002
-0.071177147 0 2.0760002
-0.067222856 0 2.0760002
0.35984001 0.0039542858 2.0760002
0.36577144 0.0039542858 2.0760002
0.37170288 0 2.0760002
0.35786286 0.015817143 2.0760002
0.36577144 0.015817143 2.0760002
0.35667658 0.026098287 2.0760002
0.3637943 0.025702856 2.0760002
0.35637999 0.035094287 2.0760002
0.35786286 0.045474287 2.0760002
0.35786286 0.055360001 2.0760002
0.35786286 0.065245718 2.0760002
-0.051405717 0.079085715 2.0760002
-0.047451429 0.079085715 2.0760002
0.35638005 0.075625718 2.0760002
-0.051405717 0.085017145 2.0760002
-0.047451429 0.083040006 2.0760002
0.35667661 0.085412577 2.0760002
-0.051405717 0.098857149 2.0760002
0.35638002 0.094902866 2.0760002
-0.051405717 0.10281143 2.0760002
0.35588574 0.10478858 2.0760002
-0.051405717 0.11862858 2.0760002
0.34797716 0.11467429 2.0760002
0.35588574 0.11467429 2.0760002
-0.045474287 0.12653714 2.0760002
0.34797716 0.12456 2.0760002
0.35509488 0.12495543 2.0760002
-0.045474291 0.13246858 2.0760002
-0.039542858 0.13246858 2.0760002
0.34797716 0.13444573 2.0760002
0.35539144 0.13494001 2.0760002
-0.051405717 0.14630857 2.0760002
-0.047451429 0.14235429 2.0760002
0.34797716 0.14433143 2.0760002
0.35588574 0.14433144 2.0760002
0.3637943 0.14630857 2.0760002
-0.053382855 0.15421714 2.0760002
-0.047451429 0.15817143 2.0760002
0.35701552 0.15365224 2.0760002
0.3637943 0.15421714 2.0760002
-0.047451429 0.16212572 2.0760002
0.35984001 0.16410287 2.0760002
0.36511239 0.16476192 2.0760002
-0.044485718 0.17398858 2.0760002
-0.039542858 0.17794286 2.0760002
0.35984001 0.17398858 2.0760002
0.36478287 0.17497715 2.0760002
-0.055360001 0.18387429 2.0760002
-0.045869716 0.18585142 2.0760002
0.34600002 0.18980572 2.0760002
0.35746747 0.18743315 2.0760002
0.36577144 0.18585144 2.0760002
0.37170288 0.18585144 2.0760002
-0.05272381 0.19507809 2.0760002
-0.044815242 0.19507809 2.0760002
-0.03822476 0.19639619 2.0760002
0.035588574 0.1977143 2.0760002
0.34402287 0.19573717 2.0760002
0.35588574 0.19573717 2.0760002
0.36577144 0.19573715 2.0760002
0.37170288 0.19573715 2.0760002
-0.044815242 0.20430477 2.0760002
-0.03822476 0.20430477 2.0760002
0.34797716 0.20166858 2.0760002
0.35984001 0.20364572 2.0760002
0.37385145 -0.055680003 2.0880001
-0.099428572 -0.043748572 2.0880001
0.37650287 -0.045074284 2.0880001
0.38578287 -0.04573714 2.0880001
-0.087497145 -0.03977143 2.0880001
-0.07689143 -0.034468573 2.0880001
0.36639428 -0.035297144 2.0880001
0.37484571 -0.036788575 2.0880001
0.38180572 -0.03977143 2.0880001
-0.072914295 -0.026514286 2.0880001
-0.067611434 -0.023862857 2.0880001
0.35794288 -0.025851429 2.0880001
0.36510175 -0.026249144 2.0880001
-0.071588576 -0.019885715 2.0880001
-0.067611434 -0.017897144 2.0880001
0.34998858 -0.011931429 2.0880001
0.35595429 -0.015908573 2.0880001
0.36324573 -0.018560002 2.0880001
-0.063634291 -0.0059657148 2.0880001
-0.059657145 -0.0039771432 2.0880001
0.34998858 -0.0039771432 2.0880001
0.35595429 -0.0059657148 2.0880001
-0.063634291 0 2.0880001
-0.059657145 0.0019885716 2.0880001
0.34998858 0.0039771432 2.0880001
0.35595429 0.0039771432 2.0880001
-0.059657145 0.011931429 2.0880001
0.34714773 0.016476735 2.0880001
0.35396573 0.015908571 2.0880001
0.34601143 0.025851429 2.0880001
0.35396573 0.023862857 2.0880001
-0.057005718 0.037120003 2.0880001
0.34601143 0.035794288 2.0880001
0.35396573 0.03977143 2.0880001
0.34601143 0.045737144 2.0880001
0.35396573 0.045737144 2.0880001
-0.047725715 0.059657145 2.0880001
-0.027840002 0.053691432 2.0880001
0.33805716 0.051702861 2.0880001
0.34650859 0.055182859 2.0880001
0.35396573 0.055680003 2.0880001
-0.051702861 0.067611434 2.0880001
-0.046399999 0.064960003 2.0880001
0.34866285 0.066285722 2.0880001
0.35396573 0.065622866 2.0880001
-0.051702861 0.073577151 2.0880001
-0.046399999 0.075565718 2.0880001
-0.03977143 0.07954286 2.0880001
-0.027840002 0.071588576 2.0880001
0.34800002 0.075565718 2.0880001
0.35396573 0.071588576 2.0880001
-0.045074284 0.086171426 2.0880001
-0.03977143 0.08550857 2.0880001
-0.026514286 0.086171426 2.0880001
-0.019885715 0.087497145 2.0880001
0.34799999 0.08550857 2.0880001
0.35396573 0.083520003 2.0880001
-0.053691432 0.091474287 2.0880001
-0.044742856 0.09445715 2.0880001
-0.03977143 0.095451422 2.0880001
-0.025851429 0.095451422 2.0880001
-0.019885715 0.095451422 2.0880001
0.34650856 0.095451429 2.0880001
0.35396573 0.095451429 2.0880001
-0.043748572 0.10539429 2.0880001
-0.03977143 0.10340572 2.0880001
-0.025851429 0.10539429 2.0880001
-0.019885715 0.10539429 2.0880001
0.34680685 0.10499658 2.0880001
-0.051702861 0.11533715 2.0880001
-0.045737144 0.11732572 2.0880001
-0.037782859 0.11732572 2.0880001
-0.025851429 0.11533714 2.0880001
-0.019885715 0.11334858 2.0880001
0.3446857 0.11533716 2.0880001
-0.045737144 0.12329143 2.0880001
-0.036589719 0.12567773 2.0880001
-0.025851429 0.12528001 2.0880001
0.34402287 0.12528001 2.0880001
-0.045737144 0.1392 2.0880001
-0.034468573 0.13257144 2.0880001
-0.025851429 0.13522285 2.0880001
-0.017234286 0.13522287 2.0880001
0.33706287 0.13621715 2.0880001
0.34402287 0.13522285 2.0880001
-0.045074284 0.14582856 2.0880001
-0.03977143 0.14317715 2.0880001
-0.026514286 0.14450286 2.0880001
-0.017897144 0.14317715 2.0880001
0.33606857 0.14516571 2.0880001
0.34402287 0.14516571 2.0880001
-0.045339428 0.15431315 2.0880001
-0.03977143 0.15908572 2.0880001
-0.026845716 0.15411429 2.0880001
-0.019885715 0.15113144 2.0880001
0.33805716 0.15312001 2.0880001
0.34601143 0.15510859 2.0880001
0.35396573 0.15709715 2.0880001
-0.043748572 0.16505143 2.0880001
-0.03977143 0.16306287 2.0880001
-0.027840002 0.16704001 2.0880001
0.34700572 0.16405715 2.0880001
0.35595429 0.16505143 2.0880001
-0.03977143 0.17499429 2.0880001
-0.026249144 0.17578971 2.0880001
-0.019885715 0.17499429 2.0880001
0.3483977 0.17419887 2.0880001
0.35595429 0.17499429 2.0880001
-0.043748572 0.18692572 2.0880001
-0.03977143 0.18493715 2.0880001
-0.026514286 0.1842743 2.0880001
0.33805716 0.18294857 2.0880001
0.34601143 0.18493716 2.0880001
0.35595429 0.18493715 2.0880001
-0.035794288 0.19388571 2.0880001
-0.025851429 0.19488001 2.0880001
-0.019885715 0.19885714 2.0880001
0.037782859 0.19488001 2.0880001
0.33407998 0.19438286 2.0880001
0.34203431 0.19090286 2.0880001
-0.033805717 0.20283429 2.0880001
-0.025851429 0.20283429 2.0880001
0.32612574 0.20681144 2.0880001
0.33010286 0.20681144 2.0880001
0.35794288 0.20283429 2.0880001
0.37417811 -0.060028575 2.1010001
-0.10404953 -0.052024763 2.1010001
0.36817524 -0.054025717 2.1010001
0.37351111 -0.053358734 2.1010001
0.3841829 -0.054025713 2.1010001
-0.10404953 -0.048022855 2.1010001
-0.096045718 -0.044020955 2.1010001
-0.082039051 -0.04001905 2.1010001
-0.076036192 -0.04001905 2.1010001
0.36497372 -0.043220572 2.1010001
0.37351111 -0.046688896 2.1010001
0.38418287 -0.048022859 2.1010001
-0.072034292 -0.034016192 2.1010001
-0.068032384 -0.032015238 2.1010001
0.35616955 -0.034016192 2.1010001
0.36017144 -0.034016192 2.1010001
-0.064030476 -0.024011429 2.1010001
0.35376841 -0.02481181 2.1010001
-0.062029526 -0.014006667 2.1010001
0.34683177 -0.013339683 2.1010001
0.35216764 -0.016007619 2.1010001
-0.060028575 -0.0080038095 2.1010001
-0.054025717 -0.0060028573 2.1010001
0.34816572 -0.0060028573 2.1010001
0.35216764 -0.0080038095 2.1010001
-0.060028575 0.0080038095 2.1010001
-0.054425906 0.0040019052 2.1010001
-0.046688896 0.005335873 2.1010001
-0.026012382 0.0080038095 2.1010001
0.34716526 0.0050023813 2.1010001
-0.060028575 0.016007619 2.1010001
-0.054025717 0.014006667 2.1010001
-0.044020951 0.014006667 2.1010001
-0.036017146 0.016007619 2.1010001
-0.026012383 0.014006667 2.1010001
0.34416384 0.014006667 2.1010001
-0.060028575 0.024011429 2.1010001
-0.054025713 0.024011428 2.1010001
-0.044020958 0.024011429 2.1010001
-0.034416385 0.02481181 2.1010001
-0.024511667 0.02351119 2.1010001
0.34016192 0.026012382 2.1010001
-0.060028575 0.032015238 2.1010001
-0.053358734 0.033349205 2.1010001
-0.044020951 0.034016192 2.1010001
-0.036017146 0.036017146 2.1010001
-0.024011429 0.033615999 2.1010001
0.33616 0.036017146 2.1010001
0.34016192 0.034016192 2.1010001
-0.060028575 0.042020001 2.1010001
-0.053625524 0.044821337 2.1010001
-0.044020951 0.044020955 2.1010001
-0.034416385 0.044821333 2.1010001
-0.024583129 0.045164354 2.1010001
0.33616003 0.044020955 2.1010001
0.34016192 0.044020955 2.1010001
-0.052024763 0.054025717 2.1010001
-0.044020955 0.054025713 2.1010001
-0.034016192 0.054025717 2.1010001
-0.022010477 0.054025717 2.1010001
0.3281562 0.056026667 2.1010001
0.33415908 0.054025717 2.1010001
0.34016192 0.056026667 2.1010001
-0.052024763 0.062029526 2.1010001
-0.041619811 0.064030483 2.1010001
-0.034016192 0.064030476 2.1010001
-0.024011429 0.064030483 2.1010001
0.32655543 0.063230097 2.1010001
0.33455926 0.063230097 2.1010001
0.34302044 0.064030476 2.1010001
-0.042020001 0.074035242 2.1010001
-0.034016192 0.074035242 2.1010001
-0.023211051 0.074435428 2.1010001
-0.016007619 0.074035242 2.1010001
0.34216288 0.074035242 2.1010001
-0.034016192 0.084039994 2.1010001
-0.023211049 0.081638858 2.1010001
-0.014406857 0.08484038 2.1010001
-0.0060028573 0.088041909 2.1010001
0.34216285 0.084040008 2.1010001
-0.054025717 0.096045718 2.1010001
-0.048022859 0.096045718 2.1010001
-0.034016192 0.09404476 2.1010001
-0.014006667 0.09404476 2.1010001
-0.0066698417 0.093377776 2.1010001
0.33616 0.09204381 2.1010001
0.3414959 0.094711743 2.1010001
-0.052024763 0.10805143 2.1010001
-0.046021909 0.10505001 2.1010001
-0.034016192 0.10404953 2.1010001
-0.014006667 0.10404953 2.1010001
-0.0060028569 0.10404953 2.1010001
0.33616003 0.10404953 2.1010001
0.34116238 0.10505001 2.1010001
-0.052024763 0.11205333 2.1010001
-0.044020955 0.11205333 2.1010001
-0.033349205 0.11338729 2.1010001
-0.014006667 0.11405428 2.1010001
-0.0066698412 0.11338729 2.1010001
0.3281562 0.11405428 2.1010001
0.33482608 0.11338729 2.1010001
0.34316337 0.11405428 2.1010001
-0.032015238 0.1220581 2.1010001
-0.020009525 0.12405905 2.1010001
-0.014006667 0.12405905 2.1010001
-0.0080038095 0.12405905 2.1010001
0.3281562 0.12405905 2.1010001
0.33415905 0.12405905 2.1010001
0.34116241 0.12305858 2.1010001
-0.032015238 0.13606477 2.1010001
-0.020009525 0.13606477 2.1010001
-0.013339683 0.13339683 2.1010001
-0.0060028569 0.13406381 2.1010001
0 0.13606477 2.1010001
0.33415908 0.13406381 2.1010001
-0.04001905 0.14406857 2.1010001
-0.034016192 0.14406858 2.1010001
-0.021343494 0.14540254 2.1010001
-0.013006192 0.14506906 2.1010001
-0.0060028569 0.14406858 2.1010001
0 0.14406858 2.1010001
0.33215812 0.14406858 2.1010001
-0.04001905 0.15407333 2.1010001
-0.034016192 0.15407333 2.1010001
-0.022010477 0.15607429 2.1010001
-0.014006667 0.15407333 2.1010001
-0.0060028573 0.15407333 2.1010001
0.33616 0.15407333 2.1010001
-0.04001905 0.16808 2.1010001
-0.034016192 0.1640781 2.1010001
-0.022868028 0.1640781 2.1010001
-0.014006668 0.1640781 2.1010001
-0.0070033334 0.16507857 2.1010001
0.33616003 0.1640781 2.1010001
0.34256306 0.16567887 2.1010001
-0.04001905 0.17208192 2.1010001
-0.034016192 0.17408288 2.1010001
-0.022010477 0.17208192 2.1010001
-0.014006667 0.17408288 2.1010001
-0.0066698417 0.17474985 2.1010001
0.33415908 0.17408288 2.1010001
0.34216291 0.17408288 2.1010001
-0.034016192 0.18408763 2.1010001
-0.021010002 0.1850881 2.1010001
-0.014006667 0.18408763 2.1010001
-0.0064030476 0.18328725 2.1010001
0 0.18408762 2.1010001
0.33415905 0.18408763 2.1010001
0.34316334 0.18208668 2.1010001
-0.032015238 0.19409239 2.1010001
-0.020009525 0.19409239 2.1010001
-0.014006667 0.19409238 2.1010001
-0.0080038095 0.19209144 2.1010001
0.024011429 0.19609334 2.1010001
0.032015238 0.19609334 2.1010001
0.32682225 0.19342542 2.1010001
-0.020009525 0.20409715 2.1010001
-0.01467365 0.2014292 2.1010001
0.024011429 0.20009525 2.1010001
0.032015238 0.20009525 2.1010001
0.32515478 0.20509763 2.1010001
0.33616 0.20009525 2.1010001
0.37045336 -0.060400002 2.1140001
-0.096640006 -0.052346669 2.1140001
0.36508444 -0.053688895 2.1140001
-0.094626673 -0.04630667 2.1140001
-0.072480001 -0.040266667 2.1140001
0.35837334 -0.040266667 2.1140001
0.36374223 -0.046977777 2.1140001
-0.064426668 -0.034226667 2.1140001
0.34629336 -0.032213334 2.1140001
0.35300446 -0.033555556 2.1140001
-0.060400002 -0.026173335 2.1140001
-0.05503111 -0.021475555 2.1140001
0.34629336 -0.024160003 2.1140001
0.35032001 -0.024160003 2.1140001
-0.054360002 -0.014093334 2.1140001
-0.046977777 -0.013422224 2.1140001
0.34360889 -0.014764446 2.1140001
-0.04630667 -0.0060400004 2.1140001
0.34629336 -0.0060400004 2.1140001
-0.052346669 0.0040266667 2.1140001
-0.042951111 0.0033555555 2.1140001
-0.034629334 0.0048320005 2.1140001
-0.026844447 0.0026844444 2.1140001
0.34629336 0.0020133334 2.1140001
-0.033555556 0.013422224 2.1140001
0.33824 0.016106667 2.1140001
0.34226668 0.014093334 2.1140001
-0.032213334 0.020133333 2.1140001
0.33723333 0.025166668 2.1140001
0.34226668 0.020133333 2.1140001
-0.033555556 0.033555556 2.1140001
-0.024160001 0.03624 2.1140001
-0.016106667 0.032213334 2.1140001
0.33555555 0.033555556 2.1140001
-0.032213334 0.040266667 2.1140001
-0.022146668 0.040266667 2.1140001
-0.016106667 0.044293333 2.1140001
0.32616001 0.044293333 2.1140001
0.33220002 0.044293333 2.1140001
-0.014093334 0.054360002 2.1140001
-0.0080533335 0.056373335 2.1140001
0.32414669 0.054360002 2.1140001
0.33018667 0.052346669 2.1140001
-0.014093333 0.064426668 2.1140001
-0.0080533335 0.064426668 2.1140001
0.31810668 0.062413335 2.1140001
0.32314 0.065433331 2.1140001
0.33421335 0.068453334 2.1140001
-0.012080001 0.074493334 2.1140001
-0.0067111119 0.075164445 2.1140001
0.32414669 0.074493334 2.1140001
0.33421335 0.074493341 2.1140001
-0.012080001 0.080533333 2.1140001
-0.0060400004 0.082546666 2.1140001
0.0020133334 0.088586673 2.1140001
0.31810668 0.080533333 2.1140001
0.32515335 0.083553329 2.1140001
0.33421332 0.084559999 2.1140001
-0.0040266667 0.096640006 2.1140001
0 0.092613339 2.1140001
0.32616001 0.094626673 2.1140001
0.333408 0.095029332 2.1140001
0 0.10268001 2.1140001
0.31810668 0.10469333 2.1140001
0.32454935 0.10549867 2.1140001
0.33220002 0.10469333 2.1140001
-0.0040266667 0.11677334 2.1140001
0 0.11476 2.1140001
0.31609333 0.11476 2.1140001
0.32414669 0.11476 2.1140001
0.33421335 0.11677334 2.1140001
-0.0040266667 0.12482667 2.1140001
0.0030200002 0.12784666 2.1140001
0.31523046 0.12482667 2.1140001
0.32414666 0.12482667 2.1140001
0.33018667 0.12482667 2.1140001
0.0040266667 0.13388667 2.1140001
0.31609333 0.13489334 2.1140001
0.32414669 0.13489333 2.1140001
0.33018667 0.13489333 2.1140001
0.0040266667 0.14496 2.1140001
0.32616001 0.14294666 2.1140001
0.33018667 0.14093333 2.1140001
0.0020133334 0.15502667 2.1140001
0.32616001 0.15704 2.1140001
0.33287111 0.15569778 2.1140001
-0.0040266667 0.16308001 2.1140001
0.0020133334 0.16106667 2.1140001
0.33219999 0.16509335 2.1140001
-0.0040266667 0.17314668 2.1140001
0.0040266667 0.17717333 2.1140001
0.32616001 0.17516002 2.1140001
0.33320665 0.17516001 2.1140001
-0.0040266667 0.18925335 2.1140001
0.0024160002 0.18522668 2.1140001
0.26978669 0.18925335 2.1140001
0.32515335 0.18623334 2.1140001
0.33018667 0.18522668 2.1140001
-0.0053688888 0.19596446 2.1140001
0.0040266667 0.19529335 2.1140001
0.014093334 0.19529334 2.1140001
0.024160003 0.19596446 2.1140001
0.034226667 0.19328001 2.1140001
0.25569335 0.19328001 2.1140001
0.31609333 0.19529335 2.1140001
0.32347557 0.19596446 2.1140001
-0.012080001 0.20536001 2.1140001
-0.0060400004 0.20133334 2.1140001
0.0040266667 0.20133334 2.1140001
0.014764446 0.20267557 2.1140001
0.024160001 0.20133334 2.1140001
0.31649598 0.20455468 2.1140001
0.32414669 0.20334667 2.1140001
-0.093182862 -0.052668575 2.1270001
-0.087780952 -0.054019049 2.1270001
0.36057717 -0.052668575 2.1270001
-0.093182862 -0.048617143 2.1270001
-0.085080005 -0.046591431 2.1270001
-0.074951433 -0.044565715 2.1270001
-0.066848576 -0.040514287 2.1270001
0.35652572 -0.040514287 2.1270001
0.36057717 -0.046591431 2.1270001
-0.060771432 -0.036462858 2.1270001
-0.056720003 -0.034437142 2.1270001
0.34842286 -0.036462858 2.1270001
0.3524743 -0.036462858 2.1270001
-0.054019049 -0.027009524 2.1270001
-0.045916189 -0.022958094 2.1270001
