# .PCD v0.7 - Point Cloud Data file format
VERSION 0.7
FIELDS x y z
SIZE 4 4 4
TYPE F F F
COUNT 1 1 1
WIDTH 1563
HEIGHT 1
VIEWPOINT 0 0 0 1 0 0 0
POINTS 1563
DATA ascii
-0.1145761 0.29510546 1.5868182
-0.10557609 0.29561949 1.5836667
-0.095056832 0.29574478 1.5843334
-0.085124999 0.296235 1.589
-0.075666666 0.29661334 1.589
-0.064830802 0.29549587 1.5830001
-0.054255582 0.29429093 1.5824547
-0.045171428 0.29512003 1.5810002
-0.035133336 0.29612383 1.5810002
-0.0030114288 0.29813144 1.5810001
0.0051624491 0.29684085 1.5810002
0.013551429 0.29813144 1.5810001
0.039148573 0.29512003 1.581
0.044311021 0.2955502 1.5810002
0.055066127 0.2955502 1.5810002
0.064745717 0.29512 1.5810002
0.07528571 0.29512 1.5810002
0.084320001 0.29512 1.5810002
0.095027305 0.29545462 1.5810002
0.10382722 0.29468411 1.5832859
0.11594 0.29813144 1.5810001
0.12456364 0.29484624 1.5810002
0.13594778 0.29585665 1.5890001
0.1448012 0.29510543 1.5868182
0.15132429 0.29587287 1.5810001
0.18620668 0.2946181 1.5810002
0.19423714 0.2921086 1.5810001
0.23790286 0.29512 1.581
0.24543142 0.29512003 1.5810002
0.25597143 0.29512003 1.5810002
0.26500574 0.29512 1.5810002
0.2750904 0.29493189 1.589
0.28148001 0.29056001 1.5890001
0.31628668 0.29056001 1.5890001
0.32760167 0.29473048 1.5870001
0.33581778 0.29497683 1.5883332
0.34470376 0.29459554 1.589
-0.21186668 0.30569336 1.5890001
-0.20813906 0.30467239 1.5836668
-0.1882143 0.30716571 1.5810001
-0.17466287 0.30716571 1.581
-0.1653569 0.30472499 1.5820001
-0.15559047 0.30482352 1.5810002
-0.14153714 0.30716571 1.5810001
-0.13451047 0.30616191 1.581
-0.12563753 0.30430818 1.5818002
-0.11475599 0.30500764 1.5854446
-0.10551513 0.30449459 1.582778
-0.095668219 0.30568591 1.5875455
-0.084746666 0.30872002 1.5890001
-0.075288333 0.30569336 1.589
-0.065853335 0.30477813 1.5857999
-0.05320191 0.3031505 1.5810002
-0.045171432 0.30415431 1.5810002
-0.034700003 0.30479941 1.5843334
-0.026350001 0.30490714 1.5810001
-0.012045715 0.30415431 1.5810001
-0.0050190478 0.30465621 1.5810002
0.0045361905 0.30543941 1.5876666
0.015084233 0.30467069 1.5836668
0.024159154 0.30501443 1.5854446
0.034764763 0.30531242 1.587
0.045244236 0.30466902 1.5836668
0.054237884 0.30432704 1.581889
0.064912066 0.3049264 1.5850002
0.075409316 0.30466902 1.5836667
0.084319994 0.30415428 1.5810002
0.095020004 0.30467245 1.5836669
0.10551514 0.30449629 1.5827779
0.11529469 0.3045845 1.5810002
0.12346857 0.30415431 1.5810002
0.13440223 0.30504826 1.5856668
0.14503111 0.30518034 1.5863334
0.15508856 0.30415431 1.5810002
0.16261715 0.30415428 1.581
0.17767429 0.30566001 1.5810001
0.18541797 0.3054449 1.5810002
0.19273144 0.30566001 1.5810001
0.21531716 0.30716571 1.5810001
0.22284572 0.30716571 1.5810001
0.24693714 0.30340144 1.5810002
0.25597143 0.30415434 1.5810002
0.26500571 0.30415428 1.5810002
0.27361068 0.30508801 1.5890001
0.32688001 0.30266666 1.5890001
0.33633831 0.30531502 1.589
0.34655336 0.30872002 1.5890001
0.35412002 0.30872002 1.5890001
-0.20433991 0.31454289 1.582778
-0.19674666 0.31720385 1.581
-0.18553253 0.31482762 1.5816668
-0.17554669 0.31477332 1.589
-0.16599943 0.3150602 1.5874001
-0.15508857 0.31348974 1.5810002
-0.14408953 0.31652004 1.5826
-0.1349434 0.31559512 1.5844287
-0.12473563 0.31485429 1.5818002
-0.11503658 0.3180069 1.5810001
-0.10427072 0.31394145 1.5810002
-0.094918102 0.3148905 1.5819999
-0.084361717 0.31505716 1.5874
-0.075506665 0.31561622 1.5856667
-0.064831436 0.3150886 1.5830001
-0.053812522 0.31513795 1.5821429
-0.045296717 0.31407407 1.5854443
-0.035714667 0.31235203 1.5890001
-0.023842096 0.31442779 1.5842001
-0.014756 0.31559771 1.5810002
-0.0060228575 0.31318855 1.5810002
0.004534286 0.31568381 1.5860001
0.015110476 0.31490174 1.5865999
0.024440002 0.31529078 1.5860909
0.034806669 0.31477335 1.5890001
0.045269631 0.31389463 1.5845556
0.054358099 0.3140741 1.5854445
0.065022543 0.31451049 1.5876666
0.075539686 0.3142451 1.5863334
0.084748916 0.31485993 1.5839092
0.094888583 0.31479239 1.5814999
0.10555849 0.31426933 1.5834001
0.11463068 0.3137202 1.5836668
0.12362224 0.31509301 1.5830002
0.13439715 0.3141143 1.5856667
0.14521238 0.31458324 1.585
0.15508856 0.31469429 1.581
0.16562857 0.31469429 1.5810002
0.17466287 0.31469429 1.5810002
0.18520287 0.31469432 1.581
0.19574286 0.31469429 1.5810002
0.21572781 0.31592625 1.5810002
0.22485334 0.31720385 1.5810002
0.23338573 0.31921145 1.5810001
0.24727175 0.31553081 1.5810002
0.25597143 0.31469429 1.5810002
0.26511148 0.31426626 1.5834002
0.27240002 0.31477335 1.5890001
0.33717066 0.31356269 1.5890001
0.34503999 0.31477335 1.589
0.35351467 0.31416804 1.5890001
0.36168668 0.31174669 1.5890001
-0.20430002 0.32385334 1.5890001
-0.19505185 0.32620743 1.589
-0.18361777 0.32587114 1.589
-0.17718896 0.32594249 1.5874001
-0.16571239 0.32479352 1.5818002
-0.15508857 0.32583657 1.5810002
-0.14482954 0.32594857 1.5874001
-0.13438399 0.32526574 1.5890002
-0.12390895 0.32578248 1.5866001
-0.11450031 0.32541886 1.581889
-0.10545757 0.32541883 1.581889
-0.09570305 0.3254579 1.585
-0.084664382 0.32503906 1.5874
-0.075285718 0.32523429 1.5810002
-0.064608835 0.32496056 1.5810002
-0.054152213 0.32547879 1.5875455
-0.045400001 0.32566935 1.589
-0.035563335 0.32662776 1.5890001
-0.024446929 0.32518098 1.5860909
-0.015057145 0.32523429 1.5810002
-0.0090342863 0.32523429 1.5810001
0.004532381 0.326193 1.5856668
0.015435999 0.32566935 1.589
0.023884762 0.32594857 1.5874
0.034504 0.32506403 1.5890002
0.045675147 0.32495397 1.589
0.054480013 0.32536671 1.5890001
0.065073341 0.32536665 1.5890002
0.075666666 0.32536668 1.5890001
0.084270284 0.32561946 1.5858001
0.094980635 0.32564697 1.5830002
0.10578788 0.32533476 1.5868183
0.11491429 0.32509369 1.5876669
0.12502509 0.32537273 1.5816668
0.13557847 0.32464001 1.5871539
0.14480123 0.32533056 1.5868182
0.15508857 0.32523432 1.5810002
0.16562858 0.32523429 1.5810002
0.17466287 0.32523429 1.5810002
0.18520288 0.32523432 1.5810002
0.19574288 0.32523429 1.5810002
0.20440073 0.32561076 1.5810002
0.21531714 0.32523432 1.5810002
0.22585712 0.32523429 1.5810002
0.23489141 0.32523429 1.5810002
0.24502081 0.32523429 1.5810002
0.25492188 0.3266471 1.5878572
0.26414546 0.32577941 1.589
0.32990667 0.32234001 1.5890001
0.33596 0.32234001 1.5890001
0.34504002 0.32385334 1.589
0.35185003 0.32309669 1.5890001
-0.19219334 0.33293334 1.5890001
-0.18346541 0.33467174 1.5876669
-0.17857334 0.33293334 1.5890001
-0.16562857 0.33426857 1.5810002
-0.15553938 0.33525649 1.5856668
-0.14571238 0.33509526 1.589
-0.13230857 0.33552763 1.589
-0.12308445 0.33495113 1.5890001
-0.11469334 0.33502537 1.5845557
-0.10546477 0.33485645 1.5820001
-0.097862221 0.33495107 1.5890001
-0.081720002 0.33596 1.5890001
-0.075905949 0.33494738 1.5860001
-0.064796515 0.33455172 1.5823334
-0.054447837 0.33577377 1.5881112
-0.045399997 0.33596 1.589
-0.034806669 0.33596 1.5890001
-0.024126984 0.3348324 1.5836668
-0.015065609 0.3344582 1.581889
-0.0060330159 0.33483747 1.5836668
0.0041231173 0.33522356 1.5868183
0.015565715 0.33552763 1.589
0.023204446 0.33545557 1.5890001
0.035714667 0.33626264 1.589
0.045399997 0.33558169 1.589
0.053269338 0.33474931 1.5890001
0.065486066 0.33568487 1.589
0.075666666 0.33595997 1.589
0.084746666 0.33596003 1.589
0.095339991 0.33596 1.5890001
0.10593334 0.33596003 1.589
0.11488298 0.33558747 1.5872222
0.12484624 0.33476502 1.5846363
0.13545905 0.33592743 1.5874001
0.14518666 0.33537215 1.5880001
0.15510184 0.3351953 1.5853637
0.16510707 0.3344377 1.5818002
0.17466287 0.33426857 1.5810002
0.18559015 0.33497712 1.5843333
0.19585122 0.3344582 1.581889
0.20477715 0.3342686 1.5810002
0.21531714 0.33426857 1.5810002
0.22585715 0.33426857 1.5810002
0.23489144 0.33426857 1.5810002
0.24543144 0.33426857 1.5810002
0.25575334 0.33596 1.5890001
0.26245525 0.33595997 1.589
-0.19219334 0.34504002 1.5890001
-0.18462665 0.34504002 1.589
-0.17554669 0.34705782 1.5890001
-0.16495334 0.34428337 1.589
-0.15496534 0.34322402 1.5890001
-0.14225334 0.34503999 1.5890001
-0.13377868 0.34322402 1.5890001
-0.12712 0.34201336 1.5890001
-0.11501333 0.34504005 1.589
-0.10569799 0.34426796 1.5854445
-0.096474998 0.3457967 1.589
-0.081720002 0.34201336 1.5890001
-0.075605713 0.34323975 1.5876669
-0.064909533 0.34266576 1.585
-0.054434288 0.34323969 1.5876669
-0.045399997 0.34352672 1.5890001
-0.034806669 0.34352669 1.589
-0.024184551 0.34465396 1.5872222
-0.015133332 0.34504005 1.589
-0.0075666667 0.34503999 1.5890001
0.0030266668 0.34504005 1.589
0.016142223 0.34554446 1.5890001
0.023835 0.34541836 1.589
0.03389867 0.34504002 1.589
0.046156667 0.34277004 1.5890001
0.051453337 0.34201336 1.5890001
0.068604447 0.34302226 1.5890001
0.075666666 0.34417528 1.589
0.084746666 0.34504005 1.589
0.094927266 0.34476489 1.589
0.10517667 0.34277004 1.5890001
0.11501334 0.34352672 1.5890001
0.12409335 0.34504005 1.589
0.13317335 0.34428334 1.589
0.14830667 0.34503999 1.5890001
0.15531377 0.34445044 1.5875454
0.16527466 0.34412977 1.5834
0.17505737 0.34408003 1.5845556
0.18462665 0.34504002 1.589
0.19522001 0.34504005 1.5890001
0.20535111 0.34427306 1.5854446
0.2152999 0.34366497 1.5839092
0.22451375 0.34498045 1.5867144
0.23426954 0.34460959 1.587
0.24526861 0.34404865 1.5858001
0.25461835 0.34541836 1.589
0.26150399 0.34443468 1.5890001
-0.18462667 0.35109335 1.5890001
-0.17857334 0.35109335 1.5890001
-0.10532801 0.35230398 1.5890001
-0.095340006 0.35109335 1.5890001
-0.08399 0.35185003 1.5890001
-0.078693338 0.35109335 1.5890001
-0.025726669 0.35109335 1.5890001
-0.015133335 0.35109338 1.5890001
0.016142223 0.35210225 1.5890001
0.024213335 0.35260665 1.5890001
0.032788891 0.35311112 1.5890001
0.075666666 0.35412002 1.5890001
0.085352004 0.35290933 1.5890001
0.09307 0.35185003 1.5890001
0.12560667 0.35260668 1.5890001
0.13014667 0.35109335 1.5890001
0.14830667 0.35412002 1.5890001
0.15436001 0.35411999 1.589
0.16495334 0.35412002 1.5890001
0.17554669 0.35412002 1.589
0.18462665 0.35412005 1.589
0.19521999 0.35412002 1.5890001
0.20581335 0.35412002 1.589
0.21489334 0.35412002 1.589
0.22397333 0.35411999 1.589
0.23415397 0.35384485 1.589
0.24516003 0.35260668 1.5890001
0.25363466 0.35230404 1.5890001
0.26029333 0.35109335 1.5890001
0.14830667 0.36017334 1.5890001
0.15436 0.36017334 1.5890001
0.16344 0.36017334 1.5890001
0.19824667 0.36017334 1.5890001
0.20581335 0.36017334 1.5890001
0.21489334 0.36168668 1.5890001
0.22397335 0.36319998 1.589
0.23154001 0.36168665 1.5890001
-0.28576002 -0.0091200005 1.5960001
0.34453335 -0.0040533333 1.5960001
0.35264 -0.0030400001 1.5960001
-0.29488 0.0091200005 1.5960001
0.2888 0.0091200005 1.5960001
0.29488 0.0081066666 1.5960001
0.31464002 0.0030400001 1.5960001
-0.30217603 0.015808001 1.5960001
-0.29531431 0.01433143 1.596
-0.28636801 0.013984 1.5960001
-0.27360001 0.015706668 1.5960001
-0.26447999 0.0152 1.5960001
-0.25536001 0.01596 1.5960001
-0.24826668 0.017226668 1.5960001
0.28474668 0.0152 1.5960001
-0.31160003 0.024320001 1.5960001
-0.30450669 0.023813335 1.5960001
-0.29792002 0.0228 1.5960001
-0.2432 0.02128 1.5960001
-0.23560001 0.025840001 1.5960001
0.27968001 0.024320001 1.5960001
-0.31244445 0.03445334 1.596
-0.30602667 0.033946667 1.5960001
-0.23374224 0.033777777 1.596
0.27846399 0.035264004 1.5960001
-0.31312004 0.045165718 1.596
-0.30704001 0.045600001 1.5960001
-0.23225601 0.044992 1.5960001
-0.22800002 0.048640002 1.5960001
0.27785602 0.046208002 1.5960001
-0.31312001 0.051680002 1.5960001
-0.23225601 0.054720003 1.5960001
-0.22800002 0.057760004 1.5960001
0.27664 0.054720003 1.5960001
-0.22445334 0.066373341 1.5960001
0.27664 0.065360002 1.5960001
-0.31312001 0.076000005 1.5960001
-0.30704001 0.079040006 1.5960001
-0.22192001 0.079040006 1.5960001
0.27816001 0.076000005 1.5960001
-0.30217603 0.084512003 1.5960001
-0.29792002 0.088160001 1.5960001
-0.23104002 0.08664 1.5960001
-0.22496001 0.085626662 1.5960001
0.27816001 0.08512 1.5960001
-0.31008002 0.097280003 1.5960001
-0.30399999 0.094239995 1.596
-0.29670399 0.093631998 1.5960001
-0.2318 0.094240002 1.5960001
-0.228 0.094240002 1.5960001
0.27785602 0.094848007 1.5960001
-0.30400002 0.10032 1.5960001
-0.26296002 0.10792001 1.5960001
-0.25498 0.10678001 1.596
-0.24623999 0.10640001 1.5960001
-0.23340446 0.10606223 1.596
-0.22800002 0.10184 1.5960001
0.27436 0.10640001 1.5960001
-0.30248001 0.11856 1.5960001
-0.26448002 0.11248001 1.5960001
-0.2543467 0.11349335 1.5960001
-0.23332 0.11324 1.5960001
-0.22800002 0.11704001 1.5960001
0.27446857 0.11508572 1.596
-0.30278403 0.125248 1.5960001
-0.29335999 0.12768 1.5960001
-0.26448002 0.1216 1.5960001
-0.23104002 0.12464001 1.5960001
-0.228 0.12464001 1.5960001
0.27846402 0.124032 1.5960001
-0.31008002 0.13072 1.5960001
-0.30552 0.13528 1.5960001
-0.24292365 0.13569456 1.596
-0.23370001 0.13566001 1.596
-0.228 0.13376001 1.5960001
0.27968001 0.13477333 1.5960001
0.28272 0.13832 1.5960001
-0.30172002 0.14516 1.5960001
-0.29670399 0.14652802 1.5960001
-0.24282002 0.14554001 1.596
-0.23408 0.14592001 1.596
0.27968001 0.1444 1.5960001
0.28272 0.14592001 1.5960001
-0.29427201 0.15443201 1.5960001
-0.28728002 0.15808001 1.5960001
-0.24092001 0.15580001 1.5960001
-0.23408002 0.15504001 1.596
-0.22648001 0.15200001 1.5960001
0.28393599 0.15443201 1.5960001
-0.29305601 0.16476801 1.5960001
-0.28758401 0.16355202 1.5960001
-0.27866668 0.16213334 1.5960001
-0.26448002 0.16537599 1.5960001
-0.25232002 0.1672 1.5960001
-0.24928001 0.1672 1.5960001
-0.23255999 0.16416 1.5960001
-0.228 0.16416001 1.5960001
0.28393599 0.16416001 1.5960001
-0.286064 0.17479999 1.596
-0.27816001 0.17783999 1.5960001
-0.26274288 0.17414857 1.596
-0.25569782 0.17463113 1.596
-0.24472001 0.173888 1.596
-0.23369999 0.17442 1.596
0.28393599 0.174496 1.5960001
-0.29285333 0.18645334 1.5960001
-0.28614002 0.18505999 1.596
-0.27512002 0.18543999 1.5960001
-0.26491427 0.18457143 1.596
0.27968001 0.18848 1.5960001
0.28272 0.18544 1.5960001
-0.30248001 0.19456001 1.5960001
-0.2953867 0.19456001 1.5960001
-0.28525335 0.19456001 1.5960001
-0.27470544 0.19483636 1.596
-0.26524001 0.19228001 1.5960001
0.27968001 0.19304001 1.5960001
0.28272 0.19456001 1.5960001
-0.29386666 0.20418668 1.5960001
-0.28548363 0.20561457 1.596
-0.27511999 0.20519999 1.5960002
-0.26478401 0.206112 1.596
-0.25738668 0.20874667 1.5960001
0.27968001 0.20368001 1.5960001
0.28474668 0.20621336 1.5960001
-0.28272 0.21280001 1.5960001
-0.27470544 0.21556367 1.596
-0.26447999 0.21584003 1.596
-0.25840002 0.21584003 1.5960001
0.28728002 0.21280001 1.5960001
0.29184002 0.21888001 1.5960001
-0.27208 0.22192001 1.5960001
-0.26387203 0.22435203 1.5960001
-0.25764 0.22420001 1.5960001
0.065360002 0.22800002 1.5960001
0.076000005 0.228 1.5960001
0.082080007 0.22800002 1.5960001
0.095760003 0.22800002 1.5960001
0.10437334 0.228 1.5960001
0.11552 0.228 1.5960001
0.12768 0.22800002 1.5960001
0.14896001 0.22800002 1.5960001
0.15504001 0.228 1.5960001
0.16355202 0.22678402 1.5960001
0.17024 0.22800002 1.5960001
0.29488 0.22572002 1.5960001
-0.25840002 0.23256001 1.5960001
-0.038000003 0.23712 1.5960001
-0.024320001 0.23559999 1.5960001
-0.015200001 0.23560001 1.5960001
-0.0060800002 0.23560001 1.5960001
0.0045600003 0.23408 1.596
0.015580002 0.23446 1.596
0.024320001 0.23256002 1.5960001
0.035872001 0.23164801 1.5960001
0.046034288 0.23321143 1.596
0.054285716 0.23494859 1.596
0.065360002 0.23408003 1.5960001
0.076000005 0.23408 1.596
0.08512 0.23408002 1.596
0.093805723 0.23321143 1.596
0.10488001 0.23407997 1.5960001
0.11552002 0.23408 1.596
0.12464 0.23408 1.596
0.13332573 0.23494859 1.596
0.14896001 0.23256001 1.5960001
0.15504001 0.23104002 1.5960001
0.1672 0.23104002 1.5960001
0.17449601 0.23529601 1.5960001
0.18544 0.23711999 1.5960001
0.19456001 0.23610668 1.5960001
0.204896 0.23347202 1.5960001
0.21508001 0.23636001 1.5960001
0.22192001 0.23712 1.5960001
0.23408002 0.23712 1.5960001
0.2432 0.23636001 1.5960001
0.25536001 0.23711999 1.5960001
0.26296002 0.23712 1.5960001
0.2953867 0.23408 1.5960001
-0.25536001 0.24624 1.596
-0.24710858 0.24624 1.596
-0.18392 0.24928001 1.5960001
-0.17510399 0.24867201 1.5960001
-0.16416001 0.24928002 1.5960001
-0.15352002 0.24928001 1.5960001
-0.14592001 0.24776 1.5960001
-0.13528 0.24776 1.596
-0.12420572 0.24624 1.596
-0.1159 0.24510002 1.596
-0.10422857 0.24406858 1.596
-0.094620004 0.24662 1.596
-0.08512 0.24776 1.5960001
-0.075392008 0.24532799 1.596
-0.06536001 0.24319999 1.5960001
-0.05515429 0.24406859 1.596
-0.045165714 0.24406859 1.596
-0.03484308 0.24436919 1.5960001
-0.024320001 0.24016 1.5960001
-0.015634287 0.24233146 1.596
-0.0091200005 0.24168 1.5960001
0.0091200005 0.24016 1.5960001
0.0152 0.24016 1.5960001
0.024320001 0.24016 1.5960001
0.056240004 0.24016 1.5960001
0.065056004 0.240768 1.5960001
0.074480005 0.24016 1.5960001
0.088160001 0.24016 1.5960001
0.10640001 0.24016 1.5960001
0.11552 0.24016 1.5960001
0.12464001 0.24016 1.5960001
0.13593143 0.24450283 1.5960001
0.1444 0.24472001 1.596
0.17783999 0.24016 1.5960001
0.18544 0.24016 1.5960001
0.19152001 0.24016 1.5960001
0.21736002 0.24016 1.5960001
0.22572002 0.24091999 1.5960001
0.23408 0.24198401 1.5960001
0.24471998 0.24117334 1.5960001
0.25232002 0.24168 1.5960001
0.26752001 0.24168 1.5960001
0.27490285 0.24450286 1.596
0.28619429 0.24710858 1.596
0.29336002 0.24472 1.596
-0.27208 0.25840002 1.5960001
-0.25232002 0.25384003 1.5960001
-0.24624 0.25384003 1.5960001
-0.20367999 0.25536001 1.596
-0.19456001 0.25536001 1.596
-0.18665601 0.25536004 1.5960001
-0.17479999 0.25232002 1.5960001
-0.16378 0.25536004 1.596
-0.15504 0.25536001 1.596
-0.14592002 0.25492576 1.596
-0.13528001 0.25536001 1.5960001
-0.12464 0.25573999 1.596
-0.11638857 0.25536004 1.596
-0.10501819 0.25563636 1.596
-0.094240002 0.25536001 1.596
-0.088160001 0.25536001 1.5960001
-0.074480005 0.25840002 1.5960001
-0.066880003 0.25840002 1.5960001
-0.031413335 0.25333336 1.5960001
0.13832 0.25232002 1.5960001
0.1444 0.25232002 1.5960001
0.27740002 0.25536001 1.5960001
0.28576002 0.25384003 1.5960001
0.29437333 0.25536004 1.5960001
-0.24928001 0.26144001 1.5960001
-0.21280001 0.26144001 1.5960001
-0.20368001 0.26447999 1.596
-0.196384 0.26448002 1.5960001
-0.18848 0.26447999 1.5960001
-0.16264001 0.26144001 1.5960001
-0.15443201 0.26265603 1.5960001
-0.14896001 0.26144001 1.5960001
-0.13224 0.26144001 1.5960001
-0.12362667 0.26346669 1.5960001
-0.11653334 0.26346669 1.5960001
-0.10579201 0.26204804 1.5960001
0.27968001 0.26448002 1.5960001
0.28576002 0.26447999 1.596
0.29437333 0.26447999 1.5960001
-0.2543467 0.27664003 1.5960001
-0.24624 0.27056 1.5960001
-0.20395638 0.27498183 1.596
-0.19456001 0.27056 1.5960001
0.28619429 0.27273145 1.596
0.29357716 0.27446857 1.596
0.35741714 0.27577144 1.596
0.36556002 0.27588001 1.5960001
-0.21432 0.2888 1.5960001
-0.20671999 0.28373334 1.5960001
0.2888 0.28576002 1.5960001
0.29488003 0.28576002 1.596
0.30438 0.28576002 1.596
0.31261337 0.28576002 1.5960001
0.34960002 0.2888 1.5960001
0.35466668 0.28576002 1.5960001
-0.21584001 0.29640001 1.5960001
0.27968001 0.29792002 1.5960001
0.28474668 0.29386666 1.5960001
0.29690668 0.29285333 1.5960001
0.30400002 0.29488 1.596
0.31403202 0.29548797 1.596
0.32345602 0.295488 1.5960001
0.34960002 0.29184002 1.5960001
0.35446399 0.296096 1.5960001
-0.21280001 0.30400002 1.5960001
-0.091200002 0.30400002 1.5960001
-0.084685728 0.30486855 1.596
-0.079040006 0.30704001 1.5960001
0.27968001 0.30400002 1.5960001
0.29792002 0.30400002 1.5960001
0.30400002 0.30400002 1.596
0.31463999 0.30400002 1.5960001
0.32629335 0.30399999 1.5960001
0.33136001 0.30552 1.5960001
0.34655997 0.30438 1.596
0.35517335 0.30349335 1.5960001
0.36327997 0.30400002 1.5960001
-0.21280001 0.31464002 1.5960001
-0.20976001 0.31616002 1.5960001
-0.034308575 0.31789717 1.596
0.27765334 0.31565335 1.5960001
0.30530286 0.31312004 1.596
0.3135877 0.31499082 1.5960001
0.32832003 0.31464002 1.5960001
0.33372444 0.31548446 1.596
0.34352002 0.31008002 1.5960001
0.35618666 0.31464002 1.5960001
0.36277333 0.3121067 1.5960001
-0.21280001 0.32376003 1.5960001
-0.20672001 0.32629335 1.5960001
-0.19152001 0.32832003 1.5960001
-0.18848 0.32680002 1.5960001
-0.17414857 0.32484576 1.596
-0.13984001 0.32832003 1.5960001
-0.045600001 0.32528001 1.5960001
-0.032680001 0.32300001 1.5960001
0.01216 0.32832003 1.5960001
0.27309334 0.32578668 1.5960001
0.30582398 0.32588801 1.5960001
0.31464002 0.32528004 1.5960001
0.32832003 0.32528001 1.5960001
0.33561599 0.32649603 1.5960001
0.34048 0.32832003 1.5960001
0.35669336 0.32730669 1.5960001
-0.20368001 0.3344 1.596
-0.19577602 0.33561602 1.5960001
-0.18848 0.33744001 1.5960001
-0.17581333 0.33541334 1.5960001
-0.13882667 0.33642665 1.5960001
-0.12768 0.33744001 1.5960001
-0.092416003 0.3344 1.5960001
-0.086943999 0.33500797 1.5960001
0.0152 0.33744001 1.5960001
0.025840001 0.33744001 1.5960001
0.033440001 0.33440003 1.5960001
0.04256 0.33136001 1.5960001
0.056240004 0.33744001 1.5960001
0.26752001 0.3344 1.5960001
0.27360001 0.33744001 1.5960001
0.29792002 0.33136001 1.5960001
0.30438 0.33402002 1.596
0.31464002 0.33440003 1.5960001
0.32832003 0.33440003 1.5960001
0.33396572 0.33396575 1.596
0.34462547 0.33412364 1.596
0.35628802 0.33257598 1.5960001
-0.20266668 0.34605336 1.5960001
-0.194864 0.34473604 1.596
-0.18696001 0.34048 1.5960001
-0.175712 0.343824 1.596
-0.16416 0.34959999 1.5960001
-0.15428001 0.34884 1.5960001
-0.14668001 0.34504005 1.596
-0.13646223 0.34622225 1.596
-0.12464001 0.34564799 1.596
-0.093805715 0.34308574 1.596
-0.085728005 0.34564802 1.596
-0.076000005 0.34959999 1.5960001
-0.065360002 0.34960002 1.5960001
-0.054720003 0.34959999 1.5960001
-0.045600001 0.34959999 1.5960001
-0.034960002 0.34960002 1.5960001
-0.0030400001 0.34656 1.5960001
0.0091200005 0.34503999 1.5960001
0.01292 0.34428 1.5960001
0.027360002 0.34200001 1.5960001
0.039520003 0.34656 1.5960001
0.045093331 0.34706667 1.5960001
0.055328004 0.34564802 1.596
0.063840002 0.34656003 1.596
0.076000005 0.34960002 1.5960001
0.10589334 0.34858668 1.5960001
0.11552 0.34959999 1.5960001
0.13832 0.34808004 1.5960001
0.14461716 0.34569147 1.596
0.26676002 0.34504002 1.5960001
0.30704001 0.34048 1.5960001
0.314336 0.341088 1.5960001
0.32680002 0.34276 1.5960001
0.33467636 0.34462547 1.596
0.34473601 0.34514138 1.5960002
0.35568002 0.34048 1.5960001
0.36632001 0.34352002 1.5960001
-0.20165335 0.35365334 1.5960001
-0.19456001 0.35415998 1.5960001
-0.18544 0.35492 1.5960001
-0.17414857 0.35437718 1.596
-0.16416 0.35415998 1.5960001
-0.15504001 0.35415998 1.5960001
-0.14592001 0.35416004 1.5960001
-0.13629334 0.35365331 1.5960001
-0.12464 0.35264 1.5960001
-0.11514001 0.35530001 1.596
-0.10579201 0.35750398 1.5960001
-0.094240002 0.35568002 1.5960001
-0.08512 0.35669336 1.5960001
-0.076000012 0.35568002 1.596
-0.065360002 0.35416001 1.596
-0.054340005 0.35530001 1.596
-0.045980003 0.35529998 1.596
-0.036480002 0.35492 1.596
-0.023560001 0.35492003 1.5960001
-0.0152 0.35568002 1.5960001
-0.0060800002 0.35415998 1.5960001
0.0045600007 0.35568002 1.5960001
0.014693335 0.35669336 1.5960001
0.024320001 0.35871997 1.5960001
0.036480002 0.35628802 1.5960001
0.045600001 0.35264 1.5960001
0.056240004 0.35264 1.5960001
0.066880003 0.35491997 1.596
0.075999998 0.35568002 1.596
0.084360003 0.35720003 1.5960001
0.094848 0.35750404 1.5960001
0.10488001 0.35567999 1.5960001
0.11552 0.35568002 1.596
0.12342401 0.35689601 1.5960001
0.13569456 0.35595635 1.596
0.14440002 0.35568002 1.5960001
0.2432 0.35871997 1.5960001
0.25536001 0.35720003 1.5960001
0.26448002 0.35416001 1.5960001
0.27056 0.35264 1.5960001
0.32832003 0.35720003 1.5960001
0.33440003 0.35568002 1.596
0.34412801 0.35537601 1.596
-0.048640002 0.36176002 1.5960001
0.0152 0.36176002 1.5960001
0.034960002 0.36176002 1.5960001
0.0836 0.36176002 1.5960001
0.094240002 0.36176002 1.5960001
0.10538667 0.36277333 1.5960001
0.11552 0.36176002 1.5960001
0.124032 0.36297601 1.5960001
0.13477333 0.36176002 1.5960001
0.1444 0.36176002 1.5960001
0.15656 0.36480001 1.5960001
0.17480001 0.36176002 1.5960001
0.186048 0.36297601 1.5960001
0.19456002 0.36480001 1.596
0.20428801 0.365408 1.5960001
0.21736002 0.36784002 1.5960001
0.23484001 0.36556002 1.5960001
0.24168 0.36176002 1.5960001
0.31920001 0.36784002 1.5960001
0.32832003 0.36480001 1.5960001
0.33257601 0.36480004 1.5960001
0.21736002 0.37088001 1.5960001
0.22496001 0.37164003 1.5960001
0.23104002 0.37088001 1.5960001
0.32832003 0.37391999 1.5960001
0.33287999 0.37391999 1.5960001
0.32832003 0.38152003 1.5960001
0.33288002 0.38152003 1.5960001
0.3344 0.39671999 1.5960001
0.32832003 0.40432 1.5960001
0.33402002 0.40470004 1.596
0.34124002 0.40508002 1.5960001
0.33266285 0.41430858 1.596
-0.29159334 -0.0045799999 1.603
-0.28701335 -0.0045799999 1.603
0.33739334 -0.0030533334 1.603
0.34579 -0.0061066668 1.603
0.353576 -0.0073279999 1.603
-0.29244149 0.005088889 1.6029999
-0.28526857 0.0061066668 1.6029999
-0.27418932 0.0079386663 1.603
-0.26564002 0.0083966665 1.603
-0.25648001 0.0091599999 1.603
0.28701335 0.0091599999 1.603
0.29617333 0.0050888886 1.603
0.30533332 0.001832 1.603
0.31449336 0.0010177778 1.603
0.32976002 0 1.603
-0.31144002 0.01832 1.603
-0.30838668 0.01832 1.603
-0.28192446 0.013231113 1.603
-0.27632666 0.012213334 1.603
-0.26564002 0.012213334 1.603
-0.25495335 0.012213334 1.603
-0.24365601 0.016487999 1.603
-0.23510666 0.016793335 1.603
-0.229 0.01832 1.603
0.28294221 0.015266667 1.603
-0.30838668 0.027480001 1.603
-0.23388533 0.023205332 1.603
-0.22777867 0.025037333 1.603
0.27785334 0.024426667 1.603
-0.31754667 0.036640003 1.603
-0.23205334 0.039693333 1.603
-0.22747333 0.035113335 1.6029999
0.27683556 0.034604449 1.603
-0.3206 0.0458 1.603
-0.31754667 0.0458 1.603
-0.22716801 0.045189332 1.603
0.2748 0.0458 1.603
-0.22716801 0.05434934 1.603
0.2748 0.054960001 1.603
-0.22442001 0.062593333 1.603
0.2748 0.064120002 1.603
-0.31449336 0.079386666 1.603
-0.21907666 0.075570002 1.603
0.27632666 0.074806668 1.603
-0.31220335 0.084729999 1.603
-0.30762336 0.086256668 1.603
-0.22289334 0.088546671 1.603
-0.21984001 0.082440004 1.603
0.2748 0.085493334 1.603
-0.3129667 0.094653338 1.603
-0.22472534 0.094653331 1.603
0.2748 0.096180007 1.603
-0.31144002 0.10228668 1.603
-0.22594668 0.10534001 1.6029999
0.26869336 0.10992 1.603
0.27235731 0.104424 1.603
-0.30838668 0.11602667 1.603
-0.22594669 0.11541601 1.603
0.26869336 0.11602667 1.603
0.27174667 0.11755334 1.603
-0.31144002 0.12518667 1.603
-0.30838668 0.12518667 1.603
-0.22594668 0.12518667 1.603
0.2748 0.12518667 1.603
-0.31144002 0.13587335 1.603
-0.22518334 0.13511001 1.603
0.27785334 0.13434666 1.603
0.28090668 0.1374 1.603
-0.31144002 0.14452446 1.603
-0.3073689 0.14605111 1.603
-0.22696444 0.14452444 1.6029999
0.27785334 0.14350666 1.603
0.28090668 0.14961334 1.603
-0.30489716 0.15572 1.6029999
-0.29820886 0.15775557 1.603
-0.22655734 0.15694132 1.603
0.28090668 0.15572001 1.603
-0.31144002 0.16488001 1.603
-0.30533335 0.16488001 1.6029999
-0.29846331 0.16411668 1.603
-0.22518334 0.16564335 1.603
0.28090668 0.16488001 1.603
-0.3065547 0.17403999 1.603
-0.29617333 0.17404002 1.6029999
-0.25190002 0.17709334 1.603
-0.22747333 0.17404 1.603
0.28167 0.17327668 1.603
-0.30457002 0.18549 1.6029999
-0.29685187 0.18387853 1.6029999
-0.2854867 0.18472669 1.603
-0.26411337 0.18930668 1.603
-0.25451717 0.18538097 1.603
-0.24454422 0.18514301 1.6029999
-0.23482913 0.18514304 1.6029999
-0.22696444 0.18489629 1.6029999
-0.21984001 0.18625334 1.603
0.28090668 0.1832 1.603
-0.30533335 0.19592224 1.603
-0.29922667 0.19236001 1.603
-0.28243333 0.19236001 1.603
-0.26502937 0.19724533 1.603
-0.25495335 0.19541334 1.603
-0.24513905 0.19497715 1.6029999
-0.23548834 0.19503167 1.6029999
-0.22747335 0.19236001 1.603
0.27785334 0.19388667 1.603
0.28090668 0.19846667 1.603
-0.30431557 0.20355557 1.603
-0.29820886 0.20660889 1.603
-0.26411337 0.20152001 1.603
-0.25453699 0.20429577 1.6029999
-0.24426667 0.20457336 1.6029999
-0.23693869 0.20396268 1.603
0.28090668 0.20457333 1.603
-0.30304334 0.21373335 1.603
-0.29476413 0.21561231 1.603
-0.28497779 0.21780443 1.603
-0.25314909 0.21567637 1.6029999
-0.24426667 0.21526001 1.603
-0.23754935 0.21434399 1.603
0.28395998 0.21297 1.603
0.29006669 0.21831334 1.603
-0.29312003 0.22442001 1.603
-0.28357834 0.22556502 1.6029999
-0.27523619 0.22681905 1.6029999
-0.26640335 0.22671001 1.603
-0.25304502 0.22632834 1.6029999
-0.24579334 0.22442001 1.603
-0.024426667 0.22900002 1.603
-0.0045799999 0.229 1.603
0.0045799999 0.229 1.603
0.027480001 0.229 1.603
0.033586666 0.22900002 1.603
0.056486666 0.229 1.603
0.067173339 0.22594668 1.603
0.074806668 0.22594668 1.603
0.087020002 0.229 1.603
0.094653338 0.22696446 1.603
0.10457668 0.22671002 1.603
0.11755334 0.22594668 1.603
0.12315112 0.22798224 1.603
0.13358334 0.22823668 1.603
0.14961334 0.22594668 1.603
0.15572 0.22594668 1.603
0.16564333 0.22365667 1.603
0.17251334 0.22747335 1.603
0.19694 0.229 1.603
0.20457335 0.22900002 1.603
0.21220668 0.229 1.603
0.29210222 0.22594668 1.603
-0.28090668 0.23205334 1.603
-0.27480003 0.23358004 1.603
-0.26563999 0.23510668 1.6029999
-0.25403732 0.235412 1.6029999
-0.24487734 0.23693869 1.603
-0.18014668 0.23816001 1.603
-0.17404 0.23816001 1.603
-0.16488001 0.23816001 1.603
-0.15572001 0.23816001 1.603
-0.14656 0.23816001 1.603
-0.12824 0.23510668 1.603
-0.1145 0.23816001 1.603
-0.10686667 0.23816001 1.603
-0.09312667 0.23816001 1.603
-0.085493341 0.23816001 1.603
-0.075112 0.23754935 1.603
-0.064883336 0.23739669 1.603
-0.054960001 0.23816001 1.603
-0.0458 0.23663335 1.603
-0.03435 0.23510668 1.6029999
-0.024426667 0.23205334 1.603
-0.015266667 0.23205334 1.603
-0.0061066668 0.23205334 1.603
0.0045799999 0.23205334 1.603
0.012213334 0.23205334 1.603
0.056486666 0.23205334 1.603
0.13587335 0.23205334 1.603
0.14394285 0.23597908 1.6029999
0.17607556 0.23307113 1.603
0.18472669 0.23358002 1.6029999
0.19480267 0.23327467 1.603
0.20457333 0.23205334 1.603
0.21556532 0.23327467 1.603
0.22655734 0.23632804 1.603
0.23510668 0.23587 1.603
0.24426667 0.2340889 1.603
0.25403732 0.23571734 1.603
0.26564002 0.23612446 1.603
0.27327335 0.23816001 1.603
0.2854867 0.23816001 1.603
0.29128802 0.23449603 1.603
-0.28396001 0.24732001 1.603
-0.2748 0.24579333 1.603
-0.26525837 0.24464835 1.6029999
-0.25495335 0.24121334 1.603
-0.24324888 0.24324889 1.603
-0.23548836 0.24464834 1.6029999
-0.22594668 0.24579334 1.603
-0.20152001 0.24732001 1.603
-0.19480269 0.24609867 1.603
-0.1843103 0.24454425 1.6029999
-0.17365834 0.24388501 1.6029999
-0.16488001 0.24426667 1.6029999
-0.15572001 0.24426669 1.6029999
-0.14503333 0.24274001 1.6029999
-0.13434666 0.24274002 1.603
-0.12594999 0.24197666 1.603
-0.11755334 0.24121334 1.603
-0.10381334 0.24121334 1.603
-0.093890004 0.24197666 1.603
-0.085493334 0.24273999 1.603
-0.079386666 0.24274001 1.603
-0.053433336 0.24121334 1.603
-0.047326669 0.24121334 1.603
-0.030533334 0.24121334 1.603
0.23510668 0.24121334 1.603
0.27785334 0.24274001 1.603
0.28396001 0.24273999 1.603
0.29006669 0.24121334 1.603
-0.29128802 0.25342667 1.603
-0.28396001 0.2558015 1.6029999
-0.2751053 0.25403732 1.6029999
-0.26564005 0.25495335 1.603
-0.25648001 0.25724334 1.6029999
-0.24295808 0.25560763 1.6029999
-0.23510666 0.25495335 1.603
-0.22594666 0.25342667 1.603
-0.21464935 0.25709066 1.6029999
-0.20457333 0.25037333 1.603
-0.19541335 0.25037333 1.603
-0.18930668 0.25037333 1.603
-0.15877333 0.25037333 1.603
-0.12518667 0.25190002 1.603
0.28319669 0.25800669 1.603
0.29159334 0.25953335 1.603
-0.28396001 0.26258668 1.603
-0.2748 0.26564002 1.6029999
-0.26564005 0.26564002 1.6029999
-0.25536969 0.26591757 1.6029999
-0.24426667 0.26563999 1.6029999
-0.23663335 0.26564002 1.603
-0.2153988 0.26591763 1.6029999
0.29312 0.26564002 1.603
-0.27250999 0.27403665 1.603
-0.26564002 0.2748 1.6029999
-0.25512299 0.2748 1.6029999
-0.24426667 0.27480003 1.6029999
-0.21373333 0.2748 1.6029999
0.37403333 0.27479997 1.603
-0.29312 0.2854867 1.603
-0.27174667 0.28090668 1.603
-0.26411337 0.28243333 1.603
-0.25444445 0.28497779 1.6029999
-0.24732001 0.28090668 1.603
-0.21411501 0.28357834 1.6029999
0.35724002 0.2854867 1.603
0.36487332 0.28434166 1.6029999
-0.29159334 0.29413778 1.603
-0.28308764 0.29355618 1.6029999
-0.25724334 0.29083002 1.603
0.2854867 0.29922667 1.603
0.29388335 0.29655498 1.6029999
0.35724005 0.29312003 1.603
0.36473456 0.29423025 1.6029999
-0.28090668 0.30533335 1.603
-0.25342667 0.30838668 1.603
-0.21678667 0.30380666 1.603
0.28472334 0.30457002 1.603
0.29495201 0.30533335 1.603
0.32441667 0.30609667 1.603
0.35418668 0.30533335 1.603
0.36029336 0.30686003 1.603
-0.28212801 0.31510401 1.603
-0.27785334 0.31754667 1.603
-0.22289334 0.31144002 1.603
-0.21678667 0.31449336 1.603
0.28345111 0.31449339 1.603
0.29655501 0.31487501 1.6029999
0.30329779 0.31652889 1.603
0.32365334 0.31449336 1.6029999
0.36792666 0.31754667 1.603
-0.28368244 0.32559636 1.6029999
-0.27556336 0.32747 1.603
-0.26716667 0.32976002 1.603
-0.21526 0.32747 1.603
0.27785334 0.32670668 1.603
0.28265142 0.32583427 1.6029999
0.29617333 0.32518002 1.603
0.30329779 0.32416224 1.603
0.32517999 0.32517999 1.6029999
0.36372834 0.326325 1.6029999
-0.28396001 0.33434001 1.603
-0.27556333 0.33357671 1.603
-0.2666578 0.33484891 1.603
-0.25953335 0.33586669 1.603
0.2748 0.33548498 1.6029999
0.28167 0.33510336 1.603
0.29515556 0.33586666 1.6029999
0.30228001 0.33892003 1.603
0.32517999 0.33586669 1.603
0.33739334 0.33739334 1.603
0.35418665 0.33815667 1.603
0.36578935 0.33617204 1.6029999
-0.26411337 0.34502667 1.603
-0.25953335 0.34350002 1.603
-0.20518401 0.34441599 1.603
0.27392763 0.34459046 1.6029999
0.29693666 0.34273666 1.603
0.30495167 0.34540832 1.6029999
0.31449336 0.34685868 1.603
0.32365334 0.34553555 1.603
0.35469556 0.34553555 1.603
0.36182001 0.34502664 1.603
-0.20686334 0.35495001 1.603
-0.13282001 0.35724002 1.603
-0.12518667 0.35601869 1.603
-0.032060001 0.35724002 1.603
0.0458 0.35724005 1.603
0.054196667 0.35647666 1.603
0.062593333 0.35724002 1.603
0.26869336 0.35418668 1.603
0.2748 0.35418665 1.603
0.30686003 0.35113335 1.603
0.31500223 0.35367778 1.603
0.32619777 0.35266003 1.603
0.33281335 0.35113335 1.603
0.35505906 0.35462287 1.6029999
0.36487332 0.35418668 1.603
-0.19541335 0.36029336 1.603
-0.18381068 0.36090404 1.603
-0.17404 0.36182001 1.603
-0.16488001 0.36182001 1.603
-0.15572001 0.36182001 1.603
-0.14437905 0.36203811 1.6029999
-0.13434668 0.36182001 1.603
-0.12457601 0.36151469 1.603
-0.11679 0.36258334 1.603
-0.10442401 0.36273602 1.603
-0.095416673 0.36105669 1.603
-0.087020002 0.36029336 1.603
-0.074806668 0.36182001 1.603
-0.064120002 0.36182001 1.603
-0.05597778 0.36232889 1.603
-0.044273332 0.36182001 1.603
-0.034604445 0.36368594 1.6029999
-0.024808334 0.36296502 1.6029999
-0.015266667 0.36029336 1.603
-0.0061066668 0.36029336 1.603
0.0061066668 0.36334667 1.603
0.015266667 0.36334667 1.603
0.024426667 0.36334667 1.603
0.036258332 0.36678168 1.6029999
0.045036666 0.36105669 1.603
0.054960001 0.36029336 1.603
0.064120002 0.36131111 1.603
0.074806668 0.36334667 1.603
0.087528892 0.36538222 1.603
0.094653338 0.3664 1.603
0.10381334 0.3664 1.603
0.11602667 0.36716333 1.603
0.12518667 0.36843553 1.603
0.1374 0.36334667 1.603
0.14732334 0.36716333 1.603
0.15495667 0.36868998 1.603
0.16411668 0.36716333 1.603
0.17404 0.3664 1.603
0.18442135 0.36823198 1.603
0.19236001 0.36945334 1.603
0.20610002 0.36945334 1.603
0.21220668 0.36945334 1.603
0.23816001 0.36945334 1.603
0.24426667 0.36538222 1.603
0.25444445 0.36182001 1.603
0.26360446 0.36131111 1.603
0.31477091 0.36528969 1.6029999
0.32395869 0.36487335 1.6029999
0.3381567 0.3664 1.603
0.34502664 0.36639997 1.6029999
0.35418668 0.36487332 1.603
0.36182001 0.36487335 1.603
0.19541334 0.37250671 1.603
0.20152001 0.37250668 1.603
0.21984001 0.37556002 1.603
0.22594666 0.37556002 1.603
0.23358001 0.37403333 1.603
0.29922667 0.37556002 1.603
0.30533335 0.37555999 1.6029999
0.31449333 0.37555999 1.6029999
0.32365334 0.37555999 1.6029999
0.33892003 0.37556005 1.603
0.34502667 0.37556002 1.6029999
0.35331431 0.37512383 1.6029999
0.29922667 0.38472003 1.603
0.30584222 0.38421115 1.603
0.31449333 0.38319337 1.603
0.32452574 0.38384765 1.6029999
0.33708802 0.38594136 1.603
0.34502664 0.38472 1.6029999
0.35380501 0.38472 1.6029999
0.36334667 0.38548332 1.6029999
0.33586669 0.39479598 1.6029999
0.34502664 0.39540669 1.603
0.35418668 0.39540669 1.603
0.36421904 0.39584285 1.603
0.37250668 0.39846003 1.603
0.32976002 0.4091467 1.603
0.33892003 0.40304002 1.603
0.34685868 0.40548268 1.603
0.35418668 0.40609336 1.6029999
0.36487332 0.40609336 1.603
0.32823336 0.41525337 1.603
0.33892003 0.41525331 1.603
0.34502664 0.41525331 1.6029999
0.3537505 0.41438097 1.6029999
0.36029336 0.4122 1.603
0.32670668 0.42136002 1.603
0.33624837 0.42479503 1.6029999
0.34502664 0.4228867 1.603
0.35113335 0.42136002 1.603
0.33434001 0.43357334 1.603
0.33739334 0.46410668 1.603
0.33586669 0.47326669 1.603
0.34521431 -0.012274286 1.6110001
-0.28384286 -0.0046028569 1.6110001
-0.27693859 -0.0038357144 1.6110001
0.30510858 -0.003081905 1.618
0.31407961 -0.0049283812 1.6166
0.32360002 -0.0041092066 1.618
0.33414859 -0.0049150479 1.6124001
0.34470287 -0.0081828572 1.6110001
0.35902286 -0.0030685714 1.6110001
0.36209145 -0.0030685714 1.6110001
-0.28353602 0.0024548571 1.6110001
-0.27487317 0.0024548573 1.6124001
-0.26328343 0.0042960001 1.6110001
-0.25425309 0.0052604084 1.6110001
-0.24549739 0.0064855027 1.6133333
-0.23695999 0.0092323814 1.6156667
0.28673488 0.0067668571 1.6152
0.29522288 0.002559365 1.6145
0.3037886 0 1.6110001
0.3129943 0 1.6110001
0.3252686 0 1.6110001
-0.24548572 0.012274285 1.6110001
-0.23402782 0.012898667 1.6124001
-0.22602887 0.015371747 1.6145
0.27861714 0.017415239 1.6133333
0.28169015 0.013314921 1.6133333
-0.22354041 0.024155919 1.6140001
0.27630097 0.025395716 1.61625
-0.22310205 0.034693878 1.6140001
-0.21881525 0.033900954 1.618
0.27503273 0.035339683 1.6133333
-0.22295143 0.04510127 1.6145
-0.21881525 0.049310479 1.618
0.27349845 0.046099681 1.6133333
-0.22316229 0.054713912 1.6138
0.27349845 0.055318732 1.6133333
-0.22228003 0.064533331 1.6133333
0.27428955 0.063179053 1.618
-0.22189716 0.070883811 1.618
0.2752305 0.075340003 1.6145
-0.31606287 0.087454289 1.6110001
-0.22093715 0.087454289 1.6110001
-0.21818413 0.086048894 1.6133333
0.27404791 0.085637823 1.6140001
-0.31606287 0.092057146 1.6110001
-0.2224243 0.095435716 1.61625
-0.21849971 0.09540128 1.6156667
0.26812571 0.098620959 1.618
0.27272898 0.094864495 1.6140001
-0.2217043 0.10509858 1.6110001
-0.21733476 0.10444476 1.6127501
0.26812571 0.10478476 1.618
0.27003428 0.10433143 1.6110001
-0.30992573 0.11967429 1.6110001
-0.22225225 0.11485224 1.6110001
-0.21715905 0.11523365 1.6133333
0.26812571 0.11403048 1.618
-0.31606287 0.12734571 1.6110001
-0.22247143 0.12581144 1.6110001
-0.21881525 0.12635811 1.618
0.26812571 0.12019429 1.618
0.27149639 0.12653714 1.6124001
-0.31606287 0.13501716 1.6110001
-0.22216459 0.13440344 1.6110001
-0.21677677 0.13671657 1.6166
0.2737577 0.13534456 1.6148889
-0.31606287 0.14115429 1.6110001
-0.22216459 0.14483657 1.6110001
-0.21676064 0.14433587 1.618
0.27465582 0.14414069 1.615
-0.3129943 0.15649715 1.6110001
-0.30839145 0.15649715 1.6110001
-0.22225225 0.15474367 1.6110001
-0.21644507 0.15387082 1.6156667
0.27777049 0.15406215 1.613625
-0.22216459 0.16508916 1.6110001
-0.21881525 0.16488191 1.618
0.27817222 0.16523375 1.615
-0.30532289 0.17490858 1.6110001
-0.22279143 0.17516415 1.6133333
-0.21881525 0.17258668 1.618
0.27830571 0.17528857 1.6145
-0.30378857 0.18104573 1.6110001
-0.22295144 0.18297668 1.6145
-0.21881525 0.18799619 1.618
0.27730167 0.18499954 1.615375
-0.31360802 0.19577487 1.6110001
-0.30992573 0.19178572 1.6110001
-0.24241716 0.19792286 1.6110001
-0.23116572 0.19843429 1.6110001
-0.223488 0.19555068 1.6117001
0.27609423 0.19452804 1.6125556
-0.31445387 0.20642123 1.6140001
-0.30839145 0.20712858 1.6110001
-0.23233469 0.20603266 1.6110001
-0.22499429 0.20576739 1.615375
0.27685168 0.20466192 1.6127501
-0.31498417 0.21510668 1.6133333
-0.30869833 0.21480003 1.6110001
-0.23282784 0.21518359 1.6110001
-0.22543673 0.2157736 1.615
0.061638098 0.21881525 1.618
0.21265143 0.21881525 1.618
0.27830571 0.21372905 1.6145
0.28261191 0.2173381 1.6127501
-0.31312153 0.22497904 1.618
-0.30440229 0.22400573 1.6110001
-0.24241716 0.22554001 1.6110001
-0.23432727 0.22428469 1.6110001
-0.22411238 0.22411238 1.6117778
-0.21804477 0.22574954 1.618
-0.16488191 0.22806096 1.618
-0.1525543 0.22806096 1.618
-0.093998097 0.22806096 1.618
-0.083827808 0.22744457 1.618
-0.073965721 0.22806096 1.618
-0.067801908 0.22806096 1.618
-0.053933334 0.22652 1.618
-0.045348026 0.22629987 1.618
-0.035361905 0.22654033 1.6145
-0.024601907 0.22602667 1.6145
-0.015409523 0.22652 1.618
-0.0061571426 0.22619112 1.6156667
0.0041003176 0.22556785 1.6148889
0.015409525 0.22652 1.618
0.025271619 0.22682819 1.618
0.033827618 0.22602667 1.6145
0.044687618 0.22652 1.618
0.055474292 0.22652 1.618
0.063721359 0.2245581 1.615
0.074384764 0.22562249 1.6138
0.085252784 0.22587702 1.615
0.094668575 0.22550288 1.61625
0.10478476 0.22497906 1.618
0.11321943 0.22581716 1.6152
0.12544928 0.22473238 1.61625
0.13530827 0.22500382 1.6145
0.14474286 0.22635555 1.6168333
0.15459101 0.22310205 1.6140001
0.1648819 0.22189716 1.618
0.17557713 0.22398214 1.613625
0.18438096 0.22432572 1.6133333
0.1947401 0.22463499 1.6135455
0.20533526 0.22408286 1.6138
0.21488309 0.22487262 1.6145
0.22465682 0.22619112 1.6156667
0.23422475 0.22652 1.618
0.24404819 0.22645822 1.6160001
0.25271621 0.22806096 1.618
0.27737144 0.22652 1.618
0.28435063 0.2244124 1.6139168
0.29151431 0.2270743 1.6110001
-0.3122997 0.23422475 1.618
-0.30452338 0.23377882 1.6148889
-0.2945829 0.2347457 1.6110001
-0.28605902 0.23593906 1.6110001
-0.27617145 0.23934858 1.6110001
-0.24504733 0.2323347 1.6110001
-0.23474573 0.2347457 1.6110001
-0.22400574 0.23474573 1.6110001
-0.21695347 0.23452246 1.6140001
-0.19066477 0.23832762 1.6145
-0.18505068 0.23791809 1.6138
-0.17459621 0.23668799 1.6138
-0.16490944 0.2333882 1.6141819
-0.15395118 0.23441315 1.6135455
-0.14422996 0.23478426 1.6141819
-0.1352116 0.23508018 1.6133333
-0.12450048 0.23439635 1.6139168
-0.11492208 0.23459738 1.6148182
-0.10453439 0.23468168 1.6141112
-0.095599234 0.23422647 1.6138
-0.085994661 0.23402517 1.6124001
-0.075127788 0.23320518 1.6129092
-0.064194769 0.23332952 1.6145
-0.055342436 0.23365736 1.6141112
-0.046095241 0.23201048 1.6133333
-0.035288572 0.23116571 1.6110001
-0.015342858 0.23014288 1.6110001
-0.0092057148 0.23014286 1.6110001
0.015342859 0.23014288 1.6110001
0.023014287 0.23014286 1.6110001
0.039891429 0.23014286 1.6110001
0.046028573 0.23014288 1.6110001
0.052165717 0.23014286 1.6110001
0.14360914 0.2313703 1.6110001
0.17797714 0.23014286 1.6110001
0.18411429 0.23014288 1.6110001
0.19178572 0.23014286 1.6110001
0.21786858 0.23014286 1.6110001
0.22400571 0.23167716 1.6110001
0.2347457 0.23167714 1.6110001
0.24548574 0.23137029 1.6110001
0.25524476 0.23217715 1.6145
0.26399001 0.23320097 1.61625
0.27513048 0.23439746 1.6139168
0.28465056 0.2335813 1.6116364
0.29151431 0.23014286 1.6110001
-0.30356765 0.24192953 1.618
-0.29501399 0.24584129 1.6133333
-0.28537714 0.24510214 1.6110001
-0.27463716 0.24241716 1.6110001
-0.23167714 0.24241716 1.6110001
-0.22277829 0.24425831 1.6110001
-0.21517067 0.24529333 1.6138
-0.20542327 0.24447544 1.6145
-0.19575377 0.24227592 1.613
-0.30356765 0.2557981 1.618
-0.29658628 0.25658289 1.6152
-0.28537714 0.25366858 1.6110001
-0.23014286 0.25315714 1.6110001
-0.22444408 0.25469145 1.6110001
-0.21556716 0.25239 1.6110001
-0.30279717 0.26581427 1.618
-0.29545146 0.26471072 1.613625
-0.28537714 0.26696572 1.6110001
-0.23137029 0.26451087 1.6110001
-0.22554 0.26389715 1.6110001
-0.30325946 0.27367315 1.618
-0.2949062 0.27493384 1.6127501
-0.28537714 0.27463719 1.6110001
-0.27801257 0.27678517 1.6110001
-0.24241716 0.27924001 1.6110001
-0.2347457 0.27463719 1.6110001
-0.22428469 0.27505562 1.6110001
-0.30217841 0.28527239 1.6133333
-0.29458287 0.28493878 1.6110001
-0.28500876 0.28593469 1.6124001
-0.27433029 0.28537712 1.6110001
-0.26543143 0.28844571 1.6110001
-0.24481398 0.28578901 1.6133333
-0.23547769 0.2843509 1.6148889
-0.22444129 0.28593123 1.6141112
0.37436575 0.28493878 1.6110001
-0.30247429 0.29479843 1.6121668
-0.29581028 0.29581028 1.6110001
-0.28402132 0.2950922 1.6138
-0.27383658 0.29501775 1.6117001
-0.26477391 0.29502124 1.6110001
-0.25425309 0.2954596 1.6110001
-0.24666761 0.29515925 1.61625
-0.22355428 0.29437679 1.6166
0.36822858 0.29151431 1.6110001
0.37283143 0.29151431 1.6110001
-0.30148715 0.30302143 1.6110001
-0.29488975 0.30624345 1.6110001
-0.28691143 0.30532286 1.6110001
-0.27478716 0.30548707 1.6118751
-0.26389715 0.30532289 1.6110001
-0.25469145 0.30490443 1.6110001
-0.24652609 0.30646327 1.6138
-0.23934858 0.30839145 1.6110001
-0.22312991 0.30510861 1.618
-0.21786858 0.30992573 1.6110001
0.28844571 0.30839145 1.6110001
0.29212803 0.30562973 1.6110001
-0.30115557 0.3154889 1.6133333
-0.29472658 0.31621397 1.6117778
-0.28767857 0.31529573 1.6110001
-0.27421874 0.31578392 1.6110001
-0.26485407 0.31636262 1.6145
-0.25469145 0.31606284 1.6110001
-0.24548571 0.31606287 1.6110001
-0.23509759 0.3159036 1.6126155
-0.22389221 0.31541163 1.6124001
0.28844571 0.31452858 1.6110001
0.29228145 0.31529573 1.6110001
-0.30202669 0.32976383 1.618
-0.29512954 0.32630888 1.6140001
-0.28844571 0.3222 1.6110001
-0.27421871 0.32554758 1.6110001
-0.26427561 0.32549623 1.6152
-0.25567663 0.32652637 1.6172223
-0.24548572 0.32526863 1.6110001
-0.23483016 0.32538524 1.6115834
-0.22438928 0.32488504 1.6110001
-0.21786858 0.32373428 1.6110001
0.28844571 0.3252686 1.6110001
0.29151431 0.3252686 1.6110001
0.36822858 0.3252686 1.6110001
0.37129715 0.3252686 1.6110001
-0.30148715 0.33524144 1.6110001
-0.2945829 0.33447427 1.6110001
-0.27310288 0.33754286 1.6110001
-0.26338574 0.33498573 1.6110001
-0.25542626 0.33544171 1.6156667
-0.24603873 0.33490029 1.618
-0.23934858 0.3344743 1.6110001
-0.22247145 0.33140573 1.6110001
-0.21394324 0.33444458 1.6138
0.28767857 0.33524144 1.6110001
0.29151431 0.3344743 1.6110001
-0.30325943 0.34578973 1.618
-0.29543912 0.34467852 1.6156667
-0.28519565 0.34444436 1.6117001
-0.27463713 0.34521428 1.6110001
-0.26440859 0.34623718 1.6110001
-0.25543696 0.34488973 1.6138
-0.24963431 0.34517336 1.618
-0.21219143 0.34596431 1.6145
0.27924001 0.34828287 1.6110001
0.28565609 0.34563276 1.6110001
0.29381573 0.34674862 1.6110001
0.30072001 0.34981716 1.6110001
0.32833716 0.34981716 1.6110001
-0.30459496 0.35339177 1.618
-0.29647923 0.35256991 1.618
-0.28441578 0.35441905 1.618
-0.27389845 0.3554467 1.6156667
-0.26389715 0.35595429 1.6110001
-0.25547811 0.35441932 1.6160001
-0.21219143 0.35518667 1.6145
0.27693859 0.35595429 1.6110001
0.28529498 0.35551757 1.613
0.29512477 0.35576406 1.6118751
0.30470917 0.35656801 1.6110001
0.31504002 0.35697713 1.6110001
0.32465488 0.35718173 1.6110001
-0.28045335 0.36982858 1.618
-0.27368936 0.36519328 1.6160909
-0.26389715 0.36516005 1.6110001
-0.25653881 0.3653762 1.615375
-0.24809334 0.36982858 1.618
-0.23268381 0.36828762 1.618
-0.22497904 0.36751714 1.618
-0.21265143 0.36058286 1.618
-0.20362382 0.36519492 1.6156667
-0.19346224 0.36696097 1.6121668
-0.184728 0.36700115 1.6110001
-0.17490858 0.36822858 1.6110001
-0.16570286 0.36822858 1.6110001
-0.1551262 0.36862859 1.6127501
-0.14591715 0.36709431 1.6127501
-0.13501714 0.36822858 1.6110001
-0.12657857 0.36746144 1.6110001
-0.11507144 0.36822858 1.6110001
-0.10433143 0.36822858 1.6110001
-0.094760001 0.36796114 1.6152
-0.085306115 0.36805445 1.6160001
-0.073032007 0.36700115 1.6110001
-0.06452889 0.3687619 1.6133333
-0.055414289 0.36866143 1.61625
-0.045139048 0.36827239 1.6156667
-0.033754285 0.36822858 1.6110001
-0.021480002 0.36822858 1.6110001
-0.015351745 0.36696097 1.6121668
-0.0061460319 0.36722764 1.6133333
0.0036822855 0.36793485 1.6124001
0.015342858 0.36822858 1.6110001
0.024548573 0.36822858 1.6110001
0.046684951 0.36732113 1.6124001
0.055354286 0.36749426 1.6145
0.063994288 0.36796114 1.6152
0.075180002 0.36822858 1.6110001
0.082851432 0.36822858 1.6110001
