# .PCD v0.7 - Point Cloud Data file format
VERSION 0.7
FIELDS x y z
SIZE 4 4 4
TYPE F F F
COUNT 1 1 1
WIDTH 1495
HEIGHT 1
VIEWPOINT 0 0 0 1 0 0 0
POINTS 1495
DATA ascii
0.39685333 0.42358428 1.7545002
0.40373242 0.42718574 1.7590001
-0.10290749 0.43604058 1.7589999
-0.093812153 0.43402863 1.7511251
-0.084000006 0.43533334 1.7500002
0.39736333 0.43500477 1.7567501
0.40205717 0.43556193 1.7590002
-0.10331739 0.44462669 1.75675
-0.093333334 0.44333336 1.7500001
-0.083803572 0.44320169 1.7511251
-0.076666668 0.44166669 1.7500001
0.39574134 0.44445258 1.7518002
0.40205717 0.44561335 1.7590002
-0.10135191 0.45482719 1.7590001
-0.093384773 0.45359242 1.751
-0.08338286 0.45359242 1.751
-0.075333335 0.454 1.7500002
0.39567998 0.45411336 1.7530001
0.40205717 0.45398957 1.7590001
-0.10051429 0.46236572 1.7590001
-0.093214534 0.46441025 1.755625
-0.083573334 0.46466288 1.755
-0.074285708 0.46333334 1.7500001
0.39602003 0.46452478 1.7545
-0.082086667 0.47576761 1.7589999
-0.07354857 0.47468382 1.755
-0.06666667 0.47166669 1.7500001
0.39602003 0.47455049 1.7545
-0.082086667 0.48581907 1.7589999
-0.074078858 0.48182708 1.7518002
0.39515999 0.48439866 1.7538573
-0.090462863 0.49754572 1.7590001
-0.083343104 0.49628934 1.7589999
-0.075000003 0.495 1.7500001
0.3855556 0.49555555 1.7500001
0.39401335 0.4941791 1.753
0.40429083 0.49810413 1.7590002
-0.09130048 0.50508434 1.7590001
-0.083761908 0.50592196 1.7589999
-0.075412191 0.50452113 1.7518002
0.38583335 0.50416666 1.7500001
0.39367333 0.50209528 1.7515001
0.40391126 0.5035463 1.7554001
0.4121086 0.50759715 1.7590001
-0.10163111 0.51820701 1.7590002
-0.093214527 0.5153957 1.755625
-0.083619051 0.51508766 1.756
-0.075491048 0.51505262 1.7536001
0.375 0.51666671 1.7500001
-0.091666669 0.52000004 1.7500001
-0.083333343 0.52000004 1.7500001
-0.076666668 0.52000004 1.7500001
0.37748697 0.52379113 1.7590002
-0.11113143 -0.020205716 1.7680001
0.3872762 -0.026940953 1.7680001
0.39064384 -0.026940953 1.7680001
0.41758478 -0.020205716 1.7680001
0.42095241 -0.020205716 1.7680001
-0.1229181 -0.010102858 1.7680001
-0.11618286 -0.013470476 1.7680001
0.42600381 -0.013470476 1.7680001
0.43105525 -0.010102858 1.7680001
-0.1324597 -0.004490159 1.7680001
-0.12684698 -0.0056126988 1.7680001
0.44115812 -0.0033676191 1.7680001
-0.14144 0.0067352382 1.7680001
-0.13518587 0.0024054423 1.7679999
0.44115815 0.0033676189 1.7680001
-0.14312381 0.013470477 1.768
0.44200003 0.014312381 1.7680001
-0.14480762 0.024246857 1.768
0.44284192 0.020205716 1.7680001
-0.14615467 0.033676192 1.768
0.44452572 0.033676192 1.7680001
-0.1468282 0.043105524 1.768
0.4436838 0.044620954 1.7680001
-0.14817524 0.052198097 1.7680001
0.44115815 0.05388191 1.7680001
-0.1468282 0.064658284 1.768
0.43779048 0.063984767 1.7680001
0.44115812 0.067352384 1.7680001
-0.14384545 0.073606536 1.7679999
0.44200003 0.07408762 1.7680001
-0.14278705 0.083516963 1.768
0.44250518 0.083516955 1.768
-0.14144 0.094293334 1.7680001
-0.13807239 0.095977142 1.7680001
0.44115812 0.090925716 1.7680001
-0.14144 0.10439619 1.7680001
-0.13807239 0.10439619 1.7680001
0.43779048 0.10608 1.7680001
-0.14144 0.11449905 1.7680001
-0.13807239 0.11449905 1.7680001
0.43666795 0.11449905 1.7680001
0.44115812 0.11113143 1.7680001
-0.14144 0.12123429 1.7680001
-0.13807239 0.12460191 1.7680001
0.43442288 0.12460191 1.7680001
-0.13723047 0.13554667 1.7680001
0.43358096 0.13554667 1.7680001
-0.13566694 0.14480762 1.7679999
0.42768764 0.14817524 1.7680001
0.43105522 0.14480762 1.7680001
-0.13358223 0.15378793 1.768
0.42768764 0.15659429 1.7680001
0.43105522 0.15491049 1.7680001
-0.13133715 0.16501333 1.7680001
0.42768764 0.16501334 1.7680001
0.43105522 0.16501334 1.7680001
-0.13217907 0.1759581 1.7680001
0.42768764 0.17343238 1.7680001
0.43105522 0.17511618 1.7680001
-0.13302097 0.18521905 1.768
0.42768764 0.18521905 1.7680001
0.43105525 0.18521905 1.7680001
-0.13386287 0.19616382 1.7680001
0.42768764 0.19700572 1.7680001
0.43105525 0.1919543 1.7680001
-0.13302097 0.20542477 1.7680001
0.42566705 0.20475125 1.768
0.43105525 0.20542477 1.7680001
-0.13133715 0.21552764 1.7680001
-0.12796953 0.21721143 1.7680001
0.42684573 0.21468572 1.7680001
-0.12502286 0.22605143 1.7679999
0.42544258 0.22563048 1.7680001
0.43105525 0.22563048 1.7680001
-0.13133715 0.23741716 1.7680001
-0.12662247 0.23573335 1.768
0.4217943 0.23489144 1.7680001
-0.13133715 0.2458362 1.7680001
-0.12796953 0.2458362 1.7680001
0.42179433 0.2466781 1.7680001
-0.13133715 0.25593907 1.7680001
0.42297298 0.25593907 1.768
-0.13217905 0.2660419 1.7680001
0.42297298 0.26604193 1.768
-0.13133715 0.27277714 1.7680001
0.4234781 0.27530289 1.7680001
-0.12712762 0.28708953 1.7680001
0.42516193 0.28708953 1.7680001
-0.12544382 0.29550859 1.7680001
0.42600384 0.29635048 1.768
-0.1229181 0.30645332 1.768
-0.11786667 0.30813715 1.7680001
0.42432001 0.30645335 1.7680001
-0.1220762 0.3157143 1.7680001
-0.11786667 0.31655622 1.7680001
0.41758478 0.31992382 1.7680001
0.42095241 0.31655622 1.7680001
-0.12235683 0.32553652 1.7680001
-0.11786667 0.32497525 1.7680001
0.41758478 0.32497525 1.7680001
0.42095241 0.32665905 1.7680001
-0.1229181 0.33171049 1.7680001
-0.1158461 0.33474135 1.768
-0.10776381 0.33676192 1.7680001
0.41674286 0.33339429 1.7680001
-0.12235683 0.34461966 1.7680001
-0.11449905 0.34307623 1.7679999
-0.10776381 0.34181333 1.7680001
0.41590098 0.34349716 1.768
0.42095241 0.34349716 1.7680001
-0.1220762 0.35444191 1.7680001
-0.11449905 0.35402098 1.7679999
0.41477838 0.35360003 1.768
-0.12123429 0.36370286 1.7680001
-0.11651962 0.36302933 1.768
0.41287011 0.36302933 1.768
-0.12123429 0.37380573 1.7680001
-0.11702476 0.37464762 1.7680001
0.41505903 0.37464762 1.7680001
-0.12123429 0.3839086 1.7680001
-0.11618286 0.3839086 1.768
0.41646221 0.38166353 1.7680001
0.42095241 0.3839086 1.7680001
-0.12123429 0.39064384 1.7680001
-0.11449905 0.39449254 1.7679999
-0.10608 0.39737907 1.7680001
0.41646221 0.39625654 1.7680001
-0.12123429 0.40748191 1.7680001
-0.11449905 0.40411425 1.7679999
-0.10664127 0.40186921 1.7680001
0.40748191 0.40579811 1.7680001
0.41365591 0.40411425 1.768
-0.12123429 0.41084954 1.7680001
-0.11492001 0.41463816 1.7679999
-0.10776381 0.41758478 1.7680001
0.40663999 0.41505906 1.7680001
0.41169146 0.41337526 1.7680001
-0.11618286 0.42432001 1.768
0.40579811 0.42263621 1.7680001
0.41287011 0.42566711 1.768
-0.11281523 0.43442288 1.768
-0.1077638 0.43442285 1.7680001
0.40748191 0.43610668 1.7680001
0.41253337 0.43442288 1.768
-0.11281523 0.44452572 1.768
0.40748191 0.44452572 1.7680001
0.41169143 0.4436838 1.7680001
-0.11281524 0.45462856 1.768
-0.10692191 0.4554705 1.7680001
0.40748191 0.45462859 1.7680001
0.41084954 0.45294476 1.7680001
-0.11337651 0.46585402 1.7680001
-0.10535836 0.46521255 1.7679999
0.40579808 0.46473145 1.768
-0.11113143 0.47483429 1.7680001
-0.10271238 0.47399238 1.7680001
-0.094774425 0.47579646 1.7679999
-0.087558098 0.47651809 1.7680001
0.40411434 0.47483429 1.7680001
-0.11281523 0.48493719 1.768
-0.10439619 0.48589936 1.7679999
-0.094293334 0.48493713 1.7679999
-0.087558098 0.48493716 1.7680001
0.40495622 0.48577911 1.7680001
-0.11353687 0.49504003 1.7679999
-0.10439619 0.49504 1.7679999
-0.094714284 0.49461904 1.7679999
-0.087558098 0.49335623 1.7680001
0.40546137 0.4943665 1.768
0.41084954 0.49840763 1.7680001
-0.11113143 0.50177526 1.7680001
-0.10439619 0.50514293 1.7679999
-0.096313909 0.50514287 1.768
0.41253334 0.5034591 1.7680001
-0.10383492 0.51524574 1.768
-0.096538417 0.51300067 1.7680001
-0.11281524 0.521981 1.7680001
-0.10776381 0.521981 1.7680001
-0.13200572 -0.010154286 1.7770001
-0.1252362 -0.012410794 1.7770001
-0.11846667 -0.016923809 1.7770001
0.42817241 -0.016923809 1.7770001
0.43494192 -0.011846667 1.7770001
-0.13708286 -0.0050771432 1.7770001
-0.14328825 0.0033847622 1.7770001
0.44678858 0.0033847622 1.7770001
-0.14892954 0.013539049 1.7770001
0.44678858 0.011846667 1.7770001
-0.14892954 0.022000954 1.7770001
-0.15231429 0.037232384 1.7770001
-0.14892954 0.033847619 1.7770001
0.45355809 0.03554 1.7770001
0.46032763 0.03554 1.7770001
-0.15231429 0.044001907 1.7770001
0.45355809 0.042309526 1.7770001
-0.15231429 0.054156195 1.7770001
0.44678858 0.054156195 1.7770001
-0.15231429 0.062618092 1.7770001
0.44509622 0.064310476 1.7770001
-0.14892954 0.076157153 1.7770001
0.44678858 0.074464768 1.7770001
0.45355812 0.074464768 1.7770001
0.46032763 0.072772384 1.7770001
-0.14780128 0.084619053 1.7770001
0.44678858 0.088003814 1.7770001
0.45017335 0.084619053 1.7770001
-0.14554477 0.09477333 1.7770001
0.44453207 0.09477333 1.7770001
-0.14639096 0.10408143 1.7770001
0.44509622 0.10492762 1.7770001
-0.14554477 0.11508191 1.7770001
0.44408077 0.11643581 1.7770001
0.45017335 0.11169714 1.7770001
-0.14385238 0.12354381 1.7770001
0.44171143 0.1252362 1.7770001
-0.14216 0.13539048 1.7770001
0.44086528 0.13454428 1.7770001
-0.14216 0.14554477 1.7770001
0.4366343 0.14554477 1.7770001
0.44283971 0.1461089 1.7770001
0.45186573 0.14216 1.7770001
-0.14216 0.15231429 1.7770001
-0.13764699 0.15795556 1.7770001
0.4366343 0.15569906 1.7770001
0.44001904 0.15569906 1.7770001
-0.13539048 0.16585334 1.7770001
0.4366343 0.16585334 1.7770001
0.44001904 0.16585334 1.7770001
-0.13539048 0.17431524 1.7770001
0.4366343 0.17600763 1.7770001
0.44001907 0.17431524 1.7770001
0.43578809 0.18616191 1.7770001
0.43528041 0.19699314 1.7770001
0.42986476 0.20985524 1.7770001
0.43437779 0.20534223 1.7770001
0.43324953 0.21493238 1.7770001
-0.13200572 0.22508667 1.7770001
0.43437779 0.22339429 1.7770001
-0.13200572 0.2318562 1.7770001
0.42901859 0.23439477 1.7770001
0.43437779 0.23129207 1.7770001
0.42817238 0.24370284 1.7770001
-0.13200572 0.2572419 1.7770001
0.42986476 0.25385714 1.7770001
0.43324953 0.2572419 1.7770001
-0.13708286 0.26570383 1.7770001
0.42986476 0.26401144 1.7770001
0.43494192 0.26739621 1.7770001
-0.13426222 0.27416572 1.7770001
0.42986476 0.27416572 1.7770001
0.43324953 0.27247334 1.7770001
-0.13200572 0.28262764 1.7770001
0.42986476 0.28601238 1.7770001
-0.12862095 0.29785907 1.7770001
-0.12862095 0.30462858 1.7770001
0.42986476 0.30801335 1.7770001
0.43324953 0.30801335 1.7770001
-0.12749271 0.31478289 1.7770001
0.42851084 0.31545982 1.7770001
0.43324953 0.31139812 1.7770001
-0.12692857 0.32493716 1.7770001
0.42715693 0.32426021 1.7770001
-0.1265901 0.33644536 1.7770001
0.42535174 0.3362197 1.7770001
-0.12636445 0.34468162 1.7770001
0.42648003 0.34476218 1.7770002
0.43324953 0.34524572 1.7770001
-0.12692857 0.35370767 1.7770001
0.41971049 0.35878477 1.7770001
0.42422351 0.35314354 1.7770001
-0.12608239 0.3655543 1.7770001
0.41971049 0.3655543 1.7770001
0.42309526 0.36724669 1.7770001
-0.1252362 0.37232381 1.7770001
0.41971049 0.3740162 1.7770001
0.42309526 0.37570858 1.7770001
-0.12636445 0.38811937 1.7770001
0.42422351 0.38473463 1.7770001
-0.12297968 0.39601716 1.7770001
-0.11846667 0.39601716 1.7770001
0.42309526 0.39601716 1.7770001
-0.12297968 0.40617144 1.7770001
0.41971049 0.40786383 1.7770001
-0.12185143 0.4180181 1.7770001
0.41835657 0.41700268 1.7770001
-0.12185143 0.42648 1.7770001
0.41745397 0.42422351 1.7770001
0.41971049 0.43494192 1.7770001
0.41886431 0.44425005 1.7770001
0.41632572 0.45355812 1.7770001
-0.11338952 0.46371239 1.7770001
0.41378716 0.46286619 1.7770001
-0.11395365 0.4738667 1.7770001
-0.10718413 0.47612318 1.7770001
0.40955621 0.47555906 1.7770001
0.41294098 0.4738667 1.7770001
-0.1252362 0.48232859 1.7770001
-0.11733842 0.48402095 1.7770001
-0.10492762 0.48232859 1.7770001
0.40955624 0.48402095 1.7770001
0.41294098 0.48740572 1.7770001
-0.12320534 0.49485222 1.7770001
-0.11846667 0.49248287 1.7770001
0.41294098 0.49417529 1.7770001
-0.12185143 0.50094479 1.7770001
-0.11621016 0.50545782 1.7770001
0.41858223 0.50432962 1.7770001
0.42478764 0.50602198 1.7770001
-0.11508191 0.51109904 1.7770001
-0.10831238 0.51617622 1.7770001
0.41971049 0.51109904 1.7770001
0.42864001 -0.02041143 1.7860001
0.43204191 -0.02041143 1.7860001
-0.1360762 -0.010205715 1.7860001
-0.12927239 -0.013607619 1.7860001
0.43714476 -0.015308572 1.7860001
-0.14401399 -0.004535873 1.7860001
-0.1394781 -0.0068038097 1.7860001
0.44564953 -0.005102857 1.7860001
-0.14798287 0.0034019048 1.7860001
0.45415431 0 1.7860001
-0.15308572 0.013607618 1.7860001
-0.15308572 0.023813335 1.7860001
0.44905144 0.027215239 1.7860001
-0.15421969 0.034019049 1.7860001
-0.15648763 0.045925714 1.7860001
0.45585525 0.047626663 1.7860001
-0.15648763 0.054430474 1.7860001
0.45245335 0.051028572 1.7860001
-0.15535367 0.064636193 1.7860001
0.44905144 0.061234288 1.7860001
0.45358732 0.066904128 1.7860001
-0.15308572 0.073140956 1.7860001
0.45585525 0.074841909 1.7860001
0.46265906 0.078243814 1.7860001
-0.15308572 0.083346672 1.7860001
-0.14968382 0.08844953 1.7860001
0.45755616 0.085047625 1.7860001
0.46265906 0.08164572 1.7860001
-0.14968382 0.095253326 1.7860001
0.44905144 0.096954286 1.7860001
0.45330384 0.094402865 1.7860001
-0.14968382 0.10716 1.7860001
0.45381412 0.10613942 1.786
-0.14968382 0.11566477 1.7860001
0.44905144 0.11566477 1.7860001
0.45358732 0.11566476 1.7860001
-0.14628191 0.12672096 1.7860001
0.44905147 0.12587048 1.7860001
-0.14628191 0.1360762 1.7860001
0.44769067 0.13675657 1.786
0.45381412 0.13675657 1.786
-0.14628191 0.14628191 1.7860001
0.44678351 0.14514793 1.7860001
0.45415431 0.14798287 1.7860001
-0.14288001 0.15648763 1.7860001
0.44701028 0.15648761 1.786
-0.1394781 0.16669334 1.7860001
0.44564953 0.16669334 1.7860001
-0.1394781 0.17349716 1.7860001
0.44701028 0.17349717 1.786
-0.14288001 0.18710476 1.7860001
-0.1394781 0.18370287 1.7860001
0.44522431 0.18370286 1.7860001
-0.14288001 0.19390857 1.7860001
-0.1394781 0.19390857 1.7860001
0.44360837 0.1932282 1.786
-0.1394781 0.20411427 1.7860001
0.43884572 0.20751619 1.7860001
-0.13777715 0.21346952 1.7860001
0.43884572 0.21432 1.7860001
-0.1360762 0.22452573 1.7860001
0.43884572 0.22282477 1.7860001
0.44224763 0.22792763 1.7860001
-0.1360762 0.23473144 1.7860001
0.43771175 0.23699938 1.7860001
0.44394857 0.23132953 1.7860001
-0.1360762 0.24493714 1.7860001
0.43714476 0.24493717 1.7860001
-0.13743696 0.25582325 1.786
0.43748492 0.25446248 1.786
-0.13834412 0.26308063 1.7860001
0.4365778 0.26308063 1.7860001
-0.13834412 0.2755543 1.7860001
0.43544382 0.2789562 1.7860001
-0.13494223 0.28576002 1.7860001
0.43430987 0.28576002 1.7860001
-0.13267429 0.2959657 1.7860001
0.43544379 0.29596576 1.7860001
-0.13352476 0.30702192 1.7860001
0.43544382 0.30447048 1.7860001
-0.13380826 0.31410924 1.7860001
-0.12927239 0.31977907 1.7860001
0.43544382 0.3180781 1.7860001
-0.13267429 0.32658288 1.7860001
-0.12927239 0.32318097 1.7860001
0.42864001 0.32998478 1.7860001
0.43374288 0.32488191 1.7860001
-0.13267429 0.33508766 1.7860001
0.42864001 0.33338669 1.7860001
0.43204191 0.33508766 1.7860001
-0.13267429 0.34359241 1.7860001
0.43544382 0.3401905 1.7860001
-0.13267429 0.35379815 1.7860001
-0.13267429 0.36740574 1.7860001
-0.12927239 0.3623029 1.7860001
0.42637208 0.36400381 1.7860001
-0.13267429 0.37250859 1.7860001
-0.1284219 0.37505999 1.7860001
0.42864001 0.37420952 1.7860001
0.43204191 0.37420952 1.7860001
-0.13267429 0.38781714 1.7860001
-0.12791163 0.38373488 1.786
0.42864001 0.38441524 1.7860001
0.43204191 0.38441524 1.7860001
-0.12813842 0.39688888 1.7860001
0.42864001 0.39462098 1.7860001
-0.12757143 0.40482667 1.7860001
0.42637208 0.40482664 1.7860001
-0.12757143 0.41503239 1.7860001
0.4252381 0.41333145 1.7860001
-0.12473651 0.4252381 1.7860001
0.42410412 0.42637205 1.7860001
-0.12587048 0.43430984 1.7860001
-0.11906667 0.43714476 1.7860001
0.4252381 0.43544379 1.7860001
-0.12587048 0.44607478 1.7860001
-0.11906668 0.44564953 1.7860001
0.4252381 0.44394857 1.7860001
-0.12450973 0.45449454 1.786
-0.11906668 0.45585525 1.7860001
0.42183623 0.45585525 1.7860001
-0.13267429 0.46606097 1.7860001
-0.12544525 0.46563572 1.7860001
-0.11906668 0.46606097 1.7860001
0.41843429 0.46776193 1.7860001
0.4218362 0.46265906 1.7860001
-0.13267429 0.47286478 1.7860001
-0.1258705 0.47626665 1.7860001
-0.11906668 0.47626671 1.7860001
0.41758379 0.47626668 1.7860001
0.4218362 0.47286478 1.7860001
-0.12587048 0.48695841 1.7860001
-0.11906667 0.48307049 1.7860001
0.41707355 0.48579201 1.786
-0.12813842 0.49441019 1.7860001
0.41843429 0.49497718 1.7860001
-0.12700446 0.50461584 1.7860001
0.41843429 0.50007999 1.7860001
0.42297015 0.50234795 1.7860001
-0.12246858 0.51198667 1.7860001
-0.11396381 0.51708955 1.7860001
-0.11396381 0.52219236 1.7860001
-0.12718859 -0.021881906 1.7950001
-0.11624762 -0.022223812 1.7950001
-0.10940953 -0.023933334 1.7950001
0.4376381 -0.020514287 1.7950001
-0.14189048 -0.010257144 1.7950001
-0.13334286 -0.013676191 1.7950001
-0.12650478 -0.017095238 1.7950001
-0.15385716 -0.0034190479 1.7950001
-0.14701906 -0.0068380954 1.7950001
0.45644286 -0.0034190477 1.7950001
-0.16069524 0.0051285718 1.7950001
-0.15483402 0.0029306121 1.7950001
0.45644286 0.0051285718 1.7950001
-0.16069524 0.013676192 1.7950001
-0.1572762 0.013676192 1.7950001
0.45610094 0.012992382 1.7950001
0.46157146 0.010257144 1.7950001
-0.16069524 0.023933334 1.7950001
-0.1572762 0.023933334 1.7950001
0.45644286 0.023933334 1.7950001
0.46328098 0.020514287 1.7950001
-0.16069524 0.03419048 1.7950001
-0.1572762 0.032480955 1.7950001
0.45644286 0.030771431 1.7950001
-0.16069524 0.044447619 1.7950001
-0.1572762 0.041028574 1.7950001
-0.16069524 0.054704767 1.7950001
0.45678478 0.05538857 1.7950001
0.46157146 0.054704767 1.7950001
-0.16069524 0.063252389 1.7950001
-0.1572762 0.068380952 1.7950001
0.45701268 0.062682547 1.7950001
-0.15556666 0.07521905 1.7950001
-0.15556666 0.087185718 1.7950001
-0.15385714 0.095733345 1.7950001
0.45815238 0.097442865 1.7950001
0.46293908 0.095049523 1.7950001
-0.15522476 0.1066743 1.7950001
0.45815238 0.10257144 1.7950001
0.46157146 0.10428096 1.7950001
-0.15385714 0.1145381 1.7950001
0.45815238 0.11966667 1.7950001
0.46157146 0.11966667 1.7950001
-0.15248951 0.12718859 1.7950001
0.45610094 0.12718859 1.7950001
0.46157146 0.1282143 1.7950001
-0.15214762 0.13505238 1.7950001
0.45815238 0.13334286 1.7950001
0.46157146 0.13505238 1.7950001
-0.15180571 0.14291619 1.7950001
-0.1504381 0.15214762 1.7950001
-0.14701906 0.15556666 1.7950001
0.45473334 0.15499683 1.7950001
0.46157146 0.15385714 1.7950001
-0.14457688 0.16411428 1.7950001
0.44789526 0.1641143 1.7950001
0.45245397 0.1641143 1.7950001
-0.14416985 0.17494129 1.7950001
0.4513143 0.17437144 1.7950001
-0.1504381 0.1863381 1.7950001
-0.14565143 0.18394478 1.7950001
0.4513143 0.18462858 1.7950001
-0.1504381 0.19830477 1.7950001
-0.14565143 0.19488573 1.7950001
0.44789526 0.19830477 1.7950001
0.45216906 0.19403096 1.7950001
-0.14496763 0.20445904 1.7950001
0.44618574 0.20343333 1.7950001
0.4513143 0.20514287 1.7950001
-0.14274524 0.21625477 1.7950001
-0.1367619 0.21540001 1.7950001
0.44447622 0.2154 1.7950001
-0.14103572 0.22480239 1.7950001
0.44561589 0.22565715 1.7950001
0.45302382 0.22907619 1.7950001
-0.14103572 0.23676905 1.7950001
0.44561589 0.23705398 1.7950001
-0.14189048 0.24617146 1.7950001
0.44561589 0.24389207 1.7950001
-0.14274524 0.25557384 1.7950001
-0.1436 0.2649762 1.7950001
0.44276667 0.2649762 1.7950001
-0.1436 0.27352381 1.7950001
0.44276667 0.27181429 1.7950001
-0.14018096 0.28378096 1.7950001
0.4376381 0.28378096 1.7950001
-0.14018096 0.29403812 1.7950001
-0.1367619 0.29403812 1.7950001
-0.14018096 0.30429524 1.7950001
-0.1367619 0.30429524 1.7950001
-0.14018096 0.3145524 1.7950001
-0.1367619 0.31797144 1.7950001
0.44105712 0.3145524 1.7950001
-0.14018096 0.32480952 1.7950001
-0.13590714 0.32395479 1.7950001
0.4376381 0.32822859 1.7950001
0.44105712 0.32480955 1.7950001
-0.14018096 0.33848572 1.7950001
-0.1367619 0.33506668 1.7950001
0.43763813 0.33506668 1.7950001
-0.1367619 0.34532383 1.7950001
-0.14018096 0.35729051 1.7950001
-0.1367619 0.35558096 1.7950001
0.43336427 0.35643572 1.7950001
-0.13539429 0.36515433 1.7950001
0.43285146 0.36515433 1.7950001
-0.13590714 0.37695003 1.7950001
0.43421906 0.37609524 1.7950001
-0.14018096 0.38977143 1.7950001
-0.13539429 0.38566858 1.7950001
0.43535876 0.38749206 1.7950001
-0.14018096 0.39490002 1.7950001
-0.13505238 0.39490002 1.7950001
0.43421906 0.3931905 1.7950001
-0.14018096 0.40344763 1.7950001
-0.13505238 0.40344763 1.7950001
0.43080002 0.40686667 1.7950001
-0.14018096 0.4154143 1.7950001
-0.13505238 0.41370478 1.7950001
0.43080005 0.41370478 1.7950001
-0.13505238 0.42396191 1.7950001
-0.12992382 0.42396191 1.7950001
0.42738098 0.42396194 1.7950001
-0.13419762 0.43421906 1.7950001
-0.12718859 0.43490285 1.7950001
0.43080002 0.43421906 1.7950001
-0.13471048 0.44516 1.7950001
-0.12764446 0.44219685 1.7950001
0.43080002 0.44276667 1.7950001
-0.14018096 0.45473334 1.7950001
-0.13505238 0.45473334 1.7950001
-0.1282143 0.45815238 1.7950001
0.42738095 0.45473334 1.7950001
-0.13539429 0.46430668 1.7950001
-0.1282143 0.46157146 1.7950001
0.42652619 0.46584526 1.7950001
-0.14018096 0.4735381 1.7950001
-0.13539429 0.47524768 1.7950001
-0.12992382 0.47182858 1.7950001
0.42601338 0.47524762 1.7950001
0.43080002 0.47524765 1.7950001
-0.13505238 0.48550478 1.7950001
0.42481667 0.48465002 1.7950001
-0.13505238 0.4957619 1.7950001
0.42567146 0.49576196 1.7950001
-0.13505238 0.50601906 1.7950001
0.42738098 0.50260001 1.7950001
0.43421906 0.50687379 1.7950001
-0.14018096 0.5179857 1.7950001
-0.13505238 0.51627618 1.7950001
-0.12718859 0.5155924 1.7950001
-0.11966667 0.51969528 1.7950001
-0.13334286 0.52311432 1.7950001
-0.12308571 0.52653337 1.7950001
-0.11966667 0.52653337 1.7950001
-0.13315238 -0.02491238 1.8040001
0.43467811 -0.024053333 1.8040001
0.4432686 -0.020617144 1.8040001
-0.16150096 -0.010308572 1.8040001
-0.15462857 -0.010308572 1.8040003
-0.14546539 -0.012599367 1.8040003
-0.13572952 -0.015462858 1.8040001
-0.12713905 -0.017180953 1.8040001
0.44555938 -0.013744763 1.8040003
-0.16264637 -0.0045815874 1.8040003
-0.15462857 -0.0068723806 1.8040003
0.45014098 -0.0068723811 1.8040001
-0.16550985 0.0034361908 1.804
-0.16665524 0.013744761 1.804
0.46457297 0.015806478 1.8040001
-0.16591892 0.024053333 1.804
0.46560383 0.025771428 1.8040001
0.47075811 0.027489524 1.8040001
-0.16665524 0.034361903 1.804
0.46560383 0.030925715 1.8040001
0.47075811 0.03264381 1.8040001
-0.16579619 0.043811429 1.8040001
-0.16493715 0.054979045 1.8040003
-0.1640781 0.066146672 1.8040001
0.46388569 0.06528762 1.8040003
-0.16150096 0.072160006 1.8040001
-0.15806477 0.077314287 1.8040001
-0.16150096 0.089340955 1.8040001
-0.15806477 0.085904762 1.8040001
-0.16150096 0.094495237 1.8040001
-0.15806477 0.096213341 1.8040003
-0.15806477 0.10308572 1.8040001
-0.16150096 0.11683048 1.8040001
-0.15806477 0.11511239 1.8040001
0.46216762 0.11683048 1.8040001
-0.16150096 0.12026667 1.8040001
-0.15720573 0.12284382 1.8040001
0.46216762 0.12370286 1.8040001
-0.15806477 0.13401143 1.8040003
-0.15720572 0.14517905 1.8040001
-0.15462857 0.15462857 1.8040001
0.45701334 0.15806477 1.8040001
0.46216762 0.15806477 1.8040001
-0.15419906 0.16536666 1.804
0.45701334 0.16665524 1.8040001
0.46044955 0.16321906 1.8040001
-0.15419906 0.17524573 1.804
-0.14775619 0.17180952 1.8040001
0.45701334 0.17524572 1.8040003
0.46044955 0.17868191 1.8040001
-0.15561035 0.18506341 1.804
0.45701334 0.1855543 1.8040001
0.46044955 0.1855543 1.8040001
-0.15462859 0.19537197 1.804
0.45701334 0.19758096 1.8040001
0.46044955 0.19414476 1.8040001
-0.15256685 0.2054842 1.8040001
-0.14775619 0.20960763 1.8040001
0.44670478 0.20960763 1.8040001
0.45357716 0.20617142 1.8040001
-0.15119238 0.21648 1.8040003
-0.14775619 0.21648 1.8040003
0.45151544 0.21579278 1.8040001
-0.15119238 0.22507048 1.8040001
-0.1466108 0.22564317 1.8040003
0.45014098 0.22507048 1.8040001
-0.15119238 0.23366097 1.8040001
-0.1460381 0.23366095 1.804
0.45357716 0.23366097 1.8040001
-0.15119238 0.24396954 1.8040003
-0.14775619 0.24396951 1.8040003
0.45014098 0.24396953 1.8040001
-0.15119238 0.25427809 1.8040003
-0.14775619 0.25427809 1.8040003
0.44670478 0.25427809 1.8040003
0.45014098 0.25427809 1.8040003
-0.15119238 0.26115048 1.8040001
-0.14775619 0.26458669 1.8040003
0.44670478 0.26458669 1.8040001
0.45014098 0.26458669 1.8040003
-0.14775619 0.27489525 1.8040003
0.44555938 0.27718604 1.8040003
0.45185906 0.27145904 1.8040001
-0.14432001 0.28520381 1.8040003
0.44464308 0.28451657 1.8040001
-0.14346096 0.29551238 1.8040001
0.4432686 0.29551238 1.8040001
-0.14569448 0.30650818 1.8040001
0.44412762 0.30667999 1.8040001
0.45014098 0.30410287 1.8040001
-0.15119238 0.31956571 1.8040001
-0.1460381 0.31612954 1.804
-0.15119238 0.32472003 1.8040001
-0.14474954 0.3264381 1.804
0.44670478 0.32643813 1.8040001
-0.14432001 0.33502856 1.804
0.44441399 0.3356013 1.8040003
-0.14432001 0.34410992 1.804
0.43983239 0.34705526 1.8040001
0.44464308 0.34293184 1.8040001
-0.14294553 0.3532404 1.8040001
0.43983239 0.35564572 1.8040001
0.4432686 0.35049143 1.8040001
-0.14374731 0.36423621 1.804
0.43983236 0.36423621 1.8040003
-0.14260191 0.37454477 1.804
0.43983236 0.37454477 1.8040003
-0.14260191 0.38485336 1.804
0.43983236 0.38485336 1.8040003
-0.14432001 0.39516196 1.8040003
0.43639621 0.3985981 1.8040001
-0.14432001 0.40547049 1.8040003
0.43639621 0.40547049 1.8040003
-0.14489271 0.41577908 1.804
0.43639621 0.41234288 1.8040001
-0.14389049 0.42565811 1.804
0.43296 0.42608762 1.8040003
-0.1431746 0.43582353 1.804
-0.13744763 0.43639618 1.8040001
0.4341054 0.43525079 1.8040003
-0.14202921 0.44441399 1.8040003
-0.13744763 0.4432686 1.8040001
0.43639621 0.44670478 1.8040001
-0.14260191 0.45271811 1.8040001
0.43381906 0.45443621 1.8040001
-0.14174286 0.46474478 1.8040001
0.43433446 0.46457297 1.8040001
-0.14346096 0.47333524 1.8040001
0.43582347 0.47419429 1.804
0.4449867 0.4776305 1.8040001
0.45014098 0.4776305 1.8040001
-0.14260191 0.48450288 1.804
0.42952383 0.48793906 1.8040001
0.43639621 0.48450285 1.804
0.44670478 0.48450288 1.8040001
0.45014098 0.48450288 1.8040001
-0.14260191 0.49481145 1.804
0.42952383 0.49137527 1.8040001
0.43639621 0.49481142 1.804
0.4449867 0.49652952 1.8040001
-0.14225829 0.50511998 1.8040001
0.43639621 0.50340194 1.804
0.44412765 0.50426096 1.8040001
-0.14432001 0.51444685 1.804
-0.13057524 0.52401906 1.8040001
-0.12713905 0.52573717 1.8040003
-0.14166477 -0.020731429 1.8140001
-0.13820952 -0.024186665 1.8140001
0.44572571 -0.023034921 1.8140001
0.45436382 -0.020731429 1.8140001
-0.1554857 -0.013820953 1.8140001
-0.14339238 -0.015548572 1.8140001
-0.13820952 -0.01727619 1.8140001
0.44918096 -0.01727619 1.8140001
0.45263621 -0.012093334 1.8140001
-0.17621715 -0.0034552382 1.8140001
-0.16815491 -0.0057587302 1.8140001
0.45609143 -0.0069104764 1.8140001
-0.17448954 0.0034552382 1.8140001
-0.16930667 0 1.8140001
-0.17362572 0.012957143 1.8140001
-0.17276192 0.024186669 1.8140001
-0.17276192 0.031097144 1.8140001
-0.16930667 0.046645716 1.8140001
-0.16930668 0.055283815 1.8140001
-0.16930667 0.063921906 1.8140001
0.46991241 0.065649524 1.8140001
0.4733676 0.065649524 1.8140001
-0.1641238 0.076015241 1.8140001
0.47336763 0.074287623 1.8140001
-0.16239619 0.084653333 1.8140001
-0.16239619 0.10365715 1.8140001
-0.16239619 0.11402286 1.8140001
-0.16239619 0.1261162 1.8140001
-0.16239619 0.13475429 1.8140001
-0.16239619 0.14512001 1.8140001
-0.16239619 0.15375811 1.8140001
-0.15894096 0.15721333 1.8140001
-0.16239619 0.16757905 1.8140001
-0.15894096 0.16239619 1.8140001
0.46703303 0.16585143 1.8140001
-0.16239619 0.17621715 1.8140001
-0.15894096 0.17621715 1.8140001
0.46472955 0.17621714 1.8140001
-0.16354793 0.18543112 1.8140001
0.45954669 0.18658286 1.8140001
0.46300194 0.18658286 1.8140001
-0.16354793 0.19118984 1.8140001
-0.15894096 0.19694857 1.8140001
-0.16239619 0.20040381 1.8140001
-0.15894096 0.20558667 1.8140001
0.45954669 0.2073143 1.8140001
0.46415368 0.20270731 1.8140001
-0.15686782 0.21491583 1.8140001
0.45954669 0.21249714 1.8140001
0.46300194 0.21249714 1.8140001
-0.15634954 0.22372667 1.8140001
0.45609143 0.22459048 1.8140001
-0.1546219 0.2349562 1.8140001
0.45609143 0.23841144 1.8140001
0.46300194 0.23150097 1.8140001
-0.15548572 0.24532191 1.8140001
0.45695522 0.24445811 1.8140001
0.46645716 0.24877715 1.8140001
0.47336763 0.24877715 1.8140001
-0.15548572 0.25568762 1.8140001
0.45609143 0.25568762 1.8140001
0.47336763 0.2522324 1.8140001
-0.15318222 0.26605335 1.8140001
0.45609143 0.26605335 1.8140001
-0.15203048 0.27641907 1.8140001
0.45378795 0.27757081 1.8140001
-0.15203048 0.28505716 1.8140001
-0.14857525 0.28505716 1.8140001
0.45263621 0.28332955 1.8140001
-0.15203048 0.29196763 1.8140001
-0.14857525 0.29369524 1.8140001
0.44831714 0.29369524 1.8140001
0.45263621 0.29369524 1.8140001
-0.15203048 0.30578858 1.8140001
-0.14857525 0.30233335 1.8140001
0.44831717 0.30319715 1.8140001
0.45678249 0.30475199 1.8140001
-0.15375811 0.31442669 1.8140001
0.44918096 0.3161543 1.8140001
0.45565951 0.31485859 1.8140001
0.46472955 0.3161543 1.8140001
-0.15548572 0.32479239 1.8140001
0.44918096 0.32479239 1.8140001
0.45609146 0.32479239 1.814
0.46386576 0.32392859 1.8140001
-0.15203048 0.33515811 1.8140001
0.44918096 0.33515811 1.8140001
0.45493969 0.33573398 1.8140001
-0.15203048 0.34552383 1.8140001
-0.14857525 0.34552383 1.8140001
0.44918096 0.34897906 1.8140001
0.45263621 0.34379619 1.8140001
-0.15203048 0.35934478 1.8140001
-0.14857525 0.35588956 1.8140001
0.44779888 0.35658059 1.8140001
0.4535 0.35502574 1.8140001
-0.15203048 0.36625522 1.8140001
-0.14857525 0.36798286 1.8140001
0.44745335 0.36625525 1.8140001
0.45263621 0.36625525 1.8140001
-0.14857525 0.37489337 1.8140001
0.44745335 0.37489337 1.8140001
0.45378795 0.37546924 1.8140001
-0.15203048 0.3800762 1.8140001
-0.14857525 0.38353145 1.8140001
0.44710785 0.38353142 1.8140001
-0.14857525 0.39216954 1.8140001
0.44671291 0.39439079 1.8140001
0.45678249 0.39251506 1.8140001
-0.14857525 0.40426287 1.8140001
0.44313431 0.40512669 1.8140001
-0.15203048 0.41808382 1.8140001
-0.14857525 0.41290098 1.8140001
0.43881527 0.41808382 1.8140001
0.44227049 0.4146286 1.8140001
-0.15203048 0.42499432 1.8140001
0.43881527 0.42499432 1.8140001
0.44227049 0.42499432 1.8140001
-0.15203048 0.43190476 1.8140001
-0.14857525 0.43363237 1.8140001
0.43881527 0.43536001 1.8140001
0.44434363 0.43466896 1.8140001
-0.14719316 0.44572574 1.8140001
0.43881527 0.4439981 1.8140001
0.44227049 0.44572571 1.8140001
-0.14771144 0.45609143 1.8140001
0.43881527 0.45436382 1.8140001
0.44227049 0.45436382 1.8140001
-0.14719316 0.46576613 1.8140001
0.43881527 0.46300194 1.8140001
0.44227049 0.46818477 1.8140001
-0.14857525 0.47509527 1.8140001
0.44572571 0.47509524 1.8140001
0.45263621 0.47509527 1.8140001
-0.14857525 0.48373333 1.8140001
0.44687748 0.4848851 1.8140001
0.45263621 0.48373336 1.8140001
-0.14857525 0.49409905 1.8140001
0.44745335 0.49237147 1.8140001
0.45263621 0.49409905 1.8140001
-0.14771144 0.5053286 1.8140001
-0.14857525 0.51137525 1.8140001
-0.14244571 -0.026057143 1.8240001
0.44644573 -0.027794287 1.8240001
0.45339429 -0.024320001 1.8240001
-0.16676572 -0.010422857 1.8240001
-0.14592001 -0.017371429 1.8240001
0.45686859 -0.013897143 1.8240001
-0.18066287 -0.0034742858 1.8240001
-0.18066287 0.0034742858 1.8240001
-0.17718858 0.015634287 1.8240001
-0.17718858 0.020845715 1.8240001
-0.17487238 0.034742858 1.824
-0.1737143 0.045165718 1.824
-0.1737143 0.055588573 1.824
-0.17197715 0.067748576 1.8240001
-0.17024 0.074697152 1.8240001
-0.16676572 0.079908572 1.8240001
-0.16676572 0.085120007 1.8240001
-0.16676573 0.093805723 1.824
-0.16676572 0.10249144 1.8240001
-0.16329144 0.11117715 1.8240001
-0.16676572 0.12681144 1.8240001
-0.17024 0.13897143 1.8240001
-0.16676573 0.13549715 1.824
-0.16676573 0.14592001 1.824
-0.16589716 0.15721144 1.8240001
-0.16502857 0.16502857 1.8240001
-0.17024 0.17024 1.8240001
-0.16676573 0.17371428 1.824
0.46902859 0.1737143 1.8240001
0.4738926 0.17301944 1.8240001
-0.17024 0.18761143 1.8240001
-0.16676572 0.18240002 1.8240001
-0.17024 0.19108573 1.8240001
-0.16560762 0.19687618 1.824
-0.16329144 0.20845716 1.8240001
0.46787047 0.20614095 1.824
-0.16329144 0.21540572 1.824
-0.15981714 0.21193144 1.8240001
0.46381718 0.21888001 1.8240001
-0.16329144 0.22235429 1.8240001
-0.15981714 0.22756572 1.8240001
-0.15981714 0.23625143 1.824
0.46468574 0.23712003 1.8240001
-0.15981714 0.24493715 1.8240001
0.46208003 0.2466743 1.8240001
-0.15981714 0.25362289 1.824
0.46505794 0.25461552 1.8240002
0.47250289 0.25536001 1.8240001
-0.15894857 0.2649143 1.8240001
0.4655543 0.26404572 1.8240002
-0.15808001 0.27446857 1.8240002
0.46416464 0.27307886 1.8240001
-0.15773258 0.28419656 1.8240001
0.45773718 0.28576002 1.8240001
-0.15547429 0.29618287 1.8240001
0.45860574 0.29531428 1.824
-0.15634286 0.3057372 1.8240001
0.45860574 0.30226287 1.8240001
-0.15981714 0.31615999 1.824
0.46381718 0.31268573 1.8240001
-0.15981714 0.32484573 1.8240001
-0.15750097 0.33353147 1.824
0.45860574 0.33700573 1.8240001
0.46381718 0.33526859 1.8240001
-0.15634286 0.34395429 1.824
0.45860574 0.34395429 1.8240001
0.46208003 0.34395429 1.8240001
-0.15402667 0.35437715 1.824
0.45744765 0.35321903 1.824
0.46208003 0.35437715 1.824
-0.15547429 0.36566859 1.8240001
0.45860574 0.36480001 1.824
0.46208003 0.36480001 1.824
-0.15402667 0.37753907 1.824
0.45860574 0.37348574 1.8240001
0.46208003 0.3717486 1.8240001
-0.15286858 0.38738286 1.8240001
0.45513144 0.38651431 1.8240001
0.46381718 0.38912001 1.8240001
-0.15286858 0.39606857 1.824
-0.14939429 0.39954287 1.8240001
0.45628953 0.39722669 1.824
0.46381718 0.39606857 1.8240001
-0.15286858 0.40649143 1.824
0.44818288 0.40475431 1.8240001
0.45513141 0.40649146 1.8240002
0.46208003 0.40649143 1.824
-0.15286858 0.41517717 1.8240001
0.44818288 0.41517717 1.8240001
0.45513144 0.41517714 1.8240002
0.46208003 0.41517717 1.8240001
0.44818291 0.42386284 1.824
0.45463511 0.4248555 1.8240002
0.44818288 0.43254858 1.8240001
0.45556572 0.43428576 1.8240002
0.44818291 0.44470859 1.824
0.45469719 0.44470859 1.8240002
0.44818288 0.45339429 1.8240001
0.45165715 0.45165715 1.8240001
-0.15286858 0.46555433 1.824
0.44586667 0.46555433 1.824
0.45165715 0.46902859 1.8240001
-0.15286858 0.47597718 1.824
0.44818288 0.47250289 1.8240001
0.45165715 0.47250289 1.8240001
-0.15286858 0.48466289 1.8240001
-0.1216 0.61842287 1.8240001
-0.11812572 0.61842287 1.8240001
-0.12333715 0.62363434 1.8240001
-0.11812572 0.62363434 1.8240001
-0.14664 -0.020948572 1.8330001
-0.17108001 -0.010474286 1.8330001
-0.15187715 -0.017457144 1.8330001
0.46610576 -0.0069828574 1.8330001
0.47134286 -0.0069828574 1.8330001
-0.18364915 0.0034914284 1.8329999
-0.18155429 0.012220001 1.8330001
-0.18155429 0.020948572 1.8330001
-0.17806287 0.026185716 1.8330001
-0.17806287 0.036660001 1.8330001
-0.17806287 0.045388576 1.8330001
-0.17806287 0.055862859 1.8330001
-0.17631716 0.065464288 1.8330001
-0.17457144 0.075065717 1.8330001
-0.17282571 0.083794288 1.8330001
-0.17108001 0.094268575 1.8330001
-0.17108001 0.10474285 1.8330001
-0.16758858 0.10823429 1.8330001
-0.16758858 0.11521715 1.8330001
-0.17247657 0.12638971 1.8329999
-0.16758858 0.1222 1.8330001
-0.17317487 0.13546744 1.8329999
-0.17282572 0.14489429 1.8330001
-0.17108001 0.15362287 1.8330001
-0.17108001 0.16409715 1.8330001
-0.16758858 0.16409715 1.8330001
-0.17108001 0.17631716 1.8330001
-0.17108001 0.1833 1.8330001
-0.17108001 0.19552001 1.8330001
-0.16671573 0.20599429 1.8330001
-0.16758858 0.21646857 1.8330001
-0.16642477 0.22577906 1.8330001
0.46436003 0.22345144 1.8330001
-0.16497 0.23305288 1.8330001
0.46436003 0.2304343 1.8330001
-0.16409715 0.24440001 1.8330001
0.46785146 0.24265429 1.8330001
-0.16409715 0.25487429 1.8330001
-0.16409715 0.26534858 1.8330001
-0.16409715 0.27582288 1.8330001
-0.16060571 0.28978857 1.8330001
0.46523291 0.28629714 1.8330001
0.47134286 0.28629714 1.8330001
-0.16060571 0.29502571 1.8330001
0.46610576 0.29502571 1.8330001
-0.16060571 0.3037543 1.8330001
0.46645489 0.303056 1.8329999
-0.16060571 0.33692288 1.8330001
-0.16060571 0.34565148 1.8330001
0.4626143 0.34914288 1.8330001
-0.1571143 0.35787144 1.8330001
-0.16060571 0.36660001 1.8330001
-0.16060571 0.37358287 1.8330001
-0.1571143 0.3753286 1.8330001
-0.16060571 0.38231146 1.8330001
-0.1571143 0.38580287 1.8330001
0.45737717 0.3875486 1.8330001
-0.1571143 0.3945314 1.8330001
-0.1571143 0.40151429 1.8330001
-0.1571143 0.41548002 1.8330001
-0.1571143 0.42595434 1.8330001
0.45737717 0.42246288 1.8330001
0.4608686 0.42246288 1.8330001
-0.15536858 0.43642858 1.8330001
-0.15362287 0.44515717 1.8330001
-0.15362287 0.45388576 1.8330001
0.45563143 0.45563143 1.8330001
0.4626143 0.45388573 1.8330001
-0.16060571 0.46610576 1.8330001
-0.15624145 0.46348718 1.8330001
0.45288819 0.46386123 1.8330001
-0.16060571 0.47308856 1.8330001
-0.1571143 0.47483429 1.8330001
0.45737717 0.47308856 1.8330001
-0.1571143 0.48530862 1.8330001
-0.15362287 0.49578285 1.8330001
-0.15501943 0.50695544 1.8329999
-0.15478668 0.51440382 1.8330001
-0.12394571 0.6075086 1.8330001
-0.12394571 0.61449146 1.8330001
-0.11754477 0.61565524 1.8330001
-0.12830999 0.62409288 1.8330001
-0.15375885 -0.022467049 1.8430001
-0.14744 -0.028083811 1.8430001
-0.15797144 -0.017552381 1.8430001
0.46455303 -0.014041905 1.8430001
-0.18605524 -0.0052657146 1.8430001
-0.17552382 -0.0035104763 1.8430001
0.4739143 -0.0035104763 1.8430001
-0.18956572 0.0017552382 1.8430001
0.4739143 0 1.8430001
-0.18430001 0.014041905 1.8430001
-0.18254477 0.026328571 1.8430001
-0.18254477 0.035104763 1.8430001
-0.18254477 0.045636192 1.8430001
-0.18254477 0.054412384 1.8430001
-0.17903429 0.073720001 1.8430001
-0.18605524 0.091272384 1.8430001
-0.1746462 0.094782859 1.8430001
-0.17552382 0.10355905 1.8430001
-0.17201334 0.11584572 1.8430001
-0.17903429 0.13515334 1.8430001
-0.18254477 0.14392953 1.8430001
-0.17903429 0.14392953 1.8430001
-0.18342239 0.15533859 1.8430001
-0.17727906 0.15446097 1.8430001
-0.18371493 0.16265208 1.8430001
-0.17692801 0.16429029 1.8430001
-0.17552382 0.17201334 1.8430001
-0.17552382 0.18956572 1.8430001
-0.17552382 0.19483143 1.8430001
-0.17201334 0.20360763 1.8430001
0.46689335 0.22818096 1.8430001
0.47274414 0.23286159 1.8430001
0.47040382 0.24924383 1.8430001
0.47215906 0.27732763 1.8430001
-0.16674763 0.28434858 1.8430001
0.47215906 0.28259334 1.8430001
-0.16499239 0.29488 1.8430001
0.47274414 0.29253969 1.8430001
-0.16499239 0.30541143 1.8430001
-0.16499239 0.31594288 1.8430001
-0.16499239 0.32647431 1.8430001
-0.16499239 0.3352505 1.8430001
-0.16499239 0.34402668 1.8430001
-0.16323715 0.35455811 1.8430001
-0.16265208 0.36508954 1.8430001
-0.16499239 0.37562096 1.8430001
-0.16382223 0.38615239 1.8430001
0.46338287 0.38966286 1.8430001
-0.16148192 0.39492857 1.8430001
-0.16148192 0.40370476 1.8430001
-0.15797144 0.40721527 1.8430001
-0.16148192 0.41599146 1.8430001
-0.15797144 0.41072574 1.8430001
-0.16148192 0.42476764 1.8430001
-0.16288611 0.43459696 1.8430001
-0.15797144 0.43880954 1.8430001
-0.16148192 0.44232002 1.8430001
-0.15797144 0.44407526 1.8430001
-0.16148192 0.45811716 1.8430001
-0.15797144 0.45636192 1.8430001
0.45987239 0.45987239 1.8430001
0.46513811 0.45987239 1.8430001
-0.16323715 0.46513811 1.8430001
0.45987239 0.46689335 1.8430001
0.46513811 0.46513811 1.8430001
-0.16499239 0.4739143 1.8430001
0.45987239 0.47040382 1.8430001
0.46513811 0.4739143 1.8430001
-0.16323715 0.48444572 1.8430001
0.46338287 0.48093525 1.8430001
-0.16323715 0.49146667 1.8430001
-0.15797144 0.49673241 1.8430001
-0.16429029 0.50691283 1.8430001
-0.15797144 0.50375336 1.8430001
-0.16148192 0.51252955 1.8430001
-0.12637715 0.61550349 1.8430001
-0.11935619 0.61784381 1.8430001
-0.12988763 0.62135428 1.8430001
-0.16235811 -0.022941906 1.853
-0.15882857 -0.024706667 1.853
-0.14824 -0.024706667 1.853
-0.16412286 -0.015882857 1.853
0.46942669 -0.014118096 1.853
0.47472095 -0.010588571 1.853
0.48001525 -0.010588571 1.853
-0.18000571 -0.0070590479 1.853
-0.1764762 -0.0070590479 1.853
0.48001525 -0.0070590479 1.853
-0.19059429 0.0070590479 1.853
-0.19059429 0.012353334 1.853
-0.18706477 0.014118096 1.853
-0.18706477 0.047648571 1.853
-0.18706477 0.052942861 1.853
-0.18353525 0.060001906 1.853
-0.18212344 0.086120382 1.853
-0.18177049 0.09529715 1.853
-0.18177047 0.10412096 1.853
-0.1764762 0.10941524 1.853
-0.1764762 0.11470953 1.853
-0.18000571 0.12706286 1.853
-0.1764762 0.12176858 1.853
-0.19059429 0.13412191 1.853
-0.18424115 0.13482782 1.853
-0.19059427 0.14471048 1.853
-0.18706477 0.14471048 1.853
-0.18706477 0.15353429 1.853
-0.18441762 0.16853476 1.853
-0.18000571 0.17294668 1.853
-0.1764762 0.1764762 1.853
-0.1764762 0.18353523 1.853
-0.18000571 0.19412382 1.853
-0.17294668 0.21530096 1.853
-0.17294668 0.22588952 1.853
0.47472095 0.22941905 1.853
-0.17294668 0.23471335 1.853
-0.16941714 0.23647811 1.853
-0.17294668 0.24353714 1.853
-0.16941714 0.24353714 1.853
-0.16941714 0.25412571 1.853
-0.16941714 0.26471433 1.853
-0.17294668 0.27883241 1.853
-0.16941714 0.27530289 1.853
-0.17294668 0.28589144 1.853
-0.16941714 0.28942096 1.853
-0.17294668 0.29471523 1.853
-0.16941714 0.29471523 1.853
-0.16941714 0.30353907 1.853
-0.16941714 0.33354002 1.853
-0.16588762 0.36354098 1.853
-0.16941714 0.37060001 1.853
-0.16941714 0.38648289 1.853
-0.16588762 0.39530668 1.853
0.46942669 0.39177716 1.853
-0.16588762 0.40236571 1.853
-0.16235811 0.4129543 1.853
-0.16677001 0.42442524 1.853
-0.16853476 0.43324906 1.853
-0.16588762 0.44472003 1.853
-0.16353461 0.45530859 1.853
-0.15882857 0.45177907 1.853
-0.16588762 0.4641324 1.853
-0.16941714 0.47472095 1.853
-0.16941714 0.48177999 1.853
-0.16677 0.49501574 1.853
-0.16353461 0.50236893 1.853
-0.13059239 0.61766666 1.853
0.47373432 -0.021291429 1.863
-0.16678286 -0.017742857 1.863
0.47621831 -0.016323429 1.8630002
0.48260573 -0.014194286 1.863
-0.18452573 -0.0070971432 1.863
-0.18807429 0.017742857 1.863
-0.18807429 0.024839999 1.863
-0.18807429 0.037260003 1.863
-0.18807429 0.042582858 1.863
-0.18452573 0.063874289 1.863
-0.18452573 0.074519999 1.863
-0.18630001 0.085165717 1.863
-0.19162287 0.092262864 1.863
-0.18541287 0.096698582 1.863
-0.18807429 0.10468285 1.863
-0.18216002 0.12420001 1.863
-0.19280572 0.13484572 1.863
-0.18630001 0.13129714 1.863
-0.19162287 0.15613715 1.863
-0.19162287 0.16500857 1.863
-0.18097715 0.17742857 1.863
-0.18097715 0.18452573 1.863
-0.18097715 0.19162287 1.863
-0.17742857 0.20404287 1.863
-0.17742857 0.21468857 1.863
-0.17742856 0.22356002 1.863
-0.17742856 0.23420572 1.863
-0.17742857 0.24307716 1.863
-0.17388003 0.25549716 1.863
-0.17388003 0.26614285 1.863
-0.17388001 0.27501428 1.863
-0.17742857 0.28566003 1.863
-0.17388001 0.30340287 1.863
-0.17033143 0.31582287 1.863
-0.17210573 0.32469431 1.863
-0.17299286 0.33267856 1.863
-0.17121857 0.3433243 1.863
-0.17210571 0.35485718 1.863
-0.17033143 0.36550286 1.863
-0.17151429 0.37614858 1.863
-0.17210573 0.38502002 1.863
-0.17151429 0.39389145 1.863
-0.17033143 0.40098858 1.863
-0.16678286 0.40808573 1.863
-0.17033143 0.41873145 1.863
-0.16678286 0.41518286 1.863
-0.17151429 0.42582861 1.863
-0.17388001 0.43470001 1.863
-0.17299286 0.44445857 1.863
-0.17033143 0.45421714 1.863
-0.16678286 0.45599145 1.863
-0.17033143 0.46663716 1.863
-0.17269714 0.47550857 1.863
-0.17299286 0.48704144 1.863
-0.18097715 0.49680001 1.863
-0.17565429 0.49502572 1.863
-0.17343643 0.50389719 1.863
-0.16678286 0.50744575 1.863
-0.16411048 -0.024973335 1.8730001
-0.15697524 -0.028540954 1.8730001
-0.18194857 -0.010702858 1.8730001
-0.17362414 -0.014270477 1.8730001
-0.19265144 0.017838096 1.8730001
-0.19265144 0.024973335 1.8730001
-0.19265144 0.032108571 1.8730001
-0.18908381 0.032108571 1.8730001
-0.18908381 0.057081908 1.8730001
-0.18819191 0.065109044 1.8730001
-0.1867054 0.074920006 1.8730001
-0.19265144 0.089190483 1.8730001
-0.1873 0.082055241 1.8730001
-0.19479202 0.097039238 1.8730001
-0.19265144 0.10524476 1.8730001
-0.18551618 0.11416381 1.8730003
-0.18765676 0.12415315 1.8730001
-0.19621906 0.13913715 1.8730001
-0.19621906 0.14627239 1.8730001
-0.19621906 0.15519142 1.8730001
-0.19621906 0.16054286 1.8730001
-0.19265144 0.17302954 1.8730001
-0.1873 0.17659715 1.8730001
-0.18551619 0.18373239 1.8730001
-0.18373239 0.19800287 1.8730001
-0.18194857 0.2051381 1.8730001
-0.18432699 0.21465176 1.8730001
-0.17838097 0.21048953 1.8730001
-0.18507025 0.22431406 1.8730001
0.47806096 0.22832763 1.8730001
0.4816286 0.22832763 1.8730001
-0.18194859 0.23546286 1.8730001
-0.18194857 0.2425981 1.8730001
-0.17838097 0.24973334 1.8730001
-0.17838097 0.25508475 1.8730001
-0.17838097 0.26400381 1.8730001
-0.18194857 0.2782743 1.8730001
-0.17838097 0.27470669 1.8730001
-0.18480268 0.28326896 1.8730001
-0.17838097 0.2818419 1.8730001
-0.17838097 0.29611242 1.8730001
-0.17838097 0.30503142 1.8730001
-0.17570524 0.3148424 1.8730001
-0.18194857 0.32822096 1.8730001
-0.17748906 0.32376143 1.8730001
-0.18194859 0.33535621 1.8730001
-0.17838097 0.33535621 1.8730001
-0.18194857 0.34249145 1.8730001
-0.17695391 0.34677258 1.8730001
-0.18194857 0.3531943 1.8730001
-0.17838097 0.35497811 1.8730001
-0.18194857 0.36032954 1.8730001
-0.17659715 0.36389714 1.8730001
-0.17481335 0.37459999 1.8730001
-0.17659715 0.38530287 1.8730001
-0.17600255 0.39600572 1.8730001
0.47092572 0.39243811 1.8730001
-0.17302954 0.40492478 1.8730001
-0.17213762 0.41473573 1.8730001
-0.1864081 0.4272224 1.8730001
-0.17570524 0.42543858 1.8730001
-0.1873 0.43346575 1.8730001
-0.17838097 0.43524954 1.8730001
-0.18373239 0.44952002 1.8730001
-0.17838097 0.44595239 1.8730001
-0.17481333 0.45487145 1.8730001
-0.17302954 0.46200669 1.8730001
-0.17659715 0.47627717 1.8730001
-0.18373239 0.48876384 1.8730001
-0.17838097 0.48519623 1.8730001
-0.18373238 0.49589905 1.8730001
-0.17838097 0.49233145 1.8730001
-0.18313777 0.50422353 1.8730001
-0.17838097 0.50660193 1.8730001
-0.16140001 -0.032280002 1.8830001
-0.15781334 -0.032280002 1.8830001
-0.17216 -0.02152 1.8830001
-0.17694223 -0.015542223 1.883
-0.19368 0.05738667 1.8830001
-0.19368 0.064560004 1.8830001
-0.19009334 0.075320005 1.8830001
-0.19368 0.11477333 1.883
-0.19457667 0.12643 1.8830001
-0.19726667 0.13270667 1.8830001
-0.19726667 0.14705335 1.8830001
-0.20085335 0.15243334 1.8830001
-0.19009334 0.18471333 1.8830001
-0.18650667 0.19188666 1.8830001
-0.18650667 0.20444001 1.883
-0.19224533 0.21519999 1.8830001
-0.18650667 0.21161334 1.8830001
-0.19278333 0.22685668 1.8830001
-0.19009334 0.23492667 1.8830001
-0.18650667 0.23492667 1.8830001
-0.19188666 0.24389334 1.8830003
-0.18561001 0.24479 1.8830001
0.48599336 0.24748001 1.8830001
0.49137336 0.24748001 1.8830001
-0.18381667 0.25555003 1.8830001
0.48599336 0.25286001 1.8830001
0.49137336 0.25286001 1.8830001
-0.19009334 0.26541337 1.883
-0.18471335 0.26541331 1.8830003
-0.19009334 0.27617335 1.883
-0.18507202 0.27545601 1.8830001
-0.19248444 0.28573778 1.883
-0.19009334 0.29410666 1.8830001
-0.18471335 0.29410669 1.8830003
-0.19009334 0.30307335 1.8830001
-0.18471332 0.30486667 1.8830003
-0.18471335 0.31562671 1.8830003
-0.17933334 0.31383336 1.8830001
-0.18471333 0.32549 1.8830001
-0.19128889 0.33595112 1.883
-0.18650667 0.33535334 1.8830001
-0.19188666 0.34432003 1.8830003
-0.18561001 0.34521669 1.8830001
-0.19009334 0.35328668 1.8830001
-0.18507202 0.35508001 1.8830001
-0.18292001 0.36763334 1.8830001
-0.17933334 0.36942667 1.8830001
-0.18292001 0.3748067 1.8830001
-0.17933334 0.3748067 1.8830001
-0.17574668 0.38736001 1.8830001
0.47702667 0.38736001 1.8830001
0.48240668 0.38377336 1.8830001
-0.18292002 0.39453331 1.883
-0.17933334 0.39812002 1.8830001
-0.17813778 0.40529335 1.883
-0.18471335 0.41784668 1.8830001
-0.17754 0.41605332 1.8830001
-0.18471335 0.42502001 1.8830001
-0.17933334 0.42502001 1.8830001
-0.18292001 0.43578002 1.8830001
-0.18292002 0.44474664 1.883
-0.18292001 0.45550668 1.8830001
-0.17933334 0.45909336 1.8830001
-0.17574668 0.46806002 1.8830001
-0.17574668 0.47344002 1.8830001
-0.18435469 0.48491734 1.8830001
-0.18650667 0.49496001 1.8830001
-0.19481143 0.064937145 1.8940001
-0.19481143 0.075760007 1.8940001
-0.19120382 0.19120382 1.8940001
-0.19210573 0.2065362 1.8940001
-0.19481143 0.23449525 1.8940001
-0.19336839 0.25758401 1.8940001
-0.1875962 0.25433713 1.8940001
-0.19661525 0.26516002 1.8940001
-0.19571334 0.27327716 1.8940001
