# .PCD v0.7 - Point Cloud Data file format
VERSION 0.7
FIELDS x y z
SIZE 4 4 4
TYPE F F F
COUNT 1 1 1
WIDTH 1504
HEIGHT 1
VIEWPOINT 0 0 0 1 0 0 0
POINTS 1504
DATA ascii
-0.084708571 0.42354286 1.853
-0.074120007 0.42354286 1.853
-0.063531429 0.4258959 1.853
-0.052942857 0.42707241 1.853
-0.15294604 0.43648446 1.853
-0.14541638 0.43201375 1.853
-0.11470953 0.43060192 1.853
-0.10941524 0.43060192 1.853
-0.042354286 0.43060192 1.853
-0.035295241 0.43177843 1.853
-0.024706667 0.43530795 1.853
-0.014118096 0.43766099 1.853
-0.0052942857 0.43766096 1.853
0.010588571 0.43766096 1.853
-0.15618144 0.44472003 1.853
-0.0052942857 0.44119048 1.853
0.003529524 0.44119048 1.853
0.014118096 0.44354352 1.853
0.024706667 0.44472003 1.853
0.03706 0.44824955 1.853
0.045883812 0.44824955 1.853
0.05470762 0.44824955 1.853
0.063531429 0.44824955 1.853
-0.15706381 0.45619094 1.853
0.049413335 0.45177907 1.853
0.05470762 0.45177907 1.853
0.064943239 0.45389682 1.853
0.073678814 0.45574975 1.8529999
-0.15529905 0.46413237 1.853
0.066178568 0.46589714 1.853
0.073111571 0.46539292 1.853
0.067060955 0.47472095 1.853
0.072355241 0.47472095 1.853
0.065296188 0.48354477 1.853
0.071766987 0.48119175 1.853
0.05470762 0.49766287 1.853
0.060001906 0.49766287 1.853
0.03617762 0.50383949 1.853
0.045883812 0.50119239 1.853
0.060001906 0.50119239 1.853
-0.15436286 0.42937714 1.863
-0.14549142 0.42760283 1.863
-0.1348457 0.42582858 1.8630002
-0.12420001 0.42582858 1.8630002
-0.114264 0.427248 1.8630002
-0.10645714 0.42582858 1.863
-0.088714287 0.42228001 1.863
-0.076294288 0.42228001 1.863
-0.063874289 0.42464575 1.8630002
-0.055594288 0.42701143 1.8630002
-0.046131432 0.42937717 1.8630002
-0.039034285 0.42937714 1.863
-0.15684687 0.43434516 1.8630002
-0.021291429 0.43647429 1.863
-0.014194285 0.43647429 1.8630002
-0.0053228568 0.43647429 1.863
0.010645715 0.43647429 1.863
-0.17033143 0.44002286 1.863
-0.16465372 0.44286171 1.8630002
-0.15968572 0.44179714 1.863
0.0035485714 0.44002289 1.8630002
0.01596857 0.44179714 1.863
0.024840001 0.44179711 1.8630002
0.034598574 0.44623286 1.863
-0.16500857 0.45776573 1.863
-0.15968572 0.45421714 1.863
0.07540714 0.45155573 1.863
0.081617139 0.45421717 1.8630002
-0.16323428 0.46131429 1.863
-0.15968572 0.46663713 1.863
0.078068569 0.46841142 1.863
0.081617139 0.46486288 1.8630002
0.078068569 0.47550857 1.8630002
0.081617139 0.47550857 1.8630002
0.067422852 0.48970285 1.863
0.075702861 0.48733717 1.8630002
0.083036572 0.486864 1.8630002
0.078068569 0.49325141 1.863
0.081617139 0.49325141 1.863
0.049680002 0.50389713 1.863
0.055002857 0.50389713 1.863
-0.16292128 0.42692512 1.8730001
-0.15519144 0.42633051 1.8730001
-0.14716429 0.42543861 1.8730001
-0.13556954 0.42454672 1.8730001
-0.12486669 0.42454672 1.8730001
-0.11416382 0.42454672 1.8730001
-0.10524476 0.42454672 1.8730001
-0.096325718 0.42454672 1.8730001
-0.083839051 0.42454672 1.8730001
-0.071352385 0.42454672 1.8730001
-0.06421715 0.42454672 1.8730001
-0.055298097 0.42454672 1.8730001
-0.046379052 0.4281143 1.8730001
-0.18194859 0.43703336 1.8730001
-0.17436738 0.43569553 1.8730001
-0.16512981 0.43473992 1.8730003
-0.033892386 0.43346572 1.8730001
-0.024973337 0.43524954 1.8730001
-0.014270477 0.43524954 1.8730001
-0.0053514289 0.43524954 1.8730001
0.0035676192 0.43703336 1.8730001
0.014270477 0.43703336 1.8730001
0.024973333 0.4388172 1.8730001
0.032108575 0.43881717 1.8730001
-0.18373242 0.44595242 1.8730001
-0.17525929 0.44639838 1.8730001
-0.1676781 0.44952002 1.8730001
0.03638972 0.44381186 1.8730001
0.046379048 0.44639838 1.8730001
0.055298097 0.44595242 1.8730001
0.064663097 0.44639835 1.8730001
0.074920014 0.4477362 1.8730001
0.082055241 0.44952002 1.8730001
-0.17302954 0.45487148 1.8730001
-0.1658943 0.45487148 1.8730001
0.087406665 0.45487148 1.8730001
0.092758104 0.45665526 1.8730001
-0.17124574 0.46379051 1.8730001
-0.1664889 0.46616894 1.8730001
0.08740668 0.46379054 1.8730001
0.092758104 0.46379051 1.8730001
-0.1658943 0.47092575 1.8730001
0.087406665 0.47449338 1.8730001
0.092758104 0.47449335 1.8730001
0.087763429 0.48448274 1.8730001
-0.17216 0.42681336 1.8830001
-0.16498668 0.42561781 1.8830001
-0.15422669 0.42322668 1.8830001
-0.12553334 0.42322668 1.8830001
-0.11836001 0.42322668 1.8830001
-0.18411557 0.43398672 1.8830001
-0.17664334 0.43129671 1.8830001
-0.16498667 0.43040004 1.8830001
-0.03586667 0.43159562 1.8830001
-0.025106668 0.43255207 1.8830003
-0.014346668 0.43398672 1.8830001
-0.0059777787 0.43279117 1.8830001
0.0035866671 0.43398672 1.8830001
0.014346668 0.43518227 1.8830001
0.025106668 0.43757337 1.8830001
0.035866674 0.43578002 1.8830003
0.045431115 0.43637782 1.8830001
0.053800002 0.43757337 1.8830001
0.068146676 0.43757334 1.8830001
-0.19009334 0.4447467 1.8830001
-0.18650667 0.44116005 1.8830001
0.037660003 0.44116005 1.8830001
0.045431115 0.4423556 1.8830001
0.053800002 0.44116005 1.8830001
0.063663334 0.44205672 1.8830001
0.075320005 0.44295341 1.8830003
0.08608 0.4447467 1.8830003
0.095644459 0.4471378 1.8830001
0.10162222 0.4471378 1.8830001
-0.19009334 0.45371336 1.8830001
-0.18471333 0.45730004 1.8830001
-0.17933334 0.45730004 1.8830001
0.08787334 0.45192 1.8830001
0.09540534 0.45478937 1.8830003
0.10401334 0.45550671 1.8830003
0.11262134 0.45550671 1.8830003
-0.17754 0.46268001 1.8830001
0.096840009 0.46626672 1.8830001
0.10401334 0.46626675 1.8830003
0.11374859 0.46626672 1.8830004
0.096840009 0.47523335 1.8830001
0.10401335 0.47523332 1.8830003
0.11477335 0.47523332 1.8830003
0.095405348 0.48491737 1.8830003
0.10281779 0.48300451 1.8830003
0.11549067 0.48204803 1.8830003
0.12194667 0.48420003 1.8830001
-0.18218476 0.42930666 1.8940001
-0.17496952 0.42750287 1.8940001
-0.16685238 0.42389524 1.8940001
-0.15693143 0.42209142 1.8940001
-0.14791238 0.42569906 1.8940001
-0.11364 0.42569906 1.8940001
-0.10642476 0.42569906 1.8940001
-0.073956192 0.42569906 1.8940001
-0.066740952 0.42569906 1.8940001
-0.054114282 0.42690158 1.8940001
-0.045095243 0.42930666 1.8940001
-0.036076192 0.42930666 1.8940001
-0.19120382 0.43652192 1.8940001
-0.1875962 0.4347181 1.8940001
-0.032468572 0.43291429 1.8940001
-0.025253333 0.43291429 1.8940001
-0.014430477 0.43291432 1.8940001
-0.0036076191 0.43291429 1.8940001
0.0018038095 0.43291429 1.8940001
0.018038096 0.43652192 1.8940001
0.025253337 0.43652195 1.8940001
0.039683808 0.43291429 1.8940001
0.044493973 0.43411684 1.8940001
0.054114282 0.4347181 1.8940001
0.064937145 0.43652195 1.8940001
0.072152384 0.43652192 1.8940001
-0.19120382 0.44012955 1.8940001
0.063133337 0.44012955 1.8940001
0.075759999 0.44012958 1.8940001
0.084779054 0.44012955 1.8940001
0.094399378 0.44253463 1.8940001
0.10462096 0.44433841 1.8940001
0.11183619 0.44734475 1.8940001
0.12265905 0.44734475 1.8940001
-0.19481143 0.4527562 1.8940001
0.10822857 0.45095238 1.8940001
0.11664635 0.45395872 1.8940001
0.12356096 0.45456001 1.8940001
-0.19120382 0.46538287 1.8940001
-0.18489048 0.46718669 1.8940001
-0.17677332 0.46899047 1.8940001
0.11905143 0.46357906 1.8940001
0.12446286 0.46538287 1.8940001
-0.18038096 0.47259811 1.8940001
-0.17677332 0.47259811 1.8940001
0.11905143 0.47259811 1.8940001
0.12523592 0.47672114 1.8940002
0.1334819 0.47981334 1.8940001
0.10822857 0.48702857 1.8940001
0.11183619 0.48702857 1.8940001
0.12626666 0.48432288 1.8940001
0.1334819 0.48342097 1.8940001
0.10642476 0.4906362 1.8940001
0.11544381 0.4906362 1.8940001
0.12265905 0.4906362 1.8940001
-0.18254223 0.42673779 1.904
-0.17498666 0.42432001 1.904
-0.16501334 0.42250669 1.904
-0.15594667 0.42190224 1.904
-0.14506668 0.42673779 1.904
-0.13600001 0.42794669 1.904
-0.10154667 0.42794669 1.904
-0.08522667 0.42794669 1.904
-0.079786666 0.42794669 1.904
-0.061653331 0.42794669 1.904
-0.050773334 0.42794669 1.904
-0.047146667 0.42794669 1.904
-0.03626667 0.42794669 1.904
-0.20309334 0.43882668 1.904
-0.19584002 0.43520004 1.9040003
-0.18858667 0.43157333 1.904
-0.039893333 0.43157333 1.904
-0.02176 0.43157333 1.904
-0.014506668 0.43157333 1.904
-0.00544 0.43157333 1.904
0.0036266667 0.43278223 1.904
0.014506668 0.43520004 1.904
0.025386667 0.43520004 1.904
0.034453332 0.43520001 1.904
0.045333333 0.43157333 1.904
0.054400004 0.43157333 1.904
0.064373329 0.43429333 1.904
0.076885335 0.43665066 1.9040002
0.085831121 0.43761778 1.904
0.094293341 0.43701336 1.9040002
0.10517333 0.43882668 1.904
-0.21034667 0.44970667 1.904
-0.20490667 0.44608003 1.9040002
-0.19765334 0.44607997 1.9040002
0.10698666 0.44245335 1.904
0.11605334 0.44668445 1.9040002
0.12330666 0.44608 1.904
-0.21034667 0.45514667 1.904
-0.20490667 0.45514667 1.904
-0.19946666 0.45514667 1.904
0.12693334 0.45333332 1.904
0.13237333 0.45696002 1.904
-0.21034667 0.46421334 1.904
-0.20400001 0.46512002 1.904
-0.19765334 0.46421337 1.9040002
0.12693334 0.46058667 1.904
0.13146666 0.46511999 1.904
-0.21034667 0.47146666 1.904
-0.20490667 0.47146666 1.904
-0.19765332 0.47146666 1.904
-0.18496001 0.47328001 1.904
0.132736 0.47364268 1.9040002
0.14506668 0.47146666 1.904
0.1535289 0.47267556 1.904
-0.1714381 0.41947621 1.9150001
-0.16414286 0.41947621 1.9150001
-0.12401905 0.41582859 1.9150001
-0.18602858 0.42494762 1.9150001
-0.17690954 0.42312384 1.9150001
-0.16779049 0.42312384 1.9150001
-0.1532 0.42312384 1.9150001
-0.14590478 0.42555556 1.9150002
-0.1349619 0.42677146 1.9150002
-0.12401905 0.42677146 1.9150002
-0.22250476 0.43771428 1.9150001
-0.21520953 0.4358905 1.9150002
-0.20426667 0.43467462 1.9150002
-0.19514762 0.43041909 1.9150001
-0.1896762 0.43041909 1.9150001
-0.093014285 0.43041909 1.9150001
-0.041947618 0.43041909 1.9150001
-0.032828573 0.43224287 1.9150001
-0.027965082 0.43285084 1.9150002
-0.0054714289 0.43041909 1.9150001
0.0045595239 0.43133098 1.9150001
0.014590478 0.43406671 1.9150002
0.025533333 0.43406671 1.9150002
0.034652382 0.43406668 1.9150001
0.042859524 0.43133098 1.9150001
0.054714289 0.43041909 1.9150002
0.065657146 0.43285081 1.9150002
0.074776188 0.43406668 1.9150001
0.083895236 0.4349786 1.9150001
0.094838098 0.43224287 1.9150002
0.10578096 0.43589053 1.9150002
0.11490001 0.43771428 1.9150001
0.12037143 0.43771428 1.9150001
-0.22250476 0.44136193 1.9150001
-0.21475357 0.44455358 1.9150001
-0.20791429 0.44136193 1.9150001
0.11550795 0.44257781 1.9150002
0.12401905 0.44440159 1.9150002
0.13313809 0.44865716 1.9150001
-0.21703336 0.45595241 1.9150002
0.12766667 0.45230478 1.9150001
0.135483 0.45491022 1.9150002
0.14499287 0.45868808 1.9150001
-0.21520953 0.46446353 1.9150002
-0.20791429 0.46507144 1.9150001
0.13678572 0.46507144 1.9150001
0.14408097 0.46507147 1.9150001
0.13739365 0.47540635 1.9150002
0.14590478 0.47419044 1.9150002
0.1532 0.47054285 1.9150001
0.13739365 0.48270163 1.9150002
0.14499287 0.48239765 1.9150001
-0.13566668 0.41800001 1.9250001
-0.20166668 0.42900002 1.9250001
-0.19433333 0.42716667 1.9250001
-0.18516667 0.42166668 1.9250001
-0.17783333 0.42166668 1.9250001
-0.16866668 0.42166668 1.9250001
-0.15766667 0.42166668 1.9250001
-0.14483333 0.4235 1.9250001
-0.13640001 0.42386666 1.9250001
-0.12650001 0.42533332 1.9250001
-0.0036666668 0.42900002 1.9250001
0.0036666668 0.42900002 1.9250001
0.014666667 0.42900002 1.9250001
0.025666667 0.42900002 1.9250001
0.034833334 0.42900002 1.9250001
0.044 0.42900002 1.9250001
0.055000003 0.42900002 1.9250001
0.066000007 0.42900002 1.9250001
0.088 0.42900002 1.9250001
0.095333338 0.42900002 1.9250001
0.1045 0.42900002 1.9250001
-0.22366667 0.43633336 1.9250001
-0.21450001 0.43266669 1.9250001
-0.20716667 0.43266669 1.9250001
-0.099000007 0.43266669 1.9250001
-0.023833334 0.43266669 1.9250001
-0.014666667 0.43266672 1.9250001
0.014666667 0.43266672 1.9250001
0.025666669 0.43266672 1.9250001
0.034833334 0.43266669 1.9250001
0.067833334 0.43266669 1.9250001
0.075166672 0.43266669 1.9250001
0.084333345 0.43266672 1.9250001
0.1045 0.43266669 1.9250001
0.11366668 0.43511114 1.9250001
0.121 0.43633336 1.9250001
-0.22366667 0.44733334 1.9250001
0.12711112 0.44122225 1.9250001
0.13566667 0.44471434 1.9250002
0.14300001 0.44733334 1.9250001
-0.22275001 0.45375001 1.9250001
0.13933334 0.45100001 1.9250001
0.1452 0.45393333 1.9250001
0.15400001 0.45649999 1.9250001
0.16133334 0.45833334 1.9250001
-0.22366667 0.46200001 1.9250001
0.15445834 0.46612507 1.9250001
0.1644762 0.46671432 1.9250002
0.17233334 0.46750003 1.9250001
0.15766667 0.47300002 1.9250001
0.16408333 0.47391671 1.9250001
-0.20466286 0.42776385 1.9360001
-0.19544382 0.42592001 1.9360001
-0.18806858 0.42038858 1.9360001
-0.16225524 0.4240762 1.9360001
-0.15303621 0.4240762 1.9360001
-0.14197335 0.42038858 1.9360001
-0.1327543 0.42223239 1.9360001
-0.12783748 0.422847 1.9360002
0.095878102 0.42776385 1.9360001
-0.22494477 0.43636829 1.9360002
-0.21388191 0.43145144 1.9360002
-0.20650668 0.43145144 1.9360001
-0.11800382 0.43145144 1.9360001
-0.082971431 0.43145144 1.9360001
-0.040563811 0.43145144 1.9360001
-0.03687619 0.43145144 1.9360001
-0.014750476 0.43145144 1.9360002
-0.0073752385 0.43145144 1.9360001
0.075596191 0.43145144 1.9360001
0.082971431 0.43145144 1.9360001
0.1143162 0.43329525 1.9360001
0.12611659 0.43661413 1.9360001
0.13644192 0.43882671 1.9360001
-0.22863239 0.44435811 1.9360001
0.1327543 0.4425143 1.9360001
0.14381716 0.44528002 1.9360001
0.15488002 0.44988954 1.9360002
0.15488002 0.45357716 1.9360002
0.16225524 0.45542097 1.9360001
0.16717207 0.46341082 1.9360002
-0.20582572 0.4190686 1.9470001
-0.14092572 0.4190686 1.9470001
-0.13536286 0.4190686 1.9470001
-0.12980001 0.4190686 1.9470001
-0.21509716 0.42648575 1.9470003
-0.20397143 0.42463145 1.9470003
-0.1953181 0.42401338 1.9470003
-0.18357429 0.42277718 1.9470001
-0.17615716 0.42277718 1.9470001
-0.15205143 0.42277718 1.9470001
-0.14834286 0.42277718 1.9470001
-0.23364002 0.43575716 1.9470001
-0.22622287 0.43328476 1.9470003
-0.21509716 0.43019432 1.9470003
-0.12238287 0.43019432 1.9470001
-0.11496572 0.43266672 1.9470003
-0.10384002 0.43390286 1.9470003
-0.09456858 0.43390286 1.9470001
-0.085297152 0.43143052 1.9470003
-0.074171439 0.43390286 1.9470003
-0.044502866 0.43266672 1.9470003
-0.033377144 0.43390286 1.9470001
-0.025960004 0.43390286 1.9470003
-0.0074171433 0.43019432 1.9470001
0.0055628577 0.43019432 1.9470001
0.022251431 0.43019432 1.9470001
0.044502862 0.43019432 1.9470003
0.055628579 0.43019432 1.9470003
0.064900003 0.43019432 1.9470001
0.092714287 0.43019432 1.9470001
0.10384002 0.43019432 1.9470003
0.11867429 0.43390286 1.9470001
0.12423715 0.43390286 1.9470001
0.13536286 0.43761146 1.9470001
-0.2354943 0.4450286 1.9470003
0.13350858 0.44132003 1.9470001
0.14556143 0.44410145 1.9470001
0.1550183 0.44725376 1.9470001
0.16317715 0.44873717 1.9470001
-0.23364002 0.45244575 1.9470001
-0.22993144 0.45615435 1.9470003
0.16564953 0.45615435 1.9470003
0.17059429 0.45986289 1.9470001
-0.22993144 0.46542573 1.9470001
0.17430288 0.46542573 1.9470001
0.18357429 0.46728003 1.9470001
-0.22668645 0.47516072 1.9470003
-0.21880573 0.47655147 1.9470001
0.17801145 0.4709886 1.9470001
0.18172002 0.4709886 1.9470001
-0.22190668 0.41770667 1.9580001
-0.21444762 0.41770667 1.9580001
-0.20512383 0.41770667 1.9580001
-0.19766477 0.41770667 1.9580001
-0.14545143 0.41770667 1.9580001
-0.13799238 0.41770667 1.9580001
-0.2342141 0.42740345 1.9580001
-0.22423762 0.42469954 1.9580001
-0.21444762 0.42330095 1.9580001
-0.20139429 0.42143622 1.9580001
-0.19393525 0.42143625 1.9580001
-0.18461142 0.42143622 1.9580001
-0.1715581 0.42516571 1.9580001
-0.16409904 0.42516574 1.9580001
-0.15663999 0.42516571 1.9580001
-0.14731619 0.42143622 1.9580001
-0.12307428 0.42889526 1.9580001
-0.11934476 0.42889526 1.9580001
-0.095102862 0.42889526 1.9580001
-0.085779056 0.42889529 1.9580001
-0.078319997 0.42889526 1.9580001
-0.0055942857 0.42889526 1.9580001
0.0037295239 0.42889529 1.9580001
0.011188571 0.42889526 1.9580001
0.026106667 0.42889529 1.9580001
0.035430476 0.42889526 1.9580001
0.042889524 0.42889526 1.9580001
0.057807621 0.42889526 1.9580001
0.065266669 0.42889526 1.9580001
0.085779056 0.42889529 1.9580001
0.095102862 0.42889526 1.9580001
0.10442667 0.42889529 1.9580001
-0.24241905 0.43448955 1.9580001
-0.23589239 0.43355712 1.9580001
-0.11375048 0.43262476 1.9580001
-0.10256191 0.43262476 1.9580001
-0.095102862 0.43262476 1.9580001
-0.089508571 0.43262476 1.9580001
-0.074590474 0.43262476 1.9580001
-0.065266669 0.43635431 1.9580001
-0.05594286 0.43635434 1.9580001
-0.044754285 0.43262476 1.9580001
-0.037295237 0.43262476 1.9580001
-0.026106667 0.43262476 1.9580001
-0.014918095 0.43262476 1.9580001
-0.0037295239 0.43262476 1.9580001
0 0.43262476 1.9580001
0.014918095 0.43262476 1.9580001
0.027971428 0.43262476 1.9580001
0.035430476 0.43262476 1.9580001
0.074590474 0.43262476 1.9580001
0.085779056 0.43262476 1.9580001
0.11561524 0.43262476 1.9580001
0.12307428 0.43262476 1.9580001
0.13426286 0.43635434 1.9580001
0.14545143 0.43635434 1.9580001
-0.24391083 0.44306746 1.9580001
-0.23868953 0.44008383 1.9580001
0.14638381 0.44101623 1.9580001
0.15477523 0.44194859 1.9580001
0.16285586 0.44505653 1.9580001
0.1715581 0.44754288 1.9580001
-0.24241905 0.45500192 1.9580001
-0.23744635 0.45748827 1.9580001
0.16782857 0.45313716 1.9580001
0.17482144 0.45546809 1.9580001
-0.23589239 0.46525809 1.9580001
0.17777398 0.46370417 1.9580001
0.19020571 0.46992001 1.9580001
-0.23496 0.47364956 1.9580001
-0.23496 0.48110858 1.9580001
-0.2250286 0.41630286 1.9690002
-0.21377715 0.41630286 1.9690002
-0.20627619 0.41630286 1.9690001
-0.24128065 0.42630419 1.9690002
-0.23440477 0.42192861 1.9690001
-0.22877906 0.42005336 1.9690001
-0.19314954 0.42005336 1.9690001
-0.18377334 0.42192858 1.9690001
-0.15376952 0.42380384 1.9690001
-0.14626858 0.42005336 1.9690001
-0.093761913 0.42755431 1.9690002
-0.084385723 0.42567906 1.9690001
0.016877143 0.42755431 1.9690001
0.024378097 0.42755431 1.9690001
0.03000381 0.42755431 1.9690001
0.078760006 0.42755431 1.9690001
0.084385723 0.42755431 1.9690001
0.093761906 0.42755431 1.9690002
0.10501334 0.42755431 1.9690002
0.11438952 0.42755431 1.9690001
-0.25253209 0.43755555 1.9690002
-0.24659383 0.43411765 1.9690001
-0.11438952 0.43130478 1.9690001
-0.10595095 0.43224242 1.9690001
-0.073134288 0.43130478 1.9690001
-0.063758098 0.43505526 1.9690002
-0.054381907 0.43505526 1.9690001
-0.04500572 0.43255496 1.9690002
-0.033754285 0.43505526 1.9690001
-0.026253335 0.43505526 1.9690001
-0.013126668 0.43130478 1.9690001
0.016877143 0.43130478 1.9690001
0.048756193 0.43130478 1.9690001
0.05250667 0.43130478 1.9690001
0.075009525 0.43130478 1.9690002
0.11438952 0.43130478 1.9690001
0.12376572 0.43255496 1.9690002
0.13501714 0.43505526 1.9690002
0.15564477 0.43880573 1.9690001
0.16502097 0.43693051 1.9690001
0.17377208 0.43755555 1.9690002
-0.25253206 0.44380638 1.9690002
0.16752128 0.44380635 1.9690002
0.17439716 0.44443142 1.9690001
0.18002287 0.44443142 1.9690001
-0.25128192 0.45005718 1.9690001
-0.24753146 0.45380765 1.9690002
0.17627239 0.45005718 1.9690001
0.18377334 0.45443273 1.9690001
0.19502477 0.45568287 1.9690001
-0.24378097 0.46505904 1.9690002
0.18564856 0.4650591 1.9690001
0.19502477 0.46505907 1.9690001
0.20440096 0.46693432 1.9690001
0.19502477 0.47256002 1.9690001
-0.23628001 0.48006096 1.9690001
-0.2357143 0.4186286 1.9800001
-0.22440001 0.41485718 1.9800001
-0.21497145 0.41485721 1.9800003
-0.20554286 0.41674289 1.9800001
-0.19800001 0.4186286 1.9800001
-0.25268573 0.42994288 1.9800001
-0.24608573 0.42617145 1.9800001
-0.1848 0.42240003 1.9800001
-0.17537144 0.42617145 1.9800001
-0.1697143 0.42617145 1.9800001
-0.12257144 0.42994288 1.9800001
-0.11691429 0.42994288 1.9800001
-0.10182858 0.42994288 1.9800001
-0.0792 0.42994288 1.9800001
-0.0075428574 0.42994288 1.9800001
0.005657143 0.42994288 1.9800001
0.011314287 0.42994288 1.9800001
0.035828575 0.42994288 1.9800001
0.043371432 0.42994288 1.9800001
0.056571431 0.42994288 1.9800001
0.064114295 0.42994291 1.9800003
0.073542863 0.42994288 1.9800001
0.094285727 0.42617148 1.9800003
0.10484572 0.42466289 1.9800001
0.11502858 0.42617145 1.9800001
0.12445716 0.42900002 1.9800001
-0.25520003 0.43497145 1.9800003
-0.064114295 0.43371433 1.9800003
-0.054685719 0.4337143 1.9800001
-0.049028575 0.4337143 1.9800001
-0.022628574 0.4337143 1.9800001
-0.018857144 0.4337143 1.9800001
0.12822859 0.4337143 1.9800001
0.13577144 0.43371433 1.9800003
0.14520001 0.43748575 1.9800001
0.15538286 0.43597719 1.9800001
0.16405715 0.4337143 1.9800001
0.17725715 0.43748575 1.9800001
0.18480001 0.43748578 1.9800003
-0.26022857 0.44314289 1.9800001
-0.25645718 0.44880003 1.9800001
0.18587758 0.44448987 1.9800003
0.19557554 0.4461062 1.9800003
-0.25520003 0.45508575 1.9800003
0.18668571 0.45257145 1.9800001
0.1961143 0.45257148 1.9800003
0.20554286 0.45634288 1.9800001
0.21497145 0.45634288 1.9800003
-0.25394288 0.46137142 1.9800003
-0.2489143 0.46765718 1.9800001
0.20554286 0.46200001 1.9800001
0.21120001 0.46577147 1.9800001
-0.24325716 0.47614288 1.9800001
-0.25268573 0.48462859 1.9800001
-0.24420002 0.48557144 1.9800001
-0.25268573 0.49028575 1.9800001
-0.2428343 0.41737145 1.9920001
-0.23524573 0.41737145 1.9920001
-0.20299429 0.41737145 1.9920001
-0.25345829 0.42571887 1.9920002
-0.24536383 0.42243049 1.9920001
-0.19350858 0.42116573 1.9920001
-0.18592 0.42243049 1.9920001
-0.17833145 0.42496002 1.9920001
-0.16568381 0.42748952 1.9920001
-0.15936001 0.4287543 1.9920001
0.0075885719 0.4287543 1.9920001
0.015177144 0.4287543 1.9920001
0.024662858 0.4287543 1.9920001
0.030354287 0.4287543 1.9920001
0.043634288 0.4287543 1.9920001
0.056914289 0.4287543 1.9920001
0.064502865 0.4287543 1.9920001
0.075885728 0.4287543 1.9920001
0.085371435 0.42685717 1.9920001
0.094857149 0.42496002 1.9920001
0.10624 0.42116573 1.9920001
0.11762286 0.42496002 1.9920001
0.12426287 0.42685717 1.9920001
0.1328 0.4287543 1.9920001
0.14038858 0.4287543 1.9920001
-0.25801143 0.43254858 1.9920001
-0.11193143 0.43254858 1.9920001
-0.10624 0.43254858 1.9920001
-0.073988579 0.43254858 1.9920001
-0.041737143 0.43254858 1.9920001
-0.034148574 0.4363429 1.9920001
-0.026560001 0.4363429 1.9920001
-0.0037942859 0.43254858 1.9920001
0 0.43254858 1.9920001
0.049325716 0.43254858 1.9920001
0.053120002 0.43254858 1.9920001
0.13469714 0.43254858 1.9920001
0.14494173 0.43406636 1.9920002
0.15461715 0.43349719 1.9920001
0.16505143 0.43254858 1.9920001
0.17453715 0.43444574 1.9920003
0.18402286 0.4363429 1.9920001
0.19603811 0.44140193 1.9920001
0.20536573 0.44345716 1.9920003
-0.26275429 0.45436573 1.9920001
0.20678858 0.45341718 1.9920001
0.21437714 0.45341718 1.9920001
0.22386287 0.45341718 1.9920003
0.21500954 0.46416765 1.9920001
0.22006857 0.46290287 1.9920001
-0.25421715 0.47428575 1.9920003
-0.24662858 0.47808003 1.9920001
-0.25421715 0.48490974 1.9920002
-0.24662858 0.4856686 1.9920001
-0.25042287 0.49325716 1.9920001
-0.24662858 0.49325716 1.9920001
-0.068297148 0.79680002 1.9920001
-0.066400006 0.80249143 1.9920001
-0.25180572 0.41967618 2.003
-0.24799049 0.41967618 2.003
-0.23654477 0.41586095 2.003
-0.22319143 0.41586095 2.003
-0.21556094 0.41586095 2.003
-0.20602286 0.41586095 2.003
-0.19457714 0.41967618 2.003
-0.18694668 0.41967618 2.003
0.11827239 0.41967618 2.003
-0.25816447 0.4247632 2.003
-0.18313143 0.42349145 2.003
-0.17473792 0.42501757 2.003
-0.16405523 0.42539907 2.003
-0.15642476 0.42730665 2.003
0.0076304763 0.42730665 2.003
0.013353334 0.42730665 2.003
0.045782857 0.42730665 2.003
0.057228573 0.42730665 2.003
0.065622106 0.42578059 2.003
0.075033024 0.42603493 2.003
0.083935231 0.4247632 2.003
0.095380954 0.42349145 2.003
0.10301143 0.42349145 2.003
0.11369409 0.42501757 2.003
0.12685667 0.42444524 2.003
0.13480508 0.42603493 2.003
0.14497906 0.42730665 2.003
0.15451714 0.42730665 2.003
0.16405523 0.42730665 2.003
0.17550096 0.42730665 2.003
0.18503904 0.42730665 2.003
0.19266953 0.42730665 2.003
-0.26325142 0.43875238 2.003
-0.12208762 0.43112192 2.003
-0.11636477 0.43112192 2.003
-0.099196188 0.43112192 2.003
-0.063905239 0.43398333 2.003
-0.055320952 0.43493712 2.003
-0.047690473 0.43493712 2.003
-0.038152382 0.43493712 2.003
-0.024799047 0.43493712 2.003
-0.015260953 0.43493712 2.003
-0.0038152381 0.43112192 2.003
0.0019076191 0.43112192 2.003
0.036244765 0.43112192 2.003
0.049598094 0.43112192 2.003
0.053413332 0.43112192 2.003
0.13734858 0.43112192 2.003
0.14688668 0.43112192 2.003
0.15451714 0.43112192 2.003
0.16405523 0.43112192 2.003
0.17550096 0.43112192 2.003
0.18503904 0.43302953 2.003
0.19457714 0.43493712 2.003
0.20411524 0.43684474 2.003
-0.27088189 0.44638285 2.003
-0.26579496 0.44383937 2.003
0.21556094 0.44447523 2.003
-0.2734254 0.45528507 2.0030003
-0.26706669 0.45401335 2.003
0.21556094 0.45019808 2.003
0.22509906 0.45019811 2.003
0.23272952 0.4521057 2.003
-0.26706669 0.46164382 2.003
-0.080119997 0.80310762 2.003
-0.074397147 0.80501527 2.0030003
-0.062315561 0.80247176 2.003
-0.057228573 0.80310762 2.003
-0.25331429 0.41643333 2.0150001
-0.2456381 0.41835243 2.0150001
-0.23220478 0.4183524 2.0150001
-0.22260952 0.4145143 2.0150001
-0.21493334 0.41579366 2.0150001
-0.20533811 0.41643333 2.0150001
-0.19382381 0.4183524 2.0150001
-0.18806668 0.4183524 2.0150001
0.11706191 0.4183524 2.0150001
0.12281905 0.4183524 2.0150001
-0.25715238 0.42219049 2.0150001
-0.18230952 0.42219049 2.0150001
-0.17463334 0.42219049 2.0150001
-0.16503811 0.42410952 2.0150001
-0.15736191 0.42602858 2.0150001
0.0019190477 0.42986667 2.0150001
0.015352381 0.42730796 2.0150001
0.024307936 0.42858732 2.0150001
0.034542859 0.42986667 2.0150001
0.047016665 0.42794764 2.0150001
0.055012703 0.42730796 2.0150001
0.065247625 0.42346987 2.0150001
0.074842863 0.42410952 2.0150001
0.08347857 0.42315003 2.0150001
0.10554762 0.42219049 2.0150001
0.11322381 0.42219049 2.0150001
0.1247381 0.42219049 2.0150001
0.13529286 0.42315003 2.0150001
0.14584765 0.42410955 2.0150003
0.15544286 0.42410952 2.0150001
0.16427049 0.42449337 2.0150001
0.17463334 0.42602858 2.0150001
0.18422858 0.42602858 2.0150001
0.19670239 0.42698812 2.0150001
0.20469843 0.42858732 2.0150001
0.21301429 0.42986667 2.0150001
-0.26482856 0.43562382 2.0150001
-0.13049524 0.43370476 2.0150001
-0.12665714 0.43370476 2.0150001
-0.11130476 0.43370476 2.0150001
-0.10554762 0.43370476 2.0150001
-0.094033331 0.43370476 2.0150001
-0.080600001 0.43370476 2.0150001
-0.074842863 0.43370476 2.0150001
-0.067166671 0.43370476 2.0150001
-0.055652384 0.43370476 2.0150001
-0.044138096 0.43370476 2.0150001
-0.032623813 0.43754286 2.0150001
-0.0076761907 0.43370476 2.0150001
0.20533811 0.43370476 2.0150001
0.21301427 0.43562379 2.0150001
-0.27442384 0.4471381 2.0150001
-0.26866665 0.44138095 2.0150001
0.21301429 0.44138095 2.0150001
0.22452858 0.4471381 2.0150001
-0.28210002 0.45481431 2.0150001
-0.27634287 0.45289528 2.0150001
-0.066526987 0.79192704 2.0150001
0.093649521 0.80676764 2.0150001
-0.32818097 0.23937906 2.0270002
-0.3513467 0.2451705 2.0270002
-0.32818097 0.24324001 2.0270002
-0.26447526 0.40926099 2.0270002
-0.25868383 0.40926099 2.0270002
-0.22393525 0.40926099 2.0270002
-0.27026668 0.41505241 2.0270002
-0.26447526 0.41505241 2.0270002
-0.25482285 0.41466632 2.0270002
-0.2451705 0.41698289 2.0270002
-0.23551813 0.41698289 2.0270002
-0.22490048 0.41408718 2.0270002
-0.21428287 0.41505241 2.0270002
-0.20656097 0.41505241 2.0270002
-0.26486135 0.42393261 2.0270002
-0.25868383 0.42084384 2.0270002
-0.20076953 0.42084384 2.0270002
-0.18339525 0.42084384 2.0270002
-0.17567335 0.42084384 2.0270002
-0.1640905 0.42470479 2.0270002
-0.15443811 0.42856577 2.0270002
0.003860953 0.4285658 2.0270002
0.019304764 0.42856577 2.0270002
0.036679052 0.42856577 2.0270002
0.044400956 0.42663527 2.0270002
0.054053336 0.42470479 2.0270002
0.061775245 0.42470479 2.0270002
0.073358104 0.42470479 2.0270002
0.084940962 0.42084384 2.0270002
0.09523683 0.42341781 2.0270002
0.10424572 0.42213082 2.0270002
0.11196762 0.42084384 2.0270002
0.12741144 0.42084384 2.0270002
0.13513336 0.42084384 2.0270002
0.14478573 0.42084384 2.0270002
0.16602097 0.42213082 2.0270002
0.17567335 0.42470479 2.0270002
0.18532573 0.42277431 2.0270004
0.1949781 0.42277431 2.0270002
0.20463049 0.4240613 2.0270004
0.21428287 0.42856577 2.0270002
-0.27026668 0.43628767 2.0270002
-0.26640573 0.43242669 2.0270002
-0.11582857 0.43242669 2.0270002
-0.10038476 0.43242669 2.0270002
-0.06370572 0.43242669 2.0270002
-0.054053336 0.43435717 2.0270002
-0.034748577 0.4362877 2.0270002
-0.025096193 0.43628767 2.0270002
-0.013513334 0.43628767 2.0270002
0.22136128 0.43500066 2.0270002
-0.27219716 0.44207907 2.0270002
0.22316305 0.44169298 2.0270002
0.23358764 0.44787049 2.0270002
0.23358764 0.45173147 2.0270002
-0.073358104 0.79728675 2.0270002
-0.069497153 0.79921722 2.0270002
0.084940962 0.79535627 2.0270002
0.094593339 0.79921722 2.0270002
0.10038476 0.79921722 2.0270002
-0.081080012 0.80693913 2.0270002
-0.074645087 0.80565214 2.0270002
-0.069497153 0.80500865 2.0270002
0.088801913 0.80500865 2.0270002
0.09523683 0.80436516 2.0270002
0.10231524 0.80500865 2.0270002
0.10231524 0.81080008 2.0270002
0.055983812 0.82624388 2.0270002
0.065636203 0.82624388 2.0270002
0.073358104 0.82624388 2.0270002
0.055983812 0.83010483 2.0270002
0.065636203 0.83010483 2.0270002
0.073358104 0.83010483 2.0270002
-0.32429811 0.17477146 2.039
-0.31458855 0.17477143 2.0389998
-0.30552638 0.17736064 2.039
-0.32429808 0.18642285 2.039
-0.31381178 0.18486933 2.039
-0.30682096 0.18448095 2.039
-0.32235619 0.19224858 2.039
-0.31458855 0.19370501 2.0389998
-0.30682096 0.19419049 2.039
-0.31070474 0.20195809 2.039
-0.34663001 0.22526096 2.039
-0.33303666 0.22817382 2.039
-0.32429811 0.22720286 2.039
-0.31458855 0.22720288 2.039
-0.30552638 0.22785017 2.039
-0.34468812 0.23594142 2.039
-0.33400762 0.23497048 2.039
-0.32429808 0.23497048 2.039
-0.31458855 0.23497048 2.039
-0.30487907 0.23497048 2.039
-0.34565905 0.24468 2.0389998
-0.33511728 0.24523485 2.039
-0.32429811 0.24467999 2.039
-0.31458855 0.24468 2.0389998
-0.30487907 0.24468002 2.039
-0.29516953 0.24856381 2.039
-0.28740191 0.24856381 2.039
-0.33400762 0.25438952 2.039
-0.32429808 0.25438952 2.039
-0.31458855 0.25438952 2.039
-0.30487907 0.25438952 2.039
-0.29516953 0.25438952 2.039
-0.28740191 0.25244763 2.039
-0.3320657 0.26409906 2.039
-0.32429811 0.26409906 2.039
-0.31458855 0.26409909 2.0389998
-0.30487907 0.26409909 2.039
-0.29905334 0.26215714 2.039
-0.3314184 0.27316126 2.039
-0.32365081 0.27445588 2.039
-0.31653047 0.27575046 2.039
-0.33323085 0.28584838 2.039
-0.32429808 0.28546 2.039
-0.31458855 0.28351814 2.039
-0.30682096 0.28351811 2.039
-0.33141842 0.29258034 2.039
-0.3246865 0.29439279 2.039
-0.25438952 0.40779999 2.039
-0.23302858 0.40779999 2.039
-0.22603773 0.40624648 2.039
-0.25438952 0.4116838 2.039
-0.24467999 0.41362572 2.039
-0.23497048 0.41362572 2.039
-0.21490413 0.41297841 2.039
-0.2058419 0.41556764 2.039
-0.19419049 0.41945145 2.039
-0.18642285 0.41945145 2.039
0.08544381 0.41945145 2.039
0.11651429 0.41945145 2.039
0.12428191 0.41945145 2.039
0.13593334 0.41945145 2.039
0.14370096 0.41945145 2.039
0.16506191 0.41945145 2.039
0.17671335 0.41945145 2.039
0.18448095 0.41945145 2.039
0.19419049 0.41945145 2.039
0.20389999 0.41945145 2.039
-0.27186665 0.42527717 2.039
-0.17088762 0.42333525 2.039
-0.16700381 0.42333525 2.039
-0.15923619 0.42721906 2.039
0.0077676191 0.42721906 2.039
0.013593333 0.42721906 2.039
0.038838092 0.42721906 2.039
0.044663809 0.42527717 2.039
0.054373335 0.42333525 2.039
0.066024765 0.42333525 2.039
0.075734288 0.42333525 2.039
0.093211427 0.42333525 2.039
0.10097905 0.42333525 2.039
0.15535238 0.42333525 2.039
0.17477143 0.42333525 2.039
0.20972572 0.42333525 2.039
0.21490413 0.42592448 2.039
0.23497048 0.42527714 2.039
-0.27510318 0.43369207 2.039
-0.12428191 0.43498668 2.039
-0.10680477 0.43498668 2.039
-0.095153332 0.43498668 2.039
-0.073792383 0.43498668 2.039
-0.066024758 0.43304479 2.039
-0.054373335 0.43304476 2.039
-0.044663809 0.43498668 2.039
-0.038838092 0.43498668 2.039
-0.019419046 0.43887046 2.039
-0.0058257142 0.43498668 2.039
0.027186668 0.43110287 2.039
0.031070476 0.43110287 2.039
0.22603773 0.43420991 2.039
0.2345821 0.43420991 2.039
-0.27769238 0.44469619 2.039
0.22914477 0.44663808 2.039
0.23302858 0.44469619 2.039
-0.28351811 0.45440573 2.039
-0.27963427 0.45052192 2.039
-0.073792383 0.59810668 2.039
-0.023302857 0.65442193 2.039
-0.017477142 0.65442193 2.039
-0.023302857 0.673841 2.039
-0.019419046 0.673841 2.039
-0.20195809 0.76899433 2.039
-0.19807428 0.76511049 2.039
-0.14564286 0.77287811 2.039
-0.13981713 0.77287811 2.039
-0.082530953 0.78452951 2.039
-0.075734288 0.78452957 2.039
-0.066579595 0.78341997 2.039
-0.038838092 0.78258765 2.039
-0.081560001 0.79618096 2.039
-0.075734288 0.79423904 2.039
-0.069908567 0.79423904 2.039
0.069908567 0.79423904 2.039
0.075734288 0.79423904 2.039
0.086220577 0.79385066 2.039
0.095153332 0.79423904 2.039
-0.27769238 0.80006474 2.039
-0.25438952 0.80394858 2.039
-0.081560001 0.80394858 2.039
-0.077676192 0.80394858 2.039
0.069908567 0.80006474 2.039
0.076705232 0.80297762 2.039
0.08433415 0.80339372 2.039
0.095153332 0.80006474 2.039
0.10097905 0.80006474 2.039
-0.25438952 0.8117162 2.039
0.046605714 0.81948382 2.039
0.054373335 0.81754196 2.039
0.069908567 0.81559998 2.039
0.075734288 0.81560004 2.039
0.081560001 0.8117162 2.039
-0.25244763 0.82725143 2.039
-0.24856381 0.82725143 2.039
0.038838092 0.8233676 2.039
0.044663809 0.8233676 2.039
0.054373335 0.82530951 2.039
0.066024765 0.82530951 2.039
-0.32624 0.83696097 2.039
-0.31070474 0.83696097 2.039
-0.30526745 0.83579582 2.039
-0.25244763 0.83307719 2.039
-0.24726921 0.8337245 2.039
-0.23302858 0.83113527 2.039
-0.22720286 0.83113527 2.039
0.050489523 0.83113527 2.039
-0.33597335 0.12501334 2.0510004
-0.32536954 0.12557144 2.0510004
-0.31644002 0.12892 2.0510001
-0.34574002 0.13478 2.0510001
-0.33597335 0.13478002 2.0510004
-0.32425338 0.13478002 2.0510004
-0.3151378 0.1341289 2.0510001
-0.35355338 0.14454669 2.0510004
-0.34534937 0.14376535 2.0510004
-0.33548501 0.14405835 2.0510004
-0.32425335 0.14454667 2.0510004
-0.31448668 0.14454669 2.0510004
-0.30732447 0.14715111 2.0510001
-0.35420448 0.15366223 2.0510001
-0.34378669 0.15431334 2.0510001
-0.33597335 0.15431336 2.0510004
-0.32425338 0.15431336 2.0510004
-0.31448668 0.15431334 2.0510001
-0.30550134 0.15470402 2.0510004
-0.29690668 0.15626667 2.0510001
-0.34476337 0.16505668 2.0510001
-0.33597335 0.16408001 2.0510004
-0.32425335 0.16408001 2.0510004
-0.31448668 0.16408002 2.0510004
-0.30472001 0.16407999 2.0510004
-0.29534402 0.16486135 2.0510004
-0.28909335 0.16603334 2.0510001
-0.34574005 0.17580001 2.0510004
-0.33597335 0.17580001 2.0510004
-0.3034178 0.17449778 2.0510004
-0.29495335 0.17580001 2.0510004
-0.28630289 0.17580003 2.0510004
-0.35160002 0.18556666 2.0510001
-0.34574002 0.18556668 2.0510001
-0.33597335 0.18556669 2.0510004
-0.32425338 0.18361335 2.0510001
-0.30276668 0.18556666 2.0510001
-0.29495335 0.18556666 2.0510001
-0.28779113 0.18491554 2.0510001
-0.34476334 0.19435668 2.0510001
-0.33597332 0.19533333 2.0510004
-0.32718337 0.19631001 2.0510001
-0.31644002 0.19924001 2.0510001
-0.30423167 0.19533333 2.0510004
-0.29495335 0.19533335 2.0510004
-0.28909335 0.19533335 2.0510001
-0.35160002 0.20705333 2.0510001
-0.34574002 0.20510001 2.0510001
-0.33597335 0.2051 2.0510004
-0.32425338 0.2051 2.0510004
-0.3151378 0.20575111 2.0510001
-0.30472001 0.2051 2.0510004
-0.29495335 0.20510001 2.0510001
-0.28909335 0.2051 2.0510001
-0.35160002 0.21486667 2.0510001
-0.34534937 0.21486668 2.0510004
-0.33597335 0.2148667 2.0510004
-0.32425335 0.2148667 2.0510004
-0.31448668 0.21486668 2.0510004
-0.30472001 0.21486667 2.0510004
-0.29495335 0.21486668 2.0510004
-0.28714001 0.21096 2.0510001
-0.34508893 0.22398221 2.0510001
-0.33675468 0.22424267 2.0510004
-0.32425338 0.22268002 2.0510001
-0.31448668 0.22268 2.0510001
-0.30393869 0.22424269 2.0510004
-0.29495335 0.22463334 2.0510001
-0.35160002 0.23244667 2.0510001
-0.34769335 0.23244667 2.0510001
-0.30081338 0.2344 2.0510001
-0.29495335 0.2344 2.0510004
-0.28714001 0.23635334 2.0510001
-0.30081335 0.24416669 2.0510001
-0.29495335 0.24416669 2.0510001
-0.28518671 0.2441667 2.0510004
-0.27542001 0.24612002 2.0510001
-0.35355335 0.25588667 2.0510001
-0.34574002 0.25588667 2.0510001
-0.28407049 0.25449145 2.0510004
-0.27737337 0.25393337 2.0510001
-0.3525767 0.26565334 2.0510001
-0.34574002 0.26565334 2.0510004
-0.33988005 0.26565334 2.0510001
-0.30081335 0.26956001 2.0510001
-0.29495335 0.26565334 2.0510004
-0.28518668 0.26565334 2.0510004
-0.35160002 0.27346668 2.0510001
-0.34574002 0.27542001 2.0510001
-0.33857781 0.27607113 2.0510001
-0.32620668 0.27737334 2.0510001
-0.31253335 0.27542001 2.0510001
-0.30472004 0.27542001 2.0510004
-0.29495335 0.27542001 2.0510001
-0.28596804 0.27502936 2.0510004
-0.3548556 0.2858378 2.0510004
-0.34574002 0.28518668 2.0510004
-0.33695 0.28225666 2.0510001
-0.32425335 0.28518668 2.0510001
-0.31383559 0.28648889 2.0510001
-0.3042317 0.28518668 2.0510004
-0.29456267 0.28440532 2.0510004
-0.28630289 0.28518668 2.0510004
-0.34574002 0.29495335 2.0510001
-0.33857781 0.29560447 2.0510001
-0.32034668 0.29495335 2.0510001
-0.31448668 0.29495335 2.0510001
-0.30472001 0.29495335 2.0510004
-0.29560447 0.29430223 2.0510001
-0.28714001 0.29300001 2.0510001
-0.35160002 0.30472001 2.0510001
-0.34574002 0.30472004 2.0510004
-0.33597335 0.30472004 2.0510004
-0.32376501 0.30520836 2.0510004
-0.31448668 0.30472001 2.0510004
-0.30472001 0.30471998 2.0510004
-0.29690668 0.30472001 2.0510001
-0.28909335 0.30472001 2.0510001
-0.34574002 0.31448668 2.0510001
-0.33597335 0.31448671 2.0510004
-0.32425338 0.31448671 2.0510004
-0.31448668 0.31448668 2.0510001
-0.30472001 0.31448668 2.0510004
-0.29690668 0.31448668 2.0510001
-0.34378669 0.32425338 2.0510001
-0.33597338 0.32425335 2.0510004
-0.32425335 0.32425335 2.0510004
-0.31487736 0.32347202 2.0510004
-0.30550134 0.32190934 2.0510004
-0.29690668 0.32034668 2.0510001
-0.33499667 0.33304337 2.0510001
-0.23244667 0.39848003 2.0510001
-0.25588667 0.40238667 2.0510001
-0.24221335 0.40629336 2.0510001
-0.2344 0.40499115 2.0510001
-0.22463334 0.40434003 2.0510001
-0.21877334 0.40629336 2.0510001
-0.25002667 0.41020003 2.0510001
-0.24416669 0.41020003 2.0510001
-0.23830667 0.41020003 2.0510001
-0.21486668 0.41020006 2.0510001
-0.20444891 0.41540894 2.0510001
-0.19533335 0.41801339 2.0510001
-0.18556666 0.41801336 2.0510001
0.12501334 0.41801339 2.0510001
0.13478 0.41801336 2.0510001
0.14454667 0.41801339 2.0510001
0.15431334 0.41801336 2.0510001
0.16408001 0.41801339 2.0510001
0.17580001 0.41801339 2.0510001
0.18556666 0.41801336 2.0510001
0.19533335 0.41801339 2.0510001
0.2051 0.41801336 2.0510001
0.21486668 0.41801339 2.0510001
0.22463334 0.41801336 2.0510001
-0.27737334 0.42973337 2.0510001
-0.18361333 0.42192 2.0510001
-0.17580001 0.42192 2.0510001
-0.16212668 0.42582667 2.0510001
-0.15626667 0.42973337 2.0510001
0.0019533334 0.42973337 2.0510001
0.019533334 0.42973337 2.0510001
0.035160001 0.42843115 2.0510001
0.042973336 0.42582667 2.0510001
0.054693334 0.42192 2.0510001
0.078133337 0.42192 2.0510001
0.085946672 0.42192 2.0510001
0.095713332 0.42192 2.0510001
0.10548001 0.42192 2.0510001
0.11329334 0.42192 2.0510001
0.14845334 0.42192 2.0510001
0.15431334 0.42192 2.0510001
0.16017334 0.42192 2.0510001
0.17189334 0.42192 2.0510001
0.21584335 0.42289668 2.0510001
0.22463334 0.42582667 2.0510004
0.23147002 0.42485002 2.0510001
-0.28128001 0.43754667 2.0510001
-0.15236001 0.43364 2.0510001
-0.12892 0.43754667 2.0510001
-0.11524667 0.43364 2.0510001
-0.10938667 0.43364 2.0510001
-0.085946672 0.43754667 2.0510001
-0.078133337 0.43754667 2.0510001
-0.066413336 0.43364 2.0510001
-0.05078667 0.43364 2.0510001
-0.044926669 0.43364 2.0510001
-0.035160001 0.43559334 2.0510001
-0.025393333 0.43754667 2.0510001
-0.015626667 0.43754667 2.0510001
-0.0058599999 0.43364 2.0510001
0.23049335 0.43364 2.0510001
-0.28323334 0.44438335 2.0510001
0.23830667 0.4434067 2.0510001
0.24221335 0.4434067 2.0510001
-0.28518668 0.45317337 2.0510001
0.24221335 0.4551267 2.0510001
-0.070320003 0.59772003 2.0510001
-0.066413336 0.59772003 2.0510001
-0.054693338 0.59772003 2.0510001
-0.044275559 0.59641778 2.0510001
-0.071882673 0.60631472 2.0510004
-0.065436669 0.60455668 2.0510001
-0.056256004 0.60397071 2.0510004
-0.042973336 0.60162669 2.0510001
-0.070320003 0.6133467 2.0510001
-0.066413336 0.6133467 2.0510001
-0.058600001 0.6133467 2.0510001
-0.023440002 0.66608667 2.0510001
-0.017580001 0.66608667 2.0510001
-0.025393333 0.67585337 2.0510001
-0.019533334 0.6719467 2.0510001
-0.023440002 0.68366671 2.0510001
-0.019533334 0.68366671 2.0510001
-0.19533333 0.76961339 2.0510001
-0.21096 0.77742672 2.0510001
-0.2051 0.77742672 2.0510001
-0.19793779 0.77482224 2.0510001
-0.16017334 0.77547336 2.0510001
-0.15431334 0.77547336 2.0510001
-0.14845334 0.77352005 2.0510001
-0.21408534 0.7836774 2.0510004
-0.2051 0.78133333 2.0510001
-0.14845334 0.78133333 2.0510001
-0.12306 0.78133333 2.0510001
-0.093760006 0.78914672 2.0510001
-0.088551119 0.7865423 2.0510001
-0.078133337 0.78133333 2.0510001
-0.056646667 0.78719342 2.0510001
-0.044926669 0.78719342 2.0510001
-0.037113335 0.78133333 2.0510001
0.0039066668 0.78914678 2.0510001
0.019533334 0.78914672 2.0510001
0.044926669 0.78914672 2.0510001
-0.26174667 0.79696006 2.0510001
-0.25393337 0.79696006 2.0510001
-0.24351558 0.79565787 2.0510001
-0.23635334 0.79696006 2.0510001
-0.22268 0.79696006 2.0510001
-0.21486668 0.79696006 2.0510001
-0.2051 0.79696006 2.0510001
-0.085946672 0.79500675 2.0510001
0.0039066668 0.79500675 2.0510004
0.015626669 0.79500669 2.0510004
0.025393333 0.79500675 2.0510001
0.035160001 0.79500669 2.0510001
0.042973336 0.79305339 2.0510001
-0.28128001 0.80868006 2.0510001
-0.27444333 0.80575001 2.0510001
-0.26509523 0.80588955 2.0510004
-0.25237069 0.80321068 2.0510004
-0.24416667 0.80477333 2.0510004
-0.23488833 0.80526167 2.0510004
-0.22463334 0.80868006 2.0510001
-0.21535501 0.80477333 2.0510004
-0.20705333 0.80086666 2.0510001
-0.087509342 0.80477333 2.0510004
-0.013673333 0.80868006 2.0510001
-0.0058599999 0.80672669 2.0510001
0.0039066668 0.80477339 2.0510004
0.015626667 0.80477333 2.0510004
0.025393335 0.80477333 2.0510004
0.035160001 0.80477333 2.0510004
0.044926669 0.80477333 2.0510004
0.054205004 0.80526167 2.0510004
0.064460009 0.80477333 2.0510004
0.072273336 0.80868006 2.0510001
-0.28128001 0.81454003 2.0510001
-0.27542001 0.81454003 2.0510001
-0.26565337 0.81454009 2.0510004
-0.25002667 0.81454003 2.0510001
-0.24416669 0.81454003 2.0510001
-0.2344 0.81454009 2.0510004
-0.22528446 0.81519115 2.0510001
-0.21486668 0.81519115 2.0510001
-0.085946672 0.81454003 2.0510001
-0.025393333 0.81454003 2.0510001
-0.005208889 0.81388897 2.0510001
0.0039066668 0.81454009 2.0510004
0.015626669 0.81454009 2.0510004
0.025393333 0.81454003 2.0510001
0.035160005 0.81454009 2.0510004
0.044926669 0.81454009 2.0510001
0.054693338 0.81454009 2.0510004
0.064460002 0.81454003 2.0510001
0.071622223 0.81388897 2.0510001
-0.32034668 0.82821333 2.0510001
-0.31448668 0.82821333 2.0510001
-0.30862668 0.82821333 2.0510001
-0.27346668 0.82821333 2.0510001
-0.26565331 0.82430661 2.0510004
-0.25393334 0.82430661 2.0510004
-0.24416667 0.82430667 2.0510004
-0.2344 0.82430673 2.0510004
-0.22463334 0.82430673 2.0510004
-0.21486667 0.82040006 2.0510001
-0.085946672 0.82040006 2.0510001
0.019533334 0.82040006 2.0510001
0.025393335 0.82430673 2.0510004
0.034671668 0.82381839 2.0510004
0.044275559 0.82170224 2.0510001
0.064460002 0.82235336 2.0510001
0.070320003 0.82430667 2.0510001
-0.32313716 0.83602679 2.0510004
-0.31487736 0.83524543 2.0510004
-0.3034178 0.83472455 2.0510004
-0.29495335 0.83602667 2.0510004
-0.28518668 0.83602667 2.0510004
-0.27542001 0.83602667 2.0510004
-0.26565334 0.83602673 2.0510004
-0.25784001 0.83602679 2.0510001
-0.24377601 0.83524543 2.0510004
-0.23596267 0.83446401 2.0510004
-0.22463334 0.83212006 2.0510001
0.023440002 0.83212006 2.0510001
0.044926669 0.83407336 2.0510001
-0.33206668 0.84774667 2.0510001
-0.32347202 0.84618407 2.0510004
-0.3151378 0.84644449 2.0510001
-0.30374333 0.84676999 2.0510001
-0.29560447 0.84514225 2.0510001
-0.28714001 0.84384 2.0510001
-0.33206668 0.85165334 2.0510001
-0.32313719 0.85500205 2.0510004
-0.31448668 0.8536067 2.0510001
-0.30472001 0.8536067 2.0510004
-0.29690668 0.85556006 2.0510001
-0.32230002 0.86532664 2.0510001
-0.32230002 0.87118667 2.0510001
-0.33400959 0.10609715 2.0630002
-0.32418573 0.10609715 2.0630002
-0.34186861 0.11592097 2.0630002
-0.33400956 0.1139562 2.063
-0.32418573 0.11395621 2.0630002
-0.31698161 0.11657589 2.0630002
-0.34736994 0.12653069 2.0630002
-0.32222098 0.12378001 2.0630002
-0.31436193 0.12574479 2.0630002
-0.30650288 0.1296743 2.0630002
-0.3556219 0.13556859 2.0630002
-0.31174225 0.13622352 2.0630002
-0.30650288 0.13556859 2.0630002
-0.34579813 0.14932191 2.0630002
-0.3104324 0.14146286 2.0630002
-0.30453813 0.14441001 2.0630002
-0.29864383 0.14932191 2.0630002
-0.35365716 0.15718096 2.0630002
-0.34972766 0.1552162 2.0630002
-0.30257335 0.15325144 2.0630002
-0.29392844 0.15482326 2.0630002
-0.28685525 0.15718096 2.0630002
-0.35365716 0.16307525 2.0630002
-0.34972766 0.16307525 2.0630002
-0.29274958 0.16111049 2.0630002
-0.28528342 0.16582592 2.0630002
-0.2789962 0.16700478 2.0630002
-0.28292572 0.17289907 2.0630002
-0.27768636 0.17551875 2.0630002
-0.2839081 0.18567002 2.0630002
-0.2789962 0.18468764 2.0630002
-0.35365716 0.19451144 2.0630002
-0.34972766 0.19647621 2.0630002
-0.28489047 0.19451144 2.0630002
-0.3556219 0.20433526 2.0630002
-0.34972766 0.20040573 2.0630002
-0.2848905 0.20433526 2.0630002
-0.35562193 0.21415907 2.0630002
-0.34972766 0.21612383 2.0630002
-0.29078481 0.21612383 2.0630002
-0.28423557 0.21481399 2.0630002
-0.2789962 0.21219429 2.0630002
-0.29078481 0.2239829 2.0630002
-0.28587288 0.2230005 2.0630002
-0.29078481 0.23184192 2.0630002
-0.2839081 0.23478906 2.0630002
-0.2789962 0.23970097 2.0630002
-0.27408433 0.24461287 2.0630002
-0.26720765 0.24756001 2.0630002
-0.2734949 0.25463316 2.0630002
-0.35758668 0.2632781 2.0630002
-0.27768636 0.26458797 2.0630002
-0.35660428 0.27604908 2.0630002
-0.28292572 0.2789962 2.0630002
-0.2789962 0.2750667 2.0630002
-0.36151624 0.28292572 2.0630002
-0.35758668 0.28292572 2.0630002
-0.28292572 0.28292572 2.0630002
-0.2789962 0.28489047 2.0630002
-0.35601485 0.29550025 2.0630002
-0.29471433 0.29602417 2.0630002
-0.2839081 0.29569671 2.0630002
-0.2789962 0.29471433 2.0630002
-0.35758668 0.30257335 2.0630002
-0.29340452 0.30388319 2.0630002
-0.28489047 0.30453813 2.0630002
-0.2789962 0.30453813 2.0630002
-0.29274958 0.31436193 2.0630002
-0.28489047 0.31436193 2.0630002
-0.2789962 0.31239718 2.0630002
-0.30257335 0.32615051 2.0630002
-0.29471433 0.32353085 2.0630002
-0.33008003 0.33597431 2.0630002
-0.32418573 0.33597431 2.0630002
-0.31436193 0.33204478 2.0630002
-0.30453813 0.33008003 2.0630002
-0.23773621 0.40474096 2.0630002
-0.22005336 0.40474096 2.0630002
-0.21415907 0.40867051 2.0630002
-0.20433526 0.41390988 2.0630002
-0.19451144 0.41652957 2.0630002
-0.18665239 0.41652957 2.0630002
0.1453924 0.41652957 2.0630002
0.17682858 0.41652957 2.0630002
0.18468764 0.4165296 2.0630002
0.1925467 0.41652957 2.0630002
0.20040573 0.41652957 2.0630002
0.21219429 0.41652957 2.0630002
-0.18075812 0.42045909 2.0630002
-0.17289907 0.42045909 2.0630002
-0.16700478 0.42438859 2.0630002
-0.1552162 0.42831814 2.0630002
0.0039295247 0.42831814 2.0630002
0.011788572 0.42831814 2.0630002
0.035365716 0.42831814 2.0630002
0.04518953 0.42438859 2.0630002
0.055013336 0.42438859 2.0630002
0.06483715 0.42438859 2.0630002
0.074660957 0.42307878 2.0630002
0.084484771 0.42045909 2.0630002
0.094308577 0.42045912 2.0630002
0.10413238 0.42045909 2.0630002
0.11395621 0.42045912 2.0630002
0.23380668 0.42045909 2.0630002
-0.15325144 0.43224767 2.0630002
-0.14932191 0.43617719 2.0630002
-0.12574479 0.43617719 2.0630002
-0.11395621 0.4322477 2.0630002
-0.10413238 0.43617719 2.0630002
-0.098238103 0.43617719 2.0630002
-0.070731431 0.43617719 2.0630002
-0.062872387 0.43224767 2.0630002
-0.05501334 0.4322477 2.0630002
-0.031436194 0.43617719 2.0630002
-0.025541907 0.43617719 2.0630002
