# .PCD v0.7 - Point Cloud Data file format
VERSION 0.7
FIELDS x y z
SIZE 4 4 4
TYPE F F F
COUNT 1 1 1
WIDTH 1510
HEIGHT 1
VIEWPOINT 0 0 0 1 0 0 0
POINTS 1510
DATA ascii
0.072842389 0.44319761 1.8430001
-0.1654312 0.45680076 1.8430002
-0.15446097 0.45402163 1.8430002
0.06669905 0.45285144 1.8430001
0.070209526 0.45460668 1.8430001
-0.17201333 0.46689335 1.8430001
-0.16569449 0.46478707 1.8430001
-0.17452084 0.47441584 1.8430002
-0.16674763 0.47040382 1.8430001
-0.18254477 0.48620099 1.8430001
-0.17552382 0.48444572 1.8430002
-0.15446095 0.4879562 1.8430001
-0.1746462 0.49234429 1.8430001
-0.16674763 0.4914667 1.8430001
-0.15095048 0.49673235 1.8430001
-0.14568478 0.49497715 1.8430001
-0.061766669 0.42442524 1.853
-0.003529524 0.42707241 1.853
0.001764762 0.42707241 1.853
0.014118096 0.42707241 1.853
0.028236192 0.42707241 1.853
0.033530477 0.42707241 1.853
-0.10588571 0.43766099 1.853
-0.096003056 0.43554327 1.853
-0.084708571 0.43766099 1.853
-0.073414102 0.43624917 1.853
-0.064413808 0.43148431 1.853
-0.05470762 0.43060192 1.853
-0.045883812 0.43177843 1.853
-0.038824763 0.43413144 1.853
-0.021177143 0.43060192 1.853
-0.015882857 0.43060192 1.853
-0.0070590479 0.43060192 1.853
0.0070590479 0.43060192 1.853
0.014118096 0.43060192 1.853
0.021177143 0.43060192 1.853
0.038824763 0.43060192 1.853
0.045883812 0.43060192 1.853
0.05470762 0.43060192 1.853
0.063531429 0.43413144 1.853
0.072355241 0.43589619 1.853
-0.17294668 0.44824955 1.853
-0.16765238 0.44824955 1.853
-0.15353429 0.44824955 1.853
-0.14471048 0.4464848 1.853
-0.13412192 0.44295526 1.853
-0.12235683 0.44354352 1.853
-0.11382715 0.44383764 1.853
-0.10941524 0.44119048 1.853
0.075884759 0.44824955 1.853
-0.19059429 0.45883808 1.853
-0.18353525 0.4570733 1.853
-0.17471144 0.45530856 1.853
-0.16500524 0.45266145 1.853
-0.15618142 0.45266145 1.853
0.070590481 0.45177907 1.853
-0.19235906 0.46589714 1.853
-0.18353526 0.46589714 1.853
-0.17506438 0.46519127 1.853
-0.19177079 0.47413272 1.853
-0.18353525 0.47472095 1.853
-0.19059429 0.48177999 1.853
-0.18565296 0.48283884 1.853
-0.18706475 0.49060383 1.853
-0.094037145 0.42937714 1.863
-0.081617139 0.42937714 1.863
-0.072745711 0.42937714 1.863
-0.06476143 0.42582858 1.863
-0.055002857 0.42760286 1.863
-0.049680002 0.42760286 1.863
-0.014194285 0.42937714 1.863
-0.0070971427 0.42937714 1.863
0.0070971427 0.42937714 1.863
0.014194285 0.42937714 1.863
0.023065716 0.42937714 1.863
0.039034285 0.42937714 1.863
0.046131432 0.42937717 1.8630002
0.055002857 0.42937714 1.863
0.060325716 0.42937714 1.863
-0.13484572 0.43647429 1.8630002
-0.12420001 0.43647429 1.8630002
-0.11355428 0.43647429 1.8630002
-0.10468286 0.43470001 1.863
-0.095811442 0.43292576 1.8630002
-0.085165724 0.43470001 1.8630002
-0.075407147 0.43381289 1.863
-0.042582858 0.43292573 1.863
-0.035485715 0.43292576 1.8630002
-0.026614286 0.43292573 1.863
0.063874289 0.43292576 1.8630002
0.074519999 0.43470001 1.863
-0.19162287 0.44712001 1.863
-0.18452571 0.4453457 1.8630002
-0.17343643 0.44401503 1.863
-0.16500857 0.44534573 1.863
-0.15613714 0.44534573 1.8630002
-0.14460428 0.44268429 1.863
-0.13484572 0.44002289 1.8630002
-0.12420001 0.44002289 1.8630002
-0.11532857 0.44002286 1.863
0.078068569 0.44179714 1.863
0.082504287 0.44445857 1.863
-0.20345144 0.45658287 1.8630002
-0.19458 0.45540005 1.8630002
-0.18452571 0.45244288 1.8630002
-0.17742857 0.45066857 1.863
-0.16323428 0.45066857 1.863
-0.15968572 0.45066857 1.863
0.076294288 0.45599145 1.863
0.083391428 0.45066857 1.863
-0.20537357 0.46530643 1.863
-0.19783287 0.46397573 1.863
0.074519999 0.46131429 1.863
-0.20581715 0.47506505 1.863
-0.19783287 0.47639573 1.863
-0.21291429 0.48792857 1.863
-0.20632409 0.48615432 1.8630002
-0.19618532 0.48666126 1.8630002
-0.19339715 0.49325141 1.863
-0.085622869 0.4281143 1.8730001
-0.074920006 0.4281143 1.8730001
-0.067784764 0.42454672 1.8730001
-0.057081908 0.42454672 1.8730001
-0.046379052 0.4281143 1.8730001
-0.0053514289 0.4281143 1.8730001
0.0035676192 0.4281143 1.8730001
0.016054288 0.4281143 1.8730001
0.024973337 0.4281143 1.8730001
0.035676192 0.4281143 1.8730001
0.046379052 0.4281143 1.8730001
0.055298097 0.4281143 1.8730001
0.06243334 0.4281143 1.8730001
-0.19265144 0.43881717 1.8730001
-0.18551621 0.4388172 1.8730001
-0.17481335 0.43792528 1.8730001
-0.16321857 0.43792525 1.8730001
-0.15519144 0.43881717 1.8730001
-0.14555888 0.43739015 1.8730001
-0.13556953 0.43524954 1.8730001
-0.12486668 0.43382248 1.8730001
-0.11416382 0.43346572 1.8730001
-0.10524476 0.43168193 1.8730001
-0.099893339 0.43168193 1.8730001
-0.087406673 0.43168193 1.8730001
-0.07848762 0.43168193 1.8730001
-0.044595242 0.43168193 1.8730001
-0.037459999 0.43168193 1.8730001
-0.021405715 0.43168193 1.8730001
-0.014270477 0.43168193 1.8730001
0.066000953 0.43168193 1.8730001
0.075633526 0.43310896 1.8730001
0.08324445 0.43762797 1.8730001
-0.21227334 0.44952002 1.8730001
-0.20454352 0.44833082 1.8730001
-0.19621907 0.4477362 1.8730001
-0.18551621 0.44238481 1.8730001
-0.17838097 0.44238478 1.8730001
-0.16411048 0.44238481 1.8730001
-0.15519144 0.44238478 1.8730001
-0.14805621 0.44238478 1.8730001
0.087763429 0.44523889 1.8730001
0.094541907 0.44952002 1.8730001
-0.21334365 0.45522824 1.8730001
-0.2057327 0.45427689 1.8730001
-0.19740829 0.45427689 1.8730001
0.086514764 0.45576337 1.8730001
0.096325725 0.45487148 1.8730001
0.10346096 0.45487148 1.8730001
-0.22119239 0.46735814 1.8730001
-0.21450309 0.46334457 1.8730001
0.07848762 0.46379051 1.8730001
0.086217463 0.46319592 1.8730001
0.095879763 0.46334451 1.8730001
0.10346096 0.46200669 1.8730001
-0.21584098 0.47449338 1.8730001
0.07706058 0.47377989 1.8730001
0.085113205 0.47347409 1.8730003
-0.21619773 0.48448274 1.8730001
-0.20573273 0.48638543 1.8730001
-0.084286667 0.42681336 1.8830001
-0.073526673 0.42681336 1.8830001
-0.053800005 0.42681336 1.8830001
0.037660003 0.42681336 1.8830001
0.044833332 0.42681336 1.8830001
0.054696668 0.4259167 1.8830001
0.063663341 0.4259167 1.8830001
0.075320005 0.42681336 1.8830001
-0.19188668 0.43757334 1.8830001
-0.18411557 0.43637782 1.8830001
-0.17485002 0.43578002 1.8830001
-0.16570401 0.43542138 1.8830003
-0.15422668 0.43667668 1.8830001
-0.14526001 0.43398669 1.8830001
-0.13629335 0.43398672 1.8830001
-0.12374 0.43219337 1.8830001
-0.11477335 0.43040007 1.8830001
-0.10401334 0.43040007 1.8830001
-0.095046669 0.43040004 1.8830001
-0.04304 0.43040004 1.8830001
-0.03586667 0.43219337 1.8830001
-0.026900001 0.43398669 1.8830001
-0.01076 0.43040004 1.8830001
0.01076 0.43040004 1.8830001
0.068146676 0.43040004 1.8830001
0.075320005 0.43040007 1.8830001
0.086528331 0.43353838 1.8830003
0.094688006 0.43470404 1.8830003
0.10042667 0.43757334 1.8830001
-0.21340668 0.44833335 1.8830001
-0.20444 0.44534445 1.8830003
-0.19607113 0.44355115 1.8830001
0.089666672 0.44116005 1.8830001
0.095046684 0.4447467 1.8830003
0.10042667 0.4447467 1.8830001
-0.22416668 0.45550674 1.8830003
-0.21878667 0.45371336 1.8830001
0.10491 0.45281669 1.8830001
-0.22452533 0.46554938 1.8830003
0.07890667 0.46985337 1.8830001
0.08488445 0.46746227 1.8830001
-0.22416668 0.47523335 1.8830001
-0.22380801 0.48348269 1.8830003
-0.22237335 0.49137333 1.8830001
-0.1533238 0.42930666 1.8940001
-0.14250097 0.42930666 1.8940001
-0.13528571 0.42930666 1.8940001
-0.12626667 0.42930666 1.8940001
-0.11544381 0.42930669 1.8940001
-0.10462096 0.42930669 1.8940001
-0.093798101 0.42930666 1.8940001
-0.079367615 0.42930666 1.8940001
-0.06854476 0.42569906 1.8940001
-0.050506666 0.42930666 1.8940001
0.0036076191 0.42930669 1.8940001
0.012626667 0.42930666 1.8940001
0.023449525 0.42930666 1.8940001
0.032468572 0.42930666 1.8940001
0.045095243 0.42569906 1.8940001
0.05411429 0.4244965 1.8940001
0.064937145 0.4244965 1.8940001
0.075759999 0.42569908 1.8940001
0.084779054 0.42750284 1.8940001
0.093076579 0.42786366 1.8940001
-0.19120382 0.43652192 1.8940001
-0.18398857 0.43531939 1.8940001
-0.16595048 0.43291432 1.8940001
-0.15422571 0.4347181 1.8940001
-0.14430477 0.43291432 1.8940001
-0.13528571 0.43291429 1.8940001
-0.12807047 0.43291429 1.8940001
-0.03427238 0.43291429 1.8940001
-0.027057143 0.43291429 1.8940001
-0.018038096 0.43291429 1.8940001
0.097405717 0.43291429 1.8940001
0.10101333 0.4347181 1.8940001
-0.22367239 0.44734475 1.8940001
-0.21465334 0.44554096 1.8940001
-0.2056343 0.44253463 1.8940001
-0.19841905 0.44012955 1.8940001
0.10642477 0.44373712 1.8940001
0.11183619 0.44373715 1.8940001
-0.23233068 0.45528156 1.8940001
-0.22367239 0.45095238 1.8940001
0.10642476 0.45095238 1.8940001
0.11183619 0.45095238 1.8940001
-0.23269145 0.46538287 1.8940001
-0.23346451 0.47672114 1.8940002
-0.23449525 0.48342097 1.8940001
-0.14144 0.42794669 1.904
-0.13056 0.42794669 1.904
-0.12512 0.42794669 1.904
-0.11605334 0.42794669 1.904
-0.10517333 0.42794669 1.904
-0.090666667 0.42794669 1.904
-0.08704 0.42794669 1.904
0.02176 0.42794669 1.904
0.03626667 0.42794669 1.904
0.045333333 0.42432001 1.904
0.052586667 0.42432001 1.904
0.067093335 0.42432001 1.904
0.076160006 0.42432004 1.904
0.08522667 0.42432001 1.904
0.095200002 0.42522669 1.904
0.10154667 0.42613333 1.904
-0.22304001 0.43882668 1.904
-0.21397334 0.43882668 1.904
-0.20490667 0.43701333 1.904
-0.19584 0.43701333 1.904
-0.18405333 0.43338668 1.904
-0.17480533 0.43302402 1.9040002
-0.16501334 0.43157333 1.904
-0.15957333 0.43338668 1.904
-0.14869334 0.43157333 1.904
-0.12693334 0.43157333 1.904
-0.094293334 0.43157333 1.904
-0.045333333 0.43157333 1.904
-0.036266666 0.43157333 1.904
-0.025386667 0.43278226 1.904
-0.012693333 0.43338668 1.904
-0.00544 0.43157333 1.904
0.018133335 0.43157333 1.904
0.029013334 0.43157333 1.904
0.10620953 0.43468192 1.9040003
0.11363556 0.43761778 1.904
-0.235008 0.44825602 1.9040002
-0.22485337 0.44426668 1.9040002
-0.21397334 0.44245335 1.904
-0.20309334 0.44245335 1.904
0.11605334 0.44608003 1.904
-0.24419557 0.45575112 1.904
-0.23815112 0.45454225 1.904
0.11605334 0.45605338 1.904
0.12330666 0.45696002 1.904
-0.25024 0.46602666 1.904
-0.24480002 0.46421334 1.9040002
-0.23936002 0.46421337 1.904
0.11605334 0.46058667 1.904
0.12330666 0.46058667 1.904
-0.25024 0.47146666 1.904
-0.2448 0.47509333 1.9040002
-0.23936002 0.47509333 1.904
-0.25024 0.48416001 1.904
-0.2448 0.48416001 1.904
-0.14408097 0.42677143 1.9150001
-0.13860953 0.42677143 1.9150001
0.025533333 0.42677146 1.9150002
0.034652382 0.42677143 1.9150001
0.040123809 0.42677143 1.9150001
0.10760476 0.42677143 1.9150001
-0.22432858 0.43771428 1.9150001
-0.21448003 0.43625528 1.9150002
-0.20335478 0.43497857 1.9150001
-0.19514762 0.43406668 1.9150001
-0.1896762 0.43406668 1.9150001
-0.16414288 0.43041909 1.9150002
-0.15502381 0.43041909 1.9150001
-0.14772858 0.43041909 1.9150001
-0.13678572 0.43041909 1.9150001
-0.09666191 0.43041909 1.9150001
-0.082071431 0.43041909 1.9150001
-0.074776188 0.43041909 1.9150001
-0.065657146 0.43041909 1.9150001
-0.054714289 0.43041909 1.9150001
-0.043771431 0.43041909 1.9150002
-0.034652382 0.43041909 1.9150001
-0.025533333 0.43163496 1.9150002
-0.014590478 0.43285084 1.9150002
-0.0054714289 0.43041909 1.9150001
0.0036476194 0.43041909 1.9150002
0.014590478 0.43041909 1.9150002
0.027357144 0.43041909 1.9150001
0.10760476 0.43041909 1.9150001
0.11490001 0.43406665 1.9150001
0.12037143 0.43771428 1.9150001
-0.24393454 0.44546545 1.9150001
-0.23527144 0.44318575 1.9150001
-0.2298 0.44136193 1.9150001
0.12037143 0.44500956 1.9150002
-0.2644524 0.4596 1.9150001
-0.25481227 0.45699459 1.9150002
-0.24682224 0.45352066 1.9150002
0.12158731 0.45473656 1.9150002
-0.27721906 0.46689525 1.9150001
-0.26554668 0.46543622 1.9150002
-0.25606287 0.46470672 1.9150002
-0.27539524 0.47054285 1.9150001
-0.26627621 0.47054285 1.9150002
-0.25637552 0.47471157 1.9150002
-0.25606287 0.48294479 1.9150002
-0.16133334 0.42900002 1.9250001
-0.15400003 0.42753336 1.9250001
-0.14483333 0.42533332 1.9250001
-0.13566667 0.42777777 1.9250001
-0.12466668 0.42900002 1.9250001
-0.088 0.42900002 1.9250001
-0.011 0.42900002 1.9250001
-0.0055 0.42900002 1.9250001
0.0018333334 0.42900002 1.9250001
0.014666667 0.42900002 1.9250001
0.066 0.42533332 1.9250001
0.086166665 0.42533332 1.9250001
0.096066676 0.42386666 1.9250001
0.10388889 0.42411113 1.9250001
0.11366668 0.42777777 1.9250001
0.121 0.42900002 1.9250001
-0.24566668 0.43633336 1.9250001
-0.22183335 0.43633336 1.9250001
-0.2035 0.43266669 1.9250001
-0.19433334 0.43266669 1.9250001
-0.18516667 0.43266669 1.9250001
-0.176 0.43266672 1.9250001
-0.062333338 0.43266669 1.9250001
-0.055000003 0.43266669 1.9250001
-0.022 0.43266669 1.9250001
-0.0165 0.43266669 1.9250001
0.11733334 0.43266669 1.9250001
0.12393334 0.43486667 1.9250001
-0.26033333 0.44550002 1.9250001
-0.25483334 0.44550002 1.9250001
-0.24658334 0.44091669 1.9250001
-0.23466668 0.44000003 1.9250001
0.12613335 0.44293338 1.9250001
-0.27316669 0.45833334 1.9250001
-0.264 0.45527777 1.9250001
-0.25544447 0.45222223 1.9250001
0.12466668 0.45100001 1.9250001
-0.2835556 0.46811113 1.9250001
-0.27500001 0.4646191 1.9250002
-0.28416669 0.47483337 1.9250001
-0.27500004 0.47666669 1.9250001
-0.26583332 0.47666669 1.9250001
-0.28416669 0.48033333 1.9250001
-0.27866668 0.48033333 1.9250001
-0.26583335 0.48400003 1.9250001
-0.1917562 0.42776385 1.9360001
-0.16409905 0.42776385 1.9360001
-0.15672381 0.42592001 1.9360001
-0.14197335 0.4240762 1.9360001
-0.13459811 0.42776385 1.9360001
-0.092190482 0.42776385 1.9360001
0.057158098 0.42776385 1.9360001
0.064533338 0.42592001 1.9360001
0.073752388 0.42776388 1.9360002
0.084815241 0.42592001 1.9360001
0.092190482 0.4240762 1.9360001
0.10509715 0.42223239 1.9360001
0.1143162 0.42592001 1.9360001
-0.26182097 0.43698287 1.9360001
-0.25444576 0.43698293 1.9360001
-0.24522668 0.43513906 1.9360001
-0.23692952 0.43790478 1.9360001
-0.22494477 0.43636829 1.9360002
-0.21388191 0.43513906 1.9360002
-0.20466286 0.43145144 1.9360001
-0.19544384 0.43268067 1.9360002
-0.18438098 0.43145144 1.9360002
-0.17516191 0.43145144 1.9360001
-0.16778667 0.43145144 1.9360001
-0.11431621 0.43145144 1.9360002
-0.10325334 0.43145144 1.9360001
-0.095878109 0.43145144 1.9360002
-0.082971431 0.43145144 1.9360001
-0.014750477 0.43145144 1.9360001
0.0073752385 0.43145144 1.9360001
0.12783748 0.43268067 1.9360002
0.1327543 0.43145144 1.9360001
-0.26624614 0.44693947 1.9360001
-0.25628954 0.4425143 1.9360001
0.12906668 0.44988954 1.9360001
-0.28025904 0.45542097 1.9360001
-0.27472764 0.45542097 1.9360001
-0.2673524 0.45357716 1.9360001
0.12722287 0.45542097 1.9360001
0.1327543 0.45357716 1.9360001
-0.29316574 0.46648383 1.9360001
-0.28517589 0.46341079 1.9360001
-0.292797 0.47496539 1.9360001
-0.27472764 0.48492193 1.9360001
-0.18542859 0.42648575 1.9470003
-0.17430288 0.42648575 1.9470003
-0.16503143 0.42648575 1.9470001
-0.15390572 0.42648575 1.9470001
-0.14834286 0.42648575 1.9470001
-0.13721716 0.42648575 1.9470001
0.063045718 0.42648575 1.9470001
0.074171439 0.42648575 1.9470003
0.083442859 0.42648575 1.9470001
0.09456858 0.42277718 1.9470001
0.10384001 0.42277718 1.9470001
0.11496572 0.42401338 1.9470003
0.12423715 0.42648575 1.9470001
-0.27072573 0.43761146 1.9470001
-0.26578099 0.43513906 1.9470003
-0.25589144 0.43390286 1.9470003
-0.24476573 0.43204859 1.9470001
-0.2354943 0.43575716 1.9470001
-0.22696459 0.43390289 1.9470001
-0.21509716 0.43204862 1.9470003
-0.20397143 0.43019432 1.9470003
-0.1965543 0.43204859 1.9470001
-0.18542859 0.43019432 1.9470003
-0.17430288 0.43019432 1.9470003
-0.12609145 0.43019432 1.9470003
-0.11496572 0.43019432 1.9470001
-0.10384001 0.43143052 1.9470003
-0.096422866 0.43019432 1.9470001
-0.087151438 0.43019432 1.9470001
-0.076025724 0.43390286 1.9470001
-0.044502862 0.43390286 1.9470001
-0.03523143 0.43390286 1.9470001
-0.029668573 0.43390286 1.9470001
0.044502866 0.43019432 1.9470003
0.05192 0.43019432 1.9470001
0.12609145 0.43019432 1.9470003
-0.29297718 0.44873717 1.9470001
-0.28463286 0.44781002 1.9470001
-0.27489787 0.444565 1.9470003
-0.26701716 0.4431743 1.9470001
-0.3041029 0.45986289 1.9470001
-0.29446062 0.45689604 1.9470001
-0.2866196 0.45562458 1.9470003
-0.2762886 0.45244575 1.9470001
0.12980001 0.45986289 1.9470001
0.13350858 0.45986289 1.9470001
0.14648858 0.45615432 1.9470001
0.15205143 0.45615432 1.9470001
-0.30336118 0.4650549 1.9470001
-0.29483145 0.46357146 1.9470001
0.12980001 0.46542573 1.9470001
0.13350858 0.46357146 1.9470001
-0.30039433 0.4709886 1.9470001
0.11188572 0.41584194 1.9580001
-0.2536076 0.42889526 1.9580001
-0.24614857 0.42889529 1.9580001
-0.23496 0.42889526 1.9580001
-0.22377144 0.4279629 1.9580001
-0.21444762 0.42889526 1.9580001
-0.20419145 0.42796287 1.9580001
-0.19580001 0.42889526 1.9580001
-0.18461142 0.42516571 1.9580001
-0.17715238 0.42516571 1.9580001
-0.16409905 0.42516574 1.9580001
-0.15477523 0.42516571 1.9580001
-0.14545143 0.42516574 1.9580001
-0.1323981 0.42889526 1.9580001
-0.12307428 0.42889526 1.9580001
-0.11561524 0.42889529 1.9580001
-0.10442667 0.42889529 1.9580001
-0.095102862 0.42889526 1.9580001
-0.086524956 0.42740345 1.9580001
-0.078319997 0.42889526 1.9580001
0.0037295239 0.42889526 1.9580001
0.037295237 0.42889526 1.9580001
0.042889524 0.42889526 1.9580001
0.057807621 0.42889526 1.9580001
0.065266669 0.42516571 1.9580001
0.074590474 0.42516574 1.9580001
0.085779056 0.42516574 1.9580001
0.096967623 0.42143622 1.9580001
0.10442667 0.42143625 1.9580001
0.11654762 0.42236859 1.9580001
0.12493904 0.42330098 1.9580001
0.13351695 0.42740345 1.9580001
-0.29090285 0.43635431 1.9580001
-0.28530857 0.43635431 1.9580001
-0.27505237 0.43542191 1.9580001
-0.2647962 0.43262476 1.9580001
-0.25547236 0.43262476 1.9580001
-0.24241905 0.43262476 1.9580001
-0.23496 0.43262476 1.9580001
-0.22377144 0.43262476 1.9580001
-0.11561524 0.43262476 1.9580001
-0.10815619 0.43262476 1.9580001
-0.082049526 0.43262476 1.9580001
-0.074590474 0.43448955 1.9580001
-0.064645082 0.43511114 1.9580001
-0.055942856 0.43635431 1.9580001
-0.044754285 0.43635431 1.9580001
-0.014918095 0.43448955 1.9580001
-0.0055942857 0.43262476 1.9580001
0.0037295239 0.43262476 1.9580001
0.011188571 0.43262476 1.9580001
0.026106667 0.43262476 1.9580001
0.035430476 0.43262476 1.9580001
0.13674921 0.43386793 1.9580001
0.14296508 0.43511114 1.9580001
-0.2923947 0.44455925 1.9580001
-0.28568155 0.44306746 1.9580001
-0.27784953 0.44008383 1.9580001
0.13612762 0.44381332 1.9580001
0.14545143 0.44381332 1.9579999
0.16223428 0.44194859 1.9580001
-0.31327999 0.45873144 1.9580001
-0.30358326 0.45574784 1.9580001
-0.2983619 0.45313716 1.9580001
0.13650058 0.45425603 1.9580001
0.14491865 0.45393637 1.9580002
0.15539682 0.45624512 1.9580001
-0.31327999 0.46246096 1.9580001
-0.30582094 0.46246096 1.9580001
0.13799238 0.46246096 1.9580001
0.14619733 0.46395278 1.9580001
0.15291047 0.46432573 1.9580001
-0.30582094 0.78320003 1.9580001
0.20736153 0.82422477 1.9580001
0.21407466 0.82347888 1.9580001
0.20698857 0.83168381 1.9580001
0.21258286 0.83168381 1.9580001
0.10876381 0.41630286 1.9690001
0.11626476 0.41630286 1.9690001
0.12376573 0.41630286 1.9690002
0.13314191 0.41630286 1.9690001
-0.25315714 0.42755431 1.9690001
-0.24303086 0.42605415 1.9690001
-0.23440477 0.42755431 1.9690001
-0.22502859 0.42530403 1.9690001
-0.21377717 0.42567909 1.9690001
-0.20502603 0.42505401 1.9690002
-0.19502477 0.42605415 1.9690001
-0.17252192 0.42755431 1.9690001
-0.15376952 0.42380384 1.9690001
-0.13501714 0.42755431 1.9690002
-0.12189049 0.42755431 1.9690001
-0.11438952 0.42755431 1.9690001
-0.10501334 0.42755431 1.9690002
-0.095637143 0.42755431 1.9690001
-0.082510479 0.42755431 1.9690001
-0.078760006 0.42755431 1.9690001
0.063758098 0.42505401 1.9690002
0.076884761 0.42380384 1.9690001
0.084385723 0.42192861 1.9690001
0.092824288 0.42192861 1.9690001
0.10501334 0.42005336 1.9690002
0.11626476 0.42005336 1.9690001
0.12376573 0.42005336 1.9690002
0.13501716 0.42317876 1.9690001
0.14376827 0.42630419 1.9690002
-0.3000381 0.43880573 1.9690001
-0.29503748 0.4363054 1.9690002
-0.28503621 0.43505526 1.9690002
-0.27378476 0.43318003 1.9690001
-0.26253334 0.43130478 1.9690001
-0.25878286 0.43130478 1.9690001
-0.23628001 0.43130478 1.9690001
-0.1275162 0.43130478 1.9690001
-0.073134288 0.43318003 1.9690001
-0.063758098 0.43380511 1.9690002
-0.055006992 0.4363054 1.9690002
-0.04500572 0.43505526 1.9690002
-0.024378097 0.43880573 1.9690001
-0.015001905 0.43505526 1.9690001
-0.0056257145 0.43130478 1.9690001
0.0037504763 0.43130478 1.9690001
0.015939524 0.43318003 1.9690001
0.024378097 0.43130478 1.9690001
0.031879049 0.43130478 1.9690001
0.048756193 0.43130478 1.9690001
0.05250667 0.43130478 1.9690001
0.14501843 0.43255496 1.9690002
0.15376952 0.43880576 1.9690002
0.16314572 0.43880573 1.9690001
-0.3000381 0.44443142 1.9690001
-0.29628763 0.4425562 1.9690001
0.15564477 0.44443142 1.9690001
-0.31128952 0.45568287 1.9690001
-0.30472618 0.45099479 1.9690001
0.15564476 0.4519324 1.9690001
0.16277067 0.45305753 1.9690001
-0.31128952 0.4613086 1.9690001
0.13876763 0.46880955 1.9690001
0.1425181 0.46880955 1.9690001
0.13689238 0.47256002 1.9690001
0.15752001 0.79885149 1.9690001
0.16314572 0.79510099 1.9690001
0.15626985 0.80510229 1.9690002
0.16502097 0.8063525 1.9690002
0.17252192 0.80635244 1.9690001
0.14626858 0.81010288 1.9690001
0.15470715 0.81104052 1.9690001
0.16502097 0.81010288 1.9690002
0.17252192 0.81010288 1.9690001
0.15564477 0.82135433 1.9690001
0.20627619 0.82885528 1.9690001
0.20252572 0.834481 1.9690001
0.10371429 0.4186286 1.9800001
0.11502858 0.41485718 1.9800001
0.12445715 0.41485721 1.9800003
0.13577144 0.41611433 1.9800003
0.1433143 0.4186286 1.9800001
-0.27154288 0.42994288 1.9800001
-0.264 0.42900002 1.9800001
-0.25457144 0.42617145 1.9800001
-0.24514288 0.42365718 1.9800003
-0.23382859 0.42491433 1.9800003
-0.22440001 0.42240003 1.9800001
-0.21497145 0.42240006 1.9800003
-0.20554286 0.42240003 1.9800001
-0.1961143 0.42617145 1.9800001
-0.18480001 0.42617148 1.9800003
-0.17537144 0.42617145 1.9800001
-0.16594288 0.42617148 1.9800003
-0.15462857 0.42617145 1.9800001
-0.14520001 0.42617145 1.9800001
-0.12822859 0.42994288 1.9800001
-0.075428575 0.42994288 1.9800001
0.0037714287 0.42994291 1.9800003
0.024514288 0.42994288 1.9800001
0.03394286 0.42994291 1.9800003
0.045257147 0.42994291 1.9800003
0.054685719 0.42994288 1.9800001
0.075428575 0.42365718 1.9800003
0.094285719 0.42240003 1.9800001
0.13954286 0.42240003 1.9800001
0.14582859 0.42365718 1.9800003
0.15085715 0.42805716 1.9800001
-0.3130286 0.43748575 1.9800001
-0.30454287 0.43654287 1.9800001
-0.29417145 0.43371433 1.9800003
-0.28474289 0.4337143 1.9800001
-0.27720001 0.4337143 1.9800001
-0.26777145 0.4337143 1.9800001
-0.064114287 0.4337143 1.9800001
-0.03394286 0.43748578 1.9800003
0.015085715 0.4337143 1.9800001
0.15462857 0.43560001 1.9800003
0.16594288 0.43748578 1.9800003
-0.31302863 0.44502863 1.9800003
-0.30737144 0.4450286 1.9800003
0.1697143 0.44125718 1.9800001
-0.32057145 0.45445716 1.9800001
-0.31554288 0.45382857 1.9800003
-0.32057148 0.46388575 1.9800003
-0.3168 0.4601143 1.9800001
0.15462857 0.7995429 1.9800003
0.14708573 0.80708575 1.9800001
0.15274286 0.80519998 1.9800001
0.16342859 0.80457151 1.9800003
0.13954286 0.8146286 1.9800001
0.14520001 0.81368583 1.9800001
0.1521143 0.81588578 1.9800003
0.16217144 0.81840008 1.9800001
0.14708573 0.82594293 1.9800003
0.15337144 0.8253144 1.9800003
0.16217144 0.82405722 1.9800001
0.20365715 0.82971436 1.9800001
0.15462859 0.83348572 1.9800001
0.19800001 0.83725721 1.9800001
0.20365715 0.83348572 1.9800001
0.19800001 0.84102863 1.9800001
0.11382858 0.41484189 1.9920001
0.12521145 0.41357717 1.9920001
0.14418286 0.41737145 1.9920001
-0.30544001 0.4287543 1.9920001
-0.29500571 0.42780572 1.9920001
-0.28457147 0.4287543 1.9920001
-0.27508572 0.4287543 1.9920001
-0.26560003 0.42748952 1.9920001
-0.25345829 0.42344233 1.9920002
-0.24473144 0.42116573 1.9920001
-0.23524572 0.42306289 1.9920001
-0.22576001 0.42116573 1.9920001
-0.20109715 0.42496002 1.9920001
-0.19540572 0.42496002 1.9920001
-0.18592 0.42496002 1.9920001
-0.17453717 0.42496002 1.9920001
-0.16568381 0.42369527 1.9920001
-0.15556572 0.42496002 1.9920001
-0.14038858 0.4287543 1.9920001
-0.13469714 0.4287543 1.9920001
-0.12521145 0.4287543 1.9920001
-0.11382858 0.4287543 1.9920001
-0.10624 0.4287543 1.9920001
-0.075885721 0.4287543 1.9920001
0.068297148 0.42496002 1.9920001
0.079680003 0.42116573 1.9920001
0.085371435 0.42116573 1.9920001
0.094857149 0.42116576 1.9920001
0.14797714 0.42116573 1.9920001
0.15556572 0.42748952 1.9920001
0.16315429 0.4287543 1.9920001
-0.33010289 0.4363429 1.9920001
-0.32441145 0.4363429 1.9920001
-0.31416687 0.43482518 1.9920002
-0.30607241 0.43381333 1.9920001
-0.29595432 0.43254861 1.9920001
-0.28457147 0.43254861 1.9920001
-0.27698284 0.43254858 1.9920001
-0.072091438 0.43254858 1.9920001
-0.055017143 0.4363429 1.9920001
-0.045531433 0.4363429 1.9920001
-0.011382857 0.4363429 1.9920001
0.015177144 0.43254861 1.9920001
0.15746287 0.43254858 1.9920001
0.16441905 0.43507814 1.9920001
0.17074287 0.4363429 1.9920001
-0.3316206 0.44393143 1.9920002
-0.32441145 0.44393146 1.9920003
-0.31872004 0.44393143 1.9920001
-0.024662858 0.44013715 1.9920001
-0.01897143 0.44013715 1.9920001
-0.33389717 0.45531431 1.9920003
-0.32536003 0.45436573 1.9920001
-0.31872001 0.45152003 1.9920001
-0.33200002 0.46290287 1.9920001
-0.32630858 0.4648 1.9920001
-0.30354288 0.78921145 1.9920001
-0.2997486 0.78921145 1.9920001
0.1365943 0.78921145 1.9920001
0.14228573 0.78921145 1.9920001
-0.30607241 0.79427052 1.9920001
-0.2997486 0.79300576 1.9920001
0.13469714 0.79490292 1.9920001
0.14418286 0.79490292 1.9920003
0.15177144 0.79490292 1.9920001
0.1365943 0.80438858 1.9920001
0.14472492 0.80438864 1.9920003
0.15177144 0.80059427 1.9920001
0.13564572 0.81577146 1.9920001
0.14165336 0.81324196 1.9920001
0.14228573 0.82525718 1.9920001
0.16694857 0.82525718 1.9920001
0.14513144 0.83569145 1.9920001
0.15683049 0.83727241 1.9920001
0.16543086 0.83550179 1.9920002
0.17074287 0.8347429 1.9920001
0.19730286 0.8347429 1.9920001
0.20204571 0.83379436 1.9920001
0.14797714 0.84422863 1.9920001
0.15556574 0.84422863 1.9920003
0.16505143 0.84422863 1.9920001
0.19350858 0.84422863 1.9920001
-0.24799049 0.41967618 2.003
-0.23654477 0.41967618 2.003
-0.22700667 0.41967618 2.003
-0.17168571 0.41967618 2.003
-0.16787048 0.41967618 2.003
0.095380947 0.41967618 2.003
0.10491905 0.41776857 2.003
0.11445715 0.41331744 2.003
0.12590286 0.41204572 2.003
0.13480508 0.41458923 2.003
0.14497906 0.41586098 2.003
0.15451714 0.41967618 2.003
0.16151175 0.41840443 2.003
-0.31284952 0.42730665 2.003
-0.30521905 0.42539907 2.0030003
-0.29631683 0.4247632 2.003
-0.28690588 0.42578059 2.003
-0.2739341 0.42578059 2.003
-0.26452321 0.4247632 2.003
-0.25943619 0.42349145 2.003
-0.24036001 0.42349145 2.003
-0.22128381 0.42349145 2.003
-0.21556094 0.42349145 2.003
-0.20793048 0.42349145 2.003
-0.18503904 0.42349145 2.003
-0.17550096 0.42349145 2.003
-0.16214761 0.42349145 2.003
-0.15451714 0.42349145 2.003
-0.14497906 0.42730665 2.003
-0.13734858 0.42730665 2.003
-0.12590286 0.42730665 2.003
-0.11445715 0.42730665 2.003
-0.10682666 0.42730665 2.003
0.074397147 0.42539907 2.003
0.15515302 0.4247632 2.003
0.16214761 0.42539907 2.003
-0.34337142 0.43875238 2.003
-0.33650401 0.43646321 2.003
-0.32429525 0.4330295 2.0030003
-0.31475717 0.43112192 2.003
-0.10301143 0.43112192 2.003
-0.095380954 0.43112192 2.003
-0.083935246 0.43112192 2.003
-0.072489522 0.43112192 2.003
-0.064859055 0.43493712 2.003
-0.057228573 0.43493712 2.003
-0.034337148 0.43875238 2.003
-0.026706666 0.43875238 2.003
-0.017168572 0.43875238 2.003
-0.0057228571 0.43493712 2.003
0.024799047 0.43112192 2.003
0.030521905 0.43112192 2.003
0.045782857 0.43112192 2.003
0.06104381 0.43112192 2.003
0.16787048 0.43302953 2.003
0.17397486 0.43417412 2.003
-0.34337142 0.44447523 2.003
-0.33828446 0.44511113 2.003
-0.34337142 0.45019808 2.003
-0.33955619 0.45019808 2.003
0.10682666 0.78593904 2.003
0.11191365 0.78339553 2.003
0.1297181 0.79547715 2.003
0.13353334 0.79356951 2.003
-0.31475717 0.80692285 2.003
-0.30521905 0.80247176 2.003
0.1297181 0.80310762 2.003
0.13480508 0.80755872 2.003
0.14307143 0.8088305 2.003
0.15642476 0.80501521 2.003
0.16023999 0.80501521 2.003
0.1297181 0.81455338 2.003
0.13353334 0.81455338 2.003
0.16787048 0.81646097 2.003
0.17168571 0.81646097 2.003
0.1297181 0.82218385 2.003
0.13480508 0.82663488 2.003
0.17550096 0.82790673 2.003
0.18503904 0.82790667 2.003
0.13734858 0.83553714 2.003
0.14116381 0.83744478 2.003
0.17597786 0.83506024 2.003
0.18503904 0.83553714 2.0030003
0.19266954 0.83553714 2.0030003
0.13734858 0.84507525 2.003
0.14243555 0.84571117 2.003
0.17550096 0.84507531 2.0030003
0.18503906 0.84507525 2.003
0.19203365 0.84443939 2.003
0.13734858 0.85079807 2.003
0.14307143 0.85079807 2.003
0.17550096 0.85079807 2.003
0.18503904 0.85079807 2.003
0.19076191 0.85079807 2.003
-0.17463334 0.4183524 2.0150001
-0.1688762 0.4183524 2.0150001
0.095952384 0.41835243 2.0150001
0.10554762 0.4145143 2.0150001
0.11130476 0.4145143 2.0150001
0.12665714 0.41067621 2.0150001
0.13529286 0.41163573 2.0150001
0.14584763 0.41259524 2.0150003
0.15480319 0.41707301 2.0150001
0.16695715 0.4183524 2.0150001
-0.33199525 0.42986667 2.0150001
-0.32431906 0.42986667 2.0150001
-0.31856191 0.42986667 2.0150001
-0.28210002 0.42602858 2.0150001
-0.26482856 0.42219052 2.0150001
-0.25523335 0.42219049 2.0150001
-0.24371906 0.42219049 2.0150001
-0.23412383 0.42219049 2.0150001
-0.22260952 0.42219049 2.0150001
-0.21493334 0.42219052 2.0150001
-0.20533811 0.42410952 2.0150001
-0.19574288 0.42602858 2.0150001
-0.18422857 0.42219049 2.0150001
-0.17655239 0.42219049 2.0150001
-0.16311905 0.42219049 2.0150001
-0.14968573 0.42602858 2.0150001
-0.13433333 0.42986667 2.0150001
-0.10362858 0.42986667 2.0150001
-0.099790484 0.42986667 2.0150001
-0.076761909 0.42986667 2.0150001
0.023028571 0.42986667 2.0150001
0.067166671 0.42794764 2.0150001
0.072923817 0.42602858 2.0150001
0.086357147 0.42219049 2.0150001
0.095952384 0.42219049 2.0150001
0.16887622 0.42602858 2.0150001
0.17271429 0.42602858 2.0150001
-0.33583337 0.43370476 2.0150001
-0.065247625 0.43370479 2.0150001
-0.055652384 0.43562382 2.0150001
-0.046057146 0.43754286 2.0150001
-0.034542859 0.43754286 2.0150001
-0.026866667 0.43754286 2.0150001
-0.013433333 0.43754286 2.0150001
0.0076761907 0.43370476 2.0150001
0.015352381 0.43370479 2.0150001
0.036461905 0.43370476 2.0150001
0.046057146 0.43370476 2.0150001
0.055652384 0.43370476 2.0150001
-0.023028571 0.44138095 2.0150001
0.072923817 0.7829715 2.0150001
0.088276193 0.78680956 2.0150001
0.095952392 0.78680962 2.0150001
0.10554762 0.78680956 2.0150001
0.11322381 0.7829715 2.0150001
0.088276193 0.79256672 2.0150001
0.095952384 0.79338914 2.0150003
0.10362858 0.79064769 2.0150001
-0.30704764 0.80983812 2.0150001
-0.29630098 0.80369723 2.0150001
0.085205711 0.80830288 2.0150001
0.095952384 0.80663967 2.0150003
0.12665714 0.80791909 2.0150001
-0.31472382 0.81367624 2.0150001
0.076761909 0.81367624 2.0150001
0.084438108 0.81559533 2.0150003
0.094033331 0.81367624 2.0150001
0.13049524 0.81367624 2.0150001
0.076761909 0.82902861 2.0150001
0.084986404 0.82628715 2.0150003
0.12569761 0.82519054 2.0150001
0.074842863 0.83478576 2.0150001
0.082519054 0.83286673 2.0150001
0.12665714 0.83478576 2.0150001
0.1317746 0.8354255 2.0150001
0.12665714 0.84054291 2.0150001
0.13241428 0.84438097 2.0150003
0.13241428 0.85205716 2.0150001
0.094593339 0.41698289 2.0270002
0.10424572 0.41440892 2.0270002
0.11582857 0.41312194 2.0270002
0.12355049 0.41312194 2.0270002
0.15701208 0.41440892 2.0270002
0.1640905 0.41505241 2.0270002
-0.3359029 0.4285658 2.0270002
-0.32432002 0.4285658 2.0270002
-0.31466764 0.42663527 2.0270002
-0.30501527 0.42470479 2.0270002
-0.29536289 0.42470479 2.0270002
-0.28571051 0.42470479 2.0270002
-0.27605814 0.42470479 2.0270002
-0.25482288 0.42084384 2.0270002
-0.23937906 0.42084384 2.0270002
-0.20270002 0.42470479 2.0270002
-0.1949781 0.42470479 2.0270002
-0.18661271 0.42213082 2.0270002
-0.1640905 0.42084384 2.0270002
-0.15443811 0.42470479 2.0270002
-0.14478573 0.42856577 2.0270002
-0.13513336 0.4285658 2.0270002
-0.12548096 0.42856577 2.0270002
-0.11582857 0.4285658 2.0270002
-0.10810667 0.42856577 2.0270002
0.023165716 0.42856577 2.0270002
0.077219054 0.42470479 2.0270002
0.084940962 0.42213082 2.0270002
-0.094593339 0.43242669 2.0270002
-0.052122861 0.43628767 2.0270002
-0.044400956 0.43628767 2.0270002
-0.034748577 0.4362877 2.0270002
-0.027026668 0.43628767 2.0270002
0.0019304764 0.43628767 2.0270002
0.015443811 0.43242669 2.0270002
0.027026668 0.43242669 2.0270002
0.032818101 0.43242669 2.0270002
0.061775245 0.43242669 2.0270002
-0.023165716 0.44014859 2.0270002
-0.019304764 0.44014859 2.0270002
-0.061775245 0.7857039 2.0270002
0.077219054 0.78763431 2.0270002
0.083010487 0.78763431 2.0270002
0.076253816 0.79439104 2.0270002
0.082624398 0.79612845 2.0270002
0.10424572 0.79921722 2.0270002
0.12741144 0.79921722 2.0270002
0.084940962 0.80500865 2.0270004
0.094593339 0.80500865 2.0270002
0.10231525 0.80500865 2.0270002
0.12741144 0.80500865 2.0270002
-0.31273717 0.81852198 2.0270002
-0.30308479 0.81466103 2.0270002
-0.29536289 0.81273055 2.0270002
-0.28957143 0.81080008 2.0270002
0.075288579 0.81466103 2.0270002
0.081080012 0.81080008 2.0270002
0.092662863 0.81466103 2.0270002
0.10328048 0.81562626 2.0270002
0.11582857 0.81369579 2.0270002
0.12483748 0.81466103 2.0270002
-0.32045907 0.82238293 2.0270002
-0.31659812 0.82238293 2.0270002
0.077219054 0.82238293 2.0270002
0.083010487 0.82624388 2.0270002
0.094593339 0.82238293 2.0270002
0.10038476 0.8243134 2.0270002
0.11711557 0.82495689 2.0270002
0.12483748 0.82366991 2.0270002
0.065636195 0.8320353 2.0270004
0.074645087 0.83139181 2.0270002
0.088801913 0.83782673 2.0270002
0.094593339 0.83396578 2.0270004
0.10038476 0.8320353 2.0270002
0.11775906 0.83010483 2.0270002
0.12355049 0.83589625 2.0270002
0.088801913 0.84361815 2.0270002
0.094593339 0.84168768 2.0270002
0.11840256 0.84683561 2.0270002
0.12451573 0.84651387 2.0270002
0.12548096 0.85327053 2.0270002
0.23691238 0.22526096 2.039
0.24079619 0.22720286 2.039
-0.31458855 0.41945145 2.039
-0.30293715 0.41945145 2.039
-0.27186665 0.41945145 2.039
-0.26409909 0.41945145 2.039
-0.25438952 0.41945145 2.039
-0.24468002 0.41945145 2.039
-0.17477143 0.41945145 2.039
0.089327618 0.41945145 2.039
0.097095244 0.41556764 2.039
0.10097905 0.41556764 2.039
0.13593332 0.4116838 2.039
0.14564286 0.4116838 2.039
0.15146858 0.4116838 2.039
-0.3320657 0.42721906 2.039
-0.32429808 0.42721906 2.039
-0.31555951 0.42430618 2.039
-0.30487907 0.42333525 2.039
-0.29516956 0.42333525 2.039
-0.28546 0.42333525 2.039
-0.27575049 0.42333525 2.039
-0.26604098 0.42333525 2.039
-0.24662191 0.42333525 2.039
-0.23497048 0.42333525 2.039
-0.22526096 0.42333525 2.039
-0.21555144 0.42333525 2.039
-0.2058419 0.42333525 2.039
-0.19419049 0.42333525 2.039
-0.18253905 0.42333525 2.039
-0.15535238 0.42333525 2.039
-0.14758477 0.42721906 2.039
-0.13204953 0.42721906 2.039
-0.12428191 0.42721909 2.039
-0.11457238 0.42721906 2.039
0.073792383 0.42721906 2.039
0.081560001 0.42333525 2.039
-0.34177524 0.43498668 2.039
-0.10292096 0.43110287 2.039
-0.085443817 0.43498668 2.039
-0.073792383 0.43498668 2.039
-0.064082861 0.43498668 2.039
-0.054373335 0.43498668 2.039
-0.044663809 0.43498668 2.039
-0.036896188 0.43498668 2.039
-0.025244761 0.43692857 2.039
-0.015535238 0.43887049 2.039
-0.0058257142 0.43887046 2.039
0.0038838095 0.43498668 2.039
0.015535238 0.43110287 2.039
0.027186668 0.43110287 2.039
0.034954287 0.43239748 2.039
0.044663809 0.43498668 2.039
0.054373335 0.43498668 2.039
0.064082861 0.43110287 2.039
-0.04401651 0.58516067 2.039
-0.038838092 0.58645523 2.039
-0.051460475 0.5942229 2.039
-0.046605714 0.59228098 2.039
-0.042721905 0.60199052 2.039
-0.036896188 0.60199052 2.039
-0.035925236 0.65442193 2.039
-0.025244763 0.65442193 2.039
-0.019419046 0.65636379 2.039
-0.050489523 0.66024762 2.039
-0.044663809 0.66024762 2.039
-0.034954283 0.66024762 2.039
-0.025244761 0.66218954 2.039
-0.019419046 0.66218954 2.039
-0.23302858 0.78841329 2.039
-0.22720286 0.78841329 2.039
-0.21360953 0.78841329 2.039
-0.073792383 0.78841329 2.039
-0.066024765 0.78711879 2.039
-0.05631524 0.78841329 2.039
0.06796667 0.78841329 2.039
0.073792383 0.78841329 2.039
-0.27380854 0.79618096 2.039
-0.26507002 0.79423904 2.039
-0.25438952 0.79423904 2.039
-0.24468002 0.79423904 2.039
-0.23497048 0.79229712 2.039
-0.22526097 0.79423904 2.039
-0.21555144 0.79423904 2.039
-0.20681286 0.79521 2.039
-0.073792383 0.79423904 2.039
-0.069908567 0.79618096 2.039
-0.05631524 0.79229712 2.039
0.067319371 0.79488635 2.039
0.08544381 0.79618096 2.039
-0.29322761 0.80200666 2.039
-0.28740191 0.80589044 2.039
-0.27769238 0.80006474 2.039
-0.26798287 0.80006474 2.039
-0.25341859 0.80394858 2.039
-0.24468 0.80394852 2.0389998
-0.23497048 0.80200666 2.039
-0.22477548 0.80346304 2.0389998
-0.21360955 0.80394858 2.039
-0.20639674 0.80394858 2.039
-0.083501905 0.80491948 2.039
-0.075734288 0.80394852 2.039
-0.069908567 0.80006474 2.039
0.06796667 0.80200666 2.039
0.074763328 0.80491954 2.039
-0.29322761 0.81948382 2.039
-0.28584838 0.81637681 2.039
-0.26280448 0.81689465 2.039
-0.25374225 0.81430542 2.039
-0.24565096 0.81268716 2.039
-0.22137713 0.8117162 2.039
-0.20506513 0.81326973 2.039
-0.081560001 0.8117162 2.039
-0.075734288 0.8117162 2.039
0.066801526 0.81793034 2.039
0.075086989 0.81301087 2.039
0.10874667 0.8175419 2.039
0.11392508 0.81301087 2.039
0.12169271 0.81301081 2.039
-0.31199935 0.82595682 2.039
-0.30487907 0.82530951 2.039
-0.29516953 0.82530951 2.039
-0.28546 0.82530951 2.039
0.038838092 0.82530951 2.039
0.042721905 0.82530951 2.039
0.058257144 0.8233676 2.039
0.066024765 0.82492113 2.039
0.073792383 0.82725143 2.039
0.10745206 0.82595682 2.039
0.11392508 0.82466221 2.039
0.12169271 0.82466221 2.039
-0.32390973 0.83424234 2.039
-0.31458855 0.83501905 2.0389998
-0.30449069 0.83424234 2.039
-0.29565504 0.83453363 2.0389998
-0.28507161 0.83424234 2.039
-0.27575046 0.83550459 2.0389998
-0.26798287 0.83696097 2.039
0.058257144 0.83307719 2.039
0.06796667 0.83113527 2.039
0.075734288 0.83113527 2.039
0.095153332 0.83113527 2.039
0.10680476 0.83501905 2.039
0.11360143 0.83599001 2.039
0.1203981 0.83890289 2.039
-0.32235619 0.84472859 2.039
-0.31555951 0.84472859 2.039
-0.29905334 0.84278667 2.039
-0.27380854 0.84278667 2.039
-0.26798287 0.84278667 2.039
0.10486286 0.84472865 2.039
0.11457238 0.84472859 2.039
0.1203981 0.84472859 2.039
-0.32235619 0.85249621 2.039
0.10486286 0.85055429 2.039
0.11457238 0.85249621 2.039
0.23830667 0.21877334 2.0510001
0.24221335 0.21877334 2.0510001
0.23830667 0.22268 2.0510001
0.24221335 0.22268 2.0510001
0.23635334 0.2344 2.0510001
0.13673334 0.40629336 2.0510001
0.14454667 0.40629336 2.0510001
-0.32034668 0.41801336 2.0510001
-0.31448668 0.41801336 2.0510001
-0.30667335 0.41801336 2.0510001
-0.29690668 0.41801336 2.0510001
-0.27476892 0.41671115 2.0510001
-0.26663002 0.41703668 2.0510001
-0.25393337 0.41801339 2.0510001
-0.24416669 0.41801336 2.0510001
-0.23440002 0.41606003 2.0510004
-0.22528446 0.41671115 2.0510001
-0.21877334 0.41801336 2.0510001
-0.17580001 0.41801339 2.0510001
0.093760006 0.41801336 2.0510001
0.12501335 0.4141067 2.0510001
0.13478 0.41020003 2.0510001
0.14454667 0.41020006 2.0510001
0.15496445 0.41150224 2.0510001
0.16212668 0.41410667 2.0510001
-0.33467114 0.42582667 2.0510001
-0.32425335 0.42387336 2.0510001
-0.31253335 0.42192 2.0510001
-0.30472001 0.42192 2.0510001
-0.29495335 0.42192 2.0510001
-0.28518671 0.42192 2.0510001
-0.27737334 0.42192 2.0510001
-0.23440002 0.42192 2.0510001
-0.22463334 0.42192 2.0510001
-0.21486668 0.42192 2.0510001
-0.2051 0.42192 2.0510001
-0.19631001 0.42289668 2.0510001
-0.18556666 0.42192 2.0510001
-0.16408001 0.42192 2.0510001
-0.14454667 0.42843112 2.0510001
-0.13478 0.42778003 2.0510001
-0.1172 0.42582667 2.0510001
-0.10645667 0.42875668 2.0510001
0.015626667 0.42973337 2.0510001
0.025393333 0.42973337 2.0510001
0.064460002 0.42973337 2.0510001
0.07422667 0.42778003 2.0510001
0.083993338 0.42192 2.0510001
-0.095713332 0.43364 2.0510001
-0.07422667 0.43559334 2.0510001
-0.062506668 0.43364 2.0510001
-0.054693334 0.43364 2.0510001
-0.044926669 0.43364 2.0510001
-0.034183335 0.43461668 2.0510001
-0.025393333 0.43559334 2.0510001
-0.015626667 0.43754667 2.0510001
-0.0058599999 0.43559337 2.0510001
0.0039066668 0.43364 2.0510001
0.039066669 0.43364 2.0510001
0.044926669 0.43364 2.0510001
0.054693334 0.43364 2.0510001
-0.054693334 0.57818669 2.0510001
-0.042973336 0.57818669 2.0510001
-0.03437867 0.5766241 2.0510004
-0.027346667 0.57623339 2.0510001
-0.066413336 0.58990669 2.0510001
-0.054205004 0.58648837 2.0510004
-0.045577779 0.5833956 2.0510001
-0.034671668 0.58551168 2.0510004
-0.025784001 0.58678138 2.0510004
-0.064460002 0.59576666 2.0510001
-0.057297777 0.5951156 2.0510001
-0.042973336 0.59576666 2.0510001
-0.035160005 0.59576672 2.0510004
-0.025393333 0.59576672 2.0510001
-0.063483335 0.60455668 2.0510001
-0.055181671 0.6060217 2.0510004
-0.045317337 0.60553336 2.0510004
-0.034601908 0.60553342 2.0510004
-0.025393335 0.60553336 2.0510004
-0.062506668 0.61530006 2.0510001
-0.054693338 0.61530006 2.0510004
-0.044926669 0.61530006 2.0510001
-0.035160005 0.61530006 2.0510004
-0.025393333 0.6153 2.0510001
-0.044926669 0.62311339 2.0510001
-0.035718098 0.6239506 2.0510004
-0.025393335 0.6250667 2.0510004
-0.039066669 0.63288003 2.0510001
-0.05078667 0.6485067 2.0510001
-0.044275559 0.64720452 2.0510001
-0.035811115 0.64590228 2.0510004
-0.025393335 0.64460009 2.0510004
-0.019533334 0.6485067 2.0510001
-0.062506668 0.65632004 2.0510001
-0.054693338 0.65475744 2.0510004
-0.044926669 0.65436673 2.0510001
-0.034183335 0.65339005 2.0510001
-0.025393333 0.65241337 2.0510001
-0.019533334 0.65241337 2.0510001
-0.070320003 0.66804004 2.0510001
-0.064460002 0.66608667 2.0510001
-0.055181671 0.66413343 2.0510004
-0.044926669 0.66413337 2.0510001
-0.035160001 0.66569602 2.0510004
-0.07292445 0.67715567 2.0510001
-0.064460002 0.6719467 2.0510001
-0.054693338 0.67585331 2.0510004
-0.044926669 0.67585337 2.0510004
-0.035160001 0.67585331 2.0510004
-0.025393333 0.67390007 2.0510001
-0.019533334 0.67390001 2.0510001
-0.062506668 0.68757337 2.0510001
-0.054693338 0.68562001 2.0510004
-0.044926669 0.68562007 2.0510001
-0.039066669 0.68562007 2.0510001
-0.070320003 0.69929338 2.0510001
-0.064069338 0.69538671 2.0510004
-0.054693338 0.69538671 2.0510004
-0.044926669 0.69538665 2.0510004
-0.038090002 0.69636339 2.0510001
-0.070320003 0.70320004 2.0510001
-0.064460002 0.70515341 2.0510001
-0.054693338 0.70515341 2.0510004
-0.044926669 0.70515341 2.0510001
-0.037113335 0.70515341 2.0510001
-0.07552889 0.7136178 2.0510001
-0.064460002 0.71296668 2.0510001
-0.054693338 0.71491998 2.0510004
-0.044926669 0.71492004 2.0510004
-0.035160001 0.71492004 2.0510004
-0.025393333 0.71296668 2.0510001
-0.019533334 0.71296668 2.0510001
-0.056646667 0.72273338 2.0510001
-0.045577779 0.72403562 2.0510001
-0.05274 0.73640668 2.0510001
-0.046880003 0.73445338 2.0510001
-0.21096 0.77742672 2.0510001
-0.2051 0.77742672 2.0510001
-0.19533335 0.77482224 2.0510001
-0.11329334 0.77742672 2.0510001
-0.10469867 0.77586406 2.0510004
-0.070320003 0.77742672 2.0510001
-0.064460002 0.77547336 2.0510001
-0.058600001 0.77742672 2.0510001
-0.21193668 0.78621668 2.0510001
-0.2051 0.78328669 2.0510001
-0.19728667 0.78133333 2.0510001
-0.15366223 0.7865423 2.0510001
-0.14454667 0.78914678 2.0510001
-0.13478 0.78914672 2.0510001
-0.12501335 0.78914678 2.0510001
-0.11524667 0.78914672 2.0510001
-0.10743333 0.78914672 2.0510001
-0.073250003 0.78719342 2.0510001
-0.064460002 0.78426331 2.0510001
-0.055251434 0.78635627 2.0510004
-0.22268 0.79305339 2.0510001
-0.21486667 0.79305339 2.0510001
-0.2051 0.79500675 2.0510001
-0.19533335 0.79500675 2.0510004
-0.18752001 0.79500675 2.0510001
-0.15431334 0.79305339 2.0510001
-0.14357001 0.79403007 2.0510001
-0.13478 0.79500675 2.0510001
-0.085946672 0.79500675 2.0510004
-0.07552889 0.79565781 2.0510001
-0.066413336 0.79696006 2.0510001
-0.05078667 0.79305339 2.0510001
0.057297777 0.79565781 2.0510001
0.062506668 0.79500675 2.0510001
0.070320003 0.79696006 2.0510001
-0.28388447 0.80737782 2.0510001
-0.27476892 0.80737782 2.0510001
-0.26500225 0.80607557 2.0510004
-0.25784001 0.80477333 2.0510001
-0.23635334 0.80086666 2.0510001
-0.21877334 0.80672669 2.0510001
-0.2051 0.80868006 2.0510001
-0.19533333 0.80477333 2.0510004
-0.14064001 0.80477333 2.0510001
-0.13478 0.80868006 2.0510001
-0.093760006 0.80477333 2.0510001
-0.086504772 0.80421525 2.0510004
-0.078133337 0.80086666 2.0510001
-0.066413336 0.80086666 2.0510001
0.039066669 0.80868006 2.0510001
0.044926669 0.80868006 2.0510001
0.054693338 0.80477333 2.0510004
0.062506668 0.80477333 2.0510001
0.10938667 0.80868006 2.0510001
0.11589777 0.80737782 2.0510001
0.1224089 0.80737782 2.0510001
-0.28323334 0.81454003 2.0510001
-0.27542001 0.81454003 2.0510001
-0.26565334 0.81454009 2.0510004
-0.25784001 0.81454003 2.0510001
-0.2344 0.81454009 2.0510004
-0.22658668 0.81649339 2.0510001
-0.21747112 0.81519121 2.0510001
-0.19533335 0.81454009 2.0510004
-0.18752001 0.81649339 2.0510001
-0.15236001 0.81454003 2.0510001
-0.14376535 0.81493074 2.0510004
-0.13478 0.81454003 2.0510001
-0.093760006 0.81454003 2.0510001
-0.088551119 0.81519115 2.0510001
-0.013022223 0.81519115 2.0510001
-0.0058599999 0.81454003 2.0510001
0.0078133335 0.81649339 2.0510001
0.024742223 0.81519115 2.0510001
0.037113335 0.81454003 2.0510001
0.044926669 0.81454003 2.0510001
0.054693338 0.81454009 2.0510004
0.064460002 0.81454003 2.0510001
0.070320003 0.81454003 2.0510001
0.10938667 0.81454003 2.0510001
0.11524667 0.81258672 2.0510001
0.12306 0.81258672 2.0510001
-0.28128001 0.82430667 2.0510001
-0.27542001 0.82430673 2.0510004
-0.26630443 0.82560897 2.0510004
-0.25393337 0.82625997 2.0510004
-0.24416667 0.82430667 2.0510004
-0.23488833 0.82381833 2.0510004
-0.22424267 0.82352537 2.0510004
-0.21486668 0.82430673 2.0510004
-0.20510001 0.82625997 2.0510001
-0.19533333 0.82430673 2.0510004
-0.18595734 0.82508802 2.0510004
-0.17677668 0.82723665 2.0510001
-0.16798668 0.82821333 2.0510001
-0.15236001 0.82235336 2.0510001
-0.14454667 0.82381839 2.0510004
-0.13478002 0.82430673 2.0510004
-0.093760006 0.82040006 2.0510001
-0.087900005 0.82040006 2.0510001
-0.011720001 0.82430667 2.0510001
-0.0058600004 0.82430667 2.0510004
0.0078133335 0.82430673 2.0510001
0.017580003 0.82430667 2.0510004
0.025393335 0.82430673 2.0510004
0.034671668 0.82381839 2.0510004
0.045317337 0.82352537 2.0510004
0.054205004 0.82381833 2.0510004
0.062506668 0.82040006 2.0510001
-0.28128001 0.83212006 2.0510001
-0.27607113 0.8334223 2.0510001
-0.265165 0.83553839 2.0510004
-0.25442168 0.83553839 2.0510004
-0.24351558 0.83342236 2.0510001
-0.23049335 0.83602673 2.0510001
-0.2051 0.83407342 2.0510001
-0.19533335 0.83407342 2.0510004
-0.18752001 0.83212006 2.0510001
-0.17580001 0.83212012 2.0510001
-0.16798668 0.83212006 2.0510001
-0.011720001 0.83212006 2.0510001
-0.0058599999 0.83212006 2.0510001
0.0039066668 0.83212012 2.0510001
0.013673333 0.83212006 2.0510001
0.033206668 0.83212006 2.0510001
0.055995554 0.83342236 2.0510001
0.064460002 0.83407342 2.0510001
-0.32816002 0.84579337 2.0510001
-0.31644002 0.84774667 2.0510001
-0.30732447 0.84644449 2.0510001
-0.29430223 0.84644449 2.0510001
-0.28616336 0.84677005 2.0510001
-0.26370001 0.84384 2.0510001
-0.25588667 0.84384 2.0510001
-0.32425335 0.85751343 2.0510001
-0.31409603 0.85634136 2.0510004
-0.30527812 0.85444397 2.0510004
-0.29560447 0.85295558 2.0510001
-0.28518668 0.85165334 2.0510001
0.097666666 0.85556006 2.0510001
0.10645667 0.85751343 2.0510001
0.11329334 0.85946673 2.0510001
-0.32425338 0.86532676 2.0510004
-0.31644002 0.8633734 2.0510001
0.1172 0.8633734 2.0510001
0.12110668 0.8633734 2.0510001
-0.32425338 0.87118667 2.0510001
0.23380668 0.11788572 2.0630002
0.23380668 0.12181525 2.0630002
0.23970097 0.21415907 2.0630002
0.2436305 0.21415907 2.0630002
0.23577145 0.22791241 2.0630002
0.23655735 0.23655735 2.0630002
