# .PCD v0.7 - Point Cloud Data file format
VERSION 0.7
FIELDS x y z
SIZE 4 4 4
TYPE F F F
COUNT 1 1 1
WIDTH 1527
HEIGHT 1
VIEWPOINT 0 0 0 1 0 0 0
POINTS 1527
DATA ascii
-0.0052657146 0.47040382 1.8430001
0 0.47040382 1.8430001
-0.20360762 0.48093525 1.8430001
-0.015797144 0.48269051 1.8430001
0.028083811 0.48269051 1.8430001
0.031594284 0.48269051 1.8430001
-0.13412191 0.42707241 1.853
-0.10412095 0.42707241 1.853
-0.09529715 0.42707241 1.853
-0.084708571 0.4258959 1.853
-0.07412 0.42354286 1.853
-0.065296188 0.42001334 1.853
-0.042354286 0.42354286 1.853
-0.037648257 0.4258959 1.853
-0.010588571 0.42707241 1.853
-0.0052942857 0.42707241 1.853
0.001764762 0.42707241 1.853
-0.15353429 0.43589622 1.853
-0.14541639 0.43201375 1.853
-0.13765143 0.43060192 1.853
-0.12423924 0.43201375 1.853
-0.11470953 0.43060192 1.853
-0.10941524 0.43060192 1.853
-0.035295241 0.43060192 1.853
-0.024706667 0.43060192 1.853
-0.014118096 0.43060192 1.853
-0.0070590479 0.43060192 1.853
0.0058825403 0.43177843 1.853
0.013235714 0.4350138 1.853
-0.19341792 0.44683775 1.853
-0.18529999 0.44472003 1.853
-0.16588762 0.44119048 1.853
0.016235812 0.44401413 1.853
0.022353653 0.44707307 1.853
-0.20400648 0.45601445 1.853
-0.19647682 0.45295557 1.853
0.0070590479 0.45883808 1.853
0.014118096 0.4544262 1.853
0.021177143 0.45177907 1.853
-0.20735952 0.46501476 1.853
0.0042354288 0.46589714 1.853
0.010588571 0.46413237 1.853
-0.20824191 0.47472095 1.853
-0.012353334 0.4764857 1.853
-0.0070590479 0.4764857 1.853
-0.20824191 0.48354477 1.853
-0.010588571 0.48001525 1.853
-0.0070590479 0.48001525 1.853
0.037648257 0.48236823 1.853
0.044119045 0.48177999 1.853
-0.14371714 0.42937714 1.863
-0.1348457 0.42937714 1.863
-0.12420001 0.42937717 1.8630002
-0.11355428 0.42937717 1.8630002
-0.10290857 0.42582858 1.863
-0.095811427 0.42582858 1.8630002
-0.086940005 0.42582858 1.863
-0.076294288 0.42405429 1.863
-0.056777142 0.42228001 1.863
-0.021291429 0.42937714 1.863
-0.01596857 0.42937714 1.863
-0.0035485714 0.42582858 1.863
0.0035485714 0.42760286 1.863
0.010645715 0.42937714 1.863
-0.15613715 0.43529147 1.8630002
0.01596857 0.43470001 1.863
0.024840003 0.43647429 1.8630002
-0.20226857 0.44712001 1.863
-0.19517145 0.4453457 1.863
-0.18523543 0.44215199 1.8630002
-0.17388001 0.44238859 1.8630002
-0.16500857 0.44002286 1.863
-0.15968572 0.44002286 1.863
0.025283571 0.44312787 1.863
0.03447184 0.44407839 1.8630002
-0.21291429 0.45776573 1.863
-0.207 0.45303428 1.8630002
0.017742857 0.45776573 1.863
0.026022859 0.45540005 1.8630002
0.035485715 0.45421717 1.863
0.042582858 0.45066857 1.863
-0.22001143 0.46841142 1.863
-0.21468858 0.46486288 1.8630002
0.015968572 0.46486288 1.8630002
0.022178572 0.46397573 1.863
0.035485715 0.46486285 1.863
-0.22001143 0.47196001 1.863
-0.21380143 0.47462142 1.863
0.0070971427 0.47373429 1.863
0.013602858 0.47432575 1.8630002
0.021291429 0.47196001 1.863
0.036195427 0.47621828 1.8630002
0.045624498 0.47652248 1.8630002
-0.21291429 0.48615429 1.8630002
0.017742857 0.48792857 1.863
0.023826126 0.48564738 1.8630002
0.03371143 0.48260573 1.863
0.049680002 0.48260573 1.863
-0.13556953 0.4281143 1.8730001
-0.12486669 0.4281143 1.8730001
-0.11416382 0.4281143 1.8730001
-0.10702857 0.4281143 1.8730001
-0.099893339 0.42454672 1.8730001
-0.085622869 0.42454672 1.8730001
-0.07848762 0.42454672 1.8730001
-0.067784764 0.42097908 1.8730001
-0.021405715 0.4281143 1.8730001
-0.014270477 0.4281143 1.8730001
-0.0071352385 0.4281143 1.8730001
0.0053514289 0.4281143 1.8730001
0.012486667 0.4281143 1.8730001
-0.2033543 0.43881717 1.8730001
-0.19532715 0.43792525 1.8730001
-0.18551621 0.43703339 1.8730001
-0.17392144 0.43792528 1.8730001
-0.16500239 0.43703336 1.8730001
-0.15519144 0.43346572 1.8730001
-0.14984001 0.43168193 1.8730001
-0.032108575 0.43168193 1.8730001
-0.026757143 0.43168193 1.8730001
0.016054288 0.43168193 1.8730001
0.024973337 0.43346572 1.8730001
0.034656879 0.43575925 1.8730003
0.046379052 0.43703339 1.8730001
0.055892702 0.43762797 1.8730001
0.060649529 0.43881717 1.8730001
-0.21316525 0.4486281 1.8730001
-0.20549488 0.44523889 1.8730001
-0.19693258 0.4438118 1.8730001
-0.18194859 0.44238478 1.8730001
-0.17659715 0.44238478 1.8730001
0.03924381 0.4441686 1.8730001
0.046379048 0.44595242 1.8730003
0.054941334 0.44523889 1.8730001
0.0647268 0.44493309 1.8730003
-0.22297621 0.45665526 1.8730001
-0.21584095 0.45487148 1.8730001
0.047092576 0.45522824 1.8730001
0.054703496 0.45427689 1.8730001
0.065109052 0.45397955 1.8730001
0.074920014 0.45487148 1.8730001
0.082055241 0.45487148 1.8730001
-0.22261944 0.46450406 1.8730001
-0.21762477 0.4602229 1.8730001
0.027351748 0.46616894 1.8730001
0.036568098 0.46646622 1.8730001
0.046379048 0.46379048 1.8730003
0.055298101 0.46379054 1.8730001
0.064217143 0.46379054 1.8730003
0.072244294 0.46289861 1.8730001
-0.2238681 0.47538525 1.8730001
-0.21762477 0.47806099 1.8730001
0.017838096 0.47806099 1.8730001
0.025992654 0.47500306 1.8730003
0.033892386 0.47449338 1.8730001
0.047092576 0.4723528 1.8730001
0.054703496 0.47211498 1.8730001
0.063503623 0.4723528 1.8730001
-0.22297619 0.48519623 1.8730001
-0.21762477 0.48519623 1.8730001
0.017838096 0.48341244 1.8730001
0.024973337 0.48162863 1.8730001
0.035676192 0.48162863 1.8730001
-0.21762477 0.49233148 1.8730001
-0.13270667 0.42681336 1.8830001
-0.12553334 0.42681336 1.8830001
-0.11477335 0.42681336 1.8830001
-0.10401334 0.42681336 1.8830001
-0.096840009 0.42681336 1.8830001
-0.050213337 0.42681336 1.8830001
-0.046626668 0.42681336 1.8830001
-0.01076 0.42681336 1.8830001
-0.0053800005 0.42681336 1.8830001
0.0035866671 0.42681336 1.8830001
0.012553334 0.42681336 1.8830001
0.046626668 0.42681336 1.8830001
0.054696672 0.4259167 1.8830001
0.060973335 0.42681336 1.8830001
-0.20264667 0.43757334 1.8830001
-0.19296269 0.43326935 1.8830003
-0.18531112 0.43279117 1.8830001
-0.17574668 0.43578002 1.8830001
-0.16498667 0.43488336 1.8830001
-0.15422668 0.43219337 1.8830001
-0.14526001 0.43040004 1.8830001
-0.03586667 0.43040004 1.8830001
-0.026900001 0.43040004 1.8830001
0.017933335 0.43040004 1.8830001
0.025106668 0.43040007 1.8830001
0.037301335 0.43255207 1.8830003
0.044833336 0.43219337 1.8830001
0.053800009 0.43296197 1.8830004
0.064111665 0.43443504 1.8830003
0.072928898 0.43637782 1.8830001
-0.22416668 0.44833335 1.8830001
-0.21591735 0.44618136 1.8830003
-0.20802668 0.44116005 1.8830001
0.066353336 0.44116005 1.8830001
0.075320005 0.44474664 1.8830003
0.082493335 0.4447467 1.8830001
-0.22416668 0.45371336 1.8830001
0.05738667 0.45550668 1.8830001
0.062766671 0.45550668 1.8830001
0.075320005 0.45192 1.8830001
0.082493335 0.45192 1.8830001
-0.22835112 0.46626672 1.8830001
-0.22954668 0.47523335 1.8830001
-0.2295467 0.48420006 1.8830001
-0.1533238 0.42930666 1.8940001
-0.14430478 0.42930669 1.8940001
-0.13708952 0.42930666 1.8940001
-0.12626667 0.42930666 1.8940001
-0.11544381 0.42930666 1.8940001
-0.10822857 0.42930666 1.8940001
-0.021645715 0.42930666 1.8940001
-0.016234286 0.42930666 1.8940001
-0.0072152382 0.42569906 1.8940001
0.018038096 0.42930666 1.8940001
0.025253333 0.42930669 1.8940001
0.036076188 0.42930669 1.8940001
0.045095243 0.42750287 1.8940001
0.05411429 0.4244965 1.8940001
0.065658666 0.42714211 1.8940001
0.075759999 0.42930669 1.8940001
-0.20383048 0.4347181 1.8940001
-0.19841905 0.4347181 1.8940001
-0.18158349 0.43411684 1.8940001
-0.17496952 0.43291429 1.8940001
-0.16595048 0.43291432 1.8940001
-0.15693143 0.43291429 1.8940001
-0.032468572 0.43291429 1.8940001
0.06854476 0.43291429 1.8940001
0.076481521 0.43435737 1.8940001
0.084779054 0.43652192 1.8940001
-0.23088762 0.44734475 1.8940001
-0.22367239 0.44614226 1.8940001
-0.21405207 0.44253463 1.8940001
-0.20924191 0.44012955 1.8940001
0.079367615 0.44012955 1.8940001
0.085680954 0.44283524 1.8940001
0.090190478 0.44554096 1.8940001
-0.23269145 0.45456001 1.8940001
0.086582862 0.45456001 1.8940001
0.093798093 0.45636383 1.8940001
-0.23494621 0.46493194 1.8940001
0.086582862 0.46177524 1.8940001
0.090190478 0.46177524 1.8940001
-0.2359383 0.47548419 1.8940001
-0.23449524 0.48522478 1.8940001
-0.23449524 0.4906362 1.8940001
-0.13056 0.42794669 1.904
-0.11968 0.42794669 1.904
-0.014506668 0.42794669 1.904
-0.00544 0.42613333 1.904
0.0036266667 0.42704001 1.904
0.014506668 0.42794669 1.904
0.025386667 0.42794669 1.904
0.036266666 0.42794669 1.904
0.04472889 0.42552894 1.904
0.052586667 0.42432001 1.904
0.065280005 0.42432004 1.904
0.076160006 0.42794669 1.904
0.08522667 0.42794669 1.904
0.090666667 0.42794669 1.904
-0.22394668 0.43792 1.904
-0.21345524 0.43623623 1.9040003
-0.20490667 0.43157333 1.904
-0.19584 0.43157333 1.904
-0.18496001 0.43157333 1.904
-0.17226666 0.43157333 1.904
-0.16501334 0.43157333 1.904
-0.15957333 0.43157333 1.904
-0.036266666 0.43157333 1.904
-0.0272 0.43157333 1.904
0.08522667 0.43338668 1.904
0.093084447 0.43580446 1.9040002
-0.24298666 0.44970667 1.904
-0.235008 0.44680533 1.9040002
-0.22557867 0.44390401 1.9040002
-0.2176 0.44245335 1.904
0.095329531 0.44556192 1.9040003
-0.24419555 0.45575112 1.904
-0.23936 0.45514667 1.904
0.094293326 0.45424002 1.904
0.10275556 0.45575112 1.904
-0.28288001 0.46240002 1.904
-0.27562669 0.46421334 1.904
-0.25024 0.46421334 1.904
-0.24480002 0.46421334 1.9040002
-0.23936 0.46058667 1.904
0.094293334 0.46058667 1.904
0.10336 0.46058667 1.904
-0.25024 0.47328001 1.904
-0.24480002 0.47509336 1.9040002
-0.24298666 0.48234668 1.904
-0.23936 0.48416001 1.904
-0.014590478 0.42677146 1.9150002
-0.0036476192 0.42677143 1.9150001
0.0036476194 0.42555556 1.9150002
0.012766667 0.42677143 1.9150001
0.025533333 0.42677146 1.9150002
0.034652382 0.42677143 1.9150001
0.040123809 0.42677143 1.9150001
0.074776188 0.42677143 1.9150001
0.083895236 0.42677146 1.9150002
0.094838098 0.42677146 1.9150002
0.10395715 0.42677143 1.9150001
-0.22615239 0.4364984 1.9150002
-0.21703334 0.43406668 1.9150001
-0.17873335 0.43406668 1.9150001
-0.16414288 0.43041909 1.9150002
-0.15684763 0.43041909 1.9150001
-0.12584285 0.43041909 1.9150001
-0.11672381 0.43041909 1.9150001
-0.10942857 0.43041909 1.9150001
-0.051066671 0.43041909 1.9150001
-0.04559524 0.43224287 1.9150001
-0.025533333 0.43041909 1.9150002
0.097026668 0.43406668 1.9150002
0.10304524 0.43315479 1.9150001
-0.24256667 0.44683334 1.9150001
-0.23587939 0.44257781 1.9150002
0.10395715 0.44500956 1.9150002
-0.25259763 0.4568643 1.9150001
-0.2480381 0.45412859 1.9150001
0.10651048 0.4552229 1.9150002
0.11490001 0.4596 1.9150001
-0.25606287 0.46470672 1.9150002
0.10942857 0.46324766 1.9150001
0.11490001 0.46324766 1.9150001
-0.27539524 0.47054285 1.9150001
-0.26554668 0.47273144 1.9150002
-0.25594127 0.47297463 1.9150002
-0.25168574 0.48330954 1.9150001
-0.24682224 0.48756513 1.9150002
-0.24256667 0.4924286 1.9150001
-0.15766667 0.42900002 1.9250001
-0.012833334 0.42533332 1.9250001
-0.0055 0.42533332 1.9250001
0.018333333 0.42900002 1.9250001
0.045833334 0.42533332 1.9250001
0.055000003 0.42533335 1.9250001
0.066916667 0.42441666 1.9250001
0.074555561 0.42411113 1.9250001
0.084333345 0.4235 1.9250001
0.095333338 0.4235 1.9250001
0.10388889 0.42411113 1.9250001
0.11366668 0.42900002 1.9250001
-0.2035 0.43266669 1.9250001
-0.19433334 0.43266669 1.9250001
-0.176 0.43266672 1.9250001
-0.15400001 0.43266669 1.9250001
-0.14666666 0.43266669 1.9250001
-0.11366667 0.43266669 1.9250001
-0.10633333 0.43266669 1.9250001
-0.095333338 0.43633336 1.9250001
-0.042166665 0.43266669 1.9250001
-0.034833334 0.43266669 1.9250001
0.10633333 0.43633336 1.9250001
0.11366668 0.43450007 1.9250001
0.121 0.43633336 1.9250001
-0.26033333 0.44733334 1.9250001
-0.25422224 0.44611114 1.9250001
-0.24658334 0.44458333 1.9250001
-0.23650001 0.44000003 1.9250001
0.10633333 0.44000003 1.9250001
0.11366667 0.4436667 1.9250001
0.12100001 0.4436667 1.9250001
0.14300001 0.44733334 1.9250001
-0.26033333 0.45833334 1.9250001
-0.25575 0.45375001 1.9250001
-0.24933335 0.45100001 1.9250001
0.11412501 0.45420831 1.9250001
0.121 0.45466667 1.9250001
-0.264 0.46658334 1.9250001
0.121 0.46200001 1.9250001
-0.27133337 0.47300002 1.9250001
-0.15856762 0.42776385 1.9360001
0.03687619 0.42776385 1.9360001
0.040563811 0.42776385 1.9360001
0.055314288 0.4240762 1.9360001
0.064533338 0.4240762 1.9360001
0.077440001 0.4240762 1.9360001
0.084815249 0.42038858 1.9360002
0.095878109 0.42038858 1.9360002
0.10694096 0.4240762 1.9360001
0.11247239 0.42776385 1.9360001
-0.25444576 0.43735161 1.9360001
-0.24584129 0.43759751 1.9360002
-0.23600762 0.43698293 1.9360001
-0.22586668 0.43606097 1.9360001
-0.21388191 0.43513906 1.9360002
-0.19544384 0.43268067 1.9360002
-0.18622477 0.43513906 1.9360001
-0.17516191 0.43145144 1.9360001
-0.16594288 0.43145144 1.9360002
-0.15242159 0.43268067 1.9360002
-0.14197335 0.43513906 1.9360001
-0.13644192 0.43513906 1.9360001
-0.10325334 0.43513906 1.9360001
-0.095878109 0.43513906 1.9360002
-0.084815249 0.43513906 1.9360002
-0.075596191 0.43513906 1.9360001
-0.066377148 0.43513906 1.9360001
0.12537907 0.43513906 1.9360001
-0.25536764 0.44343621 1.9360001
-0.24522668 0.4425143 1.9360001
0.12722288 0.44620189 1.9360001
0.13422935 0.44693947 1.9360001
0.14381716 0.44681653 1.9360001
0.15303621 0.44804573 1.9360001
-0.26182097 0.45542097 1.9360001
0.12611659 0.45578977 1.9360001
0.13459811 0.45542097 1.9360001
0.14381714 0.45542097 1.9360001
0.15242161 0.45480639 1.9360002
-0.28210285 0.46832764 1.9360001
-0.27472764 0.46832764 1.9360001
-0.26772115 0.46390247 1.9360001
0.12722287 0.46279621 1.9360001
0.13459811 0.4609524 1.9360001
0.14381716 0.4609524 1.9360002
-0.27288383 0.47201526 1.9360001
0.089005724 0.4190686 1.9470001
0.09456858 0.4190686 1.9470001
0.10198572 0.4190686 1.9470001
-0.17430288 0.42648575 1.9470001
-0.16688572 0.42648575 1.9470001
0.046357147 0.42648575 1.9470001
0.055628575 0.42648575 1.9470001
0.066754289 0.42277718 1.9470001
0.074171439 0.42277718 1.9470003
0.10569429 0.42277718 1.9470001
0.11311144 0.42463148 1.9470001
-0.26330858 0.43575716 1.9470001
-0.25589144 0.43483001 1.9470001
-0.24550746 0.43390283 1.9470001
-0.2354943 0.43390286 1.9470001
-0.22622287 0.43297574 1.9470001
-0.21509714 0.43241945 1.9470001
-0.20471315 0.43167773 1.9470001
-0.1953181 0.43143052 1.9470003
-0.18542859 0.43204862 1.9470003
-0.17430288 0.43019432 1.9470003
-0.16503143 0.43019432 1.9470001
-0.15390572 0.43019432 1.9470001
-0.14537601 0.43241945 1.9470001
-0.13721716 0.43390286 1.9470001
-0.12609145 0.43390286 1.9470003
-0.11496572 0.43390286 1.9470001
-0.10754858 0.43390286 1.9470001
-0.085297145 0.43390286 1.9470001
-0.048211433 0.43390286 1.9470001
0.033377144 0.43019432 1.9470001
0.11867429 0.43019432 1.9470001
0.12609145 0.43143052 1.9470003
0.13474476 0.43637526 1.9470003
-0.27258003 0.44873717 1.9470001
-0.26479203 0.44577032 1.9470001
0.13598096 0.44255623 1.9470003
0.14370714 0.4431743 1.9470001
-0.28185144 0.45986289 1.9470001
-0.27443433 0.45615435 1.9470003
-0.26701719 0.45615432 1.9470003
-0.28308761 0.46604383 1.9470003
-0.2762886 0.46542573 1.9470001
0.089508571 0.41770667 1.9580001
0.095102862 0.41770667 1.9580001
0.10535905 0.41677427 1.9580001
0.11188572 0.41584194 1.9580001
-0.24987811 0.42889526 1.9580001
-0.23123048 0.42889526 1.9580001
-0.22377144 0.42889529 1.9580001
-0.21444762 0.42889526 1.9580001
-0.20512383 0.42889529 1.9580001
-0.19393525 0.42889529 1.9580001
-0.18398985 0.42765209 1.9580001
-0.17528762 0.42609811 1.9580001
-0.16335313 0.42665753 1.9580001
-0.15477523 0.4270305 1.9580001
-0.14545143 0.42889529 1.9580001
-0.13799238 0.42889526 1.9580001
-0.0037295239 0.42889526 1.9580001
0 0.42889526 1.9580001
0.037295237 0.42889526 1.9580001
0.041024763 0.42889526 1.9580001
0.0634019 0.42516571 1.9580001
0.078319997 0.42143622 1.9580001
0.083914287 0.42143622 1.9580001
0.10815619 0.42143622 1.9580001
0.11654762 0.42423335 1.9580001
0.12431745 0.42765209 1.9580001
0.13053332 0.42889526 1.9580001
-0.2647962 0.43448955 1.9580001
-0.25547236 0.43262476 1.9580001
-0.2442838 0.43262476 1.9580001
-0.23496 0.43262476 1.9580001
-0.22377144 0.43262476 1.9580001
-0.21631238 0.43262476 1.9580001
-0.1417219 0.43262476 1.9580001
-0.13426286 0.43355712 1.9580001
-0.12307428 0.43262476 1.9580001
-0.11561524 0.43355712 1.9580001
-0.10368075 0.43411657 1.9580001
-0.095102854 0.43448955 1.9580001
-0.086711429 0.43448955 1.9580001
-0.074590474 0.43635434 1.9580001
-0.064645082 0.43511114 1.9580001
-0.054699682 0.43511114 1.9580001
-0.044754289 0.43386793 1.9580001
-0.035430476 0.43635431 1.9580001
-0.029836191 0.43635431 1.9580001
0.0037295239 0.43262476 1.9580001
0.011188571 0.43262476 1.9580001
0.027971428 0.43262476 1.9580001
0.13426286 0.43386793 1.9580001
0.14545143 0.43635434 1.9580001
0.15291047 0.43635431 1.9580001
-0.27449295 0.44530517 1.9580001
-0.26852572 0.44194859 1.9580001
0.14638381 0.44101623 1.9580001
0.15384285 0.44474575 1.9580001
-0.2843762 0.45593432 1.9580001
-0.27971429 0.4512724 1.9580001
-0.29090285 0.46805525 1.9580001
-0.28717333 0.46432573 1.9580001
-0.31327999 0.78320003 1.9580001
-0.30768573 0.78320003 1.9580001
0.21127686 0.22752891 1.9690002
0.19877525 0.23440477 1.9690001
0.20440096 0.23440477 1.9690001
0.21190192 0.23440477 1.9690001
0.19877526 0.24378097 1.9690002
0.20440096 0.24378097 1.9690001
0.21270558 0.24431677 1.9690001
0.19877526 0.25503242 1.9690002
0.20440096 0.25503239 1.9690001
0.2131521 0.25503242 1.9690001
0.19752508 0.26503369 1.9690002
0.20440096 0.26440859 1.9690001
0.21002668 0.26440859 1.9690001
0.19783762 0.2747224 1.9690001
0.20440096 0.27378476 1.9690001
0.21377715 0.27378479 1.9690001
0.19877525 0.28316095 1.9690001
0.20440096 0.2812857 1.9690001
0.21002668 0.2812857 1.9690001
0.093761906 0.41630286 1.9690002
0.1031381 0.41630286 1.9690001
0.11626476 0.41442764 1.9690001
0.12001524 0.41630286 1.9690001
-0.25128192 0.42755431 1.9690001
-0.24003048 0.42755431 1.9690001
-0.23440477 0.42755431 1.9690001
-0.2250286 0.42567909 1.9690001
-0.21377717 0.42567906 1.9690001
-0.20502603 0.42630419 1.9690002
-0.19408716 0.42661667 1.9690001
-0.18377334 0.42505401 1.9690002
-0.17627239 0.42380384 1.9690001
-0.16877143 0.42380384 1.9690001
-0.15189429 0.42567909 1.9690001
-0.14626858 0.42755431 1.9690001
-0.10876381 0.42755431 1.9690001
0.048756193 0.42755431 1.9690001
0.054381907 0.42755431 1.9690001
0.063758098 0.42567909 1.9690001
0.075009525 0.42255372 1.9690002
0.084385723 0.42005336 1.9690001
0.11626476 0.42005336 1.9690001
0.12376572 0.42317876 1.9690001
0.13426706 0.42605415 1.9690001
0.14626858 0.42755431 1.9690001
-0.27190953 0.43693048 1.9690001
-0.26440859 0.43318003 1.9690001
-0.25503239 0.43130478 1.9690001
-0.24378097 0.43130478 1.9690002
-0.23628001 0.43130478 1.9690001
-0.13314191 0.43130478 1.9690001
-0.12376572 0.43255496 1.9690002
-0.11438952 0.43130478 1.9690001
-0.10501334 0.43130478 1.9690002
-0.093761913 0.43130478 1.9690002
-0.083760642 0.43255496 1.9690002
-0.075009525 0.43318003 1.9690001
-0.063758098 0.43380511 1.9690002
-0.056257147 0.43693048 1.9690001
-0.043755561 0.43505526 1.9690002
-0.035629526 0.43505526 1.9690001
-0.024378097 0.43880573 1.9690001
0.0056257145 0.43130478 1.9690001
0.015001906 0.43380511 1.9690002
0.022502858 0.43505526 1.9690001
0.031879049 0.43130478 1.9690001
0.13751748 0.43255496 1.9690002
0.14439334 0.43318003 1.9690001
0.15752001 0.43880573 1.9690001
-0.2812857 0.44443142 1.9690001
-0.27753526 0.44443142 1.9690001
0.15752001 0.4425562 1.9690001
-0.2875365 0.45380765 1.9690002
-0.29253715 0.46318382 1.9690001
-0.31316477 0.79135048 1.9690001
0.23760001 0.15462859 1.9800001
0.24137144 0.15462859 1.9800001
0.21874288 0.16217144 1.9800001
0.22440001 0.16217144 1.9800001
0.23382859 0.16217145 1.9800003
0.19988573 0.17725715 1.9800001
0.19988573 0.18480001 1.9800003
0.20554286 0.18102859 1.9800001
0.19837716 0.19536002 1.9800001
0.2049143 0.19360003 1.9800003
0.21497144 0.19800001 1.9800001
0.19988573 0.20365715 1.9800001
0.21497144 0.20742859 1.9800001
0.19800001 0.21591431 1.9800001
0.21308573 0.21685717 1.9800001
0.23382859 0.21874288 1.9800001
0.19988573 0.22440001 1.9800001
0.20554286 0.22628573 1.9800001
0.21497144 0.22440001 1.9800001
0.22440001 0.22628573 1.9800001
0.18857144 0.23760001 1.9800001
0.19536002 0.23458289 1.9800001
0.20554286 0.23005715 1.9800001
0.21874289 0.23382859 1.9800003
0.22251432 0.23382859 1.9800003
0.19517145 0.24608573 1.9800001
0.21874288 0.24325716 1.9800001
0.22402287 0.24514289 1.9800001
0.18857144 0.25457144 1.9800001
0.19422859 0.25457147 1.9800001
0.21497144 0.25457144 1.9800001
0.22440001 0.25457147 1.9800001
0.1873143 0.26274288 1.9800003
0.19385146 0.26324573 1.9800001
0.2172343 0.2647543 1.9800001
0.22440001 0.264 1.9800003
0.23005715 0.26022857 1.9800001
0.18857144 0.2753143 1.9800001
0.19385146 0.27456003 1.9800001
0.22402287 0.2753143 1.9800001
0.19422859 0.28474289 1.9800001
0.20554286 0.2866286 1.9800001
0.21572573 0.28512004 1.9800001
0.2225143 0.28474289 1.9800001
0.19686858 0.29266289 1.9800001
0.20554286 0.29417145 1.9800003
0.21450001 0.29370004 1.9800003
0.22377145 0.29417145 1.9800003
0.21497144 0.3017143 1.9800001
0.2250286 0.3042286 1.9800003
0.077314287 0.4186286 1.9800001
0.084857151 0.4186286 1.9800001
0.098057151 0.41485718 1.9800001
0.10654286 0.41391432 1.9800001
0.11691429 0.41108575 1.9800001
0.12445715 0.4186286 1.9800001
0.13954286 0.4186286 1.9800001
0.14708573 0.41674289 1.9800001
0.15415715 0.41532862 1.9800003
-0.26022857 0.42994288 1.9800001
-0.25457144 0.42805716 1.9800001
-0.24589716 0.42768002 1.9800001
-0.23382859 0.42491433 1.9800003
-0.22440001 0.42240003 1.9800001
-0.21685717 0.42240003 1.9800001
-0.20554286 0.42428574 1.9800001
-0.19800001 0.42617145 1.9800001
-0.18857144 0.42617145 1.9800001
-0.17348573 0.42617145 1.9800001
-0.16405715 0.42617145 1.9800001
-0.15462857 0.42617145 1.9800001
-0.14520001 0.42805716 1.9800001
-0.13577144 0.42994291 1.9800003
-0.12068572 0.42994288 1.9800001
-0.11502858 0.42994288 1.9800001
-0.10371429 0.42994288 1.9800001
-0.094285727 0.42994291 1.9800003
-0.086742863 0.42994288 1.9800001
-0.075428575 0.42994288 1.9800001
0.043371432 0.42994288 1.9800001
0.064114295 0.42617145 1.9800001
0.075428575 0.42240003 1.9800001
0.12822859 0.42240003 1.9800001
0.13671429 0.42334288 1.9800001
0.14520001 0.42617145 1.9800001
0.15462857 0.42617148 1.9800001
-0.2753143 0.43748575 1.9800001
-0.264 0.4337143 1.9800001
-0.12822859 0.4337143 1.9800001
-0.064114287 0.4337143 1.9800001
-0.054685719 0.4337143 1.9800001
-0.049028575 0.4337143 1.9800001
-0.03017143 0.43748575 1.9800001
-0.022628574 0.43748575 1.9800001
-0.018857144 0.43748575 1.9800001
-0.0075428574 0.4337143 1.9800001
0.024514288 0.4337143 1.9800001
0.15387429 0.43522286 1.9800001
-0.28537148 0.44502863 1.9800003
-0.27908573 0.44125718 1.9800001
-0.29291433 0.45382857 1.9800003
-0.29668576 0.46388575 1.9800003
0.22386287 0.14671239 1.9920001
0.23524573 0.14797714 1.9920001
0.2428343 0.14797714 1.9920001
0.20742097 0.15809524 1.9920001
0.21437715 0.15746287 1.9920001
0.22386286 0.15556574 1.9920003
0.23477143 0.15556574 1.9920003
0.24409907 0.15683049 1.9920001
0.19730286 0.16694857 1.9920001
0.20565031 0.16543086 1.9920002
0.21437714 0.16505143 1.9920001
0.22386287 0.16694859 1.9920001
0.23524573 0.16694859 1.9920001
0.24473146 0.16505143 1.9920001
0.19578515 0.17529602 1.9920002
0.20536573 0.17406288 1.9920003
0.21437714 0.17453717 1.9920003
0.22386289 0.17453717 1.9920003
0.23477143 0.17406286 1.9920003
0.24473147 0.17453717 1.9920003
0.25042287 0.17264001 1.9920001
0.18781716 0.18781716 1.9920001
0.19540572 0.18592 1.9920003
0.20678858 0.18781716 1.9920001
0.21437716 0.18592 1.9920003
0.22332084 0.18483593 1.9920003
0.2327162 0.18339048 1.9920001
0.24473146 0.18402286 1.9920001
0.18667887 0.19578515 1.9920002
0.19350858 0.19540572 1.9920001
0.20868573 0.19730286 1.9920001
0.21374476 0.19477335 1.9920001
0.22196573 0.19540572 1.9920001
0.23904002 0.19730286 1.9920001
0.24473144 0.19730286 1.9920001
0.17833145 0.20868573 1.9920001
0.18592001 0.20489144 1.9920003
0.19540572 0.20489144 1.9920003
0.20597555 0.20543347 1.9920003
0.21342857 0.20489144 1.9920001
0.2233886 0.20536572 1.9920003
0.23524573 0.20678858 1.9920001
0.2428343 0.20489144 1.9920001
0.17706668 0.21500954 1.9920001
0.18592 0.21437715 1.9920003
0.19540572 0.21437714 1.9920001
0.2067886 0.21437715 1.9920001
0.21437715 0.21248001 1.9920001
0.223104 0.21475659 1.9920002
0.23524573 0.21437716 1.9920003
0.2428343 0.21437715 1.9920001
0.17643431 0.22006857 1.9920001
0.18646206 0.22277881 1.9920003
0.19578515 0.22462173 1.9920002
0.2067886 0.22196573 1.9920001
0.22386287 0.22196573 1.9920003
0.23524572 0.22433716 1.9920003
0.18544571 0.23477143 1.9920003
0.19540572 0.23145144 1.9920001
0.22765717 0.23524573 1.9920001
0.23296916 0.23448686 1.9920002
0.17833145 0.2428343 1.9920001
0.18592 0.24473147 1.9920003
0.19350858 0.24473144 1.9920001
0.22765715 0.24662858 1.9920001
0.23145144 0.24473144 1.9920001
0.24662858 0.2428343 1.9920001
0.25042287 0.2428343 1.9920001
0.17833145 0.25801143 1.9920001
0.18483593 0.25367513 1.9920003
0.23240001 0.25516573 1.9920001
0.2428343 0.25801143 1.9920001
0.17833146 0.26560003 1.9920001
0.18465523 0.26623237 1.9920003
0.23524573 0.26623243 1.9920003
0.2428343 0.26939431 1.9920001
0.17833145 0.27508572 1.9920001
0.18516116 0.27546516 1.9920002
0.22765715 0.27698284 1.9920001
0.23429716 0.27413714 1.9920001
0.2428343 0.27318859 1.9920001
0.17833145 0.28267431 1.9920001
0.18544571 0.28504571 1.9920003
0.22765715 0.2864686 1.9920001
0.23334858 0.28457147 1.9920003
0.18639429 0.29548001 1.9920003
0.19477335 0.2972191 1.9920001
0.20109715 0.2997486 1.9920001
0.22481143 0.29690289 1.9920001
0.23416165 0.29595429 1.9920003
0.18781716 0.30544001 1.9920001
0.19477335 0.30480763 1.9920001
0.20489144 0.30544001 1.9920003
0.21374476 0.30607241 1.9920001
0.22291429 0.30638856 1.9920001
0.2327162 0.30480763 1.9920001
0.19540572 0.31113145 1.9920001
0.20615622 0.31366098 1.9920003
0.21437714 0.31492573 1.9920003
0.22338858 0.31540003 1.9920003
0.23145144 0.31302857 1.9920001
0.10624 0.40978289 1.9920001
0.11382857 0.40978289 1.9920001
0.12141715 0.40978289 1.9920001
0.079680003 0.41737145 1.9920001
0.085371435 0.41737145 1.9920001
0.094857141 0.4154743 1.9920001
0.10434286 0.41357714 1.9920001
0.11382858 0.4154743 1.9920001
0.12521143 0.4154743 1.9920001
0.13406476 0.4161067 1.9920001
0.14228573 0.41737145 1.9920001
-0.26370287 0.4287543 1.9920001
-0.25421715 0.4262248 1.9920001
-0.24473144 0.42496002 1.9920001
-0.23714286 0.42496002 1.9920001
-0.22576001 0.42116573 1.9920001
-0.21248001 0.42496002 1.9920001
-0.20299429 0.42496002 1.9920001
-0.19540572 0.42496002 1.9920001
-0.18592 0.42496002 1.9920001
-0.17377831 0.42344233 1.9920002
-0.16505143 0.42496002 1.9920001
-0.15556572 0.42496002 1.9920001
-0.14418286 0.42748958 1.9920001
-0.1365943 0.4287543 1.9920001
-0.11382858 0.4287543 1.9920001
-0.073988579 0.4287543 1.9920001
0.064502865 0.42685717 1.9920001
0.072091438 0.42306286 1.9920001
0.12900572 0.42116573 1.9920001
0.13469714 0.42116573 1.9920001
0.14418288 0.42306286 1.9920001
-0.28077716 0.4363429 1.9920001
-0.27508572 0.4363429 1.9920001
-0.26749715 0.43254858 1.9920001
-0.12710857 0.43254858 1.9920001
-0.083474286 0.43254858 1.9920001
-0.075885721 0.43254858 1.9920001
-0.064502865 0.43254861 1.9920001
-0.041737143 0.4363429 1.9920001
-0.034148574 0.4363429 1.9920001
-0.015177144 0.4363429 1.9920001
0.017074287 0.4363429 1.9920001
0.026560001 0.43254858 1.9920001
0.034148574 0.43254861 1.9920001
-0.29405713 0.44582859 1.9920001
-0.28552002 0.44108573 1.9920001
-0.026560001 0.44013715 1.9920001
-0.29405713 0.45152003 1.9920001
-0.2997486 0.46290287 1.9920001
-0.3225143 0.80438858 1.9920001
-0.31682289 0.80438858 1.9920001
0.25371334 0.057228573 2.003
0.24608287 0.066766672 2.003
0.25371334 0.064859048 2.0030003
0.24671875 0.075033024 2.003
0.25307748 0.073761269 2.003
0.21746856 0.087750472 2.003
0.22509906 0.08775048 2.003
0.24570136 0.084698282 2.003
0.25371334 0.080119997 2.003
0.21556096 0.095380954 2.0030003
0.22509904 0.095380954 2.003
0.25371334 0.09347333 2.003
0.20983809 0.10682666 2.003
0.21556094 0.10491905 2.003
0.22319143 0.10491905 2.003
0.25638399 0.10530057 2.003
0.20729463 0.1131854 2.0030003
0.21556096 0.11445715 2.0030003
0.22462215 0.11493404 2.003
0.23463714 0.11827239 2.003
0.25562096 0.1106419 2.003
0.20831199 0.12590286 2.003
0.21556096 0.12590286 2.0030003
0.22509906 0.12590286 2.003
0.23463714 0.12590286 2.0030003
0.24188609 0.12666591 2.003
0.20602286 0.13544098 2.0030003
0.21556094 0.13544096 2.003
0.22509906 0.13544098 2.0030003
0.23463716 0.13544096 2.003
0.24417524 0.13544098 2.0030003
0.19686629 0.1457421 2.003
0.20602286 0.14497904 2.003
0.21556096 0.14497906 2.0030003
0.22509906 0.14370731 2.0030003
0.23463716 0.14307143 2.003
0.24341221 0.14268991 2.003
0.18694668 0.15451714 2.003
0.19457714 0.15451714 2.0030003
0.2052598 0.15413563 2.003
0.21556094 0.15260953 2.003
0.18542057 0.16481827 2.003
0.19410025 0.16357833 2.003
0.20220762 0.16214761 2.003
0.18503907 0.17550096 2.0030003
0.19171572 0.17454714 2.003
0.24036001 0.17931619 2.003
0.17931619 0.18694668 2.003
0.18440318 0.18440318 2.003
0.19076191 0.18313143 2.003
0.23654477 0.18694668 2.003
0.24036001 0.18503904 2.003
0.1767727 0.19584888 2.0030003
0.18313143 0.19266953 2.003
0.22796048 0.19362333 2.003
0.23463714 0.19457714 2.0030003
0.24417526 0.19266954 2.0030003
0.16787049 0.20602286 2.003
0.17502405 0.20554595 2.003
0.22891429 0.20220762 2.003
0.23527303 0.20602286 2.003
0.24608287 0.20506905 2.003
0.25180572 0.20602286 2.003
0.16787048 0.21556094 2.003
0.17295747 0.21492508 2.003
0.22891429 0.21365333 2.003
0.24799049 0.21746856 2.003
0.25180572 0.21746856 2.003
0.16691667 0.22414523 2.003
0.17495592 0.22618911 2.0030003
0.18503904 0.22891429 2.003
0.24570134 0.2258621 2.003
0.16787048 0.23654477 2.003
0.17550096 0.23463717 2.0030003
0.24417524 0.23463714 2.0030003
0.17502405 0.24417526 2.003
0.23654477 0.24417526 2.003
0.24369833 0.24417526 2.003
0.25180572 0.24799049 2.003
0.16787048 0.25562096 2.003
0.17502403 0.25514406 2.003
0.23654477 0.25371334 2.003
0.24417524 0.25514406 2.003
0.25371334 0.25562096 2.0030003
0.16787048 0.26515907 2.003
0.17359333 0.26515907 2.003
0.23654477 0.26706669 2.003
0.24417524 0.26515907 2.003
0.25562096 0.26325142 2.003
0.16787048 0.27088189 2.003
0.17359333 0.27469715 2.0030003
0.23654477 0.27851236 2.003
0.24226762 0.27851236 2.003
0.17441088 0.28668791 2.0030003
0.24417526 0.28614286 2.003
0.25371334 0.28995809 2.003
0.17550096 0.29568094 2.0030003
0.2449383 0.29529944 2.003
0.25180572 0.29758859 2.003
0.176264 0.30292991 2.003
0.18313143 0.30521905 2.003
0.19839238 0.30903429 2.003
0.23654477 0.30903429 2.003
0.24369833 0.30474213 2.003
0.25371334 0.30331141 2.003
0.17931619 0.31666479 2.003
0.18503904 0.31475717 2.003
0.19362333 0.31571096 2.003
0.20220762 0.31666479 2.003
0.23654477 0.31475717 2.003
0.24163175 0.31412131 2.003
0.18567494 0.32175177 2.003
0.19505404 0.32381833 2.003
0.20554596 0.32477215 2.003
0.21556094 0.32620287 2.003
0.22509906 0.32620287 2.0030003
0.23400128 0.32175177 2.003
0.24417526 0.32047999 2.003
0.21556094 0.33383334 2.003
0.22319143 0.33192572 2.003
0.10682666 0.40823048 2.003
0.11445715 0.40823048 2.003
0.12399524 0.40823048 2.003
0.13544096 0.40823048 2.003
0.14307143 0.40823048 2.003
-0.17550094 0.41967618 2.003
0.074397147 0.41967618 2.003
0.083935246 0.41586098 2.003
0.095380947 0.41395333 2.003
0.10301143 0.41204572 2.003
0.11445715 0.41204572 2.003
0.12685667 0.41490716 2.003
0.13607684 0.41331744 2.003
0.144216 0.41433483 2.003
-0.26515907 0.42730665 2.003
-0.25657475 0.42444527 2.003
-0.24417526 0.42349145 2.003
-0.23463714 0.42349145 2.003
-0.22128381 0.42349145 2.003
-0.21556094 0.42349145 2.003
-0.20602286 0.42349145 2.003
-0.19457714 0.42349145 2.003
-0.18503904 0.42349145 2.003
-0.17931619 0.42349145 2.003
-0.16405523 0.42349145 2.003
-0.15642476 0.42349145 2.003
-0.14307143 0.42730665 2.003
-0.076304764 0.42730665 2.003
0.064859048 0.42539907 2.003
-0.29568094 0.43875238 2.003
-0.28690591 0.43646327 2.003
-0.27546021 0.432648 2.003
-0.13353334 0.43112192 2.003
-0.12590286 0.43112192 2.003
-0.11445715 0.43112192 2.003
-0.10491905 0.43112192 2.003
-0.095380954 0.43112192 2.003
-0.083935231 0.43112192 2.003
-0.064859048 0.43112192 2.003
-0.055956826 0.43366539 2.003
-0.047690473 0.43493712 2.003
-0.034337144 0.43875238 2.003
-0.024799047 0.43875238 2.003
-0.015260953 0.43875238 2.003
-0.0038152381 0.43493712 2.003
0.0038152381 0.43493712 2.003
0.015260953 0.43493712 2.003
0.024799047 0.43302953 2.003
0.032429524 0.43112192 2.003
0.04578286 0.43112192 2.003
0.055320952 0.43112192 2.003
-0.30140379 0.44447523 2.003
-0.29568094 0.44256762 2.003
-0.30140382 0.45401335 2.003
-0.31284952 0.46545905 2.003
-0.30585492 0.46545908 2.0030003
0.21877143 -0.015352381 2.0150001
0.22260952 -0.015352381 2.0150001
0.24371906 0.026866667 2.0150001
0.22644764 0.038380954 2.0150001
0.23412383 0.038380958 2.0150001
0.24454153 0.035091158 2.0150003
0.23412384 0.046057142 2.0150001
0.24563813 0.046057139 2.0150001
0.25331429 0.047976192 2.0150001
0.23489144 0.055268575 2.0150001
0.2456381 0.055652391 2.0150003
0.25331429 0.053733334 2.0150001
0.20725715 0.069085717 2.0150001
0.21493334 0.069085717 2.0150001
0.22452858 0.069085717 2.0150001
0.23522043 0.065795928 2.0150003
0.24410287 0.063712381 2.0150001
0.20725715 0.074842863 2.0150001
0.21493334 0.074842863 2.0150003
0.22452858 0.074842863 2.0150001
0.23412383 0.074842863 2.0150003
0.24307939 0.074203186 2.0150001
0.20629764 0.085397631 2.0150001
0.21445358 0.083958328 2.0150001
0.22452858 0.082519054 2.0150001
0.23460358 0.083958335 2.0150001
0.24371906 0.083478577 2.0150001
0.25523335 0.086357147 2.0150001
0.19804573 0.096720003 2.0150001
0.20533811 0.095952384 2.0150003
0.21109526 0.095952392 2.0150001
0.23604286 0.095952392 2.0150003
0.2456381 0.095952377 2.0150001
0.25523335 0.099790484 2.0150001
0.26099047 0.099790484 2.0150001
0.19574288 0.10554762 2.0150003
0.20533811 0.10554762 2.0150001
0.21109524 0.10362858 2.0150001
0.23412383 0.10554763 2.0150003
0.24563812 0.10554763 2.0150003
0.25331429 0.10362858 2.0150001
0.18806668 0.11706191 2.0150001
0.19574288 0.11514286 2.0150001
0.20469843 0.11770159 2.0150001
0.23489144 0.11284001 2.0150001
0.2456381 0.11514286 2.0150001
0.25331432 0.11514287 2.0150001
0.18806668 0.1247381 2.0150001
0.19574289 0.12473809 2.0150003
0.20469843 0.12537777 2.0150001
0.24819684 0.12409842 2.0150001
0.25331429 0.1247381 2.0150001
0.18653142 0.13510095 2.0150001
0.19574288 0.13433333 2.0150001
0.20341906 0.13049524 2.0150001
0.24947619 0.13049524 2.0150001
0.25331429 0.13241428 2.0150001
0.18470834 0.14632739 2.0150001
0.1928643 0.1448881 2.0150001
0.17655239 0.15544286 2.0150001
0.18230952 0.15544286 2.0150001
0.17655239 0.16503811 2.0150001
0.18134999 0.16407858 2.0150001
0.17655239 0.17463334 2.0150001
0.18039048 0.17463334 2.0150001
0.17501715 0.1849962 2.0150001
0.18039048 0.18230952 2.0150001
0.16695715 0.19958097 2.0150001
0.17399368 0.19318414 2.0150001
0.16503811 0.20533811 2.0150001
0.23796192 0.20341906 2.0150001
0.15736191 0.21877143 2.0150001
0.16311905 0.21493334 2.0150003
0.24947619 0.21493334 2.0150001
0.25331429 0.21493334 2.0150001
0.15736191 0.22452858 2.0150001
0.16247937 0.22516827 2.0150001
0.24947619 0.22260952 2.0150001
0.25331429 0.22452858 2.0150001
0.16439843 0.23348415 2.0150003
0.25331429 0.23220478 2.0150001
0.16695717 0.24563812 2.0150003
0.16503811 0.25523332 2.0150001
0.16407858 0.26386905 2.0150001
0.24947619 0.26866665 2.0150001
0.25523335 0.26866665 2.0150001
0.26099047 0.26866665 2.0150001
0.16631748 0.27506351 2.0150001
0.24947619 0.27442384 2.0150001
0.25523335 0.27442384 2.0150001
0.26099047 0.27250478 2.0150001
0.16695717 0.28401905 2.0150003
0.24947619 0.28018096 2.0150001
0.25523335 0.28401905 2.0150003
0.16695717 0.29553336 2.0150003
0.25587302 0.29681271 2.0150001
0.16759685 0.3044889 2.0150001
0.17271429 0.30704764 2.0150001
0.1688762 0.31088573 2.0150001
0.17501716 0.31472382 2.0150001
0.18039048 0.31280476 2.0150001
0.24851668 0.31568336 2.0150001
0.25523335 0.31472382 2.0150003
0.17655239 0.32431906 2.0150001
0.18166983 0.32495874 2.0150001
0.23796192 0.3262381 2.0150001
0.2456381 0.3262381 2.0150001
0.25331429 0.3224 2.0150001
0.18499619 0.33161145 2.0150001
0.19519459 0.33501092 2.0150003
0.20533811 0.33583337 2.0150001
0.21109524 0.33583337 2.0150001
0.22452858 0.3377524 2.0150001
0.23460358 0.33439407 2.0150001
0.24435875 0.33263496 2.0150003
0.19958097 0.34350955 2.0150001
0.20533812 0.34542859 2.0150003
0.21493335 0.34542859 2.0150001
0.22414477 0.34466097 2.0150001
0.2315651 0.34286985 2.0150001
0.076761909 0.4183524 2.0150001
0.086357147 0.4145143 2.0150001
0.095952392 0.41323495 2.0150001
0.10362858 0.41067621 2.0150001
0.13049524 0.41067621 2.0150001
-0.28018096 0.42986667 2.0150001
-0.27442384 0.42986667 2.0150001
-0.26866665 0.42602858 2.0150001
-0.2456381 0.42219052 2.0150001
-0.23412383 0.42219049 2.0150001
-0.22452858 0.42219049 2.0150001
-0.21493334 0.42219052 2.0150001
-0.20725715 0.42219049 2.0150001
-0.19574288 0.42219052 2.0150001
-0.18422858 0.42219052 2.0150001
-0.17271429 0.42219049 2.0150001
-0.1688762 0.42219049 2.0150001
-0.15352382 0.42602858 2.0150001
-0.14968573 0.42602858 2.0150001
-0.13433334 0.42986667 2.0150001
-0.1247381 0.42986667 2.0150001
-0.11514287 0.42986667 2.0150001
0.026866667 0.42986667 2.0150001
0.032623813 0.42986667 2.0150001
0.047976192 0.42986667 2.0150001
0.057571433 0.42986667 2.0150001
0.065247625 0.42410952 2.0150001
-0.294254 0.43498415 2.0150001
-0.28593811 0.43370476 2.0150001
-0.044138096 0.43562382 2.0150001
-0.034542859 0.43754286 2.0150001
-0.024947619 0.43754286 2.0150001
-0.015352381 0.43754286 2.0150001
-0.0076761907 0.43754286 2.0150001
0.0076761907 0.43370476 2.0150001
0.015352381 0.43370479 2.0150001
0.023028571 0.43370476 2.0150001
0.038380954 0.43370476 2.0150001
-0.30576825 0.44521904 2.0150001
-0.30704764 0.45481431 2.0150001
-0.3137643 0.46345004 2.0150001
-0.30704764 0.46057147 2.0150001
0.21621335 -0.015443811 2.0270002
0.22200477 -0.011582858 2.0270002
0.22490048 0.026061431 2.0270002
0.23455288 0.026061431 2.0270002
0.2451705 0.023165716 2.0270002
0.2509619 0.025096193 2.0270002
0.21621335 0.038609527 2.0270002
0.22393526 0.034197014 2.0270004
0.23551813 0.032818101 2.0270004
0.21621335 0.046331432 2.0270002
0.22470744 0.044787053 2.0270002
0.20752621 0.055018574 2.0270002
0.21428287 0.054053336 2.0270004
0.22393526 0.054053333 2.0270002
0.23165716 0.057914291 2.0270002
0.20463051 0.065636203 2.0270004
0.21428287 0.06370572 2.0270002
0.22393525 0.06370572 2.0270004
0.23165716 0.06370572 2.0270002
0.20270002 0.075288579 2.0270002
0.19690858 0.084940962 2.0270002
0.20231393 0.084168777 2.0270002
0.18918668 0.096523814 2.0270002
0.19433461 0.093949847 2.0270002
0.1872562 0.10424572 2.0270004
0.19304763 0.10038476 2.0270002
0.17760383 0.11968953 2.0270002
0.18532573 0.11582859 2.0270002
0.17760383 0.12355049 2.0270002
0.18339525 0.12548096 2.0270002
0.17760383 0.13513336 2.0270002
0.18243001 0.1341681 2.0270002
0.17760383 0.14478573 2.0270002
0.18146478 0.14285526 2.0270002
0.17502986 0.15443811 2.0270002
0.17374288 0.16602097 2.0270002
0.17374288 0.17567335 2.0270002
0.17374288 0.18146478 2.0270002
0.16859494 0.19562159 2.0270002
0.16216002 0.20463049 2.0270002
0.15829906 0.21428287 2.0270002
0.15443811 0.22393525 2.0270002
0.15829906 0.23551813 2.0270002
0.16216002 0.23937906 2.0270002
0.16216002 0.2451705 2.0270002
0.15829906 0.25675336 2.0270002
0.16216002 0.25482285 2.0270002
0.15829906 0.26447526 2.0270002
0.16216002 0.26640573 2.0270002
0.16216002 0.27412766 2.0270002
0.16216002 0.28571051 2.0270002
0.16216002 0.29536289 2.0270002
0.16312526 0.3059805 2.0270002
0.15829906 0.31273717 2.0270002
0.16602097 0.31466764 2.0270002
0.17374288 0.31659812 2.0270002
0.16891669 0.32335478 2.0270002
0.17374288 0.32625049 2.0270002
0.17631684 0.33332893 2.0270002
0.18436049 0.33879861 2.0270002
0.18789969 0.34491178 2.0270002
0.1949781 0.34555528 2.0270002
0.19690858 0.3513467 2.0270002
0.20463049 0.35392067 2.0270002
0.21428287 0.35520765 2.0270002
0.22200477 0.35520765 2.0270002
0.10810667 0.40926099 2.0270002
0.11196762 0.40926099 2.0270002
0.077219054 0.41698289 2.0270002
0.084940962 0.41505241 2.0270002
0.094593339 0.41312194 2.0270002
-0.27412766 0.42727876 2.0270002
-0.26511878 0.42599177 2.0270002
-0.25675336 0.42470479 2.0270002
-0.23551811 0.42470479 2.0270002
-0.20463049 0.42470479 2.0270002
-0.19304763 0.42084384 2.0270002
-0.18532573 0.42084384 2.0270002
-0.17760383 0.42084384 2.0270002
-0.16602097 0.42470479 2.0270002
-0.14478573 0.42856577 2.0270002
-0.13513336 0.4285658 2.0270002
-0.12548096 0.42856577 2.0270002
-0.11775906 0.42856577 2.0270002
0.015443812 0.4285658 2.0270002
0.025096193 0.42856577 2.0270002
0.032818101 0.42856577 2.0270002
0.057914291 0.42856577 2.0270002
0.067566678 0.42277431 2.0270002
0.073358104 0.42084384 2.0270002
-0.29536289 0.43242669 2.0270002
-0.28764099 0.43242669 2.0270002
-0.10424572 0.43242669 2.0270002
-0.094593339 0.43242669 2.0270002
-0.084940962 0.43242669 2.0270002
-0.073358104 0.43242669 2.0270002
-0.06370572 0.43242669 2.0270002
-0.053088099 0.43435717 2.0270002
-0.044400956 0.43435717 2.0270002
-0.034748577 0.4362877 2.0270002
-0.025096193 0.43628767 2.0270002
0.0038609528 0.43435717 2.0270002
0.015443811 0.43242669 2.0270002
0.023165716 0.43242669 2.0270002
0.038609527 0.43242669 2.0270002
0.042470481 0.43242669 2.0270002
0.054053336 0.43242669 2.0270002
-0.31273717 0.44787049 2.0270002
-0.30501527 0.44143558 2.0270002
-0.3137024 0.45655766 2.0270002
-0.32045907 0.46331432 2.0270002
-0.31659812 0.46331432 2.0270002
0.055983812 0.79921722 2.0270002
0.06370572 0.79921722 2.0270002
0.046331432 0.80307811 2.0270002
0.055983812 0.80307811 2.0270002
-0.31659812 0.8165915 2.0270002
0.057914291 0.81080008 2.0270002
0.06370572 0.81080008 2.0270002
-0.32689399 0.82366991 2.0270002
0.21360953 -0.015535238 2.039
0.22914477 -0.011651428 2.039
0.23302858 -0.011651428 2.039
0.22526096 -0.0077676191 2.039
0.22526096 0.019419048 2.039
0.23497048 0.019419046 2.039
0.24468002 0.019419048 2.039
0.25244763 0.019419046 2.039
0.20972572 0.025244761 2.039
0.21555144 0.025244763 2.039
0.22331905 0.023302857 2.039
0.23691238 0.023302857 2.039
0.24079619 0.023302857 2.039
0.20972572 0.034954287 2.039
0.21516307 0.034177523 2.039
0.22137713 0.034954283 2.039
0.19807428 0.046605714 2.039
0.20661867 0.045052189 2.039
0.21490413 0.04401651 2.039
0.22137713 0.042721905 2.039
0.19807428 0.054373335 2.039
0.20351163 0.053596575 2.039
0.19530015 0.066024765 2.039
0.20195809 0.062140953 2.039
0.1967797 0.076381586 2.039
0.19224858 0.085443817 2.039
0.18512826 0.095800638 2.039
0.19030666 0.093211427 2.039
0.17865524 0.10680477 2.039
0.18253905 0.10486286 2.039
0.17865524 0.11457238 2.039
0.18253905 0.11457238 2.039
0.17574239 0.12525286 2.039
0.17477146 0.13593334 2.039
0.17477144 0.14564286 2.039
0.17477144 0.15146858 2.039
0.17088762 0.17671335 2.039
0.16700381 0.18642285 2.039
0.17088762 0.18448095 2.039
0.16570921 0.19419049 2.039
0.17088762 0.19030666 2.039
0.15923619 0.2058419 2.039
0.15535237 0.21555144 2.039
0.15146858 0.22526096 2.039
0.15405777 0.23432319 2.039
0.15729427 0.24468 2.039
0.15664697 0.25374225 2.039
0.15535238 0.26409906 2.039
0.15729427 0.27575046 2.039
0.15794158 0.28481269 2.039
0.15729427 0.29516953 2.039
0.15729427 0.30487907 2.039
0.15794158 0.31458855 2.039
0.16312 0.31847239 2.039
0.15923619 0.32429808 2.039
0.16441461 0.32494542 2.039
0.15923619 0.33012381 2.039
0.16570921 0.3314184 2.039
0.17218225 0.33659682 2.039
0.1755482 0.34332877 2.039
0.18383364 0.3482483 2.039
0.075734288 0.41750956 2.039
0.083501905 0.41556764 2.039
0.10486286 0.4116838 2.039
-0.28351811 0.42721906 2.039
-0.27769238 0.42721906 2.039
-0.26021525 0.42333525 2.039
-0.25244763 0.42333525 2.039
-0.24468002 0.42333525 2.039
-0.23497048 0.42333525 2.039
-0.22526096 0.42333525 2.039
-0.21360953 0.42333525 2.039
-0.20195809 0.42333525 2.039
-0.19807428 0.42333525 2.039
-0.17282954 0.42333525 2.039
-0.16312 0.42721906 2.039
-0.15535238 0.42721909 2.039
-0.14564286 0.42721906 2.039
-0.13593332 0.42721909 2.039
-0.12428191 0.42721909 2.039
-0.11457238 0.42721906 2.039
0.017477142 0.42721906 2.039
0.025244761 0.42721906 2.039
0.033012379 0.42721906 2.039
0.058257144 0.42721906 2.039
0.064082861 0.42527717 2.039
-0.31070474 0.43887046 2.039
-0.30487907 0.43692857 2.039
-0.29516953 0.43110287 2.039
-0.28546 0.43110287 2.039
-0.11263048 0.43110287 2.039
-0.10486286 0.43110287 2.039
-0.097095244 0.43110287 2.039
-0.069908567 0.43498668 2.039
-0.054373335 0.43498668 2.039
-0.044663809 0.43304479 2.039
-0.034954287 0.43498668 2.039
-0.025244761 0.43498668 2.039
-0.015535238 0.43887049 2.039
-0.0058257142 0.43887046 2.039
0.0038838095 0.43498668 2.039
0.038838092 0.43110287 2.039
0.044663809 0.43110287 2.039
0.052431427 0.43110287 2.039
-0.31458855 0.44469619 2.039
-0.32235619 0.45828953 2.039
-0.31847239 0.45440575 2.039
-0.32429808 0.46411526 2.039
-0.023302857 0.65248001 2.039
-0.019419046 0.65248001 2.039
-0.069908567 0.6796667 2.039
-0.069908567 0.68355048 2.039
-0.21360953 0.77287811 2.039
-0.23497048 0.78841329 2.039
-0.052431427 0.78841329 2.039
0.075734288 0.78841329 2.039
-0.28351811 0.79618096 2.039
-0.27575046 0.79618096 2.039
-0.26332232 0.79462743 2.039
-0.25633144 0.79229712 2.039
-0.2427381 0.79229712 2.039
-0.23302858 0.79229712 2.039
-0.22720286 0.79229712 2.039
-0.054373335 0.79423904 2.039
0.058257144 0.79618096 2.039
0.066024765 0.79423904 2.039
0.075734288 0.79423904 2.039
-0.31264663 0.80783236 2.039
-0.28507161 0.80472535 2.039
-0.27575046 0.8010357 2.039
-0.26604098 0.80006474 2.039
-0.24403271 0.80524313 2.039
-0.2345821 0.80472535 2.039
-0.22785017 0.80265397 2.039
-0.20972572 0.80006474 2.039
-0.19807428 0.80589044 2.039
-0.05631524 0.80200666 2.039
0.044663809 0.80394852 2.039
0.052819807 0.80239505 2.039
0.066579595 0.80394858 2.039
0.075734288 0.80394858 2.039
0.082530953 0.80491948 2.039
-0.31264663 0.81560004 2.039
-0.30585003 0.81657094 2.039
-0.29128572 0.81559998 2.039
-0.28584838 0.81637681 2.039
-0.27575046 0.81754196 2.039
-0.26604098 0.8175419 2.039
-0.24468002 0.81171626 2.039
-0.19419049 0.81559998 2.039
0.045311116 0.81301087 2.039
0.053887852 0.81559998 2.0389998
0.066579595 0.81560004 2.039
0.07573428 0.81560004 2.039
0.082854606 0.81301087 2.039
-0.32235619 0.82725143 2.039
-0.31381178 0.8256979 2.039
-0.30682096 0.82530951 2.039
-0.28546 0.82530951 2.039
-0.27575046 0.82530951 2.039
-0.26409906 0.82530951 2.039
-0.25438952 0.82530951 2.039
-0.24856381 0.82530951 2.039
0.058257144 0.82530951 2.039
0.066024765 0.82530951 2.039
0.075086989 0.82466221 2.039
-0.3320657 0.83501905 2.039
-0.32429811 0.83501911 2.039
-0.31458855 0.83501911 2.0389998
-0.30487907 0.83501911 2.039
-0.29594633 0.83657259 2.039
-0.28740191 0.83501911 2.039
-0.27419695 0.83346558 2.039
-0.26458454 0.83453363 2.0389998
-0.25438952 0.83307719 2.039
-0.24856381 0.83307719 2.039
0.058257144 0.83113527 2.039
0.066801526 0.83268881 2.039
-0.32429808 0.84472859 2.039
-0.31458855 0.84472865 2.039
-0.30487907 0.84472859 2.039
-0.29905334 0.84278667 2.039
-0.30487907 0.85055429 2.039
-0.29905334 0.85055429 2.039
0.21682 -0.011720001 2.0510001
0.21877334 -0.0078133335 2.0510001
0.22463334 -0.0039066668 2.0510001
0.2344 -0.0058599999 2.0510001
0.21721068 0.0046879998 2.0510004
0.22463334 0.0039066672 2.0510004
0.23391166 0.0043950002 2.0510004
0.19924001 0.019533334 2.0510001
0.20575112 0.018231113 2.0510001
0.21486668 0.015626667 2.0510004
0.22463334 0.013673333 2.0510001
0.2344 0.013673334 2.0510004
0.19728668 0.025393333 2.0510001
0.2051 0.025393335 2.0510001
0.19728667 0.035160005 2.0510004
0.2051 0.035160005 2.0510004
0.19533335 0.044926669 2.0510001
0.20314668 0.042973336 2.0510001
0.18654335 0.055670001 2.0510001
0.19338 0.054693338 2.0510004
0.18556666 0.064460002 2.0510001
0.19142668 0.062506668 2.0510001
0.18556666 0.074226677 2.0510004
0.19240335 0.07422667 2.0510001
0.17840445 0.088551119 2.0510001
0.18556666 0.085946672 2.0510004
0.17775334 0.095713332 2.0510001
